# This PCD file was generated using the MATLABÂ® pcwrite function
# from Computer Vision ToolboxÂ®.
# .PCD v.7 - Point Cloud Data file format
VERSION .7
FIELDS x y z intensity
SIZE 4 4 4 4
TYPE F F F F
COUNT 1 1 1 1
WIDTH 1191
HEIGHT 1
VIEWPOINT 0 0 0 1 0 0 0
POINTS 1191
DATA ascii
416.146729 149.999496 0.779853 0.611826
416.146729 149.999496 0.426716 0.641489
416.146729 149.999496 0.070134 0.622217
415.246063 150.999786 -0.000010 0.580148
414.392426 151.947830 -0.000009 0.537285
416.105011 149.934937 4.661811 0.678431
416.105011 149.934937 4.295115 0.678431
416.105011 149.934937 3.933566 0.678431
416.105011 149.934952 3.576299 0.678431
416.047699 149.999496 3.212554 0.688930
416.047699 149.999496 2.864248 0.654231
416.047699 149.999496 2.517807 0.611765
416.047699 149.999496 2.172479 0.638056
416.047699 149.999496 1.827521 0.647379
416.047699 149.999496 1.482193 0.687129
416.047699 149.999496 1.135751 0.630060
416.047699 149.999496 0.787446 0.628031
416.047699 149.999496 0.436507 0.666712
416.047699 149.999496 0.082143 0.611765
415.197845 150.956696 -0.000010 0.519814
414.350891 151.910675 -0.000009 0.549950
416.006409 149.934937 4.645478 0.678431
416.006409 149.934937 4.281031 0.678431
416.006409 149.934937 3.921701 0.678431
416.006409 149.934952 3.566627 0.678431
415.949890 149.999496 3.205114 0.628077
415.949890 149.999496 2.858945 0.622858
415.949890 149.999496 2.514630 0.611765
415.949890 149.999496 2.171421 0.638056
415.949890 149.999496 1.828579 0.659434
415.949890 149.999496 1.485370 0.703670
415.949890 149.999496 1.141054 0.653422
415.949890 149.999496 0.794886 0.607263
415.949890 149.999496 0.446101 0.614038
415.949890 149.999496 0.093911 0.647059
415.149353 150.913940 -0.000010 0.531106
414.309082 151.873810 -0.000009 0.558755
415.909027 149.934937 4.629472 0.678431
415.909027 149.934937 4.267230 0.678431
415.909027 149.934937 3.910074 0.678431
415.897949 149.947784 3.554632 0.132692
415.853302 149.999496 3.197823 0.621134
415.853302 149.999496 2.853748 0.687007
415.853302 149.999496 2.511517 0.672511
415.853302 149.999496 2.170384 0.635981
415.853302 149.999496 1.829616 0.681285
415.853302 149.999496 1.488483 0.688090
415.853302 149.999496 1.146251 0.647059
415.853302 149.999496 0.802177 0.630335
415.853302 149.999496 0.455502 0.646555
415.853302 149.999496 0.105443 0.665827
415.100586 150.871536 -0.000010 0.520638
414.266998 151.837234 -0.000009 0.551263
415.812775 149.934937 4.613785 0.678431
415.812775 149.934937 4.253705 0.678431
415.812775 149.934937 3.898679 0.678431
415.766418 149.989426 3.537247 0.731334
415.757843 149.999496 3.190676 0.612726
415.757843 149.999496 2.848655 0.690196
415.757843 149.999496 2.508465 0.637964
415.757843 149.999496 2.169367 0.630549
415.757843 149.999496 1.830633 0.602121
415.757843 149.999496 1.491535 0.647608
415.757843 149.999496 1.151345 0.600748
415.757843 149.999496 0.809323 0.584421
415.757843 149.999496 0.464716 0.670481
415.757843 149.999496 0.116746 0.679805
415.051483 150.829468 -0.000010 0.610117
414.224670 151.800964 -0.000009 0.563943
415.717682 149.934937 4.598410 0.678431
415.717682 149.934937 4.240447 0.678431
415.717682 149.934937 3.887511 0.678431
415.671967 149.989426 3.528204 0.680888
415.663513 149.999496 3.183672 0.602914
415.663513 149.999496 2.843663 0.678431
415.663513 149.999496 2.505474 0.618265
415.663513 149.999496 2.168371 0.659144
415.663513 149.999496 1.831629 0.641123
415.663513 149.999496 1.494526 0.666667
415.663513 149.999496 1.156337 0.637552
415.663513 149.999496 0.816327 0.621851
415.663513 149.999496 0.473747 0.651148
415.663513 149.999496 0.127824 0.623529
415.002106 150.787735 -0.000010 0.511452
414.182098 151.764984 -0.000009 0.513527
415.623688 149.934937 4.583340 0.678431
415.623688 149.934937 4.227453 0.678431
415.623688 149.934937 3.876564 0.678431
415.578644 149.989426 3.519340 0.596475
415.570282 149.999496 3.176807 0.608469
415.570282 149.999496 2.838770 0.661524
415.570282 149.999496 2.502542 0.661067
415.570282 149.999496 2.167395 0.647059
415.570282 149.999496 1.832606 0.664134
415.570282 149.999496 1.497458 0.661265
415.570282 149.999496 1.161230 0.646281
415.570282 149.999496 0.823192 0.651682
415.570282 149.999496 0.482599 0.690196
415.570282 149.999496 0.138682 0.619852
414.952454 150.746353 -0.000010 0.539452
414.139282 151.729309 -0.000009 0.548562
415.530792 149.934937 4.568567 0.678431
415.530792 149.934937 4.214716 0.678431
415.530792 149.934937 3.865833 0.678431
415.486359 149.989426 3.510653 0.777447
415.478149 149.999496 3.170078 0.611765
415.478149 149.999496 2.833973 0.650248
415.478149 149.999496 2.499669 0.675425
415.478149 149.999496 2.166437 0.624750
415.478149 149.999496 1.833563 0.642832
415.478149 149.999496 1.500331 0.638788
415.478149 149.999496 1.166026 0.621271
415.478149 149.999496 0.829921 0.654902
415.478149 149.999496 0.491276 0.658549
415.478149 149.999496 0.149325 0.636347
414.902496 150.705322 -0.000010 0.527687
414.096191 151.693924 -0.000009 0.516289
415.438934 149.934937 4.554088 0.678431
415.438934 149.934937 4.202231 0.678431
415.438934 149.934937 3.855314 0.678431
415.395142 149.989426 3.502136 0.784634
415.387024 149.999496 3.163482 0.636820
415.387024 149.999496 2.829272 0.643259
415.387024 149.999496 2.496852 0.666667
415.387024 149.999496 2.165499 0.647059
415.387024 149.999496 1.834501 0.684749
415.387024 149.999496 1.503148 0.620310
415.387024 149.999496 1.170727 0.621271
415.387024 149.999496 0.836518 0.671580
415.387024 149.999496 0.499782 0.622385
415.387024 149.999496 0.159759 0.646555
414.852234 150.664627 -0.000010 0.546349
414.052887 151.658844 -0.000009 0.567407
415.348114 149.934937 4.539893 0.678431
415.348114 149.934937 4.189991 0.678431
415.348114 149.934937 3.845003 0.678431
415.304932 149.989426 3.493788 0.781491
415.296936 149.999496 3.157016 0.617136
415.296936 149.999496 2.824663 0.584527
415.296936 149.999496 2.494090 0.613626
415.296936 149.999496 2.164579 0.635477
415.296936 149.999496 1.835421 0.678340
415.296936 149.999496 1.505909 0.630671
415.296936 149.999496 1.175336 0.616861
415.296936 149.999496 0.842984 0.643168
415.296936 149.999496 0.508119 0.611765
415.296936 149.999496 0.169986 0.615442
414.801727 150.624298 -0.000010 0.486473
414.009308 151.624069 -0.000009 0.480751
415.258270 149.934937 4.525978 0.678431
415.258270 149.934937 4.177993 0.678431
415.258270 149.934937 3.834895 0.678431
415.215698 149.989426 3.485604 0.774166
415.207825 149.999496 3.150677 0.623529
415.207825 149.999496 2.820145 0.618433
415.207825 149.999496 2.491384 0.679927
415.207825 149.999496 2.163677 0.643290
415.207825 149.999496 1.836322 0.666712
415.207825 149.999496 1.508616 0.601236
415.207825 149.999496 1.179854 0.614404
415.207825 149.999496 0.849323 0.652964
415.207825 149.999496 0.516293 0.622339
415.207825 149.999496 0.180012 0.600122
414.750916 150.584320 -0.000010 0.483558
413.965515 151.589600 -0.000009 0.608026
415.169403 149.934937 4.512336 0.678431
415.169403 149.934937 4.166230 0.678431
415.169403 149.934937 3.824985 0.678431
415.127441 149.989426 3.477580 0.735409
415.119690 149.999496 3.144462 0.630152
415.119690 149.999496 2.815716 0.616342
415.119690 149.999496 2.488730 0.690196
415.119690 149.999496 2.162794 0.658412
415.119690 149.999496 1.837206 0.667948
415.119690 149.999496 1.511270 0.615763
415.119690 149.999496 1.184284 0.619318
415.119690 149.999496 0.855538 0.654643
415.119690 149.999496 0.524306 0.647059
415.119690 149.999496 0.189841 0.696544
414.699829 150.544693 -0.000010 0.567437
413.921478 151.555435 -0.000009 0.544244
415.081512 149.934937 4.498961 0.678431
415.081512 149.934937 4.154698 0.678431
415.081512 149.934937 3.815270 0.678431
415.040161 149.989426 3.469714 0.676722
415.032501 149.999496 3.138370 0.634073
415.032501 149.999496 2.811374 0.636378
415.032501 149.999496 2.486128 0.603922
415.032501 149.999496 2.161927 0.629557
415.032501 149.999496 1.838073 0.681132
415.032501 149.999496 1.513872 0.647059
415.032501 149.999496 1.188626 0.587381
415.032501 149.999496 0.861630 0.617090
415.032501 149.999496 0.532162 0.640024
415.032501 149.999496 0.199477 0.699306
414.648468 150.505432 -0.000010 0.560876
413.877197 151.521576 -0.000009 0.523949
414.961151 149.979553 4.471894 0.755169
414.961151 149.979553 4.131361 0.769924
414.961151 149.979553 3.795608 0.705486
414.946228 149.999496 3.460136 0.665675
414.946228 149.999496 3.132397 0.655085
414.946228 149.999496 2.807116 0.647059
414.946228 149.999496 2.483577 0.693446
414.946228 149.999496 2.161077 0.627832
414.946228 149.999496 1.838923 0.656367
414.946228 149.999496 1.516423 0.647059
414.946228 149.999496 1.192883 0.652873
414.946228 149.999496 0.867603 0.649363
414.946228 149.999496 0.539863 0.621332
414.946228 149.999496 0.208925 0.716518
414.596863 150.466522 -0.000010 0.481331
413.832672 151.488022 -0.000010 0.523812
414.897064 149.950394 4.468184 0.103700
414.897064 149.950394 4.128161 0.129412
414.908447 149.934952 3.796405 0.678431
414.860840 149.999496 3.452585 0.644343
414.860840 149.999496 3.126541 0.631891
414.860840 149.999496 2.802943 0.646326
414.860840 149.999496 2.481076 0.697124
414.860840 149.999496 2.160244 0.633967
414.860840 149.999496 1.839756 0.639521
414.860840 149.999496 1.518924 0.639521
414.860840 149.999496 1.197057 0.656046
414.860840 149.999496 0.873460 0.612985
414.860840 149.999496 0.547415 0.600595
414.860840 149.999496 0.218187 0.623789
414.544952 150.427979 -0.000010 0.546395
413.787903 151.454788 -0.000009 0.513863
414.823242 149.934952 4.460389 0.678431
414.823242 149.934952 4.121441 0.678431
414.823242 149.934952 3.787250 0.678431
414.776337 149.999496 3.445182 0.632532
414.776337 149.999496 3.120799 0.690959
414.776337 149.999496 2.798850 0.612726
414.776337 149.999496 2.478625 0.702022
414.776337 149.999496 2.159428 0.633967
414.776337 149.999496 1.840572 0.685603
414.776337 149.999496 1.521375 0.656001
414.776337 149.999496 1.201150 0.666117
414.776337 149.999512 0.879201 0.616129
414.776337 149.999496 0.554817 0.651896
414.776337 149.999496 0.227268 0.611765
414.492767 150.389801 -0.000010 0.542473
413.742950 151.421875 -0.000009 0.533944
414.738922 149.934952 4.448031 0.678431
414.738922 149.934952 4.110785 0.678431
414.738922 149.934952 3.778274 0.678431
414.692688 149.999496 3.437924 0.617670
414.692688 149.999496 3.115170 0.673472
414.692688 149.999496 2.794838 0.586358
414.692688 149.999496 2.476221 0.613931
414.692688 149.999496 2.158627 0.599054
414.692688 149.999496 1.841373 0.698283
414.692688 149.999496 1.523779 0.647059
414.692688 149.999496 1.205162 0.611765
414.692688 149.999512 0.884830 0.647059
414.692688 149.999496 0.562076 0.668162
414.692688 149.999496 0.236172 0.611765
414.440338 150.351974 -0.000011 0.538018
413.697723 151.389267 -0.000009 0.547234
414.634247 149.964951 4.426721 0.818799
414.634247 149.964951 4.092410 0.826993
414.655426 149.934952 3.769473 0.678431
414.609894 149.999496 3.430808 0.647059
414.609894 149.999496 3.109651 0.657603
414.609894 149.999496 2.790904 0.612818
414.609894 149.999496 2.473864 0.675853
414.609894 149.999496 2.157842 0.647715
414.609894 149.999496 1.842158 0.672450
414.609894 149.999496 1.526136 0.642832
414.609894 149.999496 1.209096 0.686519
414.609863 149.999512 0.890349 0.650568
414.609894 149.999496 0.569192 0.667857
414.609894 149.999496 0.244901 0.643870
414.387665 150.314529 -0.000010 0.541299
413.652283 151.356964 -0.000010 0.549203
414.534882 149.989426 4.407418 0.777508
414.534882 149.989426 4.075767 0.793271
414.534882 149.989426 3.748772 0.788815
414.527863 149.999496 3.423830 0.623377
414.527863 149.999496 3.104240 0.593256
414.527863 149.999496 2.787047 0.623499
414.527863 149.999496 2.471553 0.674998
414.527863 149.999496 2.157072 0.633967
414.527863 149.999496 1.842928 0.623529
414.527863 149.999496 1.528447 0.635431
414.527863 149.999496 1.212953 0.690074
414.527863 149.999496 0.895760 0.633371
414.527863 149.999496 0.576169 0.619593
414.527863 149.999496 0.253460 0.631067
414.334686 150.277451 -0.000011 0.540551
413.606628 151.324997 -0.000009 0.578286
414.446655 149.999512 4.392792 0.655818
414.446655 149.999496 4.063156 0.678019
414.446655 149.999496 3.738148 0.611765
414.446655 149.999496 3.416989 0.653666
414.446655 149.999496 3.098934 0.611765
414.446655 149.999496 2.783266 0.603189
414.446655 149.999496 2.469288 0.655085
414.446655 149.999496 2.156317 0.633967
414.446655 149.999496 1.843683 0.663539
414.446655 149.999496 1.530712 0.647059
414.446655 149.999496 1.216734 0.665125
414.446655 149.999512 0.901066 0.647059
414.446655 149.999496 0.583011 0.665019
414.446655 149.999496 0.261851 0.611765
414.281494 150.240738 -0.000010 0.534463
413.560730 151.293350 -0.000010 0.563867
414.366211 149.999512 4.381467 0.647059
414.366211 149.999496 4.053391 0.676661
414.366211 149.999496 3.729921 0.611765
414.366211 149.999496 3.410282 0.657633
414.366211 149.999496 3.093733 0.619760
414.366211 149.999496 2.779558 0.656291
414.366211 149.999496 2.467066 0.625650
414.366211 149.999496 2.155578 0.627787
414.366211 149.999496 1.844422 0.662120
414.366211 149.999496 1.532934 0.647059
414.366211 149.999496 1.220441 0.651759
414.366211 149.999512 0.906268 0.669047
414.366211 149.999496 0.589718 0.644572
414.366211 149.999496 0.270078 0.647059
414.227997 150.204407 -0.000010 0.522469
413.514648 151.262009 -0.000009 0.530373
412.971313 151.979065 3.775042 0.660121
412.971313 151.979065 3.530509 0.639323
412.971313 151.979065 3.289411 0.616648
412.971313 151.979050 3.051166 0.681498
412.874146 152.125290 2.795024 0.668605
412.971313 151.979034 2.581051 0.688930
414.286530 149.999496 2.464889 0.647425
414.286530 149.999496 2.154852 0.651713
414.286530 149.999496 1.845148 0.658030
414.286530 149.999496 1.535112 0.647059
414.286530 149.999496 1.224076 0.627817
414.286530 149.999512 0.911367 0.690562
414.286530 149.999496 0.596293 0.647211
414.286530 149.999496 0.278144 0.673045
414.174286 150.168442 -0.000011 0.576486
413.468323 151.231003 -0.000009 0.510765
412.872528 152.039658 3.748751 0.644541
412.872528 152.039658 3.507840 0.667491
412.872528 152.039658 3.270311 0.599573
412.872528 152.039658 3.035594 0.666255
412.816467 152.125351 2.791366 0.740063
412.872040 152.040436 2.572367 0.638926
414.207581 149.999496 2.462753 0.616587
414.207581 149.999496 2.154141 0.620203
414.207581 149.999496 1.845859 0.656489
414.207581 149.999496 1.537246 0.615930
414.207581 149.999512 1.227640 0.618021
414.207581 149.999512 0.916367 0.653284
414.207581 149.999496 0.602740 0.621408
414.207581 149.999496 0.286053 0.686275
414.120331 150.132858 -0.000010 0.558038
413.421783 151.200317 -0.000010 0.526848
412.814545 152.039658 3.740841 0.631174
412.814545 152.039658 3.501019 0.653468
412.814545 152.039658 3.264565 0.637552
412.814545 152.039658 3.030910 0.651972
412.759338 152.125320 2.787789 0.725200
412.815430 152.038315 2.569984 0.661646
414.129333 149.999496 2.460660 0.611475
414.129333 149.999496 2.153444 0.614710
414.129333 149.999496 1.846556 0.675532
414.129333 149.999496 1.539340 0.621149
414.129333 149.999496 1.231134 0.618021
414.129333 149.999512 0.921269 0.682963
414.129333 149.999496 0.609061 0.639887
414.129333 149.999496 0.293806 0.686610
414.066101 150.097641 -0.000010 0.526238
413.375031 151.169968 -0.000010 0.530297
412.757080 152.039658 3.733086 0.631968
412.757080 152.039658 3.494332 0.644327
412.757080 152.039658 3.258931 0.617136
412.757080 152.039658 3.026318 0.661295
412.702728 152.125305 2.784282 0.670192
412.759277 152.036240 2.567647 0.626719
414.051819 149.999496 2.458608 0.649836
414.051819 149.999496 2.152760 0.642618
414.051819 149.999496 1.847240 0.665888
414.051819 149.999496 1.541392 0.588830
414.051819 149.999512 1.234559 0.609506
414.051819 149.999512 0.926075 0.682414
414.051819 149.999496 0.615257 0.633646
414.051819 149.999496 0.301407 0.693080
414.011627 150.062805 -0.000011 0.559304
413.328064 151.139923 -0.000009 0.541070
412.700134 152.039658 3.725484 0.627176
412.700134 152.039658 3.487777 0.674403
412.700134 152.039658 3.253409 0.623880
412.700134 152.039658 3.021815 0.629572
412.646576 152.125351 2.780835 0.739590
412.703552 152.034195 2.565355 0.639338
413.974976 149.999496 2.456596 0.660792
413.974976 149.999496 2.152090 0.613031
413.974976 149.999496 1.847910 0.674083
413.974976 149.999496 1.543404 0.617853
413.974976 149.999512 1.237917 0.611765
413.974976 149.999512 0.930786 0.698222
413.974976 149.999512 0.621332 0.633646
413.974976 149.999496 0.308858 0.665934
413.956940 150.028366 -0.000011 0.574731
413.280914 151.110229 -0.000010 0.555825
412.649811 152.029678 3.720964 0.763363
412.649811 152.029678 3.483881 0.761181
412.649811 152.029694 3.250125 0.768322
412.649811 152.029678 3.019139 0.658701
412.590973 152.125336 2.777465 0.753643
412.648254 152.032196 2.563106 0.618784
413.898773 149.999496 2.454624 0.676158
413.898773 149.999496 2.151433 0.613901
413.898773 149.999496 1.848567 0.678431
413.898773 149.999496 1.545376 0.616495
413.898773 149.999512 1.241209 0.601526
413.898773 149.999512 0.935404 0.705455
413.898773 149.999496 0.627286 0.642191
413.898773 149.999496 0.316163 0.611765
413.901978 149.994293 -0.000011 0.536568
413.233521 151.080856 -0.000009 0.514733
412.593719 152.029678 3.713646 0.720150
412.593719 152.029678 3.477571 0.721370
412.593719 152.029678 3.244809 0.748760
412.593719 152.029678 3.014805 0.720928
412.535828 152.125320 2.774162 0.763897
412.593414 152.030228 2.560899 0.635554
412.696899 151.859314 2.345875 0.630976
412.696899 151.859314 2.115209 0.609689
412.696899 151.859314 1.884791 0.558968
412.696899 151.859314 1.654125 0.706798
412.696899 151.859314 1.422717 0.667338
412.696899 151.859314 1.190062 0.696788
412.696899 151.859314 0.955649 0.683558
412.696899 151.859314 0.718948 0.639200
412.696899 151.859314 0.479411 0.661585
412.696899 151.859314 0.236462 0.639414
412.561340 151.990753 3.717824 0.129412
412.545258 152.017700 3.474398 0.748302
412.545258 152.017700 3.242136 0.757137
412.540161 152.026291 3.011143 0.807843
412.481110 152.125351 2.770917 0.749691
412.538940 152.028305 2.558735 0.645335
412.635590 151.866196 2.344033 0.674952
412.635590 151.866196 2.114596 0.704662
412.635590 151.866196 1.885404 0.655879
412.635590 151.866196 1.655967 0.634760
412.635590 151.866196 1.425791 0.709804
412.635590 151.866196 1.194376 0.694453
412.635590 151.866196 0.961210 0.647059
412.635590 151.866196 0.725770 0.594644
412.635590 151.866196 0.487508 0.588464
412.635590 151.866196 0.245853 0.591943
412.514954 151.975204 3.715262 0.678431
412.490021 152.017700 3.468323 0.730388
412.490021 152.017700 3.237018 0.796887
412.483002 152.029678 3.006393 0.628702
412.426880 152.125336 2.767743 0.715816
412.484894 152.026413 2.556612 0.613947
412.585571 151.854843 2.343262 0.641459
412.585571 151.854843 2.114339 0.635508
412.585571 151.854843 1.885661 0.643549
412.585571 151.854843 1.656738 0.695994
412.585571 151.854843 1.427077 0.709804
412.585571 151.854843 1.196180 0.709804
412.585571 151.854843 0.963538 0.691417
412.585571 151.854843 0.728624 0.643153
412.585571 151.854843 0.490896 0.651072
412.585571 151.854843 0.249782 0.638682
412.459747 151.975204 3.708307 0.678431
412.435211 152.017700 3.462368 0.774975
412.435211 152.017700 3.232002 0.757885
412.428284 152.029678 3.002312 0.718898
412.373077 152.125320 2.764632 0.720485
412.431244 152.024567 2.554531 0.610590
412.545044 151.827499 2.343422 0.683833
412.545044 151.827499 2.114392 0.599405
412.545044 151.827499 1.885608 0.635081
412.545044 151.827499 1.656578 0.651102
412.545044 151.827499 1.426811 0.663355
412.545044 151.827484 1.195806 0.697673
412.545044 151.827484 0.963055 0.651774
412.545044 151.827484 0.728033 0.639261
412.545044 151.827484 0.490193 0.678111
412.545044 151.827484 0.248967 0.625101
412.404999 151.975204 3.701490 0.678431
412.380859 152.017700 3.456533 0.766842
412.380859 152.017700 3.227086 0.733288
412.374054 152.029694 2.998313 0.719799
412.319702 152.125336 2.761578 0.702586
412.377991 152.022736 2.552490 0.598047
412.513733 151.783798 2.344520 0.666224
412.513733 151.783798 2.114758 0.666194
412.513733 151.783798 1.885242 0.591302
412.513733 151.783798 1.655480 0.718791
412.513733 151.783798 1.424978 0.634318
412.513733 151.783798 1.193235 0.693965
412.513733 151.783798 0.959740 0.704692
412.513733 151.783798 0.723966 0.592676
412.513733 151.783798 0.485366 0.611765
412.513733 151.783798 0.243368 0.660624
412.350677 151.975204 3.694810 0.678431
412.326904 152.017700 3.450815 0.719173
412.326904 152.017700 3.222268 0.715816
412.320221 152.029694 2.994393 0.738888
412.266754 152.125320 2.758590 0.698955
412.325104 152.020966 2.550488 0.635630
412.499878 151.708206 2.347422 0.645182
412.499878 151.708206 2.115725 0.593179
412.499878 151.708206 1.884275 0.700801
412.499878 151.708206 1.652578 0.630991
412.499878 151.708206 1.420134 0.683085
412.499878 151.708206 1.186439 0.639643
412.499878 151.708206 0.950977 0.675914
412.499878 151.708206 0.713217 0.670176
412.499878 151.708206 0.472607 0.675242
412.499878 151.708206 0.228571 0.632609
412.296753 151.975204 3.688264 0.678431
412.273407 152.017700 3.445211 0.763729
412.273407 152.017700 3.217548 0.768383
412.266815 152.029694 2.990553 0.720302
412.214233 152.125336 2.755657 0.726040
412.272583 152.019211 2.548525 0.647135
413.382904 149.999496 2.441872 0.641276
413.382904 149.999496 2.147186 0.623804
413.382904 149.999496 1.852815 0.675761
413.382904 149.999512 1.558128 0.699535
413.382904 149.999512 1.262492 0.651957
413.382904 149.999496 0.965265 0.633799
413.382904 149.999496 0.665790 0.682536
413.382904 149.999496 0.363393 0.654902
413.382904 149.999496 0.057372 0.653834
412.703217 151.235886 0.100406 0.568551
412.243256 151.975204 3.681850 0.678431
412.220276 152.017715 3.439720 0.718456
412.220276 152.017715 3.212922 0.755505
412.213806 152.029694 2.986789 0.663371
412.162109 152.125320 2.752789 0.741878
412.220398 152.017502 2.546601 0.617227
413.311523 149.999496 2.440193 0.605081
413.311523 149.999496 2.146626 0.633555
413.311523 149.999496 1.853374 0.616861
413.311523 149.999512 1.559807 0.690196
413.311523 149.999512 1.265294 0.591653
413.311523 149.999512 0.969196 0.588983
413.311523 149.999512 0.670859 0.698161
413.311523 149.999496 0.369610 0.607538
413.311523 149.999496 0.064752 0.619928
412.656708 151.210556 0.100407 0.567697
412.161224 152.029694 3.660112 0.673838
412.167572 152.017715 3.434341 0.793362
412.167572 152.017715 3.208390 0.699458
412.161224 152.029694 2.983102 0.662043
412.110352 152.125320 2.749976 0.738109
412.168579 152.015823 2.544714 0.614679
413.240692 149.999496 2.438549 0.628992
413.240692 149.999496 2.146079 0.613275
413.240692 149.999496 1.853922 0.709194
413.240692 149.999512 1.561452 0.699229
413.240692 149.999512 1.268039 0.612070
413.240692 149.999512 0.973047 0.647059
413.240692 149.999496 0.675825 0.644358
413.240692 149.999496 0.375702 0.687129
413.240692 149.999496 0.071983 0.625559
412.610046 151.185532 0.100406 0.576623
412.109009 152.029694 3.654012 0.717128
412.115265 152.017715 3.429071 0.789471
412.115265 152.017715 3.203950 0.724849
412.109009 152.029694 2.979490 0.671519
412.058990 152.125336 2.747220 0.718257
412.117126 152.014175 2.542865 0.636606
413.170349 149.999496 2.436938 0.636667
413.170349 149.999496 2.145542 0.642191
413.170349 149.999496 1.854458 0.678431
413.170349 149.999512 1.563063 0.644572
413.170349 149.999512 1.270728 0.651484
413.170349 149.999512 0.976820 0.622568
413.170349 149.999496 0.680690 0.638285
413.170349 149.999496 0.381670 0.674205
413.170349 149.999496 0.079067 0.641917
412.563232 151.160843 0.100406 0.558633
412.057159 152.029678 3.648038 0.793835
412.063324 152.017715 3.423909 0.742321
412.063324 152.017715 3.199601 0.758907
412.057159 152.029694 2.975952 0.776989
412.008026 152.125320 2.744521 0.713237
412.065979 152.012558 2.541053 0.643244
413.100555 149.999496 2.435359 0.632166
413.100555 149.999496 2.145016 0.613275
413.100555 149.999496 1.854984 0.692470
413.100555 149.999512 1.564641 0.672328
413.100555 149.999512 1.273363 0.611765
413.100555 149.999496 0.980516 0.623896
413.100555 149.999496 0.685456 0.619577
413.100555 149.999496 0.387516 0.666667
413.100555 149.999496 0.086005 0.617975
412.516235 151.136475 0.100406 0.566140
412.005707 152.029678 3.642186 0.802380
412.011780 152.017715 3.418853 0.755917
412.011780 152.017715 3.195341 0.766506
412.005707 152.029678 2.972487 0.784970
411.957397 152.125320 2.741877 0.740444
412.015167 152.010986 2.539277 0.641108
413.031250 149.999496 2.433813 0.617517
413.031219 149.999496 2.144501 0.616571
413.031219 149.999496 1.855499 0.649119
413.031219 149.999512 1.566187 0.651423
413.031219 149.999496 1.275943 0.622934
413.031219 149.999512 0.984136 0.643549
413.031219 149.999496 0.690124 0.601709
413.031219 149.999496 0.393242 0.622797
413.031250 149.999496 0.092801 0.660929
412.469055 151.112442 0.100406 0.565316
411.954620 152.029678 3.636455 0.797681
411.960571 152.017715 3.413901 0.759075
411.960571 152.017715 3.191170 0.729412
411.954620 152.029678 2.969093 0.776471
411.907135 152.125320 2.739288 0.713054
411.964661 152.009430 2.537537 0.663615
412.967407 149.989441 2.432851 0.700435
412.967407 149.989441 2.144181 0.745907
412.967407 149.989441 1.855819 0.743282
412.967102 149.990067 1.567183 0.680415
412.962402 149.999512 1.278470 0.611765
412.962402 149.999512 0.987682 0.667781
412.962402 149.999496 0.694695 0.616358
412.962402 149.999496 0.398849 0.686992
412.962402 149.999496 0.099457 0.665721
412.421722 151.088730 0.100406 0.617395
411.903870 152.029678 3.630843 0.789471
411.909698 152.017715 3.409052 0.746715
411.909698 152.017715 3.187084 0.743572
411.903870 152.029678 2.965770 0.781430
411.857239 152.125320 2.736753 0.667399
411.914490 152.007919 2.535832 0.618875
412.898956 149.989441 2.431367 0.784314
412.898956 149.989441 2.143686 0.723918
412.898956 149.989441 1.856314 0.732464
412.899353 149.988647 1.568590 0.677302
412.894043 149.999512 1.280944 0.618708
412.894043 149.999496 0.991153 0.615808
412.894043 149.999496 0.699172 0.604471
412.894043 149.999496 0.404340 0.635843
412.894073 149.999496 0.105975 0.624033
412.374207 151.065353 0.100406 0.639750
411.853485 152.029678 3.625349 0.803983
411.859222 152.017715 3.404304 0.764569
411.859222 152.017715 3.183085 0.751980
411.853485 152.029678 2.962516 0.781430
411.807648 152.125336 2.734270 0.692226
411.864624 152.006439 2.534162 0.582300
412.830994 149.989441 2.429913 0.784085
412.857086 149.934967 2.144191 0.678431
412.857086 149.934967 1.855809 0.678431
412.830994 149.989441 1.570086 0.717983
412.826172 149.999512 1.283367 0.649882
412.826172 149.999512 0.994552 0.643961
412.826172 149.999496 0.703554 0.604471
412.826172 149.999496 0.409716 0.611765
412.826172 149.999496 0.112357 0.703746
412.326538 151.042313 0.100406 0.604028
411.803406 152.029678 3.619970 0.796078
411.809052 152.017715 3.399657 0.706920
411.809052 152.017715 3.179169 0.743282
411.803406 152.029678 2.959331 0.781521
411.758392 152.125336 2.731840 0.694163
411.815033 152.004974 2.532526 0.586023
412.763489 149.989441 2.428490 0.788449
412.789124 149.934967 2.143713 0.678431
412.789124 149.934967 1.856287 0.678431
412.763489 149.989441 1.571509 0.700984
412.758728 149.999512 1.285738 0.638117
412.758728 149.999512 0.997880 0.647059
412.758728 149.999496 0.707845 0.645777
412.758728 149.999496 0.414979 0.611765
412.758728 149.999496 0.118604 0.691997
412.278717 151.019608 0.100406 0.572519
411.753662 152.029678 3.614705 0.779889
411.753662 152.029678 3.392259 0.780636
411.753662 152.029678 3.172937 0.793957
411.753662 152.029678 2.956213 0.777996
411.709473 152.125336 2.729461 0.687999
411.765747 152.003555 2.530924 0.606973
412.696411 149.989441 2.427098 0.784314
412.721558 149.934967 2.143246 0.678431
412.721558 149.934967 1.856754 0.678431
412.696411 149.989441 1.572902 0.734737
412.691742 149.999512 1.288060 0.601862
412.691742 149.999512 1.001137 0.632166
412.691742 149.999512 0.712045 0.586023
412.691742 149.999512 0.420131 0.557107
412.691742 149.999496 0.124719 0.657008
412.230743 150.997223 0.100406 0.485832
411.704254 152.029678 3.609551 0.784314
411.704529 152.029099 3.387954 0.754055
411.704529 152.029099 3.169310 0.781064
411.704254 152.029694 2.953161 0.779782
411.660858 152.125320 2.727134 0.688441
411.716736 152.002151 2.529355 0.593210
412.629761 149.989441 2.425735 0.776471
412.654449 149.934967 2.142789 0.678431
412.654449 149.934967 1.857211 0.678431
412.629761 149.989441 1.574265 0.709041
412.625183 149.999512 1.290332 0.657435
412.625183 149.999496 1.004324 0.639338
412.625183 149.999496 0.716155 0.624247
412.625183 149.999496 0.425172 0.636027
412.625183 149.999496 0.130703 0.624170
412.182587 150.975189 0.100406 0.564721
411.655151 152.029694 3.604509 0.780209
411.660492 152.017700 3.386300 0.770138
411.660492 152.017700 3.167917 0.760342
411.655151 152.029694 2.950175 0.785168
411.612549 152.125336 2.724854 0.705272
411.668030 152.000793 2.527820 0.641443
412.563538 149.989441 2.424401 0.784817
412.587769 149.934967 2.142342 0.678431
412.587769 149.934967 1.857658 0.678431
412.563538 149.989441 1.575598 0.725673
412.559052 149.999512 1.292555 0.655314
412.559052 149.999512 1.007444 0.658122
412.559052 149.999512 0.720177 0.589227
412.559052 149.999496 0.430106 0.635142
412.559052 149.999496 0.136559 0.639979
412.134308 150.953491 0.100406 0.575204
411.606354 152.029694 3.599576 0.784039
411.611572 152.017700 3.382039 0.724971
411.611572 152.017700 3.164326 0.740246
411.606354 152.029694 2.947254 0.794659
411.564575 152.125320 2.722628 0.759747
411.619568 151.999451 2.526317 0.626749
412.497711 149.989441 2.423097 0.779507
412.521515 149.934967 2.141904 0.678431
412.521515 149.934967 1.858096 0.678431
412.497711 149.989441 1.576903 0.779110
412.493317 149.999496 1.294730 0.666667
412.493317 149.999496 1.010495 0.644175
412.493317 149.999512 0.724111 0.580392
412.493317 149.999496 0.434932 0.645594
412.493317 149.999496 0.142287 0.617975
412.085876 150.932114 0.100405 0.590692
411.557831 152.029694 3.594750 0.799420
411.562988 152.017700 3.377870 0.729137
411.562988 152.017700 3.160814 0.727916
411.557831 152.029694 2.944396 0.801038
411.516846 152.125320 2.720449 0.713970
411.571350 151.998138 2.524845 0.653819
412.432281 149.989441 2.421820 0.780011
412.455658 149.934967 2.141476 0.678431
412.455658 149.934967 1.858524 0.678431
412.432312 149.989441 1.578180 0.805859
412.427979 149.999512 1.296858 0.580392
412.427979 149.999512 1.013480 0.658915
412.427979 149.999512 0.727960 0.580392
412.427979 149.999496 0.439653 0.625757
412.427979 149.999496 0.147891 0.675364
412.037262 150.911087 0.100405 0.598825
411.509644 152.029694 3.590031 0.765515
411.514679 152.017700 3.373792 0.732525
411.514679 152.017700 3.157379 0.758907
411.509644 152.029678 2.941602 0.780560
411.469421 152.125336 2.718315 0.706706
411.523438 151.996857 2.523407 0.641474
412.367279 149.989441 2.420572 0.784054
412.390167 149.934967 2.141057 0.678431
412.390167 149.934967 1.858943 0.678431
412.367279 149.989441 1.579428 0.792950
412.363037 149.999512 1.298938 0.666407
412.363037 149.999496 1.016399 0.654353
412.363037 149.999512 0.731724 0.625177
412.363037 149.999496 0.444270 0.652079
412.363037 149.999496 0.153372 0.627253
411.988525 150.890411 0.100407 0.612375
411.461700 152.029694 3.585417 0.722484
411.466644 152.017700 3.369806 0.761654
411.466644 152.017700 3.154021 0.737423
411.461700 152.029678 2.938869 0.795605
411.422272 152.125320 2.716232 0.707958
411.475739 151.995605 2.521999 0.674784
412.302643 149.989441 2.419351 0.784436
412.325073 149.934967 2.140648 0.678431
412.325073 149.934967 1.859352 0.678431
412.302643 149.989441 1.580648 0.770138
412.298492 149.999512 1.300972 0.702159
412.298492 149.999512 1.019253 0.681743
412.298492 149.999512 0.735404 0.627482
412.298492 149.999512 0.448785 0.622934
412.298492 149.999496 0.158731 0.676097
411.939667 150.870087 0.100411 0.634928
411.414032 152.029694 3.580906 0.584436
411.418884 152.017700 3.365909 0.734615
411.418884 152.017700 3.150738 0.758221
411.414032 152.029678 2.936198 0.782635
411.375397 152.125351 2.714192 0.708217
411.428314 151.994385 2.520622 0.642847
412.238342 149.989441 2.418159 0.779507
412.260376 149.934967 2.140248 0.678431
412.260376 149.934967 1.859752 0.678431
412.238342 149.989441 1.581841 0.790845
412.234283 149.999512 1.302961 0.688075
412.234283 149.999512 1.022044 0.653742
412.234283 149.999512 0.739002 0.656641
412.234283 149.999512 0.453198 0.590341
412.234283 149.999496 0.163969 0.658137
411.890625 150.850082 0.100411 0.618006
411.366638 152.029694 3.576498 0.723003
411.371399 152.017700 3.362100 0.721874
411.371399 152.017700 3.147529 0.735958
411.366638 152.029678 2.933588 0.782559
411.328796 152.125320 2.712203 0.682948
411.381104 151.993179 2.519276 0.606638
412.174438 149.989441 2.416992 0.776471
412.196014 149.934967 2.139857 0.678431
412.196014 149.934967 1.860143 0.678431
412.174438 149.989441 1.583007 0.763378
412.170471 149.999512 1.304905 0.666667
412.170471 149.999512 1.024771 0.698039
412.170471 149.999512 0.742518 0.672312
412.170471 149.999512 0.457512 0.712993
412.170471 149.999512 0.169089 0.616266
411.841492 150.830414 0.100409 0.596658
411.320404 152.027435 3.572797 0.751385
411.324158 152.017700 3.358378 0.723003
411.324158 152.017700 3.144393 0.747189
411.319519 152.029678 2.931037 0.736492
411.282410 152.125351 2.710253 0.676173
411.334137 151.992020 2.517960 0.673167
412.110870 149.989441 2.415853 0.776471
412.132019 149.934967 2.139475 0.678431
412.132019 149.934967 1.860525 0.678431
412.110901 149.989441 1.584146 0.784314
412.106995 149.999512 1.306804 0.630655
412.106995 149.999512 1.027435 0.698116
412.106995 149.999496 0.745954 0.615808
412.106995 149.999496 0.461726 0.653437
412.106995 149.999496 0.174091 0.624262
411.792206 150.811066 0.100402 0.594659
411.274017 152.026062 3.568955 0.728344
411.277191 152.017700 3.354743 0.710582
411.277191 152.017700 3.141331 0.754314
411.272644 152.029678 2.928545 0.758526
411.236328 152.125336 2.708354 0.703243
411.287384 151.990875 2.516674 0.647059
412.047668 149.989441 2.414740 0.776471
412.068359 149.934967 2.139102 0.678431
412.068359 149.934967 1.860898 0.678431
412.047668 149.989441 1.585260 0.801221
412.043854 149.999512 1.308659 0.676966
412.043854 149.999512 1.030038 0.692699
412.043854 149.999512 0.749310 0.675181
412.043854 149.999512 0.465843 0.674800
412.043854 149.999496 0.178978 0.647059
411.742798 150.792053 0.100390 0.600809
411.230469 152.017700 3.567076 0.771786
411.230469 152.017700 3.351192 0.722332
411.230469 152.017700 3.138340 0.735515
411.226013 152.029678 2.926112 0.678355
411.190460 152.125320 2.706500 0.706127
411.240875 151.989746 2.515418 0.652888
411.984802 149.989441 2.413653 0.776471
412.005035 149.934967 2.138737 0.678431
412.005035 149.934967 1.861263 0.678431
411.984802 149.989441 1.586347 0.776471
411.981049 149.999512 1.310471 0.702861
411.981049 149.999512 1.032580 0.698924
411.981049 149.999496 0.752588 0.666667
411.981049 149.999512 0.469864 0.683314
411.981049 149.999512 0.183750 0.655116
411.693237 150.773361 0.100373 0.617548
411.183990 152.017700 3.563056 0.749950
411.183990 152.017700 3.347726 0.730465
411.183990 152.017700 3.135419 0.735409
411.179657 152.029678 2.923736 0.685603
411.144836 152.125351 2.704683 0.738476
411.194580 151.988663 2.514191 0.654093
411.922241 149.989441 2.412592 0.776471
411.942047 149.934967 2.138381 0.678431
411.942047 149.934967 1.861619 0.678431
411.922241 149.989441 1.587408 0.776684
411.918579 149.999496 1.312240 0.690501
411.918579 149.999512 1.035062 0.647547
411.918579 149.999512 0.755788 0.677028
411.918579 149.999512 0.473789 0.647059
411.918579 149.999496 0.188409 0.665431
411.643494 150.755295 0.100434 0.618875
411.137756 152.017700 3.559133 0.745022
411.137756 152.017700 3.344343 0.729229
411.137756 152.017700 3.132569 0.726055
411.133484 152.029678 2.921417 0.723964
411.099426 152.125336 2.702917 0.739910
411.148468 151.987595 2.512993 0.675242
411.859985 149.989441 2.411556 0.776471
411.879395 149.934967 2.138034 0.678431
411.879395 149.934967 1.861966 0.678431
411.859985 149.989441 1.588443 0.776333
411.856415 149.999512 1.313967 0.690639
411.856415 149.999512 1.037484 0.717922
411.856415 149.999496 0.758911 0.667643
411.856415 149.999496 0.477620 0.677745
411.856415 149.999512 0.192957 0.686046
411.593689 150.737305 0.100416 0.639231
411.091736 152.017700 3.555304 0.754711
411.091736 152.017700 3.341042 0.743191
411.091736 152.017700 3.129788 0.767071
411.057800 152.115219 2.905719 0.673259
411.054260 152.125320 2.701193 0.714275
411.102600 151.986557 2.511824 0.586923
411.798065 149.989441 2.410546 0.776471
411.817047 149.934967 2.137695 0.678431
411.817047 149.934967 1.862305 0.678431
411.798065 149.989441 1.589454 0.776471
411.794556 149.999512 1.315651 0.629038
411.794556 149.999496 1.039847 0.677882
411.794556 149.999512 0.761959 0.614038
411.794556 149.999512 0.481358 0.674617
411.794556 149.999512 0.197394 0.628946
411.543793 150.719620 0.100390 0.599908
411.045959 152.017700 3.551570 0.762753
411.045959 152.017700 3.337822 0.705119
411.045959 152.017700 3.127076 0.758679
411.011414 152.119217 2.902918 0.665934
411.009308 152.125351 2.699505 0.705547
411.056915 151.985535 2.510683 0.661112
411.736450 149.989441 2.409560 0.776471
411.754974 149.934967 2.137364 0.678431
411.754974 149.934967 1.862636 0.678431
411.736450 149.989441 1.590440 0.790707
411.733002 149.999512 1.317294 0.651743
411.733002 149.999512 1.042153 0.652033
411.733002 149.999496 0.764931 0.683635
411.733002 149.999512 0.485004 0.668223
411.733002 149.999496 0.201722 0.700114
411.493774 150.702255 0.100358 0.623346
411.000397 152.017700 3.547929 0.723262
411.000397 152.017700 3.334683 0.737530
411.000397 152.017700 3.124431 0.683452
410.965790 152.121735 2.900406 0.729244
410.964569 152.125336 2.697866 0.722469
411.011414 151.984558 2.509570 0.668833
411.675110 149.989441 2.408599 0.714961
411.693207 149.934967 2.137042 0.678431
411.693207 149.934967 1.862958 0.678431
411.675110 149.989441 1.591401 0.794797
411.671753 149.999512 1.318896 0.617945
411.671753 149.999512 1.044401 0.668177
411.671753 149.999512 0.767830 0.638819
411.671753 149.999512 0.488560 0.654215
411.671753 149.999496 0.205942 0.677897
411.443481 150.685699 0.100444 0.659144
410.955017 152.017700 3.544380 0.782315
410.955017 152.017700 3.331622 0.731533
410.955017 152.017700 3.121853 0.690715
410.920990 152.122421 2.898234 0.715740
410.920044 152.125320 2.696268 0.693446
410.966095 151.983582 2.508485 0.773358
411.614044 149.989441 2.407662 0.714290
411.631744 149.934967 2.136727 0.678431
411.631744 149.934967 1.863272 0.678431
411.614044 149.989441 1.592338 0.795895
411.610779 149.999512 1.320458 0.617548
411.610779 149.999512 1.046592 0.601511
411.610779 149.999512 0.770655 0.672267
411.610779 149.999496 0.492025 0.631785
411.610779 149.999512 0.210056 0.667536
411.393250 150.669022 0.100405 0.630289
410.909851 152.017700 3.540922 0.743053
410.909851 152.017700 3.328641 0.733440
410.909851 152.017700 3.119341 0.756207
410.875763 152.125244 2.895785 0.648920
410.875702 152.125366 2.694704 0.685664
410.920990 151.982635 2.507427 0.680888
411.553284 149.989441 2.406750 0.667948
411.570557 149.934967 2.136422 0.678431
411.570557 149.934967 1.863579 0.678431
411.553284 149.989441 1.593250 0.796078
411.550079 149.999512 1.321979 0.594553
411.550079 149.999512 1.048726 0.636454
411.550079 149.999512 0.773407 0.622522
411.550079 149.999496 0.495401 0.655436
411.550079 149.999512 0.214063 0.690349
411.342896 150.652649 0.100356 0.620386
410.864899 152.017700 3.537555 0.718578
410.864899 152.017700 3.325737 0.733822
410.864899 152.017700 3.116895 0.761883
410.831604 152.125320 2.893814 0.699687
410.831604 152.125336 2.693188 0.708217
410.882294 151.961548 2.508129 0.662379
411.492767 149.989441 2.405861 0.723430
411.509613 149.934967 2.136123 0.678431
411.509613 149.934967 1.863877 0.678431
411.492767 149.989441 1.594139 0.784802
411.489655 149.999512 1.323461 0.642893
411.489655 149.999512 1.050805 0.609491
411.489655 149.999512 0.776088 0.642634
411.489655 149.999512 0.498689 0.625406
411.489655 149.999512 0.217966 0.630579
411.292236 150.637207 0.100459 0.632380
410.820129 152.017700 3.534276 0.758251
410.820129 152.017700 3.322911 0.703075
410.820129 152.017700 3.114513 0.754696
410.787628 152.125397 2.891896 0.709651
410.787659 152.125320 2.691713 0.700984
410.840912 151.948898 2.508129 0.655116
411.432526 149.989441 2.404995 0.739254
411.448975 149.934967 2.135833 0.678431
411.448975 149.934967 1.864167 0.678431
411.432526 149.989441 1.595005 0.796078
411.429474 149.999512 1.324903 0.647059
411.429474 149.999512 1.052829 0.589441
411.429474 149.999512 0.778697 0.641352
411.429474 149.999512 0.501891 0.623697
411.429474 149.999512 0.221766 0.634470
411.241669 150.621506 0.100401 0.532036
410.775574 152.017700 3.531086 0.736812
410.775574 152.017700 3.320160 0.709529
410.775574 152.017700 3.112196 0.768780
410.743896 152.125275 2.890062 0.696483
410.743896 152.125305 2.690276 0.695338
410.799438 151.936554 2.508128 0.647562
411.372528 149.989441 2.404153 0.737408
411.388550 149.934967 2.135551 0.678431
411.388550 149.934967 1.864449 0.678431
411.372528 149.989441 1.595847 0.793271
411.369568 149.999512 1.326307 0.647059
411.369568 149.999512 1.054798 0.610147
411.369568 149.999512 0.781237 0.609613
411.369568 149.999512 0.505005 0.611765
411.369568 149.999496 0.225463 0.647227
411.191010 150.606110 0.100331 0.631968
410.731171 152.017700 3.527984 0.702098
410.731171 152.017700 3.317486 0.733684
410.731171 152.017700 3.109943 0.757839
410.700317 152.125351 2.888247 0.732097
410.700317 152.125351 2.688872 0.698924
410.757904 151.924500 2.508127 0.668299
411.312775 149.989441 2.403334 0.738750
411.328400 149.934967 2.135276 0.678431
411.328400 149.934967 1.864724 0.678431
411.312775 149.989441 1.596666 0.788998
411.309875 149.999512 1.327672 0.611765
411.309875 149.999512 1.056714 0.614115
411.309875 149.999512 0.783706 0.624262
411.309875 149.999512 0.508034 0.611765
411.309875 149.999512 0.229059 0.615579
411.140045 150.591782 0.100445 0.631800
410.686951 152.017700 3.524969 0.752209
410.686951 152.017700 3.314885 0.752865
410.686951 152.017700 3.107752 0.726680
410.656891 152.125427 2.886483 0.735103
410.656921 152.125336 2.687515 0.706004
410.716278 151.912720 2.508126 0.668299
411.253265 149.989441 2.402538 0.692668
411.268463 149.934967 2.135009 0.678431
411.268463 149.934967 1.864991 0.678431
411.253265 149.989441 1.597461 0.776471
411.250458 149.999512 1.328999 0.647059
411.250458 149.999512 1.058575 0.616083
411.250458 149.999512 0.786107 0.647059
411.250458 149.999512 0.510979 0.611765
411.250458 149.999512 0.232554 0.649927
411.089203 150.577042 0.100363 0.605341
410.642914 152.017700 3.522039 0.756390
410.642914 152.017700 3.312359 0.712016
410.642914 152.017700 3.105624 0.728588
410.613678 152.125290 2.884800 0.669886
410.613678 152.125320 2.686196 0.751110
410.674561 151.901245 2.508126 0.656840
411.194000 149.989441 2.401765 0.683284
411.208771 149.934967 2.134749 0.678431
411.208771 149.934967 1.865250 0.678431
411.194000 149.989441 1.598235 0.791257
411.191254 149.999512 1.330288 0.618662
411.191254 149.999512 1.060384 0.673045
411.191254 149.999512 0.788439 0.611765
411.191254 149.999512 0.513839 0.627070
411.191254 149.999512 0.235949 0.580392
411.038025 150.563461 0.100485 0.628580
410.599030 152.017700 3.519194 0.783352
410.599030 152.017700 3.309907 0.753643
410.599030 152.017700 3.103558 0.716564
410.570618 152.125351 2.883137 0.690562
410.570587 152.125366 2.684907 0.701991
410.632782 151.890045 2.508125 0.644846
411.134949 149.989441 2.401014 0.682979
411.149323 149.934967 2.134498 0.678431
411.149323 149.934967 1.865502 0.678431
411.134949 149.989441 1.598986 0.776471
411.132263 149.999512 1.331540 0.613046
411.132263 149.999512 1.062140 0.647364
411.132263 149.999512 0.790703 0.631479
411.132263 149.999512 0.516617 0.627070
411.132263 149.999512 0.239246 0.630289
410.987000 150.549377 0.100388 0.620706
410.555328 152.017700 3.516434 0.748302
410.555328 152.017700 3.307527 0.751766
410.555328 152.017700 3.101552 0.720272
410.527679 152.125412 2.881522 0.706447
410.527679 152.125351 2.683665 0.709072
410.590912 151.879166 2.508124 0.632212
411.076111 149.989441 2.400285 0.716106
411.090088 149.934967 2.134254 0.678431
411.090088 149.934967 1.865746 0.678431
411.076111 149.989441 1.599714 0.784222
411.073517 149.999512 1.332754 0.646159
411.073517 149.999512 1.063844 0.640955
411.073517 149.999512 0.792900 0.625757
411.073517 149.999512 0.519312 0.645975
411.073517 149.999512 0.242445 0.636530
410.935638 150.536530 0.100516 0.634348
410.511780 152.017700 3.513758 0.733242
410.511780 152.017700 3.305219 0.749386
410.511780 152.017700 3.099608 0.745678
410.484955 152.125275 2.879987 0.676600
410.484924 152.125336 2.682461 0.650156
410.548950 151.868561 2.508123 0.646586
411.017487 149.989441 2.399579 0.693629
411.031067 149.934967 2.134017 0.678431
411.031067 149.934967 1.865983 0.678431
411.017487 149.989441 1.600421 0.782391
411.014954 149.999512 1.333932 0.618662
411.014954 149.999512 1.065496 0.618479
411.014954 149.999512 0.795030 0.644053
411.014954 149.999512 0.521925 0.647059
411.014954 149.999512 0.245547 0.646799
410.884430 150.523102 0.100402 0.604593
410.468353 152.017700 3.511164 0.773281
410.468353 152.017700 3.302983 0.770596
410.468353 152.017700 3.097724 0.751171
410.442322 152.125336 2.878470 0.692897
410.442322 152.125320 2.681293 0.716701
410.506927 151.858246 2.508122 0.674678
410.959045 149.989441 2.398894 0.674815
410.972229 149.934967 2.133787 0.678431
410.972229 149.934967 1.866213 0.678431
410.959045 149.989441 1.601105 0.775631
410.956604 149.999512 1.335073 0.618662
410.956604 149.999512 1.067097 0.663432
410.956604 149.999512 0.797095 0.642847
410.956604 149.999496 0.524458 0.645502
410.956604 149.999496 0.248553 0.669001
410.832886 150.510986 0.100535 0.600870
410.425110 152.017700 3.508653 0.768414
410.425110 152.017700 3.300817 0.754528
410.425110 152.017700 3.095900 0.738369
410.399841 152.125397 2.877002 0.685908
410.399841 152.125381 2.680153 0.682857
410.464844 151.848221 2.508121 0.668391
410.900818 149.989441 2.398232 0.710781
410.913605 149.934967 2.133564 0.678431
410.913605 149.934967 1.866435 0.678431
410.900818 149.989441 1.601768 0.800122
410.898468 149.999512 1.336178 0.618662
410.898468 149.999512 1.068648 0.643244
410.898468 149.999512 0.799094 0.626612
410.898468 149.999512 0.526910 0.632654
410.898468 149.999512 0.251464 0.640848
410.783173 150.491058 0.098566 0.604883
410.381989 152.017700 3.506223 0.739010
410.381989 152.017700 3.298722 0.727047
410.381989 152.017700 3.094135 0.763165
410.357544 152.125259 2.875610 0.694514
410.357513 152.125366 2.679060 0.696254
410.422699 151.838516 2.508120 0.673930
410.842804 149.989441 2.397590 0.678737
410.842804 149.989441 2.132436 0.725429
410.842804 149.989441 1.867565 0.743450
410.842804 149.989441 1.602410 0.791257
410.840515 149.999512 1.337247 0.632990
410.840515 149.999512 1.070147 0.635843
410.840515 149.999512 0.801028 0.628733
410.840515 149.999512 0.529282 0.630014
410.840515 149.999512 0.254280 0.640986
410.744629 150.421570 0.083777 0.623133
410.338989 152.017700 3.503875 0.699550
410.338989 152.017700 3.296697 0.741634
410.338989 152.017700 3.092429 0.753918
410.315338 152.125305 2.874238 0.689952
410.315338 152.125336 2.678004 0.721569
410.380463 151.829086 2.508120 0.645335
410.782806 149.999130 2.396483 0.707790
410.782806 149.999130 2.132066 0.711238
410.782806 149.999130 1.867934 0.709880
410.782806 149.999130 1.603517 0.664073
410.782806 149.999130 1.338249 0.710475
410.782806 149.999130 1.071553 0.703334
410.782806 149.999130 0.802840 0.735103
410.782806 149.999130 0.531505 0.694759
410.782806 149.999130 0.256918 0.717311
410.691956 150.412369 0.084404 0.588479
410.296143 152.017700 3.501606 0.784924
410.296143 152.017700 3.294742 0.757656
