# This PCD file was generated using the MATLABÂ® pcwrite function
# from Computer Vision ToolboxÂ®.
# .PCD v.7 - Point Cloud Data file format
VERSION .7
FIELDS x y z intensity
SIZE 4 4 4 4
TYPE F F F F
COUNT 1 1 1 1
WIDTH 1277
HEIGHT 1
VIEWPOINT 0 0 0 1 0 0 0
POINTS 1277
DATA ascii
-62.237774 341.987488 0.000022 0.533913
-63.546543 325.721039 0.000013 0.528405
-64.108452 318.737213 0.000009 0.538094
-64.421402 314.847565 0.000007 0.537896
-64.621201 312.364380 0.000005 0.540520
-64.760063 310.638458 0.000003 0.564050
-64.862373 309.366852 0.000003 0.580530
nan nan nan 0.000000
nan nan nan 0.000000
nan nan nan 0.000000
nan nan nan 0.000000
nan nan nan 0.000000
nan nan nan 0.000000
nan nan nan 0.000000
nan nan nan 0.000000
nan nan nan 0.000000
-61.954563 341.963684 0.000023 0.535576
-63.376858 325.706787 0.000013 0.547402
-63.987507 318.727051 0.000009 0.529488
-64.327606 314.839691 0.000007 0.539437
-64.544731 312.357941 0.000005 0.544198
-64.695641 310.633026 0.000004 0.509896
-64.806824 309.362183 0.000003 0.510369
nan nan nan 0.000000
nan nan nan 0.000000
nan nan nan 0.000000
nan nan nan 0.000000
nan nan nan 0.000000
nan nan nan 0.000000
nan nan nan 0.000000
nan nan nan 0.000000
nan nan nan 0.000000
-61.671516 341.937927 0.000023 0.540978
-63.207275 325.691345 0.000013 0.526253
-63.866634 318.716064 0.000009 0.518105
-64.233864 314.831177 0.000007 0.524926
-64.468307 312.350983 0.000005 0.527016
-64.631264 310.627167 0.000004 0.578225
-64.751312 309.357147 0.000003 0.579049
nan nan nan 0.000000
nan nan nan 0.000000
nan nan nan 0.000000
nan nan nan 0.000000
nan nan nan 0.000000
nan nan nan 0.000000
nan nan nan 0.000000
nan nan nan 0.000000
nan nan nan 0.000000
-61.388664 341.910217 0.000023 0.541100
-63.037800 325.674744 0.000013 0.542489
-63.745842 318.704224 0.000009 0.533562
-64.140182 314.821991 0.000007 0.547997
-64.391945 312.343506 0.000005 0.524956
-64.566917 310.620880 0.000004 0.528740
-64.695839 309.351715 0.000003 0.517052
nan nan nan 0.000000
nan nan nan 0.000000
nan nan nan 0.000000
nan nan nan 0.000000
nan nan nan 0.000000
nan nan nan 0.000000
nan nan nan 0.000000
nan nan nan 0.000000
nan nan nan 0.000000
-61.106007 341.880524 0.000022 0.532708
-62.868450 325.656952 0.000013 0.533700
-63.625137 318.691528 0.000009 0.546166
-64.046577 314.812134 0.000006 0.551583
-64.315628 312.335480 0.000005 0.558190
-64.502625 310.614105 0.000004 0.515251
-64.640404 309.345886 0.000003 0.601923
nan nan nan 0.000000
nan nan nan 0.000000
nan nan nan 0.000000
nan nan nan 0.000000
nan nan nan 0.000000
nan nan nan 0.000000
nan nan nan 0.000000
nan nan nan 0.000000
nan nan nan 0.000000
-60.823563 341.848816 0.000022 0.543084
-62.699226 325.637970 0.000013 0.531807
-63.504524 318.677979 0.000009 0.536370
-63.953033 314.801636 0.000007 0.507485
-64.239365 312.326935 0.000005 0.593805
-64.438385 310.606903 0.000004 0.514427
-64.585007 309.339661 0.000003 0.564141
nan nan nan 0.000000
nan nan nan 0.000000
nan nan nan 0.000000
nan nan nan 0.000000
nan nan nan 0.000000
nan nan nan 0.000000
nan nan nan 0.000000
nan nan nan 0.000000
nan nan nan 0.000000
-60.541355 341.815186 0.000022 0.538537
-62.530144 325.617798 0.000013 0.535073
-63.384007 318.663635 0.000009 0.523491
-63.859570 314.790497 0.000007 0.525719
-64.163170 312.317841 0.000005 0.565774
-64.374191 310.599243 0.000004 0.536202
-64.529655 309.333069 0.000003 0.550805
nan nan nan 0.000000
nan nan nan 0.000000
nan nan nan 0.000000
nan nan nan 0.000000
nan nan nan 0.000000
nan nan nan 0.000000
nan nan nan 0.000000
nan nan nan 0.000000
nan nan nan 0.000000
-60.259377 341.779572 0.000021 0.529274
-62.361198 325.596466 0.000013 0.543481
-63.263592 318.648407 0.000009 0.538155
-63.766182 314.778717 0.000007 0.522194
-64.087044 312.308228 0.000005 0.539147
-64.310051 310.591156 0.000004 0.538674
-64.474358 309.326080 0.000003 0.549126
nan nan nan 0.000000
nan nan nan 0.000000
nan nan nan 0.000000
nan nan nan 0.000000
nan nan nan 0.000000
nan nan nan 0.000000
nan nan nan 0.000000
nan nan nan 0.000000
nan nan nan 0.000000
-59.977661 341.741974 0.000022 0.536507
-62.192410 325.573944 0.000013 0.530480
-63.143288 318.632355 0.000009 0.528405
-63.672882 314.766266 0.000007 0.549752
-64.010979 312.298065 0.000005 0.524300
-64.245972 310.582611 0.000003 0.486183
-64.419106 309.318695 0.000003 0.536049
nan nan nan 0.000000
nan nan nan 0.000000
nan nan nan 0.000000
nan nan nan 0.000000
nan nan nan 0.000000
nan nan nan 0.000000
nan nan nan 0.000000
nan nan nan 0.000000
nan nan nan 0.000000
-59.696213 341.702423 0.000022 0.541329
-62.023781 325.550262 0.000012 0.534264
-63.023098 318.615479 0.000008 0.516320
-63.579670 314.753174 0.000006 0.561776
-63.934990 312.287384 0.000005 0.559503
-64.181953 310.573608 0.000004 0.528893
-64.363907 309.310944 0.000003 0.510063
nan nan nan 0.000000
nan nan nan 0.000000
nan nan nan 0.000000
nan nan nan 0.000000
nan nan nan 0.000000
nan nan nan 0.000000
nan nan nan 0.000000
nan nan nan 0.000000
nan nan nan 0.000000
-59.415054 341.660919 0.000021 0.549706
-61.855328 325.525360 0.000013 0.533211
-62.903034 318.597748 0.000009 0.554574
-63.486549 314.739410 0.000006 0.541146
-63.859077 312.276184 0.000004 0.571923
-64.117996 310.564148 0.000003 0.478981
-64.308762 309.302795 0.000003 0.530098
nan nan nan 0.000000
nan nan nan 0.000000
nan nan nan 0.000000
nan nan nan 0.000000
nan nan nan 0.000000
nan nan nan 0.000000
nan nan nan 0.000000
nan nan nan 0.000000
nan nan nan 0.000000
-59.134190 341.617432 0.000021 0.532967
-61.687046 325.499329 0.000013 0.539498
-62.783089 318.579163 0.000009 0.528298
-63.393532 314.725006 0.000006 0.546365
-63.783245 312.264465 0.000005 0.503944
-64.054115 310.554260 0.000004 0.521218
-64.253677 309.294281 0.000002 0.517555
nan nan nan 0.000000
nan nan nan 0.000000
nan nan nan 0.000000
nan nan nan 0.000000
nan nan nan 0.000000
nan nan nan 0.000000
nan nan nan 0.000000
nan nan nan 0.000000
nan nan nan 0.000000
-58.853630 341.571991 0.000021 0.541817
-61.518951 325.472107 0.000012 0.533150
-62.663280 318.559784 0.000008 0.532036
-63.300613 314.709961 0.000006 0.527581
-63.707497 312.252197 0.000005 0.505226
-63.990295 310.543945 0.000003 0.533913
-64.198647 309.285370 0.000003 0.495369
nan nan nan 0.000000
nan nan nan 0.000000
nan nan nan 0.000000
nan nan nan 0.000000
nan nan nan 0.000000
nan nan nan 0.000000
nan nan nan 0.000000
nan nan nan 0.000000
nan nan nan 0.000000
-58.573399 341.524597 0.000021 0.540276
-61.351051 325.443695 0.000012 0.544305
-62.543610 318.539520 0.000008 0.538857
-63.207802 314.694275 0.000006 0.520363
-63.631836 312.239380 0.000005 0.551064
-63.926552 310.533142 0.000004 0.541726
-64.143684 309.276062 0.000002 0.513756
nan nan nan 0.000000
nan nan nan 0.000000
nan nan nan 0.000000
-77.205597 236.366241 11.802984 1.000000
-77.208504 236.350098 9.604509 1.000000
-77.208488 236.350189 7.420110 1.000000
-77.104469 236.928314 5.218557 1.000000
-68.149612 286.697296 2.244593 1.000000
-77.217880 236.297974 0.917433 1.000000
-72.712166 261.339722 -0.000044 0.539315
-69.822151 277.401733 -0.000024 0.532525
-68.581383 284.297638 -0.000015 0.514015
-67.890343 288.138245 -0.000011 0.518517
-67.449181 290.590149 -0.000008 0.558999
-67.142548 292.294312 -0.000006 0.540963
-66.916641 293.549866 -0.000005 0.513619
nan nan nan 0.000000
nan nan nan 0.000000
nan nan nan 0.000000
-77.579285 236.877594 11.738386 1.000000
-77.580566 236.870728 9.553326 1.000000
-77.582443 236.860703 7.384472 1.000000
nan nan nan 0.000000
-68.270149 286.620514 2.246185 1.000000
-77.585655 236.843536 0.925128 1.000000
-72.991714 261.391052 -0.000044 0.538003
-69.989639 277.432465 -0.000024 0.538750
-68.700760 284.319550 -0.000015 0.510475
-67.982925 288.155243 -0.000011 0.551781
-67.524658 290.604004 -0.000008 0.567529
-67.206139 292.306000 -0.000006 0.541817
-66.971466 293.559937 -0.000005 0.529015
nan nan nan 0.000000
nan nan nan 0.000000
nan nan nan 0.000000
-77.942787 237.409515 11.670981 1.000000
-77.944122 237.402679 9.501053 1.000000
-77.942223 237.412430 7.345563 1.000000
-77.940506 237.421295 5.202308 1.000000
-68.392517 286.541412 2.247831 1.000000
-77.957016 237.336349 0.931910 1.000000
-73.270905 261.444275 -0.000045 0.533700
-70.156914 277.464355 -0.000024 0.551049
-68.819984 284.342285 -0.000016 0.546288
-68.075386 288.172882 -0.000011 0.505638
-67.600029 290.618378 -0.000008 0.537575
-67.269638 292.318115 -0.000006 0.576577
-67.026222 293.570374 -0.000005 0.533516
nan nan nan 0.000000
nan nan nan 0.000000
nan nan nan 0.000000
-78.302124 237.930145 11.605577 1.000000
-78.304848 237.916656 9.451109 1.000000
-78.303993 237.920868 7.310426 1.000000
nan nan nan 0.000000
-78.309341 237.894363 3.060251 1.000000
-78.313942 237.871521 0.939367 1.000000
-73.549713 261.499481 -0.000044 0.534798
-70.323959 277.497437 -0.000024 0.533516
-68.939041 284.365845 -0.000015 0.521614
-68.167725 288.191162 -0.000011 0.550179
-67.675308 290.633301 -0.000008 0.521492
-67.333054 292.330658 -0.000006 0.556558
-67.080902 293.581207 -0.000005 0.505852
nan nan nan 0.000000
nan nan nan 0.000000
nan nan nan 0.000000
-78.661057 238.422714 11.544709 1.000000
-78.660461 238.425568 9.401984 1.000000
-78.661743 238.419434 7.276280 1.000000
nan nan nan 0.000000
-68.023033 289.344086 2.201678 1.000000
-78.670853 238.375824 0.946277 1.000000
-73.828125 261.556641 -0.000045 0.536019
-70.490768 277.531677 -0.000024 0.543297
-69.057938 284.390259 -0.000016 0.519402
-68.259933 288.210083 -0.000011 0.546929
-67.750473 290.648712 -0.000008 0.525444
-67.396385 292.343658 -0.000006 0.554742
-67.135506 293.592407 -0.000005 0.527184
nan nan nan 0.000000
nan nan nan 0.000000
nan nan nan 0.000000
-79.008598 238.940948 11.480235 1.000000
-79.011925 238.925598 9.354122 1.000000
-79.010239 238.933350 7.241003 1.000000
-79.010025 238.934341 5.140055 1.000000
-68.086960 289.455536 2.200111 1.000000
-79.021240 238.882492 0.953194 1.000000
-74.106140 261.615723 -0.000045 0.540413
-70.657333 277.567078 -0.000025 0.550668
-69.176659 284.415466 -0.000016 0.532494
-68.352005 288.229675 -0.000011 0.542641
-67.825539 290.664673 -0.000008 0.565835
-67.459618 292.357086 -0.000006 0.556741
-67.190033 293.604004 -0.000005 0.586450
nan nan nan 0.000000
nan nan nan 0.000000
nan nan nan 0.000000
-79.349716 239.460251 11.415865 1.000000
-79.359207 239.417770 9.307404 1.000000
-79.356033 239.431946 7.207162 1.000000
-79.341110 239.498749 5.116467 1.000000
-68.154724 289.543732 2.198939 1.000000
-79.368423 239.376511 0.959870 1.000000
-74.383736 261.676758 -0.000046 0.535271
-70.823654 277.603638 -0.000025 0.538445
-69.295197 284.441559 -0.000016 0.527749
-68.443939 288.249878 -0.000011 0.555840
-67.900482 290.681152 -0.000008 0.572885
-67.522758 292.370972 -0.000006 0.491707
-67.244476 293.615967 -0.000005 0.528908
nan nan nan 0.000000
nan nan nan 0.000000
nan nan nan 0.000000
-79.687897 239.965363 11.353913 1.000000
-79.697861 239.922211 9.259444 1.000000
-79.700043 239.912750 7.174970 1.000000
nan nan nan 0.000000
-68.220100 289.637848 2.197674 1.000000
-68.194038 289.750732 1.804221 1.000000
-74.660889 261.739716 -0.000046 0.542367
-70.989708 277.641388 -0.000025 0.542763
-69.413551 284.468445 -0.000016 0.525246
-68.535728 288.270721 -0.000011 0.533928
-67.975311 290.698151 -0.000009 0.579705
-67.585800 292.385315 -0.000007 0.531258
-67.298828 293.628326 -0.000005 0.502464
nan nan nan 0.000000
nan nan nan 0.000000
nan nan nan 0.000000
-80.009888 240.513428 11.285670 1.000000
-80.039307 240.389938 9.216030 1.000000
-80.035919 240.404129 7.142029 1.000000
nan nan nan 0.000000
-68.284988 289.729370 2.196459 1.000000
-68.212891 290.032013 1.808632 1.000000
-74.937614 261.804596 -0.000046 0.535454
-71.155495 277.680267 -0.000025 0.541314
-69.531723 284.496155 -0.000016 0.524437
-68.627373 288.292206 -0.000012 0.520745
-68.050018 290.715668 -0.000009 0.537774
-67.648743 292.400055 -0.000007 0.594873
-67.353104 293.641052 -0.000005 0.536919
nan nan nan 0.000000
nan nan nan 0.000000
nan nan nan 0.000000
-80.356491 240.934433 11.237062 1.000000
-80.371819 240.872009 9.171122 1.000000
-80.369087 240.883118 7.110279 1.000000
-80.363914 240.904205 5.060717 1.000000
-68.350868 289.812561 2.195389 1.000000
-80.382141 240.829987 0.979239 1.000000
-75.213860 261.871460 -0.000046 0.539956
-71.321014 277.720306 -0.000025 0.547601
-69.649689 284.524689 -0.000017 0.540200
-68.718857 288.314362 -0.000012 0.538064
-68.124603 290.733734 -0.000008 0.525643
-67.711578 292.415253 -0.000006 0.557397
-67.407280 293.654144 -0.000005 0.526589
nan nan nan 0.000000
nan nan nan 0.000000
nan nan nan 0.000000
-80.688202 241.395691 11.182576 1.000000
-80.698212 241.356155 9.126162 1.000000
-80.699539 241.350876 7.079620 1.000000
nan nan nan 0.000000
-68.416321 289.893707 2.194360 1.000000
-80.711502 241.303604 0.985455 1.000000
-75.489639 261.940216 -0.000046 0.533639
-71.486244 277.761475 -0.000026 0.541268
-69.767456 284.554047 -0.000017 0.558206
-68.810188 288.337128 -0.000011 0.539315
-68.199066 290.752289 -0.000008 0.566598
-67.774307 292.430908 -0.000006 0.548638
-67.461365 293.667633 -0.000005 0.534356
nan nan nan 0.000000
nan nan nan 0.000000
nan nan nan 0.000000
-81.011078 241.870651 11.126245 1.000000
-81.025017 241.817123 9.084147 1.000000
-81.024315 241.819824 7.048998 1.000000
-80.930794 242.178864 5.006840 1.000000
-68.483032 289.966522 2.193477 1.000000
-81.036453 241.773209 0.991576 1.000000
-75.764938 262.010864 -0.000046 0.544686
-71.651176 277.803833 -0.000026 0.535866
-69.885017 284.584229 -0.000017 0.551583
-68.901360 288.360535 -0.000011 0.557931
-68.273392 290.771362 -0.000008 0.523980
-67.836922 292.446991 -0.000007 0.596719
-67.515358 293.681488 -0.000005 0.556054
nan nan nan 0.000000
nan nan nan 0.000000
nan nan nan 0.000000
-81.307205 242.425003 11.057965 1.000000
-81.344864 242.284454 9.041567 1.000000
-81.345276 242.282898 7.019011 1.000000
-81.332191 242.331741 5.004618 1.000000
-68.538437 290.078674 2.191934 1.000000
-68.540855 290.069672 1.807913 1.000000
-76.039726 262.083496 -0.000046 0.545068
-71.815819 277.847321 -0.000026 0.544793
-70.002357 284.615234 -0.000016 0.551583
-68.992371 288.384583 -0.000012 0.549844
-68.347580 290.790955 -0.000009 0.516487
-67.899429 292.463501 -0.000007 0.476661
-67.569252 293.695740 -0.000005 0.510491
nan nan nan 0.000000
nan nan nan 0.000000
nan nan nan 0.000000
-81.643051 242.811035 11.015764 1.000000
-81.660889 242.746262 8.999832 1.000000
-81.662445 242.740601 6.989613 1.000000
-81.364960 243.820648 4.934452 1.000000
-81.670158 242.712616 2.996260 1.000000
-68.601616 290.157654 1.809042 1.000000
-68.605698 290.142822 1.425960 1.000000
-71.980148 277.891968 -0.000026 0.529412
-70.119492 284.647064 -0.000017 0.564263
-69.083206 288.409271 -0.000012 0.512718
-68.421631 290.811096 -0.000009 0.516655
-67.961815 292.480438 -0.000007 0.573571
-67.623039 293.710358 -0.000005 0.564920
nan nan nan 0.000000
nan nan nan 0.000000
nan nan nan 0.000000
-81.961342 243.244598 10.966520 1.000000
-81.976952 243.189423 8.960506 1.000000
-81.977798 243.186432 6.961357 1.000000
-81.870216 243.566620 4.953147 1.000000
-81.982147 243.171051 2.990406 1.000000
-81.991150 243.139252 1.009052 1.000000
-68.666168 290.228729 1.429226 1.000000
-72.144165 277.937775 -0.000026 0.539391
-70.236389 284.679688 -0.000017 0.547799
-69.173866 288.434570 -0.000012 0.521660
-68.495537 290.831726 -0.000009 0.569314
-68.024078 292.497833 -0.000007 0.513939
-67.676727 293.725342 -0.000005 0.556146
nan nan nan 0.000000
nan nan nan 0.000000
nan nan nan 0.000000
-82.278236 243.666412 10.919331 1.000000
-82.286285 243.638702 8.920630 1.000000
-82.287140 243.635773 6.932931 1.000000
nan nan nan 0.000000
-69.045944 289.212280 2.207824 1.000000
-68.670731 290.503754 1.814183 1.000000
-68.723961 290.320557 1.432779 1.000000
-72.307854 277.984711 -0.000026 0.538018
-70.353058 284.713165 -0.000017 0.536156
-69.264351 288.460510 -0.000012 0.506188
-68.569305 290.852875 -0.000009 0.559899
-68.086220 292.515656 -0.000007 0.566278
-67.730309 293.740692 -0.000005 0.518135
nan nan nan 0.000000
nan nan nan 0.000000
nan nan nan 0.000000
-82.577194 244.132950 10.865460 1.000000
-82.593033 244.079819 8.881913 1.000000
-82.595421 244.071808 6.905770 1.000000
-82.563324 244.179459 4.933734 1.000000
-82.600098 244.056122 2.979320 1.000000
-68.693459 290.705017 1.817237 1.000000
-68.782143 290.407532 1.436071 1.000000
-72.471214 278.032776 -0.000026 0.538430
-70.469490 284.747437 -0.000017 0.544900
-69.354652 288.487091 -0.000012 0.539300
-68.642921 290.874542 -0.000009 0.542977
-68.148239 292.533905 -0.000007 0.518257
-67.783783 293.756439 -0.000005 0.548119
nan nan nan 0.000000
nan nan nan 0.000000
nan nan nan 0.000000
-82.874466 244.587708 10.813628 1.000000
-82.894867 244.520966 8.843364 1.000000
-82.897949 244.510895 6.878473 1.000000
-82.856171 244.647552 4.915879 1.000000
-82.904251 244.490295 2.973956 1.000000
-82.911209 244.467499 1.025653 1.000000
-68.808258 290.596191 1.444573 1.000000
-72.634232 278.082001 -0.000027 0.545739
-70.585686 284.782501 -0.000018 0.530221
-69.444756 288.514313 -0.000012 0.547814
-68.716377 290.896729 -0.000009 0.558755
-68.210129 292.552582 -0.000007 0.494087
-67.837151 293.772552 -0.000005 0.504814
nan nan nan 0.000000
nan nan nan 0.000000
nan nan nan 0.000000
-83.175285 245.014893 10.766290 1.000000
-83.198822 244.939789 8.807678 1.000000
-83.198441 244.941025 6.852068 1.000000
-83.160454 245.062225 4.900838 1.000000
-83.205154 244.919586 2.968703 1.000000
-68.866425 290.674530 1.815933 1.000000
-68.866066 290.675690 1.447464 1.000000
-72.796906 278.132355 -0.000027 0.540536
-70.701630 284.818390 -0.000017 0.546120
-69.534676 288.542145 -0.000012 0.558434
-68.789680 290.919403 -0.000009 0.536980
-68.271889 292.571716 -0.000007 0.490455
-67.890396 293.789032 -0.000005 0.530938
nan nan nan 0.000000
nan nan nan 0.000000
nan nan nan 0.000000
-83.471466 245.442047 10.719177 1.000000
-83.492767 245.375702 8.770102 1.000000
-83.494194 245.371262 6.825775 1.000000
-83.459946 245.477936 4.885820 1.000000
-68.960007 290.639954 2.185069 1.000000
-68.934242 290.720184 1.816310 1.000000
-68.918381 290.769592 1.451085 1.000000
-72.959221 278.183838 -0.000026 0.547112
-70.817322 284.855103 -0.000017 0.538354
-69.624405 288.570587 -0.000012 0.551934
-68.862831 290.942627 -0.000009 0.506950
-68.333511 292.591248 -0.000006 0.533608
-67.943527 293.805908 -0.000005 0.555016
nan nan nan 0.000000
nan nan nan 0.000000
nan nan nan 0.000000
-83.774506 245.834183 10.677748 1.000000
-83.787239 245.795441 8.734644 1.000000
-83.787354 245.795105 6.800150 1.000000
-83.781784 245.812057 4.875095 1.000000
-69.013596 290.729736 2.183943 1.000000
-69.001778 290.765686 1.816676 1.000000
-68.969940 290.862518 1.454643 1.000000
-73.121178 278.236450 -0.000027 0.558999
-70.932755 284.892578 -0.000017 0.528695
-69.713921 288.599670 -0.000012 0.541665
-68.935806 290.966339 -0.000009 0.533364
-68.394997 292.611237 -0.000007 0.509529
-67.996544 293.823120 -0.000006 0.516304
-68.124214 293.618500 4.058731 1.000000
nan nan nan 0.000000
nan nan nan 0.000000
-84.057037 246.275101 10.628916 1.000000
-84.079369 246.208740 8.700138 1.000000
-84.080254 246.206116 6.775753 1.000000
nan nan nan 0.000000
-69.068069 290.813934 2.182917 1.000000
-69.058678 290.841827 1.817565 1.000000
-69.041237 290.893646 1.454989 1.000000
-73.282761 278.290222 -0.000027 0.552544
-71.047920 284.930908 -0.000017 0.534569
-69.803238 288.629395 -0.000012 0.540169
-69.008621 290.990540 -0.000009 0.540658
-68.456337 292.631653 -0.000007 0.522606
-68.049438 293.840698 -0.000005 0.561349
-68.108620 293.840057 4.004939 1.000000
-68.107635 293.842896 3.728084 1.000000
-68.105743 293.848419 3.454800 1.000000
-68.108032 293.841766 3.187039 1.000000
-68.109085 293.838715 2.920969 1.000000
-68.109436 293.837677 2.656509 1.000000
-68.110077 293.835815 2.393440 1.000000
-68.113319 293.826385 2.131216 1.000000
-68.119263 293.809143 1.868485 1.000000
-68.126564 293.787933 1.604072 1.000000
-68.131943 293.772308 1.337821 1.000000
-68.131416 293.773834 1.071140 1.000000
-68.118828 293.810394 0.808041 1.000000
-68.116043 293.818481 0.539441 1.000000
-68.116631 293.816772 0.265949 1.000000
-68.114120 293.824066 -0.009172 1.000000
-68.236603 293.644836 4.061660 1.000000
-68.188461 293.781555 3.746338 1.000000
-68.183495 293.795654 3.468518 1.000000
-68.185791 293.789124 3.198203 1.000000
-68.188492 293.781464 2.930193 1.000000
-68.188889 293.780334 2.663093 1.000000
-68.188599 293.781158 2.397244 1.000000
-68.190887 293.774658 2.132433 1.000000
-68.196701 293.758148 1.867281 1.000000
-68.205650 293.732758 1.600235 1.000000
-68.208405 293.724915 1.332089 1.000000
-68.200874 293.746307 1.065520 1.000000
-68.196999 293.757294 0.796790 1.000000
-68.195030 293.762909 0.525164 1.000000
-68.196121 293.759796 0.248683 1.000000
-68.154846 293.877014 -0.000005 0.560159
-68.286674 293.675385 4.058658 1.000000
-68.265457 293.734344 3.761524 1.000000
-68.264061 293.738190 3.483284 1.000000
-68.265137 293.735229 3.209684 1.000000
-68.266861 293.730438 2.938747 1.000000
-68.267281 293.729279 2.669194 1.000000
-68.266472 293.731537 2.400824 1.000000
-68.269905 293.721985 2.133679 1.000000
-68.276672 293.703186 1.865994 1.000000
-68.278076 293.699280 1.597492 1.000000
-68.282921 293.685852 1.327021 1.000000
-68.276970 293.702362 1.057821 1.000000
-68.273766 293.711243 0.786536 1.000000
-68.273071 293.713196 0.511880 1.000000
-68.272110 293.715851 0.234234 1.000000
-68.207359 293.895691 -0.000006 0.572915
-68.374077 293.604004 4.082947 1.000000
-68.344833 293.683502 3.777705 1.000000
-68.344063 293.685608 3.497257 1.000000
-68.346031 293.680237 3.221455 1.000000
-68.346733 293.678345 2.947522 1.000000
-68.348366 293.673889 2.675735 1.000000
-68.347801 293.675446 2.404780 1.000000
-68.350449 293.668213 2.134956 1.000000
-68.356750 293.651093 1.864745 1.000000
-68.362968 293.634186 1.593061 1.000000
-68.359978 293.642334 1.321507 1.000000
-68.357307 293.649597 1.048956 1.000000
-68.353592 293.659698 0.775299 1.000000
-68.353180 293.660797 0.497938 1.000000
-68.350906 293.666992 0.218498 1.000000
-68.259743 293.914764 -0.000005 0.598566
-68.429878 293.620544 4.083936 1.000000
-68.427078 293.627991 3.795131 1.000000
-68.429047 293.622772 3.513361 1.000000
-68.427078 293.628021 3.232906 1.000000
-68.428917 293.623108 2.956773 1.000000
-68.430275 293.619507 2.682256 1.000000
-68.430222 293.619659 2.408761 1.000000
-68.432388 293.613892 2.136257 1.000000
-68.433464 293.611023 1.863693 1.000000
-68.447678 293.573212 1.588802 1.000000
-68.443878 293.583313 1.314574 1.000000
-68.452126 293.561371 1.035639 1.000000
-68.438774 293.596893 0.762162 1.000000
-68.433044 293.612122 0.484570 1.000000
-68.432701 293.613068 0.201420 1.000000
-68.311989 293.934204 -0.000005 0.542214
-68.512802 293.566589 4.103946 1.000000
-68.626137 293.271362 3.882407 1.000000
-68.517700 293.553833 3.530815 1.000000
-68.512772 293.566681 3.245924 1.000000
-68.514824 293.561340 2.966925 1.000000
-68.515213 293.560333 2.689265 1.000000
-68.514091 293.563232 2.412814 1.000000
-68.516342 293.557373 2.137609 1.000000
-68.520798 293.545776 1.862187 1.000000
-68.533066 293.513794 1.584584 1.000000
-68.568939 293.420349 1.298442 1.000000
-68.564384 293.432220 1.017164 1.000000
-68.551392 293.466064 0.738089 1.000000
-68.518280 293.552338 0.468890 1.000000
-68.516747 293.556335 0.183522 1.000000
-68.364098 293.954010 -0.000005 0.522927
-68.602150 293.499329 4.127751 1.000000
-68.683205 293.292511 3.882605 1.000000
-68.597946 293.510040 3.543526 1.000000
-68.597649 293.510803 3.258204 1.000000
-68.600868 293.502594 2.976805 1.000000
-68.601692 293.500488 2.696403 1.000000
-68.600105 293.504547 2.417031 1.000000
-68.602089 293.499481 2.139000 1.000000
-68.606277 293.488800 1.860812 1.000000
-69.447189 291.343018 1.468917 1.000000
-68.629807 293.428741 1.297278 1.000000
-68.639137 293.404938 1.011128 1.000000
-68.621758 293.449280 0.731995 1.000000
-68.602974 293.497223 0.453967 1.000000
-68.603683 293.495422 0.164464 1.000000
-68.416061 293.974152 -0.000006 0.526497
-68.689316 293.441071 4.149354 1.000000
-68.778488 293.218109 3.905118 1.000000
-68.699234 293.416260 3.566173 1.000000
-68.684242 293.453766 3.270802 1.000000
-68.688515 293.443085 2.986884 1.000000
-68.690140 293.439026 2.703759 1.000000
-68.688705 293.442596 2.421462 1.000000
-68.689636 293.440277 2.140428 1.000000
-69.465385 291.500763 1.825389 1.000000
-69.496246 291.423615 1.471711 1.000000
-68.699280 293.416168 1.294222 1.000000
-71.959061 285.266144 -0.000018 0.515023
-68.702705 293.407593 0.721823 1.000000
-68.691696 293.435120 0.437522 1.000000
-68.692955 293.431976 0.144626 1.000000
-68.467896 293.994659 -0.000006 0.544701
-68.766808 293.409729 4.163909 1.000000
-68.847885 293.211060 3.912146 1.000000
-68.790451 293.351807 3.583268 1.000000
-68.776466 293.386047 3.285238 1.000000
-68.781006 293.374939 2.998136 1.000000
-68.780312 293.376648 2.711272 1.000000
-68.779770 293.377960 2.426082 1.000000
-68.779762 293.377991 2.141926 1.000000
-69.507858 291.593842 1.826541 1.000000
-69.545059 291.502686 1.474414 1.000000
-74.718994 278.824341 -0.000028 0.546960
-72.071594 285.311584 -0.000018 0.519051
-68.786003 293.362701 0.711019 1.000000
-68.781937 293.372650 0.420832 1.000000
-68.784370 293.366699 0.124160 1.000000
-68.519577 294.015564 -0.000005 0.570245
-68.857445 293.348938 4.186639 1.000000
-68.910713 293.220947 3.915341 1.000000
-68.858009 293.347565 3.588663 1.000000
-68.864517 293.331940 3.297638 1.000000
-68.868317 293.322815 3.007509 1.000000
-68.870209 293.318268 2.718506 1.000000
-68.870331 293.317963 2.430503 1.000000
-68.872223 293.313416 2.143479 1.000000
-68.933708 293.165710 1.853903 1.000000
-69.595078 291.576874 1.476849 1.000000
-74.876442 278.889221 -0.000028 0.539940
-72.183807 285.357849 -0.000018 0.543252
-68.874199 293.308685 0.698625 1.000000
-68.874413 293.308167 0.403570 1.000000
-68.874367 293.308289 0.105087 1.000000
-68.571114 294.036804 -0.000005 0.501579
-68.946037 293.296173 4.207419 1.000000
-68.990555 293.191315 3.927925 1.000000
-68.971458 293.236298 3.615329 1.000000
-68.959305 293.264954 3.312247 1.000000
-68.960938 293.261078 3.018185 1.000000
-68.963707 293.254547 2.726293 1.000000
-68.961723 293.259216 2.434903 1.000000
-68.964218 293.253357 2.144969 1.000000
-68.999641 293.169922 1.853548 1.000000
-69.644623 291.650421 1.479235 1.000000
-75.033424 278.955200 -0.000028 0.535546
-72.295700 285.404877 -0.000018 0.533547
-68.966118 293.248871 0.685164 1.000000
-68.966103 293.248901 0.387166 1.000000
-68.964691 293.252258 0.086370 1.000000
-68.622498 294.058411 -0.000006 0.541848
-69.043427 293.226044 4.233177 1.000000
-69.050255 293.210266 3.929245 1.000000
-69.046249 293.219513 3.623496 1.000000
-69.056648 293.195496 3.327406 1.000000
-69.055176 293.198883 3.029032 1.000000
-69.059280 293.189392 2.734290 1.000000
-69.057228 293.194153 2.439690 1.000000
-69.058899 293.190277 2.146528 1.000000
-69.072289 293.159332 1.852921 1.000000
-69.301392 292.629913 1.530107 1.000000
-75.189941 279.022278 -0.000028 0.550210
-69.132248 293.020782 0.948644 1.000000
-69.060867 293.185730 0.671020 1.000000
-69.057762 293.192902 0.371229 1.000000
-69.060616 293.186340 0.065124 1.000000
-68.673729 294.080353 -0.000005 0.557061
-69.143982 293.152283 4.260192 1.000000
-69.145096 293.149780 3.949417 1.000000
-69.160988 293.113739 3.649493 1.000000
-69.154816 293.127747 3.342445 1.000000
-69.154205 293.129120 3.040948 1.000000
-69.157593 293.121429 2.742624 1.000000
-69.157036 293.122681 2.444870 1.000000
-69.156898 293.122986 2.148179 1.000000
-69.172394 293.087891 1.851193 1.000000
-69.334679 292.719910 1.533504 1.000000
-75.345985 279.090485 -0.000028 0.532128
-69.183487 293.062714 0.950704 1.000000
-69.162689 293.109863 0.654659 1.000000
-69.155045 293.127197 0.353186 1.000000
-69.159294 293.117554 0.042981 1.000000
-68.724808 294.102661 -0.000005 0.556878
-69.247040 293.076630 4.288002 1.000000
-69.248680 293.072998 3.973665 1.000000
-69.254684 293.059631 3.665419 1.000000
-69.253403 293.062500 3.357234 1.000000
-69.254402 293.060272 3.052872 1.000000
-69.257446 293.053497 2.751044 1.000000
-69.254372 293.060333 2.449613 1.000000
-69.257118 293.054230 2.149873 1.000000
-69.274628 293.015259 1.849427 1.000000
-69.367493 292.808624 1.536830 1.000000
-69.287201 292.987274 1.243004 1.000000
-69.274811 293.014862 0.941401 1.000000
-69.260208 293.047333 0.640303 1.000000
-69.254280 293.060547 0.334761 1.000000
-69.255768 293.057220 0.022602 1.000000
-68.775734 294.125336 -0.000006 0.539635
-69.389717 292.918182 4.338910 1.000000
-69.433937 292.821594 4.039639 1.000000
-69.357101 292.989441 3.684752 1.000000
-69.356209 292.991394 3.373139 1.000000
-69.357552 292.988434 3.065299 1.000000
-69.361496 292.979828 2.760068 1.000000
-69.357765 292.988007 2.454948 1.000000
-69.361374 292.980103 2.151683 1.000000
-69.372978 292.954742 1.847861 1.000000
-69.372833 292.955078 1.543273 1.000000
-69.834167 291.947449 1.146829 1.000000
-69.378670 292.942322 0.928867 1.000000
-69.365395 292.971313 0.623589 1.000000
-69.358200 292.987030 0.314770 1.000000
-69.360382 292.982269 -0.001477 1.000000
-68.826500 294.148376 -0.000005 0.514595
-69.516579 292.800385 4.379027 1.000000
-69.491653 292.853821 4.038550 1.000000
-69.458183 292.925598 3.703007 1.000000
-69.459427 292.922943 3.388777 1.000000
-69.462105 292.917206 3.077782 1.000000
-69.463158 292.914948 2.768395 1.000000
-69.461739 292.917999 2.460213 1.000000
-69.466873 292.906982 2.153494 1.000000
-69.486099 292.865753 1.845762 1.000000
-69.523087 292.786438 1.532655 1.000000
-69.880760 292.019409 1.150583 1.000000
-69.476570 292.886200 0.918279 1.000000
-69.465492 292.909943 0.609095 1.000000
-69.462143 292.917114 0.295288 1.000000
-69.416237 293.015564 -0.000007 0.514244
-68.877098 294.171753 -0.000006 0.590433
-69.638779 292.697601 4.415354 1.000000
-69.560852 292.861725 4.043369 1.000000
-69.564735 292.853546 3.723126 1.000000
-69.567810 292.847076 3.405805 1.000000
-69.565758 292.851410 3.089710 1.000000
-69.570618 292.841156 2.777620 1.000000
-69.567955 292.846771 2.465600 1.000000
-69.573280 292.835541 2.155292 1.000000
-69.598579 292.782257 1.843742 1.000000
-69.935295 292.073151 1.492327 1.000000
-75.965294 279.373993 -0.000029 0.538705
-69.590279 292.799744 0.903713 1.000000
-69.586609 292.807495 0.587693 1.000000
-69.566978 292.848816 0.275923 1.000000
-69.474731 293.043091 -0.000007 0.532738
-68.927536 294.195496 -0.000006 0.583062
-69.768013 292.584961 4.454792 1.000000
-69.669434 292.788879 4.067693 1.000000
-69.674408 292.778595 3.744050 1.000000
-69.674171 292.779083 3.421719 1.000000
-69.676865 292.773499 3.103316 1.000000
-69.680519 292.765961 2.787076 1.000000
-69.677406 292.772369 2.471219 1.000000
-69.680519 292.765930 2.157078 1.000000
-69.690430 292.745422 1.842549 1.000000
-69.984695 292.136719 1.494095 1.000000
-70.013031 292.078125 1.150280 1.000000
-69.692924 292.740265 0.892439 1.000000
-69.682442 292.761963 0.575461 1.000000
-69.674950 292.777466 0.255724 1.000000
-69.533035 293.071014 -0.000007 0.538384
-68.977806 294.219574 -0.000006 0.541955
-69.883324 292.505585 4.485322 1.000000
-69.781960 292.711578 4.093354 1.000000
-69.785568 292.704224 3.765076 1.000000
-69.785721 292.703918 3.438993 1.000000
-69.790276 292.694672 3.117185 1.000000
-69.796692 292.681641 2.797466 1.000000
-69.791008 292.693176 2.477163 1.000000
-69.790390 292.694427 2.158918 1.000000
-69.818680 292.636932 1.840034 1.000000
-70.033417 292.200531 1.495863 1.000000
-69.806236 292.662231 1.200761 1.000000
-69.798149 292.678680 0.880764 1.000000
-69.796074 292.682892 0.557530 1.000000
-69.790077 292.695068 0.233066 1.000000
-69.591141 293.099365 -0.000007 0.554116
-69.027908 294.244019 -0.000006 0.555459
-69.968628 292.489929 4.498338 1.000000
-69.913452 292.600128 4.127543 1.000000
-69.900215 292.626526 3.787015 1.000000
-69.902573 292.621826 3.457607 1.000000
-69.905869 292.615265 3.131282 1.000000
-69.909348 292.608307 2.806959 1.000000
-69.906868 292.613251 2.483211 1.000000
-69.907570 292.611847 2.160981 1.000000
-69.939812 292.547485 1.837841 1.000000
-70.081810 292.263916 1.497595 1.000000
-69.920349 292.586334 1.191027 1.000000
-69.910980 292.605042 0.867406 1.000000
-69.912163 292.602692 0.539216 1.000000
-69.906281 292.614441 0.210521 1.000000
-69.649048 293.128113 -0.000007 0.573968
-69.077835 294.268799 -0.000006 0.576593
-70.054840 292.474091 4.511613 1.000000
-70.035797 292.511475 4.156547 1.000000
-70.020508 292.541473 3.810698 1.000000
-70.018608 292.545197 3.475515 1.000000
-70.022438 292.537689 3.145293 1.000000
-70.030609 292.521667 2.817783 1.000000
-70.028580 292.525635 2.489749 1.000000
-70.027878 292.527008 2.163108 1.000000
-70.056595 292.470642 1.835857 1.000000
-70.120903 292.344452 1.500261 1.000000
-70.037277 292.508575 1.181012 1.000000
-70.031273 292.520355 0.852469 1.000000
-70.028267 292.526245 0.521331 1.000000
-70.025314 292.532043 0.187376 1.000000
-69.706749 293.157257 -0.000007 0.561593
-69.127586 294.293915 -0.000005 0.602502
-70.145454 292.451385 4.527043 1.000000
-70.164635 292.414398 4.187916 1.000000
-70.138756 292.464325 3.833020 1.000000
-70.134644 292.472260 3.493007 1.000000
-70.144012 292.454163 3.160232 1.000000
-70.147034 292.448334 2.827494 1.000000
-70.146187 292.449982 2.495696 1.000000
-70.145912 292.450500 2.165104 1.000000
-70.170822 292.402466 1.834010 1.000000
-70.159729 292.423859 1.502859 1.000000
-70.157150 292.428833 1.170705 1.000000
-70.145988 292.450348 0.839275 1.000000
-70.145340 292.451630 0.503546 1.000000
-70.141396 292.459229 0.165934 1.000000
-69.764252 293.186798 -0.000007 0.577996
-69.177170 294.319397 -0.000005 0.539849
-70.264862 292.375946 4.557653 1.000000
-70.259270 292.386536 4.202716 1.000000
-70.266685 292.372467 3.858616 1.000000
-70.257439 292.390015 3.512258 1.000000
-70.266869 292.372131 3.175144 1.000000
-70.273811 292.358948 2.838805 1.000000
-70.273026 292.360443 2.502481 1.000000
-70.271545 292.363251 2.167322 1.000000
-70.272049 292.362305 1.832660 1.000000
-70.281593 292.344208 1.496617 1.000000
-70.283112 292.341309 1.159560 1.000000
-70.277580 292.351807 0.822213 1.000000
-70.267670 292.370605 0.484488 1.000000
-70.265915 292.373932 0.141685 1.000000
-69.821541 293.216766 -0.000007 0.497749
-69.226570 294.345215 -0.000006 0.543847
-70.396019 292.282166 4.593814 1.000000
-70.392151 292.289368 4.234717 1.000000
-70.394020 292.285889 3.883402 1.000000
-70.394737 292.284546 3.535630 1.000000
-70.395477 292.283173 3.191125 1.000000
-70.400345 292.274109 2.849819 1.000000
-70.403702 292.267853 2.509511 1.000000
-70.402786 292.269562 2.169684 1.000000
-70.404785 292.265808 1.830247 1.000000
-70.407997 292.259827 1.490042 1.000000
-70.413986 292.248657 1.147814 1.000000
-70.402725 292.269653 0.807111 1.000000
-70.396736 292.280853 0.463744 1.000000
-70.396835 292.280640 0.115514 1.000000
-69.878624 293.247101 -0.000007 0.545983
-69.275787 294.371399 -0.000006 0.531563
-70.537140 292.174347 4.634382 1.000000
-70.523628 292.199127 4.265368 1.000000
-70.644424 291.977570 3.954421 1.000000
-70.522957 292.200378 3.555662 1.000000
-70.526711 292.193481 3.207383 1.000000
-70.530289 292.186920 2.861175 1.000000
-70.534210 292.179718 2.516369 1.000000
-70.535583 292.177216 2.172047 1.000000
-70.589348 292.078613 1.826115 1.000000
-70.585678 292.085327 1.478350 1.000000
-70.607697 292.044952 1.125566 1.000000
-70.570381 292.113373 0.782122 1.000000
-70.528717 292.189819 0.442554 1.000000
-70.528717 292.189819 0.089562 1.000000
-69.935486 293.277863 -0.000007 0.556252
-69.324814 294.397919 -0.000005 0.494560
-70.656120 292.111145 4.662614 1.000000
-70.656143 292.111115 4.295816 1.000000
-70.729988 291.977905 3.961872 1.000000
-70.655281 292.112671 3.576518 1.000000
-70.657936 292.107880 3.223284 1.000000
-70.670990 292.084320 2.874104 1.000000
-70.664207 292.096558 2.523025 1.000000
-70.670113 292.085907 2.174417 1.000000
-70.690590 292.048981 1.824892 1.000000
-70.749603 291.942505 1.468321 1.000000
-70.747032 291.947144 1.113034 1.000000
-70.672127 292.082275 0.773348 1.000000
-70.665466 292.094299 0.420366 1.000000
-70.661705 292.101074 0.063756 1.000000
-69.992142 293.309021 -0.000007 0.556954
-69.373665 294.424774 -0.000005 0.568963
-70.773918 292.053284 4.689665 1.000000
-70.787903 292.028442 4.325283 1.000000
-70.816162 291.978302 3.969458 1.000000
-70.785645 292.032471 3.596337 1.000000
-70.791679 292.021759 3.239440 1.000000
-70.821449 291.968903 2.888384 1.000000
-70.799843 292.007263 2.530106 1.000000
-70.809792 291.989594 2.176908 1.000000
-70.867897 291.886475 1.821155 1.000000
-70.870506 291.881836 1.462822 1.000000
-70.872047 291.879120 1.103164 1.000000
-70.812614 291.984589 0.755653 1.000000
-70.793808 292.017975 0.401194 1.000000
-70.786797 292.030426 0.041427 1.000000
-70.048576 293.340546 -0.000007 0.516304
-69.422325 294.451965 -0.000006 0.573114
-70.967262 291.866516 4.754263 1.000000
-70.941826 291.910919 4.363775 1.000000
-70.936066 291.920990 3.989301 1.000000
-70.936630 291.919983 3.621907 1.000000
-70.944038 291.907043 3.259570 1.000000
-70.947754 291.900574 2.898372 1.000000
-70.947876 291.900360 2.538264 1.000000
-70.951523 291.893982 2.179414 1.000000
-71.001175 291.807281 1.818952 1.000000
-71.004539 291.801422 1.456134 1.000000
-70.960014 291.879150 1.099604 1.000000
-70.952103 291.892975 0.738563 1.000000
-70.935043 291.922760 0.378568 1.000000
-70.938393 291.916901 0.009845 1.000000
-70.104782 293.372467 -0.000007 0.516762
-69.470787 294.479492 -0.000006 0.552987
-71.087502 291.812500 4.781036 1.000000
-71.083641 291.819153 4.396256 1.000000
-71.087524 291.812500 4.020177 1.000000
-71.086189 291.814789 3.646515 1.000000
-71.093040 291.803009 3.278508 1.000000
-71.093117 291.802856 2.911270 1.000000
-71.092567 291.803802 2.545927 1.000000
-71.099449 291.791992 2.182069 1.000000
-71.153183 291.699677 1.816183 1.000000
-85.981689 266.221741 -0.000054 0.539544
-71.096771 291.796600 1.088134 1.000000
-71.100250 291.790619 0.719842 1.000000
-71.083954 291.818604 0.354143 1.000000
-71.031769 291.908295 -0.000010 0.530694
-70.160774 293.404785 -0.000008 0.542046
-69.519066 294.507355 -0.000006 0.552651
-71.233932 291.717194 4.820194 1.000000
-71.223701 291.734497 4.427336 1.000000
-71.211128 291.755737 4.040464 1.000000
-71.226349 291.730011 3.667881 1.000000
-71.239883 291.707123 3.296571 1.000000
-71.247330 291.694519 2.925330 1.000000
-71.244148 291.699921 2.554097 1.000000
-71.253777 291.683624 2.184876 1.000000
-71.306084 291.595184 1.813442 1.000000
-86.226837 266.365570 -0.000054 0.538643
-71.330475 291.553955 1.061277 1.000000
-71.251915 291.686768 0.700711 1.000000
-71.233940 291.717163 0.329906 1.000000
-71.097954 291.947113 -0.000010 0.540749
-70.216530 293.437500 -0.000008 0.510979
-69.567146 294.535583 -0.000006 0.524208
-71.400955 291.591827 4.868587 1.000000
-72.235229 290.203369 4.823255 1.000000
-71.391502 291.607544 4.080430 1.000000
-71.384842 291.618652 3.694109 1.000000
-71.386917 291.615173 3.314316 1.000000
-71.412552 291.572510 2.940860 1.000000
-71.412636 291.572388 2.563717 1.000000
-71.407692 291.580597 2.187614 1.000000
-71.426590 291.549164 1.811785 1.000000
-86.470963 266.511108 -0.000054 0.538857
-71.453728 291.503998 1.052585 1.000000
-71.398178 291.596436 0.683168 1.000000
-71.391052 291.608307 0.304103 1.000000
-71.163864 291.986420 -0.000010 0.525017
-70.272064 293.470612 -0.000007 0.511681
-69.615021 294.564117 -0.000006 0.529793
-71.588783 291.437561 4.926011 1.000000
-71.555862 291.491486 4.509271 1.000000
-71.560051 291.484619 4.115449 1.000000
-71.548660 291.503296 3.721334 1.000000
-71.551071 291.499359 3.335497 1.000000
-71.565651 291.475464 2.954171 1.000000
-71.561996 291.481445 2.571339 1.000000
-71.568237 291.471222 2.190506 1.000000
-71.579155 291.453339 1.809151 1.000000
-71.608543 291.405182 1.424272 1.000000
-71.579559 291.452667 1.043639 1.000000
-71.556877 291.489838 0.663221 1.000000
-71.548088 291.504242 0.278829 1.000000
-71.229507 292.026154 -0.000010 0.548165
-70.327362 293.504120 -0.000008 0.532830
-69.662704 294.592987 -0.000006 0.521447
-71.777878 291.287354 4.982880 1.000000
-72.328773 290.398834 4.797742 1.000000
-71.727539 291.368530 4.149411 1.000000
-71.716400 291.386505 3.749127 1.000000
-71.722931 291.375946 3.357948 1.000000
-71.728073 291.367676 2.968677 1.000000
-71.726280 291.370575 2.580208 1.000000
-71.732254 291.360931 2.193450 1.000000
-71.769638 291.300629 1.805389 1.000000
-71.902718 291.085999 1.403343 1.000000
-71.782135 291.280487 1.022911 1.000000
-71.721664 291.378021 0.642330 1.000000
-71.715813 291.387451 0.251037 1.000000
-71.294861 292.066376 -0.000010 0.554147
-70.382423 293.537994 -0.000007 0.539757
-69.710182 294.622192 -0.000006 0.530571
-72.834991 289.764679 5.446651 1.000000
-72.385880 290.477875 4.789806 1.000000
-71.884529 291.273987 4.179138 1.000000
-71.885574 291.272339 3.776786 1.000000
-71.891052 291.263641 3.379155 1.000000
-71.902962 291.244720 2.984826 1.000000
-71.899612 291.250031 2.589742 1.000000
-71.904518 291.242249 2.196591 1.000000
-71.953934 291.163788 1.801892 1.000000
-72.051056 291.009552 1.396296 1.000000
-71.966530 291.143768 1.005393 1.000000
-71.890373 291.264709 0.620992 1.000000
-71.899292 291.250549 0.219395 1.000000
-71.359940 292.107025 -0.000010 0.542626
-70.437248 293.572235 -0.000007 0.534478
-69.757454 294.651733 -0.000006 0.544915
-72.803947 289.991516 5.394510 1.000000
nan nan nan 0.000000
-72.063591 291.149200 4.215768 1.000000
-72.073334 291.133942 3.809043 1.000000
-72.069817 291.139465 3.402237 1.000000
-72.076912 291.128357 3.000525 1.000000
-72.079659 291.124054 2.599706 1.000000
-72.076836 291.128479 2.199674 1.000000
-72.179077 290.968597 1.797221 1.000000
-72.225464 290.896088 1.386998 1.000000
-72.152893 291.009552 0.987911 1.000000
-72.065735 291.145844 0.598635 1.000000
-72.075020 291.131317 0.190493 1.000000
-71.424728 292.148132 -0.000010 0.534234
-70.491829 293.606873 -0.000008 0.551965
-69.804512 294.681610 -0.000006 0.521645
-72.262535 290.998932 5.108933 1.000000
nan nan nan 0.000000
-93.008530 259.052917 11.189301 1.000000
-72.257103 291.007294 3.839602 1.000000
-72.246010 291.024384 3.424343 1.000000
-72.260612 291.001892 3.017401 1.000000
-72.262207 290.999451 2.609711 1.000000
-72.259949 291.002930 2.203024 1.000000
-72.343193 290.874725 1.794475 1.000000
-72.379120 290.819427 1.379744 1.000000
-72.332664 290.890961 0.971752 1.000000
-72.238701 291.035645 0.577200 1.000000
-72.247147 291.022644 0.163110 1.000000
-71.489235 292.189728 -0.000010 0.552850
-70.546173 293.641907 -0.000008 0.539315
-69.851372 294.711792 -0.000006 0.559915
-72.445686 290.878571 5.159281 1.000000
nan nan nan 0.000000
-72.435989 290.893280 4.291727 1.000000
-72.436829 290.892029 3.868508 1.000000
-72.436745 290.892120 3.449090 1.000000
-72.444466 290.880432 3.033989 1.000000
-72.446976 290.876617 2.619730 1.000000
-72.448593 290.874176 2.206477 1.000000
-72.573494 290.684753 1.789810 1.000000
-72.487183 290.815643 1.376681 1.000000
-72.469215 290.842896 0.962324 1.000000
-72.436707 290.892181 0.550918 1.000000
-72.444458 290.880432 0.129434 1.000000
-71.553444 292.231720 -0.000010 0.534630
-70.600266 293.677307 -0.000008 0.520485
-69.898010 294.742310 -0.000006 0.501167
-72.627296 290.765564 5.208033 1.000000
-72.765694 290.558838 4.819818 1.000000
-72.638344 290.749054 4.333960 1.000000
-72.633118 290.756866 3.901319 1.000000
-72.634750 290.754456 3.474888 1.000000
-72.640564 290.745758 3.052084 1.000000
-72.642860 290.742310 2.630551 1.000000
-72.648857 290.733368 2.210210 1.000000
-72.784073 290.531372 1.785812 1.000000
-72.654472 290.724976 1.368424 1.000000
-72.659950 290.716797 0.945058 1.000000
-72.628769 290.763367 0.526348 1.000000
-72.639130 290.747894 0.097079 1.000000
-71.617355 292.274200 -0.000010 0.543374
-70.654114 293.713074 -0.000008 0.544915
-69.944443 294.773163 -0.000006 0.535897
-72.823372 290.636139 5.262378 1.000000
-72.992119 290.387817 4.877787 1.000000
-72.824066 290.635101 4.370048 1.000000
-72.828842 290.628082 3.933393 1.000000
-72.830177 290.626099 3.499700 1.000000
-72.837616 290.615173 3.069996 1.000000
-72.841728 290.609100 2.641440 1.000000
-72.846619 290.601929 2.213803 1.000000
-72.876579 290.557831 1.785325 1.000000
-72.958817 290.436829 1.348327 1.000000
-72.873329 290.562622 0.924793 1.000000
-72.819839 290.641327 0.502416 1.000000
-72.817284 290.645081 0.069658 1.000000
-71.680977 292.317108 -0.000010 0.575769
-70.707710 293.749237 -0.000007 0.527581
-69.990654 294.804352 -0.000006 0.522332
-73.027161 290.500854 5.319178 1.000000
-73.066231 290.444214 4.876781 1.000000
-73.056328 290.458557 4.420431 1.000000
-73.107048 290.385040 3.986454 1.000000
-73.043457 290.477203 3.527696 1.000000
-73.060059 290.453156 3.091263 1.000000
-73.048279 290.470215 2.652802 1.000000
-73.057823 290.456390 2.217720 1.000000
-73.098953 290.396759 1.781094 1.000000
-73.083199 290.419617 1.344177 1.000000
-73.067169 290.442841 0.907710 1.000000
-73.027382 290.500519 0.475561 1.000000
-73.030464 290.496063 0.033551 1.000000
-71.744293 292.360474 -0.000010 0.553719
-70.761055 293.785767 -0.000007 0.543954
-70.036652 294.835846 -0.000006 0.538247
-73.248367 290.346222 5.382608 1.000000
-73.328819 290.231323 4.946906 1.000000
-73.286682 290.291473 4.469315 1.000000
-73.266319 290.320557 4.007792 1.000000
-73.259888 290.329773 3.555835 1.000000
-73.275642 290.307251 3.111175 1.000000
-73.276634 290.305847 2.665836 1.000000
-73.276451 290.306091 2.221782 1.000000
-73.401230 290.127899 1.774658 1.000000
-73.460541 290.043182 1.318412 1.000000
-73.286224 290.292145 0.887312 1.000000
-73.249031 290.345276 0.446342 1.000000
-73.253510 290.338867 -0.004478 1.000000
-71.807304 292.404266 -0.000010 0.521187
-70.814140 293.822632 -0.000007 0.540139
-70.082420 294.867645 -0.000006 0.552163
-73.468773 290.198822 5.444603 1.000000
-73.564148 290.064606 5.005628 1.000000
-73.536270 290.103821 4.523395 1.000000
-73.498360 290.157166 4.047438 1.000000
-73.480484 290.182343 3.584322 1.000000
-73.492012 290.166107 3.130858 1.000000
-73.500107 290.154724 2.678231 1.000000
-73.493225 290.164398 2.225721 1.000000
-73.628998 289.973358 1.770443 1.000000
-73.683281 289.896973 1.306234 1.000000
-73.507751 290.143951 0.866914 1.000000
-73.478737 290.184784 0.416025 1.000000
-73.313164 290.417786 -0.000014 0.520485
-71.870010 292.448486 -0.000010 0.553582
-70.866966 293.859924 -0.000008 0.548409
-70.127968 294.899780 -0.000006 0.556222
-73.692139 290.053223 5.506824 1.000000
-73.747437 289.976563 5.044131 1.000000
-73.750488 289.972321 4.565539 1.000000
-73.727669 290.003967 4.085717 1.000000
-73.713242 290.023956 3.614723 1.000000
-73.734520 289.994476 3.153878 1.000000
-73.744041 289.981262 2.692136 1.000000
-73.735237 289.993469 2.230301 1.000000
-73.824623 289.869537 1.767199 1.000000
-73.861801 289.817993 1.297974 1.000000
-73.728668 290.002563 0.846942 1.000000
-73.715118 290.021362 0.384908 1.000000
-73.389702 290.472565 -0.000014 0.528099
-71.932404 292.493164 -0.000010 0.549828
-70.919533 293.897552 -0.000007 0.534997
-70.173294 294.932220 -0.000006 0.545174
-73.942993 289.875977 5.579679 1.000000
-74.004059 289.792542 5.108865 1.000000
-73.959343 289.853638 4.605351 1.000000
-73.963806 289.847534 4.125079 1.000000
-73.959167 289.853851 3.647185 1.000000
-73.972755 289.835297 3.175918 1.000000
-73.979576 289.825989 2.705109 1.000000
-74.008644 289.786255 2.235674 1.000000
-73.998642 289.799927 1.764603 1.000000
-74.011627 289.782196 1.292225 1.000000
-73.962051 289.849915 0.825568 1.000000
-73.963219 289.848328 0.352026 1.000000
-73.465851 290.527893 -0.000014 0.539528
-71.994484 292.538269 -0.000010 0.509728
-70.971832 293.935547 -0.000007 0.562783
-70.218391 294.964996 -0.000006 0.518074
-74.191620 289.708527 5.650398 1.000000
-74.225838 289.662445 5.159905 1.000000
-74.287842 289.578949 4.681048 1.000000
-74.212914 289.679840 4.167028 1.000000
-74.221008 289.668945 3.682182 1.000000
-74.229324 289.657745 3.200119 1.000000
