# This PCD file was generated using the MATLABÂ® pcwrite function
# from Computer Vision ToolboxÂ®.
# .PCD v.7 - Point Cloud Data file format
VERSION .7
FIELDS x y z intensity
SIZE 4 4 4 4
TYPE F F F F
COUNT 1 1 1 1
WIDTH 1163
HEIGHT 1
VIEWPOINT 0 0 0 1 0 0 0
POINTS 1163
DATA ascii
302.384430 -533.144226 2.573608 1.000000
302.384430 -533.144226 2.343673 1.000000
302.384430 -533.144226 2.114476 1.000000
302.384430 -533.144226 1.885524 1.000000
302.384430 -533.144226 1.656327 1.000000
302.384430 -533.144226 1.426391 1.000000
302.384430 -533.144226 1.195218 1.000000
302.384430 -533.144226 0.962297 1.000000
302.384430 -533.144226 0.727103 1.000000
302.384430 -533.144226 0.489090 1.000000
302.384430 -533.144226 0.247687 1.000000
302.399078 -533.193298 3.748417 1.000000
302.399078 -533.193298 3.507551 1.000000
302.399078 -533.193298 3.270067 1.000000
302.399078 -533.193298 3.035396 1.000000
302.399078 -533.193298 2.802993 1.000000
302.399078 -533.193298 2.572333 1.000000
302.399078 -533.193298 2.342909 1.000000
302.399078 -533.193298 2.114221 1.000000
302.399078 -533.193298 1.885779 1.000000
302.399078 -533.193298 1.657091 1.000000
302.399078 -533.193298 1.427667 1.000000
302.399078 -533.193298 1.197007 1.000000
302.399078 -533.193298 0.964604 1.000000
302.399078 -533.193298 0.729933 1.000000
302.399078 -533.193298 0.492449 1.000000
302.399078 -533.193298 0.251583 1.000000
302.413635 -533.242126 3.744623 1.000000
302.413635 -533.242126 3.504281 1.000000
302.413635 -533.242126 3.267312 1.000000
302.413635 -533.242126 3.033149 1.000000
302.413635 -533.242126 2.801250 1.000000
302.413635 -533.242126 2.571091 1.000000
302.413635 -533.242126 2.342165 1.000000
302.413635 -533.242126 2.113974 1.000000
302.413635 -533.242126 1.886027 1.000000
302.413635 -533.242126 1.657835 1.000000
302.413635 -533.242126 1.428909 1.000000
302.413635 -533.242126 1.198750 1.000000
302.413635 -533.242126 0.966851 1.000000
302.413635 -533.242126 0.732689 1.000000
302.413635 -533.242126 0.495720 1.000000
302.413635 -533.242126 0.255378 1.000000
302.428162 -533.290771 3.740931 1.000000
302.428162 -533.290771 3.501096 1.000000
302.428162 -533.290771 3.264629 1.000000
302.428162 -533.290771 3.030962 1.000000
302.428162 -533.290771 2.799554 1.000000
302.428162 -533.290771 2.569882 1.000000
302.428162 -533.290771 2.341440 1.000000
302.428162 -533.290771 2.113732 1.000000
302.428162 -533.290771 1.886268 1.000000
302.428162 -533.290771 1.658559 1.000000
302.428162 -533.290771 1.430117 1.000000
302.428162 -533.290771 1.200446 1.000000
302.428162 -533.290771 0.969038 1.000000
302.428162 -533.290771 0.735371 1.000000
302.428162 -533.290771 0.498905 1.000000
302.428162 -533.290771 0.259070 1.000000
302.442596 -533.339233 3.737338 1.000000
302.442596 -533.339233 3.497999 1.000000
302.442596 -533.339233 3.262020 1.000000
302.442596 -533.339233 3.028835 1.000000
302.442596 -533.339233 2.797904 1.000000
302.442596 -533.339233 2.568707 1.000000
302.442596 -533.339233 2.340736 1.000000
302.442596 -533.339233 2.113498 1.000000
302.442596 -533.339233 1.886503 1.000000
302.442596 -533.339233 1.659264 1.000000
302.442596 -533.339233 1.431293 1.000000
302.442596 -533.339233 1.202096 1.000000
302.442596 -533.339233 0.971165 1.000000
302.442596 -533.339233 0.737981 1.000000
302.442596 -533.339233 0.502002 1.000000
302.442596 -533.339233 0.262663 1.000000
302.457001 -533.387451 3.733845 1.000000
302.457001 -533.387451 3.494987 1.000000
302.457001 -533.387451 3.259482 1.000000
302.457001 -533.387451 3.026766 1.000000
302.457001 -533.387451 2.796300 1.000000
302.457001 -533.387451 2.567563 1.000000
302.457001 -533.387451 2.340051 1.000000
302.457001 -533.387451 2.113269 1.000000
302.457001 -533.387451 1.886731 1.000000
302.457001 -533.387451 1.659949 1.000000
302.457001 -533.387451 1.432437 1.000000
302.457001 -533.387451 1.203700 1.000000
302.457001 -533.387451 0.973234 1.000000
302.457001 -533.387451 0.740519 1.000000
302.457001 -533.387451 0.505014 1.000000
302.457001 -533.387451 0.266156 1.000000
302.471344 -533.435547 3.730450 1.000000
302.471344 -533.435547 3.492059 1.000000
302.471344 -533.435547 3.257016 1.000000
302.471344 -533.435547 3.024755 1.000000
302.471313 -533.435547 2.794741 1.000000
302.471313 -533.435547 2.566452 1.000000
302.471344 -533.435547 2.339385 1.000000
302.471313 -533.435547 2.113048 1.000000
302.471313 -533.435547 1.886953 1.000000
302.471344 -533.435547 1.660615 1.000000
302.471313 -533.435547 1.433548 1.000000
302.471313 -533.435547 1.205260 1.000000
302.471313 -533.435547 0.975245 1.000000
302.471313 -533.435547 0.742985 1.000000
302.471313 -533.435547 0.507942 1.000000
302.471313 -533.435547 0.269551 1.000000
302.485596 -533.483398 3.727151 1.000000
302.485596 -533.483398 3.489215 1.000000
302.485596 -533.483398 3.254620 1.000000
302.485596 -533.483398 3.022802 1.000000
302.485596 -533.483398 2.793226 1.000000
302.485596 -533.483398 2.565372 1.000000
302.485596 -533.483398 2.338738 1.000000
302.485596 -533.483398 2.112832 1.000000
302.485596 -533.483398 1.887168 1.000000
302.485596 -533.483398 1.661262 1.000000
302.485596 -533.483398 1.434628 1.000000
302.485596 -533.483398 1.206774 1.000000
302.485596 -533.483398 0.977198 1.000000
302.485596 -533.483398 0.745381 1.000000
302.485596 -533.483398 0.510786 1.000000
302.485596 -533.483398 0.272850 1.000000
302.499847 -533.531067 3.723950 1.000000
302.499847 -533.531067 3.486454 1.000000
302.499847 -533.531067 3.252294 1.000000
302.499847 -533.531067 3.020907 1.000000
302.499847 -533.531067 2.791756 1.000000
302.499847 -533.531067 2.564324 1.000000
302.499847 -533.531067 2.338110 1.000000
302.499847 -533.531067 2.112623 1.000000
302.499847 -533.531067 1.887377 1.000000
302.499847 -533.531067 1.661890 1.000000
302.499817 -533.531067 1.435676 1.000000
302.499847 -533.531067 1.208245 1.000000
302.499847 -533.531067 0.979093 1.000000
302.499817 -533.531067 0.747706 1.000000
302.499817 -533.531067 0.513546 1.000000
302.499817 -533.531067 0.276051 1.000000
302.514008 -533.578613 3.720844 1.000000
302.514008 -533.578613 3.483777 1.000000
302.514008 -533.578613 3.250038 1.000000
302.514008 -533.578613 3.019068 1.000000
302.514008 -533.578613 2.790329 1.000000
302.514008 -533.578613 2.563307 1.000000
302.514008 -533.578613 2.337501 1.000000
302.514008 -533.578613 2.112420 1.000000
302.514008 -533.578613 1.887580 1.000000
302.514008 -533.578613 1.662499 1.000000
302.514008 -533.578613 1.436693 1.000000
302.514008 -533.578613 1.209671 1.000000
302.514008 -533.578613 0.980933 1.000000
302.514008 -533.578613 0.749963 1.000000
302.514008 -533.578613 0.516224 1.000000
302.514008 -533.578613 0.279157 1.000000
302.528137 -533.625916 3.717833 1.000000
302.528137 -533.625916 3.481180 1.000000
302.528137 -533.625916 3.247850 1.000000
302.528137 -533.625916 3.017284 1.000000
302.528137 -533.625916 2.788946 1.000000
302.528137 -533.625916 2.562322 1.000000
302.528137 -533.625916 2.336910 1.000000
302.528137 -533.625916 2.112223 1.000000
302.528137 -533.625916 1.887777 1.000000
302.528137 -533.625916 1.663090 1.000000
302.528137 -533.625916 1.437679 1.000000
302.528137 -533.625916 1.211054 1.000000
302.528137 -533.625916 0.982716 1.000000
302.528137 -533.625916 0.752150 1.000000
302.528137 -533.625916 0.518820 1.000000
302.528137 -533.625916 0.282168 1.000000
302.542206 -533.673096 3.714915 1.000000
302.542206 -533.673096 3.478665 1.000000
302.542206 -533.673096 3.245731 1.000000
302.542206 -533.673096 3.015556 1.000000
302.542206 -533.673096 2.787606 1.000000
302.542206 -533.673096 2.561367 1.000000
302.542206 -533.673096 2.336338 1.000000
302.542206 -533.673096 2.112033 1.000000
302.542206 -533.673096 1.887967 1.000000
302.542206 -533.673096 1.663662 1.000000
302.542206 -533.673096 1.438633 1.000000
302.542206 -533.673096 1.212394 1.000000
302.542206 -533.673096 0.984444 1.000000
302.542206 -533.673096 0.754269 1.000000
302.542206 -533.673096 0.521336 1.000000
302.542206 -533.673096 0.285085 1.000000
302.556244 -533.720154 3.712091 1.000000
302.556244 -533.720154 3.476230 1.000000
302.556244 -533.720154 3.243680 1.000000
302.556244 -533.720154 3.013884 1.000000
302.556244 -533.720154 2.786309 1.000000
302.556244 -533.720154 2.560442 1.000000
302.556244 -533.720154 2.335784 1.000000
302.556244 -533.720154 2.111848 1.000000
302.556244 -533.720154 1.888152 1.000000
302.556244 -533.720154 1.664216 1.000000
302.556244 -533.720154 1.439558 1.000000
302.556244 -533.720154 1.213691 1.000000
302.556213 -533.720154 0.986117 1.000000
302.556213 -533.720154 0.756321 1.000000
302.556244 -533.720154 0.523771 1.000000
302.556213 -533.720154 0.287910 1.000000
302.570221 -533.767029 3.709360 1.000000
302.570221 -533.767029 3.473874 1.000000
302.570221 -533.767029 3.241695 1.000000
302.570221 -533.767029 3.012266 1.000000
302.570221 -533.767029 2.785054 1.000000
302.570221 -533.767029 2.559548 1.000000
302.570221 -533.767029 2.335249 1.000000
302.570221 -533.767029 2.111670 1.000000
302.570221 -533.767029 1.888330 1.000000
302.570221 -533.767029 1.664751 1.000000
302.570221 -533.767029 1.440452 1.000000
302.570221 -533.767029 1.214946 1.000000
302.570221 -533.767029 0.987734 1.000000
302.570221 -533.767029 0.758305 1.000000
302.570221 -533.767029 0.526126 1.000000
302.570221 -533.767029 0.290641 1.000000
302.584137 -533.813721 3.706720 1.000000
302.584137 -533.813721 3.471598 1.000000
302.584137 -533.813721 3.239778 1.000000
302.584137 -533.813721 3.010703 1.000000
302.584137 -533.813721 2.783843 1.000000
302.584137 -533.813721 2.558684 1.000000
302.584137 -533.813721 2.334731 1.000000
302.584137 -533.813721 2.111497 1.000000
302.584137 -533.813721 1.888503 1.000000
302.584137 -533.813721 1.665269 1.000000
302.584137 -533.813721 1.441316 1.000000
302.584137 -533.813721 1.216158 1.000000
302.584137 -533.813721 0.989297 1.000000
302.584137 -533.813721 0.760223 1.000000
302.584137 -533.813721 0.528402 1.000000
302.584137 -533.813721 0.293281 1.000000
302.598053 -533.860291 3.704171 1.000000
302.598053 -533.860291 3.469400 1.000000
302.598053 -533.860291 3.237926 1.000000
302.598053 -533.860291 3.009194 1.000000
302.598053 -533.860291 2.782672 1.000000
302.598053 -533.860291 2.557849 1.000000
302.598053 -533.860291 2.334231 1.000000
302.598053 -533.860291 2.111331 1.000000
302.598053 -533.860291 1.888669 1.000000
302.598053 -533.860291 1.665769 1.000000
302.598053 -533.860291 1.442150 1.000000
302.598053 -533.860291 1.217329 1.000000
302.598053 -533.860291 0.990807 1.000000
302.598053 -533.860291 0.762074 1.000000
302.598053 -533.860291 0.530600 1.000000
302.598053 -533.860291 0.295830 1.000000
302.611908 -533.906738 3.701712 1.000000
302.611908 -533.906738 3.467281 1.000000
302.611908 -533.906738 3.236141 1.000000
302.611908 -533.906738 3.007738 1.000000
302.611908 -533.906738 2.781543 1.000000
302.611908 -533.906738 2.557045 1.000000
302.611908 -533.906738 2.333749 1.000000
302.611908 -533.906738 2.111170 1.000000
302.611908 -533.906738 1.888830 1.000000
302.611908 -533.906738 1.666251 1.000000
302.611908 -533.906738 1.442955 1.000000
302.611908 -533.906738 1.218457 1.000000
302.611908 -533.906738 0.992262 1.000000
302.611908 -533.906738 0.763860 1.000000
302.611908 -533.906738 0.532720 1.000000
302.611908 -533.906738 0.298288 1.000000
302.625732 -533.953064 3.699344 1.000000
302.625732 -533.953064 3.465238 1.000000
302.625702 -533.953064 3.234420 1.000000
302.625702 -533.953064 3.006335 1.000000
302.625732 -533.953064 2.780455 1.000000
302.625732 -533.953064 2.556269 1.000000
302.625702 -533.953064 2.333284 1.000000
302.625702 -533.953064 2.111015 1.000000
302.625702 -533.953064 1.888985 1.000000
302.625702 -533.953064 1.666716 1.000000
302.625702 -533.953064 1.443731 1.000000
302.625702 -533.953064 1.219545 1.000000
302.625702 -533.953064 0.993665 1.000000
302.625702 -533.953064 0.765581 1.000000
302.625702 -533.953064 0.534762 1.000000
302.625702 -533.953064 0.300657 1.000000
302.639496 -533.999268 3.697064 1.000000
302.639496 -533.999268 3.463273 1.000000
302.639496 -533.999268 3.232764 1.000000
302.639496 -533.999268 3.004985 1.000000
302.639496 -533.999268 2.779408 1.000000
302.639496 -533.999268 2.555523 1.000000
302.639496 -533.999268 2.332837 1.000000
302.639496 -533.999268 2.110867 1.000000
302.639496 -533.999268 1.889134 1.000000
302.639496 -533.999268 1.667163 1.000000
302.639496 -533.999268 1.444477 1.000000
302.639496 -533.999268 1.220592 1.000000
302.639496 -533.999268 0.995015 1.000000
302.639496 -533.999268 0.767236 1.000000
302.639496 -533.999268 0.536728 1.000000
302.639496 -533.999268 0.302937 1.000000
302.653229 -534.045288 3.694874 1.000000
302.653229 -534.045288 3.461384 1.000000
302.653229 -534.045288 3.231173 1.000000
302.653229 -534.045288 3.003688 1.000000
302.653229 -534.045288 2.778402 1.000000
302.653229 -534.045288 2.554806 1.000000
302.653229 -534.045288 2.332407 1.000000
302.653229 -534.045288 2.110723 1.000000
302.653229 -534.045288 1.889277 1.000000
302.653229 -534.045288 1.667592 1.000000
302.653229 -534.045288 1.445194 1.000000
302.653229 -534.045288 1.221598 1.000000
302.653229 -534.045288 0.996312 1.000000
302.653229 -534.045288 0.768828 1.000000
302.653229 -534.045288 0.538616 1.000000
302.653229 -534.045288 0.305127 1.000000
302.666931 -534.091248 3.692771 1.000000
302.666931 -534.091248 3.459571 1.000000
302.666931 -534.091248 3.229645 1.000000
302.666931 -534.091248 3.002443 1.000000
302.666931 -534.091248 2.777436 1.000000
302.666931 -534.091248 2.554118 1.000000
302.666931 -534.091248 2.331995 1.000000
302.666931 -534.091248 2.110586 1.000000
302.666931 -534.091248 1.889414 1.000000
302.666931 -534.091248 1.668005 1.000000
302.666931 -534.091248 1.445882 1.000000
302.666931 -534.091248 1.222564 1.000000
302.666931 -534.091248 0.997558 1.000000
302.666931 -534.091248 0.770355 1.000000
302.666931 -534.091248 0.540430 1.000000
302.666931 -534.091248 0.307230 1.000000
302.680603 -534.137085 3.690756 1.000000
302.680603 -534.137085 3.457833 1.000000
302.680603 -534.137085 3.228181 1.000000
302.680603 -534.137085 3.001249 1.000000
302.680603 -534.137085 2.776510 1.000000
302.680603 -534.137085 2.553458 1.000000
302.680603 -534.137085 2.331600 1.000000
302.680603 -534.137085 2.110454 1.000000
302.680603 -534.137085 1.889546 1.000000
302.680603 -534.137085 1.668400 1.000000
302.680603 -534.137085 1.446542 1.000000
302.680603 -534.137085 1.223490 1.000000
302.680603 -534.137085 0.998751 1.000000
302.680603 -534.137085 0.771819 1.000000
302.680603 -534.137085 0.542167 1.000000
302.680603 -534.137085 0.309245 1.000000
302.694244 -534.182800 3.688827 1.000000
302.694275 -534.182800 3.456171 1.000000
302.694275 -534.182800 3.226781 1.000000
302.694244 -534.182800 3.000107 1.000000
302.694244 -534.182800 2.775625 1.000000
302.694244 -534.182800 2.552827 1.000000
302.694244 -534.182800 2.331222 1.000000
302.694244 -534.182800 2.110328 1.000000
302.694244 -534.182800 1.889672 1.000000
302.694244 -534.182800 1.668778 1.000000
302.694244 -534.182800 1.447173 1.000000
302.694244 -534.182800 1.224375 1.000000
302.694244 -534.182800 0.999893 1.000000
302.694244 -534.182800 0.773220 1.000000
302.694244 -534.182800 0.543830 1.000000
302.694244 -534.182800 0.311174 1.000000
302.707886 -534.228455 3.686985 1.000000
302.707886 -534.228455 3.454583 1.000000
302.707886 -534.228455 3.225443 1.000000
302.707855 -534.228455 2.999017 1.000000
302.707886 -534.228455 2.774779 1.000000
302.707886 -534.228455 2.552224 1.000000
302.707855 -534.228455 2.330861 1.000000
302.707855 -534.228455 2.110208 1.000000
302.707855 -534.228455 1.889792 1.000000
302.707855 -534.228455 1.669139 1.000000
302.707855 -534.228455 1.447776 1.000000
302.707855 -534.228455 1.225221 1.000000
302.707855 -534.228455 1.000984 1.000000
302.707855 -534.228455 0.774557 1.000000
302.707855 -534.228455 0.545418 1.000000
302.707855 -534.228455 0.313015 1.000000
302.721466 -534.273987 3.685230 1.000000
302.721466 -534.273987 3.453069 1.000000
302.721466 -534.273987 3.224167 1.000000
302.721466 -534.273987 2.997977 1.000000
302.721466 -534.273987 2.773973 1.000000
302.721466 -534.273987 2.551649 1.000000
302.721466 -534.273987 2.330516 1.000000
302.721466 -534.273987 2.110093 1.000000
302.721466 -534.273987 1.889907 1.000000
302.721466 -534.273987 1.669484 1.000000
302.721466 -534.273987 1.448351 1.000000
302.721466 -534.273987 1.226027 1.000000
302.721436 -534.273987 1.002023 1.000000
302.721436 -534.273987 0.775833 1.000000
302.721436 -534.273987 0.546932 1.000000
302.721466 -534.273987 0.314771 1.000000
302.735016 -534.319397 3.683560 1.000000
302.735016 -534.319397 3.451629 1.000000
302.735016 -534.319397 3.222954 1.000000
302.735016 -534.319397 2.996988 1.000000
302.735016 -534.319397 2.773206 1.000000
302.735016 -534.319397 2.551103 1.000000
302.735016 -534.319397 2.330189 1.000000
302.735016 -534.319397 2.109984 1.000000
302.735016 -534.319397 1.890016 1.000000
302.735016 -534.319397 1.669811 1.000000
302.735016 -534.319397 1.448897 1.000000
302.735016 -534.319397 1.226794 1.000000
302.735016 -534.319397 1.003012 1.000000
302.735016 -534.319397 0.777046 1.000000
302.735016 -534.319397 0.548372 1.000000
302.735016 -534.319397 0.316441 1.000000
302.748535 -534.364746 3.681975 1.000000
302.748535 -534.364746 3.450263 1.000000
302.748535 -534.364746 3.221803 1.000000
302.748535 -534.364746 2.996050 1.000000
302.748535 -534.364746 2.772478 1.000000
302.748535 -534.364746 2.550584 1.000000
302.748535 -534.364746 2.329878 1.000000
302.748535 -534.364746 2.109881 1.000000
302.748535 -534.364746 1.890119 1.000000
302.748535 -534.364746 1.670122 1.000000
302.748535 -534.364746 1.449416 1.000000
302.748535 -534.364746 1.227522 1.000000
302.748535 -534.364746 1.003951 1.000000
302.748535 -534.364746 0.778197 1.000000
302.748535 -534.364746 0.549738 1.000000
302.748535 -534.364746 0.318026 1.000000
302.762054 -534.410034 3.680475 1.000000
302.762054 -534.410034 3.448969 1.000000
302.762054 -534.410034 3.220713 1.000000
302.762054 -534.410034 2.995161 1.000000
302.762054 -534.410034 2.771789 1.000000
302.762024 -534.410034 2.550093 1.000000
302.762054 -534.410034 2.329584 1.000000
302.762024 -534.410034 2.109783 1.000000
302.762024 -534.410034 1.890217 1.000000
302.762024 -534.410034 1.670416 1.000000
302.762024 -534.410034 1.449907 1.000000
302.762024 -534.410034 1.228211 1.000000
302.762024 -534.410034 1.004839 1.000000
302.762024 -534.410034 0.779287 1.000000
302.762024 -534.410034 0.551032 1.000000
302.762024 -534.410034 0.319526 1.000000
302.775513 -534.455200 3.679059 1.000000
302.775513 -534.455200 3.447749 1.000000
302.775513 -534.455200 3.219685 1.000000
302.775513 -534.455200 2.994323 1.000000
302.775513 -534.455200 2.771139 1.000000
302.775513 -534.455200 2.549629 1.000000
302.775513 -534.455200 2.329306 1.000000
302.775513 -534.455200 2.109690 1.000000
302.775513 -534.455200 1.890310 1.000000
302.775513 -534.455200 1.670694 1.000000
302.775513 -534.455200 1.450371 1.000000
302.775513 -534.455200 1.228862 1.000000
302.775513 -534.455200 1.005677 1.000000
302.775513 -534.455200 0.780316 1.000000
302.775513 -534.455200 0.552252 1.000000
302.775513 -534.455200 0.320941 1.000000
302.788971 -534.500366 3.677728 1.000000
302.788971 -534.500366 3.446600 1.000000
302.788971 -534.500366 3.218718 1.000000
302.788971 -534.500366 2.993534 1.000000
302.788971 -534.500366 2.770527 1.000000
302.788971 -534.500366 2.549193 1.000000
302.788971 -534.500366 2.329045 1.000000
302.788971 -534.500366 2.109603 1.000000
302.788971 -534.500366 1.890397 1.000000
302.788971 -534.500366 1.670955 1.000000
302.788971 -534.500366 1.450806 1.000000
302.788971 -534.500366 1.229473 1.000000
302.788971 -534.500366 1.006466 1.000000
302.788971 -534.500366 0.781283 1.000000
302.788971 -534.500366 0.553400 1.000000
302.788971 -534.500366 0.322273 1.000000
302.802429 -534.545410 3.676480 1.000000
302.802429 -534.545410 3.445524 1.000000
302.802429 -534.545410 3.217812 1.000000
302.802429 -534.545410 2.992795 1.000000
302.802429 -534.545410 2.769954 1.000000
302.802429 -534.545410 2.548785 1.000000
302.802429 -534.545410 2.328800 1.000000
302.802429 -534.545410 2.109522 1.000000
302.802429 -534.545410 1.890478 1.000000
302.802429 -534.545410 1.671200 1.000000
302.802429 -534.545410 1.451215 1.000000
302.802429 -534.545410 1.230046 1.000000
302.802429 -534.545410 1.007205 1.000000
302.802429 -534.545410 0.782189 1.000000
302.802429 -534.545410 0.554476 1.000000
302.802429 -534.545410 0.323521 1.000000
302.815826 -534.590393 3.675316 1.000000
302.815826 -534.590393 3.444520 1.000000
302.815826 -534.590393 3.216965 1.000000
302.815826 -534.590393 2.992106 1.000000
302.815826 -534.590393 2.769419 1.000000
302.815826 -534.590393 2.548404 1.000000
302.815826 -534.590393 2.328572 1.000000
302.815826 -534.590393 2.109446 1.000000
302.815826 -534.590393 1.890554 1.000000
302.815826 -534.590393 1.671428 1.000000
302.815826 -534.590393 1.451596 1.000000
302.815826 -534.590393 1.230581 1.000000
302.815826 -534.590393 1.007894 1.000000
302.815826 -534.590393 0.783035 1.000000
302.815826 -534.590393 0.555480 1.000000
302.815826 -534.590393 0.324685 1.000000
302.829224 -534.635315 3.674235 1.000000
302.829224 -534.635315 3.443588 1.000000
302.829224 -534.635315 3.216180 1.000000
302.829224 -534.635315 2.991466 1.000000
302.829224 -534.635315 2.768923 1.000000
302.829224 -534.635315 2.548050 1.000000
302.829224 -534.635315 2.328360 1.000000
302.829224 -534.635315 2.109375 1.000000
302.829224 -534.635315 1.890625 1.000000
302.829224 -534.635315 1.671640 1.000000
302.829224 -534.635315 1.451950 1.000000
302.829224 -534.635315 1.231077 1.000000
302.829224 -534.635315 1.008535 1.000000
302.829224 -534.635315 0.783820 1.000000
302.829224 -534.635315 0.556412 1.000000
302.829224 -534.635315 0.325766 1.000000
302.842621 -534.680176 3.673236 1.000000
302.842621 -534.680176 3.442728 1.000000
302.842621 -534.680176 3.215455 1.000000
302.842621 -534.680176 2.990874 1.000000
302.842621 -534.680176 2.768465 1.000000
302.842621 -534.680176 2.547723 1.000000
302.842621 -534.680176 2.328164 1.000000
302.842621 -534.680176 2.109310 1.000000
302.842621 -534.680176 1.890690 1.000000
302.842621 -534.680176 1.671836 1.000000
302.842621 -534.680176 1.452277 1.000000
302.842621 -534.680176 1.231536 1.000000
302.842621 -534.680176 1.009126 1.000000
302.842621 -534.680176 0.784545 1.000000
302.842621 -534.680176 0.557273 1.000000
302.842621 -534.680176 0.326765 1.000000
302.855988 -534.724976 3.672320 1.000000
302.855988 -534.724976 3.441938 1.000000
302.855988 -534.724976 3.214790 1.000000
302.855988 -534.724976 2.990332 1.000000
302.855988 -534.724976 2.768044 1.000000
302.855988 -534.724976 2.547423 1.000000
302.855988 -534.724976 2.327985 1.000000
302.855988 -534.724976 2.109250 1.000000
302.855988 -534.724976 1.890750 1.000000
302.855988 -534.724976 1.672016 1.000000
302.855988 -534.724976 1.452576 1.000000
302.855988 -534.724976 1.231956 1.000000
302.855988 -534.724976 1.009668 1.000000
302.855988 -534.724976 0.785210 1.000000
302.855988 -534.724976 0.558062 1.000000
302.855988 -534.724976 0.327680 1.000000
302.869354 -534.769714 3.671487 1.000000
302.869354 -534.769714 3.441219 1.000000
302.869354 -534.769714 3.214185 1.000000
302.869354 -534.769714 2.989839 1.000000
302.869354 -534.769714 2.767661 1.000000
302.869354 -534.769714 2.547151 1.000000
302.869354 -534.769714 2.327821 1.000000
302.869354 -534.769714 2.109196 1.000000
302.869354 -534.769714 1.890804 1.000000
302.869354 -534.769714 1.672179 1.000000
302.869324 -534.769714 1.452849 1.000000
302.869354 -534.769714 1.232339 1.000000
302.869354 -534.769714 1.010161 1.000000
302.869354 -534.769714 0.785815 1.000000
302.869324 -534.769714 0.558781 1.000000
302.869324 -534.769714 0.328513 1.000000
302.882690 -534.814453 3.670737 1.000000
302.882690 -534.814453 3.440572 1.000000
302.882690 -534.814453 3.213639 1.000000
302.882690 -534.814453 2.989394 1.000000
302.882690 -534.814453 2.767316 1.000000
302.882690 -534.814453 2.546905 1.000000
302.882690 -534.814453 2.327674 1.000000
302.882690 -534.814453 2.109147 1.000000
302.882690 -534.814453 1.890854 1.000000
302.882690 -534.814453 1.672326 1.000000
302.882690 -534.814453 1.453095 1.000000
302.882690 -534.814453 1.232684 1.000000
302.882690 -534.814453 1.010606 1.000000
302.882690 -534.814453 0.786361 1.000000
302.882690 -534.814453 0.559428 1.000000
302.882690 -534.814453 0.329264 1.000000
302.896027 -534.859131 3.670068 1.000000
302.896027 -534.859131 3.439995 1.000000
302.896027 -534.859131 3.213153 1.000000
302.896027 -534.859131 2.988998 1.000000
302.896027 -534.859131 2.767009 1.000000
302.896027 -534.859131 2.546686 1.000000
302.896027 -534.859131 2.327542 1.000000
302.896027 -534.859131 2.109103 1.000000
302.896027 -534.859131 1.890897 1.000000
302.896027 -534.859131 1.672457 1.000000
302.896027 -534.859131 1.453314 1.000000
302.896027 -534.859131 1.232991 1.000000
302.896027 -534.859131 1.011002 1.000000
302.896027 -534.859131 0.786847 1.000000
302.896027 -534.859131 0.560005 1.000000
302.896027 -534.859131 0.329933 1.000000
302.909332 -534.903809 3.669480 1.000000
302.909332 -534.903809 3.439489 1.000000
302.909332 -534.903809 3.212727 1.000000
302.909332 -534.903809 2.988650 1.000000
302.909332 -534.903809 2.766740 1.000000
302.909332 -534.903809 2.546494 1.000000
302.909332 -534.903809 2.327427 1.000000
302.909332 -534.903809 2.109065 1.000000
302.909332 -534.903809 1.890935 1.000000
302.909332 -534.903809 1.672572 1.000000
302.909332 -534.903809 1.453506 1.000000
302.909332 -534.903809 1.233261 1.000000
302.909332 -534.903809 1.011350 1.000000
302.909332 -534.903809 0.787273 1.000000
302.909332 -534.903809 0.560511 1.000000
302.909332 -534.903809 0.330520 1.000000
302.922638 -534.948425 3.668976 1.000000
302.922638 -534.948425 3.439054 1.000000
302.922638 -534.948425 3.212359 1.000000
302.922638 -534.948425 2.988351 1.000000
302.922638 -534.948425 2.766507 1.000000
302.922638 -534.948425 2.546328 1.000000
302.922638 -534.948425 2.327328 1.000000
302.922638 -534.948425 2.109031 1.000000
302.922638 -534.948425 1.890969 1.000000
302.922638 -534.948425 1.672672 1.000000
302.922638 -534.948425 1.453671 1.000000
302.922638 -534.948425 1.233493 1.000000
302.922638 -534.948425 1.011649 1.000000
302.922638 -534.948425 0.787641 1.000000
302.922638 -534.948425 0.560947 1.000000
302.922638 -534.948425 0.331025 1.000000
302.935944 -534.993042 3.668551 1.000000
302.935944 -534.993042 3.438688 1.000000
302.935944 -534.993042 3.212052 1.000000
302.935944 -534.993042 2.988100 1.000000
302.935944 -534.993042 2.766313 1.000000
302.935944 -534.993042 2.546190 1.000000
302.935944 -534.993042 2.327245 1.000000
302.935944 -534.993042 2.109004 1.000000
302.935944 -534.993042 1.890996 1.000000
302.935944 -534.993042 1.672755 1.000000
302.935944 -534.993042 1.453810 1.000000
302.935944 -534.993042 1.233688 1.000000
302.935944 -534.993042 1.011900 1.000000
302.935944 -534.993042 0.787949 1.000000
302.935944 -534.993042 0.561313 1.000000
302.935944 -534.993042 0.331450 1.000000
302.949249 -535.037598 3.668209 1.000000
302.949249 -535.037598 3.438393 1.000000
302.949249 -535.037598 3.211803 1.000000
302.949249 -535.037598 2.987897 1.000000
302.949249 -535.037598 2.766156 1.000000
302.949249 -535.037598 2.546077 1.000000
302.949249 -535.037598 2.327178 1.000000
302.949249 -535.037598 2.108981 1.000000
302.949249 -535.037598 1.891019 1.000000
302.949249 -535.037598 1.672822 1.000000
302.949249 -535.037598 1.453922 1.000000
302.949249 -535.037598 1.233845 1.000000
302.949249 -535.037598 1.012103 1.000000
302.949249 -535.037598 0.788197 1.000000
302.949249 -535.037598 0.561608 1.000000
302.949249 -535.037598 0.331791 1.000000
302.962555 -535.082153 3.667948 1.000000
302.962555 -535.082153 3.438168 1.000000
302.962555 -535.082153 3.211614 1.000000
302.962555 -535.082153 2.987743 1.000000
302.962555 -535.082153 2.766036 1.000000
302.962555 -535.082153 2.545992 1.000000
302.962555 -535.082153 2.327127 1.000000
302.962555 -535.082153 2.108964 1.000000
302.962555 -535.082153 1.891036 1.000000
302.962555 -535.082153 1.672873 1.000000
302.962555 -535.082153 1.454008 1.000000
302.962555 -535.082153 1.233964 1.000000
302.962555 -535.082153 1.012257 1.000000
302.962555 -535.082153 0.788387 1.000000
302.962555 -535.082153 0.561833 1.000000
302.962555 -535.082153 0.332053 1.000000
302.975830 -535.126709 3.667769 1.000000
302.975830 -535.126709 3.438014 1.000000
302.975830 -535.126709 3.211483 1.000000
302.975830 -535.126709 2.987637 1.000000
302.975830 -535.126709 2.765953 1.000000
302.975830 -535.126709 2.545933 1.000000
302.975830 -535.126709 2.327092 1.000000
302.975830 -535.126709 2.108953 1.000000
302.975830 -535.126709 1.891047 1.000000
302.975830 -535.126709 1.672908 1.000000
302.975830 -535.126709 1.454067 1.000000
302.975830 -535.126709 1.234047 1.000000
302.975830 -535.126709 1.012364 1.000000
302.975830 -535.126709 0.788517 1.000000
302.975830 -535.126709 0.561988 1.000000
302.975830 -535.126709 0.332232 1.000000
302.989105 -535.171265 3.667670 1.000000
302.989136 -535.171265 3.437929 1.000000
302.989136 -535.171265 3.211412 1.000000
302.989105 -535.171265 2.987578 1.000000
302.989105 -535.171265 2.765908 1.000000
302.989105 -535.171265 2.545901 1.000000
302.989105 -535.171265 2.327072 1.000000
302.989105 -535.171265 2.108946 1.000000
302.989105 -535.171265 1.891054 1.000000
302.989105 -535.171265 1.672928 1.000000
302.989105 -535.171265 1.454099 1.000000
302.989105 -535.171265 1.234092 1.000000
302.989105 -535.171265 1.012422 1.000000
302.989105 -535.171265 0.788588 1.000000
302.989105 -535.171265 0.562072 1.000000
302.989105 -535.171265 0.332330 1.000000
303.002411 -535.215820 3.667654 1.000000
303.002411 -535.215820 3.437914 1.000000
303.002411 -535.215820 3.211400 1.000000
303.002411 -535.215820 2.987569 1.000000
303.002411 -535.215820 2.765900 1.000000
303.002411 -535.215820 2.545896 1.000000
303.002411 -535.215820 2.327069 1.000000
303.002411 -535.215820 2.108945 1.000000
303.002411 -535.215820 1.891055 1.000000
303.002411 -535.215820 1.672931 1.000000
303.002411 -535.215820 1.454104 1.000000
303.002411 -535.215820 1.234100 1.000000
303.002411 -535.215820 1.012432 1.000000
303.002411 -535.215820 0.788601 1.000000
303.002411 -535.215820 0.562087 1.000000
303.002411 -535.215820 0.332347 1.000000
303.015686 -535.260315 3.667718 1.000000
303.015686 -535.260315 3.437969 1.000000
303.015686 -535.260315 3.211447 1.000000
303.015686 -535.260315 2.987607 1.000000
303.015686 -535.260315 2.765930 1.000000
303.015686 -535.260315 2.545917 1.000000
303.015686 -535.260315 2.327082 1.000000
303.015686 -535.260315 2.108949 1.000000
303.015686 -535.260315 1.891051 1.000000
303.015686 -535.260315 1.672918 1.000000
303.015686 -535.260315 1.454083 1.000000
303.015686 -535.260315 1.234070 1.000000
303.015686 -535.260315 1.012393 1.000000
303.015686 -535.260315 0.788554 1.000000
303.015686 -535.260315 0.562031 1.000000
303.015686 -535.260315 0.332283 1.000000
303.028992 -535.304871 3.667864 1.000000
303.028992 -535.304871 3.438095 1.000000
303.028992 -535.304871 3.211553 1.000000
303.028992 -535.304871 2.987693 1.000000
303.028992 -535.304871 2.765997 1.000000
303.028992 -535.304871 2.545965 1.000000
303.028992 -535.304871 2.327110 1.000000
303.028992 -535.304871 2.108959 1.000000
303.028992 -535.304871 1.891041 1.000000
303.028992 -535.304871 1.672890 1.000000
303.028992 -535.304871 1.454035 1.000000
303.028992 -535.304871 1.234003 1.000000
303.028992 -535.304871 1.012307 1.000000
303.028992 -535.304871 0.788448 1.000000
303.028992 -535.304871 0.561905 1.000000
303.028992 -535.304871 0.332137 1.000000
303.042267 -535.349426 3.668091 1.000000
303.042267 -535.349426 3.438291 1.000000
303.042267 -535.349426 3.211717 1.000000
303.042267 -535.349426 2.987827 1.000000
303.042267 -535.349426 2.766101 1.000000
303.042267 -535.349426 2.546039 1.000000
303.042267 -535.349426 2.327155 1.000000
303.042267 -535.349426 2.108974 1.000000
303.042267 -535.349426 1.891026 1.000000
303.042267 -535.349426 1.672845 1.000000
303.042267 -535.349426 1.453961 1.000000
303.042267 -535.349426 1.233899 1.000000
303.042267 -535.349426 1.012173 1.000000
303.042267 -535.349426 0.788283 1.000000
303.042267 -535.349426 0.561710 1.000000
303.042267 -535.349426 0.331910 1.000000
303.055573 -535.393982 3.668400 1.000000
303.055573 -535.393982 3.438557 1.000000
303.055573 -535.393982 3.211942 1.000000
303.055573 -535.393982 2.988010 1.000000
303.055573 -535.393982 2.766243 1.000000
303.055573 -535.393982 2.546140 1.000000
303.055573 -535.393982 2.327215 1.000000
303.055573 -535.393982 2.108994 1.000000
303.055573 -535.393982 1.891006 1.000000
303.055573 -535.393982 1.672785 1.000000
303.055573 -535.393982 1.453860 1.000000
303.055573 -535.393982 1.233757 1.000000
303.055573 -535.393982 1.011990 1.000000
303.055573 -535.393982 0.788059 1.000000
303.055573 -535.393982 0.561444 1.000000
303.055573 -535.393982 0.331602 1.000000
303.068878 -535.438599 3.668789 1.000000
303.068878 -535.438599 3.438893 1.000000
303.068878 -535.438599 3.212225 1.000000
303.068878 -535.438599 2.988241 1.000000
303.068878 -535.438599 2.766422 1.000000
303.068878 -535.438599 2.546268 1.000000
303.068878 -535.438599 2.327292 1.000000
303.068878 -535.438599 2.109019 1.000000
303.068878 -535.438599 1.890981 1.000000
303.068878 -535.438599 1.672708 1.000000
303.068878 -535.438599 1.453732 1.000000
303.068878 -535.438599 1.233578 1.000000
303.068878 -535.438599 1.011759 1.000000
303.068878 -535.438599 0.787776 1.000000
303.068878 -535.438599 0.561108 1.000000
303.068878 -535.438599 0.331212 1.000000
303.082184 -535.483215 3.669261 1.000000
303.082184 -535.483215 3.439299 1.000000
303.082184 -535.483215 3.212567 1.000000
303.082184 -535.483215 2.988520 1.000000
303.082184 -535.483215 2.766639 1.000000
303.082184 -535.483215 2.546422 1.000000
303.082184 -535.483215 2.327384 1.000000
303.082184 -535.483215 2.109050 1.000000
303.082184 -535.483215 1.890950 1.000000
303.082184 -535.483215 1.672616 1.000000
303.082184 -535.483215 1.453578 1.000000
303.082184 -535.483215 1.233362 1.000000
303.082184 -535.483215 1.011480 1.000000
303.082184 -535.483215 0.787433 1.000000
303.082184 -535.483215 0.560701 1.000000
303.082184 -535.483215 0.330740 1.000000
303.095490 -535.527832 3.669814 1.000000
303.095490 -535.527832 3.439776 1.000000
303.095490 -535.527832 3.212969 1.000000
303.095490 -535.527832 2.988847 1.000000
303.095490 -535.527832 2.766892 1.000000
303.095490 -535.527832 2.546603 1.000000
303.095490 -535.527832 2.327493 1.000000
303.095490 -535.527832 2.109086 1.000000
303.095490 -535.527832 1.890914 1.000000
303.095490 -535.527832 1.672507 1.000000
303.095490 -535.527832 1.453397 1.000000
303.095490 -535.527832 1.233108 1.000000
303.095490 -535.527832 1.011153 1.000000
303.095490 -535.527832 0.787032 1.000000
303.095490 -535.527832 0.560224 1.000000
303.095490 -535.527832 0.330187 1.000000
303.108826 -535.572510 3.670449 1.000000
303.108826 -535.572510 3.440324 1.000000
303.108826 -535.572510 3.213430 1.000000
303.108826 -535.572510 2.989224 1.000000
303.108826 -535.572510 2.767184 1.000000
303.108826 -535.572510 2.546811 1.000000
303.108826 -535.572510 2.327617 1.000000
303.108826 -535.572510 2.109128 1.000000
303.108826 -535.572510 1.890872 1.000000
303.108826 -535.572510 1.672383 1.000000
303.108826 -535.572510 1.453189 1.000000
303.108826 -535.572510 1.232816 1.000000
303.108826 -535.572510 1.010777 1.000000
303.108826 -535.572510 0.786570 1.000000
303.108826 -535.572510 0.559677 1.000000
303.108826 -535.572510 0.329552 1.000000
303.122162 -535.617249 3.671165 1.000000
303.122162 -535.617249 3.440942 1.000000
303.122162 -535.617249 3.213951 1.000000
303.122162 -535.617249 2.989648 1.000000
303.122162 -535.617249 2.767514 1.000000
303.122162 -535.617249 2.547045 1.000000
303.122162 -535.617249 2.327758 1.000000
303.122162 -535.617249 2.109175 1.000000
303.122162 -535.617249 1.890825 1.000000
303.122162 -535.617249 1.672242 1.000000
303.122162 -535.617249 1.452955 1.000000
303.122162 -535.617249 1.232487 1.000000
303.122162 -535.617249 1.010352 1.000000
303.122162 -535.617249 0.786049 1.000000
303.122162 -535.617249 0.559059 1.000000
303.122162 -535.617249 0.328835 1.000000
303.135498 -535.661987 3.671965 1.000000
303.135498 -535.661987 3.441631 1.000000
303.135498 -535.661987 3.214531 1.000000
303.135498 -535.661987 2.990121 1.000000
303.135498 -535.661987 2.767880 1.000000
303.135498 -535.661987 2.547307 1.000000
303.135498 -535.661987 2.327914 1.000000
303.135498 -535.661987 2.109227 1.000000
303.135498 -535.661987 1.890773 1.000000
303.135498 -535.661987 1.672085 1.000000
303.135498 -535.661987 1.452693 1.000000
303.135498 -535.661987 1.232120 1.000000
303.135498 -535.661987 1.009879 1.000000
303.135498 -535.661987 0.785469 1.000000
303.135498 -535.661987 0.558370 1.000000
303.135498 -535.661987 0.328036 1.000000
303.148865 -535.706787 3.672846 1.000000
303.148865 -535.706787 3.442391 1.000000
303.148865 -535.706787 3.215171 1.000000
303.148865 -535.706787 2.990643 1.000000
303.148865 -535.706787 2.768285 1.000000
303.148865 -535.706787 2.547596 1.000000
303.148865 -535.706787 2.328088 1.000000
303.148865 -535.706787 2.109284 1.000000
303.148865 -535.706787 1.890716 1.000000
303.148865 -535.706787 1.671912 1.000000
303.148865 -535.706787 1.452404 1.000000
303.148865 -535.706787 1.231715 1.000000
303.148865 -535.706787 1.009357 1.000000
303.148865 -535.706787 0.784829 1.000000
303.148865 -535.706787 0.557609 1.000000
303.148865 -535.706787 0.327155 1.000000
303.162262 -535.751587 3.673810 1.000000
303.162262 -535.751587 3.443222 1.000000
303.162262 -535.751587 3.215872 1.000000
303.162262 -535.751587 2.991214 1.000000
303.162262 -535.751587 2.768728 1.000000
303.162262 -535.751587 2.547911 1.000000
303.162262 -535.751587 2.328277 1.000000
303.162262 -535.751587 2.109347 1.000000
303.162262 -535.751587 1.890653 1.000000
303.162262 -535.751587 1.671723 1.000000
303.162262 -535.751587 1.452089 1.000000
303.162262 -535.751587 1.231272 1.000000
303.162262 -535.751587 1.008786 1.000000
303.162262 -535.751587 0.784128 1.000000
303.162262 -535.751587 0.556779 1.000000
303.162231 -535.751587 0.326191 1.000000
303.175629 -535.796509 3.674856 1.000000
303.175659 -535.796509 3.444125 1.000000
303.175659 -535.796509 3.216632 1.000000
303.175629 -535.796509 2.991834 1.000000
303.175629 -535.796509 2.769209 1.000000
303.175629 -535.796509 2.548254 1.000000
303.175629 -535.796509 2.328482 1.000000
303.175629 -535.796509 2.109416 1.000000
303.175629 -535.796509 1.890584 1.000000
303.175629 -535.796509 1.671518 1.000000
303.175629 -535.796509 1.451746 1.000000
303.175629 -535.796509 1.230792 1.000000
303.175629 -535.796509 1.008166 1.000000
303.175629 -535.796509 0.783368 1.000000
303.175629 -535.796509 0.555876 1.000000
303.175629 -535.796509 0.325144 1.000000
303.189056 -535.841492 3.675986 1.000000
303.189056 -535.841492 3.445098 1.000000
303.189056 -535.841492 3.217453 1.000000
303.189056 -535.841492 2.992503 1.000000
303.189056 -535.841492 2.769727 1.000000
303.189056 -535.841492 2.548623 1.000000
303.189056 -535.841492 2.328703 1.000000
303.189056 -535.841492 2.109489 1.000000
303.189056 -535.841492 1.890511 1.000000
303.189056 -535.841492 1.671297 1.000000
303.189056 -535.841492 1.451376 1.000000
303.189056 -535.841492 1.230273 1.000000
303.189056 -535.841492 1.007497 1.000000
303.189056 -535.841492 0.782547 1.000000
303.189056 -535.841492 0.554902 1.000000
303.189056 -535.841492 0.324015 1.000000
303.202484 -535.886475 3.677199 1.000000
303.202484 -535.886475 3.446145 1.000000
303.202484 -535.886475 3.218334 1.000000
303.202484 -535.886475 2.993221 1.000000
303.202484 -535.886475 2.770285 1.000000
303.202484 -535.886475 2.549021 1.000000
303.202484 -535.886475 2.328941 1.000000
303.202484 -535.886475 2.109569 1.000000
303.202484 -535.886475 1.890431 1.000000
303.202484 -535.886475 1.671059 1.000000
303.202484 -535.886475 1.450979 1.000000
303.202484 -535.886475 1.229716 1.000000
303.202484 -535.886475 1.006779 1.000000
303.202484 -535.886475 0.781666 1.000000
303.202484 -535.886475 0.553856 1.000000
303.202484 -535.886475 0.322801 1.000000
303.215942 -535.931580 3.678496 1.000000
303.215942 -535.931580 3.447262 1.000000
303.215942 -535.931580 3.219275 1.000000
303.215942 -535.931580 2.993989 1.000000
303.215942 -535.931580 2.770880 1.000000
303.215942 -535.931580 2.549445 1.000000
303.215942 -535.931580 2.329195 1.000000
303.215942 -535.931580 2.109653 1.000000
303.215942 -535.931580 1.890347 1.000000
303.215942 -535.931580 1.670804 1.000000
303.215942 -535.931580 1.450555 1.000000
303.215942 -535.931580 1.229120 1.000000
303.215942 -535.931580 1.006011 1.000000
303.215942 -535.931580 0.780725 1.000000
303.215942 -535.931580 0.552738 1.000000
303.215942 -535.931580 0.321505 1.000000
303.229401 -535.976746 3.679877 1.000000
303.229401 -535.976746 3.448453 1.000000
303.229401 -535.976746 3.220279 1.000000
303.229401 -535.976746 2.994807 1.000000
303.229401 -535.976746 2.771514 1.000000
303.229401 -535.976746 2.549897 1.000000
303.229401 -535.976746 2.329466 1.000000
303.229401 -535.976746 2.109744 1.000000
303.229401 -535.976746 1.890256 1.000000
303.229401 -535.976746 1.670534 1.000000
303.229401 -535.976746 1.450103 1.000000
303.229401 -535.976746 1.228486 1.000000
303.229401 -535.976746 1.005193 1.000000
303.229401 -535.976746 0.779722 1.000000
303.229401 -535.976746 0.551548 1.000000
303.229401 -535.976746 0.320124 1.000000
303.242889 -536.021973 3.681342 1.000000
303.242889 -536.021973 3.449716 1.000000
303.242889 -536.021973 3.221343 1.000000
303.242889 -536.021973 2.995674 1.000000
303.242889 -536.021973 2.772187 1.000000
303.242889 -536.021973 2.550376 1.000000
303.242889 -536.021973 2.329753 1.000000
303.242889 -536.021973 2.109839 1.000000
303.242889 -536.021973 1.890161 1.000000
303.242889 -536.021973 1.670246 1.000000
303.242889 -536.021973 1.449623 1.000000
303.242889 -536.021973 1.227813 1.000000
303.242889 -536.021973 1.004326 1.000000
303.242889 -536.021973 0.778657 1.000000
303.242889 -536.021973 0.550284 1.000000
303.242889 -536.021973 0.318659 1.000000
303.256409 -536.067261 3.682891 1.000000
303.256409 -536.067261 3.451053 1.000000
303.256409 -536.067261 3.222468 1.000000
303.256409 -536.067261 2.996592 1.000000
303.256409 -536.067261 2.772898 1.000000
303.256409 -536.067261 2.550884 1.000000
303.256409 -536.067261 2.330058 1.000000
303.256409 -536.067261 2.109941 1.000000
303.256409 -536.067261 1.890059 1.000000
303.256409 -536.067261 1.669942 1.000000
303.256409 -536.067261 1.449116 1.000000
303.256409 -536.067261 1.227102 1.000000
303.256409 -536.067261 1.003408 1.000000
303.256409 -536.067261 0.777532 1.000000
303.256409 -536.067261 0.548948 1.000000
303.256409 -536.067261 0.317109 1.000000
303.269958 -536.112671 3.684526 1.000000
303.269958 -536.112671 3.452462 1.000000
303.269958 -536.112671 3.223656 1.000000
303.269958 -536.112671 2.997560 1.000000
303.269958 -536.112671 2.773649 1.000000
303.269958 -536.112671 2.551419 1.000000
303.269958 -536.112671 2.330378 1.000000
303.269958 -536.112671 2.110048 1.000000
303.269958 -536.112671 1.889953 1.000000
303.269958 -536.112671 1.669622 1.000000
303.269958 -536.112671 1.448581 1.000000
303.269958 -536.112671 1.226351 1.000000
303.269958 -536.112671 1.002440 1.000000
303.269958 -536.112671 0.776344 1.000000
303.269958 -536.112671 0.547539 1.000000
303.269958 -536.112671 0.315475 1.000000
303.283539 -536.158142 3.686246 1.000000
303.283539 -536.158142 3.453945 1.000000
303.283539 -536.158142 3.224905 1.000000
303.283539 -536.158142 2.998579 1.000000
303.283539 -536.158142 2.774439 1.000000
303.283539 -536.158142 2.551982 1.000000
303.283539 -536.158142 2.330716 1.000000
303.283539 -536.158142 2.110160 1.000000
303.283539 -536.158142 1.889840 1.000000
303.283539 -536.158142 1.669284 1.000000
303.283539 -536.158142 1.448018 1.000000
303.283539 -536.158142 1.225561 1.000000
303.283539 -536.158142 1.001421 1.000000
303.283539 -536.158142 0.775095 1.000000
303.283539 -536.158142 0.546056 1.000000
303.283539 -536.158142 0.313755 1.000000
303.297119 -536.203735 3.688052 1.000000
303.297119 -536.203735 3.455502 1.000000
303.297119 -536.203735 3.226217 1.000000
303.297119 -536.203735 2.999648 1.000000
303.297119 -536.203735 2.775269 1.000000
303.297119 -536.203735 2.552573 1.000000
303.297119 -536.203735 2.331070 1.000000
303.297119 -536.203735 2.110278 1.000000
303.297119 -536.203735 1.889722 1.000000
303.297119 -536.203735 1.668930 1.000000
303.297119 -536.203735 1.447427 1.000000
303.297119 -536.203735 1.224731 1.000000
303.297119 -536.203735 1.000352 1.000000
303.297119 -536.203735 0.773783 1.000000
303.297119 -536.203735 0.544499 1.000000
303.297119 -536.203735 0.311949 1.000000
303.310760 -536.249451 3.689944 1.000000
303.310760 -536.249451 3.457134 1.000000
303.310760 -536.249451 3.227592 1.000000
303.310760 -536.249451 3.000769 1.000000
303.310760 -536.249451 2.776138 1.000000
303.310760 -536.249451 2.553192 1.000000
303.310760 -536.249451 2.331441 1.000000
303.310760 -536.249451 2.110401 1.000000
303.310760 -536.249451 1.889599 1.000000
303.310760 -536.249451 1.668559 1.000000
303.310760 -536.249451 1.446808 1.000000
303.310760 -536.249451 1.223862 1.000000
303.310760 -536.249451 0.999232 1.000000
303.310760 -536.249451 0.772408 1.000000
303.310760 -536.249451 0.542867 1.000000
303.310760 -536.249451 0.310057 1.000000
303.324432 -536.295227 3.691923 1.000000
303.324432 -536.295227 3.458840 1.000000
303.324432 -536.295227 3.229029 1.000000
303.324432 -536.295227 3.001940 1.000000
303.324432 -536.295227 2.777047 1.000000
303.324432 -536.295227 2.553840 1.000000
303.324432 -536.295227 2.331829 1.000000
303.324402 -536.295227 2.110531 1.000000
303.324402 -536.295227 1.889469 1.000000
303.324402 -536.295227 1.668171 1.000000
303.324402 -536.295227 1.446160 1.000000
303.324402 -536.295227 1.222954 1.000000
303.324402 -536.295227 0.998060 1.000000
303.324402 -536.295227 0.770971 1.000000
303.324402 -536.295227 0.541161 1.000000
303.324402 -536.295227 0.308078 1.000000
303.338104 -536.341125 3.693990 1.000000
303.338104 -536.341125 3.460622 1.000000
303.338104 -536.341125 3.230531 1.000000
303.338104 -536.341125 3.003164 1.000000
303.338104 -536.341125 2.777996 1.000000
303.338104 -536.341125 2.554517 1.000000
303.338104 -536.341125 2.332234 1.000000
303.338104 -536.341125 2.110666 1.000000
303.338104 -536.341125 1.889334 1.000000
303.338104 -536.341125 1.667766 1.000000
303.338104 -536.341125 1.445483 1.000000
303.338104 -536.341125 1.222004 1.000000
303.338104 -536.341125 0.996836 1.000000
303.338104 -536.341125 0.769470 1.000000
303.338104 -536.341125 0.539379 1.000000
303.338104 -536.341125 0.306011 1.000000
303.351837 -536.387146 3.696144 1.000000
303.351837 -536.387146 3.462479 1.000000
303.351837 -536.387146 3.232095 1.000000
303.351837 -536.387146 3.004440 1.000000
303.351837 -536.387146 2.778985 1.000000
303.351837 -536.387146 2.555222 1.000000
303.351837 -536.387146 2.332657 1.000000
303.351837 -536.387146 2.110806 1.000000
303.351837 -536.387146 1.889194 1.000000
303.351837 -536.387146 1.667343 1.000000
303.351837 -536.387146 1.444778 1.000000
303.351837 -536.387146 1.221015 1.000000
303.351837 -536.387146 0.995560 1.000000
303.351837 -536.387146 0.767905 1.000000
303.351837 -536.387146 0.537521 1.000000
303.351837 -536.387146 0.303857 1.000000
303.365601 -536.433289 3.698386 1.000000
303.365601 -536.433289 3.464413 1.000000
303.365601 -536.433289 3.233724 1.000000
303.365601 -536.433289 3.005768 1.000000
303.365601 -536.433289 2.780015 1.000000
303.365601 -536.433289 2.555956 1.000000
303.365601 -536.433289 2.333097 1.000000
303.365601 -536.433289 2.110953 1.000000
303.365601 -536.433289 1.889047 1.000000
303.365601 -536.433289 1.666903 1.000000
303.365601 -536.433289 1.444044 1.000000
303.365601 -536.433289 1.219985 1.000000
303.365601 -536.433289 0.994232 1.000000
303.365601 -536.433289 0.766276 1.000000
303.365601 -536.433289 0.535588 1.000000
303.365601 -536.433289 0.301614 1.000000
