# This PCD file was generated using the MATLABÂ® pcwrite function
# from Computer Vision ToolboxÂ®.
# .PCD v.7 - Point Cloud Data file format
VERSION .7
FIELDS x y z intensity
SIZE 4 4 4 4
TYPE F F F F
COUNT 1 1 1 1
WIDTH 1212
HEIGHT 1
VIEWPOINT 0 0 0 1 0 0 0
POINTS 1212
DATA ascii
283.493988 -517.797729 -0.000003 0.339330
285.056885 -517.052307 0.000008 0.345006
286.208252 -516.503174 -0.000010 0.337530
nan nan nan 0.000000
255.116302 -531.005798 11.134241 1.000000
255.116302 -531.005798 9.695328 1.000000
255.116302 -531.005798 8.273455 1.000000
255.116302 -531.005798 6.865326 1.000000
255.116302 -531.005798 5.467764 1.000000
255.116287 -531.005798 4.077683 1.000000
255.116287 -531.005798 2.692066 1.000000
255.116287 -531.005798 1.307933 1.000000
256.548523 -530.334900 0.000014 0.537057
271.326630 -523.412476 0.000006 0.337896
277.671509 -520.440430 0.000007 0.547997
281.205231 -518.785095 0.000006 0.526833
283.461182 -517.728394 -0.000005 0.336797
285.029236 -516.993835 0.000008 0.338918
286.184448 -516.452759 -0.000001 0.339055
nan nan nan 0.000000
254.959381 -530.752991 11.141990 1.000000
254.959381 -530.752991 9.701857 1.000000
254.959381 -530.752991 8.278780 1.000000
254.959381 -530.752991 6.869453 1.000000
254.959381 -530.752991 5.470704 1.000000
254.959381 -530.752991 4.079446 1.000000
254.959381 -530.752991 2.692654 1.000000
254.959381 -530.752991 1.307346 1.000000
256.428864 -530.077148 0.000014 0.542351
271.254944 -523.258057 0.000005 0.338918
277.620392 -520.330322 0.000007 0.551583
281.165619 -518.699768 0.000005 0.540688
283.478821 -517.635803 0.009998 1.000000
285.002045 -516.935242 0.000009 0.340261
286.160980 -516.402161 -0.000002 0.328710
nan nan nan 0.000000
254.802200 -530.499756 11.150200 1.000000
254.802200 -530.499756 9.708772 1.000000
254.802216 -530.499756 8.284416 1.000000
254.802200 -530.499756 6.873827 1.000000
254.802200 -530.499756 5.473822 1.000000
254.802200 -530.499756 4.081313 1.000000
254.802216 -530.499756 2.693276 1.000000
254.802200 -530.499756 1.306725 1.000000
256.311005 -529.818481 0.000014 0.537545
271.184265 -523.103088 0.000001 0.337194
277.570068 -520.219849 0.000007 0.555459
281.126526 -518.614136 -0.000003 0.337285
283.447235 -517.566284 0.010011 1.000000
284.975220 -516.876404 0.000009 0.337423
286.137848 -516.351440 -0.000004 0.335180
nan nan nan 0.000000
254.644745 -530.246033 11.158869 1.000000
254.644745 -530.246033 9.716076 1.000000
254.644745 -530.246033 8.290371 1.000000
254.644730 -530.246033 6.878446 1.000000
254.644745 -530.246033 5.477112 1.000000
254.644730 -530.246033 4.083285 1.000000
254.644730 -530.246033 2.693931 1.000000
254.644730 -530.246033 1.306068 1.000000
256.194946 -529.559082 0.000014 0.540276
271.114746 -522.947693 0.000000 0.338460
277.520386 -520.109131 -0.000008 0.337270
281.149719 -518.500854 0.009997 1.000000
283.365723 -517.518921 -0.000004 0.336675
284.948822 -516.817383 0.000009 0.330922
286.115082 -516.300598 -0.000006 0.338888
nan nan nan 0.000000
254.486954 -529.991760 11.168005 1.000000
254.486954 -529.991760 9.723772 1.000000
254.486954 -529.991760 8.296644 1.000000
254.486954 -529.991760 6.883311 1.000000
254.486954 -529.991760 5.480581 1.000000
254.486954 -529.991760 4.085362 1.000000
254.486954 -529.991760 2.694624 1.000000
254.486938 -529.991821 1.305376 1.000000
256.080719 -529.298828 0.000014 0.538338
271.046295 -522.791748 0.000000 0.335271
277.551422 -519.963318 0.010006 1.000000
281.112122 -518.415100 0.010005 1.000000
283.334900 -517.448608 0.000002 0.328466
284.922852 -516.758179 0.000012 0.339910
286.092682 -516.249512 -0.000003 0.333867
nan nan nan 0.000000
254.328857 -529.737061 11.177603 1.000000
254.328857 -529.737061 9.731859 1.000000
254.328857 -529.737061 8.303240 1.000000
254.328857 -529.737061 6.888423 1.000000
254.328857 -529.737061 5.484223 1.000000
254.328857 -529.737061 4.087546 1.000000
254.328842 -529.737061 2.695351 1.000000
254.328842 -529.737061 1.304648 1.000000
255.968292 -529.037781 0.000014 0.546944
270.978912 -522.635376 0.000000 0.337240
277.503540 -519.852417 0.009991 1.000000
281.075104 -518.329041 0.010008 1.000000
283.304565 -517.378113 0.000005 0.333227
284.897278 -516.698792 0.000013 0.331533
286.070679 -516.198303 0.000004 0.338827
nan nan nan 0.000000
254.170425 -529.481750 11.187672 1.000000
254.170410 -529.481750 9.740341 1.000000
254.170410 -529.481750 8.310152 1.000000
254.170410 -529.481750 6.893786 1.000000
254.170410 -529.481750 5.488048 1.000000
254.170410 -529.481750 4.089836 1.000000
254.170410 -529.481750 2.696114 1.000000
254.170410 -529.481750 1.303886 1.000000
255.857666 -528.776001 0.000013 0.539971
270.912659 -522.478516 -0.000000 0.338827
277.376373 -519.774719 -0.000009 0.338155
280.976379 -518.268860 -0.000007 0.336934
283.274719 -517.307434 0.000003 0.340810
284.872162 -516.639221 0.000016 0.335134
286.048981 -516.146973 0.000008 0.332982
nan nan nan 0.000000
254.011612 -529.225891 11.198213 1.000000
254.011612 -529.225891 9.749220 1.000000
254.011612 -529.225891 8.317391 1.000000
254.011612 -529.225891 6.899400 1.000000
254.011612 -529.225891 5.492048 1.000000
254.011612 -529.225891 4.092232 1.000000
254.011612 -529.225891 2.696913 1.000000
254.011612 -529.225891 1.303087 1.000000
255.748932 -528.513367 0.000013 0.539437
270.847504 -522.321167 -0.000000 0.340047
277.329926 -519.662598 -0.000009 0.334813
280.940338 -518.181885 -0.000007 0.336187
283.245300 -517.236572 -0.000003 0.335943
284.847412 -516.579529 0.000017 0.326757
286.027649 -516.095459 0.000007 0.340536
nan nan nan 0.000000
253.852448 -528.969421 11.209224 1.000000
253.852448 -528.969421 9.758499 1.000000
253.852448 -528.969421 8.324955 1.000000
253.852448 -528.969421 6.905268 1.000000
253.852448 -528.969421 5.496230 1.000000
253.852448 -528.969421 4.094739 1.000000
253.852432 -528.969421 2.697748 1.000000
253.852432 -528.969421 1.302252 1.000000
255.641998 -528.250061 0.000013 0.544518
270.783417 -522.163391 -0.000001 0.338109
277.284271 -519.550110 -0.000008 0.338933
280.904938 -518.094666 -0.000005 0.335485
283.216431 -517.165466 -0.000004 0.338674
284.823059 -516.519653 0.000012 0.337209
286.006683 -516.043823 0.000005 0.344320
nan nan nan 0.000000
253.692886 -528.712341 11.220716 1.000000
253.692886 -528.712341 9.768179 1.000000
253.692886 -528.712341 8.332847 1.000000
253.692886 -528.712341 6.911386 1.000000
253.692886 -528.712341 5.500592 1.000000
253.692886 -528.712341 4.097352 1.000000
253.692871 -528.712341 2.698617 1.000000
253.692871 -528.712341 1.301382 1.000000
255.536926 -527.985962 0.000013 0.536339
270.720428 -522.005188 -0.000005 0.336355
277.239380 -519.437378 -0.000007 0.338308
280.870148 -518.007202 -0.000005 0.341146
283.188049 -517.094177 -0.000004 0.337560
284.799133 -516.459595 0.000002 0.333425
285.986053 -515.992065 0.000003 0.342229
nan nan nan 0.000000
253.532928 -528.454590 11.232682 1.000000
253.532928 -528.454590 9.778262 1.000000
253.532928 -528.454590 8.341065 1.000000
253.532928 -528.454590 6.917760 1.000000
253.532928 -528.454590 5.505136 1.000000
253.532928 -528.454590 4.100074 1.000000
253.532928 -528.454590 2.699525 1.000000
253.532913 -528.454590 1.300475 1.000000
255.433670 -527.721191 0.000013 0.546639
270.658569 -521.846558 -0.000005 0.337316
277.195313 -519.324280 -0.000006 0.336996
280.835968 -517.919495 -0.000005 0.338262
283.160187 -517.022705 -0.000004 0.339773
284.775604 -516.399353 -0.000004 0.340551
285.965820 -515.940125 0.000003 0.332769
nan nan nan 0.000000
253.372543 -528.196167 11.245133 1.000000
253.372543 -528.196167 9.788750 1.000000
253.372543 -528.196167 8.349617 1.000000
253.372543 -528.196167 6.924393 1.000000
253.372528 -528.196167 5.509863 1.000000
253.372528 -528.196167 4.102906 1.000000
253.372528 -528.196167 2.700469 1.000000
253.372528 -528.196167 1.299531 1.000000
255.332291 -527.455688 0.000013 0.537652
270.597809 -521.687439 -0.000005 0.336858
277.152008 -519.210876 -0.000005 0.339223
280.802368 -517.831604 -0.000006 0.339315
283.132813 -516.950989 -0.000004 0.333822
284.752533 -516.338989 -0.000008 0.340444
285.945923 -515.888000 0.000004 0.324788
nan nan nan 0.000000
253.211716 -527.937073 11.258070 1.000000
253.211716 -527.937073 9.799649 1.000000
253.211700 -527.937073 8.358501 1.000000
253.211700 -527.937073 6.931283 1.000000
253.211700 -527.937073 5.514772 1.000000
253.211700 -527.937073 4.105847 1.000000
253.211700 -527.937073 2.701448 1.000000
253.211700 -527.937073 1.298552 1.000000
255.232758 -527.189453 0.000013 0.538811
270.538177 -521.527954 -0.000005 0.338857
277.109497 -519.097229 -0.000008 0.339269
280.769409 -517.743408 -0.000006 0.332311
283.105927 -516.879089 -0.000004 0.336034
284.729889 -516.278442 -0.000010 0.334615
285.926422 -515.835815 0.000007 0.335149
nan nan nan 0.000000
253.050415 -527.677185 11.271496 1.000000
253.050415 -527.677185 9.810959 1.000000
253.050415 -527.677185 8.367723 1.000000
253.050430 -527.677185 6.938432 1.000000
253.050415 -527.677185 5.519870 1.000000
253.050415 -527.677185 4.108902 1.000000
253.050415 -527.677185 2.702465 1.000000
253.050415 -527.677185 1.297534 1.000000
255.135071 -526.922546 0.000013 0.538338
270.479645 -521.368042 -0.000005 0.337621
277.067780 -518.983215 -0.000007 0.336919
280.737061 -517.655029 -0.000006 0.336553
283.079559 -516.807068 -0.000004 0.329259
284.707672 -516.217712 -0.000007 0.338827
285.907288 -515.783447 0.000011 0.335454
nan nan nan 0.000000
252.888657 -527.416565 11.285413 1.000000
252.888657 -527.416565 9.822683 1.000000
252.888641 -527.416565 8.377282 1.000000
252.888672 -527.416504 6.945847 1.000000
252.888657 -527.416565 5.525154 1.000000
252.888657 -527.416565 4.112068 1.000000
252.888657 -527.416565 2.703519 1.000000
252.888657 -527.416565 1.296481 1.000000
255.039276 -526.654968 0.000013 0.536919
270.422241 -521.207703 -0.000006 0.336599
277.026886 -518.868958 -0.000007 0.337850
280.705322 -517.566406 -0.000006 0.333989
283.053711 -516.734802 -0.000004 0.337469
284.685913 -516.156860 -0.000006 0.334905
285.888489 -515.730957 0.000013 0.338415
nan nan nan 0.000000
252.726395 -527.155090 11.299826 1.000000
252.726395 -527.155090 9.834827 1.000000
252.726395 -527.155090 8.387180 1.000000
252.726395 -527.155090 6.953525 1.000000
252.726395 -527.155090 5.530626 1.000000
252.726395 -527.155090 4.115346 1.000000
252.726379 -527.155090 2.704613 1.000000
252.726379 -527.155090 1.295388 1.000000
254.945343 -526.386719 0.000013 0.539757
270.365967 -521.046997 -0.000006 0.338369
276.986786 -518.754395 -0.000006 0.339040
280.674225 -517.477539 -0.000006 0.336934
283.028351 -516.662354 -0.000004 0.338293
284.664551 -516.095825 -0.000004 0.342916
285.870056 -515.678345 0.000010 0.334447
nan nan nan 0.000000
252.563614 -526.892822 11.314741 1.000000
252.563629 -526.892822 9.847389 1.000000
252.563629 -526.892822 8.397421 1.000000
252.563629 -526.892822 6.961466 1.000000
252.563629 -526.892822 5.536286 1.000000
252.563614 -526.892822 4.118739 1.000000
252.563614 -526.892822 2.705741 1.000000
252.563614 -526.892822 1.294258 1.000000
254.853271 -526.117859 0.000013 0.539254
270.310791 -520.885925 -0.000006 0.338674
276.947479 -518.639587 -0.000005 0.338125
280.643707 -517.388489 -0.000007 0.335973
283.003479 -516.589783 -0.000004 0.333913
284.643616 -516.034668 -0.000002 0.337942
285.851990 -515.625671 0.000005 0.328740
nan nan nan 0.000000
252.400314 -526.629700 11.330155 1.000000
252.400330 -526.629700 9.860378 1.000000
252.400330 -526.629700 8.408010 1.000000
252.400330 -526.629700 6.969679 1.000000
252.400330 -526.629700 5.542140 1.000000
252.400314 -526.629700 4.122245 1.000000
252.400314 -526.629700 2.706909 1.000000
252.400314 -526.629700 1.293090 1.000000
254.763092 -525.848328 0.000013 0.541070
270.256775 -520.724426 -0.000006 0.337240
276.908966 -518.524475 -0.000004 0.334203
280.613861 -517.299255 -0.000007 0.341772
282.979126 -516.517029 -0.000004 0.334829
284.623108 -515.973328 0.000002 0.334493
285.834290 -515.572815 0.000003 0.338125
nan nan nan 0.000000
252.236481 -526.365723 11.346076 1.000000
252.236481 -526.365723 9.873793 1.000000
252.236481 -526.365723 8.418944 1.000000
252.236481 -526.365723 6.978160 1.000000
252.236481 -526.365723 5.548185 1.000000
252.236465 -526.365723 4.125867 1.000000
252.236465 -526.365723 2.708117 1.000000
252.236465 -526.365723 1.291883 1.000000
254.674789 -525.578186 0.000013 0.543496
270.203857 -520.562561 -0.000007 0.335821
276.871277 -518.409119 -0.000004 0.336904
280.584625 -517.209778 -0.000007 0.340154
282.955292 -516.444092 -0.000004 0.337102
284.603027 -515.911865 0.000003 0.335210
285.816956 -515.519836 0.000000 0.347311
nan nan nan 0.000000
252.072052 -526.100769 11.362511 1.000000
252.072052 -526.100769 9.887636 1.000000
252.072052 -526.100769 8.430234 1.000000
252.072052 -526.100769 6.986913 1.000000
252.072052 -526.100769 5.554424 1.000000
252.072052 -526.100769 4.129604 1.000000
252.072052 -526.100769 2.709361 1.000000
252.072052 -526.100769 1.290639 1.000000
254.588394 -525.307434 0.000013 0.537530
270.152100 -520.400330 -0.000007 0.337484
276.834381 -518.293457 -0.000003 0.338552
280.556000 -517.120117 -0.000007 0.338979
282.931976 -516.370972 -0.000004 0.332341
284.583374 -515.850281 0.000005 0.338460
285.800018 -515.466675 0.000000 0.330541
nan nan nan 0.000000
251.907043 -525.834900 11.379461 1.000000
251.907043 -525.834900 9.901918 1.000000
251.907043 -525.834900 8.441875 1.000000
251.907043 -525.834900 6.995943 1.000000
251.907059 -525.834900 5.560859 1.000000
251.907043 -525.834900 4.133460 1.000000
251.907043 -525.834900 2.710645 1.000000
251.907043 -525.834900 1.289354 1.000000
254.503876 -525.036072 0.000013 0.541009
270.101501 -520.237732 -0.000002 0.340368
276.798279 -518.177612 -0.000002 0.333639
280.528015 -517.030212 -0.000007 0.334676
282.909149 -516.297729 -0.000004 0.333089
284.564178 -515.788574 0.000007 0.341772
285.783447 -515.413452 0.000001 0.332204
nan nan nan 0.000000
251.741425 -525.568054 11.396934 1.000000
251.741425 -525.568054 9.916639 1.000000
251.741425 -525.568054 8.453875 1.000000
251.741425 -525.568054 7.005249 1.000000
251.741440 -525.568054 5.567492 1.000000
251.741425 -525.568054 4.137434 1.000000
251.741425 -525.568054 2.711969 1.000000
251.741425 -525.568054 1.288031 1.000000
254.421265 -524.764099 0.000013 0.540398
270.052032 -520.074768 -0.000000 0.338293
276.762970 -518.061462 -0.000005 0.337881
280.500641 -516.940186 -0.000006 0.331991
282.886841 -516.224304 -0.000004 0.342382
284.545380 -515.726685 0.000008 0.336599
285.767273 -515.360168 0.000004 0.342641
nan nan nan 0.000000
251.575195 -525.300232 11.414932 1.000000
251.575195 -525.300232 9.931799 1.000000
251.575195 -525.300232 8.466234 1.000000
251.575195 -525.300232 7.014835 1.000000
251.575195 -525.300232 5.574325 1.000000
251.575195 -525.300232 4.141529 1.000000
251.575195 -525.300232 2.713333 1.000000
251.575195 -525.300232 1.286667 1.000000
254.340530 -524.491577 0.000013 0.541054
270.003662 -519.911499 -0.000002 0.340032
276.728516 -517.945129 -0.000005 0.336126
280.473907 -516.849915 -0.000007 0.336996
282.865051 -516.150696 -0.000004 0.339986
284.527039 -515.664734 0.000009 0.341497
285.751434 -515.306702 0.000005 0.341863
nan nan nan 0.000000
251.408310 -525.031311 11.433456 1.000000
251.408310 -525.031311 9.947406 1.000000
251.408310 -525.031311 8.478958 1.000000
251.408310 -525.031311 7.024701 1.000000
251.408310 -525.031311 5.581357 1.000000
251.408310 -525.031311 4.145742 1.000000
251.408295 -525.031311 2.714737 1.000000
251.408295 -525.031311 1.285263 1.000000
254.261719 -524.218567 0.000013 0.540078
269.956390 -519.747925 -0.000005 0.340703
276.694855 -517.828491 -0.000004 0.336950
280.447815 -516.759460 -0.000006 0.339773
282.843781 -516.076965 -0.000001 0.333150
284.509094 -515.602600 0.000011 0.333425
285.735992 -515.253113 0.000006 0.333761
nan nan nan 0.000000
251.240753 -524.761353 11.452516 1.000000
251.240753 -524.761353 9.963463 1.000000
251.240753 -524.761353 8.492047 1.000000
251.240753 -524.761353 7.034853 1.000000
251.240753 -524.761353 5.588593 1.000000
251.240753 -524.761353 4.150078 1.000000
251.240753 -524.761353 2.716181 1.000000
251.240753 -524.761353 1.283820 1.000000
254.184830 -523.944946 0.000013 0.540230
269.910278 -519.583984 -0.000008 0.336950
276.662018 -517.711670 -0.000004 0.336446
280.422333 -516.668823 -0.000006 0.337835
282.823029 -516.003113 0.000000 0.334661
284.491608 -515.540405 0.000011 0.337560
285.720886 -515.199463 0.000006 0.336187
nan nan nan 0.000000
251.072510 -524.490295 11.472117 1.000000
251.072510 -524.490295 9.979977 1.000000
251.072510 -524.490295 8.505510 1.000000
251.072510 -524.490295 7.045296 1.000000
251.072510 -524.490295 5.596034 1.000000
251.072510 -524.490295 4.154535 1.000000
251.072510 -524.490295 2.717665 1.000000
251.072510 -524.490295 1.282334 1.000000
254.109818 -523.670776 0.000013 0.542870
269.865295 -519.419800 -0.000012 0.338140
276.630005 -517.594543 -0.000003 0.334051
280.397522 -516.578064 -0.000003 0.330892
282.802795 -515.929077 0.000001 0.329458
284.474548 -515.478027 0.000008 0.338750
285.706177 -515.145691 0.000006 0.337224
nan nan nan 0.000000
250.903564 -524.218079 11.492264 1.000000
250.903564 -524.218079 9.996948 1.000000
250.903580 -524.218079 8.519346 1.000000
250.903564 -524.218079 7.056026 1.000000
250.903580 -524.218079 5.603682 1.000000
250.903564 -524.218079 4.159117 1.000000
250.903564 -524.218079 2.719193 1.000000
250.903564 -524.218079 1.280808 1.000000
254.036758 -523.396118 0.000013 0.544976
269.821533 -519.255188 -0.000011 0.338003
276.598816 -517.477295 -0.000002 0.337209
280.373322 -516.487061 -0.000002 0.336751
282.783051 -515.854919 0.000003 0.333639
284.457916 -515.415527 0.000004 0.339330
285.691864 -515.091858 0.000005 0.345052
nan nan nan 0.000000
250.733887 -523.944702 11.512959 1.000000
250.733887 -523.944702 10.014382 1.000000
250.733902 -523.944702 8.533560 1.000000
250.733887 -523.944702 7.067047 1.000000
250.733902 -523.944702 5.611539 1.000000
250.733887 -523.944702 4.163826 1.000000
250.733887 -523.944702 2.720760 1.000000
250.733887 -523.944702 1.279240 1.000000
253.965591 -523.120972 0.000013 0.538415
269.778900 -519.090332 -0.000010 0.338231
276.568420 -517.359802 -0.000001 0.336675
280.349762 -516.395935 -0.000001 0.336629
282.763855 -515.780640 0.000004 0.340322
284.441711 -515.352966 -0.000000 0.332830
285.677887 -515.037903 0.000005 0.344823
nan nan nan 0.000000
250.563477 -523.670105 11.534207 1.000000
250.563477 -523.670105 10.032287 1.000000
250.563477 -523.670105 8.548154 1.000000
250.563477 -523.670105 7.078366 1.000000
250.563477 -523.670105 5.619607 1.000000
250.563461 -523.670105 4.168660 1.000000
250.563477 -523.670105 2.722370 1.000000
250.563461 -523.670105 1.277630 1.000000
253.896332 -522.845337 0.000013 0.540627
269.737427 -518.925171 -0.000010 0.336553
276.538849 -517.242065 -0.000000 0.340154
280.326843 -516.304688 0.000000 0.338659
282.745178 -515.706177 0.000005 0.333928
284.425934 -515.290283 -0.000004 0.338567
285.664307 -514.983826 0.000004 0.336507
nan nan nan 0.000000
250.392288 -523.394226 11.556020 1.000000
250.392273 -523.394226 10.050665 1.000000
250.392273 -523.394226 8.563137 1.000000
250.392288 -523.394226 7.089986 1.000000
250.392273 -523.394226 5.627889 1.000000
250.392273 -523.394226 4.173621 1.000000
250.392273 -523.394226 2.724023 1.000000
250.392273 -523.394226 1.275977 1.000000
253.829025 -522.569214 0.000013 0.539788
269.697052 -518.759766 -0.000013 0.337972
276.510132 -517.124146 0.000000 0.337499
280.304565 -516.213196 0.000002 0.336019
282.726990 -515.631653 0.000006 0.336477
284.410614 -515.227478 -0.000005 0.338354
285.651123 -514.929688 0.000004 0.338842
nan nan nan 0.000000
250.220276 -523.117126 11.578405 1.000000
250.220276 -523.117126 10.069521 1.000000
250.220276 -523.117126 8.578509 1.000000
250.220291 -523.117126 7.101909 1.000000
250.220276 -523.117126 5.636387 1.000000
250.220276 -523.117126 4.178712 1.000000
250.220276 -523.117126 2.725718 1.000000
250.220276 -523.117126 1.274281 1.000000
253.763657 -522.292603 0.000013 0.541009
269.657837 -518.594055 -0.000016 0.337652
276.482208 -517.006042 0.000001 0.336339
280.282928 -516.121582 0.000003 0.339254
282.709351 -515.556946 0.000007 0.330343
284.395752 -515.164551 -0.000005 0.335637
285.638306 -514.875427 0.000005 0.345129
nan nan nan 0.000000
250.047485 -522.838684 11.601360 1.000000
250.047485 -522.838684 10.088860 1.000000
250.047485 -522.838684 8.594276 1.000000
250.047485 -522.838684 7.114136 1.000000
250.047470 -522.838684 5.645102 1.000000
250.047470 -522.838684 4.183934 1.000000
250.047470 -522.838684 2.727459 1.000000
250.047470 -522.838684 1.272542 1.000000
253.700211 -522.015564 0.000013 0.539315
269.619812 -518.428040 -0.000018 0.337301
276.455109 -516.887695 0.000002 0.338476
280.261902 -516.029846 0.000004 0.343587
282.692230 -515.482178 0.000008 0.337453
284.381317 -515.101563 -0.000005 0.332845
285.625854 -514.821106 0.000006 0.333715
nan nan nan 0.000000
249.873840 -522.558899 11.624897 1.000000
249.873840 -522.558899 10.108688 1.000000
249.873840 -522.558899 8.610440 1.000000
249.873840 -522.558899 7.126673 1.000000
249.873840 -522.558899 5.654037 1.000000
249.873825 -522.558899 4.189287 1.000000
249.873840 -522.558899 2.729240 1.000000
249.873825 -522.558899 1.270759 1.000000
253.638702 -521.738098 0.000013 0.539849
269.583099 -518.261780 -0.000005 0.337667
276.428864 -516.769226 0.000003 0.337072
280.241547 -515.937927 0.000005 0.336736
282.675629 -515.407227 0.000008 0.338354
284.367310 -515.038391 -0.000005 0.333913
285.613800 -514.766663 0.000007 0.337652
nan nan nan 0.000000
249.699341 -522.277771 11.649019 1.000000
249.699341 -522.277771 10.129012 1.000000
249.699341 -522.277771 8.627009 1.000000
249.699326 -522.277771 7.139520 1.000000
249.699341 -522.277771 5.663195 1.000000
249.699341 -522.277771 4.194773 1.000000
249.699326 -522.277771 2.731069 1.000000
249.699326 -522.277771 1.268931 1.000000
253.579132 -521.460205 0.000013 0.540505
269.547302 -518.095276 -0.000016 0.338155
276.403412 -516.650513 0.000003 0.333730
280.221832 -515.845886 0.000007 0.333669
282.659546 -515.332214 0.000008 0.327779
284.353790 -514.975220 -0.000003 0.341207
285.602112 -514.712158 0.000007 0.336751
nan nan nan 0.000000
249.523941 -521.995178 11.673735 1.000000
249.523941 -521.995178 10.149837 1.000000
249.523956 -521.995117 8.643984 1.000000
249.523956 -521.995117 7.152685 1.000000
249.523941 -521.995178 5.672580 1.000000
249.523941 -521.995178 4.200397 1.000000
249.523926 -521.995178 2.732942 1.000000
249.523926 -521.995178 1.267058 1.000000
253.521484 -521.181885 0.000013 0.537575
269.512787 -517.928528 -0.000012 0.337697
276.378815 -516.531677 0.000004 0.336660
280.202759 -515.753723 0.000008 0.336446
282.643982 -515.257080 0.000007 0.341878
284.340698 -514.911926 0.000000 0.335836
285.590820 -514.657593 0.000008 0.331945
nan nan nan 0.000000
249.347641 -521.711060 11.699055 1.000000
249.347641 -521.711060 10.171165 1.000000
249.347641 -521.711060 8.661373 1.000000
249.347641 -521.711060 7.166171 1.000000
249.347641 -521.711060 5.682191 1.000000
249.347641 -521.711060 4.206154 1.000000
249.347641 -521.711060 2.734860 1.000000
249.347641 -521.711060 1.265140 1.000000
253.465805 -520.903137 0.000013 0.538018
269.479401 -517.761536 -0.000015 0.337255
276.355042 -516.412659 0.000005 0.338933
280.184326 -515.661438 0.000009 0.332601
282.628937 -515.181824 0.000005 0.338476
284.328033 -514.848511 0.000003 0.336721
285.579895 -514.602905 0.000009 0.340124
nan nan nan 0.000000
249.170395 -521.425537 11.724982 1.000000
249.170410 -521.425537 10.193007 1.000000
249.170410 -521.425537 8.679179 1.000000
249.170395 -521.425537 7.179984 1.000000
249.170410 -521.425537 5.692034 1.000000
249.170410 -521.425537 4.212052 1.000000
249.170410 -521.425537 2.736823 1.000000
249.170395 -521.425537 1.263175 1.000000
253.412048 -520.624084 0.000013 0.538262
269.447144 -517.594360 -0.000019 0.337575
276.332092 -516.293457 0.000006 0.338170
280.166534 -515.568970 0.000011 0.339422
282.614410 -515.106506 0.000003 0.338018
284.315826 -514.785034 0.000005 0.341634
285.569336 -514.548157 0.000010 0.336843
nan nan nan 0.000000
248.992203 -521.138428 11.751525 1.000000
248.992218 -521.138428 10.215369 1.000000
248.992218 -521.138367 8.697409 1.000000
248.992218 -521.138428 7.194119 1.000000
248.992218 -521.138428 5.702110 1.000000
248.992203 -521.138428 4.218091 1.000000
248.992203 -521.138428 2.738836 1.000000
248.992188 -521.138428 1.261165 1.000000
nan nan nan 0.000000
269.416077 -517.426941 -0.000022 0.338659
276.309998 -516.174133 0.000007 0.337057
280.149384 -515.476440 0.000010 0.341665
282.600403 -515.031067 0.000002 0.337926
284.304016 -514.721436 0.000003 0.333608
285.559204 -514.493347 0.000010 0.338643
nan nan nan 0.000000
248.813034 -520.849731 11.778689 1.000000
248.813034 -520.849731 10.238255 1.000000
248.813034 -520.849731 8.716064 1.000000
248.813034 -520.849731 7.208590 1.000000
248.813034 -520.849731 5.712423 1.000000
248.813034 -520.849731 4.224268 1.000000
248.813034 -520.849731 2.740893 1.000000
248.813034 -520.849731 1.259106 1.000000
nan nan nan 0.000000
269.386230 -517.259277 -0.000021 0.336889
276.288727 -516.054688 0.000008 0.338842
280.132874 -515.383789 0.000010 0.334218
282.586945 -514.955505 0.000001 0.332265
284.292664 -514.657837 -0.000000 0.330632
285.549438 -514.438477 0.000011 0.330678
nan nan nan 0.000000
248.632843 -520.559387 11.806483 1.000000
248.632858 -520.559387 10.261671 1.000000
248.632843 -520.559387 8.735155 1.000000
248.632843 -520.559387 7.223394 1.000000
248.632843 -520.559387 5.722976 1.000000
248.632843 -520.559387 4.230592 1.000000
248.632843 -520.559387 2.743000 1.000000
248.632843 -520.559387 1.257000 1.000000
nan nan nan 0.000000
269.357544 -517.091431 -0.000021 0.337057
276.268250 -515.934998 0.000007 0.338888
280.117004 -515.291016 0.000009 0.338491
282.574036 -514.879883 0.000001 0.338247
284.281769 -514.594116 -0.000003 0.343587
285.540039 -514.383545 0.000011 0.337224
nan nan nan 0.000000
248.451614 -520.267395 11.834920 1.000000
248.451630 -520.267395 10.285626 1.000000
248.451614 -520.267395 8.754684 1.000000
248.451630 -520.267395 7.238539 1.000000
248.451614 -520.267395 5.733771 1.000000
248.451614 -520.267395 4.237060 1.000000
248.451614 -520.267395 2.745154 1.000000
248.451614 -520.267395 1.254846 1.000000
nan nan nan 0.000000
269.450623 -516.904053 0.009992 1.000000
276.248657 -515.815247 0.000006 0.338399
280.101776 -515.198120 0.000008 0.338445
282.561615 -514.804138 0.000000 0.337881
284.271332 -514.530273 -0.000002 0.334966
285.531006 -514.328552 0.000008 0.334234
nan nan nan 0.000000
248.269333 -519.973694 11.864003 1.000000
248.269333 -519.973694 10.310128 1.000000
248.269333 -519.973694 8.774661 1.000000
248.269333 -519.973694 7.254030 1.000000
248.269333 -519.973694 5.744812 1.000000
248.269333 -519.973694 4.243674 1.000000
248.269333 -519.973694 2.747357 1.000000
248.269333 -519.973694 1.252643 1.000000
nan nan nan 0.000000
269.424591 -516.736633 0.010007 1.000000
276.229858 -515.695313 0.000005 0.333791
280.087219 -515.105103 0.000007 0.336812
282.549744 -514.728333 -0.000000 0.336843
284.261322 -514.466431 -0.000003 0.337606
285.522400 -514.273438 0.000008 0.328450
nan nan nan 0.000000
248.085953 -519.678223 11.893744 1.000000
248.085968 -519.678223 10.335182 1.000000
248.085953 -519.678223 8.795086 1.000000
248.085953 -519.678223 7.269873 1.000000
248.085968 -519.678223 5.756102 1.000000
248.085953 -519.678223 4.250438 1.000000
248.085953 -519.678223 2.749611 1.000000
248.085953 -519.678223 1.250389 1.000000
nan nan nan 0.000000
269.278870 -516.586670 0.000008 0.536599
276.211914 -515.575317 0.000005 0.336126
280.073303 -515.012024 0.000006 0.342351
282.538391 -514.652405 -0.000001 0.336355
284.251770 -514.402466 -0.000003 0.343328
285.514130 -514.218323 0.000003 0.334203
nan nan nan 0.000000
247.901459 -519.380920 11.924145 1.000000
247.901459 -519.380920 10.360797 1.000000
247.901459 -519.380920 8.815968 1.000000
247.901459 -519.380920 7.286067 1.000000
247.901459 -519.380920 5.767644 1.000000
247.901459 -519.380920 4.257354 1.000000
247.901459 -519.380920 2.751914 1.000000
247.901459 -519.380920 1.248085 1.000000
nan nan nan 0.000000
269.254883 -516.418091 0.000008 0.546288
276.194824 -515.455139 0.000004 0.335500
280.060028 -514.918823 0.000005 0.338293
282.527588 -514.576477 -0.000001 0.339086
284.242676 -514.338501 -0.000003 0.336828
285.506256 -514.163147 -0.000001 0.341421
nan nan nan 0.000000
247.715820 -519.081848 11.955225 1.000000
247.715820 -519.081848 10.386980 1.000000
247.715820 -519.081848 8.837311 1.000000
247.715820 -519.081848 7.302620 1.000000
247.715820 -519.081848 5.779444 1.000000
247.715820 -519.081848 4.264424 1.000000
247.715820 -519.081848 2.754270 1.000000
247.715820 -519.081848 1.245731 1.000000
253.052521 -518.379272 0.000013 0.539651
269.232056 -516.249329 0.000008 0.541268
276.178528 -515.334839 0.000003 0.338827
280.047424 -514.825562 0.000008 0.336828
282.517303 -514.500427 -0.000002 0.336599
284.234009 -514.274414 -0.000003 0.337301
285.498779 -514.107910 -0.000006 0.326284
nan nan nan 0.000000
247.528992 -518.780823 11.986987 1.000000
247.528992 -518.780823 10.413738 1.000000
247.528992 -518.780823 8.859125 1.000000
247.528992 -518.780823 7.319537 1.000000
247.528992 -518.780823 5.791501 1.000000
247.528992 -518.780823 4.271648 1.000000
247.529007 -518.780823 2.756675 1.000000
247.528992 -518.780823 1.243325 1.000000
253.016388 -518.097351 0.000013 0.539834
269.210419 -516.080444 0.000008 0.539773
276.163116 -515.214478 0.000003 0.338628
280.035461 -514.732178 0.000007 0.339467
282.507538 -514.424316 -0.000002 0.342763
284.225800 -514.210266 -0.000003 0.321660
285.491669 -514.052612 -0.000010 0.325612
nan nan nan 0.000000
nan nan nan 0.000000
247.340973 -518.477844 10.441081 1.000000
247.340973 -518.477844 8.881416 1.000000
247.340973 -518.477844 7.336827 1.000000
247.340973 -518.477844 5.803823 1.000000
247.340973 -518.477844 4.279031 1.000000
247.340973 -518.477844 2.759134 1.000000
247.340973 -518.477844 1.240866 1.000000
252.982239 -517.815186 0.000012 0.543328
269.189972 -515.911377 0.000008 0.530556
276.148529 -515.093994 0.000002 0.331701
280.024139 -514.638733 0.000006 0.336706
282.498322 -514.348083 -0.000003 0.331609
284.218018 -514.146118 -0.000003 0.333333
285.484985 -513.997314 -0.000011 0.320668
nan nan nan 0.000000
nan nan nan 0.000000
247.151718 -518.172913 10.469017 1.000000
247.151733 -518.172913 8.904188 1.000000
247.151733 -518.172913 7.354486 1.000000
247.151718 -518.172913 5.816412 1.000000
247.151718 -518.172913 4.286572 1.000000
247.151718 -518.172913 2.761646 1.000000
247.151718 -518.172913 1.238354 1.000000
252.950089 -517.532837 0.000012 0.535729
269.170685 -515.742188 0.000007 0.545800
276.134796 -514.973389 0.000001 0.339437
280.013489 -514.545227 0.000005 0.335531
282.489655 -514.271851 -0.000003 0.334920
284.210693 -514.081848 -0.000003 0.336522
285.478668 -513.941895 -0.000009 0.342061
nan nan nan 0.000000
nan nan nan 0.000000
246.961197 -517.865967 10.497552 1.000000
246.961212 -517.865967 8.927450 1.000000
246.961212 -517.865967 7.372527 1.000000
246.961197 -517.865967 5.829270 1.000000
246.961197 -517.865967 4.294276 1.000000
246.961197 -517.865967 2.764212 1.000000
246.961197 -517.865967 1.235787 1.000000
252.919876 -517.250244 0.000012 0.538659
269.152588 -515.572876 0.000007 0.548974
276.121857 -514.852722 -0.000001 0.336568
280.003479 -514.451599 0.000005 0.338857
282.481476 -514.195557 -0.000003 0.342535
284.203827 -514.017578 -0.000003 0.341726
285.472748 -513.886475 -0.000009 0.338643
nan nan nan 0.000000
nan nan nan 0.000000
246.769379 -517.556885 10.526696 1.000000
246.769379 -517.556885 8.951214 1.000000
246.769379 -517.556885 7.390954 1.000000
246.769379 -517.556885 5.842405 1.000000
246.769379 -517.556885 4.302145 1.000000
246.769379 -517.556885 2.766833 1.000000
246.769363 -517.556885 1.233166 1.000000
252.891647 -516.967407 0.000012 0.536461
269.135681 -515.403442 0.000007 0.541909
276.109802 -514.731934 -0.000002 0.338064
279.994141 -514.357971 0.000003 0.335927
282.473877 -514.119202 -0.000003 0.340169
284.197418 -513.953247 -0.000003 0.333654
285.467224 -513.830994 -0.000007 0.343008
nan nan nan 0.000000
nan nan nan 0.000000
246.576233 -517.245667 10.556461 1.000000
246.576233 -517.245667 8.975477 1.000000
246.576233 -517.245667 7.409772 1.000000
246.576233 -517.245667 5.855818 1.000000
246.576233 -517.245667 4.310182 1.000000
246.576218 -517.245667 2.769511 1.000000
246.576218 -517.245667 1.230489 1.000000
252.865387 -516.684387 0.000012 0.539803
269.119934 -515.233887 0.000007 0.550546
276.098602 -514.611084 -0.000003 0.337362
279.985443 -514.264221 0.000004 0.339956
282.466766 -514.042786 -0.000004 0.335744
284.191437 -513.888916 -0.000003 0.336461
285.462097 -513.775513 -0.000005 0.336873
nan nan nan 0.000000
nan nan nan 0.000000
246.381714 -516.932251 10.586857 1.000000
246.381729 -516.932251 9.000254 1.000000
246.381714 -516.932251 7.428989 1.000000
246.381714 -516.932251 5.869514 1.000000
246.381714 -516.932251 4.318388 1.000000
246.381714 -516.932251 2.772243 1.000000
246.381714 -516.932251 1.227756 1.000000
252.841125 -516.401245 0.000012 0.544228
269.105408 -515.064209 0.000007 0.534722
276.088226 -514.490173 -0.000003 0.337789
279.977386 -514.170471 0.000003 0.338308
282.460205 -513.966370 -0.000004 0.340215
284.185913 -513.824463 -0.000003 0.337896
285.457336 -513.719971 -0.000003 0.340047
nan nan nan 0.000000
nan nan nan 0.000000
246.185806 -516.616577 10.617886 1.000000
246.185806 -516.616577 9.025551 1.000000
246.185806 -516.616577 7.448607 1.000000
246.185791 -516.616577 5.883497 1.000000
246.185791 -516.616577 4.326767 1.000000
246.185806 -516.616577 2.775034 1.000000
246.185791 -516.616577 1.224965 1.000000
252.818817 -516.117920 0.000012 0.541299
269.092041 -514.894470 0.000007 0.535195
276.078674 -514.369202 -0.000004 0.334661
279.970001 -514.076599 0.000003 0.338125
282.454193 -513.889832 -0.000005 0.340703
284.180847 -513.760010 -0.000003 0.338293
285.452972 -513.664368 -0.000001 0.337209
nan nan nan 0.000000
nan nan nan 0.000000
245.988464 -516.298645 10.649566 1.000000
245.988464 -516.298645 9.051378 1.000000
245.988464 -516.298645 7.468638 1.000000
245.988464 -516.298645 5.897773 1.000000
245.988464 -516.298645 4.335320 1.000000
245.988449 -516.298645 2.777885 1.000000
245.988449 -516.298645 1.222116 1.000000
252.798508 -515.834412 0.000012 0.541695
269.079865 -514.724609 0.000007 0.534463
276.070007 -514.248108 -0.000005 0.336568
279.963287 -513.982727 0.000004 0.340352
282.448700 -513.813293 -0.000005 0.333425
284.176239 -513.695557 -0.000003 0.332845
285.448975 -513.608826 -0.000001 0.330358
nan nan nan 0.000000
nan nan nan 0.000000
245.789658 -515.978271 10.681903 1.000000
245.789658 -515.978271 9.077742 1.000000
245.789658 -515.978271 7.489083 1.000000
245.789658 -515.978271 5.912346 1.000000
245.789658 -515.978271 4.344051 1.000000
245.789658 -515.978271 2.780792 1.000000
245.789658 -515.978271 1.219208 1.000000
252.780167 -515.550781 0.000012 0.540749
269.068878 -514.554688 0.000007 0.538003
276.062164 -514.127014 -0.000005 0.337591
279.957214 -513.888794 0.000003 0.336812
282.443756 -513.736755 -0.000005 0.338155
284.172058 -513.631042 -0.000003 0.334920
285.445374 -513.553162 0.000000 0.336843
nan nan nan 0.000000
nan nan nan 0.000000
245.589340 -515.655518 10.714910 1.000000
245.589355 -515.655518 9.104649 1.000000
245.589355 -515.655518 7.509950 1.000000
245.589355 -515.655518 5.927219 1.000000
245.589340 -515.655518 4.352962 1.000000
245.589340 -515.655518 2.783760 1.000000
245.589340 -515.655518 1.216239 1.000000
252.763794 -515.267029 0.000012 0.537072
269.059082 -514.384644 0.000007 0.541802
276.055176 -514.005798 -0.000006 0.339513
279.951782 -513.794800 0.000003 0.339605
282.439331 -513.660095 -0.000005 0.335805
284.168335 -513.566528 -0.000003 0.338079
285.442169 -513.497498 0.000001 0.337072
nan nan nan 0.000000
nan nan nan 0.000000
245.387497 -515.330322 10.748600 1.000000
245.387482 -515.330322 9.132114 1.000000
245.387497 -515.330322 7.531250 1.000000
245.387497 -515.330322 5.942400 1.000000
245.387497 -515.330322 4.362057 1.000000
245.387497 -515.330322 2.786790 1.000000
245.387497 -515.330322 1.213210 1.000000
252.749420 -514.983215 0.000012 0.539284
269.050476 -514.214600 0.000007 0.524865
276.049042 -513.884583 -0.000007 0.336828
279.947021 -513.700806 0.000002 0.332036
282.435455 -513.583496 -0.000006 0.340505
284.165070 -513.501953 -0.000002 0.342061
285.439362 -513.441833 0.000001 0.329915
nan nan nan 0.000000
nan nan nan 0.000000
245.184082 -515.002563 10.782976 1.000000
245.184082 -515.002563 9.160138 1.000000
245.184082 -515.002563 7.552986 1.000000
245.184082 -515.002563 5.957893 1.000000
245.184082 -515.002563 4.371340 1.000000
245.184067 -515.002563 2.789883 1.000000
245.184067 -515.002563 1.210117 1.000000
252.737045 -514.699280 0.000012 0.537987
269.043030 -514.044495 0.000007 0.536812
276.043732 -513.763367 -0.000009 0.339086
279.942932 -513.606750 0.000003 0.334920
282.432098 -513.506836 -0.000006 0.337682
284.162231 -513.437317 -0.000002 0.334813
285.436951 -513.386169 0.000002 0.332540
nan nan nan 0.000000
nan nan nan 0.000000
244.979034 -514.672180 10.818059 1.000000
244.979034 -514.672180 9.188738 1.000000
244.979034 -514.672180 7.575167 1.000000
244.979034 -514.672180 5.973701 1.000000
244.979034 -514.672180 4.380811 1.000000
244.979034 -514.672180 2.793037 1.000000
244.979019 -514.672180 1.206963 1.000000
252.726624 -514.415222 0.000012 0.538552
269.036804 -513.874329 0.000007 0.544640
276.039276 -513.642090 -0.000010 0.336263
279.939484 -513.512695 0.000003 0.336324
282.429291 -513.430115 -0.000006 0.332280
284.159882 -513.372742 -0.000002 0.330251
285.434906 -513.330444 0.000003 0.335683
nan nan nan 0.000000
nan nan nan 0.000000
244.772339 -514.339172 10.853854 1.000000
244.772339 -514.339172 9.217921 1.000000
244.772339 -514.339172 7.597797 1.000000
244.772339 -514.339172 5.989831 1.000000
244.772339 -514.339172 4.390476 1.000000
244.772339 -514.339172 2.796255 1.000000
244.772339 -514.339172 1.203744 1.000000
252.718201 -514.131165 0.000012 0.540887
269.031769 -513.704102 0.000007 0.544900
276.035675 -513.520752 -0.000010 0.338399
279.936676 -513.418640 0.000002 0.336583
282.427002 -513.353455 -0.000007 0.341634
284.157959 -513.308105 -0.000002 0.343175
285.433258 -513.274719 0.000003 0.342763
nan nan nan 0.000000
nan nan nan 0.000000
244.563965 -514.003357 10.890376 1.000000
244.563950 -514.003357 9.247695 1.000000
244.563950 -514.003357 7.620891 1.000000
244.563965 -514.003357 6.006289 1.000000
244.563950 -514.003357 4.400337 1.000000
244.563950 -514.003357 2.799541 1.000000
244.563950 -514.003357 1.200459 1.000000
252.914673 -513.843140 0.009982 1.000000
269.027893 -513.533875 0.000006 0.545251
276.032898 -513.399414 -0.000011 0.338827
279.934540 -513.324524 0.000002 0.337926
282.425262 -513.276733 -0.000007 0.340841
284.156494 -513.243469 -0.000003 0.334539
285.431976 -513.218994 0.000003 0.336278
nan nan nan 0.000000
nan nan nan 0.000000
244.353821 -513.664795 10.927639 1.000000
244.353836 -513.664795 9.278069 1.000000
244.353821 -513.664795 7.644446 1.000000
244.353821 -513.664795 6.023082 1.000000
244.353821 -513.664795 4.410398 1.000000
244.353821 -513.664795 2.802891 1.000000
244.353821 -513.664795 1.197108 1.000000
252.910751 -513.560364 0.010008 1.000000
269.025208 -513.363586 0.000006 0.537011
276.031006 -513.278076 -0.000012 0.336614
279.933075 -513.230408 0.000002 0.335409
282.424072 -513.200012 -0.000008 0.338567
284.155487 -513.178833 -0.000002 0.335393
285.431122 -513.163269 0.000004 0.347662
nan nan nan 0.000000
nan nan nan 0.000000
244.141922 -513.323364 10.965652 1.000000
244.141922 -513.323364 9.309061 1.000000
244.141922 -513.323364 7.668482 1.000000
244.141922 -513.323364 6.040212 1.000000
244.141922 -513.323364 4.420661 1.000000
244.141907 -513.323364 2.806311 1.000000
244.141907 -513.323364 1.193689 1.000000
252.705368 -513.278625 0.000039 0.338888
269.023712 -513.193298 0.000006 0.533822
276.029938 -513.156677 -0.000012 0.336568
279.932251 -513.136292 0.000003 0.336858
282.423401 -513.123230 -0.000007 0.335210
284.154907 -513.114197 -0.000003 0.335729
285.430634 -513.107544 0.000004 0.332860
nan nan nan 0.000000
nan nan nan 0.000000
243.928192 -512.979004 11.004433 1.000000
243.928192 -512.979004 9.340679 1.000000
243.928207 -512.979004 7.692999 1.000000
243.928207 -512.979004 6.057688 1.000000
243.928192 -512.979004 4.431131 1.000000
243.928192 -512.979004 2.809798 1.000000
243.928192 -512.979004 1.190201 1.000000
252.704819 -512.994385 0.000037 0.338293
269.023438 -513.023010 0.000006 0.538201
276.029694 -513.035339 -0.000015 0.340002
279.932068 -513.042175 0.000002 0.342321
282.423279 -513.046509 -0.000008 0.337316
284.154816 -513.049561 -0.000002 0.337835
285.430542 -513.051819 0.000004 0.338964
nan nan nan 0.000000
nan nan nan 0.000000
243.712585 -512.631653 11.043995 1.000000
243.712585 -512.631653 9.372928 1.000000
243.712601 -512.631653 7.718013 1.000000
243.712601 -512.631653 6.075515 1.000000
243.712601 -512.631653 4.441812 1.000000
243.712601 -512.631653 2.813356 1.000000
243.712601 -512.631653 1.186644 1.000000
252.706482 -512.710205 0.000045 0.338125
269.024323 -512.852722 0.000006 0.533806
nan nan nan 0.000000
279.932556 -512.947998 0.000001 0.337530
282.423676 -512.969788 -0.000008 0.338170
284.155151 -512.984924 -0.000003 0.333364
285.430817 -512.996033 0.000004 0.336049
nan nan nan 0.000000
nan nan nan 0.000000
243.495087 -512.281189 11.084346 1.000000
243.495087 -512.281189 9.405827 1.000000
243.495087 -512.281189 7.743526 1.000000
243.495102 -512.281189 6.093698 1.000000
243.495087 -512.281189 4.452708 1.000000
243.495087 -512.281189 2.816984 1.000000
243.495087 -512.281189 1.183015 1.000000
252.709991 -512.426025 0.000047 0.338308
269.026398 -512.682495 0.000006 0.538445
276.118774 -512.793945 0.009989 1.000000
279.933716 -512.853882 0.000001 0.332525
282.424591 -512.893066 -0.000008 0.339925
284.155945 -512.920288 -0.000002 0.333913
285.431519 -512.940308 0.000005 0.333532
nan nan nan 0.000000
nan nan nan 0.000000
243.275635 -511.927551 11.125507 1.000000
243.275620 -511.927551 9.439381 1.000000
243.275620 -511.927551 7.769551 1.000000
243.275635 -511.927551 6.112249 1.000000
243.275620 -511.927551 4.463822 1.000000
243.275620 -511.927551 2.820688 1.000000
243.275620 -511.927551 1.179312 1.000000
252.715469 -512.141846 0.000047 0.337850
269.029663 -512.512207 0.000006 0.533761
276.034119 -512.671204 -0.000017 0.337194
279.935516 -512.759766 0.000002 0.339361
282.426086 -512.816345 -0.000009 0.335500
284.157166 -512.855652 -0.000003 0.335256
285.432587 -512.884583 0.000004 0.337041
nan nan nan 0.000000
nan nan nan 0.000000
243.054138 -511.570709 11.167496 1.000000
243.054138 -511.570709 9.473610 1.000000
243.054153 -511.570709 7.796094 1.000000
243.054153 -511.570709 6.131168 1.000000
243.054153 -511.570709 4.475158 1.000000
243.054138 -511.570709 2.824463 1.000000
243.054138 -511.570709 1.175537 1.000000
252.722931 -511.857758 0.000048 0.338445
269.034149 -512.341980 0.000006 0.548486
276.037506 -512.549927 0.000004 0.547601
279.937988 -512.665710 0.000001 0.341238
282.428070 -512.739624 -0.000009 0.335668
284.158875 -512.791016 -0.000003 0.341375
285.434021 -512.828857 0.000001 0.338003
nan nan nan 0.000000
nan nan nan 0.000000
242.830612 -511.210541 11.210320 1.000000
242.830612 -511.210541 9.508522 1.000000
242.830612 -511.210541 7.823172 1.000000
242.830612 -511.210541 6.150468 1.000000
242.830612 -511.210541 4.486719 1.000000
242.830612 -511.210541 2.828314 1.000000
242.830612 -511.210541 1.171685 1.000000
252.732346 -511.573700 0.000048 0.338476
nan nan nan 0.000000
276.041534 -512.428589 0.000004 0.536446
279.941101 -512.571594 0.000001 0.331960
282.430634 -512.662903 -0.000009 0.334005
284.161011 -512.726379 -0.000003 0.337072
285.435852 -512.773132 0.000000 0.331472
nan nan nan 0.000000
nan nan nan 0.000000
242.604965 -510.846954 11.254002 1.000000
242.604965 -510.846954 9.544132 1.000000
242.604965 -510.846954 7.850789 1.000000
242.604950 -510.846954 6.170152 1.000000
242.604950 -510.846954 4.498512 1.000000
242.604950 -510.846954 2.832243 1.000000
242.604950 -510.846954 1.167757 1.000000
252.743759 -511.289703 0.000049 0.337438
269.046631 -512.001648 0.000007 0.542794
276.046387 -512.307312 0.000004 0.532097
279.944885 -512.477539 0.000001 0.341939
282.433716 -512.586243 -0.000009 0.338460
284.163605 -512.661804 -0.000003 0.332784
285.438080 -512.717468 -0.000003 0.343191
nan nan nan 0.000000
nan nan nan 0.000000
242.377167 -510.479919 11.298550 1.000000
242.377167 -510.479919 9.580451 1.000000
242.377167 -510.479919 7.878954 1.000000
242.377167 -510.479919 6.190228 1.000000
242.377167 -510.479919 4.510541 1.000000
242.377136 -510.479919 2.836250 1.000000
242.377136 -510.479919 1.163750 1.000000
252.757172 -511.005829 0.000049 0.338994
269.054657 -511.831543 0.000007 0.535439
276.052094 -512.186096 0.000004 0.536660
279.949341 -512.383545 0.000002 0.335409
282.437317 -512.509583 -0.000010 0.335027
284.166656 -512.597229 -0.000003 0.335073
285.440704 -512.661743 -0.000004 0.330877
nan nan nan 0.000000
nan nan nan 0.000000
242.147141 -510.109283 11.343993 1.000000
242.147125 -510.109283 9.617498 1.000000
242.147141 -510.109283 7.907685 1.000000
242.147141 -510.109283 6.210705 1.000000
242.147141 -510.109283 4.522810 1.000000
242.147125 -510.109283 2.840337 1.000000
242.147125 -510.109283 1.159663 1.000000
252.772522 -510.722046 0.000049 0.337942
269.063843 -511.661530 0.000006 0.549905
276.058685 -512.064880 0.000004 0.541619
279.954407 -512.289551 0.000001 0.335241
282.441467 -512.432983 -0.000010 0.329946
284.170135 -512.532654 -0.000003 0.340993
285.443726 -512.606140 -0.000007 0.330755
nan nan nan 0.000000
nan nan nan 0.000000
241.914841 -509.735016 11.390341 1.000000
241.914841 -509.735016 9.655279 1.000000
241.914856 -509.735016 7.936986 1.000000
241.914856 -509.735016 6.231589 1.000000
241.914841 -509.735016 4.535324 1.000000
241.914856 -509.735016 2.844503 1.000000
241.914856 -509.735016 1.155496 1.000000
252.789856 -510.438354 0.000048 0.338201
269.074249 -511.491547 0.000007 0.534157
276.066071 -511.943756 0.000004 0.529122
279.960144 -512.195618 0.000000 0.331441
282.446136 -512.356384 -0.000010 0.335698
284.174103 -512.468140 -0.000003 0.335882
285.447113 -512.550476 -0.000008 0.339284
nan nan nan 0.000000
nan nan nan 0.000000
241.680222 -509.356964 11.437611 1.000000
241.680237 -509.356964 9.693815 1.000000
241.680237 -509.356964 7.966875 1.000000
241.680237 -509.356964 6.252890 1.000000
241.680222 -509.356964 4.548086 1.000000
241.680222 -509.356964 2.848756 1.000000
241.680222 -509.356964 1.151244 1.000000
252.809143 -510.154816 0.000045 0.338018
269.085846 -511.321655 0.000006 0.533837
276.074341 -511.822662 0.000004 0.534463
279.966583 -512.101685 0.000003 0.337194
282.451355 -512.279846 -0.000010 0.337987
284.178497 -512.403625 -0.000003 0.335195
285.450897 -512.494873 -0.000008 0.330159
nan nan nan 0.000000
nan nan nan 0.000000
241.443222 -508.975098 11.485825 1.000000
241.443222 -508.975098 9.733119 1.000000
241.443207 -508.975098 7.997357 1.000000
241.443222 -508.975098 6.274617 1.000000
241.443222 -508.975098 4.561103 1.000000
241.443222 -508.975098 2.853092 1.000000
241.443207 -508.975098 1.146909 1.000000
252.830383 -509.871399 0.000042 0.338079
269.098602 -511.151855 0.000006 0.531533
276.083435 -511.701630 0.000004 0.543465
279.973633 -512.007813 0.000002 0.342184
282.457123 -512.203308 -0.000011 0.342428
284.183350 -512.339172 -0.000003 0.342870
285.455078 -512.439270 -0.000008 0.334630
nan nan nan 0.000000
nan nan nan 0.000000
241.203766 -508.589294 11.535000 1.000000
241.203766 -508.589294 9.773211 1.000000
241.203766 -508.589294 8.028448 1.000000
241.203766 -508.589294 6.296779 1.000000
241.203766 -508.589294 4.574380 1.000000
241.203766 -508.589294 2.857515 1.000000
241.203766 -508.589294 1.142485 1.000000
