# This PCD file was generated using the MATLABÂ® pcwrite function
# from Computer Vision ToolboxÂ®.
# .PCD v.7 - Point Cloud Data file format
VERSION .7
FIELDS x y z intensity
SIZE 4 4 4 4
TYPE F F F F
COUNT 1 1 1 1
WIDTH 1241
HEIGHT 1
VIEWPOINT 0 0 0 1 0 0 0
POINTS 1241
DATA ascii
285.693207 -267.579193 -0.000010 0.589197
294.110718 -259.728241 6.883164 1.000000
294.110748 -259.728241 6.210450 1.000000
294.110718 -259.728241 5.547178 1.000000
294.110718 -259.728241 4.891764 1.000000
294.110718 -259.728241 4.242683 1.000000
294.110718 -259.728241 3.598473 1.000000
294.110718 -259.728241 2.957712 1.000000
294.110718 -259.728241 2.319009 1.000000
294.110718 -259.728241 1.680991 1.000000
294.110718 -259.728241 1.042287 1.000000
294.110718 -259.728241 0.401527 1.000000
292.575104 -261.174469 -0.000013 0.542565
289.734344 -263.849854 -0.000012 0.530480
287.920746 -265.557892 -0.000011 0.528206
286.660248 -266.745026 -0.000010 0.571984
285.731567 -267.619629 -0.000010 0.543633
294.364288 -259.678497 6.938060 1.000000
294.364288 -259.678497 6.257782 1.000000
294.364288 -259.678497 5.587055 1.000000
294.364288 -259.678497 4.924273 1.000000
294.364288 -259.678497 4.267895 1.000000
294.364288 -259.678497 3.616443 1.000000
294.364288 -259.678497 2.968479 1.000000
294.364288 -259.678497 2.322596 1.000000
294.364288 -259.678497 1.677404 1.000000
294.364288 -259.678497 1.031521 1.000000
294.364288 -259.678497 0.383557 1.000000
292.658020 -261.263123 -0.000013 0.547066
289.798645 -263.918610 -0.000012 0.541405
287.973175 -265.613922 -0.000011 0.539406
286.704407 -266.792236 -0.000010 0.551431
285.769653 -267.660339 -0.000010 0.477577
294.623627 -259.627625 6.994454 1.000000
294.623627 -259.627625 6.306405 1.000000
294.623627 -259.627625 5.628018 1.000000
294.623596 -259.627625 4.957666 1.000000
294.623627 -259.627625 4.293794 1.000000
294.623627 -259.627625 3.634902 1.000000
294.623627 -259.627625 2.979538 1.000000
294.623596 -259.627625 2.326280 1.000000
294.623596 -259.627625 1.673720 1.000000
294.623627 -259.627625 1.020461 1.000000
294.623627 -259.627625 0.365097 1.000000
292.740295 -261.352325 -0.000013 0.543801
289.862457 -263.987793 -0.000012 0.528618
288.025208 -265.670349 -0.000011 0.556939
286.748230 -266.839752 -0.000010 0.562249
285.807434 -267.701324 -0.000010 0.571847
294.888947 -259.575592 7.052397 1.000000
294.888947 -259.575562 6.356367 1.000000
294.888947 -259.575592 5.670110 1.000000
294.888947 -259.575562 4.991981 1.000000
294.888947 -259.575562 4.320406 1.000000
294.888947 -259.575592 3.653870 1.000000
294.888947 -259.575592 2.990903 1.000000
294.888947 -259.575592 2.330065 1.000000
294.888947 -259.575592 1.669935 1.000000
294.888947 -259.575592 1.009097 1.000000
294.888947 -259.575592 0.346130 1.000000
292.821960 -261.442108 -0.000013 0.540139
289.925781 -264.057434 -0.000012 0.543404
288.076813 -265.727112 -0.000011 0.533654
286.791718 -266.887573 -0.000010 0.516777
285.844940 -267.742554 -0.000010 0.548608
295.160522 -259.522308 7.111953 1.000000
295.160522 -259.522308 6.407718 1.000000
295.160522 -259.522308 5.713372 1.000000
295.160522 -259.522308 5.027249 1.000000
295.160522 -259.522308 4.347758 1.000000
295.160522 -259.522308 3.673365 1.000000
295.160522 -259.522308 3.002584 1.000000
295.160522 -259.522308 2.333955 1.000000
295.160522 -259.522308 1.666044 1.000000
295.160522 -259.522308 0.997416 1.000000
295.160522 -259.522308 0.326635 1.000000
292.902985 -261.532471 -0.000013 0.535378
289.988617 -264.127533 -0.000012 0.518181
288.128052 -265.784241 -0.000011 0.527550
286.834900 -266.935699 -0.000010 0.539437
285.882141 -267.784058 -0.000010 0.544686
295.438599 -259.467743 7.173183 1.000000
295.438599 -259.467743 6.460515 1.000000
295.438599 -259.467743 5.757850 1.000000
295.438599 -259.467743 5.063509 1.000000
295.438599 -259.467743 4.375879 1.000000
295.438599 -259.467743 3.693408 1.000000
295.438599 -259.467773 3.014592 1.000000
295.438599 -259.467773 2.337956 1.000000
295.438599 -259.467773 1.662044 1.000000
295.438599 -259.467773 0.985408 1.000000
295.438599 -259.467743 0.306591 1.000000
292.983398 -261.623413 -0.000013 0.545419
290.050964 -264.198029 -0.000012 0.538018
288.178894 -265.841736 -0.000011 0.515404
286.877716 -266.984131 -0.000010 0.560006
285.919067 -267.825836 -0.000010 0.512032
295.723419 -259.411865 7.236159 1.000000
295.723419 -259.411896 6.514814 1.000000
295.723419 -259.411865 5.803597 1.000000
295.723419 -259.411865 5.100803 1.000000
295.723419 -259.411896 4.404802 1.000000
295.723419 -259.411896 3.714023 1.000000
295.723419 -259.411896 3.026943 1.000000
295.723419 -259.411896 2.342070 1.000000
295.723419 -259.411896 1.657930 1.000000
295.723419 -259.411896 0.973056 1.000000
295.723419 -259.411865 0.285976 1.000000
293.063141 -261.714905 -0.000013 0.559411
290.112823 -264.268982 -0.000012 0.571496
288.229309 -265.899567 -0.000011 0.528359
286.920197 -267.032867 -0.000010 0.524239
285.955688 -267.867859 -0.000010 0.525475
296.015289 -259.354614 7.300948 1.000000
296.015289 -259.354614 6.570678 1.000000
296.015289 -259.354614 5.850660 1.000000
296.015289 -259.354614 5.139172 1.000000
296.015289 -259.354614 4.434558 1.000000
296.015289 -259.354614 3.735232 1.000000
296.015289 -259.354614 3.039650 1.000000
296.015289 -259.354614 2.346303 1.000000
296.015289 -259.354614 1.653697 1.000000
296.015289 -259.354614 0.960349 1.000000
296.015289 -259.354614 0.264768 1.000000
293.142273 -261.806946 -0.000013 0.559869
290.174194 -264.340363 -0.000012 0.534279
288.279327 -265.957764 -0.000011 0.538186
286.962341 -267.081909 -0.000010 0.539147
285.992035 -267.910126 -0.000010 0.533562
296.314484 -259.295929 7.367625 1.000000
296.314484 -259.295929 6.628169 1.000000
296.314484 -259.295929 5.899096 1.000000
296.314484 -259.295929 5.178656 1.000000
296.314484 -259.295929 4.465180 1.000000
296.314484 -259.295929 3.757058 1.000000
296.314484 -259.295929 3.052727 1.000000
296.314484 -259.295929 2.350659 1.000000
296.314484 -259.295929 1.649341 1.000000
296.314484 -259.295929 0.947273 1.000000
296.314484 -259.295929 0.242942 1.000000
293.220734 -261.899536 -0.000013 0.557473
290.235046 -264.412170 -0.000012 0.546426
288.328949 -266.016296 -0.000011 0.536355
287.004150 -267.131226 -0.000010 0.553201
286.028076 -267.952637 -0.000010 0.486488
296.621307 -259.235748 7.436266 1.000000
296.621307 -259.235748 6.687355 1.000000
296.621307 -259.235748 5.948957 1.000000
296.621307 -259.235748 5.219305 1.000000
296.621307 -259.235748 4.496706 1.000000
296.621307 -259.235748 3.779527 1.000000
296.621307 -259.235748 3.066190 1.000000
296.621307 -259.235748 2.355142 1.000000
296.621307 -259.235748 1.644857 1.000000
296.621307 -259.235748 0.933810 1.000000
296.621307 -259.235748 0.220472 1.000000
293.298553 -261.992676 -0.000013 0.536171
290.295410 -264.484406 -0.000012 0.535180
288.378143 -266.075195 -0.000011 0.504524
287.045593 -267.180817 -0.000010 0.524498
286.063812 -267.995422 -0.000010 0.569146
296.936096 -259.174011 7.506963 1.000000
296.936096 -259.174011 6.748312 1.000000
296.936096 -259.174011 6.000311 1.000000
296.936096 -259.174011 5.261170 1.000000
296.936096 -259.174011 4.529173 1.000000
296.936096 -259.174011 3.802670 1.000000
296.936096 -259.174011 3.080055 1.000000
296.936096 -259.174011 2.359761 1.000000
296.936096 -259.174011 1.640239 1.000000
296.936096 -259.174011 0.919945 1.000000
296.936096 -259.173981 0.197330 1.000000
293.375732 -262.086334 -0.000013 0.537530
290.355255 -264.557068 -0.000012 0.553155
288.426941 -266.134399 -0.000011 0.552422
287.086700 -267.230713 -0.000010 0.548699
286.099274 -268.038422 -0.000010 0.556756
297.259186 -259.110626 7.579794 1.000000
297.259186 -259.110626 6.811110 1.000000
297.259186 -259.110626 6.053216 1.000000
297.259186 -259.110626 5.304300 1.000000
297.259186 -259.110626 4.562623 1.000000
297.259186 -259.110626 3.826510 1.000000
297.259186 -259.110626 3.094339 1.000000
297.259186 -259.110626 2.364519 1.000000
297.259186 -259.110626 1.635481 1.000000
297.259186 -259.110626 0.905661 1.000000
297.259186 -259.110626 0.173489 1.000000
293.452271 -262.180542 -0.000014 0.540597
290.414612 -264.630127 -0.000013 0.540703
288.475342 -266.193970 -0.000011 0.563210
287.127441 -267.280914 -0.000010 0.559701
286.134399 -268.081696 -0.000010 0.515846
297.590973 -259.045532 7.654860 1.000000
297.590973 -259.045532 6.875833 1.000000
297.590973 -259.045532 6.107745 1.000000
297.590973 -259.045532 5.348753 1.000000
297.590973 -259.045532 4.597097 1.000000
297.590973 -259.045532 3.851082 1.000000
297.590973 -259.045532 3.109061 1.000000
297.590973 -259.045532 2.369423 1.000000
297.590973 -259.045532 1.630577 1.000000
297.590973 -259.045532 0.890939 1.000000
297.590973 -259.045532 0.148917 1.000000
293.528107 -262.275299 -0.000014 0.545419
290.473450 -264.703613 -0.000012 0.569955
288.523285 -266.253876 -0.000011 0.528847
287.167847 -267.331360 -0.000010 0.527413
286.169250 -268.125214 -0.000010 0.544533
297.931824 -258.978668 7.732252 1.000000
297.931824 -258.978668 6.942566 1.000000
297.931824 -258.978668 6.163965 1.000000
297.931824 -258.978668 5.394586 1.000000
297.931824 -258.978668 4.632642 1.000000
297.931824 -258.978668 3.876417 1.000000
297.931824 -258.978668 3.124240 1.000000
297.931824 -258.978668 2.374479 1.000000
297.931824 -258.978668 1.625521 1.000000
297.931824 -258.978668 0.875760 1.000000
297.931824 -258.978668 0.123583 1.000000
293.603302 -262.370575 -0.000014 0.539864
290.531769 -264.777496 -0.000012 0.555901
288.570831 -266.314117 -0.000011 0.531518
287.207916 -267.382111 -0.000010 0.525399
286.203766 -268.168976 -0.000009 0.534371
298.282135 -258.909943 7.812082 1.000000
298.282135 -258.909943 7.011397 1.000000
298.282135 -258.909943 6.221954 1.000000
298.282135 -258.909943 5.441860 1.000000
298.282135 -258.909943 4.669305 1.000000
298.282135 -258.909943 3.902548 1.000000
298.282135 -258.909943 3.139896 1.000000
298.282135 -258.909943 2.379694 1.000000
298.282135 -258.909943 1.620306 1.000000
298.282135 -258.909943 0.860103 1.000000
298.282135 -258.909943 0.097451 1.000000
293.677826 -262.466370 -0.000013 0.542824
290.589569 -264.851776 -0.000012 0.527276
288.617950 -266.374664 -0.000011 0.552300
287.247620 -267.433136 -0.000010 0.537057
286.238007 -268.212982 -0.000009 0.534997
298.642365 -258.839294 7.894458 1.000000
298.642365 -258.839294 7.082424 1.000000
298.642365 -258.839294 6.281791 1.000000
298.642365 -258.839294 5.490643 1.000000
298.642365 -258.839294 4.707137 1.000000
298.642365 -258.839294 3.929513 1.000000
298.642365 -258.839294 3.156052 1.000000
298.642365 -258.839294 2.385076 1.000000
298.642365 -258.839294 1.614924 1.000000
298.642365 -258.839294 0.843947 1.000000
298.642365 -258.839294 0.070486 1.000000
293.751709 -262.562683 -0.000014 0.536614
290.646851 -264.926483 -0.000013 0.515877
288.664642 -266.435577 -0.000011 0.547982
287.286957 -267.484436 -0.000010 0.507027
286.271942 -268.257202 -0.000009 0.574670
299.012970 -258.766571 7.979498 1.000000
299.012970 -258.766571 7.155749 1.000000
299.012970 -258.766602 6.343565 1.000000
299.012970 -258.766571 5.541001 1.000000
299.012970 -258.766602 4.746194 1.000000
299.013000 -258.766571 3.957350 1.000000
299.012970 -258.766602 3.172731 1.000000
299.012970 -258.766571 2.390631 1.000000
299.012970 -258.766571 1.609369 1.000000
299.012970 -258.766602 0.827269 1.000000
299.013000 -258.766571 0.042648 1.000000
293.824890 -262.659485 -0.000014 0.538186
290.703583 -265.001587 -0.000012 0.532769
288.710907 -266.496796 -0.000011 0.532631
287.325928 -267.536011 -0.000010 0.557214
286.305542 -268.301666 -0.000009 0.536217
299.394470 -258.691742 8.067329 1.000000
299.394470 -258.691742 7.231478 1.000000
299.394470 -258.691742 6.407365 1.000000
299.394470 -258.691742 5.593014 1.000000
299.394470 -258.691742 4.786531 1.000000
299.394470 -258.691742 3.986101 1.000000
299.394470 -258.691742 3.189957 1.000000
299.394470 -258.691742 2.396369 1.000000
299.394470 -258.691742 1.603631 1.000000
299.394470 -258.691742 0.810043 1.000000
299.394470 -258.691742 0.013898 1.000000
293.897400 -262.756836 -0.000014 0.528344
290.759827 -265.077057 -0.000012 0.536156
288.756744 -266.558319 -0.000011 0.543877
287.364563 -267.587860 -0.000010 0.524330
286.338837 -268.346375 -0.000010 0.492088
299.787323 -258.614685 8.158079 1.000000
299.787323 -258.614685 7.309728 1.000000
299.787323 -258.614685 6.473289 1.000000
299.787323 -258.614685 5.646756 1.000000
299.787323 -258.614685 4.828210 1.000000
299.787323 -258.614685 4.015808 1.000000
299.787323 -258.614685 3.207756 1.000000
299.787323 -258.614685 2.402297 1.000000
299.787323 -258.614685 1.597703 1.000000
299.787323 -258.614685 0.792244 1.000000
299.631683 -258.728119 -0.000016 0.554101
293.969208 -262.854675 -0.000014 0.540230
290.815521 -265.152924 -0.000012 0.561898
288.802155 -266.620178 -0.000011 0.541665
287.402802 -267.639984 -0.000010 0.521324
286.371826 -268.391296 -0.000010 0.525338
300.192169 -258.535278 8.251899 1.000000
300.192169 -258.535278 7.390623 1.000000
300.192169 -258.535278 6.541439 1.000000
300.192169 -258.535278 5.702315 1.000000
300.192169 -258.535278 4.871299 1.000000
300.192169 -258.535278 4.046519 1.000000
300.192169 -258.535278 3.226156 1.000000
300.192169 -258.535278 2.408427 1.000000
300.192169 -258.535278 1.591573 1.000000
300.192169 -258.535278 0.773844 1.000000
299.731506 -258.866089 -0.000017 0.543328
294.040344 -262.953003 -0.000014 0.524056
290.870697 -265.229218 -0.000012 0.524254
288.847137 -266.682343 -0.000011 0.542321
287.440704 -267.692352 -0.000010 0.502602
286.404510 -268.436462 -0.000010 0.568765
300.609528 -258.453400 8.348935 1.000000
300.609528 -258.453400 7.474292 1.000000
300.609528 -258.453400 6.611928 1.000000
300.609528 -258.453400 5.759778 1.000000
300.609528 -258.453400 4.915865 1.000000
300.609528 -258.453400 4.078283 1.000000
300.609528 -258.453400 3.245187 1.000000
300.609528 -258.453400 2.414766 1.000000
300.609528 -258.453400 1.585234 1.000000
300.609528 -258.453400 0.754813 1.000000
299.830322 -259.004761 -0.000016 0.543038
294.110809 -263.051849 -0.000014 0.522148
290.925323 -265.305847 -0.000012 0.544656
288.891693 -266.744843 -0.000011 0.534951
287.478210 -267.744995 -0.000010 0.547143
286.436859 -268.481873 -0.000010 0.546822
301.040100 -258.368927 8.449349 1.000000
301.040100 -258.368927 7.560872 1.000000
301.040100 -258.368927 6.684870 1.000000
301.040100 -258.368927 5.819242 1.000000
301.040070 -258.368927 4.961981 1.000000
301.040070 -258.368927 4.111153 1.000000
301.040070 -258.368927 3.264881 1.000000
301.040070 -258.368927 2.421325 1.000000
301.040070 -258.368927 1.578674 1.000000
301.040070 -258.368927 0.735119 1.000000
299.928223 -259.144104 -0.000017 0.553460
294.180573 -263.151154 -0.000014 0.526406
290.979431 -265.382874 -0.000012 0.544152
288.935791 -266.807648 -0.000011 0.535134
287.515381 -267.797913 -0.000010 0.538811
286.468903 -268.527466 -0.000009 0.556710
301.484497 -258.281769 8.553314 1.000000
301.484497 -258.281769 7.650516 1.000000
301.484497 -258.281769 6.760391 1.000000
301.484497 -258.281769 5.880811 1.000000
301.484497 -258.281769 5.009730 1.000000
301.484497 -258.281769 4.145185 1.000000
301.484497 -258.281769 3.285270 1.000000
301.484497 -258.281769 2.428118 1.000000
301.484497 -258.281769 1.571882 1.000000
301.484497 -258.281769 0.714729 1.000000
300.025116 -259.284119 -0.000017 0.545129
294.249634 -263.250977 -0.000014 0.519448
291.032990 -265.460297 -0.000012 0.561318
288.979462 -266.870728 -0.000010 0.549676
287.552185 -267.851044 -0.000010 0.557137
286.500610 -268.573303 -0.000009 0.526299
301.943512 -258.191711 8.661019 1.000000
301.943481 -258.191711 7.743381 1.000000
301.943481 -258.191711 6.838628 1.000000
301.943481 -258.191711 5.944592 1.000000
301.943481 -258.191711 5.059195 1.000000
301.943512 -258.191711 4.180442 1.000000
301.943481 -258.191711 3.306394 1.000000
301.943512 -258.191711 2.435153 1.000000
301.943512 -258.191711 1.564846 1.000000
301.943481 -258.191711 0.693606 1.000000
300.121033 -259.424835 -0.000017 0.539513
294.317993 -263.351257 -0.000014 0.544900
291.086029 -265.538055 -0.000012 0.553277
289.022675 -266.934143 -0.000011 0.570626
287.588593 -267.904480 -0.000010 0.518013
286.532013 -268.619385 -0.000009 0.580392
302.417847 -258.098663 8.772656 1.000000
302.417847 -258.098663 7.839639 1.000000
302.417847 -258.098663 6.919723 1.000000
302.417847 -258.098663 6.010702 1.000000
302.417847 -258.098663 5.110466 1.000000
302.417847 -258.098663 4.216986 1.000000
302.417847 -258.098663 3.328289 1.000000
302.417847 -258.098663 2.442447 1.000000
302.417847 -258.098663 1.557553 1.000000
302.417847 -258.098663 0.671710 1.000000
300.215973 -259.566193 -0.000017 0.538613
294.385681 -263.451996 -0.000014 0.537133
291.138489 -265.616211 -0.000012 0.521889
289.065460 -266.997864 -0.000011 0.515190
287.624634 -267.958160 -0.000010 0.500572
286.563080 -268.665649 -0.000009 0.551980
302.908417 -258.002441 8.888439 1.000000
302.908417 -258.002441 7.939473 1.000000
302.908417 -258.002441 7.003830 1.000000
302.908417 -258.002441 6.079268 1.000000
302.908417 -258.002441 5.163642 1.000000
302.908417 -258.002441 4.254888 1.000000
302.908417 -258.002441 3.350997 1.000000
302.908417 -258.002441 2.450010 1.000000
302.908417 -258.002441 1.549989 1.000000
302.908417 -258.002441 0.649002 1.000000
300.309906 -259.708221 -0.000017 0.539147
294.452637 -263.553253 -0.000014 0.546059
291.190430 -265.694702 -0.000012 0.558923
289.107788 -267.061859 -0.000011 0.535363
287.660278 -268.012054 -0.000010 0.508598
286.593842 -268.712128 -0.000009 0.560845
303.416046 -257.902863 9.008602 1.000000
303.416046 -257.902863 8.043081 1.000000
303.416046 -257.902863 7.091115 1.000000
303.416046 -257.902863 6.150427 1.000000
303.416046 -257.902863 5.218828 1.000000
303.416046 -257.902863 4.294220 1.000000
303.416046 -257.902863 3.374565 1.000000
303.416077 -257.902863 2.457861 1.000000
303.416077 -257.902863 1.542139 1.000000
303.416046 -257.902863 0.625435 1.000000
300.402863 -259.850891 -0.000017 0.550958
294.518890 -263.654938 -0.000014 0.535348
291.241791 -265.773590 -0.000012 0.561517
289.149689 -267.126160 -0.000010 0.526848
287.695587 -268.066223 -0.000010 0.564462
286.624268 -268.758850 -0.000009 0.570840
303.941772 -257.799744 9.133383 1.000000
303.941772 -257.799744 8.150672 1.000000
303.941772 -257.799744 7.181758 1.000000
303.941772 -257.799744 6.224321 1.000000
303.941772 -257.799744 5.276137 1.000000
303.941772 -257.799744 4.335068 1.000000
303.941772 -257.799744 3.399037 1.000000
303.941772 -257.799744 2.466013 1.000000
303.941772 -257.799744 1.533987 1.000000
303.941772 -257.799744 0.600963 1.000000
300.494812 -259.994232 -0.000017 0.531914
294.584412 -263.757080 -0.000014 0.529717
291.292633 -265.852814 -0.000012 0.549310
289.191132 -267.190735 -0.000011 0.548531
287.730499 -268.120636 -0.000010 0.542092
286.654358 -268.805756 -0.000009 0.540948
304.486542 -257.692871 9.263048 1.000000
304.486542 -257.692871 8.262475 1.000000
304.486542 -257.692871 7.275949 1.000000
304.486542 -257.692871 6.301108 1.000000
304.486542 -257.692871 5.335687 1.000000
304.486542 -257.692871 4.377513 1.000000
304.486542 -257.692871 3.424467 1.000000
304.486542 -257.692871 2.474484 1.000000
304.486542 -257.692871 1.525517 1.000000
304.486542 -257.692871 0.575532 1.000000
300.585754 -260.138184 -0.000017 0.539300
294.649231 -263.859711 -0.000015 0.527764
291.342926 -265.932373 -0.000012 0.519081
289.232117 -267.255615 -0.000010 0.560739
287.765015 -268.175293 -0.000010 0.484947
286.684143 -268.852875 -0.000009 0.547890
305.051544 -257.582031 9.397883 1.000000
305.051514 -257.582031 8.378735 1.000000
305.051544 -257.582031 7.373895 1.000000
305.051514 -257.582031 6.380956 1.000000
305.051514 -257.582031 5.397613 1.000000
305.051514 -257.582031 4.421650 1.000000
305.051514 -257.582031 3.450912 1.000000
305.051514 -257.582031 2.483292 1.000000
305.051514 -257.582031 1.516708 1.000000
305.051514 -257.582031 0.549088 1.000000
300.675720 -260.282776 -0.000017 0.540368
294.713348 -263.962769 -0.000015 0.545174
291.392639 -266.012299 -0.000012 0.552911
289.272644 -267.320770 -0.000011 0.509773
287.799164 -268.230194 -0.000010 0.555230
286.713593 -268.900208 -0.000009 0.540200
305.637909 -257.467010 9.538191 1.000000
305.637909 -257.467010 8.499713 1.000000
305.637909 -257.467010 7.475815 1.000000
305.637909 -257.467010 6.464045 1.000000
305.637909 -257.467010 5.462052 1.000000
305.637909 -257.467010 4.467579 1.000000
305.637909 -257.467010 3.478430 1.000000
305.637909 -257.467010 2.492459 1.000000
305.637909 -257.467010 1.507542 1.000000
305.637909 -257.467010 0.521569 1.000000
300.764648 -260.428009 -0.000017 0.524010
294.776733 -264.066254 -0.000015 0.536156
291.441772 -266.092590 -0.000012 0.548287
289.312714 -267.386200 -0.000010 0.541955
287.832916 -268.285339 -0.000010 0.487556
286.742676 -268.947754 -0.000009 0.523888
306.247009 -257.347534 9.684307 1.000000
306.247009 -257.347534 8.625700 1.000000
306.247009 -257.347534 7.581956 1.000000
306.247009 -257.347534 6.550573 1.000000
306.247009 -257.347534 5.529160 1.000000
306.247009 -257.347534 4.515409 1.000000
306.247009 -257.347534 3.507087 1.000000
306.247009 -257.347534 2.502004 1.000000
306.247009 -257.347534 1.497997 1.000000
306.247009 -257.347534 0.492912 1.000000
300.852570 -260.573853 -0.000018 0.527306
294.839386 -264.170227 -0.000015 0.538064
291.490387 -266.173187 -0.000012 0.554162
289.352325 -267.451935 -0.000010 0.546654
287.866302 -268.340698 -0.000010 0.544640
286.771454 -268.995483 -0.000009 0.563714
306.880188 -257.223328 9.836588 1.000000
306.880219 -257.223328 8.757003 1.000000
306.880188 -257.223328 7.692574 1.000000
306.880188 -257.223328 6.640753 1.000000
306.880188 -257.223328 5.599097 1.000000
306.880188 -257.223328 4.565257 1.000000
306.880188 -257.223328 3.536952 1.000000
306.880188 -257.223328 2.511952 1.000000
306.880188 -257.223328 1.488049 1.000000
306.880188 -257.223328 0.463046 1.000000
300.939453 -260.720276 -0.000018 0.532021
294.901337 -264.274597 -0.000015 0.527687
291.538422 -266.254150 -0.000012 0.539483
289.391479 -267.517914 -0.000010 0.534844
287.899292 -268.396301 -0.000010 0.519768
286.799896 -269.043427 -0.000008 0.540322
307.539032 -257.094086 9.995422 1.000000
307.539032 -257.094086 8.893953 1.000000
307.539032 -257.094086 7.807954 1.000000
307.539032 -257.094086 6.734812 1.000000
307.539032 -257.094086 5.672044 1.000000
307.539032 -257.094086 4.617250 1.000000
307.539032 -257.094086 3.568105 1.000000
307.539032 -257.094086 2.522328 1.000000
307.539032 -257.094086 1.477672 1.000000
307.539032 -257.094086 0.431895 1.000000
301.025330 -260.867340 -0.000018 0.541070
294.962524 -264.379395 -0.000015 0.530266
291.585876 -266.335419 -0.000012 0.552697
289.430176 -267.584198 -0.000010 0.573037
287.931885 -268.452118 -0.000009 0.546532
286.828033 -269.091583 -0.000009 0.553887
308.225159 -256.959473 10.161239 1.000000
308.225159 -256.959473 9.036929 1.000000
308.225159 -256.959473 7.928404 1.000000
308.225159 -256.959473 6.833008 1.000000
308.225159 -256.959473 5.748199 1.000000
308.225159 -256.959473 4.671530 1.000000
308.225159 -256.959473 3.600626 1.000000
308.225159 -256.959473 2.533161 1.000000
308.225159 -256.959473 1.466839 1.000000
308.225159 -256.959473 0.399374 1.000000
301.110168 -261.014984 -0.000018 0.544335
295.023010 -264.484650 -0.000015 0.545815
291.632782 -266.417053 -0.000012 0.526909
289.468414 -267.650726 -0.000010 0.551019
287.964111 -268.508179 -0.000009 0.534218
286.855804 -269.139893 -0.000009 0.501900
308.940399 -256.819183 10.334496 1.000000
308.940399 -256.819183 9.186314 1.000000
308.940399 -256.819183 8.054257 1.000000
308.940399 -256.819183 6.935607 1.000000
308.940399 -256.819183 5.827769 1.000000
308.940399 -256.819183 4.728244 1.000000
308.940399 -256.819183 3.634605 1.000000
308.940399 -256.819183 2.544479 1.000000
308.940399 -256.819183 1.455521 1.000000
308.940399 -256.819183 0.365394 1.000000
301.193970 -261.163208 -0.000018 0.538201
295.082733 -264.590302 -0.000015 0.544488
291.679108 -266.498993 -0.000012 0.529229
289.506165 -267.717529 -0.000010 0.542412
287.995911 -268.564453 -0.000009 0.578714
286.883240 -269.188416 -0.000009 0.546639
309.686676 -256.672791 10.515683 1.000000
309.686676 -256.672791 9.342545 1.000000
309.686676 -256.672791 8.185876 1.000000
309.686676 -256.672791 7.042907 1.000000
309.686676 -256.672791 5.910984 1.000000
309.686676 -256.672791 4.787555 1.000000
309.686676 -256.672791 3.670141 1.000000
309.686676 -256.672791 2.556317 1.000000
309.686676 -256.672791 1.443684 1.000000
309.686676 -256.672791 0.329859 1.000000
301.276764 -261.312042 -0.000018 0.525231
295.141724 -264.696350 -0.000015 0.537255
291.724854 -266.581238 -0.000012 0.529549
289.543488 -267.784576 -0.000010 0.555367
288.027344 -268.620941 -0.000009 0.540749
286.910309 -269.237152 -0.000008 0.519539
310.466187 -256.519867 10.705364 1.000000
310.466187 -256.519867 9.506094 1.000000
310.466187 -256.519867 8.323662 1.000000
310.466187 -256.519867 7.155233 1.000000
310.466187 -256.519867 5.998097 1.000000
310.466187 -256.519867 4.849646 1.000000
310.466187 -256.519867 3.707342 1.000000
310.466187 -256.519867 2.568708 1.000000
310.466187 -256.519867 1.431292 1.000000
310.466187 -256.519867 0.292657 1.000000
301.358490 -261.461426 -0.000018 0.518044
295.199982 -264.802826 -0.000015 0.529183
291.770050 -266.663818 -0.000012 0.536019
289.580322 -267.851898 -0.000010 0.524987
288.058380 -268.677673 -0.000009 0.542550
286.937073 -269.286041 -0.000008 0.500633
311.281250 -256.359985 10.904131 1.000000
311.281250 -256.359985 9.677479 1.000000
311.281250 -256.359985 8.468048 1.000000
311.281250 -256.359985 7.272940 1.000000
311.281250 -256.359985 6.089386 1.000000
311.281250 -256.359985 4.914710 1.000000
311.281250 -256.359985 3.746325 1.000000
311.281250 -256.359985 2.581693 1.000000
311.281250 -256.359985 1.418307 1.000000
311.281250 -256.359985 0.253674 1.000000
301.439178 -261.611389 -0.000018 0.536538
295.257507 -264.909729 -0.000014 0.549752
291.814636 -266.746704 -0.000012 0.545449
289.616669 -267.919464 -0.000010 0.538460
288.088989 -268.734589 -0.000010 0.536034
286.963470 -269.335144 -0.000008 0.554528
312.134430 -256.192627 11.112638 1.000000
312.134430 -256.192627 9.857262 1.000000
312.134430 -256.192627 8.619511 1.000000
312.134430 -256.192627 7.396417 1.000000
312.134430 -256.192627 6.185148 1.000000
312.134430 -256.192627 4.982964 1.000000
312.134430 -256.192627 3.787219 1.000000
312.134430 -256.192627 2.595314 1.000000
312.134430 -256.192627 1.404686 1.000000
312.134430 -256.192627 0.212780 1.000000
301.518799 -261.761902 -0.000018 0.532631
295.314270 -265.016998 -0.000015 0.545632
291.858643 -266.829926 -0.000012 0.514748
289.652557 -267.987305 -0.000010 0.547005
288.119232 -268.791748 -0.000009 0.539330
286.989563 -269.384399 -0.000008 0.535729
313.028595 -256.017212 11.331614 1.000000
313.028564 -256.017212 10.046067 1.000000
313.028564 -256.017212 8.778574 1.000000
313.028564 -256.017212 7.526091 1.000000
313.028595 -256.017212 6.285715 1.000000
313.028564 -256.017212 5.054644 1.000000
313.028595 -256.017212 3.830166 1.000000
313.028564 -256.017212 2.609619 1.000000
313.028564 -256.017212 1.390380 1.000000
313.028595 -256.017212 0.169834 1.000000
301.597412 -261.912964 -0.000018 0.536141
295.370270 -265.124664 -0.000015 0.535744
291.902100 -266.913422 -0.000012 0.547295
289.687958 -268.055389 -0.000010 0.549767
288.149078 -268.849091 -0.000009 0.546059
287.015289 -269.433838 -0.000008 0.548928
313.966797 -255.833176 11.561844 1.000000
313.966797 -255.833176 10.244583 1.000000
313.966797 -255.833176 8.945817 1.000000
313.966797 -255.833176 7.662434 1.000000
313.966797 -255.833176 6.391452 1.000000
313.966797 -255.833176 5.130008 1.000000
313.966797 -255.833176 3.875320 1.000000
313.966797 -255.833176 2.624660 1.000000
313.966797 -255.833176 1.375340 1.000000
313.966797 -255.833176 0.124680 1.000000
301.674927 -262.064575 -0.000019 0.541924
295.425537 -265.232727 -0.000014 0.535927
291.944946 -266.997223 -0.000012 0.560479
289.722900 -268.123718 -0.000010 0.539162
288.178497 -268.906647 -0.000009 0.521096
287.040649 -269.483490 -0.000008 0.507851
314.952545 -255.639801 11.804219 1.000000
314.952545 -255.639801 10.453568 1.000000
314.952545 -255.639801 9.121879 1.000000
314.952545 -255.639801 7.805965 1.000000
314.952545 -255.639801 6.502768 1.000000
314.952545 -255.639801 5.209350 1.000000
314.952545 -255.639801 3.922856 1.000000
314.952545 -255.639801 2.640494 1.000000
314.952545 -255.639801 1.359506 1.000000
314.952545 -255.639801 0.077143 1.000000
301.751404 -262.216736 -0.000018 0.546517
295.480042 -265.341187 -0.000015 0.520760
291.987213 -267.081329 -0.000012 0.522377
289.757355 -268.192261 -0.000010 0.535363
288.207520 -268.964417 -0.000009 0.533104
287.065674 -269.533295 -0.000004 0.341405
nan nan nan 0.000000
315.989624 -255.436371 10.673854 1.000000
315.989624 -255.436371 9.307465 1.000000
315.989624 -255.436371 7.957259 1.000000
315.989624 -255.436371 6.620102 1.000000
315.989624 -255.436371 5.292979 1.000000
315.989624 -255.436371 3.972961 1.000000
315.989624 -255.436371 2.657184 1.000000
315.989624 -255.436371 1.342816 1.000000
315.989624 -255.436371 0.027038 1.000000
301.826813 -262.369415 -0.000018 0.535286
295.533783 -265.450012 -0.000014 0.528923
292.028900 -267.165741 -0.000012 0.556359
289.791351 -268.261078 -0.000010 0.528130
288.236145 -269.022369 -0.000009 0.574609
287.090363 -269.583282 -0.000004 0.337499
nan nan nan 0.000000
317.082245 -255.222031 10.906373 1.000000
317.082245 -255.222031 9.503355 1.000000
317.082245 -255.222031 8.116955 1.000000
317.082245 -255.222031 6.743952 1.000000
317.082214 -255.222046 5.381254 1.000000
317.082245 -255.222031 4.025852 1.000000
317.082245 -255.222031 2.674801 1.000000
317.082245 -255.222031 1.325198 1.000000
316.608490 -255.449860 -0.000027 0.543328
301.901123 -262.522614 -0.000019 0.541543
295.586761 -265.559204 -0.000014 0.547097
292.070007 -267.250427 -0.000012 0.545357
289.824829 -268.330109 -0.000010 0.510872
288.264374 -269.080536 -0.000009 0.532616
287.114685 -269.633423 -0.000003 0.339086
nan nan nan 0.000000
318.235107 -254.995880 11.152163 1.000000
318.235107 -254.995880 9.710428 1.000000
318.235107 -254.995880 8.285767 1.000000
318.235107 -254.995880 6.874872 1.000000
318.235107 -254.995880 5.474566 1.000000
318.235107 -254.995880 4.081760 1.000000
318.235107 -254.995880 2.693424 1.000000
318.235107 -254.995880 1.306576 1.000000
316.730774 -255.706436 -0.000027 0.537911
301.974396 -262.676361 -0.000019 0.544167
295.638977 -265.668762 -0.000014 0.551003
292.110504 -267.335388 -0.000012 0.537301
289.857849 -268.399384 -0.000010 0.549920
288.292206 -269.138885 -0.000009 0.524468
287.102570 -269.700806 0.010000 1.000000
nan nan nan 0.000000
319.453491 -254.756882 11.412374 1.000000
319.453491 -254.756882 9.929646 1.000000
319.453491 -254.756882 8.464479 1.000000
319.453491 -254.756882 7.013474 1.000000
319.453461 -254.756882 5.573354 1.000000
319.453461 -254.756882 4.140947 1.000000
319.453461 -254.756882 2.713140 1.000000
319.453461 -254.756882 1.286861 1.000000
316.851257 -255.963852 -0.000027 0.547127
302.046600 -262.830566 -0.000019 0.539284
295.690430 -265.778687 -0.000015 0.531502
292.150391 -267.420654 -0.000012 0.539788
289.890381 -268.468872 -0.000010 0.543709
288.319611 -269.197449 -0.000009 0.533089
287.126068 -269.751038 0.010000 1.000000
nan nan nan 0.000000
320.743225 -254.503876 11.688301 1.000000
320.743225 -254.503876 10.162106 1.000000
320.743225 -254.503876 8.653989 1.000000
320.743225 -254.503876 7.160446 1.000000
320.743225 -254.503876 5.678107 1.000000
320.743225 -254.503876 4.203710 1.000000
320.743225 -254.503876 2.734044 1.000000
320.743225 -254.503876 1.265955 1.000000
316.969940 -256.222107 -0.000027 0.535546
302.117706 -262.985291 -0.000020 0.538476
295.741119 -265.888977 -0.000014 0.526192
292.189697 -267.506165 -0.000012 0.522942
289.922424 -268.538605 -0.000010 0.564660
288.346588 -269.256195 -0.000004 0.342550
287.149231 -269.801422 0.010000 1.000000
nan nan nan 0.000000
322.110931 -254.235580 11.981396 1.000000
322.110931 -254.235580 10.409032 1.000000
322.110931 -254.235580 8.855288 1.000000
322.110931 -254.235596 7.316561 1.000000
322.110931 -254.235580 5.789380 1.000000
322.110931 -254.235596 4.270376 1.000000
322.110931 -254.235596 2.756252 1.000000
322.110931 -254.235580 1.243748 1.000000
317.086823 -256.481171 -0.000027 0.539178
302.187744 -263.140533 -0.000020 0.530205
295.791016 -265.999603 -0.000015 0.538705
292.228394 -267.591980 -0.000012 0.529259
289.953979 -268.608551 -0.000010 0.542168
288.373169 -269.315125 -0.000004 0.328344
287.208496 -269.835693 -0.000004 0.343694
nan nan nan 0.000000
nan nan nan 0.000000
323.564056 -253.950531 10.671794 1.000000
323.564056 -253.950531 9.069501 1.000000
323.564026 -253.950531 7.482691 1.000000
323.564026 -253.950531 5.907788 1.000000
323.564026 -253.950531 4.341322 1.000000
323.564026 -253.950531 2.779882 1.000000
323.564026 -253.950531 1.220116 1.000000
317.201904 -256.741058 -0.000027 0.537652
302.256683 -263.296234 -0.000020 0.530037
295.840179 -266.110596 -0.000015 0.536217
292.266510 -267.678040 -0.000011 0.531106
289.985046 -268.678711 -0.000010 0.561608
288.399323 -269.374237 -0.000004 0.339498
287.231079 -269.886658 -0.000004 0.338689
nan nan nan 0.000000
nan nan nan 0.000000
325.110962 -253.647079 10.951960 1.000000
325.110962 -253.647079 9.297897 1.000000
325.110992 -253.647079 7.659825 1.000000
325.110962 -253.647079 6.034041 1.000000
325.110962 -253.647079 4.416964 1.000000
325.110962 -253.647095 2.805079 1.000000
325.110962 -253.647079 1.194921 1.000000
317.315216 -257.001709 -0.000029 0.540002
302.324554 -263.452393 -0.000020 0.532555
295.888519 -266.221924 -0.000015 0.533532
292.304016 -267.764374 -0.000011 0.536507
290.015625 -268.749115 -0.000010 0.541344
288.382568 -269.451843 0.009998 1.000000
287.253296 -269.937775 -0.000004 0.336019
nan nan nan 0.000000
nan nan nan 0.000000
326.761292 -253.323349 11.251300 1.000000
326.761292 -253.323349 9.541930 1.000000
326.761292 -253.323349 7.849080 1.000000
326.761292 -253.323349 6.168933 1.000000
326.761292 -253.323349 4.497782 1.000000
326.761292 -253.323349 2.831999 1.000000
326.761292 -253.323349 1.168000 1.000000
317.426636 -257.263184 -0.000029 0.542351
302.391296 -263.609070 -0.000020 0.542519
295.936127 -266.333557 -0.000015 0.530007
292.340942 -267.850983 -0.000011 0.542046
290.045715 -268.819702 -0.000010 0.524681
288.407776 -269.511017 0.009996 1.000000
287.275146 -269.989075 -0.000004 0.341665
nan nan nan 0.000000
nan nan nan 0.000000
328.525879 -252.977203 11.571835 1.000000
328.525879 -252.977203 9.803240 1.000000
328.525879 -252.977203 8.051739 1.000000
328.525879 -252.977203 6.313377 1.000000
328.525879 -252.977203 4.584326 1.000000
328.525879 -252.977203 2.860827 1.000000
328.525879 -252.977203 1.139173 1.000000
317.536224 -257.525421 -0.000029 0.545251
302.456970 -263.766174 -0.000020 0.530632
295.982910 -266.445557 -0.000015 0.545678
292.377228 -267.937805 -0.000011 0.558297
290.075256 -268.890533 0.000002 0.333944
288.432587 -269.570374 0.009995 1.000000
287.296631 -270.040497 -0.000004 0.336355
nan nan nan 0.000000
nan nan nan 0.000000
330.417236 -252.606186 11.915878 1.000000
330.417236 -252.606186 10.083714 1.000000
330.417236 -252.606186 8.269257 1.000000
330.417236 -252.606186 6.468412 1.000000
330.417236 -252.606186 4.677214 1.000000
330.417236 -252.606186 2.891766 1.000000
330.417236 -252.606186 1.108232 1.000000
317.643982 -257.788422 -0.000029 0.538750
302.521545 -263.923737 -0.000020 0.539071
296.028931 -266.557861 -0.000015 0.559274
292.412933 -268.024933 -0.000011 0.540841
290.104340 -268.961517 0.000002 0.336690
288.499878 -269.612488 -0.000004 0.333700
287.317780 -270.092072 -0.000004 0.339162
nan nan nan 0.000000
nan nan nan 0.000000
nan nan nan 0.000000
332.449707 -252.207489 10.385526 1.000000
332.449707 -252.207489 8.503324 1.000000
332.449707 -252.207489 6.635246 1.000000
332.449707 -252.207489 4.777171 1.000000
332.449707 -252.207489 2.925062 1.000000
332.449707 -252.207489 1.074938 1.000000
317.749939 -258.052155 -0.000029 0.537438
302.585022 -264.081757 -0.000020 0.550011
296.074188 -266.670502 -0.000014 0.549889
292.447998 -268.112274 -0.000011 0.538308
290.081909 -269.053040 0.009996 1.000000
288.523987 -269.672455 -0.000004 0.334920
287.338531 -270.143799 -0.000004 0.332616
nan nan nan 0.000000
nan nan nan 0.000000
nan nan nan 0.000000
334.639984 -251.777832 10.711189 1.000000
334.639984 -251.777832 8.755891 1.000000
334.639954 -251.777832 6.815263 1.000000
334.639954 -251.777832 4.885026 1.000000
334.639954 -251.777832 2.960989 1.000000
334.639984 -251.777832 1.039011 1.000000
317.854004 -258.316620 -0.000029 0.537499
302.647369 -264.240234 -0.000020 0.545388
296.118622 -266.783417 -0.000014 0.534722
292.482483 -268.199860 -0.000011 0.543038
290.109833 -269.124084 0.010004 1.000000
288.547668 -269.732635 -0.000004 0.340703
287.358948 -270.195679 -0.000004 0.339117
nan nan nan 0.000000
nan nan nan 0.000000
nan nan nan 0.000000
337.007324 -251.313446 11.063628 1.000000
337.007324 -251.313446 9.029221 1.000000
337.007324 -251.313446 7.010077 1.000000
337.007324 -251.313446 5.001748 1.000000
337.007324 -251.313446 2.999868 1.000000
337.007324 -251.313446 1.000132 1.000000
317.956268 -258.581818 -0.000030 0.540902
302.708618 -264.399109 -0.000020 0.538964
296.162292 -266.896667 -0.000014 0.522927
292.516327 -268.287689 -0.000011 0.526802
290.137299 -269.195343 0.010002 1.000000
288.570923 -269.792938 -0.000004 0.339788
287.378998 -270.247681 -0.000004 0.331853
nan nan nan 0.000000
nan nan nan 0.000000
nan nan nan 0.000000
339.574463 -250.809860 11.446268 1.000000
339.574463 -250.809860 9.325975 1.000000
339.574463 -250.809860 7.221591 1.000000
339.574463 -250.809860 5.128474 1.000000
339.574463 -250.809860 3.042079 1.000000
339.574463 -250.809860 0.957920 1.000000
318.056671 -258.847717 -0.000030 0.539940
302.768768 -264.558411 -0.000019 0.541238
296.205139 -267.010223 -0.000014 0.546883
292.549408 -268.375793 0.000015 0.336553
290.215759 -269.247528 0.000003 0.335790
288.593750 -269.853424 -0.000005 0.340230
287.398712 -270.299835 -0.000004 0.343450
nan nan nan 0.000000
nan nan nan 0.000000
nan nan nan 0.000000
342.368042 -250.261856 11.863146 1.000000
342.368042 -250.261871 9.649279 1.000000
342.368042 -250.261871 7.452025 1.000000
342.368042 -250.261871 5.266538 1.000000
342.368011 -250.261871 3.088068 1.000000
342.368011 -250.261871 0.911933 1.000000
318.155182 -259.114319 -0.000029 0.539452
302.827789 -264.718140 -0.000020 0.537041
296.247223 -267.124084 -0.000014 0.532601
292.582031 -268.464111 0.000015 0.329931
290.242371 -269.319519 0.000002 0.339208
288.616150 -269.914063 -0.000005 0.336629
287.418030 -270.352112 -0.000004 0.337865
nan nan nan 0.000000
nan nan nan 0.000000
nan nan nan 0.000000
nan nan nan 0.000000
345.419800 -249.663223 10.002851 1.000000
345.419800 -249.663208 7.704035 1.000000
345.419769 -249.663223 5.417525 1.000000
345.419800 -249.663223 3.138363 1.000000
345.419800 -249.663208 0.861638 1.000000
318.251831 -259.381592 -0.000029 0.540429
302.885712 -264.878296 -0.000019 0.534752
296.288513 -267.238220 -0.000014 0.538369
292.550690 -268.575287 0.009998 1.000000
290.268463 -269.391663 0.000003 0.335714
288.638153 -269.974854 -0.000005 0.336996
287.436981 -270.404541 -0.000004 0.335821
nan nan nan 0.000000
nan nan nan 0.000000
nan nan nan 0.000000
nan nan nan 0.000000
348.767456 -249.006531 10.391113 1.000000
348.767456 -249.006531 7.980768 1.000000
348.767456 -249.006531 5.583332 1.000000
348.767456 -249.006531 3.193590 1.000000
348.767456 -249.006531 0.806409 1.000000
318.346649 -259.649536 -0.000030 0.540780
302.942505 -265.038818 -0.000019 0.525429
296.328979 -267.352631 -0.000014 0.545480
292.581909 -268.663574 0.010002 1.000000
290.294037 -269.464020 0.000003 0.337896
288.659698 -270.035797 -0.000005 0.339910
287.455566 -270.457092 -0.000005 0.331640
nan nan nan 0.000000
nan nan nan 0.000000
nan nan nan 0.000000
nan nan nan 0.000000
352.456635 -248.282837 10.819424 1.000000
352.456635 -248.282837 8.286045 1.000000
352.456635 -248.282837 5.766232 1.000000
352.456665 -248.282837 3.254514 1.000000
352.456665 -248.282837 0.745485 1.000000
318.439575 -259.918152 -0.000030 0.541268
302.998169 -265.199768 -0.000019 0.537682
296.368652 -267.467346 -0.000014 0.536446
292.676239 -268.730316 0.000015 0.339818
290.319122 -269.536530 0.000003 0.340688
288.680847 -270.096893 -0.000005 0.332708
287.473785 -270.509766 -0.000005 0.334874
nan nan nan 0.000000
nan nan nan 0.000000
nan nan nan 0.000000
nan nan nan 0.000000
356.542999 -247.481232 11.294291 1.000000
356.542969 -247.481247 8.624508 1.000000
356.542999 -247.481232 5.969021 1.000000
356.542969 -247.481247 3.322062 1.000000
356.542999 -247.481247 0.677937 1.000000
318.530640 -260.187378 -0.000030 0.539193
303.052734 -265.361084 -0.000019 0.548531
296.407623 -267.582275 -0.000023 0.337362
292.706390 -268.819458 0.000014 0.338247
290.343719 -269.609222 0.000003 0.336233
288.701538 -270.158142 -0.000005 0.339178
287.491638 -270.562561 -0.000005 0.341100
nan nan nan 0.000000
nan nan nan 0.000000
nan nan nan 0.000000
nan nan nan 0.000000
nan nan nan 0.000000
nan nan nan 0.000000
nan nan nan 0.000000
nan nan nan 0.000000
nan nan nan 0.000000
318.619781 -260.457245 -0.000030 0.549050
303.106140 -265.522766 -0.000019 0.548211
296.362823 -267.724579 0.010006 1.000000
292.735901 -268.908844 0.000014 0.334646
290.367798 -269.682098 0.000003 0.332937
288.721832 -270.219513 -0.000005 0.329335
287.509125 -270.615479 -0.000005 0.326223
nan nan nan 0.000000
nan nan nan 0.000000
nan nan nan 0.000000
nan nan nan 0.000000
nan nan nan 0.000000
nan nan nan 0.000000
nan nan nan 0.000000
nan nan nan 0.000000
nan nan nan 0.000000
318.707062 -260.727722 -0.000030 0.540932
303.158447 -265.684814 -0.000020 0.548531
296.399963 -267.839508 0.009999 1.000000
292.764801 -268.998413 0.000014 0.337041
290.391357 -269.755127 0.000003 0.338552
288.741699 -270.281036 -0.000005 0.335271
287.526245 -270.668549 -0.000005 0.332601
nan nan nan 0.000000
nan nan nan 0.000000
nan nan nan 0.000000
nan nan nan 0.000000
nan nan nan 0.000000
nan nan nan 0.000000
nan nan nan 0.000000
nan nan nan 0.000000
nan nan nan 0.000000
318.791504 -260.999115 0.000017 0.339849
303.209595 -265.847229 -0.000019 0.546532
296.519409 -267.928802 -0.000021 0.336858
292.793091 -269.088196 0.000014 0.336690
290.414398 -269.828308 0.000003 0.333227
288.761108 -270.342712 -0.000005 0.338293
287.542999 -270.721710 -0.000004 0.345098
nan nan nan 0.000000
nan nan nan 0.000000
nan nan nan 0.000000
nan nan nan 0.000000
nan nan nan 0.000000
nan nan nan 0.000000
nan nan nan 0.000000
nan nan nan 0.000000
nan nan nan 0.000000
318.681396 -261.329559 0.009957 1.000000
303.259613 -266.010010 -0.000019 0.546715
296.555054 -268.044830 -0.000021 0.336828
292.820740 -269.178192 0.000014 0.333715
290.436951 -269.901672 0.000003 0.330800
288.780090 -270.404510 -0.000005 0.333379
287.559387 -270.774994 -0.000005 0.330098
nan nan nan 0.000000
nan nan nan 0.000000
nan nan nan 0.000000
nan nan nan 0.000000
nan nan nan 0.000000
nan nan nan 0.000000
nan nan nan 0.000000
nan nan nan 0.000000
nan nan nan 0.000000
318.956329 -261.543121 0.000031 0.338582
303.308502 -266.173126 -0.000019 0.533135
296.589905 -268.161102 -0.000020 0.336217
292.847778 -269.268341 0.000014 0.332601
290.458984 -269.975159 0.000003 0.338430
288.798645 -270.466431 -0.000005 0.337865
287.575378 -270.828400 -0.000005 0.334188
nan nan nan 0.000000
nan nan nan 0.000000
nan nan nan 0.000000
nan nan nan 0.000000
nan nan nan 0.000000
nan nan nan 0.000000
nan nan nan 0.000000
nan nan nan 0.000000
nan nan nan 0.000000
319.036133 -261.815887 0.000025 0.337942
303.356262 -266.336578 -0.000019 0.545327
296.623932 -268.277588 -0.000019 0.337697
292.874176 -269.358704 0.000013 0.336873
290.480499 -270.048828 0.000003 0.325399
288.816772 -270.528473 -0.000005 0.333349
287.591003 -270.881897 -0.000005 0.335073
nan nan nan 0.000000
nan nan nan 0.000000
nan nan nan 0.000000
nan nan nan 0.000000
nan nan nan 0.000000
nan nan nan 0.000000
nan nan nan 0.000000
nan nan nan 0.000000
nan nan nan 0.000000
319.114044 -262.089233 0.000019 0.339284
303.402649 -266.500427 -0.000002 0.336156
296.657135 -268.394348 -0.000019 0.333211
292.899933 -269.449219 0.000014 0.337346
290.501495 -270.122620 0.000003 0.337774
288.834473 -270.590668 -0.000005 0.327016
287.606262 -270.935516 -0.000005 0.326207
nan nan nan 0.000000
nan nan nan 0.000000
nan nan nan 0.000000
nan nan nan 0.000000
nan nan nan 0.000000
nan nan nan 0.000000
nan nan nan 0.000000
nan nan nan 0.000000
nan nan nan 0.000000
319.190002 -262.363098 0.000013 0.338903
303.330322 -266.696716 0.010011 1.000000
296.689514 -268.511292 -0.000018 0.336385
292.925049 -269.539948 0.000013 0.339406
290.521973 -270.196594 0.000003 0.333776
288.851746 -270.652954 -0.000005 0.340169
287.621155 -270.989227 -0.000005 0.343923
nan nan nan 0.000000
nan nan nan 0.000000
nan nan nan 0.000000
nan nan nan 0.000000
nan nan nan 0.000000
nan nan nan 0.000000
nan nan nan 0.000000
nan nan nan 0.000000
nan nan nan 0.000000
319.264160 -262.637482 0.000004 0.337911
303.492401 -266.828949 -0.000001 0.338613
296.721100 -268.628510 -0.000017 0.338613
292.949554 -269.630829 0.000013 0.335821
290.541931 -270.270660 0.000003 0.333730
288.868561 -270.715393 -0.000005 0.338918
287.635651 -271.043060 -0.000005 0.335866
nan nan nan 0.000000
nan nan nan 0.000000
nan nan nan 0.000000
nan nan nan 0.000000
nan nan nan 0.000000
nan nan nan 0.000000
nan nan nan 0.000000
nan nan nan 0.000000
nan nan nan 0.000000
319.336426 -262.912323 -0.000008 0.338323
303.535553 -266.993683 -0.000001 0.338125
296.751862 -268.745911 -0.000017 0.338994
292.973389 -269.721893 0.000013 0.332982
290.561401 -270.344910 0.000003 0.334340
288.884949 -270.777924 -0.000005 0.343206
287.649780 -271.096954 -0.000005 0.340475
nan nan nan 0.000000
nan nan nan 0.000000
nan nan nan 0.000000
nan nan nan 0.000000
nan nan nan 0.000000
nan nan nan 0.000000
nan nan nan 0.000000
nan nan nan 0.000000
nan nan nan 0.000000
319.406860 -263.187683 -0.000023 0.338354
303.577576 -267.158722 -0.000000 0.337621
296.781799 -268.863525 -0.000016 0.339605
292.996613 -269.813110 0.000013 0.338094
290.580322 -270.419281 0.000003 0.339605
288.900879 -270.840576 -0.000005 0.341985
287.663544 -271.151001 -0.000005 0.333669
nan nan nan 0.000000
nan nan nan 0.000000
nan nan nan 0.000000
nan nan nan 0.000000
nan nan nan 0.000000
nan nan nan 0.000000
nan nan nan 0.000000
nan nan nan 0.000000
nan nan nan 0.000000
319.475342 -263.463531 -0.000038 0.338552
303.618439 -267.324036 0.000000 0.340581
296.810913 -268.981354 -0.000016 0.338949
293.019196 -269.904480 0.000013 0.338048
290.598724 -270.493774 0.000003 0.338109
288.916412 -270.903351 -0.000005 0.336339
287.676910 -271.205109 -0.000005 0.339620
nan nan nan 0.000000
nan nan nan 0.000000
nan nan nan 0.000000
nan nan nan 0.000000
nan nan nan 0.000000
nan nan nan 0.000000
nan nan nan 0.000000
nan nan nan 0.000000
nan nan nan 0.000000
319.541931 -263.739868 -0.000054 0.337972
303.658112 -267.489624 0.000001 0.337575
296.839203 -269.099396 -0.000015 0.332967
293.041168 -269.996002 0.000013 0.340063
290.616638 -270.568390 0.000003 0.343206
288.931488 -270.966217 -0.000005 0.329473
287.689911 -271.259308 -0.000005 0.339818
nan nan nan 0.000000
nan nan nan 0.000000
nan nan nan 0.000000
nan nan nan 0.000000
nan nan nan 0.000000
nan nan nan 0.000000
nan nan nan 0.000000
nan nan nan 0.000000
nan nan nan 0.000000
319.606445 -264.016663 -0.000063 0.339193
303.696655 -267.655487 0.000001 0.336873
296.866669 -269.217621 -0.000015 0.335103
293.062469 -270.087708 0.000012 0.336172
290.634003 -270.643127 0.000003 0.338399
288.946106 -271.029175 -0.000005 0.338949
287.702515 -271.313599 -0.000005 0.340490
nan nan nan 0.000000
nan nan nan 0.000000
nan nan nan 0.000000
nan nan nan 0.000000
nan nan nan 0.000000
nan nan nan 0.000000
nan nan nan 0.000000
nan nan nan 0.000000
