# This PCD file was generated using the MATLABÂ® pcwrite function
# from Computer Vision ToolboxÂ®.
# .PCD v.7 - Point Cloud Data file format
VERSION .7
FIELDS x y z intensity
SIZE 4 4 4 4
TYPE F F F F
COUNT 1 1 1 1
WIDTH 1158
HEIGHT 1
VIEWPOINT 0 0 0 1 0 0 0
POINTS 1158
DATA ascii
268.279938 -570.558472 -0.000013 0.518578
269.732910 -569.616638 -0.000007 0.342596
270.803406 -568.922729 -0.000005 0.335576
263.772430 -573.344849 6.080453 1.000000
263.772430 -573.344849 5.518322 1.000000
263.772430 -573.344849 4.964082 1.000000
263.772430 -573.344849 4.416406 1.000000
263.772430 -573.344849 3.874023 1.000000
263.772430 -573.344849 3.335711 1.000000
263.772430 -573.344849 2.800280 1.000000
263.772430 -573.344849 2.266570 1.000000
263.772430 -573.344849 1.733431 1.000000
263.772430 -573.344849 1.199719 1.000000
263.772430 -573.344849 0.664289 1.000000
263.772430 -573.344849 0.125977 1.000000
266.138489 -571.834412 -0.000017 0.508110
268.238403 -570.493958 -0.000013 0.519127
269.697937 -569.562256 -0.000006 0.332418
270.773254 -568.875854 -0.000004 0.341375
264.041473 -573.041382 5.982850 1.000000
264.041473 -573.041382 5.434163 1.000000
264.041473 -573.041382 4.893181 1.000000
264.041473 -573.041382 4.358605 1.000000
264.041473 -573.041382 3.829197 1.000000
264.041473 -573.041382 3.303761 1.000000
264.041473 -573.041382 2.781138 1.000000
264.041473 -573.041382 2.260193 1.000000
264.041473 -573.041382 1.739807 1.000000
264.041473 -573.041382 1.218862 1.000000
264.041473 -573.041382 0.696239 1.000000
264.041473 -573.041382 0.170803 1.000000
266.088135 -571.754944 -0.000016 0.555322
268.197357 -570.429138 -0.000013 0.540917
269.663330 -569.507629 -0.000011 0.539849
270.743408 -568.828735 -0.000004 0.327901
264.297943 -572.752136 5.889989 1.000000
264.297943 -572.752136 5.354095 1.000000
264.297943 -572.752136 4.825726 1.000000
264.297943 -572.752136 4.303614 1.000000
264.297943 -572.752136 3.786549 1.000000
264.297943 -572.752136 3.273363 1.000000
264.297943 -572.752136 2.762925 1.000000
264.297943 -572.752136 2.254127 1.000000
264.297943 -572.752136 1.745873 1.000000
264.297943 -572.752136 1.237074 1.000000
264.297943 -572.752136 0.726637 1.000000
264.297943 -572.752136 0.213451 1.000000
266.038330 -571.675049 -0.000016 0.531197
268.156738 -570.364014 -0.000013 0.541482
269.629120 -569.452820 -0.000011 0.532128
270.713928 -568.781433 -0.000004 0.338567
264.542755 -572.476013 5.801540 1.000000
264.542755 -572.476013 5.277832 1.000000
264.542755 -572.476013 4.761477 1.000000
264.542755 -572.476013 4.251237 1.000000
264.542755 -572.476013 3.745927 1.000000
264.542755 -572.476013 3.244410 1.000000
264.542755 -572.476013 2.745579 1.000000
264.542755 -572.476013 2.248348 1.000000
264.542755 -572.476013 1.751651 1.000000
264.542755 -572.476013 1.254421 1.000000
264.542755 -572.476013 0.755589 1.000000
264.542755 -572.476013 0.254073 1.000000
265.989075 -571.594849 -0.000017 0.532006
268.116577 -570.298645 -0.000014 0.514733
269.595276 -569.397705 -0.000011 0.561654
270.718872 -568.713135 0.010002 1.000000
264.776703 -572.212158 5.717206 1.000000
264.776703 -572.212158 5.205114 1.000000
264.776703 -572.212158 4.700214 1.000000
264.776703 -572.212158 4.201294 1.000000
264.776703 -572.212158 3.707195 1.000000
264.776703 -572.212158 3.216804 1.000000
264.776703 -572.212158 2.729038 1.000000
264.776703 -572.212158 2.242839 1.000000
264.776703 -572.212158 1.757161 1.000000
264.776703 -572.212158 1.270962 1.000000
264.776703 -572.212158 0.783196 1.000000
264.776703 -572.212158 0.292805 1.000000
265.940369 -571.514282 -0.000016 0.546975
268.076874 -570.232971 -0.000013 0.545556
269.561829 -569.342407 -0.000011 0.531731
270.690125 -568.665710 0.009991 1.000000
265.000488 -571.959778 5.636701 1.000000
265.000488 -571.959778 5.135702 1.000000
265.000488 -571.959778 4.641736 1.000000
265.000488 -571.959778 4.153620 1.000000
265.000488 -571.959778 3.670222 1.000000
265.000488 -571.959778 3.190452 1.000000
265.000488 -571.959778 2.713250 1.000000
265.000488 -571.959778 2.237580 1.000000
265.000488 -571.959778 1.762420 1.000000
265.000488 -571.959778 1.286750 1.000000
265.000488 -571.959778 0.809548 1.000000
265.000488 -571.959778 0.329778 1.000000
265.892242 -571.433411 -0.000017 0.536126
268.037659 -570.166992 -0.000013 0.545602
269.528778 -569.286804 -0.000011 0.521096
270.661804 -568.618042 0.009997 1.000000
265.214813 -571.718018 5.559780 1.000000
265.214813 -571.718018 5.069378 1.000000
265.214813 -571.718018 4.585859 1.000000
265.214813 -571.718018 4.108068 1.000000
265.214813 -571.718018 3.634894 1.000000
265.214813 -571.718018 3.165271 1.000000
265.214813 -571.718018 2.698163 1.000000
265.214813 -571.718018 2.232555 1.000000
265.214813 -571.718018 1.767445 1.000000
265.214813 -571.718018 1.301836 1.000000
265.214813 -571.718018 0.834728 1.000000
265.214813 -571.718018 0.365105 1.000000
265.844666 -571.352173 -0.000017 0.552224
267.998871 -570.100769 -0.000014 0.516075
269.496124 -569.231018 -0.000011 0.543297
270.599243 -568.590210 -0.000003 0.333761
265.420258 -571.486328 5.486214 1.000000
265.420258 -571.486328 5.005946 1.000000
265.420258 -571.486328 4.532419 1.000000
265.420258 -571.486328 4.064503 1.000000
265.420258 -571.486328 3.601108 1.000000
265.420258 -571.486328 3.141190 1.000000
265.420258 -571.486328 2.683735 1.000000
265.420258 -571.486328 2.227749 1.000000
265.420258 -571.486328 1.772251 1.000000
265.420258 -571.486328 1.316265 1.000000
265.420258 -571.486328 0.858810 1.000000
265.420258 -571.486328 0.398892 1.000000
265.797668 -571.270630 -0.000016 0.548791
267.960571 -570.034302 -0.000013 0.548379
269.463837 -569.175049 -0.000011 0.534981
270.571411 -568.541931 -0.000004 0.333959
265.617401 -571.263977 5.415789 1.000000
265.617401 -571.263977 4.945222 1.000000
265.617401 -571.263977 4.481262 1.000000
265.617401 -571.263977 4.022798 1.000000
265.617401 -571.263977 3.568764 1.000000
265.617401 -571.263977 3.118137 1.000000
265.617401 -571.263977 2.669923 1.000000
265.617401 -571.263977 2.223148 1.000000
265.617401 -571.263977 1.776852 1.000000
265.617401 -571.263977 1.330077 1.000000
265.617401 -571.263977 0.881863 1.000000
265.617401 -571.263977 0.431236 1.000000
265.751251 -571.188721 -0.000016 0.547372
267.922699 -569.967529 -0.000014 0.508293
269.431946 -569.118774 -0.000011 0.532143
270.543915 -568.493469 -0.000003 0.334829
265.806732 -571.050476 5.348311 1.000000
265.806732 -571.050476 4.887041 1.000000
265.806732 -571.050476 4.432246 1.000000
265.806732 -571.050476 3.982839 1.000000
265.806732 -571.050476 3.537774 1.000000
265.806732 -571.050476 3.096049 1.000000
265.806732 -571.050476 2.656689 1.000000
265.806732 -571.050476 2.218740 1.000000
265.806732 -571.050476 1.781260 1.000000
265.806732 -571.050476 1.343311 1.000000
265.806732 -571.050476 0.903951 1.000000
265.806732 -571.050476 0.462226 1.000000
265.806732 -571.050476 0.017161 1.000000
267.885345 -569.900513 -0.000013 0.535576
269.400452 -569.062317 -0.000011 0.546319
270.516754 -568.444763 -0.000010 0.512764
265.988739 -570.845154 5.283606 1.000000
265.988739 -570.845154 4.831250 1.000000
265.988739 -570.845154 4.385243 1.000000
265.988739 -570.845154 3.944520 1.000000
265.988739 -570.845154 3.508057 1.000000
265.988739 -570.845154 3.074868 1.000000
265.988739 -570.845154 2.643999 1.000000
265.988739 -570.845154 2.214513 1.000000
265.988739 -570.845154 1.785487 1.000000
265.988739 -570.845154 1.356001 1.000000
265.988739 -570.845154 0.925132 1.000000
265.988739 -570.845154 0.491943 1.000000
265.988739 -570.845154 0.055480 1.000000
267.848419 -569.833252 -0.000013 0.521340
269.369354 -569.005676 -0.000011 0.540703
270.489929 -568.395935 -0.000010 0.543496
266.163849 -570.647644 5.221509 1.000000
266.163879 -570.647644 4.777706 1.000000
266.163849 -570.647644 4.340136 1.000000
266.163849 -570.647644 3.907747 1.000000
266.163849 -570.647644 3.479537 1.000000
266.163849 -570.647644 3.054540 1.000000
266.163849 -570.647644 2.631820 1.000000
266.163849 -570.647644 2.210456 1.000000
266.163849 -570.647644 1.789544 1.000000
266.163849 -570.647644 1.368180 1.000000
266.163849 -570.647644 0.945459 1.000000
266.163849 -570.647644 0.520463 1.000000
266.163849 -570.647644 0.092253 1.000000
267.811981 -569.765747 -0.000013 0.549538
269.338654 -568.948730 -0.000011 0.560006
270.463470 -568.346863 -0.000010 0.547280
266.332489 -570.457458 5.161868 1.000000
266.332489 -570.457458 4.726283 1.000000
266.332489 -570.457458 4.296812 1.000000
266.332489 -570.457458 3.872429 1.000000
266.332489 -570.457458 3.452146 1.000000
266.332489 -570.457458 3.035018 1.000000
266.332489 -570.457458 2.620123 1.000000
266.332489 -570.457458 2.206560 1.000000
266.332489 -570.457458 1.793440 1.000000
266.332489 -570.457458 1.379877 1.000000
266.332489 -570.457458 0.964982 1.000000
266.332489 -570.457458 0.547854 1.000000
266.332489 -570.457458 0.127571 1.000000
267.776001 -569.697937 -0.000013 0.527764
269.308350 -568.891663 -0.000011 0.561761
270.437317 -568.297607 -0.000009 0.525353
266.494995 -570.274231 5.104542 1.000000
266.494995 -570.274231 4.676854 1.000000
266.494995 -570.274231 4.255170 1.000000
266.494995 -570.274231 3.838480 1.000000
266.494995 -570.274231 3.425818 1.000000
266.494995 -570.274231 3.016253 1.000000
266.494995 -570.274231 2.608879 1.000000
266.494995 -570.274231 2.202815 1.000000
266.494995 -570.274231 1.797185 1.000000
266.494995 -570.274231 1.391120 1.000000
266.494995 -570.274231 0.983747 1.000000
266.494995 -570.274231 0.574182 1.000000
266.494995 -570.274231 0.161520 1.000000
267.740509 -569.629883 -0.000013 0.571206
269.278473 -568.834351 -0.000011 0.529885
270.411530 -568.248169 -0.000010 0.565484
266.651733 -570.097473 5.049406 1.000000
266.651733 -570.097473 4.629313 1.000000
266.651733 -570.097473 4.215117 1.000000
266.651703 -570.097473 3.805829 1.000000
266.651703 -570.097473 3.400496 1.000000
266.651733 -570.097473 2.998204 1.000000
266.651733 -570.097473 2.598066 1.000000
266.651703 -570.097473 2.199213 1.000000
266.651703 -570.097473 1.800787 1.000000
266.651733 -570.097473 1.401934 1.000000
266.651733 -570.097473 1.001796 1.000000
266.651703 -570.097473 0.599504 1.000000
266.651733 -570.097473 0.194171 1.000000
267.705505 -569.561646 -0.000013 0.525750
269.248962 -568.776794 -0.000011 0.551278
270.386108 -568.198608 -0.000010 0.515755
266.802979 -569.926819 4.996337 1.000000
266.802979 -569.926819 4.583555 1.000000
266.802979 -569.926819 4.176568 1.000000
266.802979 -569.926819 3.774403 1.000000
266.802979 -569.926819 3.376123 1.000000
266.802979 -569.926819 2.980832 1.000000
266.802979 -569.926819 2.587658 1.000000
266.802979 -569.926819 2.195746 1.000000
266.802979 -569.926819 1.804254 1.000000
266.802979 -569.926819 1.412342 1.000000
266.802979 -569.926819 1.019168 1.000000
266.802979 -569.926819 0.623877 1.000000
266.802979 -569.926819 0.225598 1.000000
267.670959 -569.493103 -0.000013 0.547860
269.219849 -568.719055 -0.000011 0.536446
270.361023 -568.148804 -0.000010 0.576104
266.949066 -569.762085 4.945225 1.000000
266.949066 -569.762085 4.539483 1.000000
266.949066 -569.762085 4.139440 1.000000
266.949066 -569.762085 3.744134 1.000000
266.949066 -569.762085 3.352648 1.000000
266.949066 -569.762085 2.964101 1.000000
266.949066 -569.762085 2.577633 1.000000
266.949066 -569.762085 2.192407 1.000000
266.949066 -569.762085 1.807593 1.000000
266.949066 -569.762085 1.422367 1.000000
266.949066 -569.762085 1.035899 1.000000
266.949066 -569.762085 0.647352 1.000000
266.949066 -569.762085 0.255866 1.000000
267.636902 -569.424316 -0.000013 0.547738
269.191162 -568.661133 -0.000011 0.530571
270.336273 -568.098877 -0.000009 0.572824
267.090271 -569.602844 4.895965 1.000000
267.090271 -569.602844 4.497011 1.000000
267.090271 -569.602844 4.103658 1.000000
267.090271 -569.602844 3.714963 1.000000
267.090271 -569.602844 3.330025 1.000000
267.090271 -569.602844 2.947976 1.000000
267.090271 -569.602844 2.567972 1.000000
267.090271 -569.602844 2.189189 1.000000
267.090271 -569.602844 1.810811 1.000000
267.090271 -569.602844 1.432028 1.000000
267.090271 -569.602844 1.052024 1.000000
267.090271 -569.602844 0.669975 1.000000
267.090271 -569.602844 0.285037 1.000000
267.603302 -569.355347 -0.000013 0.568063
269.162872 -568.603027 -0.000011 0.495018
270.311890 -568.048767 -0.000009 0.514855
267.226837 -569.448792 4.848463 1.000000
267.226837 -569.448792 4.456053 1.000000
267.226837 -569.448792 4.069152 1.000000
267.226837 -569.448792 3.686832 1.000000
267.226837 -569.448792 3.308209 1.000000
267.226837 -569.448792 2.932426 1.000000
267.226837 -569.448792 2.558656 1.000000
267.226837 -569.448792 2.186086 1.000000
267.226837 -569.448792 1.813914 1.000000
267.226837 -569.448792 1.441344 1.000000
267.226837 -569.448792 1.067573 1.000000
267.226837 -569.448792 0.691791 1.000000
267.226837 -569.448792 0.313167 1.000000
267.570221 -569.286133 -0.000013 0.543832
269.134979 -568.544678 -0.000011 0.556893
270.287842 -567.998474 -0.000010 0.570718
267.358978 -569.299744 4.802629 1.000000
267.359009 -569.299744 4.416532 1.000000
267.358978 -569.299744 4.035857 1.000000
267.358978 -569.299744 3.659690 1.000000
267.358978 -569.299744 3.287158 1.000000
267.358978 -569.299744 2.917423 1.000000
267.359009 -569.299744 2.549666 1.000000
267.359009 -569.299744 2.183091 1.000000
267.359009 -569.299744 1.816909 1.000000
267.359009 -569.299744 1.450333 1.000000
267.358978 -569.299744 1.082577 1.000000
267.358978 -569.299744 0.712842 1.000000
267.358978 -569.299744 0.340310 1.000000
267.537598 -569.216675 -0.000013 0.527337
269.107513 -568.486206 -0.000011 0.550820
270.264160 -567.947998 -0.000009 0.548043
267.486969 -569.155396 4.758378 1.000000
267.486969 -569.155396 4.378378 1.000000
267.486969 -569.155396 4.003714 1.000000
267.486969 -569.155396 3.633486 1.000000
267.486969 -569.155396 3.266836 1.000000
267.486969 -569.155396 2.902938 1.000000
267.486969 -569.155396 2.540988 1.000000
267.486969 -569.155396 2.180201 1.000000
267.486969 -569.155396 1.819799 1.000000
267.486969 -569.155396 1.459012 1.000000
267.486969 -569.155396 1.097062 1.000000
267.486969 -569.155396 0.733164 1.000000
267.486969 -569.155396 0.366515 1.000000
267.505463 -569.146973 -0.000013 0.545296
269.080444 -568.427490 -0.000011 0.541802
270.240814 -567.897400 -0.000010 0.544045
267.610992 -569.015564 4.715632 1.000000
267.610992 -569.015564 4.341521 1.000000
267.610992 -569.015564 3.972662 1.000000
267.610992 -569.015564 3.608172 1.000000
267.610992 -569.015564 3.247204 1.000000
267.610992 -569.015564 2.888945 1.000000
267.610992 -569.015564 2.532604 1.000000
267.610992 -569.015564 2.177408 1.000000
267.610992 -569.015564 1.822592 1.000000
267.610992 -569.015564 1.467395 1.000000
267.610992 -569.015564 1.111054 1.000000
267.610992 -569.015564 0.752796 1.000000
267.610992 -569.015564 0.391828 1.000000
267.610992 -569.015564 0.027338 1.000000
269.053772 -568.368591 -0.000011 0.558618
270.217834 -567.846619 -0.000010 0.520256
267.712708 -568.888123 4.679383 1.000000
267.712708 -568.888123 4.310266 1.000000
267.712708 -568.888123 3.946331 1.000000
267.712708 -568.888123 3.586706 1.000000
267.712708 -568.888123 3.230556 1.000000
267.712708 -568.888123 2.877079 1.000000
267.712708 -568.888123 2.525495 1.000000
267.712708 -568.888062 2.175040 1.000000
267.712708 -568.888062 1.824960 1.000000
267.712708 -568.888123 1.474505 1.000000
267.712708 -568.888062 1.122921 1.000000
267.712708 -568.888123 0.769444 1.000000
267.712708 -568.888123 0.413294 1.000000
267.712708 -568.888062 0.053670 1.000000
269.027527 -568.309509 -0.000011 0.539590
270.195190 -567.795654 -0.000009 0.545739
267.650879 -568.833435 4.688113 1.000000
267.650879 -568.833435 4.317792 1.000000
267.650879 -568.833435 3.952671 1.000000
267.650879 -568.833435 3.591875 1.000000
267.650879 -568.833435 3.234565 1.000000
267.650879 -568.833435 2.879937 1.000000
267.650879 -568.833435 2.527207 1.000000
267.650879 -568.833435 2.175610 1.000000
267.650879 -568.833435 1.824390 1.000000
267.650879 -568.833435 1.472793 1.000000
267.650879 -568.833435 1.120063 1.000000
267.650879 -568.833435 0.765435 1.000000
267.650879 -568.833435 0.408126 1.000000
267.650879 -568.833435 0.047329 1.000000
269.001709 -568.250244 -0.000010 0.523583
270.172913 -567.744568 -0.000009 0.532921
267.588654 -568.778442 4.697030 1.000000
267.588654 -568.778442 4.325481 1.000000
267.588654 -568.778442 3.959148 1.000000
267.588654 -568.778442 3.597156 1.000000
267.588654 -568.778442 3.238661 1.000000
267.588654 -568.778442 2.882855 1.000000
267.588654 -568.778442 2.528956 1.000000
267.588654 -568.778442 2.176193 1.000000
267.588654 -568.778442 1.823807 1.000000
267.588654 -568.778442 1.471044 1.000000
267.588654 -568.778442 1.117144 1.000000
267.588654 -568.778442 0.761340 1.000000
267.588654 -568.778442 0.402845 1.000000
267.588654 -568.778442 0.040851 1.000000
268.976288 -568.190796 -0.000011 0.514443
270.151001 -567.693298 -0.000009 0.530602
267.526001 -568.723083 4.706139 1.000000
267.526001 -568.723083 4.333335 1.000000
267.526001 -568.723083 3.965766 1.000000
267.526001 -568.723083 3.602550 1.000000
267.526001 -568.723083 3.242844 1.000000
267.526001 -568.723083 2.885838 1.000000
267.526001 -568.723083 2.530742 1.000000
267.526001 -568.723083 2.176788 1.000000
267.526001 -568.723083 1.823212 1.000000
267.526001 -568.723083 1.469257 1.000000
267.526001 -568.723083 1.114162 1.000000
267.526001 -568.723083 0.757156 1.000000
267.526001 -568.723083 0.397451 1.000000
267.526001 -568.723083 0.034235 1.000000
268.951294 -568.131165 -0.000011 0.535805
270.129456 -567.641907 -0.000010 0.572213
267.462891 -568.667297 4.715442 1.000000
267.462891 -568.667297 4.341356 1.000000
267.462891 -568.667297 3.972523 1.000000
267.462891 -568.667297 3.608059 1.000000
267.462891 -568.667297 3.247117 1.000000
267.462891 -568.667297 2.888883 1.000000
267.462891 -568.667297 2.532567 1.000000
267.462891 -568.667297 2.177396 1.000000
267.462891 -568.667297 1.822605 1.000000
267.462891 -568.667297 1.467433 1.000000
267.462891 -568.667297 1.111117 1.000000
267.462891 -568.667297 0.752883 1.000000
267.462891 -568.667297 0.391941 1.000000
267.462891 -568.667297 0.027477 1.000000
268.926697 -568.071350 -0.000010 0.491341
270.108246 -567.590332 -0.000010 0.539925
267.399384 -568.611206 4.724943 1.000000
267.399384 -568.611206 4.349549 1.000000
267.399384 -568.611206 3.979425 1.000000
267.399384 -568.611206 3.613685 1.000000
267.399384 -568.611206 3.251481 1.000000
267.399384 -568.611206 2.891993 1.000000
267.399384 -568.611206 2.534430 1.000000
267.399384 -568.611206 2.178016 1.000000
267.399384 -568.611206 1.821984 1.000000
267.399384 -568.611206 1.465569 1.000000
267.399384 -568.611206 1.108007 1.000000
267.399384 -568.611206 0.748520 1.000000
267.399384 -568.611206 0.386315 1.000000
267.399384 -568.611206 0.020575 1.000000
268.902527 -568.011414 -0.000011 0.520653
270.087402 -567.538635 -0.000010 0.580636
267.335419 -568.554626 4.734645 1.000000
267.335419 -568.554626 4.357914 1.000000
267.335419 -568.554626 3.986472 1.000000
267.335419 -568.554626 3.619431 1.000000
267.335419 -568.554626 3.255936 1.000000
267.335419 -568.554626 2.895169 1.000000
267.335419 -568.554626 2.536333 1.000000
267.335419 -568.554626 2.178650 1.000000
267.335419 -568.554626 1.821350 1.000000
267.335419 -568.554626 1.463667 1.000000
267.335419 -568.554626 1.104831 1.000000
267.335419 -568.554626 0.744064 1.000000
267.335419 -568.554626 0.380570 1.000000
267.335419 -568.554626 0.013528 1.000000
268.878784 -567.951294 -0.000011 0.556558
270.066925 -567.486816 -0.000009 0.550011
267.270966 -568.497681 4.744549 1.000000
267.270996 -568.497681 4.366454 1.000000
267.270996 -568.497681 3.993667 1.000000
267.270996 -568.497681 3.625296 1.000000
267.270996 -568.497681 3.260485 1.000000
267.270996 -568.497681 2.898411 1.000000
267.270966 -568.497681 2.538276 1.000000
267.270996 -568.497681 2.179297 1.000000
267.270996 -568.497681 1.820703 1.000000
267.270996 -568.497681 1.461724 1.000000
267.270996 -568.497681 1.101589 1.000000
267.270996 -568.497681 0.739515 1.000000
267.270996 -568.497681 0.374704 1.000000
267.270996 -568.497681 0.006333 1.000000
268.855469 -567.890991 -0.000011 0.523766
270.046814 -567.434814 -0.000009 0.559152
267.206085 -568.440369 4.754661 1.000000
267.206085 -568.440369 4.375173 1.000000
267.206085 -568.440369 4.001012 1.000000
267.206085 -568.440369 3.631284 1.000000
267.206085 -568.440369 3.265129 1.000000
267.206085 -568.440369 2.901721 1.000000
267.206085 -568.440369 2.540259 1.000000
267.206085 -568.440369 2.179958 1.000000
267.206085 -568.440369 1.820042 1.000000
267.206085 -568.440369 1.459741 1.000000
267.206085 -568.440369 1.098279 1.000000
267.206085 -568.440369 0.734871 1.000000
267.206085 -568.440369 0.368717 1.000000
267.206085 -568.440369 -0.001013 1.000000
268.832550 -567.830566 -0.000011 0.527504
270.027069 -567.382690 -0.000009 0.527749
267.140686 -568.382568 4.764982 1.000000
267.140686 -568.382568 4.384072 1.000000
267.140686 -568.382568 4.008510 1.000000
267.140686 -568.382568 3.637396 1.000000
267.140686 -568.382568 3.269869 1.000000
267.140686 -568.382568 2.905100 1.000000
267.140686 -568.382568 2.542283 1.000000
267.140686 -568.382568 2.180632 1.000000
267.140686 -568.382568 1.819368 1.000000
267.140686 -568.382568 1.457717 1.000000
267.140686 -568.382568 1.094900 1.000000
267.140686 -568.382568 0.730131 1.000000
267.140686 -568.382568 0.362604 1.000000
267.184540 -568.366455 -0.000013 0.551080
268.810059 -567.769958 -0.000011 0.550942
270.007690 -567.330444 -0.000009 0.534371
267.074799 -568.324341 4.775518 1.000000
267.074799 -568.324341 4.393157 1.000000
267.074799 -568.324341 4.016163 1.000000
267.074799 -568.324341 3.643635 1.000000
267.074799 -568.324341 3.274708 1.000000
267.074799 -568.324341 2.908548 1.000000
267.074799 -568.324341 2.544349 1.000000
267.074799 -568.324341 2.181320 1.000000
267.074799 -568.324341 1.818680 1.000000
267.074799 -568.324341 1.455650 1.000000
267.074799 -568.324341 1.091452 1.000000
267.074799 -568.324341 0.725292 1.000000
267.074799 -568.324341 0.356365 1.000000
267.158356 -568.294312 -0.000013 0.559380
268.787994 -567.709167 -0.000011 0.530648
269.988647 -567.278015 -0.000009 0.533043
267.008423 -568.265686 4.786270 1.000000
267.008423 -568.265686 4.402428 1.000000
267.008423 -568.265686 4.023974 1.000000
267.008423 -568.265686 3.650003 1.000000
267.008423 -568.265686 3.279645 1.000000
267.008423 -568.265686 2.912068 1.000000
267.008423 -568.265686 2.546458 1.000000
267.008423 -568.265686 2.182022 1.000000
267.008423 -568.265686 1.817977 1.000000
267.008423 -568.265686 1.453542 1.000000
267.008423 -568.265686 1.087932 1.000000
267.008423 -568.265686 0.720355 1.000000
267.008423 -568.265686 0.349998 1.000000
267.132660 -568.222046 -0.000013 0.572961
268.766357 -567.648254 -0.000010 0.539376
269.970001 -567.225525 -0.000009 0.521340
266.941528 -568.206543 4.797243 1.000000
266.941528 -568.206543 4.411889 1.000000
266.941498 -568.206543 4.031944 1.000000
266.941528 -568.206543 3.656501 1.000000
266.941528 -568.206543 3.284685 1.000000
266.941528 -568.206543 2.915660 1.000000
266.941528 -568.206543 2.548610 1.000000
266.941528 -568.206543 2.182739 1.000000
266.941528 -568.206543 1.817261 1.000000
266.941528 -568.206543 1.451390 1.000000
266.941528 -568.206543 1.084340 1.000000
266.941528 -568.206543 0.715315 1.000000
266.941528 -568.206543 0.343499 1.000000
267.107483 -568.149536 -0.000013 0.665446
268.745148 -567.587158 -0.000011 0.540352
269.951721 -567.172852 -0.000009 0.559762
266.874084 -568.146912 4.808439 1.000000
266.874084 -568.146912 4.421542 1.000000
266.874084 -568.146912 4.040078 1.000000
266.874084 -568.146912 3.663131 1.000000
266.874084 -568.146912 3.289827 1.000000
266.874084 -568.146912 2.919325 1.000000
266.874084 -568.146912 2.550806 1.000000
266.874084 -568.146912 2.183471 1.000000
266.874084 -568.146912 1.816529 1.000000
266.874084 -568.146912 1.449194 1.000000
266.874084 -568.146912 1.080675 1.000000
266.874084 -568.146912 0.710173 1.000000
266.874084 -568.146912 0.336869 1.000000
267.082825 -568.076904 -0.000013 0.546914
268.724365 -567.525940 -0.000010 0.548745
269.933807 -567.120056 -0.000009 0.552148
266.806091 -568.086853 4.819864 1.000000
266.806091 -568.086853 4.431394 1.000000
266.806091 -568.086853 4.048377 1.000000
266.806091 -568.086853 3.669897 1.000000
266.806091 -568.086853 3.295074 1.000000
266.806091 -568.086853 2.923064 1.000000
266.806091 -568.086853 2.553047 1.000000
266.806091 -568.086853 2.184217 1.000000
266.806091 -568.086853 1.815783 1.000000
266.806091 -568.086853 1.446953 1.000000
266.806091 -568.086853 1.076935 1.000000
266.806091 -568.086853 0.704926 1.000000
266.806091 -568.086853 0.330104 1.000000
267.058655 -568.004028 -0.000013 0.551537
268.704010 -567.464600 -0.000010 0.521401
269.916229 -567.067139 -0.000009 0.530694
266.737549 -568.026245 4.831522 1.000000
266.737549 -568.026245 4.441445 1.000000
266.737549 -568.026245 4.056845 1.000000
266.737549 -568.026245 3.676800 1.000000
266.737549 -568.026245 3.300428 1.000000
266.737549 -568.026245 2.926881 1.000000
266.737549 -568.026245 2.555333 1.000000
266.737549 -568.026245 2.184979 1.000000
266.737549 -568.026245 1.815021 1.000000
266.737549 -568.026245 1.444667 1.000000
266.737549 -568.026245 1.073119 1.000000
266.737549 -568.026245 0.699572 1.000000
266.737549 -568.026245 0.323200 1.000000
267.035004 -567.931030 -0.000012 0.536019
268.684082 -567.403076 -0.000011 0.519371
269.899048 -567.014160 -0.000009 0.521096
266.668427 -567.965210 4.843413 1.000000
266.668427 -567.965210 4.451699 1.000000
266.668427 -567.965210 4.065483 1.000000
266.668427 -567.965210 3.683843 1.000000
266.668427 -567.965210 3.305890 1.000000
266.668427 -567.965210 2.930773 1.000000
266.668427 -567.965210 2.557666 1.000000
266.668427 -567.965210 2.185756 1.000000
266.668427 -567.965210 1.814244 1.000000
266.668427 -567.965210 1.442334 1.000000
266.668427 -567.965210 1.069226 1.000000
266.668427 -567.965210 0.694110 1.000000
266.668427 -567.965210 0.316158 1.000000
267.011871 -567.857849 -0.000012 0.548379
268.664612 -567.341431 -0.000010 0.528023
269.882263 -566.960999 -0.000009 0.543130
266.598724 -567.903564 4.855547 1.000000
266.598724 -567.903564 4.462160 1.000000
266.598724 -567.903564 4.074296 1.000000
266.598724 -567.903564 3.691028 1.000000
266.598724 -567.903564 3.311462 1.000000
266.598724 -567.903564 2.934745 1.000000
266.598724 -567.903564 2.560045 1.000000
266.598724 -567.903564 2.186548 1.000000
266.598724 -567.903564 1.813452 1.000000
266.598724 -567.903564 1.439955 1.000000
266.598724 -567.903564 1.065255 1.000000
266.598724 -567.903564 0.688538 1.000000
266.598724 -567.903564 0.308973 1.000000
266.989227 -567.784546 -0.000012 0.558389
268.645538 -567.279663 -0.000010 0.530449
269.865814 -566.907715 -0.000009 0.559899
266.528412 -567.841431 4.867924 1.000000
266.528412 -567.841431 4.472832 1.000000
266.528412 -567.841431 4.083287 1.000000
266.528412 -567.841431 3.698357 1.000000
266.528412 -567.841431 3.317147 1.000000
266.528412 -567.841431 2.938797 1.000000
266.528412 -567.841431 2.562472 1.000000
266.528412 -567.841431 2.187357 1.000000
266.528412 -567.841431 1.812643 1.000000
266.528412 -567.841431 1.437527 1.000000
266.528412 -567.841431 1.061203 1.000000
266.528412 -567.841431 0.682854 1.000000
266.528412 -567.841431 0.301643 1.000000
266.967133 -567.711060 -0.000012 0.548638
268.626892 -567.217773 -0.000011 0.535500
269.849762 -566.854370 -0.000009 0.586938
266.457489 -567.778809 4.880549 1.000000
266.457489 -567.778809 4.483718 1.000000
266.457520 -567.778809 4.092459 1.000000
266.457489 -567.778809 3.705834 1.000000
266.457489 -567.778809 3.322946 1.000000
266.457489 -567.778809 2.942929 1.000000
266.457489 -567.778809 2.564949 1.000000
266.457489 -567.778809 2.188182 1.000000
266.457489 -567.778809 1.811818 1.000000
266.457489 -567.778809 1.435051 1.000000
266.457489 -567.778809 1.057070 1.000000
266.457520 -567.778809 0.677055 1.000000
266.457489 -567.778809 0.294166 1.000000
266.945526 -567.637451 -0.000012 0.550973
268.608704 -567.155762 -0.000010 0.519356
269.834045 -566.800842 -0.000009 0.541604
266.385956 -567.715576 4.893429 1.000000
266.385956 -567.715576 4.494823 1.000000
266.385956 -567.715576 4.101815 1.000000
266.385956 -567.715576 3.713461 1.000000
266.385956 -567.715576 3.328860 1.000000
266.385956 -567.715576 2.947145 1.000000
266.385956 -567.715576 2.567475 1.000000
266.385956 -567.715576 2.189023 1.000000
266.385956 -567.715576 1.810977 1.000000
266.385956 -567.715576 1.432525 1.000000
266.385956 -567.715576 1.052855 1.000000
266.385956 -567.715576 0.671140 1.000000
266.385956 -567.715576 0.286539 1.000000
266.924438 -567.563660 -0.000012 0.547723
268.590942 -567.093567 -0.000010 0.556283
269.818726 -566.747253 -0.000009 0.549386
266.313751 -567.651733 4.906566 1.000000
266.313751 -567.651733 4.506150 1.000000
266.313751 -567.651733 4.111357 1.000000
266.313751 -567.651733 3.721241 1.000000
266.313751 -567.651733 3.334894 1.000000
266.313751 -567.651733 2.951446 1.000000
266.313751 -567.651733 2.570051 1.000000
266.313751 -567.651733 2.189881 1.000000
266.313751 -567.651733 1.810119 1.000000
266.313751 -567.651733 1.429949 1.000000
266.313751 -567.651733 1.048554 1.000000
266.313751 -567.651733 0.665106 1.000000
266.313751 -567.651733 0.278760 1.000000
266.903870 -567.489746 -0.000012 0.554299
268.573608 -567.031311 -0.000010 0.546868
269.803802 -566.693542 -0.000009 0.563241
266.240906 -567.587341 4.919965 1.000000
266.240906 -567.587341 4.517704 1.000000
266.240906 -567.587341 4.121091 1.000000
266.240906 -567.587341 3.729176 1.000000
266.240906 -567.587341 3.341048 1.000000
266.240906 -567.587341 2.955832 1.000000
266.240906 -567.587341 2.572679 1.000000
266.240906 -567.587341 2.190757 1.000000
266.240906 -567.587341 1.809243 1.000000
266.240906 -567.587341 1.427321 1.000000
266.240906 -567.587341 1.044168 1.000000
266.240906 -567.587341 0.658952 1.000000
266.240906 -567.587341 0.270824 1.000000
266.883789 -567.415649 -0.000012 0.557412
268.556702 -566.968933 -0.000010 0.539345
269.789215 -566.639771 -0.000009 0.540902
266.167358 -567.522339 4.933633 1.000000
266.167358 -567.522339 4.529490 1.000000
266.167358 -567.522339 4.131020 1.000000
266.167358 -567.522339 3.737269 1.000000
266.167358 -567.522339 3.347325 1.000000
266.167358 -567.522339 2.960306 1.000000
266.167358 -567.522339 2.575360 1.000000
266.167358 -567.522339 2.191650 1.000000
266.167358 -567.522339 1.808350 1.000000
266.167358 -567.522339 1.424640 1.000000
266.167358 -567.522339 1.039694 1.000000
266.167358 -567.522339 0.652675 1.000000
266.167358 -567.522339 0.262731 1.000000
266.864258 -567.341431 -0.000012 0.526268
268.540253 -566.906372 -0.000010 0.561944
269.775024 -566.585876 -0.000009 0.518135
266.093140 -567.456787 4.947574 1.000000
266.093140 -567.456787 4.541510 1.000000
266.093140 -567.456787 4.141146 1.000000
266.093140 -567.456787 3.745525 1.000000
266.093140 -567.456787 3.353727 1.000000
266.093140 -567.456787 2.964870 1.000000
266.093140 -567.456787 2.578094 1.000000
266.093140 -567.456787 2.192560 1.000000
266.093140 -567.456787 1.807440 1.000000
266.093140 -567.456787 1.421906 1.000000
266.093140 -567.456787 1.035130 1.000000
266.093140 -567.456787 0.646273 1.000000
266.093140 -567.456787 0.254475 1.000000
266.845245 -567.267090 -0.000012 0.544091
268.524200 -566.843750 -0.000010 0.548760
269.761200 -566.531860 -0.000009 0.534417
266.018188 -567.390503 4.961792 1.000000
266.018188 -567.390503 4.553769 1.000000
266.018188 -567.390503 4.151474 1.000000
266.018188 -567.390503 3.753946 1.000000
266.018188 -567.390503 3.360258 1.000000
266.018188 -567.390503 2.969524 1.000000
266.018188 -567.390503 2.580883 1.000000
266.018188 -567.390503 2.193489 1.000000
266.018188 -567.390503 1.806511 1.000000
266.018188 -567.390503 1.419117 1.000000
266.018188 -567.390503 1.030476 1.000000
266.018188 -567.390503 0.639742 1.000000
266.018188 -567.390503 0.246055 1.000000
266.826721 -567.192627 -0.000012 0.530358
268.508636 -566.781006 -0.000010 0.558572
269.747772 -566.477722 -0.000008 0.563928
265.942505 -567.323669 4.976295 1.000000
265.942505 -567.323669 4.566274 1.000000
265.942505 -567.323669 4.162009 1.000000
265.942505 -567.323669 3.762533 1.000000
265.942505 -567.323669 3.366919 1.000000
265.942505 -567.323669 2.974271 1.000000
265.942505 -567.323669 2.583727 1.000000
265.942505 -567.323669 2.194437 1.000000
265.942505 -567.323669 1.805563 1.000000
265.942505 -567.323669 1.416273 1.000000
265.942505 -567.323669 1.025728 1.000000
265.942505 -567.323669 0.633082 1.000000
265.942505 -567.323669 0.237467 1.000000
266.808746 -567.118042 -0.000012 0.491630
268.493469 -566.718140 -0.000010 0.538613
269.734711 -566.423584 -0.000009 0.534569
265.866089 -567.256104 4.991086 1.000000
265.866089 -567.256104 4.579028 1.000000
265.866089 -567.256104 4.172754 1.000000
265.866089 -567.256104 3.771293 1.000000
265.866089 -567.256104 3.373711 1.000000
265.866089 -567.256104 2.979113 1.000000
265.866089 -567.256104 2.586628 1.000000
265.866089 -567.256104 2.195403 1.000000
265.866089 -567.256104 1.804597 1.000000
265.866089 -567.256104 1.413372 1.000000
265.866089 -567.256104 1.020887 1.000000
265.866089 -567.256104 0.626289 1.000000
265.866089 -567.256104 0.228707 1.000000
266.791290 -567.043335 -0.000012 0.535103
268.478760 -566.655212 -0.000010 0.510643
269.722015 -566.369263 -0.000008 0.513268
265.788879 -567.187866 5.006173 1.000000
265.788879 -567.187866 4.592035 1.000000
265.788879 -567.187866 4.183713 1.000000
265.788879 -567.187866 3.780227 1.000000
265.788879 -567.187866 3.380640 1.000000
265.788879 -567.187866 2.984052 1.000000
265.788879 -567.187866 2.589586 1.000000
265.788879 -567.187866 2.196388 1.000000
265.788879 -567.187866 1.803612 1.000000
265.788879 -567.187866 1.410413 1.000000
265.788879 -567.187866 1.015948 1.000000
265.788879 -567.187866 0.619360 1.000000
265.788879 -567.187866 0.219773 1.000000
266.774353 -566.968506 -0.000012 0.556405
268.464508 -566.592163 -0.000010 0.531777
269.709717 -566.314941 -0.000008 0.514595
265.710907 -567.118958 5.021561 1.000000
265.710907 -567.118958 4.605303 1.000000
265.710907 -567.118958 4.194890 1.000000
265.710907 -567.118958 3.789339 1.000000
265.710907 -567.118958 3.387707 1.000000
265.710907 -567.118958 2.989089 1.000000
265.710907 -567.118958 2.592605 1.000000
265.710907 -567.118958 2.197394 1.000000
265.710907 -567.118958 1.802606 1.000000
265.710907 -567.118958 1.407395 1.000000
265.710907 -567.118958 1.010911 1.000000
265.710907 -567.118958 0.612293 1.000000
265.710907 -567.118958 0.210661 1.000000
266.757935 -566.893494 -0.000012 0.550607
268.450684 -566.528992 -0.000010 0.524117
269.697784 -566.260437 -0.000008 0.554269
265.632141 -567.049377 5.037255 1.000000
265.632141 -567.049377 4.618836 1.000000
265.632141 -567.049377 4.206292 1.000000
265.632141 -567.049377 3.798634 1.000000
265.632141 -567.049377 3.394915 1.000000
265.632141 -567.049377 2.994226 1.000000
265.632141 -567.049377 2.595683 1.000000
265.632141 -567.049377 2.198419 1.000000
265.632141 -567.049377 1.801581 1.000000
265.632141 -567.049377 1.404317 1.000000
265.632141 -567.049377 1.005774 1.000000
265.632141 -567.049377 0.605085 1.000000
265.632141 -567.049377 0.201367 1.000000
266.742035 -566.818420 -0.000012 0.532815
268.437286 -566.465759 -0.000010 0.538933
269.686249 -566.205933 -0.000009 0.575494
265.552521 -566.979004 5.053264 1.000000
265.552521 -566.979004 4.632639 1.000000
265.552521 -566.979004 4.217920 1.000000
265.552521 -566.979004 3.808114 1.000000
265.552521 -566.979004 3.402267 1.000000
265.552521 -566.979004 2.999466 1.000000
265.552521 -566.979004 2.598823 1.000000
265.552521 -566.979004 2.199465 1.000000
265.552521 -566.979004 1.800535 1.000000
265.552521 -566.979004 1.401178 1.000000
265.552521 -566.979004 1.000533 1.000000
265.552521 -566.979004 0.597733 1.000000
265.552521 -566.979004 0.191887 1.000000
266.726685 -566.743286 -0.000012 0.535882
268.424347 -566.402405 -0.000010 0.545846
269.675079 -566.151306 -0.000009 0.601267
265.472076 -566.907898 5.069592 1.000000
265.472076 -566.907898 4.646718 1.000000
265.472076 -566.907898 4.229781 1.000000
265.472076 -566.907898 3.817783 1.000000
265.472076 -566.907898 3.409766 1.000000
265.472076 -566.907898 3.004812 1.000000
265.472076 -566.907898 2.602025 1.000000
265.472076 -566.907898 2.200532 1.000000
265.472076 -566.907898 1.799469 1.000000
265.472076 -566.907898 1.397975 1.000000
265.472076 -566.907898 0.995189 1.000000
265.472076 -566.907898 0.590234 1.000000
265.472076 -566.907898 0.182217 1.000000
266.711853 -566.667969 -0.000011 0.543404
268.411835 -566.338989 -0.000010 0.485756
269.664307 -566.096619 -0.000008 0.514534
265.390747 -566.835999 5.086246 1.000000
265.390747 -566.835999 4.661078 1.000000
265.390747 -566.835999 4.241879 1.000000
265.390747 -566.835999 3.827646 1.000000
265.390747 -566.835999 3.417416 1.000000
265.390747 -566.835999 3.010263 1.000000
265.390747 -566.835999 2.605291 1.000000
265.390747 -566.835999 2.201619 1.000000
265.390747 -566.835999 1.798380 1.000000
265.390747 -566.835999 1.394709 1.000000
265.390747 -566.835999 0.989736 1.000000
265.390747 -566.835999 0.582585 1.000000
265.390747 -566.835999 0.172354 1.000000
266.697510 -566.592590 -0.000012 0.544518
268.399780 -566.275513 -0.000010 0.534493
269.653900 -566.041870 -0.000008 0.560128
265.308533 -566.763367 5.103235 1.000000
265.308533 -566.763367 4.675727 1.000000
265.308533 -566.763367 4.254220 1.000000
265.308502 -566.763367 3.837707 1.000000
265.308502 -566.763367 3.425218 1.000000
265.308533 -566.763367 3.015825 1.000000
265.308502 -566.763367 2.608623 1.000000
265.308533 -566.763367 2.202729 1.000000
265.308533 -566.763367 1.797271 1.000000
265.308533 -566.763367 1.391377 1.000000
265.308533 -566.763367 0.984175 1.000000
265.308533 -566.763367 0.574782 1.000000
265.308533 -566.763367 0.162293 1.000000
266.683746 -566.517090 -0.000011 0.509422
268.388153 -566.211914 -0.000010 0.551110
269.643890 -565.987000 -0.000008 0.523552
265.225372 -566.689880 5.120565 1.000000
265.225372 -566.689880 4.690669 1.000000
265.225372 -566.689880 4.266809 1.000000
265.225372 -566.689880 3.847969 1.000000
265.225372 -566.689880 3.433177 1.000000
265.225372 -566.689880 3.021497 1.000000
265.225372 -566.689880 2.612022 1.000000
265.225372 -566.689880 2.203862 1.000000
265.225372 -566.689880 1.796139 1.000000
265.225372 -566.689880 1.387978 1.000000
265.225372 -566.689880 0.978503 1.000000
265.225372 -566.689880 0.566823 1.000000
265.225372 -566.689880 0.152031 1.000000
266.670471 -566.441528 -0.000011 0.536568
268.376984 -566.148193 -0.000009 0.580087
269.634247 -565.932129 -0.000008 0.519402
265.141327 -566.615601 5.138244 1.000000
265.141327 -566.615601 4.705912 1.000000
265.141327 -566.615601 4.279650 1.000000
265.141327 -566.615601 3.858438 1.000000
265.141327 -566.615601 3.441296 1.000000
265.141327 -566.615601 3.027284 1.000000
265.141327 -566.615601 2.615489 1.000000
265.141327 -566.615601 2.205017 1.000000
265.141327 -566.615601 1.794983 1.000000
265.141327 -566.615601 1.384511 1.000000
265.141327 -566.615601 0.972716 1.000000
265.141327 -566.615601 0.558704 1.000000
265.141327 -566.615601 0.141562 1.000000
266.657745 -566.365845 -0.000011 0.547692
268.366241 -566.084473 -0.000010 0.566125
269.625000 -565.877136 -0.000008 0.574823
265.056274 -566.540466 5.156278 1.000000
265.056274 -566.540466 4.721461 1.000000
265.056274 -566.540466 4.292750 1.000000
265.056274 -566.540466 3.869118 1.000000
265.056274 -566.540405 3.449579 1.000000
265.056274 -566.540466 3.033187 1.000000
265.056274 -566.540466 2.619026 1.000000
265.056274 -566.540466 2.206195 1.000000
265.056274 -566.540466 1.793805 1.000000
265.056274 -566.540466 1.380974 1.000000
265.056274 -566.540466 0.966812 1.000000
265.056274 -566.540466 0.550422 1.000000
265.056274 -566.540466 0.130883 1.000000
266.645538 -566.290100 -0.000011 0.555032
268.355957 -566.020630 -0.000010 0.581628
269.616150 -565.822144 -0.000008 0.511345
264.970276 -566.464417 5.174677 1.000000
264.970276 -566.464417 4.737326 1.000000
264.970276 -566.464417 4.306116 1.000000
264.970276 -566.464417 3.880013 1.000000
264.970276 -566.464417 3.458029 1.000000
264.970276 -566.464417 3.039210 1.000000
264.970276 -566.464417 2.622635 1.000000
264.970276 -566.464417 2.207397 1.000000
264.970276 -566.464417 1.792603 1.000000
264.970276 -566.464417 1.377365 1.000000
264.970276 -566.464417 0.960789 1.000000
264.970276 -566.464417 0.541972 1.000000
264.970276 -566.464417 0.119987 1.000000
266.633850 -566.214233 -0.000011 0.546883
268.346130 -565.956726 -0.000009 0.535409
269.607666 -565.767029 -0.000008 0.494392
264.883240 -566.387512 5.193448 1.000000
264.883240 -566.387512 4.753510 1.000000
264.883240 -566.387512 4.319752 1.000000
264.883240 -566.387512 3.891129 1.000000
264.883240 -566.387512 3.466649 1.000000
264.883240 -566.387512 3.045355 1.000000
264.883240 -566.387512 2.626316 1.000000
264.883240 -566.387512 2.208623 1.000000
264.883240 -566.387512 1.791377 1.000000
264.883240 -566.387512 1.373684 1.000000
264.883240 -566.387512 0.954645 1.000000
264.883240 -566.387512 0.533351 1.000000
264.883240 -566.387512 0.108871 1.000000
266.622711 -566.138306 -0.000011 0.526528
268.336731 -565.892761 -0.000010 0.549493
269.599548 -565.711853 -0.000008 0.556680
264.795166 -566.309692 5.212598 1.000000
264.795166 -566.309692 4.770024 1.000000
264.795166 -566.309692 4.333663 1.000000
264.795166 -566.309692 3.902471 1.000000
264.795166 -566.309692 3.475445 1.000000
264.795166 -566.309692 3.051623 1.000000
264.795166 -566.309692 2.630072 1.000000
264.795166 -566.309692 2.209874 1.000000
264.795166 -566.309692 1.790126 1.000000
264.795166 -566.309692 1.369928 1.000000
264.795166 -566.309692 0.948376 1.000000
264.795166 -566.309692 0.524555 1.000000
264.795166 -566.309692 0.097529 1.000000
266.612091 -566.062317 -0.000011 0.659785
268.327789 -565.828735 -0.000009 0.516411
269.591858 -565.656677 -0.000008 0.483589
264.706024 -566.230896 5.232140 1.000000
264.706024 -566.230896 4.786872 1.000000
264.706024 -566.230896 4.347858 1.000000
264.706024 -566.230896 3.914042 1.000000
264.706024 -566.230896 3.484420 1.000000
264.706024 -566.230896 3.058020 1.000000
264.706024 -566.230896 2.633904 1.000000
264.706024 -566.230896 2.211151 1.000000
264.706024 -566.230896 1.788849 1.000000
264.706024 -566.230896 1.366095 1.000000
264.706024 -566.230896 0.941979 1.000000
264.706024 -566.230896 0.515580 1.000000
264.706024 -566.230896 0.085958 1.000000
266.602020 -565.986267 -0.000011 0.554406
268.319305 -565.764648 -0.000009 0.559472
269.584534 -565.601440 -0.000008 0.556115
264.615784 -566.151123 5.252080 1.000000
264.615784 -566.151123 4.804066 1.000000
264.615784 -566.151123 4.362342 1.000000
264.615784 -566.151123 3.925851 1.000000
264.615784 -566.151123 3.493577 1.000000
264.615784 -566.151123 3.064548 1.000000
264.615784 -566.151123 2.637815 1.000000
264.615784 -566.151123 2.212453 1.000000
264.615784 -566.151123 1.787547 1.000000
264.615784 -566.151123 1.362185 1.000000
264.615784 -566.151123 0.935452 1.000000
264.615784 -566.151123 0.506422 1.000000
264.615784 -566.151123 0.074150 1.000000
266.592468 -565.910095 -0.000011 0.524407
268.311249 -565.700500 -0.000009 0.529854
269.577576 -565.546082 -0.000008 0.517403
264.524414 -566.070374 5.272428 1.000000
264.524414 -566.070374 4.821611 1.000000
264.524414 -566.070374 4.377123 1.000000
264.524414 -566.070374 3.937901 1.000000
264.524414 -566.070374 3.502923 1.000000
264.524414 -566.070374 3.071208 1.000000
264.524414 -566.070374 2.641806 1.000000
264.524414 -566.070374 2.213782 1.000000
264.524414 -566.070374 1.786217 1.000000
264.524414 -566.070374 1.358194 1.000000
264.524414 -566.070374 0.928791 1.000000
264.524414 -566.070374 0.497077 1.000000
264.524414 -566.070374 0.062099 1.000000
266.583435 -565.833923 -0.000011 0.532586
268.303650 -565.636292 -0.000009 0.516884
269.571045 -565.490723 -0.000007 0.504692
264.431915 -565.988647 5.293193 1.000000
264.431915 -565.988647 4.839516 1.000000
264.431915 -565.988647 4.392208 1.000000
264.431915 -565.988647 3.950198 1.000000
264.431915 -565.988647 3.512460 1.000000
264.431915 -565.988647 3.078006 1.000000
264.431915 -565.988647 2.645879 1.000000
264.431915 -565.988647 2.215139 1.000000
264.431915 -565.988647 1.784861 1.000000
264.431915 -565.988647 1.354121 1.000000
264.431915 -565.988647 0.921994 1.000000
264.431915 -565.988647 0.487540 1.000000
264.431915 -565.988647 0.049803 1.000000
266.574951 -565.757629 -0.000011 0.536385
268.296509 -565.572083 -0.000009 0.644938
269.564850 -565.435364 -0.000008 0.508858
264.338196 -565.905823 5.314387 1.000000
264.338196 -565.905823 4.857789 1.000000
264.338196 -565.905823 4.407603 1.000000
264.338196 -565.905823 3.962749 1.000000
264.338196 -565.905823 3.522193 1.000000
264.338196 -565.905823 3.084944 1.000000
264.338196 -565.905823 2.650035 1.000000
264.338196 -565.905823 2.216524 1.000000
264.338196 -565.905823 1.783476 1.000000
264.338196 -565.905823 1.349965 1.000000
264.338196 -565.905823 0.915056 1.000000
264.338196 -565.905823 0.477807 1.000000
264.338196 -565.905823 0.037252 1.000000
266.566986 -565.681335 -0.000010 0.550683
268.289795 -565.507751 -0.000009 0.542229
269.559082 -565.379883 -0.000007 0.597604
264.243286 -565.821960 5.336019 1.000000
264.243286 -565.821960 4.876442 1.000000
264.243286 -565.821960 4.423317 1.000000
264.243286 -565.821960 3.975559 1.000000
264.243286 -565.821960 3.532128 1.000000
264.243286 -565.821960 3.092025 1.000000
264.243286 -565.821960 2.654278 1.000000
264.243286 -565.821960 2.217937 1.000000
264.243286 -565.821960 1.782063 1.000000
264.243286 -565.821960 1.345722 1.000000
264.243286 -565.821960 0.907975 1.000000
264.243286 -565.821960 0.467872 1.000000
264.243286 -565.821960 0.024442 1.000000
266.559570 -565.604919 -0.000011 0.515221
268.283539 -565.443420 -0.000009 0.502892
269.553680 -565.324402 -0.000008 0.490059
264.147125 -565.736938 5.358099 1.000000
264.147125 -565.736938 4.895480 1.000000
264.147125 -565.736938 4.439355 1.000000
264.147125 -565.736938 3.988634 1.000000
264.147125 -565.736938 3.542268 1.000000
264.147125 -565.736938 3.099252 1.000000
264.147125 -565.736938 2.658608 1.000000
264.147125 -565.736938 2.219379 1.000000
264.147125 -565.736938 1.780621 1.000000
264.147125 -565.736938 1.341391 1.000000
264.147125 -565.736938 0.900747 1.000000
264.147125 -565.736938 0.457732 1.000000
264.147125 -565.736938 0.011366 1.000000
266.552673 -565.528503 -0.000010 0.544594
268.277740 -565.379028 -0.000009 0.568322
269.548676 -565.268921 -0.000007 0.576715
264.049652 -565.650818 5.380640 1.000000
264.049652 -565.650818 4.914915 1.000000
264.049652 -565.650818 4.455729 1.000000
264.049652 -565.650818 4.001983 1.000000
264.049652 -565.650818 3.552620 1.000000
264.049652 -565.650818 3.106631 1.000000
264.049652 -565.650818 2.663029 1.000000
264.049652 -565.650818 2.220852 1.000000
264.049652 -565.650818 1.779148 1.000000
264.049652 -565.650818 1.336971 1.000000
264.049652 -565.650818 0.893368 1.000000
264.049652 -565.650818 0.447379 1.000000
264.049652 -565.650818 -0.001982 1.000000
266.546326 -565.452026 -0.000010 0.571878
268.272369 -565.314636 -0.000009 0.544549
269.544067 -565.213379 -0.000008 0.529992
263.950867 -565.563538 5.403652 1.000000
263.950867 -565.563538 4.934758 1.000000
263.950867 -565.563538 4.472446 1.000000
263.950867 -565.563538 4.015611 1.000000
263.950867 -565.563538 3.563190 1.000000
263.950867 -565.563538 3.114164 1.000000
263.950867 -565.563538 2.667542 1.000000
263.950867 -565.563538 2.222355 1.000000
263.950867 -565.563538 1.777645 1.000000
263.950867 -565.563538 1.332457 1.000000
263.950867 -565.563538 0.885835 1.000000
263.950867 -565.563538 0.436810 1.000000
264.055756 -565.555908 -0.000013 0.576745
266.540497 -565.375549 -0.000010 0.507607
268.267487 -565.250122 -0.000009 0.536477
269.539825 -565.157776 -0.000007 0.529412
263.850739 -565.475037 5.427148 1.000000
263.850739 -565.475037 4.955016 1.000000
263.850739 -565.475037 4.489514 1.000000
