# This PCD file was generated using the MATLABÂ® pcwrite function
# from Computer Vision ToolboxÂ®.
# .PCD v.7 - Point Cloud Data file format
VERSION .7
FIELDS x y z intensity
SIZE 4 4 4 4
TYPE F F F F
COUNT 1 1 1 1
WIDTH 1339
HEIGHT 1
VIEWPOINT 0 0 0 1 0 0 0
POINTS 1339
DATA ascii
nan nan nan 0.000000
85.484146 194.671890 3.429853 0.324407
85.472534 194.770874 2.861580 0.962341
85.473633 194.761551 2.286835 0.266346
84.994949 198.841217 1.645948 0.258824
84.990791 198.876617 0.935332 0.609461
84.982841 198.944366 0.217420 0.572442
85.490341 194.619141 0.000003 0.296620
85.945084 190.743515 0.000000 0.323293
86.235397 188.269257 -0.000001 0.311223
86.437180 186.549545 -0.000004 0.252766
86.585838 185.282532 -0.000003 0.255940
nan nan nan 0.000000
nan nan nan 0.000000
85.453255 196.062866 5.425104 0.258824
85.581337 194.901260 4.618892 0.231861
83.808624 210.978500 5.891807 0.258824
85.654884 194.234222 3.392613 0.494118
85.608696 194.653137 2.855078 0.202365
85.654984 194.233383 2.277912 0.209339
85.114441 199.135712 1.641381 0.241077
85.121765 199.069260 0.926657 0.255344
84.843040 201.597076 0.000007 0.284352
85.610931 194.632874 0.000003 0.323720
86.038605 190.754166 0.000000 0.297505
86.311638 188.277924 -0.000001 0.235935
86.501411 186.556854 -0.000003 0.321401
86.641228 185.288834 -0.000003 0.235706
85.831879 193.674225 6.110098 0.235294
nan nan nan 0.000000
nan nan nan 0.000000
85.741257 194.552368 4.564913 0.305028
85.748932 194.477966 3.980593 0.292958
85.750000 194.467651 3.410817 0.268879
85.711884 194.836975 2.863520 0.243717
85.760147 194.369308 2.279941 0.356283
85.295876 198.868011 1.646052 0.244846
84.510323 206.479874 0.561462 0.202152
85.012367 201.615158 0.000007 0.298283
85.731613 194.645752 0.000003 0.299626
86.132202 190.764145 0.000000 0.311681
86.387939 188.286072 -0.000001 0.281514
86.565689 186.563721 -0.000003 0.288884
86.696648 185.294754 -0.000003 0.271412
85.935516 193.793213 6.137182 0.256657
85.919289 193.962021 5.603859 0.290196
85.879570 194.375122 5.111661 0.245716
85.334610 200.042877 5.381325 0.777234
84.123016 212.643890 6.078673 0.258824
85.388161 199.485886 3.823205 0.196353
85.414604 199.210907 3.078788 0.231067
85.886940 194.298416 2.278580 0.290135
85.833344 194.855865 1.712255 0.572702
85.836624 194.821716 1.137833 0.560555
85.840714 194.779175 0.564502 0.565377
85.852386 194.657776 0.000003 0.288685
86.225868 190.773483 0.000000 0.276081
86.464302 188.293686 -0.000001 0.279042
86.630020 186.570129 -0.000003 0.335012
86.752121 185.300278 -0.000003 0.243259
86.056122 193.738922 6.120856 0.374655
86.019264 194.152512 5.642836 0.203891
85.988419 194.498657 5.132214 0.267765
85.492332 200.065842 5.382559 0.416266
85.981758 194.573456 3.988963 0.237034
84.916321 206.529999 4.401899 0.290196
85.594185 198.922806 3.063880 0.218509
85.957779 194.842560 2.287340 0.517647
85.962929 194.784760 1.713609 0.561013
85.963631 194.776886 1.140602 0.568063
85.966141 194.748703 0.567938 0.538842
85.969727 194.708420 -0.004552 0.546807
86.319595 190.782166 0.000000 0.268208
86.540710 188.300766 -0.000001 0.326909
86.694397 186.576080 -0.000002 0.269764
86.807625 185.305420 -0.000003 0.306035
nan nan nan 0.000000
86.128914 194.256027 5.663094 0.553033
85.649513 200.096924 6.152409 0.262669
85.650177 200.088852 5.383964 0.419165
86.064606 195.039581 4.041580 0.210163
nan nan nan 0.000000
86.078003 194.876328 2.863787 0.572106
86.080162 194.850052 2.287292 0.541741
86.073936 194.925903 1.711463 0.552316
86.077026 194.888214 1.135627 0.526757
86.082336 194.823547 0.562637 0.590326
86.094170 194.679337 0.000003 0.275425
86.413376 190.790192 0.000000 0.272129
86.617165 188.307297 -0.000001 0.258656
86.758804 186.581604 -0.000002 0.304417
86.863159 185.310181 -0.000003 0.278553
86.170036 195.290146 6.505788 0.256123
86.250343 194.220154 5.653316 0.253178
86.197144 194.929031 5.207156 0.255161
nan nan nan 0.000000
nan nan nan 0.000000
86.197838 194.919800 3.444489 0.580392
86.196831 194.933182 2.866114 0.564614
86.243248 194.314713 2.278349 0.309804
85.010384 210.741425 1.452089 0.258824
84.469452 217.948837 0.000020 0.295338
85.690796 201.675598 0.000008 0.281804
86.215172 194.688843 0.000003 0.284810
86.507217 190.797562 0.000001 0.255390
86.693665 188.313309 -0.000001 0.296178
86.823257 186.586670 -0.000002 0.312230
86.918732 185.314545 -0.000003 0.311269
86.324585 194.868668 6.397721 0.285420
86.255180 195.888748 6.012706 0.258824
86.406174 193.669403 4.975829 0.264790
86.317039 194.979523 4.620769 0.555154
86.320190 194.933243 4.027179 0.556878
nan nan nan 0.000000
85.959534 200.234268 3.126709 0.123919
86.266602 195.720886 2.301274 0.570626
86.299988 195.230225 1.706774 0.235050
85.099770 212.871246 0.251040 0.258824
85.860649 201.687759 0.000008 0.288304
86.336227 194.697495 0.000003 0.290044
86.601105 190.804291 0.000000 0.306127
86.770210 188.318787 -0.000001 0.287190
86.887741 186.591278 -0.000002 0.293217
86.974335 185.318527 -0.000004 0.278691
86.446045 194.890533 6.401227 0.241703
86.446106 194.889603 5.794703 0.536980
86.442772 194.944244 5.206884 0.608011
86.442169 194.954071 4.615808 0.549020
86.124939 200.152496 4.627811 0.666865
86.399750 195.649170 3.503033 0.208667
86.117653 200.271881 3.128052 0.721569
85.736221 206.522278 2.478220 0.290196
85.417213 211.749756 1.436079 0.258824
85.336617 213.070496 0.242022 0.258824
86.030579 201.698715 0.000009 0.286091
86.457352 194.705307 0.000003 0.281804
86.695038 190.810349 0.000001 0.281941
86.846786 188.323730 -0.000001 0.294728
86.952255 186.595444 -0.000002 0.319509
87.029961 185.322113 -0.000003 0.310628
86.601738 194.282532 6.246938 0.321569
86.473511 196.656128 6.175267 0.192157
86.636360 193.641525 4.968214 0.215518
86.009277 205.249863 6.144220 0.340429
86.514633 195.894913 4.136247 0.453239
86.512154 195.940781 3.526376 0.247700
86.276154 200.309586 3.129454 0.290196
nan nan nan 0.000000
85.661568 211.686493 1.437342 0.258824
85.575912 213.272018 0.232813 0.258824
86.200584 201.708481 0.000009 0.281575
86.578522 194.712280 0.000004 0.268940
86.789009 190.815750 0.000001 0.291035
86.923393 188.328140 -0.000001 0.317006
87.016792 186.599152 -0.000002 0.309148
87.085609 185.325317 -0.000003 0.321279
86.729149 194.092941 6.197902 0.235126
86.694542 194.828873 5.778710 0.266117
86.679573 195.147141 5.241426 0.554467
nan nan nan 0.000000
86.647041 195.839081 4.129062 0.264836
86.437881 200.287277 3.882623 0.301854
86.698303 194.748917 2.855576 0.221256
86.665512 195.446259 2.296412 0.504997
85.886978 212.003387 1.432349 0.258824
85.604156 218.018051 0.000021 0.299031
86.370651 201.717072 0.000009 0.289738
86.699738 194.718399 0.000004 0.289921
86.883018 190.820496 0.000001 0.317449
87.000031 188.332001 -0.000001 0.264851
87.081360 186.602417 -0.000002 0.278889
87.141281 185.328125 -0.000003 0.275074
86.846451 194.087616 6.195292 0.223529
86.808159 195.044342 5.824137 0.407477
86.797928 195.299927 5.268263 0.218692
86.600708 200.227081 5.395842 0.259983
86.760666 196.230865 4.173523 0.215686
86.769569 196.008301 3.530915 0.257969
86.832703 194.431198 2.839696 0.261280
nan nan nan 0.000000
nan nan nan 0.000000
85.888100 218.030426 0.000021 0.293111
86.540771 201.724472 0.000009 0.287404
86.820992 194.723679 0.000004 0.294377
86.977058 190.824585 0.000001 0.270207
87.076698 188.335342 -0.000001 0.360616
87.145950 186.605225 -0.000002 0.291432
87.196968 185.330551 -0.000003 0.266407
86.914993 195.554138 6.561766 0.899504
86.931068 195.067612 5.828189 0.546517
86.922363 195.331161 5.273116 0.219760
86.958046 194.251038 4.508031 0.279652
nan nan nan 0.000000
86.936165 194.913208 3.440683 0.255970
86.588661 205.432343 3.380227 0.311696
87.177544 187.606796 2.167892 0.258824
nan nan nan 0.000000
86.172127 218.040802 0.000021 0.287755
86.710945 201.730698 0.000009 0.280583
86.942284 194.728119 0.000004 0.298222
87.071129 190.828018 0.000001 0.320180
87.153381 188.338150 -0.000000 0.261540
87.210556 186.607590 -0.000002 0.283452
87.252670 185.332581 -0.000003 0.333013
87.073296 194.359360 6.261448 0.246830
87.053772 195.109146 5.836373 0.276005
86.918991 200.283295 6.173818 0.222721
87.073769 194.341217 4.520896 0.405371
87.048332 195.317947 4.067463 0.248661
87.035698 195.802795 3.513352 0.156985
86.783653 205.478745 3.382223 0.302663
87.248619 187.628967 2.168221 0.258824
87.248779 187.622803 1.831880 0.258824
86.456215 218.049164 0.000021 0.295338
86.881157 201.735733 0.000009 0.292195
87.063599 194.731689 0.000004 0.288121
87.165215 190.830795 0.000001 0.264424
87.230087 188.340408 -0.000000 0.310262
87.275169 186.609497 -0.000002 0.371847
87.308388 185.334229 -0.000003 0.336217
nan nan nan 0.000000
87.170975 195.466949 5.913061 0.242145
87.166649 195.693863 5.337934 0.999451
87.190704 194.432190 4.533996 0.194125
87.188026 194.572479 3.981362 0.256809
87.194847 194.214661 3.382871 0.226322
nan nan nan 0.000000
nan nan nan 0.000000
nan nan nan 0.000000
86.740356 218.055573 0.000021 0.284382
87.051399 201.739563 0.000009 0.293400
87.184944 194.734436 0.000004 0.288350
87.259315 190.832916 0.000001 0.298299
87.306801 188.342148 -0.000000 0.319600
87.339806 186.610947 -0.000002 0.310887
87.364120 185.335495 -0.000003 0.337316
nan nan nan 0.000000
87.314613 194.047729 5.606093 0.258473
nan nan nan 0.000000
87.308861 194.523972 4.547337 0.247669
87.307182 194.662704 3.991528 0.247059
87.313583 194.132813 3.376009 0.300313
nan nan nan 0.000000
87.391617 187.673615 2.168906 0.255787
87.389343 187.862198 1.828007 0.258824
87.024529 218.059998 0.000022 0.296178
87.221664 201.742218 0.000010 0.281407
87.306297 194.736313 0.000004 0.296040
87.353432 190.834396 0.000002 0.320394
87.383530 188.343338 -0.000000 0.295979
87.404442 186.611954 -0.000001 0.318303
87.419853 185.336349 -0.000003 0.318868
87.426193 195.025070 6.426811 0.278431
87.398979 200.362915 6.969841 0.509743
87.426048 195.054169 5.220973 0.257755
87.429733 194.331192 4.518588 0.258824
87.398514 200.454086 4.657660 0.167895
87.398201 200.515274 3.899266 0.330816
nan nan nan 0.000000
87.463562 187.696075 2.169264 0.258824
87.462601 187.885437 1.827637 0.258824
87.308731 218.062424 0.000022 0.293721
87.391937 201.743668 0.000010 0.289952
87.427666 194.737366 0.000005 0.286015
87.447556 190.835205 0.000001 0.335256
87.460258 188.343994 -0.000000 0.271809
87.469086 186.612518 -0.000001 0.298848
87.475594 185.336838 -0.000003 0.236347
87.549728 195.107574 6.447426 0.258824
87.548531 194.472626 5.697602 0.250843
87.549629 195.055634 5.221205 0.246403
87.547661 194.009750 4.470878 0.260548
87.569328 205.517227 5.240098 0.306523
87.548225 194.310181 3.390455 0.192157
87.569603 205.666504 3.390981 0.941268
87.569748 205.740753 2.464544 0.409033
87.536179 187.909790 1.827241 0.286412
87.592941 218.062881 0.000022 0.295171
87.562218 201.743942 0.000010 0.297810
87.549034 194.737549 0.000004 0.287755
87.541687 190.835342 0.000002 0.333852
87.536995 188.344116 -0.000000 0.343816
87.533737 186.612610 -0.000001 0.324208
87.531334 185.336929 -0.000003 0.313710
nan nan nan 0.000000
87.766060 205.528854 8.085753 0.272831
87.673248 195.058136 5.221780 0.345266
87.664940 194.120392 4.487383 0.239567
87.721764 200.531311 4.666615 0.514992
87.722313 200.592804 3.905673 0.428519
nan nan nan 0.000000
nan nan nan 0.000000
87.610092 187.933044 1.826854 0.258824
87.606506 187.528534 1.500063 0.258824
87.732506 201.743027 0.000010 0.295781
87.670403 194.736908 0.000005 0.288075
87.635811 190.834839 0.000002 0.272602
87.613731 188.343704 -0.000000 0.268956
87.598381 186.612274 -0.000001 0.309865
87.587074 185.336624 -0.000003 0.383688
87.889572 200.907623 7.900997 0.252018
87.785858 194.362717 5.674319 0.172549
87.793816 194.864822 5.186878 0.245396
87.783791 194.232285 4.504198 1.000000
87.895760 201.298370 4.755099 0.262592
87.885193 200.631439 3.909005 0.653941
87.966476 205.760880 3.395790 0.192157
nan nan nan 0.000000
87.684341 187.956406 1.826457 0.258824
87.678833 187.608704 1.496081 0.258824
87.902779 201.740921 0.000010 0.300465
87.791763 194.735397 0.000005 0.295842
87.729935 190.833679 0.000002 0.316121
87.690460 188.342758 -0.000000 0.303853
87.663025 186.611465 -0.000002 0.318914
87.642815 185.335938 -0.000003 0.252537
88.041283 200.347000 7.761329 0.249592
87.909897 194.592087 5.724368 0.230304
87.920631 195.062347 5.223259 0.254810
87.899956 194.156952 4.493358 0.451011
88.162521 205.657532 5.257083 0.278614
88.048660 200.670197 3.912442 0.552758
88.050072 200.732162 3.148870 0.192157
88.167679 205.883377 2.466999 0.215503
87.758934 187.979874 1.826049 0.258824
87.763130 188.163803 1.468735 0.258824
88.073029 201.737625 0.000010 0.298421
87.913109 194.733063 0.000005 0.286763
87.824043 190.831863 0.000002 0.264652
87.767181 188.341278 -0.000000 0.307042
87.727661 186.610214 -0.000001 0.268727
87.698547 185.334854 -0.000003 0.303227
nan nan nan 0.000000
88.033684 194.704544 5.749353 0.278126
88.189278 199.922821 6.108638 0.258824
88.063553 195.706360 4.723752 0.506310
88.196976 200.181198 4.627401 0.297139
87.853058 188.646683 2.926484 0.258824
88.214577 200.771271 3.151002 0.189090
87.803909 186.998245 2.157912 0.258824
87.833778 188.000153 1.825685 0.258824
87.827003 187.772705 1.487859 0.309850
88.243256 201.733154 0.000010 0.296818
88.034439 194.729858 0.000005 0.289250
87.918137 190.829376 0.000002 0.343496
87.843895 188.339249 -0.000000 0.309789
87.792290 186.608521 -0.000001 0.324788
87.754265 185.333389 -0.000003 0.302266
88.324158 199.301605 7.501694 0.238758
88.325867 199.348129 6.753822 0.348074
nan nan nan 0.000000
88.131950 194.079285 4.482868 0.265324
88.337364 199.660355 4.568053 0.265263
87.931946 188.645386 2.926592 0.258824
88.379692 200.810516 3.153200 0.326955
87.872177 187.021332 2.158328 0.258824
nan nan nan 0.000000
89.013672 218.035400 0.000023 0.299321
88.413445 201.727463 0.000011 0.310903
88.155746 194.725815 0.000005 0.285710
88.012215 190.826248 0.000002 0.281132
87.920586 188.336700 0.000000 0.324605
87.856903 186.606369 -0.000001 0.339117
87.809982 185.331543 -0.000003 0.327276
88.456261 198.813400 7.380836 0.229603
nan nan nan 0.000000
88.460991 198.921463 5.928372 0.284199
88.325203 195.821243 4.742208 0.292882
88.708855 204.580643 5.135350 0.480995
88.010857 188.644073 2.926746 0.269978
88.545456 200.849915 3.155462 0.651896
88.772224 206.027542 2.469686 0.297841
nan nan nan 0.000000
89.297653 218.023941 0.000024 0.293523
88.583588 201.720612 0.000011 0.296345
88.277016 194.720932 0.000005 0.310918
88.106270 190.822449 0.000002 0.264515
87.997261 188.333603 0.000000 0.260334
87.921494 186.603760 -0.000001 0.274830
87.865677 185.329285 -0.000003 0.315038
nan nan nan 0.000000
nan nan nan 0.000000
nan nan nan 0.000000
88.713615 200.923676 5.500965 0.290196
88.974449 206.058670 5.306639 0.610178
88.744881 201.539276 3.985761 0.194415
88.088348 188.614182 2.553965 0.258824
88.012115 187.113434 2.159933 0.324651
88.019997 187.268524 1.837525 0.258824
89.581543 218.010498 0.000024 0.295018
88.753685 201.712570 0.000011 0.299535
88.398254 194.715195 0.000005 0.268162
88.200294 190.818008 0.000002 0.295201
88.073914 188.329987 0.000000 0.364416
87.986069 186.600708 -0.000001 0.257008
87.921356 185.326660 -0.000003 0.338735
88.971535 202.530624 8.317322 0.261982
nan nan nan 0.000000
nan nan nan 0.000000
nan nan nan 0.000000
88.152290 188.356171 3.267987 0.258824
88.172714 188.709564 2.932781 0.227481
88.167038 188.611343 2.554035 0.289097
88.202888 189.231720 2.194715 0.258824
88.094025 187.348175 1.836158 0.247059
88.201073 189.200256 1.416985 0.258824
88.923714 201.703323 0.000011 0.311238
88.519440 194.708618 0.000005 0.285008
88.294281 190.812897 0.000002 0.325154
88.150536 188.325821 0.000000 0.254643
88.050621 186.597198 -0.000001 0.256519
87.977013 185.323639 -0.000003 0.284031
89.141884 202.436630 8.296432 0.301015
89.476433 207.599091 8.546345 0.223529
nan nan nan 0.000000
nan nan nan 0.000000
88.228996 188.349976 3.267815 0.258824
88.248375 188.649033 2.928207 0.225422
88.224800 188.285172 2.538215 0.258824
nan nan nan 0.000000
88.171196 187.458130 1.834285 0.258824
90.149017 217.977692 0.000024 0.283467
88.233269 188.415894 1.090949 0.258824
88.640587 194.701187 0.000005 0.279133
88.388229 190.807144 0.000002 0.318227
88.227127 188.321136 0.000000 0.319158
88.115150 186.593246 -0.000001 0.287449
88.032654 185.320221 -0.000003 0.312016
89.311111 202.343277 8.275991 0.271687
89.290482 202.056000 7.349193 0.316640
nan nan nan 0.000000
nan nan nan 0.000000
88.310265 188.407562 3.275062 0.258824
88.326752 188.637115 2.927670 0.258824
88.295975 188.208511 2.534696 0.258824
89.219849 201.072479 2.389152 0.406867
88.225883 187.232620 1.837906 0.287343
88.275055 187.917252 1.479649 0.258824
88.312004 188.431717 1.089214 0.258824
88.761673 194.692917 0.000005 0.298665
88.482140 190.800735 0.000002 0.260426
88.303680 188.315903 0.000000 0.314305
88.179649 186.588837 -0.000001 0.297932
88.088264 185.316422 -0.000004 0.330022
89.494934 202.449341 8.305944 0.242100
nan nan nan 0.000000
89.814804 206.506485 7.321212 0.246693
nan nan nan 0.000000
nan nan nan 0.000000
88.408043 188.663208 2.930304 0.258824
88.357201 188.018402 2.525609 0.258824
89.371750 200.886826 2.386309 0.321569
88.366318 188.134033 1.823024 0.258824
88.381058 188.320969 1.459480 0.474113
88.430168 188.943893 1.046609 0.258824
88.882706 194.683792 0.000006 0.277928
88.576004 190.793655 0.000002 0.259815
88.380203 188.310135 0.000000 0.293370
88.244118 186.583984 -0.000001 0.344259
88.143852 185.312241 -0.000003 0.273030
nan nan nan 0.000000
89.573174 201.306168 7.192539 0.216114
90.024887 206.566727 7.335274 0.289616
89.558815 201.138931 5.541371 0.321569
89.629982 201.967789 4.842185 0.207965
88.469391 188.451828 2.913444 0.258824
89.587273 201.470398 3.189198 0.241199
88.435387 188.055832 2.175793 0.264027
88.575256 189.684723 1.797454 0.258824
90.000130 206.278412 0.573730 0.503410
88.426323 187.950256 1.127833 0.258824
89.003662 194.673828 0.000005 0.285145
88.669815 190.785934 0.000002 0.310475
88.456680 188.303833 0.000000 0.236103
88.308548 186.578674 -0.000001 0.268559
88.199402 185.307663 -0.000002 0.302693
nan nan nan 0.000000
89.732895 201.210999 7.175137 0.248219
89.611694 199.906433 6.121505 0.235294
90.109543 205.265076 6.158273 0.379446
88.550514 188.484283 3.286127 0.258824
88.537613 188.345428 2.905252 0.258824
90.753433 212.195663 3.719106 0.251652
88.505852 188.003571 2.175044 0.266667
88.497169 187.910126 1.826492 0.258824
89.723999 201.115204 0.827584 0.549630
88.499084 187.930740 1.128896 0.272328
89.124550 194.663025 0.000006 0.304479
88.763573 190.777557 0.000003 0.291524
88.533112 188.296997 0.000000 0.327459
88.372932 186.572922 -0.000001 0.294453
88.254921 185.302704 -0.000002 0.249866
90.020935 202.410843 8.308068 0.265263
89.891533 201.116211 7.158048 0.473762
89.789879 200.099182 6.159527 0.776440
88.647621 188.671082 3.687323 0.258824
88.623466 188.429443 3.280653 0.258824
90.367157 205.874680 4.350340 0.283497
89.897240 201.173279 3.176071 0.579049
88.575722 187.951721 2.174309 0.258824
88.579979 187.994354 1.824989 0.258824
88.606728 188.261978 1.461380 0.258793
89.888596 201.086761 0.044202 0.542855
89.245361 194.651367 0.000006 0.311818
88.857262 190.768524 0.000003 0.260655
88.609497 188.289642 0.000000 0.305257
88.437286 186.566711 -0.000001 0.263355
88.310410 185.297348 -0.000002 0.240879
90.175041 202.198639 8.259169 0.276905
90.115410 201.641357 7.275844 0.258824
89.942261 200.023254 6.148636 0.203174
88.734207 188.733871 3.697908 0.258824
88.695824 188.375183 3.275299 0.258824
90.077927 201.291077 3.974059 0.544884
90.065086 201.171097 3.176814 0.241016
88.645004 187.900314 2.173589 0.258824
88.685463 188.278397 1.820188 0.198169
88.608192 187.556274 1.495858 0.258824
88.665009 188.087265 1.114773 0.313451
89.366089 194.638885 0.000007 0.295949
88.950890 190.758835 0.000002 0.289235
88.685822 188.281738 0.000001 0.311009
88.501587 186.560059 -0.000001 0.323079
88.365852 185.291611 -0.000002 0.271473
90.195251 200.836609 7.920620 0.227359
90.254272 201.354004 7.217452 0.611765
90.242828 201.253693 6.377177 0.535180
88.795570 188.566772 3.674273 0.258824
88.767570 188.321320 3.270048 0.258824
90.345207 202.151138 4.046562 0.251514
88.792870 188.543091 2.553325 0.369162
88.713730 187.849335 2.172884 0.258824
88.789902 188.517059 1.816119 0.425299
88.788818 188.507553 1.448432 0.327474
88.787842 188.498993 1.080111 0.393866
88.786835 188.490189 0.710401 0.401663
88.785728 188.480469 0.338612 0.353201
88.762093 188.273315 0.000000 0.304662
88.565849 186.552963 -0.000001 0.289586
88.421257 185.285492 -0.000002 0.281056
90.509636 202.059647 8.234076 0.244236
90.453621 201.597290 7.274667 0.272190
90.498138 201.964722 6.511096 0.258824
88.863281 188.470505 3.661263 0.237598
90.349770 200.740097 4.710202 0.268330
90.565414 202.520050 4.078712 0.275853
88.863129 188.469269 2.550126 0.450980
88.853142 188.386826 2.181885 0.404135
88.854950 188.401764 1.817868 0.258824
92.412666 217.767365 0.000026 0.294240
88.916542 188.910141 1.045396 0.258824
89.607262 194.611359 0.000006 0.309255
88.868904 188.516907 0.331805 0.233249
88.838303 188.264343 0.000001 0.263706
88.630051 186.545410 -0.000001 0.333776
88.476616 185.278976 -0.000002 0.224613
90.551010 201.016312 7.976024 0.250340
90.636459 201.682617 7.297843 0.603143
90.499023 200.610947 6.266679 0.192157
88.941017 188.462021 3.661440 0.258824
90.985703 204.405914 5.137734 0.263600
88.901772 188.155945 2.893089 0.258824
88.866081 187.877670 2.521304 0.258824
89.047554 189.292740 2.196990 0.258824
88.964951 188.648636 1.813637 0.512749
88.952789 188.553772 1.445209 0.258824
90.618919 201.545822 0.000012 0.302892
89.727699 194.596344 0.000007 0.281895
89.231339 190.725845 0.000003 0.296010
88.914452 188.254852 0.000001 0.253681
88.694199 186.537415 -0.000001 0.247440
88.531929 185.272079 -0.000002 0.296834
nan nan nan 0.000000
90.767120 201.371201 7.234844 0.250919
90.612686 200.230194 6.200694 0.707027
90.809113 201.681458 5.641766 0.807721
89.023415 188.487823 3.292698 0.258824
88.983215 188.190765 2.896791 0.257084
88.942184 187.887604 2.522276 0.258824
89.039185 188.604294 2.185803 0.258824
89.055603 188.725601 1.812194 0.258824
89.032478 188.554764 1.444649 0.258824
88.987495 188.222397 1.100591 0.301961
89.848030 194.580490 0.000006 0.284260
89.324661 190.713547 0.000003 0.312535
88.990532 188.244812 0.000001 0.254856
88.758293 186.528961 -0.000001 0.301396
88.587196 185.264786 -0.000002 0.251804
nan nan nan 0.000000
90.951210 201.463669 7.260098 0.315435
90.835388 200.650650 6.282047 0.250828
91.094231 202.467606 5.763093 0.283772
89.015991 187.879486 3.223262 0.243015
89.049522 188.114838 2.891373 0.258824
89.013565 187.862427 2.521534 0.293019
89.090919 188.405457 2.182696 0.258824
89.279572 189.729660 1.795416 0.259861
89.249207 189.516510 1.396386 0.258824
89.043404 188.071884 1.112184 0.258824
89.968246 194.563797 0.000006 0.292287
89.417892 190.700592 0.000003 0.312413
89.066536 188.234268 0.000001 0.266697
88.822327 186.520065 -0.000000 0.306325
88.642410 185.257126 -0.000002 0.235981
nan nan nan 0.000000
91.119324 201.438232 7.259907 0.815106
nan nan nan 0.000000
89.197678 188.592285 3.685819 0.258824
91.001450 200.650269 4.710016 0.211398
89.178947 188.467041 2.921482 0.258824
89.095215 187.907318 2.524295 0.247059
89.169609 188.404633 2.182869 0.258824
89.244675 188.906433 1.808828 0.414389
89.253922 188.968231 1.423006 0.258824
91.124901 201.475540 0.000013 0.284810
90.088341 194.546249 0.000007 0.301717
89.511032 190.686996 0.000003 0.302998
89.142464 188.223175 0.000001 0.316442
88.886299 186.510727 -0.000001 0.300099
88.697563 185.249069 -0.000002 0.298375
nan nan nan 0.000000
nan nan nan 0.000000
91.292747 201.446686 6.437615 0.360937
89.278641 188.596451 3.688247 0.258824
89.178543 187.957764 3.234935 0.258824
89.122620 187.600983 2.850588 0.258824
89.243523 188.372375 2.547982 0.258824
92.649956 210.105865 2.542517 0.278431
89.342003 189.000671 1.807063 0.269612
89.351753 189.062912 1.417680 0.258824
91.293228 201.449753 0.000013 0.299351
90.208313 194.527878 0.000007 0.278843
89.604073 190.672745 0.000003 0.303136
89.218315 188.211548 0.000001 0.253635
88.950203 186.500931 -0.000000 0.300008
88.752663 185.240631 -0.000001 0.274159
nan nan nan 0.000000
nan nan nan 0.000000
nan nan nan 0.000000
91.390800 200.992264 5.553416 0.261769
89.335220 188.450394 3.293747 0.187045
89.172356 187.456696 2.839553 0.258824
89.366882 188.643570 2.562097 0.431373
89.396545 188.824585 2.190233 0.258824
89.446747 189.130844 1.804688 0.303639
89.219856 187.746536 1.482560 0.258824
91.461365 201.422806 0.000013 0.289693
90.328156 194.508667 0.000007 0.295262
89.697014 190.657837 0.000003 0.289982
89.294083 188.199402 0.000001 0.319722
89.014030 186.490707 -0.000000 0.289586
88.807701 185.231812 -0.000002 0.322866
nan nan nan 0.000000
nan nan nan 0.000000
nan nan nan 0.000000
91.516441 200.734924 5.518847 0.253651
89.413261 188.440979 3.294161 0.258824
89.247696 187.473145 2.841903 0.258824
89.450882 188.660889 2.563617 0.258824
89.488594 188.881317 2.191397 0.258824
89.554115 189.264328 1.802244 0.258824
90.870682 196.960190 1.022741 0.231617
91.629311 201.394669 0.000013 0.279866
90.447861 194.488617 0.000007 0.298253
89.789848 190.642288 0.000004 0.306874
89.369766 188.186737 0.000001 0.273686
89.077797 186.480026 -0.000001 0.337591
88.862679 185.222595 -0.000001 0.254200
nan nan nan 0.000000
nan nan nan 0.000000
nan nan nan 0.000000
93.675545 211.902771 7.205853 0.245686
90.882889 196.237381 4.206784 0.240513
90.888161 196.266937 3.575348 0.243931
90.884918 196.248749 2.942950 0.656031
89.543526 188.724182 2.189019 0.258824
90.886681 196.258636 1.685744 0.256687
90.946358 196.593369 1.039853 0.240009
90.949860 196.613037 0.395826 1.000000
90.567421 194.467728 0.000007 0.299687
89.882576 190.626099 0.000003 0.287510
89.445358 188.173523 0.000001 0.279332
89.141479 186.468903 -0.000000 0.264485
88.917587 185.213013 -0.000001 0.261128
nan nan nan 0.000000
nan nan nan 0.000000
nan nan nan 0.000000
91.048363 196.395187 4.872897 0.219730
91.091133 196.625763 4.255032 0.382757
90.998375 196.125687 3.565570 0.247059
89.570023 188.424881 2.553230 0.258824
89.577881 188.467239 2.184983 0.258824
89.585793 188.509888 1.814307 0.258824
91.077644 196.553055 1.040648 0.235966
91.072441 196.525009 0.401128 0.196872
90.686829 194.446014 0.000007 0.269108
89.975182 190.609253 0.000003 0.299260
89.520859 188.159805 0.000001 0.295247
89.205078 186.457336 -0.000000 0.270207
88.972435 185.203033 -0.000002 0.329259
nan nan nan 0.000000
nan nan nan 0.000000
nan nan nan 0.000000
nan nan nan 0.000000
91.202675 196.481369 4.241093 0.261250
89.696899 188.667786 2.944874 0.258824
89.652618 188.438019 2.554618 0.258824
89.660805 188.480499 2.185448 0.258824
91.203773 196.487091 1.681121 0.529168
91.187164 196.400925 1.046991 0.527214
91.197693 196.455521 0.404819 0.530083
90.806091 194.423462 0.000007 0.291173
90.067673 190.591766 0.000004 0.273960
89.596252 188.145538 0.000001 0.313649
89.268600 186.445313 -0.000000 0.285527
89.027206 185.192673 -0.000001 0.245197
nan nan nan 0.000000
nan nan nan 0.000000
nan nan nan 0.000000
nan nan nan 0.000000
91.394722 196.748199 4.275469 0.338659
89.782455 188.685364 2.947639 0.258824
89.868904 189.117706 2.589430 0.258824
89.744164 188.493851 2.185926 0.258824
91.358849 196.568802 1.679321 0.225895
91.262360 196.086273 1.061448 0.318990
91.364578 196.597443 0.390764 0.221073
90.925186 194.400085 0.000007 0.299748
90.160034 190.573624 0.000004 0.299596
89.671555 188.130753 0.000001 0.290425
89.332039 186.432861 -0.000000 0.266758
89.081902 185.181931 -0.000002 0.261494
nan nan nan 0.000000
nan nan nan 0.000000
nan nan nan 0.000000
91.479408 196.476349 4.897032 0.196017
91.430969 196.242645 4.219310 0.262257
91.416420 196.172409 3.575934 0.335943
91.543839 196.787277 2.975056 0.268788
91.229752 195.271652 2.299458 0.260090
91.444778 196.309265 1.683201 0.227359
94.991402 213.423431 0.190297 0.258824
92.465858 201.236481 0.000013 0.281407
91.044113 194.375870 0.000007 0.310933
90.252274 190.554840 0.000004 0.315282
89.746750 188.115448 0.000001 0.330724
89.395386 186.419968 -0.000000 0.307774
89.136520 185.170807 -0.000001 0.261341
nan nan nan 0.000000
nan nan nan 0.000000
nan nan nan 0.000000
nan nan nan 0.000000
nan nan nan 0.000000
91.499893 195.921814 3.557240 0.262943
89.903114 188.478500 2.559022 0.288914
nan nan nan 0.000000
91.654831 196.644073 1.677132 0.969680
96.055405 217.157196 0.000029 0.294240
92.632477 201.201340 0.000013 0.289479
91.162872 194.350830 0.000007 0.268650
90.344376 190.535431 0.000003 0.296513
89.821831 188.099609 0.000001 0.295918
89.458649 186.406631 -0.000000 0.309743
89.191063 185.159317 -0.000002 0.316442
nan nan nan 0.000000
nan nan nan 0.000000
nan nan nan 0.000000
nan nan nan 0.000000
nan nan nan 0.000000
91.654083 196.004669 3.566572 0.228840
89.987465 188.491943 2.560551 0.258824
nan nan nan 0.000000
91.792671 196.629410 1.676885 0.233188
96.333092 217.096619 0.000029 0.290471
92.798851 201.165039 0.000014 0.301640
91.281456 194.324951 0.000007 0.289845
90.436340 190.515366 0.000004 0.298589
89.896805 188.083252 0.000001 0.320363
89.521805 186.392853 -0.000000 0.294041
89.245529 185.147430 -0.000001 0.312444
nan nan nan 0.000000
nan nan nan 0.000000
nan nan nan 0.000000
nan nan nan 0.000000
nan nan nan 0.000000
nan nan nan 0.000000
90.072350 188.505722 2.562128 0.258824
nan nan nan 0.000000
95.529579 212.318222 1.412990 0.258824
96.610336 217.034088 0.000029 0.295018
92.964966 201.127579 0.000014 0.280171
91.399849 194.298248 0.000007 0.311437
90.528160 190.494659 0.000004 0.320409
89.971664 188.066376 0.000002 0.303761
89.584869 186.378632 -0.000000 0.282063
89.299904 185.135162 -0.000001 0.296773
nan nan nan 0.000000
nan nan nan 0.000000
nan nan nan 0.000000
nan nan nan 0.000000
nan nan nan 0.000000
nan nan nan 0.000000
nan nan nan 0.000000
92.075768 196.628540 2.324136 0.269398
nan nan nan 0.000000
96.887146 216.969620 0.000030 0.293095
93.130814 201.088959 0.000014 0.301564
91.518059 194.270721 0.000008 0.298939
90.619843 190.473312 0.000004 0.282307
90.046394 188.048965 0.000002 0.362020
89.647835 186.363968 0.000000 0.286580
89.354195 185.122528 -0.000001 0.253269
nan nan nan 0.000000
nan nan nan 0.000000
nan nan nan 0.000000
nan nan nan 0.000000
nan nan nan 0.000000
nan nan nan 0.000000
nan nan nan 0.000000
nan nan nan 0.000000
nan nan nan 0.000000
97.163490 216.903229 0.000030 0.290227
93.296379 201.049179 0.000014 0.294896
91.636070 194.242371 0.000008 0.297246
90.711357 190.451324 0.000004 0.283818
90.121010 188.031052 0.000002 0.310933
89.710693 186.348862 -0.000000 0.321584
89.408394 185.109512 -0.000001 0.343359
nan nan nan 0.000000
nan nan nan 0.000000
nan nan nan 0.000000
nan nan nan 0.000000
nan nan nan 0.000000
nan nan nan 0.000000
nan nan nan 0.000000
92.381477 196.710312 2.326621 0.266102
nan nan nan 0.000000
97.439377 216.834915 0.000030 0.294316
93.461678 201.008240 0.000015 0.297307
91.753883 194.213196 0.000008 0.284047
90.802734 190.428696 0.000004 0.285603
90.195496 188.012604 0.000002 0.258198
89.773445 186.333328 -0.000000 0.276234
89.462502 185.096115 -0.000002 0.287190
nan nan nan 0.000000
nan nan nan 0.000000
nan nan nan 0.000000
nan nan nan 0.000000
nan nan nan 0.000000
nan nan nan 0.000000
nan nan nan 0.000000
92.502853 196.623108 2.325729 0.168612
nan nan nan 0.000000
97.714760 216.764664 0.000031 0.289479
93.626678 200.966171 0.000015 0.280034
91.871490 194.183197 0.000008 0.293431
90.893936 190.405426 0.000004 0.312154
90.269852 187.993637 0.000001 0.278340
89.836090 186.317352 -0.000000 0.303685
89.516510 185.082336 -0.000001 0.332677
nan nan nan 0.000000
nan nan nan 0.000000
nan nan nan 0.000000
nan nan nan 0.000000
nan nan nan 0.000000
nan nan nan 0.000000
nan nan nan 0.000000
nan nan nan 0.000000
nan nan nan 0.000000
97.989662 216.692520 0.000031 0.296696
93.791382 200.922928 0.000014 0.297520
91.988884 194.152390 0.000008 0.282032
90.984985 190.381531 0.000004 0.297414
90.344078 187.974152 0.000002 0.262516
89.898621 186.300934 0.000000 0.315908
89.570427 185.068176 -0.000001 0.279210
nan nan nan 0.000000
nan nan nan 0.000000
nan nan nan 0.000000
nan nan nan 0.000000
nan nan nan 0.000000
nan nan nan 0.000000
nan nan nan 0.000000
nan nan nan 0.000000
nan nan nan 0.000000
98.264046 216.618439 0.000031 0.292454
93.955780 200.878540 0.000015 0.297337
92.106056 194.120758 0.000008 0.299718
91.075859 190.356995 0.000004 0.293126
90.418159 187.954163 0.000002 0.299702
89.961037 186.284088 0.000000 0.278981
89.624245 185.053650 -0.000001 0.373938
nan nan nan 0.000000
nan nan nan 0.000000
nan nan nan 0.000000
nan nan nan 0.000000
nan nan nan 0.000000
nan nan nan 0.000000
nan nan nan 0.000000
nan nan nan 0.000000
nan nan nan 0.000000
98.537910 216.542435 0.000031 0.291966
94.119865 200.833008 0.000015 0.284031
92.223007 194.088303 0.000008 0.279561
91.166557 190.331833 0.000004 0.256748
90.492104 187.933640 0.000002 0.258534
90.023331 186.266800 0.000000 0.293080
89.677956 185.038742 -0.000001 0.254444
nan nan nan 0.000000
nan nan nan 0.000000
nan nan nan 0.000000
nan nan nan 0.000000
nan nan nan 0.000000
nan nan nan 0.000000
nan nan nan 0.000000
nan nan nan 0.000000
nan nan nan 0.000000
98.811241 216.464554 0.000031 0.287083
94.283623 200.786346 0.000015 0.299565
92.339737 194.055038 0.000008 0.299855
91.257080 190.306030 0.000004 0.268605
90.565895 187.912613 0.000002 0.297581
90.085503 186.249084 -0.000000 0.273182
89.731560 185.023468 -0.000001 0.321935
nan nan nan 0.000000
nan nan nan 0.000000
nan nan nan 0.000000
nan nan nan 0.000000
nan nan nan 0.000000
nan nan nan 0.000000
nan nan nan 0.000000
96.204948 206.670074 2.500376 0.258824
91.846420 191.963333 1.750630 0.258824
99.084007 216.384720 0.000031 0.294377
94.447060 200.738525 0.000015 0.288579
92.456223 194.020966 0.000008 0.294255
91.347420 190.279602 0.000004 0.288167
90.639549 187.891052 0.000002 0.273945
90.147545 186.230927 0.000000 0.316518
89.785065 185.007813 -0.000001 0.341863
nan nan nan 0.000000
nan nan nan 0.000000
nan nan nan 0.000000
nan nan nan 0.000000
nan nan nan 0.000000
nan nan nan 0.000000
96.948387 208.381805 3.593243 0.258824
96.439255 206.706879 2.502056 0.217517
91.969147 192.001297 1.749458 0.258824
99.356216 216.303024 0.000031 0.291264
94.610153 200.689575 0.000015 0.296757
92.572464 193.986053 0.000008 0.302434
91.437576 190.252533 0.000004 0.284001
90.713043 187.869003 0.000002 0.266331
90.209465 186.212341 -0.000000 0.293309
89.838448 184.991791 -0.000001 0.259022
nan nan nan 0.000000
nan nan nan 0.000000
nan nan nan 0.000000
nan nan nan 0.000000
nan nan nan 0.000000
nan nan nan 0.000000
92.293373 192.682465 2.788832 0.258824
nan nan nan 0.000000
92.093552 192.041214 1.748235 0.258824
99.627861 216.219421 0.000031 0.291936
94.772903 200.639465 0.000015 0.301198
92.688469 193.950348 0.000008 0.266072
91.527542 190.224854 0.000004 0.289113
90.786385 187.846420 0.000002 0.301854
90.271255 186.193329 0.000000 0.311086
89.891724 184.975388 -0.000001 0.282719
nan nan nan 0.000000
nan nan nan 0.000000
nan nan nan 0.000000
nan nan nan 0.000000
96.899330 206.739456 5.548845 0.315190
nan nan nan 0.000000
92.410461 192.680649 2.790478 0.258824
92.633057 193.377792 2.275280 0.366796
92.217545 192.076431 1.747075 0.258824
92.320427 192.398666 1.224064 0.244663
94.935295 200.588242 0.000015 0.291432
92.804214 193.913849 0.000008 0.293828
91.617302 190.196533 0.000005 0.341268
90.859566 187.823334 0.000002 0.302358
90.332901 186.173874 0.000000 0.319142
89.944885 184.958618 -0.000000 0.321614
nan nan nan 0.000000
nan nan nan 0.000000
nan nan nan 0.000000
nan nan nan 0.000000
nan nan nan 0.000000
nan nan nan 0.000000
97.469116 207.789017 3.573165 0.258824
92.756172 193.376434 2.275878 0.258824
nan nan nan 0.000000
92.435883 192.396957 1.222400 0.258824
95.097328 200.535889 0.000015 0.303136
92.919708 193.876526 0.000008 0.316930
91.706871 190.167587 0.000005 0.260136
90.932587 187.799744 0.000002 0.354406
90.394417 186.153992 0.000001 0.252155
89.997925 184.941483 -0.000001 0.269688
nan nan nan 0.000000
nan nan nan 0.000000
nan nan nan 0.000000
nan nan nan 0.000000
97.329994 206.669113 5.556553 0.258824
nan nan nan 0.000000
92.645401 192.674744 2.793790 0.258824
92.854599 193.299667 2.275192 0.258824
nan nan nan 0.000000
92.566109 192.437866 1.218482 0.258824
95.259003 200.482391 0.000015 0.284306
93.034935 193.838394 0.000008 0.304814
91.796234 190.138016 0.000005 0.319265
91.005432 187.775635 0.000002 0.242664
90.455795 186.133698 -0.000000 0.339086
90.050850 184.923981 -0.000001 0.289189
nan nan nan 0.000000
nan nan nan 0.000000
nan nan nan 0.000000
94.586166 197.992599 5.236300 0.283345
nan nan nan 0.000000
92.645775 192.327728 3.297936 0.258824
92.763252 192.670700 2.795458 0.254871
93.004135 193.373932 2.277128 0.258824
92.615288 192.238724 1.742509 0.258824
92.870338 192.983337 1.188307 0.258824
95.420280 200.427780 0.000015 0.292027
93.149887 193.799469 0.000009 0.268147
91.885391 190.107834 0.000004 0.297765
91.078117 187.751022 0.000002 0.254887
90.517029 186.112946 0.000000 0.309361
90.103645 184.906097 -0.000001 0.324376
nan nan nan 0.000000
nan nan nan 0.000000
nan nan nan 0.000000
97.631531 206.224319 6.537970 0.258824
nan nan nan 0.000000
92.968002 192.913223 3.351948 0.258824
92.630989 191.951309 2.759936 0.258824
97.077667 204.643417 2.473202 0.258824
92.413376 191.330170 1.757639 0.258824
92.961006 192.893265 1.191030 0.258824
95.581192 200.372040 0.000016 0.302510
93.264572 193.759735 0.000008 0.286290
91.974335 190.077011 0.000005 0.288411
91.150627 187.725906 0.000002 0.324575
90.578117 186.091797 0.000000 0.287663
90.156319 184.887848 -0.000001 0.299641
nan nan nan 0.000000
nan nan nan 0.000000
nan nan nan 0.000000
nan nan nan 0.000000
93.028450 192.740646 3.880413 0.258824
93.056000 192.817551 3.346963 0.258824
92.777565 192.040253 2.766460 0.258824
nan nan nan 0.000000
92.847725 192.236130 1.741291 0.258824
92.697205 191.815918 1.245247 0.221408
95.741699 200.315170 0.000016 0.287861
93.378975 193.719208 0.000008 0.293797
92.063057 190.045578 0.000004 0.305608
91.222954 187.700287 0.000002 0.279072
90.639053 186.070206 0.000000 0.290990
90.208855 184.869232 -0.000001 0.271763
nan nan nan 0.000000
nan nan nan 0.000000
nan nan nan 0.000000
95.100365 198.068085 5.272327 0.203784
nan nan nan 0.000000
93.032936 192.420975 3.315745 0.258824
93.039650 192.439316 2.789277 0.258824
92.869820 191.975418 2.254821 0.258824
93.345718 193.275330 1.722527 0.258824
92.802094 191.790421 1.244669 0.258824
95.901802 200.257187 0.000016 0.297993
93.493095 193.677872 0.000009 0.295216
92.151566 190.013535 0.000004 0.266606
91.295105 187.674149 0.000003 0.268894
90.699837 186.048187 0.000000 0.245930
90.261269 184.850250 -0.000001 0.280537
nan nan nan 0.000000
nan nan nan 0.000000
98.331718 206.267517 7.617268 0.259510
98.396568 206.440903 6.606821 0.258824
93.207054 192.566711 3.868685 0.258824
93.139397 192.385834 3.316072 0.258824
93.217094 192.593552 2.799409 0.459449
93.101402 192.284256 2.260875 0.258824
92.741623 191.322388 1.755929 0.258824
93.201218 192.551102 1.202817 0.415351
93.196922 192.539627 0.670464 0.450050
93.187988 192.515732 0.137575 0.454490
92.239838 189.980865 0.000005 0.275334
91.367073 187.647522 0.000002 0.281483
90.760468 186.025757 0.000000 0.280613
90.313545 184.830902 -0.000001 0.287739
nan nan nan 0.000000
nan nan nan 0.000000
98.458183 205.994629 7.578958 0.258824
nan nan nan 0.000000
93.246628 192.352524 3.847248 0.258824
93.345161 192.610458 3.339265 0.258824
93.581650 193.229507 2.834966 0.258824
93.184288 192.189346 2.259902 0.258824
93.348953 192.620377 1.732547 0.336507
98.561317 206.264603 0.479523 0.317220
96.220787 200.137878 0.000016 0.277211
93.720451 193.592834 0.000009 0.288365
92.327888 189.947571 0.000005 0.302525
91.438850 187.620377 0.000002 0.351019
90.820938 186.002899 0.000000 0.257343
90.365685 184.811203 -0.000001 0.290837
nan nan nan 0.000000
nan nan nan 0.000000
95.630188 198.155075 6.062894 0.224475
nan nan nan 0.000000
98.221107 204.797745 5.388989 0.258824
93.437782 192.534119 3.336163 0.258824
93.354988 192.321869 2.789358 0.387778
93.483406 192.651108 2.268714 0.258824
93.569710 192.872360 1.727399 0.475853
98.746376 206.144455 0.481756 0.402487
96.379639 200.076553 0.000016 0.287327
93.833672 193.549133 0.000009 0.292302
92.415695 189.913681 0.000005 0.297002
91.510437 187.592743 0.000002 0.312078
90.881248 185.979614 0.000000 0.265324
90.417686 184.791122 -0.000001 0.289815
nan nan nan 0.000000
nan nan nan 0.000000
nan nan nan 0.000000
95.804398 198.171219 5.323893 0.235294
95.809006 198.182800 4.579250 0.320668
93.600525 192.635345 3.348776 0.258824
93.555771 192.522934 2.802164 0.258824
nan nan nan 0.000000
98.089905 203.912155 1.532204 0.258824
93.432091 192.212265 1.214262 0.258824
96.538071 200.014114 0.000016 0.287953
93.946594 193.504623 0.000009 0.307805
92.503273 189.879166 0.000005 0.308995
91.581833 187.564621 0.000002 0.268956
90.941391 185.955917 0.000000 0.324468
90.469543 184.770691 -0.000001 0.272740
nan nan nan 0.000000
nan nan nan 0.000000
95.987900 198.207291 6.095796 0.458595
95.983551 198.196594 5.337301 0.350988
95.996063 198.227402 4.592040 0.369116
nan nan nan 0.000000
nan nan nan 0.000000
93.647881 192.446793 2.266603 0.258824
94.012161 193.343536 1.717557 0.258824
102.837662 215.069595 0.000034 0.291249
96.696053 199.950577 0.000017 0.299794
94.059196 193.459351 0.000009 0.297200
92.590599 189.844055 0.000005 0.288731
91.653023 187.535980 0.000002 0.251026
91.001373 185.931793 0.000000 0.260426
90.521263 184.749893 -0.000000 0.258473
nan nan nan 0.000000
nan nan nan 0.000000
96.169075 198.233994 6.112806 0.239673
99.361450 205.938080 6.589901 0.258824
96.184219 198.270538 4.604849 0.284810
93.547020 191.906265 3.291738 0.258824
93.413864 191.584930 2.756847 0.257816
93.894394 192.744568 2.272643 0.258824
98.919441 204.871399 1.512552 0.258824
103.100601 214.961700 0.000034 0.290517
96.853592 199.885941 0.000016 0.289677
94.171486 193.413269 0.000009 0.288228
92.677689 189.808319 0.000005 0.288640
91.724022 187.506851 0.000002 0.267628
91.061180 185.907257 0.000000 0.265919
90.572830 184.728729 -0.000001 0.244022
nan nan nan 0.000000
nan nan nan 0.000000
96.351639 198.260635 6.130101 0.886442
96.347588 198.251053 5.365435 0.224231
nan nan nan 0.000000
93.670631 191.916245 3.296405 0.258824
93.537041 191.600098 2.759870 0.258824
98.731117 203.891510 2.471466 0.258824
98.723511 203.873505 1.528854 0.258824
99.950249 206.776474 0.430726 0.258824
97.010674 199.820206 0.000016 0.285420
94.283447 193.366425 0.000009 0.307622
92.764519 189.771988 0.000005 0.300130
91.794807 187.477234 0.000003 0.309972
91.120819 185.882294 0.000000 0.254749
90.624252 184.707214 -0.000001 0.306462
nan nan nan 0.000000
nan nan nan 0.000000
96.535736 198.287445 6.147736 0.469459
96.538071 198.292877 5.382232 0.276509
96.566925 198.359848 4.631450 0.310948
97.445740 200.399658 4.057684 0.355688
93.660919 191.614716 2.762919 0.258824
94.047089 192.511063 2.270096 0.258824
99.630692 205.471130 1.498982 0.258824
103.624191 214.740448 0.000034 0.291875
97.167297 199.753372 0.000017 0.292180
94.395081 193.318787 0.000009 0.271199
92.851097 189.735046 0.000005 0.260288
91.865387 187.447113 0.000002 0.249485
91.180283 185.856918 0.000000 0.275624
90.675522 184.685333 -0.000001 0.286534
nan nan nan 0.000000
nan nan nan 0.000000
96.721710 198.315155 6.165856 0.296193
96.731216 198.336807 5.399635 0.214908
96.761200 198.405090 4.645137 0.859373
96.790909 198.472733 3.891381 1.000000
nan nan nan 0.000000
96.850922 198.609406 2.379908 0.194553
99.826202 205.384735 1.499002 0.258824
100.544327 207.020065 0.408187 0.227481
97.323456 199.685455 0.000016 0.304372
94.506378 193.270370 0.000009 0.268513
92.937408 189.697495 0.000005 0.323003
91.935753 187.416504 0.000003 0.296300
91.239563 185.831131 0.000000 0.370687
90.726639 184.663101 -0.000001 0.245762
96.917984 198.362457 7.765614 0.192157
nan nan nan 0.000000
96.908722 198.341766 6.184072 0.258625
96.927185 198.383026 5.417684 0.324178
96.957863 198.451584 4.659197 0.161517
96.988289 198.519562 3.901450 0.236667
100.040955 205.341370 3.506397 0.258824
94.301216 192.514740 2.271823 0.258824
100.365997 206.067749 1.485205 0.383551
100.878929 207.214005 0.392816 0.225315
97.479126 199.616440 0.000017 0.299260
94.617332 193.221191 0.000009 0.296803
93.023460 189.659348 0.000005 0.289097
92.005905 187.385406 0.000003 0.319295
91.298660 185.804932 0.000001 0.297368
90.777603 184.640503 -0.000001 0.297566
nan nan nan 0.000000
97.415565 199.066513 7.154149 0.874205
97.098114 198.370178 6.202970 0.553475
97.124390 198.427826 5.435780 0.503761
97.155884 198.496902 4.673326 0.622644
97.187439 198.566116 3.911650 0.218326
94.427307 192.511765 2.818469 0.258824
nan nan nan 0.000000
100.231888 205.244125 1.498390 0.258824
101.281151 207.545685 0.369832 0.271077
97.634308 199.546341 0.000017 0.297093
94.727943 193.171219 0.000009 0.263066
93.109245 189.620605 0.000005 0.291508
92.075836 187.353821 0.000003 0.310933
91.357582 185.778320 0.000000 0.259037
90.828400 184.617569 -0.000001 0.243748
97.476265 198.801666 7.923732 0.258824
97.483276 198.816772 7.111259 0.375402
97.496399 198.845032 6.311755 0.214786
nan nan nan 0.000000
97.545158 198.950027 4.739400 0.274693
97.388748 198.613190 3.922056 0.654902
94.565842 192.533951 2.822303 0.258824
nan nan nan 0.000000
nan nan nan 0.000000
104.662109 214.276688 0.000002 0.338750
97.789001 199.475159 0.000017 0.294804
94.838203 193.120483 0.000010 0.290593
93.194756 189.581253 0.000005 0.263478
92.145546 187.321747 0.000003 0.264637
91.416313 185.751297 0.000000 0.259556
90.879036 184.594269 -0.000000 0.304189
97.542671 198.555893 7.875041 0.329503
nan nan nan 0.000000
97.493004 198.450851 6.246548 0.262394
97.526382 198.521454 5.473493 0.188113
97.559425 198.591309 4.702730 0.212833
97.592545 198.661346 3.932723 0.471397
97.625740 198.731552 3.161790 0.192157
nan nan nan 0.000000
100.609589 205.041687 1.498792 0.298695
104.919495 214.156128 -0.000000 0.338140
97.943192 199.402908 0.000017 0.302510
94.948105 193.068985 0.000010 0.290257
93.279991 189.541321 0.000005 0.267308
92.215034 187.289185 0.000003 0.300038
91.474846 185.723862 0.000000 0.291341
90.929512 184.570618 -0.000000 0.250492
97.607994 198.314102 7.827426 0.473808
97.615387 198.329453 7.028307 0.259556
97.628410 198.356506 6.241664 0.223529
97.648277 198.397781 5.464722 0.507408
97.677322 198.458115 4.694740 0.488365
97.830971 198.777237 3.949718 0.257527
97.832581 198.780594 3.168341 0.661891
nan nan nan 0.000000
100.797119 204.938278 1.498998 0.258824
105.176025 214.033783 -0.000002 0.338628
98.096878 199.329575 0.000017 0.282597
95.057640 193.016724 0.000010 0.288304
93.364944 189.500778 0.000005 0.286458
92.284286 187.256134 0.000003 0.328496
91.533195 185.696030 0.000001 0.295232
90.979820 184.546600 -0.000000 0.291493
97.672394 198.076431 7.780926 0.247059
97.679840 198.091629 6.988185 0.264302
97.692886 198.118256 6.207794 0.428031
97.712494 198.158249 5.436925 0.227848
97.742966 198.220444 4.673446 0.444938
97.888817 198.518051 3.932674 0.474510
98.041321 198.829254 3.174971 0.691569
nan nan nan 0.000000
nan nan nan 0.000000
105.431564 213.909363 0.000011 0.338430
98.250053 199.255173 0.000017 0.286259
95.166817 192.963699 0.000009 0.291600
93.449608 189.459656 0.000005 0.289677
92.353310 187.222610 0.000003 0.261418
91.591347 185.667786 0.000001 0.331930
91.029961 184.522247 -0.000000 0.260700
nan nan nan 0.000000
97.743324 197.857666 6.948964 0.279683
97.756332 197.883728 6.174657 0.350881
97.776123 197.923416 5.409881 0.244434
nan nan nan 0.000000
98.564774 199.504669 4.029757 0.399924
98.252907 198.879364 3.181786 0.560784
nan nan nan 0.000000
nan nan nan 0.000000
105.686363 213.783447 0.000008 0.337926
98.402702 199.179703 0.000017 0.287083
95.275620 192.909912 0.000009 0.291875
93.533989 189.417938 0.000006 0.349676
92.422104 187.188599 0.000003 0.294102
91.649300 185.639130 0.000001 0.274418
