# This PCD file was generated using the MATLABÂ® pcwrite function
# from Computer Vision ToolboxÂ®.
# .PCD v.7 - Point Cloud Data file format
VERSION .7
FIELDS x y z intensity
SIZE 4 4 4 4
TYPE F F F F
COUNT 1 1 1 1
WIDTH 1312
HEIGHT 1
VIEWPOINT 0 0 0 1 0 0 0
POINTS 1312
DATA ascii
-3.366884 215.108353 1.663624 0.232074
-14.119509 232.155685 -0.000008 0.295949
-5.413224 218.352646 -0.000004 0.300603
-1.675301 212.426498 -0.000002 0.297368
0.406522 209.125961 -0.000002 0.282643
1.735588 207.018845 -0.000001 0.319097
2.659336 205.554321 -0.000001 0.254978
3.339914 204.475327 0.000000 0.271626
nan nan nan 0.000000
nan nan nan 0.000000
nan nan nan 0.000000
-1.666841 212.642929 4.605394 0.223529
-5.123448 218.208817 4.774324 0.290196
-8.601831 223.809753 4.518008 0.539971
-3.313342 215.294159 3.016190 0.247730
-2.675886 214.267715 2.318716 0.322362
-3.641199 215.822083 1.651343 0.287160
-13.878592 232.306473 -0.000008 0.295689
-5.268880 218.442993 -0.000004 0.280751
-1.572419 212.490891 -0.000002 0.284474
0.486311 209.175903 -0.000002 0.290501
1.800635 207.059555 -0.000000 0.282017
2.714136 205.588623 -0.000001 0.297124
3.387164 204.504898 -0.000000 0.322606
-1.546439 212.681076 6.391900 0.227939
nan nan nan 0.000000
-1.538833 212.668640 5.187666 0.520195
nan nan nan 0.000000
-4.957284 218.259796 4.769289 0.235569
-1.575533 212.728668 3.442235 0.267567
-3.128224 215.268219 3.010334 0.226230
-2.521502 214.275879 2.317504 0.248646
-2.522418 214.277374 1.682467 0.276417
-13.636623 232.455566 -0.000008 0.290135
-5.123909 218.532318 -0.000004 0.294118
-1.469093 212.554565 -0.000003 0.321782
0.566448 209.225281 -0.000002 0.267491
1.865962 207.099808 -0.000001 0.326482
2.769175 205.622543 -0.000001 0.380240
3.434620 204.534149 0.000000 0.335454
nan nan nan 0.000000
nan nan nan 0.000000
-1.407510 212.687622 5.178226 0.266743
nan nan nan 0.000000
nan nan nan 0.000000
-1.450245 212.758621 3.439006 0.210605
-2.996348 215.327530 3.009465 0.300252
-2.368271 214.283966 2.316317 0.282826
-2.471301 214.455139 1.680414 0.266667
-13.393621 232.602966 -0.000008 0.289708
-4.978313 218.620636 -0.000004 0.308248
-1.365318 212.617508 -0.000003 0.302235
0.646927 209.274094 -0.000002 0.264515
1.931573 207.139618 -0.000000 0.326390
2.824448 205.656067 -0.000001 0.275593
3.482279 204.563049 0.000000 0.287724
-1.284780 212.719696 6.366390 0.297856
nan nan nan 0.000000
nan nan nan 0.000000
-1.277658 212.707672 4.583662 0.309850
-7.920102 223.920776 5.503048 0.257191
-1.325795 212.788925 3.435908 0.344808
-2.864480 215.386383 3.008626 0.208942
-2.216172 214.291977 2.315153 0.235294
-2.854270 215.369156 1.664359 0.522789
-2.392955 214.590408 1.036823 0.225330
-4.832114 218.707947 -0.000005 0.310903
-1.261111 212.679733 -0.000003 0.301335
0.727741 209.322357 -0.000002 0.288212
1.997455 207.178955 -0.000001 0.304646
2.879952 205.689209 -0.000001 0.301885
3.530137 204.591629 -0.000000 0.342168
-1.155073 212.738831 6.354062 0.239445
nan nan nan 0.000000
nan nan nan 0.000000
-1.154444 212.737762 4.578249 0.277165
nan nan nan 0.000000
-1.201633 212.818695 3.432855 0.283604
-2.751647 215.477432 3.009674 0.269825
-7.813980 224.160828 2.500797 0.237858
-2.669632 215.336746 1.666347 0.275059
-2.768079 215.505615 0.988722 0.982483
-4.685301 218.794220 -0.000005 0.288426
-1.156473 212.741241 -0.000003 0.274495
0.808894 209.370056 -0.000002 0.342458
2.063614 207.217834 -0.000001 0.272282
2.935688 205.721970 -0.000001 0.320592
3.578195 204.619873 -0.000000 0.241138
-1.025903 212.757538 6.341921 0.271565
-1.021876 212.750519 5.742020 0.291295
-1.017932 212.743652 5.151099 0.224887
-1.031759 212.767746 4.572989 0.639063
-2.568902 215.447220 4.350830 0.249638
-1.078019 212.848389 3.429888 0.321569
nan nan nan 0.000000
-2.331808 215.033936 2.326596 0.239338
-2.435291 215.214325 1.670001 1.000000
-2.478790 215.290146 1.005001 0.286687
-4.537890 218.879471 -0.000005 0.284581
-1.051410 212.802002 -0.000003 0.313100
0.890378 209.417175 -0.000002 0.267124
2.130041 207.256256 -0.000001 0.285832
2.991652 205.754333 -0.000000 0.236561
3.626447 204.647781 -0.000001 0.334279
-0.897392 212.776047 6.330029 0.238972
-0.893558 212.769257 5.731830 0.462074
-0.889715 212.762451 5.142533 0.217578
-0.909062 212.796722 4.567723 0.375189
-2.448691 215.524475 4.351715 0.564584
-0.954947 212.878021 3.427008 0.526665
-2.456007 215.537445 3.005005 0.559503
-2.450604 215.527863 2.334582 0.549981
-2.445831 215.519409 1.665577 0.536995
-2.441098 215.511032 0.996485 0.548531
-2.429528 215.490524 0.327011 0.549020
-0.945919 212.862030 -0.000003 0.323354
0.972188 209.463730 -0.000002 0.269230
2.196733 207.294205 -0.000001 0.279438
3.047841 205.786301 -0.000000 0.260243
3.674895 204.675354 -0.000001 0.252720
-0.769573 212.794449 6.318410 0.262196
-0.765770 212.787598 5.721805 0.286992
-0.764823 212.785904 5.135155 0.309194
-0.787395 212.826553 4.562768 0.250813
-2.353680 215.647354 4.358709 0.245167
-1.998761 215.008163 3.621222 0.195224
-2.176790 215.328781 2.989359 0.221469
-2.450803 215.822266 2.338788 0.410742
-2.192938 215.357864 1.669905 0.235203
-2.314571 215.576920 0.996697 0.181628
-4.241305 219.046875 -0.000005 0.291829
-0.840017 212.921310 -0.000003 0.292287
1.054319 209.509705 -0.000002 0.307729
2.263692 207.331680 -0.000001 0.322530
3.104249 205.817886 -0.000001 0.264515
3.723533 204.702576 -0.000000 0.240406
-0.642514 212.812912 6.307107 0.419364
-0.638826 212.806152 5.712089 0.257908
-0.643717 212.815109 5.129182 0.229221
nan nan nan 0.000000
-0.687998 212.896179 3.989035 0.393927
nan nan nan 0.000000
-0.732385 212.977463 2.853944 0.350820
-2.312260 215.870132 2.338380 0.259007
-2.170098 215.609848 1.666473 0.333715
-2.325004 215.893463 0.982828 0.211490
-4.092141 219.129013 -0.000005 0.285695
-0.733699 212.979858 -0.000003 0.296376
1.136773 209.555115 -0.000002 0.316960
2.330909 207.368698 -0.000001 0.274632
3.160878 205.849075 -0.000000 0.234913
3.772361 204.729477 -0.000001 0.266728
-0.516013 212.831085 6.296019 0.748348
-0.512319 212.824203 5.702504 0.390448
-6.551731 224.067978 7.441576 0.278325
-6.503321 223.977859 6.420958 0.266468
-6.428643 223.838821 5.410481 0.238285
-1.891167 215.391251 3.644563 0.251377
-2.004760 215.602737 2.997119 0.607599
-2.220155 216.003738 2.339585 0.226871
-2.037147 215.663025 1.666744 0.950790
-2.007729 215.608261 1.002572 1.000000
-3.942410 219.210114 -0.000004 0.292454
-0.626977 213.037674 -0.000003 0.295674
1.219542 209.599945 -0.000001 0.264408
2.398384 207.405243 -0.000001 0.292485
3.217723 205.879852 -0.000001 0.281605
3.821375 204.756012 -0.000000 0.286854
-0.390110 212.849075 6.285172 0.238911
-0.386381 212.842010 5.693112 0.459144
-0.403156 212.873779 5.117874 0.781048
-0.424511 212.914215 4.548564 0.450004
-0.446112 212.955109 3.981839 0.230060
-6.555559 224.522278 4.485175 0.160784
-0.488752 213.035843 2.850807 0.235294
-2.499049 216.841980 2.353837 0.210330
-1.870444 215.651825 1.668188 0.218753
-11.413792 233.720490 -0.000008 0.289906
-3.792118 219.290176 -0.000005 0.281926
-0.519854 213.094727 -0.000003 0.314717
1.302619 209.644196 -0.000002 0.315908
2.466111 207.441330 -0.000001 0.286366
3.274782 205.910248 -0.000001 0.309453
3.870573 204.782227 -0.000000 0.284291
-0.264976 212.867249 6.274662 0.251133
-0.262131 212.861771 5.684443 0.862791
-0.283423 212.902771 5.112440 0.714122
-6.168897 224.236801 6.431752 0.227543
-6.205595 224.307465 5.446170 0.203098
-1.991869 216.192841 3.706538 0.235966
-0.367536 213.064758 2.849303 0.205478
-0.388704 213.105530 2.283650 0.562539
-3.848114 219.767517 1.593511 0.216449
-11.162008 233.852325 -0.000008 0.296864
-3.641265 219.369186 -0.000005 0.293553
-0.412338 213.151031 -0.000003 0.287907
1.386003 209.687866 -0.000002 0.276585
2.534089 207.476929 -0.000001 0.247944
3.332051 205.940247 -0.000001 0.294240
3.919953 204.808090 -0.000000 0.324941
nan nan nan 0.000000
-0.143376 212.891083 5.678329 0.443931
-0.164089 212.931656 5.107173 0.743770
nan nan nan 0.000000
-5.962268 224.290771 5.431648 0.253803
-0.226299 213.053528 3.411412 0.282078
-0.247058 213.094208 2.847880 0.276814
-0.267718 213.134674 2.283168 0.340627
-3.427456 219.324860 1.603103 0.216663
-10.909327 233.982452 -0.000009 0.295735
-3.489867 219.447128 -0.000005 0.305394
-0.304428 213.206604 -0.000003 0.287098
1.469691 209.730957 -0.000002 0.300435
2.602313 207.512054 -0.000002 0.280430
3.389529 205.969833 -0.000000 0.302815
3.969511 204.833603 -0.000001 0.244633
nan nan nan 0.000000
-0.024791 212.919861 5.672310 0.259388
-0.045194 212.960526 5.102091 0.949508
nan nan nan 0.000000
-0.086011 213.041885 3.971751 0.208743
-5.515288 223.864197 4.398151 0.365362
-0.126688 213.122971 2.846470 0.698039
-0.147022 213.163498 2.282698 0.252995
-2.787142 218.426117 1.620956 0.232715
-10.655727 234.110779 -0.000009 0.293950
-3.337927 219.524017 -0.000005 0.285573
-0.196134 213.261398 -0.000003 0.287633
1.553678 209.773453 -0.000002 0.272496
2.670782 207.546707 -0.000001 0.244221
3.447211 205.999023 -0.000001 0.294591
4.019248 204.858765 -0.000001 0.250782
0.107083 212.920807 6.244549 0.496406
0.093399 212.948563 5.666495 0.611765
nan nan nan 0.000000
nan nan nan 0.000000
0.033140 213.070801 3.968626 0.351415
-3.059961 219.345276 3.976732 0.269078
-0.006719 213.151657 2.845108 0.570138
-1.260736 215.695480 2.327911 0.269612
-2.758662 218.734070 1.616652 0.277119
-3.175012 219.578659 0.802874 0.243015
-3.185455 219.599838 -0.000005 0.296407
-0.087460 213.315445 -0.000003 0.318227
1.637959 209.815369 -0.000002 0.273976
2.739490 207.580872 -0.000001 0.327703
3.505095 206.027817 -0.000001 0.293217
4.069159 204.883591 -0.000001 0.287266
nan nan nan 0.000000
nan nan nan 0.000000
0.191431 213.018051 5.092442 0.409033
-5.035412 223.810211 6.299787 0.241733
nan nan nan 0.000000
-2.865021 219.328888 3.968508 0.260533
0.112860 213.180267 2.843792 0.237324
-2.779870 219.153061 2.389661 0.158526
-2.576722 218.733612 1.617965 0.275608
-3.015947 219.640503 0.803574 0.266667
-3.032462 219.674606 -0.000005 0.305592
0.021589 213.368729 -0.000003 0.316625
1.722531 209.856689 -0.000002 0.281209
2.808436 207.614563 -0.000001 0.313481
3.563180 206.056198 -0.000001 0.268147
4.119241 204.908066 -0.000001 0.269780
1.056028 211.476822 5.815399 0.238392
nan nan nan 0.000000
nan nan nan 0.000000
0.290109 213.086807 4.523911 0.650797
0.270651 213.127716 3.962608 0.257328
0.251365 213.168259 3.402530 0.206119
0.232055 213.208847 2.842523 0.301961
-2.600114 219.162186 2.388522 0.254292
-2.735359 219.446472 1.606326 0.229389
-2.806376 219.595749 0.810012 0.545159
-2.784973 219.550766 0.017931 0.525979
0.131011 213.421249 -0.000003 0.285710
1.807390 209.897430 -0.000002 0.270817
2.877615 207.647766 -0.000001 0.279484
3.621462 206.084167 -0.000001 0.323522
4.169494 204.932190 -0.000001 0.297520
0.890673 212.081970 5.970172 0.192935
0.946948 211.961517 5.394518 0.307469
0.426983 213.074478 5.083300 0.586740
0.407825 213.115479 4.520311 0.527504
0.388865 213.156067 3.959759 0.326314
0.369892 213.196671 3.400494 0.304906
0.350899 213.237320 2.841299 0.192157
-2.421432 219.171326 2.387411 0.195972
-2.609810 219.574524 1.605306 0.225269
-2.744621 219.863083 0.799426 0.247059
-2.650480 219.661575 0.014414 0.555154
0.240790 213.473007 -0.000003 0.282628
1.892529 209.937561 -0.000002 0.303822
2.947023 207.680496 -0.000001 0.285115
3.679936 206.111740 -0.000001 0.304692
4.219913 204.955948 -0.000000 0.265370
0.711308 212.738373 6.138255 0.390265
0.764277 212.622910 5.540722 0.410910
0.848484 212.439331 4.946204 0.273350
0.925164 212.272171 4.374552 0.222980
0.506575 213.184692 3.957059 0.605142
0.488070 213.225037 3.398533 0.196567
0.469399 213.265732 2.840120 0.468177
3.575048 206.495438 2.157952 0.258824
3.657598 206.315491 1.845288 0.258824
-4.804250 224.762253 0.538506 0.562753
-2.570387 219.892456 -0.000005 0.282200
0.350932 213.523987 -0.000003 0.287175
1.977948 209.977112 -0.000002 0.261784
3.016659 207.712723 -0.000001 0.281071
3.738602 206.138901 -0.000001 0.323064
4.270497 204.979370 -0.000001 0.292134
0.697905 213.049042 6.210491 0.568231
0.565058 213.344070 5.700324 0.472557
0.655104 213.144104 5.077508 0.878874
0.744169 212.946304 4.476698 0.471305
0.624114 213.212921 3.954420 0.454170
-2.329409 219.772034 3.982839 0.274144
0.587568 213.294083 2.838986 0.778531
3.639554 206.516312 2.157825 0.258824
3.658775 206.473633 1.842940 0.258824
-4.643004 224.909988 0.535176 0.553628
-2.415364 219.962906 -0.000005 0.309483
0.461425 213.574219 -0.000003 0.296956
2.063642 210.016052 -0.000002 0.315480
3.086518 207.744476 -0.000002 0.298024
3.797456 206.165649 -0.000001 0.272496
4.321243 205.002441 -0.000001 0.280400
0.813900 213.076889 6.205020 0.166171
-4.244812 224.523926 8.328709 0.280964
-4.422251 224.925446 7.411623 0.222156
0.534667 213.708740 4.592645 0.236393
nan nan nan 0.000000
0.723437 213.281586 3.394837 0.127169
0.705514 213.322144 2.837884 0.560174
nan nan nan 0.000000
-2.155552 219.796280 1.605079 0.211337
-8.856358 234.959106 -0.000009 0.290730
-2.259850 220.032288 -0.000005 0.291234
0.572265 213.623672 -0.000004 0.259113
2.149604 210.054398 -0.000002 0.274495
3.156597 207.775742 -0.000001 0.249104
3.856496 206.191986 -0.000001 0.312016
4.372149 205.025146 -0.000001 0.239734
nan nan nan 0.000000
-4.029606 224.541840 8.313614 0.617838
0.893680 213.187500 5.067183 0.440223
-4.446862 225.504135 6.491815 0.223789
0.907095 213.156555 3.935329 0.491142
0.840663 213.309769 3.393099 0.373739
0.822958 213.350601 2.836851 0.203906
0.805319 213.391281 2.279477 0.258747
nan nan nan 0.000000
3.867874 206.328247 1.539170 0.258824
-2.103858 220.100571 -0.000005 0.291936
0.683449 213.672333 -0.000004 0.273884
2.235832 210.092148 -0.000002 0.314916
3.226894 207.806519 -0.000001 0.284230
3.915718 206.217911 -0.000001 0.274968
4.423212 205.047501 -0.000001 0.276081
nan nan nan 0.000000
-3.815417 224.559662 8.298897 0.262928
-3.991536 224.973740 7.388510 0.216358
nan nan nan 0.000000
0.669346 214.015594 4.036928 0.350912
0.957594 213.337891 3.391435 0.614206
0.940303 213.378540 2.835837 0.263935
3.833298 206.576859 2.157462 0.264805
3.767594 206.731339 1.839791 0.258824
3.914844 206.385132 1.537512 0.183505
-1.947387 220.167770 -0.000005 0.269306
0.794972 213.720230 -0.000004 0.286809
2.322321 210.129303 -0.000002 0.301656
3.297402 207.836792 -0.000002 0.309056
3.975120 206.243423 -0.000001 0.306691
4.474431 205.069504 -0.000001 0.282368
nan nan nan 0.000000
-4.231767 226.086716 8.637754 0.279377
1.051867 213.419617 5.094786 0.223499
1.449928 212.465302 4.369578 0.268360
1.538676 212.252533 3.811186 0.290898
1.074254 213.365952 3.389842 0.510506
nan nan nan 0.000000
nan nan nan 0.000000
nan nan nan 0.000000
-8.072910 235.295563 -0.000009 0.294606
-1.790458 220.233871 -0.000005 0.285908
0.906827 213.767334 -0.000003 0.291081
2.409068 210.165833 -0.000002 0.328084
3.368121 207.866577 -0.000001 0.335927
4.034698 206.268524 -0.000001 0.330312
4.525802 205.091141 -0.000001 0.306538
nan nan nan 0.000000
-4.004736 226.098389 8.621367 0.283268
nan nan nan 0.000000
1.529487 212.565384 4.378795 0.270344
1.611823 212.364044 3.819831 0.233097
1.190742 213.393723 3.388300 0.678462
nan nan nan 0.000000
4.255073 205.900421 2.144588 0.258824
3.898394 206.772614 1.839992 0.276432
4.011864 206.495148 1.534359 0.257786
-1.633068 220.298874 -0.000005 0.290883
1.019008 213.813675 -0.000003 0.299763
2.496068 210.201767 -0.000002 0.293004
3.439046 207.895874 -0.000001 0.308614
4.094449 206.293198 -0.000001 0.257343
4.577322 205.112411 -0.000001 0.284184
nan nan nan 0.000000
nan nan nan 0.000000
1.282494 213.482529 5.089496 0.285481
1.508165 212.919495 4.428671 0.352453
nan nan nan 0.000000
1.154864 213.800949 3.420355 0.323278
-3.844443 226.273743 3.511132 0.416602
4.313254 205.921066 2.144544 0.258824
3.963817 206.792877 1.840086 0.287556
4.060255 206.552277 1.532650 0.258824
-1.475227 220.362778 -0.000005 0.287449
1.131506 213.859222 -0.000003 0.267002
2.583318 210.237091 -0.000002 0.269184
3.510173 207.924683 -0.000002 0.261753
4.154373 206.317459 -0.000001 0.279454
4.628991 205.133331 -0.000000 0.304463
nan nan nan 0.000000
nan nan nan 0.000000
1.397494 213.513977 5.087097 0.208835
1.677489 212.801041 4.403075 0.291234
1.771614 212.561371 3.834063 0.711040
1.422781 213.449585 3.385474 0.842374
1.406815 213.490250 2.832241 0.480186
nan nan nan 0.000000
4.028884 206.813828 1.840160 0.258824
4.110490 206.606049 1.531105 0.290196
-1.316947 220.425583 -0.000005 0.282979
1.244321 213.903992 -0.000003 0.274220
2.670810 210.271805 -0.000002 0.302190
3.581500 207.952972 -0.000002 0.317189
4.214463 206.341309 -0.000001 0.296223
4.680802 205.153885 -0.000001 0.318547
nan nan nan 0.000000
nan nan nan 0.000000
1.512365 213.545258 5.084831 0.292470
1.842377 212.687424 4.378504 0.107713
1.933143 212.451477 3.815547 0.260838
nan nan nan 0.000000
1.522803 213.518127 2.831453 0.531182
nan nan nan 0.000000
4.375209 206.103500 1.853047 0.258824
-7.017687 235.718506 -0.000010 0.293751
-1.158230 220.487274 -0.000005 0.287327
1.357446 213.947968 -0.000003 0.281315
2.758543 210.305908 -0.000002 0.309407
3.653022 207.980774 -0.000002 0.294362
4.274719 206.364716 -0.000001 0.262684
4.732757 205.174088 -0.000001 0.254520
nan nan nan 0.000000
nan nan nan 0.000000
1.627053 213.576553 5.082728 0.321569
nan nan nan 0.000000
1.509251 213.889282 3.987480 0.234989
1.897783 212.857880 3.326206 0.262058
1.638640 213.545807 2.830700 0.525490
4.467927 206.035217 2.145369 0.258824
4.427538 206.142441 1.852757 0.258824
-6.752073 235.819641 -0.000010 0.290486
-0.999085 220.547867 -0.000005 0.294881
1.470874 213.991150 -0.000004 0.284947
2.846512 210.339401 -0.000002 0.300572
3.724738 208.008087 -0.000002 0.265446
4.335137 206.387726 -0.000001 0.265888
4.784852 205.193924 -0.000001 0.333425
nan nan nan 0.000000
nan nan nan 0.000000
nan nan nan 0.000000
nan nan nan 0.000000
1.573592 214.063400 4.003665 0.223529
-2.721766 225.711639 4.446083 0.223499
1.754269 213.573425 2.829988 0.351141
0.080980 218.111099 2.355607 0.235294
4.480060 206.181580 1.852457 0.282109
-6.485754 235.918915 -0.000010 0.294697
-0.839523 220.607330 -0.000005 0.292805
1.584604 214.033539 -0.000003 0.286793
2.934712 210.372284 -0.000003 0.330587
3.796640 208.034882 -0.000002 0.317510
4.395715 206.410309 -0.000001 0.295399
4.837083 205.213394 -0.000001 0.247623
2.240878 212.572403 5.954590 0.240375
nan nan nan 0.000000
nan nan nan 0.000000
nan nan nan 0.000000
2.010197 213.211685 3.894402 0.297551
2.052547 213.094315 3.340006 0.290196
1.853303 213.646469 2.831691 1.000000
0.264558 218.049316 2.353628 0.549020
4.526933 206.237122 1.851866 0.258183
-6.218749 236.016327 -0.000010 0.290959
-0.679550 220.665695 -0.000005 0.297154
1.698626 214.075134 -0.000003 0.271641
3.023141 210.404541 -0.000003 0.303349
3.868731 208.061172 -0.000002 0.292409
4.456448 206.432465 -0.000001 0.288853
4.889450 205.232483 -0.000001 0.276402
2.307659 212.714340 5.982451 0.254231
2.174214 213.092407 5.520411 0.968750
nan nan nan 0.000000
nan nan nan 0.000000
2.100624 213.300888 3.900570 0.247059
2.131153 213.214386 3.347112 0.450645
1.967539 213.677917 2.831260 0.624186
2.092709 213.323303 2.270735 0.290196
4.571566 206.300552 1.851134 0.258824
4.361571 206.895477 1.522088 0.298772
-0.519173 220.722931 -0.000005 0.301152
1.812934 214.115936 -0.000003 0.297978
3.111793 210.436172 -0.000003 0.278676
3.941002 208.086975 -0.000002 0.266361
4.517334 206.454193 -0.000001 0.254948
4.941948 205.251236 -0.000001 0.303258
2.406754 212.767426 5.986827 0.521965
2.260605 213.190872 5.534342 1.000000
1.790056 214.554214 5.240007 0.228717
2.080344 213.713150 4.509367 0.488075
4.205881 207.554718 3.196637 0.258824
1.960032 214.061737 3.417333 0.647059
0.702980 217.703857 3.038467 0.207446
2.243783 213.239609 2.268627 0.231571
4.616621 206.364670 1.850386 0.258824
4.547655 206.564484 1.540453 0.258824
-0.358399 220.779053 -0.000005 0.288060
1.927524 214.155930 -0.000004 0.307988
3.200662 210.467194 -0.000002 0.270787
4.013451 208.112259 -0.000002 0.317510
4.578370 206.475494 -0.000001 0.320241
4.994575 205.269608 -0.000001 0.253162
2.543487 212.709732 5.962088 0.183459
2.347689 213.290131 5.548557 0.890806
1.880063 214.676315 5.255744 0.203250
2.329573 213.343842 4.445579 0.274388
2.291571 213.456482 3.910325 0.562493
4.290777 207.530243 2.848756 0.261662
nan nan nan 0.000000
2.392540 213.157181 2.266565 0.234562
4.662115 206.429489 1.849623 0.258824
0.825815 217.801422 0.958946 0.224475
4.629822 206.525223 1.238214 0.258824
2.229106 213.641647 0.067194 0.525994
3.289746 210.497604 -0.000003 0.298634
4.086075 208.137039 -0.000002 0.285405
4.639554 206.496368 -0.000001 0.269551
5.047331 205.287598 -0.000001 0.261372
2.285440 213.845428 6.252406 0.097597
2.315313 213.754791 5.645973 0.240650
2.272445 213.884857 5.096542 0.176898
nan nan nan 0.000000
4.359776 207.551758 3.190655 0.258824
4.609492 206.794098 2.783228 0.258824
0.972273 217.829666 3.040094 0.981811
1.102360 217.434967 2.339650 0.219501
2.340539 213.678253 1.725078 0.561929
2.345055 213.664551 1.175351 0.563088
2.354873 213.634766 0.626189 0.558129
2.368226 213.594254 0.077429 0.548745
3.379042 210.527374 -0.000002 0.276616
4.158871 208.161316 -0.000002 0.243198
4.700881 206.516830 -0.000002 0.248661
5.100210 205.305237 -0.000001 0.318166
2.397676 213.883545 6.252777 0.231525
2.594384 213.272400 5.528241 0.247059
2.160437 214.620621 5.230149 0.277455
2.298559 214.191498 4.566440 0.423850
4.438672 207.542465 3.186827 0.258824
4.682351 206.785385 2.780699 0.258824
2.420842 213.811584 2.830363 0.578302
2.615297 213.207428 2.266204 0.798184
4.621943 206.973068 1.840969 0.258824
2.457365 213.698105 1.175493 0.583047
4.730978 206.634308 1.232315 0.246693
2.476216 213.639542 0.076324 0.533074
3.468540 210.556519 -0.000002 0.296605
4.231833 208.185089 -0.000002 0.251423
4.762351 206.536850 -0.000001 0.292775
5.153211 205.322495 -0.000001 0.269703
2.509939 213.921677 6.253355 0.192416
2.748455 213.162506 5.495538 0.185397
2.604922 213.619354 5.032019 0.273198
4.604368 207.255371 3.482286 0.258824
4.604295 207.255600 3.149603 0.258824
2.542235 213.818878 3.383474 0.526497
4.800269 206.631836 2.458805 0.258824
2.547670 213.801575 2.275805 0.564858
4.687922 206.989426 1.841041 0.258824
4.639702 207.142899 1.514878 0.345098
4.790324 206.663483 1.231510 0.258824
2.559135 213.765091 0.065450 0.520775
3.558243 210.585052 -0.000003 0.269368
4.304960 208.208344 -0.000002 0.278035
4.823958 206.556442 -0.000001 0.287434
5.206331 205.339386 -0.000001 0.298848
2.831787 213.276184 6.075039 0.180392
2.838293 213.254959 5.508857 0.223529
2.591589 214.059799 5.109279 0.286152
nan nan nan 0.000000
4.670650 207.277176 3.149711 0.258824
4.574302 207.591492 2.846413 0.258824
4.781236 206.916397 2.472434 0.424384
1.408062 217.920883 2.345712 0.282155
4.753842 207.005768 1.841105 0.258824
4.675282 207.262054 1.509805 0.223438
1.426270 217.861481 0.272822 0.253376
2.504514 214.343872 -0.000004 0.290608
3.648141 210.612961 -0.000003 0.303609
4.378249 208.231079 -0.000002 0.248112
4.885701 206.575607 -0.000001 0.280522
5.259568 205.355911 -0.000001 0.295048
2.949285 213.279678 6.067347 0.592157
3.415823 211.718857 5.155178 0.238117
3.067880 212.882904 4.879210 0.568826
2.783312 213.834946 4.494611 0.538994
4.737161 207.298279 3.149818 0.258824
4.670467 207.521408 2.838628 0.202213
4.797854 207.095230 2.480605 0.258824
4.829450 206.989532 2.158282 0.258824
4.896731 206.764435 1.845562 0.258824
4.773886 207.175415 1.515283 0.258824
4.962741 206.543594 1.245053 0.258824
2.620680 214.379028 -0.000004 0.265843
3.738232 210.640228 -0.000003 0.332540
4.451694 208.253326 -0.000002 0.308797
4.947576 206.594330 -0.000002 0.302434
5.312920 205.372070 -0.000001 0.264714
3.066376 213.283035 6.059854 0.240558
2.878186 213.929047 5.645882 0.536568
3.181505 212.887848 4.874220 0.260334
2.888703 213.892944 4.498437 0.538399
0.704159 221.391800 4.836176 0.259556
4.784201 207.386292 2.825362 0.258824
4.900614 206.986679 2.474062 0.166567
4.925579 206.900986 2.156447 0.258824
4.949345 206.819397 1.844943 0.258824
4.901821 206.982529 1.526150 0.515175
0.777431 221.140274 -0.000005 0.302083
2.737087 214.413391 -0.000004 0.286809
3.828511 210.666870 -0.000003 0.313863
4.525292 208.275040 -0.000002 0.269245
5.009581 206.612625 -0.000001 0.325414
5.366382 205.387833 -0.000001 0.268101
nan nan nan 0.000000
nan nan nan 0.000000
2.970540 214.035278 5.085483 0.218585
nan nan nan 0.000000
2.875054 214.371780 3.991018 0.279911
4.812549 207.543808 2.837134 0.258824
4.944041 207.080414 2.477898 0.261433
4.655129 208.098587 2.176505 0.258824
5.002845 206.873184 1.844339 0.258824
0.803925 221.670700 0.777029 0.549615
5.028818 206.781662 1.227826 0.258824
2.853734 214.446930 -0.000003 0.278859
3.918975 210.692871 -0.000002 0.303639
4.599040 208.296249 -0.000002 0.304631
5.071711 206.630493 -0.000002 0.254810
5.419953 205.403244 -0.000001 0.344671
3.038783 214.232849 6.290624 0.346532
nan nan nan 0.000000
nan nan nan 0.000000
3.268470 213.401337 4.412905 0.964858
4.937188 207.360291 3.150315 0.258824
3.180203 213.720886 3.360958 0.569360
5.028522 207.029648 2.474377 0.240620
5.092218 206.799057 2.154098 0.258824
4.690239 208.254288 1.821197 0.258824
-3.240122 236.963577 -0.000010 0.290028
4.787215 207.903214 1.133928 0.258824
2.970609 214.479645 -0.000004 0.269566
4.009617 210.718262 -0.000002 0.301289
4.672935 208.316940 -0.000002 0.258061
5.133965 206.647919 -0.000001 0.331106
5.473630 205.418274 -0.000001 0.233570
3.367862 213.469055 6.084363 0.230579
nan nan nan 0.000000
1.892743 218.958282 6.001155 0.232761
5.029918 207.284210 3.468736 0.258824
5.003900 207.381027 3.150599 0.258824
5.049613 207.210907 2.805647 0.258824
4.723497 208.424454 2.544430 0.258824
5.076504 207.110855 2.159088 0.258824
1.138050 221.766647 1.592577 0.442237
-2.965906 237.038300 -0.000010 0.295888
4.890497 207.803024 1.144081 0.258824
3.087711 214.511551 -0.000004 0.288701
4.100433 210.743011 -0.000003 0.302098
4.746971 208.337112 -0.000002 0.337697
5.196339 206.664917 -0.000001 0.261555
5.527412 205.432922 -0.000001 0.321767
nan nan nan 0.000000
nan nan nan 0.000000
5.021381 207.590332 3.855866 0.258824
5.084518 207.348679 3.475905 0.258824
3.508986 213.379211 3.861670 0.288380
5.321079 206.443207 2.739096 0.258824
2.303720 217.992523 3.029250 0.235569
5.104089 207.273773 2.161550 0.473167
5.124948 207.193924 1.839800 0.341436
5.004725 207.654099 1.495692 0.258824
4.889617 208.094681 1.120945 0.258824
5.103675 207.275345 0.864092 0.373342
4.191421 210.767120 -0.000003 0.286809
4.821147 208.356766 -0.000002 0.248722
5.258830 206.681473 -0.000001 0.297337
5.581294 205.447205 -0.000001 0.278172
3.471637 213.985596 6.202981 0.286732
nan nan nan 0.000000
5.191685 207.208801 3.780908 0.219394
2.200130 218.995209 5.255632 0.283650
5.164244 207.316925 3.138801 0.321569
5.383575 206.452774 2.738578 0.258824
nan nan nan 0.000000
2.437200 218.061172 2.343381 0.645350
5.100984 207.566162 1.833804 0.258824
5.079877 207.649307 1.496841 0.258824
1.598871 221.364105 -0.000005 0.300984
3.322569 214.572906 -0.000004 0.296574
5.177117 207.266205 0.539368 0.258824
4.895459 208.375900 -0.000002 0.290150
5.321435 206.697601 -0.000002 0.325719
5.635275 205.461105 -0.000001 0.303487
nan nan nan 0.000000
3.512941 214.307602 5.689271 0.638804
5.259757 207.218140 3.779551 0.258824
3.768845 213.269012 4.375149 0.214145
3.790591 213.180756 3.831570 0.989197
nan nan nan 0.000000
5.203004 207.448471 2.492120 0.244968
5.211187 207.415253 2.163363 0.220188
5.250090 207.257370 1.839298 0.258824
5.215969 207.395859 1.510543 0.309712
5.218275 207.386490 1.183860 0.354162
5.220438 207.377716 0.855983 0.358938
5.222923 207.367630 0.526420 0.402426
5.227095 207.350693 0.195608 0.418067
5.384151 206.713287 -0.000002 0.299229
5.689350 205.474640 -0.000001 0.264546
3.703965 214.021347 6.197753 0.244053
5.269568 207.470810 4.164833 0.258824
5.274330 207.450882 3.820081 0.258824
5.292263 207.375854 3.472339 0.258824
5.407706 206.892838 3.084728 0.258824
5.508435 206.471375 2.737610 0.258824
5.411963 206.875031 2.462322 0.392035
5.289433 207.387695 2.162622 0.280568
4.996220 208.614517 1.816736 0.258824
5.277490 207.437668 1.509259 0.332784
5.279330 207.429962 1.181576 0.426184
5.280841 207.423645 0.852487 0.232898
5.282763 207.415604 0.521599 0.434516
5.288307 207.392410 0.190861 0.333150
5.446974 206.728531 -0.000002 0.308568
5.743520 205.487778 -0.000001 0.260395
3.778957 214.216064 6.240926 0.282445
nan nan nan 0.000000
2.654595 219.070068 5.987252 0.223529
4.030947 213.128189 4.345793 0.242908
5.593951 206.380508 3.022448 0.258824
5.570809 206.480408 2.737159 0.258824
5.477108 206.884933 2.462062 0.258824
1.337109 224.757828 2.454125 0.258824
5.061352 208.679794 1.815940 0.255787
5.347848 207.442963 1.509798 0.258824
5.512205 206.733414 1.241546 0.258824
3.676405 214.658783 -0.000004 0.272541
4.556991 210.857193 -0.000003 0.334829
5.119169 208.430191 -0.000002 0.257862
5.509905 206.743347 -0.000002 0.258701
5.797780 205.500549 -0.000001 0.314519
3.943523 214.022415 6.184472 1.000000
4.109844 213.280884 5.443874 0.248203
3.955986 213.966858 5.029280 0.406973
5.415144 207.461227 3.480562 0.283421
5.415266 207.460678 3.148174 0.267475
5.632228 206.493362 2.737075 0.247059
5.542173 206.894867 2.461828 0.258824
5.451175 207.300583 2.160637 0.258824
5.402945 207.515610 1.835757 0.482353
-1.310239 237.446228 -0.000010 0.287144
5.308241 207.937851 1.141541 0.251011
3.794740 214.685760 -0.000004 0.297810
4.648765 210.878113 -0.000003 0.286519
5.193986 208.447250 -0.000002 0.266697
5.572935 206.757706 -0.000002 0.272358
5.852128 205.512939 -0.000001 0.291798
4.312450 212.872086 5.883183 0.223529
3.885192 214.841278 5.783429 0.299443
4.038137 214.136368 5.056180 0.681529
4.213750 213.326981 4.368633 0.248234
5.591784 206.975723 3.089319 0.258824
5.505254 207.374542 2.809874 0.258824
5.483821 207.473328 2.490196 0.258824
5.521515 207.299591 2.160373 0.258824
5.482820 207.477936 1.836641 0.447578
5.240288 208.595749 1.453380 0.258824
5.630422 206.797653 1.238528 0.258824
3.913261 214.711914 -0.000004 0.289570
4.740683 210.898392 -0.000003 0.259648
5.268920 208.463791 -0.000002 0.295399
5.636065 206.771637 -0.000001 0.260761
5.906561 205.524948 -0.000001 0.257801
nan nan nan 0.000000
3.107716 219.145309 6.727593 0.505699
4.098894 214.418015 5.103993 0.257755
5.554685 207.474808 3.478143 0.258824
5.653636 207.002869 3.090889 0.258824
5.558640 207.455948 2.815489 0.258824
5.599951 207.258911 2.478704 0.258824
5.591528 207.299088 2.160126 0.264317
5.517694 207.651230 1.833987 0.258824
5.461567 207.918915 1.488167 0.404486
2.594161 221.594650 -0.000006 0.294835
4.031962 214.737228 -0.000004 0.280125
4.832740 210.918030 -0.000003 0.290578
5.343968 208.479797 -0.000002 0.273686
5.699291 206.785126 -0.000002 0.267918
5.961076 205.536575 -0.000001 0.280629
4.496412 213.054276 5.918395 0.229465
nan nan nan 0.000000
3.261001 219.158279 5.979541 0.333913
5.650308 207.353043 3.457589 0.163790
5.715673 207.030075 3.092514 0.220401
5.603816 207.582748 2.824924 0.258824
5.619493 207.505295 2.490365 0.327581
5.585865 207.671432 2.166112 0.258824
5.328326 208.943909 1.812643 0.258824
-0.476365 237.624115 -0.000010 0.295659
2.760942 221.629013 -0.000006 0.293751
4.150835 214.761734 -0.000004 0.279011
4.924932 210.937027 -0.000003 0.299092
5.419125 208.495285 -0.000002 0.272480
5.762609 206.798172 -0.000001 0.259113
6.015671 205.547821 -0.000001 0.295018
4.591157 213.138962 5.934572 0.252476
nan nan nan 0.000000
4.619144 212.995529 4.831522 0.373983
4.631871 212.930313 4.298482 0.287678
5.728559 207.310211 3.123833 0.313848
5.663006 207.646133 2.829077 0.258824
5.652835 207.698257 2.499344 0.258824
nan nan nan 0.000000
5.442612 208.775574 1.815709 0.258824
5.631701 207.806564 1.495235 0.258824
2.927959 221.662216 -0.000006 0.301885
4.269877 214.785385 -0.000004 0.294652
5.017253 210.955368 -0.000003 0.261250
5.494389 208.510239 -0.000002 0.310491
5.826015 206.810776 -0.000002 0.252262
6.070343 205.558685 -0.000001 0.248936
4.722396 213.034332 5.902647 0.242161
nan nan nan 0.000000
3.563555 219.201691 5.976748 0.437354
3.557506 219.233887 5.246820 0.299550
5.793517 207.333817 3.125095 0.298619
5.702306 207.819244 2.842411 0.258824
5.732387 207.659149 2.496721 0.258824
5.731323 207.664810 2.165550 0.295811
5.786754 207.369797 1.839362 0.258824
0.081541 237.733002 -0.000010 0.295644
3.095206 221.694244 -0.000006 0.303243
4.389083 214.808228 -0.000004 0.312123
5.109703 210.973083 -0.000003 0.292729
5.569756 208.524673 -0.000002 0.291966
5.889510 206.822937 -0.000001 0.314427
6.125091 205.569183 -0.000001 0.289357
4.773584 213.362762 5.981231 0.264302
nan nan nan 0.000000
3.714574 219.223999 5.975760 0.259068
5.864088 207.327240 3.447865 0.258824
5.864444 207.325256 3.122649 0.258824
5.760957 207.898026 2.847892 0.258824
3.676196 219.436401 3.084030 0.316152
5.862366 207.336761 2.159882 0.369757
nan nan nan 0.000000
5.792561 207.723099 1.500724 0.258824
3.262671 221.725098 -0.000006 0.300343
4.508444 214.830215 -0.000004 0.284337
5.202271 210.990143 -0.000003 0.254276
5.645221 208.538574 -0.000002 0.262043
5.953087 206.834656 -0.000002 0.280262
6.179909 205.579285 -0.000002 0.223362
3.862388 219.264374 7.476670 0.368383
3.864013 219.255005 6.720138 0.619837
3.865232 219.247986 5.975279 0.420172
5.934726 207.318710 3.444793 0.258824
3.845752 219.360275 4.526457 0.331121
5.820379 207.977844 2.853487 0.258824
5.892389 207.562759 2.490664 0.258824
5.874112 207.668106 2.165187 0.249454
5.852275 207.793991 1.832722 0.258824
5.818706 207.987488 1.488159 0.258824
3.430351 221.754791 -0.000006 0.300633
4.627956 214.851379 -0.000004 0.283085
5.294958 211.006546 -0.000003 0.313359
5.720782 208.551956 -0.000002 0.262928
6.016746 206.845917 -0.000001 0.269963
6.234797 205.588989 -0.000001 0.235996
nan nan nan 0.000000
nan nan nan 0.000000
4.013900 219.283752 5.977166 0.316793
4.004546 219.339996 5.250759 0.505821
nan nan nan 0.000000
5.966771 207.540512 2.816125 0.258824
nan nan nan 0.000000
5.996961 207.358978 2.159863 0.258824
5.991177 207.393753 1.839559 0.258824
5.881817 208.051376 1.485584 0.374624
3.598231 221.783310 -0.000006 0.302083
4.747612 214.871704 -0.000004 0.289143
5.387756 211.022308 -0.000003 0.315053
5.796433 208.564819 -0.000002 0.298222
6.080480 206.856750 -0.000002 0.306844
6.289752 205.598328 -0.000001 0.295140
nan nan nan 0.000000
nan nan nan 0.000000
4.162712 219.319595 5.979252 0.476066
4.153744 219.375946 5.252467 0.313741
4.144875 219.431671 4.528916 0.556939
6.034883 207.554657 2.816372 0.288167
6.069798 207.335251 2.478208 0.258824
6.041993 207.509964 2.162184 0.258824
5.945406 208.116928 1.827759 0.258824
1.201641 237.927307 -0.000010 0.285786
3.766305 221.810654 -0.000006 0.289693
4.867408 214.891205 -0.000004 0.311238
5.480663 211.037430 -0.000003 0.287297
5.872174 208.577133 -0.000002 0.323095
6.144288 206.867126 -0.000001 0.270054
6.344769 205.607285 -0.000002 0.306416
nan nan nan 0.000000
nan nan nan 0.000000
nan nan nan 0.000000
4.303214 219.411224 5.254230 0.487922
6.108550 207.532532 3.141566 0.258824
6.103040 207.568787 2.816658 0.258824
6.136884 207.346100 2.478228 0.258824
6.131628 207.380692 2.159868 0.258824
6.007924 208.194626 1.826660 0.258824
1.482480 237.971008 -0.000010 0.292302
3.934568 221.836838 -0.000006 0.311437
4.987337 214.909851 -0.000004 0.265736
5.573672 211.051910 -0.000003 0.274723
5.947998 208.588928 -0.000002 0.304982
6.208168 206.877075 -0.000001 0.275929
6.399849 205.615860 -0.000001 0.310933
4.505668 219.081909 7.406202 0.363989
4.485783 219.219208 6.691393 0.264469
4.463881 219.370407 5.980159 0.328969
4.421166 219.665298 5.288942 0.610254
4.371867 220.005661 4.590275 0.259129
4.436505 219.559402 3.809246 0.747356
6.203979 207.356964 2.478273 0.258824
6.072896 208.261948 2.174274 0.247059
6.041212 208.480698 1.822109 0.258824
1.763615 238.012726 -0.000010 0.292134
4.103008 221.861832 -0.000006 0.299290
5.107393 214.927673 -0.000004 0.287160
5.666780 211.065720 -0.000003 0.284642
6.023902 208.600189 -0.000002 0.314672
6.272115 206.886566 -0.000002 0.309041
6.454987 205.624039 -0.000002 0.367987
4.813988 217.947601 7.114062 0.238880
4.795305 218.083252 6.439112 0.252308
4.776577 218.219238 5.764795 0.250217
nan nan nan 0.000000
6.244529 207.560684 3.142529 0.258824
4.318203 221.547409 3.972009 0.278431
6.271087 207.367859 2.478341 0.246281
6.136975 208.341614 2.175418 0.235798
nan nan nan 0.000000
2.045038 238.052490 -0.000010 0.295872
4.271620 221.885651 -0.000006 0.290669
5.227571 214.944656 -0.000004 0.274357
5.759984 211.078888 -0.000003 0.311299
6.099884 208.610931 -0.000002 0.294667
6.336127 206.895599 -0.000002 0.266163
6.510180 205.631836 -0.000001 0.281468
nan nan nan 0.000000
nan nan nan 0.000000
nan nan nan 0.000000
nan nan nan 0.000000
6.312659 207.574417 3.143053 0.258824
6.342707 207.344376 2.795688 0.258824
6.338181 207.379028 2.478447 0.501793
6.201845 208.422806 2.176594 0.258824
nan nan nan 0.000000
2.326735 238.090286 -0.000010 0.293172
4.440396 221.908295 -0.000006 0.284962
5.347865 214.960785 -0.000004 0.272496
5.853277 211.091400 -0.000003 0.286854
6.175940 208.621124 -0.000002 0.277592
6.400202 206.904205 -0.000002 0.304707
6.565428 205.639252 -0.000001 0.251575
nan nan nan 0.000000
nan nan nan 0.000000
4.909822 219.497040 5.992208 0.226230
4.902765 219.554169 5.263102 0.285863
4.895785 219.610672 4.537222 0.635920
6.409629 207.355225 2.795879 0.258824
6.269133 208.492630 2.533146 0.258824
4.874775 219.780777 2.363710 0.192157
nan nan nan 0.000000
2.608684 238.126114 -0.000010 0.290608
4.609323 221.929764 -0.000006 0.283528
5.468268 214.976089 -0.000004 0.267628
5.946655 211.103271 -0.000003 0.341466
6.252064 208.630798 -0.000002 0.297658
6.464334 206.912354 -0.000002 0.315999
6.620726 205.646271 -0.000001 0.307424
nan nan nan 0.000000
nan nan nan 0.000000
nan nan nan 0.000000
nan nan nan 0.000000
5.165028 218.629669 4.421480 0.278706
nan nan nan 0.000000
6.335768 208.575409 2.536794 0.258824
nan nan nan 0.000000
nan nan nan 0.000000
2.890875 238.159973 -0.000011 0.294316
4.778396 221.950043 -0.000005 0.299367
5.588776 214.990540 -0.000003 0.282185
6.040112 211.114487 -0.000003 0.292454
6.328253 208.639954 -0.000002 0.278386
6.528522 206.920059 -0.000002 0.275319
6.676070 205.652908 -0.000001 0.273579
nan nan nan 0.000000
nan nan nan 0.000000
nan nan nan 0.000000
5.223599 219.445709 5.241617 0.253193
5.292553 218.815262 4.441050 0.265568
6.543584 207.376938 2.796377 0.258824
5.185267 219.796204 3.090900 0.588144
6.382385 208.850800 2.183196 0.258824
nan nan nan 0.000000
3.173298 238.191864 -0.000010 0.285603
4.947607 221.969147 -0.000005 0.281987
5.709380 215.004166 -0.000004 0.276921
6.133647 211.125046 -0.000003 0.304677
6.404505 208.648560 -0.000002 0.319509
6.592762 206.927307 -0.000002 0.255344
6.731460 205.659164 -0.000002 0.274464
nan nan nan 0.000000
nan nan nan 0.000000
nan nan nan 0.000000
nan nan nan 0.000000
5.424507 218.980972 4.458409 0.386709
6.610631 207.387802 2.796684 0.258824
5.390629 219.312103 3.066187 0.268147
nan nan nan 0.000000
nan nan nan 0.000000
3.455935 238.221771 -0.000010 0.292027
5.116945 221.987076 -0.000006 0.280751
5.830076 215.016937 -0.000004 0.280613
6.227252 211.134949 -0.000003 0.281010
6.480815 208.656631 -0.000002 0.311009
6.657050 206.934113 -0.000002 0.282750
6.786892 205.665039 -0.000001 0.290974
nan nan nan 0.000000
nan nan nan 0.000000
nan nan nan 0.000000
nan nan nan 0.000000
5.576797 218.955505 4.453773 0.244633
5.579496 218.927185 3.746593 0.212741
5.498903 219.773178 3.088206 0.279942
nan nan nan 0.000000
nan nan nan 0.000000
3.738775 238.249710 -0.000010 0.292134
5.286407 222.003815 -0.000006 0.299947
5.950860 215.028870 -0.000004 0.289830
6.320924 211.144211 -0.000003 0.308232
6.557179 208.664185 -0.000002 0.258152
6.721385 206.940460 -0.000002 0.293568
6.842364 205.670517 -0.000001 0.287800
nan nan nan 0.000000
nan nan nan 0.000000
nan nan nan 0.000000
nan nan nan 0.000000
nan nan nan 0.000000
5.599601 220.391449 3.866005 0.251804
5.634308 219.998047 3.098600 0.239170
5.637425 219.962708 2.365358 0.254963
nan nan nan 0.000000
4.021807 238.275665 -0.000010 0.296315
5.455981 222.019379 -0.000006 0.301625
6.071724 215.039963 -0.000004 0.277836
6.414660 211.152802 -0.000003 0.314672
6.633595 208.671188 -0.000002 0.316701
6.785763 206.946381 -0.000002 0.301625
6.897873 205.675613 -0.000001 0.254093
5.689577 221.246490 7.911956 0.203922
nan nan nan 0.000000
nan nan nan 0.000000
nan nan nan 0.000000
5.789069 220.021088 4.573740 0.593225
nan nan nan 0.000000
5.787503 220.040390 3.100038 0.247333
5.807787 219.790543 2.362315 0.249165
nan nan nan 0.000000
4.305008 238.299652 -0.000010 0.294652
5.625660 222.033737 -0.000006 0.312398
6.192662 215.050201 -0.000004 0.276905
6.508452 211.160751 -0.000003 0.306142
6.710057 208.677658 -0.000002 0.286381
6.850180 206.951828 -0.000002 0.269657
6.953416 205.680313 -0.000002 0.216602
5.927049 220.272354 7.664074 1.000000
nan nan nan 0.000000
6.001061 219.274460 5.932365 0.258824
nan nan nan 0.000000
5.950328 219.958481 4.565122 0.203922
5.920730 220.357559 3.861104 0.223117
nan nan nan 0.000000
5.944578 220.036026 2.366147 0.192157
nan nan nan 0.000000
4.588369 238.321686 -0.000010 0.299474
5.795433 222.046936 -0.000006 0.301457
6.313668 215.059601 -0.000004 0.297932
6.602297 211.168030 -0.000003 0.302815
6.786562 208.683609 -0.000002 0.320684
6.914633 206.956833 -0.000002 0.339391
7.008990 205.684631 -0.000002 0.350378
6.120286 219.750854 7.530356 0.992172
nan nan nan 0.000000
6.157261 219.200241 5.916892 0.833112
nan nan nan 0.000000
nan nan nan 0.000000
nan nan nan 0.000000
nan nan nan 0.000000
6.398642 215.605682 2.293306 0.218952
6.383588 215.829849 1.703018 0.438849
6.102021 220.022842 0.901964 0.529519
6.105654 219.968765 0.171765 0.572229
6.434737 215.068161 -0.000004 0.294789
6.696191 211.174683 -0.000003 0.274922
6.863107 208.689026 -0.000002 0.308843
6.979120 206.961395 -0.000002 0.279622
7.064593 205.688553 -0.000002 0.293782
6.280259 219.658447 7.504710 0.245319
6.218527 220.684860 6.968456 0.183764
6.312254 219.126450 5.901699 0.258824
6.274084 219.761124 5.275095 0.289906
nan nan nan 0.000000
6.261544 219.969604 3.827491 0.521080
6.235099 220.409332 3.116568 0.550896
6.255972 220.062271 2.366234 0.558251
6.257611 220.035019 1.634212 0.561028
6.258431 220.021378 0.902524 0.554437
6.261599 219.968704 0.172582 0.535607
6.555864 215.075867 -0.000004 0.308766
6.790130 211.180649 -0.000003 0.304204
6.939689 208.693893 -0.000002 0.309895
7.043638 206.965500 -0.000002 0.272587
7.120223 205.692108 -0.000002 0.262409
6.438770 219.566681 7.479515 0.197864
6.397139 220.350143 6.894095 1.000000
6.454155 219.277161 5.927620 0.284001
6.419646 219.926575 5.298379 0.422736
6.405134 220.199677 4.589491 0.274495
6.410579 220.097198 3.837246 0.728557
6.408995 220.127029 3.102238 0.586404
6.651934 215.555206 2.292232 0.254658
6.639941 215.780884 1.704070 0.374289
5.439283 238.375824 -0.000010 0.294743
6.305250 222.079376 -0.000006 0.300801
6.677040 215.082733 -0.000004 0.269291
6.884108 211.185974 -0.000003 0.292683
7.016302 208.698227 -0.000002 0.311635
7.108182 206.969147 -0.000002 0.295018
7.175875 205.695251 -0.000002 0.253697
6.520988 221.098190 7.861650 0.230854
6.552924 220.406036 6.904486 0.684749
6.551834 220.429672 6.136188 0.600259
6.577652 219.870102 5.288849 0.210864
nan nan nan 0.000000
6.563823 220.169830 3.842570 0.549798
6.794572 215.168747 2.858013 0.226032
nan nan nan 0.000000
6.801813 215.011810 1.716771 0.321569
5.723152 238.389923 -0.000010 0.283742
6.475327 222.087814 -0.000005 0.294743
6.798263 215.088745 -0.000004 0.308598
6.978121 211.190643 -0.000003 0.294499
7.092944 208.702042 -0.000002 0.279942
7.172751 206.972366 -0.000002 0.280125
7.231549 205.698013 -0.000002 0.248783
6.724842 220.067169 7.601449 0.505577
6.778201 218.704086 6.535156 0.243549
6.737330 219.748138 6.010854 0.258564
6.719012 220.216110 5.339233 0.572305
6.719297 220.208817 4.588875 0.587747
6.679699 221.220367 3.928228 0.278798
6.728879 219.964050 3.093516 0.290196
6.921245 215.049942 2.283769 0.290196
nan nan nan 0.000000
6.007110 238.402039 -0.000010 0.293126
6.645458 222.095078 -0.000006 0.299306
6.919524 215.093933 -0.000004 0.295659
7.072164 211.194656 -0.000003 0.279301
7.169611 208.705307 -0.000002 0.263935
7.237340 206.975113 -0.000001 0.274006
7.287240 205.700394 -0.000002 0.311437
6.850965 221.002502 7.834465 0.235767
6.925154 218.695282 6.532125 0.244968
6.864590 220.578751 6.161068 0.263203
6.933418 218.438278 5.074550 0.249104
nan nan nan 0.000000
6.888184 219.845001 3.814916 0.290196
7.038440 215.172211 2.857715 0.278431
nan nan nan 0.000000
7.039703 215.132935 1.714942 0.258824
6.291148 238.412170 -0.000011 0.290715
6.815637 222.101135 -0.000006 0.299977
7.040818 215.098251 -0.000004 0.341619
7.166233 211.198013 -0.000003 0.287770
7.246299 208.708038 -0.000002 0.252766
7.301948 206.977417 -0.000001 0.300999
7.342947 205.702377 -0.000002 0.257908
nan nan nan 0.000000
7.071922 218.686279 6.529275 0.253162
7.045808 219.723846 6.004631 0.225360
7.037103 220.069733 5.316017 0.565835
7.155446 215.367676 4.030609 0.233295
7.043044 219.833679 3.813625 0.239307
7.159003 215.226364 2.860204 1.000000
nan nan nan 0.000000
7.159815 215.194077 1.713998 0.272801
7.151058 215.542007 1.124284 0.644114
6.985852 222.106033 -0.000006 0.291676
7.162140 215.101715 -0.000004 0.282399
7.260322 211.200699 -0.000003 0.291096
7.323003 208.710236 -0.000002 0.332570
7.366569 206.979263 -0.000002 0.283131
7.398666 205.703979 -0.000001 0.255497
nan nan nan 0.000000
7.218517 218.677094 6.526607 0.237140
7.199711 219.711319 6.001745 0.197024
7.223619 218.396561 5.067281 0.679667
7.280531 215.266678 4.018681 0.280400
7.281774 215.198349 3.433212 0.290196
7.280274 215.280823 2.862750 0.582849
7.272768 215.693619 2.294134 0.271656
7.280732 215.255646 1.713034 0.425788
7.276213 215.504150 1.126277 0.355947
7.275866 215.523239 0.540144 0.258824
7.283483 215.104355 -0.000004 0.305623
7.354429 211.202744 -0.000003 0.284566
7.399722 208.711899 -0.000002 0.249134
7.431202 206.980667 -0.000002 0.277958
7.454395 205.705185 -0.000002 0.259739
nan nan nan 0.000000
nan nan nan 0.000000
nan nan nan 0.000000
7.402511 215.314163 4.609708 1.000000
7.354496 219.600800 4.517106 0.247059
7.402833 215.285370 3.440201 0.736233
7.402986 215.271744 2.862215 0.199054
7.402209 215.341110 2.288335 0.290196
7.404933 215.097885 1.715645 0.379126
7.401953 215.363998 1.133252 0.287739
7.326366 222.112228 -0.000006 0.297276
7.404841 215.106140 -0.000004 0.292073
7.448547 211.204132 -0.000003 0.299306
7.476449 208.713028 -0.000002 0.291829
7.495843 206.981613 -0.000002 0.306767
7.510131 205.705994 -0.000002 0.291966
nan nan nan 0.000000
nan nan nan 0.000000
7.504103 220.346329 6.116665 0.880980
7.524607 215.486618 4.635148 0.230426
7.526373 215.067963 3.995504 0.233219
7.526308 215.083359 3.423559 0.250355
7.526220 215.104172 2.853936 0.231250
7.530122 214.179352 2.269309 0.265949
7.524874 215.423294 1.710336 0.247379
7.525344 215.311783 1.135864 0.194217
7.524883 215.421158 0.548742 0.447517
7.526208 215.107071 -0.000004 0.310338
7.542672 211.204849 -0.000003 0.273259
7.553183 208.713623 -0.000002 0.302647
7.560489 206.982117 -0.000002 0.308751
7.565871 205.706436 -0.000002 0.295888
nan nan nan 0.000000
nan nan nan 0.000000
7.662074 220.355118 6.118243 0.902342
7.647698 215.150528 4.585281 0.197513
7.648397 215.403534 4.034100 0.561151
7.648394 215.402466 3.449718 0.526314
7.648394 215.402542 2.868590 0.560784
7.645029 214.184372 2.269389 0.248295
7.646042 214.550903 1.724613 0.996216
7.648175 215.323090 1.135312 0.319112
7.648284 215.362839 0.553532 0.577890
7.647578 215.107162 -0.000004 0.282490
7.636800 211.204926 -0.000003 0.289479
7.629919 208.713669 -0.000002 0.298604
7.625136 206.982162 -0.000001 0.252689
7.621612 205.706467 -0.000002 0.381384
nan nan nan 0.000000
nan nan nan 0.000000
nan nan nan 0.000000
nan nan nan 0.000000
7.774675 215.694199 4.067627 0.290196
7.775987 215.828781 3.484738 0.964965
7.769840 215.197983 2.858578 0.258824
7.768363 215.046310 2.283506 0.228519
