# This PCD file was generated using the MATLABÂ® pcwrite function
# from Computer Vision ToolboxÂ®.
# .PCD v.7 - Point Cloud Data file format
VERSION .7
FIELDS x y z intensity
SIZE 4 4 4 4
TYPE F F F F
COUNT 1 1 1 1
WIDTH 1332
HEIGHT 1
VIEWPOINT 0 0 0 1 0 0 0
POINTS 1332
DATA ascii
88.208542 184.994080 -0.000005 0.241917
nan nan nan 0.000000
nan nan nan 0.000000
nan nan nan 0.000000
85.394485 194.752838 4.690890 0.257877
85.538437 194.263733 4.028245 0.565682
85.581596 194.117096 3.433098 0.290196
85.244049 195.263977 2.917362 1.000000
87.471710 187.695023 2.176458 0.258824
87.418442 187.876022 1.820454 0.258824
79.021759 216.405502 -0.000028 0.293187
83.629478 200.749817 -0.000016 0.306966
85.607727 194.028305 -0.000012 0.290074
86.709503 190.284790 -0.000009 0.292165
87.412895 187.894882 -0.000007 0.314916
87.901772 186.233795 -0.000006 0.288670
88.261955 185.009995 -0.000005 0.279179
nan nan nan 0.000000
nan nan nan 0.000000
nan nan nan 0.000000
nan nan nan 0.000000
85.640404 194.354675 4.035019 0.525490
85.546303 194.682846 3.478453 0.210788
85.516739 194.785965 2.891073 0.485725
85.667542 194.260025 2.287859 0.199039
87.491455 187.899292 1.820422 0.258824
84.337547 198.898285 0.898760 0.266667
83.793007 200.797318 -0.000017 0.295048
85.724281 194.062164 -0.000011 0.281209
86.799896 190.311050 -0.000009 0.291585
87.486580 187.916290 -0.000007 0.272206
87.963852 186.251846 -0.000006 0.316075
88.315483 185.025558 -0.000006 0.271626
85.951843 193.698441 6.251594 0.244663
85.895233 193.901215 5.711354 1.000000
nan nan nan 0.000000
nan nan nan 0.000000
nan nan nan 0.000000
85.772057 194.342361 3.446549 0.217868
83.481949 202.544617 3.285051 0.315908
87.821335 187.002686 2.163990 0.258824
87.564659 187.921997 1.820391 0.254139
87.666443 187.557434 1.479382 0.258824
83.956856 200.843689 -0.000017 0.276112
85.841064 194.095215 -0.000012 0.283467
86.890472 190.336670 -0.000009 0.285069
87.560417 187.937180 -0.000007 0.316625
88.026062 186.269440 -0.000006 0.317327
88.369125 185.040726 -0.000005 0.287938
86.091011 193.638184 6.227782 0.214572
85.976921 194.058105 5.739334 0.258549
nan nan nan 0.000000
nan nan nan 0.000000
85.958771 194.124893 3.999709 0.314824
85.791245 194.741501 3.477684 0.203647
84.673691 198.854797 3.094741 0.242283
87.887566 187.025757 2.164067 0.258824
87.637932 187.944550 1.820353 0.258824
87.724190 187.627075 1.476837 0.258824
84.121033 200.888901 -0.000016 0.292302
85.958084 194.127441 -0.000012 0.316564
86.981216 190.361679 -0.000009 0.303029
87.634399 187.957550 -0.000007 0.260853
88.088387 186.286606 -0.000006 0.276570
88.422859 185.055527 -0.000005 0.305150
85.864769 194.955719 6.561234 0.371817
86.083237 194.128860 5.748155 0.530449
85.987450 194.491425 5.225943 0.293599
85.858238 194.980469 4.704916 0.270436
84.813225 198.935669 4.568397 0.290196
84.822830 198.899338 3.827543 0.362997
84.765717 199.115479 3.105941 0.265156
85.134964 197.717941 2.344730 0.277058
87.711060 187.967804 1.820295 0.258824
85.910851 194.781326 1.114288 0.535546
85.920517 194.744751 0.524802 0.545525
86.075317 194.158844 -0.000011 0.293324
87.072136 190.386032 -0.000009 0.308064
87.708519 187.977417 -0.000007 0.268589
88.150833 186.303345 -0.000006 0.263645
88.476707 185.069962 -0.000005 0.287373
nan nan nan 0.000000
86.222450 194.073837 5.729075 0.261524
86.086357 194.603882 5.241209 0.255039
85.810287 195.679108 4.806996 0.198413
86.063667 194.692261 4.059731 0.238468
85.021553 198.751038 3.811671 0.280552
84.950699 199.027008 3.099445 0.557900
88.010536 187.109695 2.164881 0.274159
87.976936 187.240570 1.832908 0.258824
87.739128 188.166763 1.451390 0.258824
86.041695 194.777832 0.524681 0.529427
86.192772 194.189453 -0.000012 0.290700
87.163231 190.409760 -0.000009 0.289387
87.782784 187.996765 -0.000007 0.277409
88.213394 186.319641 -0.000006 0.309209
88.530647 185.084015 -0.000005 0.338308
nan nan nan 0.000000
86.344566 194.082306 5.724380 0.242206
86.157814 194.831345 5.278143 0.256413
85.907547 195.835083 4.825888 0.278431
86.139130 194.906250 4.081469 0.225177
86.130280 194.941757 3.486567 0.544274
86.143974 194.886841 2.887884 0.585641
86.135109 194.922409 2.296350 0.556008
88.039040 187.286163 1.832434 0.223529
87.814812 188.185471 1.451411 0.258824
84.615387 201.017670 -0.000016 0.299489
86.310432 194.219223 -0.000011 0.310094
87.254478 190.432846 -0.000009 0.277974
87.857170 188.015579 -0.000007 0.261341
88.276062 186.335495 -0.000006 0.275593
88.584686 185.097687 -0.000005 0.275563
86.501770 193.944489 6.276513 0.267994
85.864731 196.577698 6.272497 0.279744
86.312408 194.727203 5.253029 0.205142
nan nan nan 0.000000
86.291084 194.815338 4.067141 0.185046
87.782738 188.649582 2.953208 0.258824
85.224457 199.224274 3.105594 0.276112
84.361511 202.791245 2.428321 0.549142
88.096512 187.352600 1.831603 0.247059
87.964455 187.898468 1.466857 0.325154
84.780754 201.058289 -0.000016 0.296330
86.428299 194.248169 -0.000012 0.292485
87.345886 190.455307 -0.000009 0.261692
87.931694 188.033890 -0.000007 0.318090
88.338844 186.350922 -0.000006 0.287343
88.638817 185.110977 -0.000005 0.282429
86.620346 193.960907 6.273631 0.236210
86.367386 195.039413 5.924142 0.538430
86.738884 193.455521 5.009954 0.342702
86.390289 194.941757 4.680247 0.567361
86.440979 194.725647 4.053107 0.247059
87.866455 188.648087 2.951498 0.258824
85.362823 199.322372 3.108708 0.265751
84.660713 202.315826 2.419619 0.310842
88.151566 187.432495 1.830540 0.297856
88.092079 187.686127 1.478457 0.258824
84.946411 201.097763 -0.000016 0.293523
86.546371 194.276306 -0.000012 0.306477
87.437454 190.477127 -0.000009 0.297261
88.006340 188.051666 -0.000007 0.312123
88.401733 186.365906 -0.000006 0.332006
88.693047 185.123901 -0.000005 0.252155
86.549187 194.811737 6.485303 0.291768
86.459801 195.205154 5.954534 1.000000
86.859467 193.446030 5.003337 0.277363
86.516487 194.955643 4.678043 0.519036
87.956703 188.616531 3.329094 0.258824
87.949867 188.646606 2.949841 0.258824
86.600197 194.587204 2.868370 0.256153
84.638535 203.221497 2.434142 0.247608
88.207771 187.511444 1.829488 0.258824
88.088333 188.037155 1.461613 0.412634
85.112328 201.136078 -0.000017 0.299825
86.664627 194.303604 -0.000012 0.265949
87.529175 190.498291 -0.000009 0.274998
88.081108 188.068939 -0.000008 0.281559
88.464729 186.380447 -0.000006 0.296223
88.747360 185.136444 -0.000005 0.325429
86.671257 194.838654 6.485212 0.228794
86.672546 194.832794 5.866023 0.228214
86.654938 194.912903 5.271935 0.493767
86.629555 195.028336 4.684909 0.548928
86.419731 195.982681 4.194670 0.224170
88.032990 188.645142 2.948237 0.258824
84.835182 203.189636 3.299720 0.396307
82.863312 212.158203 2.583196 0.258824
88.264252 187.593307 1.828382 0.258824
82.918297 211.908127 0.261738 0.452216
85.278519 201.173218 -0.000017 0.304921
86.783081 194.330078 -0.000012 0.300008
87.621033 190.518829 -0.000009 0.326085
88.155998 188.085678 -0.000007 0.286717
88.527817 186.394547 -0.000006 0.351400
88.801758 185.148590 -0.000005 0.288396
86.926910 194.237167 6.324415 0.290196
nan nan nan 0.000000
86.721123 195.205322 5.321396 0.266178
86.933899 194.204300 4.555894 0.264790
88.175354 188.363693 3.295283 0.264927
86.828873 194.698395 3.454234 0.302419
88.122139 188.614044 2.565710 0.333394
86.669464 195.448349 2.302770 0.310445
88.231003 188.101883 1.820133 0.258824
88.269951 187.918655 1.469215 0.258824
85.444962 201.209198 -0.000017 0.308614
86.901711 194.355728 -0.000012 0.306096
87.713036 190.538727 -0.000009 0.264302
88.231003 188.101898 -0.000007 0.293065
88.591003 186.408203 -0.000006 0.251362
88.856239 185.160370 -0.000005 0.256001
87.044518 194.263611 6.324876 0.225803
86.873116 195.098633 5.913177 0.424308
86.871269 195.107635 5.298409 0.290196
87.039391 194.288589 4.564933 0.257954
88.250580 188.388153 3.296268 0.244663
88.236351 188.457443 2.929716 0.258824
88.331978 187.991608 2.533670 0.258824
86.043907 199.138214 2.363968 0.631891
88.305527 188.120453 1.820085 0.258824
84.564812 206.343811 0.545946 0.273411
88.244286 188.418793 1.073520 0.258824
87.020515 194.380554 -0.000012 0.290394
87.805176 190.557968 -0.000009 0.282826
88.306114 188.117584 -0.000008 0.316014
88.654289 186.421432 -0.000006 0.287175
88.910805 185.171783 -0.000005 0.279393
nan nan nan 0.000000
87.007256 195.072372 5.901894 0.535790
87.084953 194.679993 5.214447 0.250507
87.145103 194.376205 4.574573 0.200977
88.325912 188.412659 3.297319 0.269001
88.326859 188.407883 2.924265 0.258824
88.396362 188.056900 2.536188 0.258824
88.390602 188.085983 2.179087 0.224445
84.917473 205.626572 1.528308 0.259968
88.344925 188.316635 1.450803 0.483635
88.321609 188.434402 1.073518 0.258824
87.139488 194.404541 -0.000012 0.285283
87.897446 190.576569 -0.000009 0.291295
88.381340 188.132751 -0.000007 0.290349
88.717659 186.434204 -0.000006 0.281300
88.965446 185.182800 -0.000005 0.254398
87.128593 195.109406 6.528615 0.236515
nan nan nan 0.000000
87.051590 195.513046 5.364401 0.584131
nan nan nan 0.000000
88.401382 188.437195 3.298433 0.202213
88.402496 188.431366 2.924972 0.258824
88.369415 188.604797 2.562863 0.258824
88.487457 187.985992 2.177178 0.258824
88.500824 187.915924 1.823989 0.258824
82.887726 217.340790 -0.000029 0.294850
88.491417 187.965210 1.113939 0.258824
87.258636 194.427704 -0.000012 0.287343
87.989845 190.594528 -0.000009 0.279576
88.456665 188.147400 -0.000007 0.271855
88.781120 186.446533 -0.000006 0.275212
89.020164 185.193436 -0.000005 0.305699
87.255608 195.116531 6.524517 0.234989
87.189270 195.477982 5.980579 0.333028
87.152908 195.676086 5.390170 0.978698
87.361122 194.541641 4.592675 0.209552
87.405762 194.298416 3.982280 0.211429
88.478249 188.454895 2.925725 0.258824
85.249451 206.047226 3.433333 0.294942
88.570229 187.953705 2.176410 0.258824
88.565186 187.981201 1.823132 0.258824
83.167099 217.393066 -0.000029 0.291936
88.572601 187.940811 1.117131 0.258824
87.377937 194.450027 -0.000012 0.265080
88.082367 190.611847 -0.000009 0.276951
88.532089 188.161514 -0.000007 0.307454
88.844666 186.458435 -0.000006 0.264225
89.074951 185.203690 -0.000005 0.239292
nan nan nan 0.000000
87.359390 195.254150 5.926494 0.274510
87.255257 195.844727 5.417071 0.981064
86.485321 200.211212 5.443397 0.246418
88.552902 188.485413 3.300743 0.258824
88.554138 188.478394 2.926520 0.258824
84.580467 211.014191 3.679308 0.258824
88.658058 187.889008 2.175113 0.258824
85.388306 206.432739 1.516757 0.191394
88.594040 188.252106 1.456171 0.410986
88.654594 187.908676 1.120914 0.258824
87.497391 194.471527 -0.000012 0.289982
88.175011 190.628510 -0.000009 0.269123
88.607613 188.175095 -0.000007 0.281971
88.908295 186.469879 -0.000006 0.293019
89.129814 185.213547 -0.000005 0.340703
87.508987 195.130692 6.516990 0.211200
87.656792 194.256836 5.703303 1.000000
87.360542 196.008377 5.443153 0.219730
87.659485 194.240921 4.541059 0.268421
88.585907 188.763596 3.331632 0.258824
86.629349 200.331467 3.911104 0.505882
84.505157 212.890442 3.770768 0.258824
88.673607 188.245087 2.180812 0.258824
88.607635 188.635101 1.812715 0.239612
83.726898 217.491776 -0.000029 0.287572
88.580780 188.793869 1.048361 0.258824
87.616989 194.492172 -0.000012 0.282445
88.267769 190.644547 -0.000009 0.312459
88.683235 188.188156 -0.000007 0.291402
88.972000 186.480881 -0.000006 0.269963
89.184746 185.223038 -0.000005 0.253712
87.629837 195.171997 6.522254 0.256550
87.761299 194.360306 5.721664 0.368551
86.804665 200.266754 6.224113 0.492348
88.687477 188.641907 3.696765 0.258824
88.736092 188.341736 3.280930 0.267521
86.001343 205.226608 4.315506 0.316854
nan nan nan 0.000000
88.700584 188.560989 2.185840 0.278813
88.734978 188.348633 1.817680 0.406546
88.683304 188.667664 1.436772 0.258824
86.616508 201.428467 -0.000017 0.290349
87.736732 194.511993 -0.000012 0.284932
88.360634 190.659912 -0.000009 0.288502
88.758942 188.200684 -0.000007 0.278065
89.035774 186.491440 -0.000006 0.250828
89.239738 185.232147 -0.000005 0.268574
87.761574 195.144852 6.510373 0.265324
87.889664 194.317459 5.708188 0.203922
87.821091 194.760422 5.205599 0.266972
87.914764 194.155319 4.522470 0.439582
86.956146 200.347610 4.677131 0.507301
86.946999 200.406723 3.913030 0.191516
88.886543 187.877991 2.523348 0.258824
88.781425 188.557037 2.185569 0.423041
88.787521 188.517639 1.815083 0.435080
88.789154 188.507095 1.445377 0.292393
88.790634 188.497513 1.075100 0.450980
88.792168 188.487640 0.703501 0.361776
88.793846 188.476807 0.329892 0.389731
88.834732 188.212692 -0.000008 0.270069
89.099632 186.501556 -0.000006 0.308782
89.294792 185.240860 -0.000005 0.292683
nan nan nan 0.000000
88.019745 194.257050 5.691086 0.257710
87.887871 195.150101 5.273889 0.235386
88.001450 194.380936 4.553638 0.665095
87.114830 200.385132 4.678668 0.683909
88.919807 188.161835 2.896101 0.258824
88.960121 187.888840 2.523335 0.258824
88.870560 188.495361 2.184353 0.276722
85.437431 211.744446 1.431075 0.258824
88.858482 188.577103 1.442486 0.340444
88.862068 188.552841 1.071491 0.342657
88.863960 188.540024 0.698777 0.555810
88.865829 188.527405 0.324069 0.439887
88.910606 188.224167 -0.000007 0.256062
89.163551 186.511230 -0.000007 0.264927
89.349907 185.249207 -0.000005 0.244343
nan nan nan 0.000000
nan nan nan 0.000000
88.026917 195.063293 5.254644 0.384009
88.956238 188.450836 3.662777 0.258824
89.035362 187.887817 3.224146 0.258824
88.992317 188.194107 2.897872 0.258824
89.033699 187.899643 2.523345 0.258824
88.933678 188.611374 2.186085 0.461677
88.935173 188.600708 1.814091 0.308690
88.941788 188.553650 1.444210 0.258824
89.012337 188.051682 1.113920 0.258824
88.096741 194.566452 -0.000012 0.289464
88.639839 190.702133 -0.000009 0.302831
88.986557 188.235123 -0.000008 0.271305
89.227539 186.520447 -0.000006 0.280705
89.405083 185.257156 -0.000005 0.312230
87.443649 200.378891 7.819462 0.578531
nan nan nan 0.000000
88.152771 195.064240 5.251708 0.240314
86.778557 205.363495 6.192178 0.390127
89.081200 188.105988 3.248298 0.258824
89.167603 187.458420 2.836156 0.258824
89.107323 187.910233 2.523369 0.258824
89.041161 188.406097 2.182518 0.258824
89.005096 188.676392 1.813020 0.252155
89.021370 188.554413 1.444704 0.258824
89.095131 188.001587 1.118911 0.258824
88.216995 194.582916 -0.000012 0.280278
88.733093 190.714920 -0.000009 0.270466
89.062584 188.245529 -0.000008 0.267628
89.291588 186.529221 -0.000006 0.344610
89.460304 185.264725 -0.000005 0.318425
nan nan nan 0.000000
nan nan nan 0.000000
nan nan nan 0.000000
87.599525 200.439102 5.452106 0.572137
89.175888 187.960876 3.230340 0.258824
89.237289 187.474854 2.836757 0.258824
89.180931 187.920959 2.523426 0.258824
89.119743 188.405304 2.182339 0.258824
89.076790 188.745316 1.812052 0.258824
89.100784 188.555420 1.445157 0.258824
87.459198 201.549896 -0.000017 0.293324
88.337357 194.598557 -0.000012 0.286809
88.826439 190.727036 -0.000009 0.265309
89.138680 188.255417 -0.000007 0.255634
89.355698 186.537552 -0.000007 0.254994
89.515587 185.271896 -0.000005 0.257969
nan nan nan 0.000000
nan nan nan 0.000000
nan nan nan 0.000000
89.176041 188.590164 3.679074 0.258824
87.751526 200.536545 4.686249 0.590951
89.190887 188.465637 2.917855 0.258824
89.202744 188.366241 2.545008 0.258824
89.198021 188.405823 2.182192 0.258824
89.014275 189.946793 1.792413 0.240223
89.088585 189.323578 1.407627 0.258824
87.628212 201.570633 -0.000017 0.290974
88.457825 194.613342 -0.000012 0.314061
88.919868 190.738510 -0.000009 0.275624
89.214844 188.264771 -0.000008 0.274968
89.419861 186.545425 -0.000006 0.272419
89.570915 185.278687 -0.000005 0.261006
nan nan nan 0.000000
87.855309 201.073715 7.155879 0.617761
87.924873 200.453522 6.230119 0.161273
87.364601 205.448471 6.194094 0.623026
nan nan nan 0.000000
89.270607 188.456024 2.916321 0.258824
89.222267 188.887024 2.570313 0.258824
nan nan nan 0.000000
89.077583 190.176865 1.788792 0.258824
89.217133 188.932770 1.427425 0.258824
87.797371 201.590210 -0.000017 0.298405
88.578392 194.627289 -0.000012 0.281605
89.013374 190.749329 -0.000009 0.261402
89.291069 188.273590 -0.000008 0.346471
89.484085 186.552856 -0.000007 0.276219
89.626282 185.285095 -0.000005 0.333669
88.136116 199.996353 7.703765 0.206989
88.128166 200.072006 6.934431 0.237461
88.115471 200.192810 6.179214 0.308797
88.095589 200.381958 5.435229 0.419226
88.065132 200.671753 4.697685 0.281102
89.314308 188.786591 2.942880 0.258824
89.308151 188.845184 2.567813 0.258824
nan nan nan 0.000000
89.309464 188.832687 1.811070 0.258824
89.291405 189.004501 1.424317 0.258824
87.966660 201.608612 -0.000017 0.293263
88.699051 194.640396 -0.000012 0.274586
89.106949 190.759491 -0.000010 0.310536
89.367355 188.281876 -0.000008 0.252720
89.548355 186.559830 -0.000006 0.365820
89.681702 185.291122 -0.000005 0.307042
88.386559 199.071198 7.466869 0.243900
nan nan nan 0.000000
88.367638 199.264221 6.006477 0.203555
88.349525 199.448929 5.293727 0.343389
89.433311 188.395569 3.276740 0.258824
89.353081 189.213898 2.977417 0.258824
89.408119 188.652542 2.557902 0.258824
89.428650 188.443146 2.182391 0.384787
89.303780 189.716690 1.796668 0.258824
89.366501 189.077011 1.421145 0.258824
88.136078 201.625824 -0.000018 0.304326
88.819801 194.652664 -0.000012 0.288823
89.200600 190.769012 -0.000010 0.283894
89.443703 188.289627 -0.000008 0.291264
89.612671 186.566376 -0.000006 0.367666
89.737160 185.296753 -0.000005 0.286152
nan nan nan 0.000000
nan nan nan 0.000000
nan nan nan 0.000000
nan nan nan 0.000000
87.944946 205.604858 5.263848 0.457847
89.446014 189.110870 2.968290 0.244068
89.514183 188.361862 2.543194 0.258824
89.468033 188.868958 2.189268 0.258824
89.444473 189.127808 1.806479 0.306783
89.442429 189.150345 1.417910 0.258824
88.305611 201.641846 -0.000018 0.300374
88.940636 194.664093 -0.000012 0.295628
89.294312 190.777863 -0.000009 0.319097
89.520096 188.296844 -0.000008 0.287510
89.677032 186.572449 -0.000006 0.233219
89.792648 185.302002 -0.000005 0.319661
nan nan nan 0.000000
88.145340 205.585464 8.119654 0.290196
nan nan nan 0.000000
nan nan nan 0.000000
nan nan nan 0.000000
88.548195 200.787979 3.928536 0.631998
89.586067 188.428314 2.546139 0.258824
89.582726 188.468124 2.182570 0.258824
89.579361 188.508102 1.816773 0.258824
87.109657 217.919128 -0.000029 0.291585
88.475250 201.656677 -0.000017 0.287770
89.061546 194.674667 -0.000013 0.292103
89.388077 190.786072 -0.000010 0.283635
89.596542 188.303543 -0.000008 0.362005
89.741432 186.578094 -0.000006 0.307134
89.848183 185.306854 -0.000006 0.299657
nan nan nan 0.000000
88.337212 205.670212 8.134577 0.335958
88.333023 205.724701 7.178143 0.218204
88.323166 205.852768 6.240426 0.354360
88.306625 206.067734 5.313430 0.293187
89.646141 188.659195 2.930010 0.222431
89.662971 188.440475 2.546431 0.258824
89.659874 188.480652 2.182673 0.258824
89.577553 189.550598 1.799767 0.258824
87.392952 217.941940 -0.000030 0.292973
88.644989 201.670334 -0.000017 0.291676
89.182526 194.684402 -0.000013 0.287755
89.481903 190.793610 -0.000009 0.260838
89.673035 188.309692 -0.000008 0.257923
89.805870 186.583267 -0.000006 0.335576
89.903740 185.311325 -0.000006 0.322805
nan nan nan 0.000000
nan nan nan 0.000000
88.601265 204.736679 6.995273 0.467918
88.592918 204.856049 6.090041 0.237156
88.933601 199.984070 4.610153 0.544442
89.724388 188.675339 2.930860 0.258824
89.705086 188.951340 2.571310 0.258824
89.673828 189.398315 2.197633 0.266667
nan nan nan 0.000000
87.676414 217.962753 -0.000030 0.289387
88.814812 201.682816 -0.000017 0.299214
89.303574 194.693298 -0.000012 0.297337
89.575783 190.800522 -0.000010 0.261921
89.749565 188.315308 -0.000008 0.312444
89.870346 186.588013 -0.000006 0.345602
89.959335 185.315414 -0.000006 0.244541
nan nan nan 0.000000
nan nan nan 0.000000
nan nan nan 0.000000
88.844292 203.926300 5.949957 0.293263
89.101723 199.834579 4.591713 0.222797
89.802780 188.691498 2.931757 0.258824
89.782890 189.007660 2.573817 0.223529
89.752182 189.495834 2.199140 0.258824
nan nan nan 0.000000
87.960007 217.981598 -0.000030 0.295369
88.984726 201.694107 -0.000017 0.281514
89.424675 194.701340 -0.000013 0.285542
89.669701 190.806747 -0.000009 0.265919
89.826134 188.320404 -0.000008 0.278950
89.934853 186.592285 -0.000006 0.262928
90.014954 185.319107 -0.000006 0.295827
89.112892 202.452225 8.297502 0.247089
nan nan nan 0.000000
nan nan nan 0.000000
nan nan nan 0.000000
89.189560 201.080948 4.734245 0.490608
89.253601 199.935471 3.854763 0.209476
89.858940 189.108185 2.578525 0.258824
89.831734 189.594864 2.200680 0.258824
nan nan nan 0.000000
88.243729 217.998444 -0.000030 0.283650
89.154716 201.704193 -0.000017 0.280262
89.545830 194.708527 -0.000012 0.286961
89.763664 190.812332 -0.000009 0.293645
89.902733 188.324951 -0.000008 0.303487
89.999390 186.596130 -0.000006 0.271366
90.070602 185.322403 -0.000006 0.342092
89.293510 202.352203 8.270115 0.208469
89.308441 202.046921 7.340315 0.318791
nan nan nan 0.000000
nan nan nan 0.000000
89.130257 205.690231 5.264132 0.284123
89.336342 201.476547 3.980596 0.304616
89.971458 188.490616 2.547938 0.258824
89.362793 200.935669 2.386409 0.579660
nan nan nan 0.000000
88.527557 218.013321 -0.000030 0.295796
89.324768 201.713104 -0.000017 0.298283
89.667038 194.714890 -0.000012 0.277104
89.857666 190.817261 -0.000009 0.320439
89.979362 188.328964 -0.000008 0.277928
90.063950 186.599503 -0.000006 0.264607
90.126266 185.325317 -0.000006 0.321035
nan nan nan 0.000000
nan nan nan 0.000000
nan nan nan 0.000000
89.519943 201.122772 5.529396 0.235294
nan nan nan 0.000000
89.534416 200.777466 3.922596 0.234043
90.048866 188.503189 2.548383 0.258824
89.519066 201.143799 2.389695 0.192157
nan nan nan 0.000000
88.811485 218.026215 -0.000030 0.292332
89.494881 201.720825 -0.000017 0.279164
89.788284 194.720398 -0.000012 0.308293
89.951698 190.821533 -0.000010 0.318105
90.056023 188.332443 -0.000008 0.342138
90.128525 186.602432 -0.000006 0.287160
90.181946 185.327850 -0.000006 0.249027
nan nan nan 0.000000
89.681328 201.260925 7.167330 0.258824
89.720299 200.144974 6.150143 0.247059
89.683762 201.191437 5.538640 0.283650
89.679222 201.321304 4.759313 0.246418
89.695969 200.841827 3.927362 0.248508
89.674583 201.454132 3.184863 0.571237
89.508751 206.202988 2.472430 0.596201
89.826958 197.090637 1.676775 0.238422
89.686058 201.125519 0.831291 0.521630
89.688019 201.069336 0.053971 0.560555
89.909569 194.725052 -0.000013 0.276646
90.045753 190.825150 -0.000009 0.322179
90.132698 188.335388 -0.000008 0.311009
90.193130 186.604919 -0.000006 0.286320
90.237648 185.329987 -0.000006 0.357519
nan nan nan 0.000000
89.851128 201.164032 7.145261 0.243076
89.881775 200.066986 6.135038 0.468711
89.858795 200.889648 5.493081 1.000000
nan nan nan 0.000000
nan nan nan 0.000000
89.851105 201.165054 3.170395 0.568063
89.850929 201.171173 2.389953 0.563256
89.974213 196.757568 1.682299 0.222614
89.851967 201.133972 0.831132 0.544442
89.853561 201.076950 0.053774 0.524330
90.030884 194.728867 -0.000012 0.282307
90.139839 190.828094 -0.000009 0.278676
90.209396 188.337799 -0.000008 0.315114
90.257744 186.606949 -0.000006 0.358801
90.293365 185.331741 -0.000005 0.292424
90.003761 201.818970 8.130404 0.290196
90.006538 201.686493 7.257248 0.215686
90.015862 201.241409 6.348072 0.287083
90.025894 200.762512 5.473623 0.236133
nan nan nan 0.000000
nan nan nan 0.000000
90.016609 201.205566 3.172187 0.246357
90.125694 195.997864 2.305213 0.215686
nan nan nan 0.000000
89.663712 218.052994 -0.000030 0.288930
90.005486 201.736877 -0.000018 0.277134
90.152214 194.731827 -0.000013 0.278172
90.233940 190.830399 -0.000010 0.304250
90.286110 188.339676 -0.000008 0.305486
90.322372 186.608536 -0.000006 0.309270
90.349091 185.333099 -0.000006 0.324193
90.185799 201.019592 7.929406 0.209277
90.178108 201.570358 7.231524 0.289326
90.179733 201.454193 6.386264 0.525490
90.191147 200.636627 5.454523 0.201419
90.181892 201.299286 4.755368 0.603662
90.182037 201.289307 3.963071 0.563363
90.183632 201.175018 3.170543 0.247868
90.246613 196.664505 2.316085 0.205844
90.243660 196.876038 1.680453 0.253330
90.113068 206.228439 0.581174 0.550835
90.175743 201.739853 -0.000017 0.278599
90.273567 194.733948 -0.000013 0.295827
90.328056 190.832047 -0.000009 0.280247
90.362839 188.341019 -0.000008 0.298878
90.387016 186.609665 -0.000006 0.290028
90.404823 185.334076 -0.000005 0.279255
90.351006 201.027100 7.930852 0.565393
90.346451 201.679932 7.254805 0.979904
90.347404 201.543167 6.402132 0.249653
90.348007 201.456604 5.575906 0.146227
90.353203 200.712967 4.687714 0.292851
90.344467 201.964157 4.018263 0.205554
90.350861 201.048492 3.164241 0.231342
90.313660 206.377274 2.475005 0.584680
nan nan nan 0.000000
90.232086 218.060928 -0.000030 0.283818
90.346016 201.741638 -0.000017 0.288640
90.394936 194.735214 -0.000012 0.275532
90.422180 190.833023 -0.000010 0.327306
90.439568 188.341812 -0.000008 0.354055
90.451660 186.610336 -0.000006 0.313451
90.460564 185.334656 -0.000006 0.294377
90.516304 202.095840 8.198413 0.266621
90.516304 200.802536 7.065178 0.554910
90.516304 200.431351 6.199723 0.218433
90.516304 206.632889 6.343648 0.636942
90.516304 206.308746 5.331390 0.543801
90.516304 202.806870 4.087313 0.256779
90.516304 201.543167 3.188514 0.204913
90.516304 205.553070 2.461506 0.262913
nan nan nan 0.000000
90.516304 218.061920 -0.000030 0.298924
90.516304 201.742233 -0.000018 0.290013
90.516304 194.735641 -0.000013 0.282628
90.516304 190.833359 -0.000010 0.285649
90.516304 188.342087 -0.000008 0.300801
90.516304 186.610565 -0.000006 0.312963
90.516304 185.334854 -0.000005 0.272740
nan nan nan 0.000000
90.682800 201.198441 7.150810 0.275639
90.721100 206.684906 7.337725 0.245365
90.685631 201.604172 5.597796 0.215686
90.677315 200.413254 4.653233 0.251606
nan nan nan 0.000000
90.726509 207.459595 3.479206 0.288289
90.688210 201.973740 2.402945 0.548592
90.648315 196.259598 1.690564 0.243915
90.651199 196.671921 1.050771 0.225162
90.686592 201.741638 -0.000017 0.282490
90.637672 194.735214 -0.000012 0.278172
90.610435 190.833023 -0.000010 0.268498
90.593040 188.341812 -0.000008 0.330190
90.580956 186.610336 -0.000006 0.282979
90.572044 185.334656 -0.000006 0.365606
90.860870 202.026215 8.181577 0.290196
90.853157 201.474121 7.210735 0.413367
90.842331 200.698608 6.248766 0.258824
90.820396 199.127899 5.230703 0.258824
90.781471 196.340439 4.184842 0.185412
90.787621 196.780548 3.593338 0.267094
90.781677 196.354858 2.933720 0.560784
nan nan nan 0.000000
90.781288 196.327286 1.689433 0.333333
90.783112 196.457764 1.061223 0.237842
90.856865 201.739853 -0.000017 0.291752
90.759041 194.733948 -0.000013 0.295811
90.704559 190.832047 -0.000009 0.295995
90.669769 188.341019 -0.000008 0.246693
90.645599 186.609665 -0.000006 0.311894
90.627785 185.334076 -0.000005 0.299779
nan nan nan 0.000000
91.027527 201.755829 7.272228 0.286717
91.021065 201.447479 6.385578 0.239551
91.043159 202.501953 5.731702 0.278065
91.004799 200.670639 4.683367 0.494118
90.912491 196.264069 3.551174 0.230762
90.911674 196.224960 2.927452 0.993530
90.924339 196.829590 2.318826 0.250156
90.918274 196.540070 1.685913 0.348074
90.919502 196.598770 1.054180 0.241352
91.027130 201.736877 -0.000018 0.292927
90.880394 194.731827 -0.000013 0.275364
90.798668 190.830399 -0.000010 0.319799
90.746498 188.339676 -0.000008 0.288151
90.710236 186.608536 -0.000006 0.283467
90.683517 185.333099 -0.000006 0.274784
nan nan nan 0.000000
nan nan nan 0.000000
91.180252 201.120178 6.326748 0.209003
91.173828 200.889999 5.493134 0.533211
91.048225 196.393494 4.191587 0.262577
91.051147 196.498062 3.570632 0.224811
91.161308 200.441986 3.134859 0.263111
91.064049 196.960037 2.321015 0.209506
91.050201 196.464188 1.687101 0.223987
91.051636 196.515503 1.058111 0.287236
91.049080 196.424088 0.435436 0.322240
91.001732 194.728867 -0.000012 0.280064
90.892769 190.828094 -0.000009 0.317449
90.823212 188.337799 -0.000008 0.265827
90.774864 186.606949 -0.000006 0.298085
90.739243 185.331741 -0.000005 0.359930
nan nan nan 0.000000
nan nan nan 0.000000
91.357574 201.441208 6.386146 0.245838
91.177788 196.292831 4.811558 0.269978
91.190216 196.648636 4.221437 0.560174
91.185966 196.526962 3.573348 0.546700
91.185570 196.515686 2.942105 0.568093
91.142197 195.273621 2.293473 0.294224
91.184799 196.493561 1.686552 0.528939
91.184441 196.483261 1.059490 0.551720
91.183754 196.463730 0.431839 0.515297
91.123039 194.725052 -0.000013 0.313268
90.986855 190.825150 -0.000009 0.277577
90.899910 188.335388 -0.000008 0.291463
90.839478 186.604919 -0.000006 0.308568
90.794960 185.329987 -0.000006 0.327840
nan nan nan 0.000000
nan nan nan 0.000000
nan nan nan 0.000000
91.496674 200.741196 5.472744 0.275792
91.325401 196.654907 4.222754 0.306859
91.291260 195.840179 3.517407 0.264515
91.322472 196.584976 2.945764 0.216052
91.267738 195.279129 2.293642 0.270680
91.309975 196.286865 1.689853 0.206851
91.312813 196.354584 1.065564 0.288106
91.537727 201.720825 -0.000017 0.298375
91.244324 194.720398 -0.000012 0.291691
91.080910 190.821533 -0.000010 0.332967
90.976585 188.332443 -0.000008 0.274449
90.904083 186.602432 -0.000006 0.326482
90.850662 185.327850 -0.000006 0.338445
nan nan nan 0.000000
nan nan nan 0.000000
nan nan nan 0.000000
92.229279 212.374664 7.201571 0.258824
91.441429 196.265900 4.178655 0.290196
91.423645 195.902267 3.522985 0.208011
91.463242 196.711975 2.952311 0.647059
91.456490 196.573898 2.314948 0.245686
91.443016 196.298355 1.689567 0.270253
92.505058 218.013321 -0.000030 0.298817
91.707840 201.713104 -0.000017 0.283879
91.365570 194.714890 -0.000012 0.280507
91.174942 190.817261 -0.000009 0.269139
91.053246 188.328964 -0.000008 0.334417
90.968658 186.599503 -0.000006 0.301854
90.906342 185.325317 -0.000006 0.298711
nan nan nan 0.000000
nan nan nan 0.000000
nan nan nan 0.000000
92.449615 211.930206 7.137444 0.258824
91.803963 200.381805 4.653690 0.239673
91.557419 195.972076 3.529276 0.297673
91.596237 196.666351 2.950413 0.258824
92.467270 212.245941 2.571920 0.258824
91.583679 196.441742 1.687103 0.169482
91.591454 196.580872 1.053792 0.989731
91.877892 201.704193 -0.000017 0.288563
91.486778 194.708527 -0.000012 0.269215
91.268944 190.812332 -0.000009 0.293324
91.129875 188.324951 -0.000008 0.305089
91.033218 186.596130 -0.000006 0.322332
90.962006 185.322403 -0.000006 0.238224
nan nan nan 0.000000
nan nan nan 0.000000
92.725006 212.456635 8.400427 0.258824
92.722214 212.412231 7.211215 0.258824
91.968475 200.432007 4.660577 0.274357
91.692543 196.046204 3.536000 0.197467
91.726379 196.583908 2.946750 0.889021
92.592186 210.345612 2.540998 0.258824
91.728691 196.620773 1.684037 0.990890
91.726822 196.590942 1.052903 0.970031
92.047882 201.694107 -0.000017 0.297398
91.607933 194.701340 -0.000012 0.312795
91.362907 190.806747 -0.000010 0.320851
91.206482 188.320404 -0.000008 0.326406
91.097755 186.592285 -0.000006 0.307103
91.017654 185.319107 -0.000006 0.310292
nan nan nan 0.000000
nan nan nan 0.000000
nan nan nan 0.000000
92.940872 212.023270 7.155795 0.179965
92.954063 212.211990 6.020298 0.404639
nan nan nan 0.000000
nan nan nan 0.000000
91.865097 196.639038 2.316409 0.253223
92.850471 210.730469 1.452437 0.258824
93.356201 217.962753 -0.000030 0.294209
92.217796 201.682800 -0.000017 0.289067
91.729042 194.693298 -0.000013 0.286183
91.456825 190.800507 -0.000010 0.286946
91.283051 188.315308 -0.000008 0.294575
91.162262 186.588013 -0.000006 0.320790
91.073273 185.315414 -0.000006 0.357198
nan nan nan 0.000000
nan nan nan 0.000000
nan nan nan 0.000000
93.153313 211.621353 7.098644 0.301549
93.238899 212.733582 6.082540 0.258824
nan nan nan 0.000000
nan nan nan 0.000000
92.001961 196.658173 2.316885 0.275364
nan nan nan 0.000000
93.639656 217.941940 -0.000030 0.283757
92.387627 201.670334 -0.000017 0.288899
91.850082 194.684402 -0.000013 0.276280
91.550705 190.793610 -0.000010 0.292927
91.359581 188.309692 -0.000008 0.306111
91.226738 186.583267 -0.000006 0.267796
91.128868 185.311325 -0.000006 0.312139
nan nan nan 0.000000
nan nan nan 0.000000
nan nan nan 0.000000
93.386238 211.527435 7.087530 0.258824
93.412712 211.842789 5.981997 0.258824
nan nan nan 0.000000
93.524651 213.175827 3.766185 0.480323
91.717476 191.654709 2.234899 0.258824
91.707901 191.540756 1.766973 0.254139
93.922958 217.919128 -0.000029 0.296773
92.557365 201.656677 -0.000017 0.296910
91.971069 194.674667 -0.000013 0.273228
91.644531 190.786072 -0.000010 0.267964
91.436066 188.303543 -0.000008 0.342138
91.291176 186.578094 -0.000006 0.293767
91.184425 185.306854 -0.000006 0.295628
nan nan nan 0.000000
nan nan nan 0.000000
nan nan nan 0.000000
nan nan nan 0.000000
93.627319 211.534698 5.948840 0.258824
nan nan nan 0.000000
93.634048 211.608551 3.689950 0.258824
92.276947 196.696564 2.317888 0.187655
91.845657 191.957520 1.759982 0.258824
94.206100 217.894348 -0.000029 0.285100
92.727005 201.641846 -0.000018 0.293141
92.091980 194.664093 -0.000012 0.308171
91.738304 190.777863 -0.000009 0.302739
91.512512 188.296844 -0.000008 0.290181
91.355576 186.572449 -0.000007 0.268406
91.239960 185.302002 -0.000005 0.285985
nan nan nan 0.000000
nan nan nan 0.000000
nan nan nan 0.000000
nan nan nan 0.000000
nan nan nan 0.000000
nan nan nan 0.000000
nan nan nan 0.000000
92.409912 196.662903 2.317544 0.200610
91.951828 191.990967 1.759274 0.258824
94.489059 217.867615 -0.000029 0.293294
92.896530 201.625824 -0.000018 0.297200
92.212807 194.652664 -0.000012 0.272129
91.832016 190.769012 -0.000010 0.273365
91.588905 188.289627 -0.000008 0.261936
91.419937 186.566376 -0.000006 0.269780
91.295456 185.296753 -0.000005 0.321752
nan nan nan 0.000000
nan nan nan 0.000000
nan nan nan 0.000000
nan nan nan 0.000000
94.269844 213.062943 6.131028 0.258824
nan nan nan 0.000000
94.094521 211.394836 3.681708 0.258824
nan nan nan 0.000000
92.058632 192.024673 1.758548 0.258824
94.771820 217.838898 -0.000029 0.290517
93.065948 201.608612 -0.000017 0.304524
92.333557 194.640396 -0.000012 0.280446
91.925659 190.759491 -0.000010 0.292241
91.665253 188.281876 -0.000008 0.291066
91.484261 186.559830 -0.000006 0.277760
91.350906 185.291122 -0.000005 0.293706
nan nan nan 0.000000
nan nan nan 0.000000
nan nan nan 0.000000
nan nan nan 0.000000
nan nan nan 0.000000
nan nan nan 0.000000
94.633179 214.053131 3.814396 0.258824
nan nan nan 0.000000
92.166061 192.058273 1.757812 0.258824
92.195190 192.317993 1.260077 0.258824
93.235237 201.590210 -0.000017 0.283284
92.454224 194.627289 -0.000012 0.312718
92.019241 190.749329 -0.000010 0.270024
91.741539 188.273590 -0.000008 0.324117
91.548531 186.552856 -0.000007 0.371206
91.406326 185.285095 -0.000006 0.270542
nan nan nan 0.000000
nan nan nan 0.000000
nan nan nan 0.000000
nan nan nan 0.000000
nan nan nan 0.000000
nan nan nan 0.000000
92.344200 192.679565 2.758409 0.258824
nan nan nan 0.000000
92.273338 192.085297 1.757171 0.300877
92.304443 192.346191 1.258084 0.258824
93.404396 201.570633 -0.000017 0.297627
92.574783 194.613342 -0.000012 0.283375
92.112740 190.738510 -0.000009 0.325704
91.817764 188.264771 -0.000008 0.252506
91.612747 186.545425 -0.000007 0.373983
91.461700 185.278687 -0.000005 0.249928
nan nan nan 0.000000
nan nan nan 0.000000
nan nan nan 0.000000
nan nan nan 0.000000
nan nan nan 0.000000
nan nan nan 0.000000
92.452606 192.677780 2.758971 0.258824
nan nan nan 0.000000
94.767639 211.003159 1.444932 0.258824
92.419067 192.412308 1.254174 0.258824
93.573410 201.549896 -0.000017 0.302510
92.695251 194.598557 -0.000012 0.271809
92.206169 190.727036 -0.000010 0.289342
91.893929 188.255417 -0.000008 0.285756
91.676910 186.537552 -0.000007 0.253544
91.517021 185.271896 -0.000005 0.260121
nan nan nan 0.000000
nan nan nan 0.000000
nan nan nan 0.000000
nan nan nan 0.000000
nan nan nan 0.000000
nan nan nan 0.000000
nan nan nan 0.000000
92.652893 193.363342 2.264357 0.266850
92.377823 191.301788 1.769677 0.258824
92.528160 192.428528 1.252694 0.204227
93.742279 201.527954 -0.000017 0.292302
92.815613 194.582916 -0.000012 0.299458
92.299515 190.714920 -0.000010 0.295171
91.970024 188.245529 -0.000008 0.271901
91.741020 186.529221 -0.000006 0.343359
91.572304 185.264725 -0.000005 0.277684
nan nan nan 0.000000
nan nan nan 0.000000
nan nan nan 0.000000
nan nan nan 0.000000
nan nan nan 0.000000
92.634445 192.421738 3.247925 0.258824
92.669487 192.671066 2.760053 0.258824
92.454910 191.144302 2.227941 0.258824
92.495667 191.434280 1.767267 0.258824
92.732521 193.119598 1.217695 0.258824
93.910995 201.504852 -0.000017 0.298894
92.935867 194.566452 -0.000012 0.308003
92.392769 190.702133 -0.000009 0.254688
92.046051 188.235123 -0.000008 0.300954
91.805069 186.520447 -0.000007 0.283787
91.627525 185.257156 -0.000005 0.317678
nan nan nan 0.000000
nan nan nan 0.000000
nan nan nan 0.000000
nan nan nan 0.000000
nan nan nan 0.000000
92.747269 192.458435 3.252223 0.273411
92.670067 191.935654 2.724298 0.258824
92.867073 193.269760 2.263328 0.258824
92.622658 191.614563 1.764051 0.258824
92.830864 193.024551 1.221628 0.258824
94.079536 201.480560 -0.000017 0.297292
93.055992 194.549133 -0.000012 0.293034
92.485939 190.688721 -0.000009 0.285252
92.122002 188.224167 -0.000008 0.370657
91.869057 186.511230 -0.000007 0.263432
91.682701 185.249207 -0.000005 0.297215
nan nan nan 0.000000
nan nan nan 0.000000
nan nan nan 0.000000
nan nan nan 0.000000
nan nan nan 0.000000
nan nan nan 0.000000
92.793396 192.059479 2.731219 0.258824
92.994537 193.358765 2.265080 0.258824
92.704254 191.483688 1.765969 0.258824
92.742035 191.727737 1.285273 0.258824
94.247910 201.455093 -0.000017 0.284703
93.176003 194.530991 -0.000012 0.273259
92.579010 190.674637 -0.000010 0.274586
92.197876 188.212692 -0.000008 0.280858
91.932983 186.501556 -0.000006 0.292103
91.737816 185.240860 -0.000005 0.286046
nan nan nan 0.000000
nan nan nan 0.000000
nan nan nan 0.000000
nan nan nan 0.000000
nan nan nan 0.000000
92.974953 192.530548 3.260922 0.258824
nan nan nan 0.000000
93.015656 192.781860 2.255810 0.258824
nan nan nan 0.000000
92.840866 191.702682 1.285729 0.258824
94.416100 201.428467 -0.000017 0.300786
93.295876 194.511993 -0.000012 0.304448
92.671974 190.659912 -0.000009 0.256046
92.273666 188.200684 -0.000007 0.278004
91.996834 186.491440 -0.000006 0.322286
91.792870 185.232147 -0.000005 0.277821
nan nan nan 0.000000
nan nan nan 0.000000
nan nan nan 0.000000
nan nan nan 0.000000
nan nan nan 0.000000
93.071297 192.456406 3.256214 0.379324
nan nan nan 0.000000
93.057495 192.374802 2.249350 0.258824
93.010529 192.097092 1.755259 0.258824
97.305717 217.491791 -0.000029 0.293339
94.584106 201.400650 -0.000017 0.298604
93.415619 194.492172 -0.000012 0.301335
92.764847 190.644547 -0.000009 0.354528
92.349380 188.188156 -0.000008 0.299779
92.060616 186.480881 -0.000006 0.285252
91.847862 185.223038 -0.000005 0.272389
nan nan nan 0.000000
nan nan nan 0.000000
nan nan nan 0.000000
nan nan nan 0.000000
93.164635 192.369812 3.754501 0.258824
93.167725 192.387314 3.251978 0.258824
nan nan nan 0.000000
93.144730 192.256897 2.247692 0.258824
93.186256 192.492432 1.748394 0.450278
93.197227 192.554657 1.241539 0.395636
93.195137 192.542801 0.735076 0.419608
93.191689 192.523239 0.227577 0.364874
92.857597 190.628525 -0.000009 0.303563
92.424995 188.175095 -0.000008 0.333730
92.124321 186.469879 -0.000006 0.241398
91.902794 185.213547 -0.000005 0.272969
nan nan nan 0.000000
nan nan nan 0.000000
nan nan nan 0.000000
nan nan nan 0.000000
93.270126 192.354782 3.754949 0.258824
nan nan nan 0.000000
93.435364 193.255112 2.794399 0.258824
93.298630 192.510086 2.252216 0.312993
93.320396 192.628693 1.745811 0.405447
97.865517 217.393082 -0.000029 0.292042
94.919502 201.341507 -0.000018 0.292805
93.654678 194.450027 -0.000012 0.284871
92.950241 190.611847 -0.000009 0.314717
92.500519 188.161514 -0.000007 0.326207
92.187943 186.458435 -0.000006 0.253697
91.957657 185.203690 -0.000005 0.248325
nan nan nan 0.000000
nan nan nan 0.000000
nan nan nan 0.000000
nan nan nan 0.000000
nan nan nan 0.000000
nan nan nan 0.000000
93.375999 192.341415 2.749742 0.258824
93.478004 192.876144 2.258643 0.234562
93.456139 192.761536 1.743266 0.258824
98.144882 217.340790 -0.000029 0.288472
95.086884 201.310181 -0.000018 0.295216
93.773979 194.427704 -0.000012 0.299687
93.042763 190.594528 -0.000009 0.304540
92.575943 188.147400 -0.000008 0.291630
92.251488 186.446533 -0.000006 0.270039
92.012444 185.193436 -0.000005 0.293400
nan nan nan 0.000000
nan nan nan 0.000000
nan nan nan 0.000000
nan nan nan 0.000000
nan nan nan 0.000000
93.458633 192.210220 3.242092 0.258824
93.345848 191.640640 2.715664 0.258824
93.503319 192.435928 2.251651 0.258824
93.594162 192.894684 1.740696 0.482353
93.451012 192.171738 1.257737 0.258824
95.254044 201.277695 -0.000017 0.287892
93.893120 194.404541 -0.000012 0.296284
93.135162 190.576569 -0.000009 0.294392
92.651268 188.132751 -0.000008 0.271290
92.314949 186.434204 -0.000006 0.300496
92.067162 185.182800 -0.000005 0.256977
nan nan nan 0.000000
nan nan nan 0.000000
nan nan nan 0.000000
nan nan nan 0.000000
nan nan nan 0.000000
nan nan nan 0.000000
93.482635 191.801208 2.724726 0.258824
93.614326 192.442764 2.252120 0.258824
nan nan nan 0.000000
93.526886 192.016815 1.264461 0.258824
95.420967 201.244034 -0.000018 0.299947
94.012093 194.380554 -0.000012 0.272114
93.227432 190.557968 -0.000009 0.278508
92.726494 188.117584 -0.000008 0.311971
92.378319 186.421432 -0.000006 0.269535
92.121803 185.171783 -0.000005 0.263645
nan nan nan 0.000000
nan nan nan 0.000000
nan nan nan 0.000000
nan nan nan 0.000000
nan nan nan 0.000000
93.622620 191.964432 3.225054 0.258824
93.544014 191.594620 2.715407 0.258824
93.879868 193.174713 2.264733 0.258824
nan nan nan 0.000000
93.605721 191.884949 1.270011 0.258824
95.587654 201.209213 -0.000018 0.288884
94.130905 194.355728 -0.000012 0.282048
93.319572 190.538727 -0.000010 0.265003
92.801605 188.101898 -0.000008 0.316564
92.441605 186.408203 -0.000006 0.256046
92.176369 185.160370 -0.000005 0.265095
nan nan nan 0.000000
nan nan nan 0.000000
95.071930 198.070541 5.860209 0.299016
nan nan nan 0.000000
97.037804 207.011841 5.493777 0.247059
nan nan nan 0.000000
93.888008 192.685776 2.771373 0.258824
93.943146 192.936554 2.261142 0.258824
94.038063 193.368240 1.731625 0.258824
99.258507 217.112183 -0.000028 0.288777
95.754097 201.173218 -0.000018 0.295399
94.249535 194.330078 -0.000012 0.299809
93.411575 190.518829 -0.000009 0.270344
92.876610 188.085678 -0.000007 0.293629
92.504791 186.394547 -0.000006 0.308797
92.230850 185.148590 -0.000005 0.274266
nan nan nan 0.000000
nan nan nan 0.000000
nan nan nan 0.000000
nan nan nan 0.000000
95.224945 198.075531 4.444996 0.258824
nan nan nan 0.000000
94.005867 192.709732 2.773786 0.335012
93.957817 192.498245 2.254195 0.321752
nan nan nan 0.000000
99.535881 217.050186 -0.000028 0.295750
95.920280 201.136078 -0.000017 0.294484
94.367981 194.303604 -0.000012 0.304768
93.503441 190.498291 -0.000009 0.281971
92.951500 188.068939 -0.000007 0.257053
92.567886 186.380447 -0.000006 0.295476
92.285255 185.136444 -0.000005 0.324041
nan nan nan 0.000000
nan nan nan 0.000000
nan nan nan 0.000000
nan nan nan 0.000000
95.382774 198.098679 4.451674 0.246860
nan nan nan 0.000000
94.124565 192.734268 2.776272 0.258824
94.122002 192.723343 2.258389 0.258824
nan nan nan 0.000000
99.812813 216.986252 -0.000028 0.290578
96.086205 201.097763 -0.000017 0.303395
94.486244 194.276306 -0.000012 0.273487
93.595154 190.477127 -0.000010 0.295583
93.026268 188.051666 -0.000007 0.334493
92.630875 186.365906 -0.000006 0.261723
92.339569 185.123901 -0.000005 0.252552
nan nan nan 0.000000
nan nan nan 0.000000
nan nan nan 0.000000
95.543701 198.131134 5.171458 0.298558
95.543243 198.129272 4.459376 0.161181
nan nan nan 0.000000
97.795517 207.439041 3.520802 0.303700
nan nan nan 0.000000
96.943558 203.917480 1.552717 0.258824
100.089294 216.920380 -0.000028 0.294926
96.251854 201.058304 -0.000017 0.292424
94.604309 194.248169 -0.000012 0.312001
93.686714 190.455307 -0.000009 0.260655
93.100914 188.033890 -0.000007 0.297459
92.693764 186.350922 -0.000006 0.281041
92.393791 185.110977 -0.000005 0.303990
nan nan nan 0.000000
nan nan nan 0.000000
95.705734 198.164063 5.903115 0.223499
97.717796 206.233978 6.415638 0.267781
95.706558 198.167358 4.468113 0.242176
nan nan nan 0.000000
95.736679 198.288162 3.060096 0.229908
nan nan nan 0.000000
nan nan nan 0.000000
97.304482 204.576263 0.621532 0.258824
96.417229 201.017670 -0.000017 0.295567
94.722176 194.219223 -0.000012 0.276463
93.778130 190.432861 -0.000009 0.288441
93.175438 188.015579 -0.000007 0.254841
92.756546 186.335495 -0.000006 0.300465
92.447922 185.097687 -0.000005 0.310384
nan nan nan 0.000000
95.868599 198.196213 6.648301 0.566461
98.095314 206.868683 7.545249 0.258824
97.902191 206.116501 6.405455 0.258824
95.871269 198.206573 4.477136 0.304082
nan nan nan 0.000000
94.409798 192.514526 2.769130 0.258824
97.669373 205.209747 2.470675 0.258824
nan nan nan 0.000000
100.640846 216.782852 -0.000028 0.289479
96.582306 200.975906 -0.000017 0.300298
94.839844 194.189453 -0.000012 0.283101
93.869385 190.409760 -0.000009 0.319646
93.249832 187.996765 -0.000008 0.265965
92.819214 186.319641 -0.000006 0.277363
92.501961 185.084015 -0.000005 0.333059
nan nan nan 0.000000
96.030388 198.220352 6.662156 0.192157
nan nan nan 0.000000
98.264046 206.674393 6.499070 0.262501
96.036949 198.245163 4.486236 0.211521
96.053024 198.306000 3.777225 1.000000
94.527817 192.533356 2.771487 0.258824
98.043350 205.839111 2.482185 0.657710
nan nan nan 0.000000
100.915894 216.711227 -0.000028 0.294636
96.747101 200.932983 -0.000017 0.283452
94.957291 194.158844 -0.000012 0.277852
93.960472 190.386032 -0.000009 0.311330
93.324089 187.977417 -0.000007 0.273121
92.881775 186.303345 -0.000006 0.308309
92.555901 185.069962 -0.000005 0.340917
nan nan nan 0.000000
nan nan nan 0.000000
96.190445 198.234680 5.937785 0.527687
96.187798 198.224930 5.208698 0.259785
96.203857 198.284058 4.495526 0.587472
nan nan nan 0.000000
nan nan nan 0.000000
96.254036 198.468750 2.358107 0.210910
97.914543 204.580444 1.538256 0.258824
101.190430 216.637665 -0.000028 0.289372
96.911583 200.888916 -0.000017 0.299168
95.074532 194.127441 -0.000012 0.300130
94.051392 190.361679 -0.000009 0.293233
93.398209 187.957550 -0.000007 0.300099
92.944221 186.286606 -0.000006 0.273930
92.609749 185.055527 -0.000005 0.368383
nan nan nan 0.000000
nan nan nan 0.000000
98.412041 205.629745 7.342404 0.267933
96.354660 198.261032 5.220433 0.238483
nan nan nan 0.000000
98.825027 207.108871 4.533380 0.309804
98.991264 207.704285 3.548223 0.258824
nan nan nan 0.000000
nan nan nan 0.000000
97.967346 204.037018 0.638828 0.258824
97.075752 200.843689 -0.000017 0.302693
95.191544 194.095215 -0.000012 0.268605
94.142143 190.336670 -0.000009 0.322621
93.472191 187.937180 -0.000007 0.297856
93.006546 186.269440 -0.000006 0.235904
92.663483 185.040726 -0.000005 0.241001
nan nan nan 0.000000
96.521408 198.292664 6.705378 0.532296
96.518585 198.282837 5.962280 0.225544
96.523804 198.301025 5.232973 0.423117
96.541695 198.363419 4.514771 0.529870
nan nan nan 0.000000
98.433006 204.959213 3.410994 0.258824
98.751816 206.071030 2.488923 0.382223
98.784012 206.183304 1.509167 0.390478
98.777710 206.161331 0.527570 0.395590
97.239601 200.797318 -0.000017 0.286885
95.308327 194.062164 -0.000012 0.293751
94.232712 190.311050 -0.000009 0.293324
93.546028 187.916290 -0.000007 0.320958
93.068756 186.251846 -0.000006 0.295888
92.717125 185.025543 -0.000005 0.231418
nan nan nan 0.000000
nan nan nan 0.000000
99.044044 206.325165 7.495739 0.258824
96.694260 198.341278 5.245762 0.276310
nan nan nan 0.000000
nan nan nan 0.000000
99.461601 207.743896 3.556463 0.258824
96.767677 198.590714 2.362316 0.419150
nan nan nan 0.000000
102.010849 216.405487 -0.000028 0.293431
97.403130 200.749817 -0.000017 0.297627
95.424881 194.028305 -0.000012 0.304295
94.323105 190.284790 -0.000009 0.273182
93.619713 187.894882 -0.000007 0.299382
93.130836 186.233795 -0.000006 0.308919
92.770653 185.009995 -0.000005 0.257832
96.856705 198.350815 7.494857 0.367834
nan nan nan 0.000000
96.850975 198.331818 5.987907 0.295644
