# This PCD file was generated using the MATLABÂ® pcwrite function
# from Computer Vision ToolboxÂ®.
# .PCD v.7 - Point Cloud Data file format
VERSION .7
FIELDS x y z intensity
SIZE 4 4 4 4
TYPE F F F F
COUNT 1 1 1 1
WIDTH 1228
HEIGHT 1
VIEWPOINT 0 0 0 1 0 0 0
POINTS 1228
DATA ascii
138.485016 75.508331 -0.000004 0.336416
142.333557 74.862907 0.000003 0.336889
144.790436 74.450874 -0.000008 0.334112
146.498108 74.164490 -0.000008 0.338079
147.756241 73.953491 -0.000007 0.337499
nan nan nan 0.000000
nan nan nan 0.000000
nan nan nan 0.000000
nan nan nan 0.000000
nan nan nan 0.000000
nan nan nan 0.000000
69.780045 87.647491 6.281590 0.555367
69.780891 87.647339 3.426162 0.575036
69.780891 87.647339 0.573837 0.569055
115.527512 79.646622 -0.000050 0.542412
131.603912 76.834991 0.000008 0.338842
138.505508 75.627953 -0.000003 0.336110
142.349457 74.955681 0.000003 0.337133
144.803391 74.526505 -0.000008 0.332555
146.509018 74.228203 -0.000009 0.328389
147.765656 74.008430 -0.000007 0.330571
nan nan nan 0.000000
nan nan nan 0.000000
nan nan nan 0.000000
nan nan nan 0.000000
nan nan nan 0.000000
nan nan nan 0.000000
nan nan nan 0.000000
nan nan nan 0.000000
nan nan nan 0.000000
115.577454 79.926422 -0.000050 0.541207
131.633972 77.002594 0.000021 0.336431
138.526886 75.747429 0.000003 0.336461
142.365997 75.048340 0.000003 0.338415
144.816879 74.602051 -0.000008 0.335546
146.520370 74.291847 -0.000011 0.339834
147.775452 74.063309 -0.000007 0.341146
nan nan nan 0.000000
nan nan nan 0.000000
nan nan nan 0.000000
nan nan nan 0.000000
nan nan nan 0.000000
nan nan nan 0.000000
57.634087 91.185402 6.899783 0.672831
94.657120 84.176285 3.015490 0.408743
58.162209 91.085419 0.376701 0.678431
115.629349 80.205864 -0.000050 0.536080
131.665146 77.170006 0.000027 0.337728
138.549103 75.866753 0.000008 0.334264
142.383179 75.140892 0.000002 0.333440
144.830887 74.677498 -0.000009 0.336431
146.532181 74.355408 -0.000010 0.339376
147.785629 74.118111 -0.000008 0.330266
nan nan nan 0.000000
nan nan nan 0.000000
nan nan nan 0.000000
nan nan nan 0.000000
60.939842 91.245247 13.101750 0.338506
61.243645 91.185532 9.887388 0.672923
61.244446 91.185371 6.725626 0.690944
94.647911 84.619621 3.017013 0.407980
61.753342 91.085342 0.434404 0.678431
115.683189 80.484940 -0.000050 0.537621
131.697449 77.337196 0.000031 0.337179
138.572144 75.985916 0.000014 0.335775
142.401001 75.233315 0.000002 0.339971
144.845413 74.752846 -0.000009 0.338720
146.544434 74.418884 -0.000009 0.329534
147.796188 74.172844 -0.000008 0.337453
106.300995 82.687286 14.610511 0.659556
nan nan nan 0.000000
nan nan nan 0.000000
nan nan nan 0.000000
nan nan nan 0.000000
63.394943 91.432404 9.718399 0.404120
94.012558 85.191917 5.089345 0.407233
94.638596 85.064316 3.018590 0.401938
63.848541 91.339951 0.467203 0.560922
115.738998 80.763626 -0.000048 0.538277
131.730881 77.504166 0.000031 0.338964
138.595932 76.104927 0.000010 0.334874
142.419479 75.325607 0.000001 0.336873
144.860474 74.828087 -0.000009 0.340856
146.557129 74.482277 -0.000008 0.339361
147.807129 74.227501 -0.000008 0.340719
106.283676 83.050156 14.633222 0.667781
nan nan nan 0.000000
nan nan nan 0.000000
nan nan nan 0.000000
nan nan nan 0.000000
nan nan nan 0.000000
93.746506 85.696770 5.107180 0.416754
63.848549 92.008286 3.535017 0.568627
63.848549 92.008286 0.464983 0.549020
115.796738 81.041924 -0.000048 0.538247
131.884079 77.645859 0.009970 1.000000
138.620529 76.223778 0.000003 0.334722
142.438599 75.417778 0.000001 0.334997
144.876068 74.903221 -0.000010 0.340993
146.570251 74.545578 -0.000009 0.334905
147.818451 74.282082 -0.000008 0.338415
106.269272 83.413696 14.655866 0.665431
104.883469 83.716362 13.218725 0.613672
104.891464 83.714615 11.449955 0.658213
104.887489 83.715485 9.704485 0.656611
104.887489 83.715485 7.975149 0.650767
104.887497 83.715485 6.258787 0.627405
104.887329 83.715523 4.551628 0.623941
104.880905 83.716927 2.850041 0.627649
104.880905 83.716927 1.149957 0.616495
115.856415 81.319817 -0.000048 0.543191
131.801254 77.837379 0.000033 0.337087
138.645950 76.342461 -0.000004 0.337163
142.458359 75.509811 0.000001 0.335988
144.892181 74.978249 -0.000010 0.334905
146.583817 74.608788 -0.000010 0.327199
147.830154 74.336578 -0.000008 0.342519
109.083588 83.140030 13.952817 0.621530
106.527390 83.717041 12.872147 0.627527
106.526436 83.717255 11.159638 0.662364
106.526428 83.717255 9.467205 0.650706
106.526428 83.717255 7.791130 0.631251
106.526436 83.717255 6.127629 0.662593
106.526436 83.717255 4.473037 0.628916
115.945808 81.591011 2.665741 0.705928
106.527786 83.716949 1.176265 0.656748
115.918030 81.597282 -0.000049 0.539208
131.837418 78.003784 -0.000030 0.534905
138.672211 76.460953 -0.000010 0.335973
142.478760 75.601700 0.000001 0.344839
144.908813 75.053162 -0.000010 0.338293
146.597824 74.671898 -0.000011 0.339452
147.842239 74.390999 -0.000008 0.336828
117.196472 81.591141 11.885334 0.694804
116.552155 81.741318 10.666397 0.678431
116.734619 81.698784 9.267092 0.750103
116.552155 81.741318 7.952138 0.678431
116.734619 81.698784 6.594576 0.762295
116.552170 81.741310 5.290146 0.678431
116.552170 81.741310 3.971266 0.678431
117.197563 81.590881 2.645775 0.691783
108.075882 83.716965 1.200958 0.631907
116.828812 81.676834 0.042689 0.563317
131.875504 78.169754 -0.000029 0.560952
138.699341 76.579254 -0.000011 0.338109
142.499802 75.693443 0.000000 0.339849
144.925964 75.127953 -0.000010 0.338201
146.612274 74.734909 -0.000012 0.338262
147.854706 74.445328 -0.000008 0.340536
117.977036 81.686813 11.700591 0.754269
117.750557 81.741272 10.414527 0.678431
118.375458 81.591011 8.972044 0.690486
117.750565 81.741264 7.779150 0.678431
117.927238 81.698784 6.461068 0.746456
117.750580 81.741264 5.194525 0.678431
117.750580 81.741264 3.913975 0.678431
118.376221 81.590828 2.627006 0.693477
116.320267 82.085182 1.338391 0.645533
117.972809 81.687828 0.097253 0.572488
131.914734 78.335457 -0.000029 0.539361
138.727280 76.697365 -0.000013 0.338323
142.521500 75.785042 -0.000000 0.339559
144.943649 75.202629 -0.000010 0.337957
146.627167 74.797821 -0.000012 0.340383
147.867538 74.499573 -0.000008 0.328481
118.880997 81.741310 11.483860 0.678431
118.880981 81.741318 10.177346 0.678431
119.486511 81.591240 8.775660 0.712184
118.880997 81.741310 7.616251 0.678431
119.052505 81.698807 6.335310 0.761700
118.881012 81.741310 5.104480 0.678431
118.881012 81.741310 3.860024 0.678431
119.488480 81.590744 2.609324 0.703487
110.909698 83.716995 1.246046 0.629831
118.056580 81.945648 0.098248 0.577890
131.955124 78.500893 -0.000029 0.539803
138.756058 76.815277 -0.000015 0.340856
142.543823 75.876488 -0.000000 0.338140
144.961853 75.277176 -0.000011 0.333745
146.642517 74.860619 -0.000009 0.338079
147.880768 74.553726 -0.000008 0.339147
119.949677 81.741302 11.224257 0.678431
119.949677 81.741302 9.953503 0.678431
120.163071 81.686829 8.660515 0.742733
119.949669 81.741302 7.462518 0.678431
120.116188 81.698799 6.216639 0.758877
119.949677 81.741302 5.019503 0.678431
119.949684 81.741302 3.809110 0.678431
120.541298 81.590279 2.592614 0.716991
112.209915 83.717056 1.266680 0.634485
118.061539 82.223297 0.095156 0.624994
131.996658 78.666031 -0.000029 0.526955
138.785675 76.932983 -0.000014 0.340337
142.566772 75.967766 -0.000001 0.335744
144.980560 75.351593 -0.000011 0.323247
146.658310 74.923309 -0.000006 0.330434
147.894363 74.607780 -0.000008 0.343038
121.006996 81.729340 10.967117 0.116640
121.168968 81.686783 9.695620 0.757427
121.007034 81.729324 8.513796 0.116548
121.007019 81.729324 7.310238 0.136080
121.123077 81.698837 6.104506 0.791272
121.007019 81.729324 4.935327 0.115923
121.007019 81.729324 3.758678 0.111955
121.213058 81.675201 2.582322 0.627909
113.441147 83.717056 1.286184 0.623575
118.066696 82.501816 0.091971 0.592538
132.039368 78.830887 -0.000029 0.535653
138.816147 77.050468 -0.000009 0.337407
142.590378 76.058891 -0.000001 0.336660
144.999802 75.425880 -0.000011 0.339544
146.674515 74.985893 -0.000006 0.331090
147.908340 74.661743 -0.000008 0.334600
121.920853 81.741295 10.746696 0.678431
122.078156 81.698792 9.506538 0.740948
121.920868 81.741287 8.353683 0.678431
121.920868 81.741287 7.179707 0.678431
122.122482 81.686813 5.993053 0.742519
121.920883 81.741287 4.863173 0.678431
121.920883 81.741287 3.715447 0.678431
122.130569 81.684624 2.567852 0.629740
120.818085 82.039261 1.409899 0.653010
120.818077 82.039261 0.228433 0.643214
132.083206 78.995430 -0.000029 0.534646
138.847458 77.167725 -0.000001 0.338109
142.614609 76.149849 -0.000001 0.338704
145.019562 75.500031 -0.000011 0.339208
146.691162 75.048363 -0.000007 0.332357
147.922684 74.715607 -0.000008 0.337514
122.831924 81.741287 10.526590 0.678431
122.984970 81.698784 9.317646 0.757061
122.831924 81.741287 8.193798 0.678431
122.831940 81.741280 7.049364 0.678431
123.372925 81.591049 5.851403 0.705623
122.831955 81.741280 4.791122 0.678431
123.027969 81.686844 3.662285 0.751202
123.014740 81.690521 2.553924 0.623194
115.717346 83.717041 1.322143 0.616419
118.077179 83.061699 0.085294 0.605005
132.128204 79.159660 -0.000029 0.541421
138.879578 77.284775 0.000004 0.337896
142.639481 76.240631 -0.000001 0.340307
145.039825 75.574043 -0.000012 0.338720
146.708237 75.110718 -0.000008 0.332738
147.937424 74.769363 -0.000008 0.330831
123.698311 81.741280 10.317688 0.678431
123.847305 81.698776 9.138363 0.775586
123.698318 81.741272 8.042048 0.678431
123.698334 81.741272 6.925652 0.678431
124.224846 81.591087 5.757062 0.689479
123.698334 81.741272 4.722740 0.678431
123.889145 81.686844 3.621561 0.780056
123.843971 81.699730 2.540904 0.621607
116.771774 83.716995 1.338753 0.633661
118.125443 83.330879 0.083993 0.576806
132.174347 79.323578 -0.000029 0.550713
138.912476 77.401604 0.000006 0.339422
142.664978 76.331238 -0.000002 0.335424
145.060623 75.647903 -0.000012 0.327276
146.725739 75.172951 -0.000010 0.330053
147.952515 74.823021 -0.000009 0.342840
124.523201 81.741302 10.119190 0.678431
125.035919 81.591171 8.885284 0.725521
124.523201 81.741302 7.897859 0.678431
124.625786 81.711266 6.792250 0.855451
125.034988 81.591446 5.667538 0.729961
124.523224 81.741295 4.657763 0.678431
124.709373 81.686790 3.582849 0.753689
124.604561 81.717476 2.529027 0.633707
117.775772 83.716972 1.354536 0.636332
118.374672 83.541611 0.092880 0.598566
132.221619 79.487175 -0.000029 0.538842
138.946198 77.518196 0.000009 0.338964
142.691116 76.421669 -0.000002 0.337850
145.081924 75.721626 -0.000012 0.338064
146.743683 75.235054 -0.000010 0.337972
147.968002 74.876572 -0.000008 0.337499
125.447426 81.699944 9.894293 0.660517
125.447395 81.699951 8.806764 0.671122
125.447418 81.699944 7.734494 0.647059
125.447372 81.699959 6.674933 0.650050
125.447388 81.699951 5.625604 0.660853
125.447464 81.699928 4.584144 0.620706
125.447388 81.699951 3.548273 0.614969
125.337189 81.733055 2.517606 0.643519
118.617920 83.751518 1.367587 0.136568
118.651138 83.741539 0.103110 0.455558
132.270050 79.650429 -0.000029 0.548379
138.980713 77.634544 0.000010 0.335134
142.717865 76.511909 -0.000003 0.336614
145.103745 75.795197 -0.000013 0.339040
146.762070 75.297035 -0.000010 0.340093
147.983841 74.930016 -0.000009 0.340368
125.486946 81.917992 9.900717 0.614328
125.486977 81.917984 8.812290 0.641962
125.486992 81.917976 7.739150 0.670115
125.486969 81.917984 6.678727 0.634989
125.486969 81.917984 5.628547 0.634241
125.487007 81.917969 4.586245 0.615259
125.486954 81.917992 3.549531 0.627176
125.434814 81.934052 2.517034 0.657328
125.293991 81.977432 1.480555 0.677913
125.293983 81.977432 0.440549 0.690700
132.319611 79.813347 -0.000029 0.541543
139.099075 77.725090 0.010005 1.000000
142.745270 76.601967 -0.000003 0.342092
145.126083 75.868614 -0.000013 0.336843
146.780884 75.358887 -0.000010 0.335332
148.000076 74.983345 -0.000009 0.328817
125.486801 82.148941 9.917975 0.637690
125.486778 82.148949 8.827184 0.639826
125.486778 82.148949 7.751700 0.631418
125.486824 82.148941 6.688947 0.647486
125.486816 82.148941 5.636474 0.642557
125.486740 82.148964 4.591905 0.636469
125.486794 82.148941 3.552917 0.660273
125.436081 82.164955 2.518140 0.642191
120.487869 83.727043 1.396950 0.754681
120.519653 83.717003 0.191193 0.625315
132.370300 79.975914 -0.000029 0.534691
139.052185 77.866524 0.000012 0.341741
142.773285 76.691826 -0.000003 0.336126
145.148926 75.941864 -0.000013 0.337835
146.800140 75.420601 -0.000010 0.343618
148.016663 75.036560 -0.000008 0.338354
125.486679 82.380920 9.935692 0.632670
125.486694 82.380913 8.842449 0.650599
125.486694 82.380905 7.764559 0.654887
125.486664 82.380920 6.699442 0.668299
125.486641 82.380928 5.644616 0.638498
125.486656 82.380920 4.597700 0.614328
125.486710 82.380905 3.556389 0.657679
125.437241 82.396904 2.519276 0.639612
121.324005 83.727051 1.409983 0.741009
121.355057 83.717010 0.230287 0.626490
132.422134 80.138123 -0.000029 0.538521
139.088867 77.982224 -0.000020 0.550668
142.801941 76.781487 -0.000004 0.338064
145.172272 76.014961 -0.000013 0.333471
146.819809 75.482178 -0.000010 0.328420
148.033630 75.089653 -0.000009 0.338506
125.486610 82.613922 9.953859 0.627024
125.486618 82.613922 8.858116 0.644846
125.486618 82.613922 7.777759 0.655253
125.486649 82.613914 6.710195 0.643778
125.486626 82.613922 5.652955 0.667903
125.486633 82.613922 4.603643 0.626352
125.486671 82.613907 3.559951 0.622812
125.438049 82.630005 2.520451 0.635401
122.124817 83.727051 1.422438 0.751339
122.155151 83.717010 0.267644 0.635264
132.475098 80.299965 -0.000029 0.537926
139.126617 78.097580 -0.000020 0.535195
142.831207 76.870949 -0.000004 0.339330
145.196136 76.087898 -0.000014 0.339330
146.839920 75.543625 -0.000010 0.334173
148.050964 75.142632 -0.000009 0.342641
125.486633 82.847977 9.972477 0.625391
125.486603 82.847992 8.874178 0.651225
125.486641 82.847977 7.791283 0.638163
125.486588 82.847992 6.721232 0.636759
125.486656 82.847969 5.661504 0.659327
125.486656 82.847969 4.609738 0.627024
125.486549 82.848007 3.563608 0.618082
125.439102 82.864090 2.521651 0.657816
122.892502 83.727066 1.434350 0.745007
122.922180 83.717010 0.303374 0.622126
132.529175 80.461433 -0.000029 0.533867
139.165161 78.212662 -0.000020 0.552834
142.861099 76.960205 -0.000005 0.334493
145.220520 76.160660 -0.000014 0.337911
146.860458 75.604927 -0.000010 0.332570
148.068665 75.195488 -0.000009 0.333288
125.486656 83.083145 9.991571 0.612024
125.486664 83.083145 8.890633 0.656733
125.486641 83.083153 7.805157 0.620996
125.486649 83.083145 6.732533 0.639475
125.486610 83.083160 5.670282 0.624628
125.486595 83.083168 4.615996 0.649714
125.486595 83.083168 3.567352 0.623362
125.440475 83.099152 2.522877 0.638941
123.629211 83.727081 1.445754 0.740276
123.658264 83.717010 0.337582 0.632898
132.584396 80.622520 -0.000028 0.523583
139.204529 78.327484 -0.000020 0.539528
142.891632 77.049248 -0.000005 0.336095
145.245392 76.233253 -0.000014 0.339727
146.881409 75.666084 -0.000010 0.340246
148.086746 75.248222 -0.000010 0.335424
125.486694 83.319443 10.011146 0.638804
125.486687 83.319450 8.907515 0.656916
125.486725 83.319435 7.819369 0.652583
125.486649 83.319458 6.744131 0.651911
125.486694 83.319443 5.679267 0.648493
125.486664 83.319458 4.622400 0.635523
125.486664 83.319458 3.571190 0.613855
125.442276 83.335190 2.524127 0.630365
124.365234 83.717018 1.457174 0.661524
124.365265 83.717010 0.370359 0.626245
132.640747 80.783218 -0.000028 0.529000
139.244675 78.442017 -0.000020 0.535225
142.922760 77.138077 -0.000005 0.334661
145.270782 76.305664 -0.000013 0.333165
146.902802 75.727089 -0.000010 0.336110
148.105179 75.300827 -0.000010 0.329107
125.486740 83.556915 10.031208 0.650004
125.486725 83.556923 8.924814 0.653773
125.486748 83.556915 7.833945 0.645457
125.486740 83.556915 6.756003 0.626978
125.486778 83.556900 5.688475 0.648325
125.486748 83.556915 4.628964 0.674632
125.486740 83.556915 3.575123 0.640772
125.444633 83.572174 2.525400 0.630304
125.011597 83.729103 1.467064 0.777691
125.044975 83.717010 0.401792 0.663523
132.698196 80.943520 -0.000028 0.545052
139.285629 78.556274 -0.000020 0.531182
142.954529 77.226685 -0.000006 0.340032
145.296692 76.377899 -0.000012 0.334859
146.924622 75.787949 -0.000010 0.337575
148.123993 75.353294 -0.000009 0.334783
125.614655 83.748238 10.017606 0.743908
125.614655 83.748238 8.913083 0.745174
125.614647 83.748238 7.824068 0.731548
125.614647 83.748238 6.747951 0.733486
125.683922 83.722580 5.673736 0.730694
125.614655 83.748238 4.624513 0.725841
125.614655 83.748230 3.572456 0.752239
125.614647 83.748238 2.523777 0.752514
125.614647 83.748238 1.476223 0.739452
125.694389 83.718704 0.431721 0.731167
132.756775 81.103409 -0.000028 0.547005
139.327393 78.670235 -0.000020 0.552056
142.986908 77.315071 -0.000006 0.337636
145.323090 76.449951 -0.000012 0.347158
146.946854 75.848648 -0.000010 0.337407
148.143173 75.405640 -0.000009 0.336721
126.208862 83.762375 9.879450 0.678431
126.555046 83.631424 8.714021 0.697047
126.208878 83.762367 7.723706 0.678431
126.404358 83.688423 6.635129 0.916945
126.208862 83.762367 5.618781 0.678431
126.208862 83.762375 4.579287 0.678431
126.208969 83.762329 3.545354 0.734905
126.208870 83.762367 2.514752 0.678431
126.208870 83.762367 1.485248 0.678431
126.283371 83.734184 0.458554 0.753521
132.816483 81.262894 -0.000028 0.543236
139.369934 78.783905 -0.000020 0.548211
143.019897 77.403229 -0.000006 0.334600
145.349976 76.521820 -0.000013 0.342214
146.969513 75.909195 -0.000011 0.341909
148.162704 75.457840 -0.000009 0.342824
126.818306 83.762383 9.736853 0.678431
127.157532 83.631348 8.592466 0.693523
126.818321 83.762375 7.620123 0.678431
126.841789 83.753311 6.577957 0.747890
126.818314 83.762375 5.553291 0.678431
126.818314 83.762375 4.532610 0.678431
126.818451 83.762329 3.517385 0.739239
126.818314 83.762375 2.505436 0.678431
126.818314 83.762375 1.494564 0.678431
126.844734 83.752167 0.483998 0.764874
132.877274 81.421959 -0.000028 0.548898
139.413269 78.897278 -0.000020 0.546456
143.053497 77.491150 -0.000006 0.339345
145.377380 76.593498 -0.000013 0.341360
146.992599 75.969582 -0.000011 0.340078
148.182617 75.509911 -0.000009 0.333028
127.406128 83.762383 9.599690 0.678431
127.739059 83.631104 8.475445 0.725444
127.406128 83.762383 7.520487 0.678431
127.406219 83.762344 6.500449 0.737835
127.406128 83.762383 5.490296 0.678431
127.406128 83.762383 4.487710 0.678431
127.406242 83.762337 3.490485 0.767819
127.406128 83.762383 2.496476 0.678431
127.406128 83.762383 1.503524 0.678431
127.406242 83.762337 0.509514 0.714595
132.939194 81.580589 -0.000028 0.542733
139.457397 79.010345 -0.000020 0.545235
143.087723 77.578842 -0.000007 0.340566
145.405273 76.664986 -0.000014 0.341131
147.016098 76.029808 -0.000011 0.338354
148.202881 75.561836 -0.000009 0.334218
128.086380 83.716957 9.437180 0.671931
128.086365 83.716965 8.412620 0.618158
128.086365 83.716965 7.402442 0.621363
128.264008 83.645477 6.375825 0.675395
128.086365 83.716965 5.415664 0.664073
128.086365 83.716965 4.434515 0.651026
128.086365 83.716965 3.458620 0.666453
128.086349 83.716972 2.485859 0.658701
128.263977 83.645493 1.517273 0.497398
128.334183 83.617241 0.554503 0.647028
133.002213 81.738785 -0.000028 0.557504
139.502319 79.123100 -0.000020 0.542672
143.185150 77.641098 0.010001 1.000000
145.433685 76.736267 -0.000011 0.338659
147.040024 76.089867 -0.000011 0.335317
148.223511 75.613617 -0.000009 0.342107
128.485901 83.777008 9.350134 0.741451
128.595520 83.732002 8.311971 0.678431
128.203354 83.893005 7.394785 0.783337
128.816223 83.641396 6.299712 0.678431
128.510330 83.766975 5.372646 0.678431
128.607681 83.727005 4.395225 0.747326
128.485931 83.776993 3.441546 0.736339
128.607681 83.727013 2.478019 0.778775
128.816193 83.641403 1.525670 0.513024
128.878250 83.615929 0.579288 0.641917
133.066345 81.896545 -0.000028 0.554574
139.548019 79.235535 -0.000020 0.540871
143.220459 77.727844 0.010008 1.000000
145.462570 76.807358 -0.000013 0.335180
147.064362 76.149757 -0.000011 0.337026
148.244507 75.665260 -0.000009 0.317464
129.016296 83.777000 9.227406 0.754940
129.123825 83.731979 8.206568 0.678431
128.538727 83.976967 7.344265 0.678431
129.285019 83.664482 6.236787 0.641245
129.040192 83.766998 5.316339 0.678431
129.135666 83.727020 4.355235 0.744823
129.016296 83.777000 3.417478 0.744472
129.147324 83.722137 2.469830 0.751110
129.284988 83.664490 1.532611 0.461280
129.284988 83.664490 0.596833 0.489067
133.131561 82.053841 -0.000028 0.543893
139.594513 79.347649 -0.000020 0.553124
143.256363 77.814339 0.010014 1.000000
145.491959 76.878242 -0.000013 0.339605
147.089127 76.209473 -0.000011 0.348196
148.265854 75.716751 -0.000009 0.333867
129.646683 83.726883 9.077080 0.723507
129.646683 83.726883 8.102125 0.740368
129.646683 83.726883 7.140861 0.745235
129.646698 83.726883 6.190978 0.743618
129.646652 83.726898 5.250284 0.744091
129.646637 83.726898 4.316640 0.745159
129.646652 83.726898 3.387997 0.750103
129.646698 83.726883 2.462335 0.721614
129.646683 83.726883 1.537666 0.743633
129.646683 83.726883 0.612005 0.754101
133.197876 82.210686 -0.000027 0.539254
139.641785 79.459442 -0.000019 0.545083
143.230698 77.927139 -0.000008 0.338140
145.521851 76.948921 -0.000013 0.338064
147.114304 76.269020 -0.000011 0.335042
148.287552 75.768089 -0.000009 0.326268
130.026031 83.776894 8.994780 0.759091
130.049011 83.766891 8.025749 0.678431
130.049026 83.766891 7.076513 0.678431
130.026047 83.776886 6.142240 0.737606
130.049011 83.766899 5.209599 0.678431
130.048996 83.766899 4.287643 0.678431
130.026123 83.776855 3.371849 0.729564
130.049011 83.766891 2.456547 0.678431
130.049011 83.766891 1.543453 0.678431
130.026047 83.776894 0.628146 0.748104
133.265289 82.367065 -0.000028 0.553323
139.689819 79.570900 -0.000020 0.543618
143.267929 78.013596 -0.000015 0.548562
145.552231 77.019394 -0.000013 0.341939
147.139893 76.328384 -0.000011 0.327337
148.309631 75.819283 -0.000009 0.337499
130.506866 83.776886 8.884510 0.742550
130.529419 83.766884 7.930759 0.678431
130.529404 83.766884 6.996488 0.678431
130.506866 83.776878 6.076941 0.723766
130.529388 83.766891 5.159003 0.678431
130.529388 83.766891 4.251579 0.678431
130.506927 83.776855 3.350224 0.735531
130.529404 83.766884 2.449351 0.678431
130.529404 83.766884 1.550650 0.678431
130.506866 83.776878 0.649773 0.737484
133.333801 82.522964 -0.000027 0.528084
139.738647 79.682014 -0.000019 0.532555
143.305786 78.099770 -0.000015 0.571450
145.583099 77.089645 -0.000013 0.340795
147.165909 76.387573 -0.000011 0.339223
148.332047 75.870316 -0.000009 0.336996
131.294434 83.631508 8.689578 0.689708
130.994904 83.766876 7.838997 0.678431
130.994904 83.766884 6.919183 0.678431
131.043381 83.744972 6.002370 0.760906
130.994904 83.766876 5.110125 0.678431
130.994904 83.766876 4.216742 0.678431
130.972839 83.776855 3.329334 0.759030
130.994904 83.766884 2.442398 0.678431
130.994904 83.766884 1.557601 0.678431
130.972794 83.776871 0.670664 0.735531
133.403381 82.678391 -0.000027 0.538415
139.788254 79.792793 -0.000019 0.543893
143.344254 78.185684 -0.000015 0.563378
145.614456 77.159683 -0.000014 0.324041
147.192322 76.446571 -0.000011 0.336446
148.354828 75.921188 -0.000009 0.343893
131.740692 83.631317 8.587856 0.692699
131.446228 83.766876 7.750312 0.678431
131.446228 83.766876 6.844467 0.678431
131.740143 83.631561 5.901354 0.698863
131.446243 83.766869 5.062885 0.678431
131.446243 83.766869 4.183072 0.678431
131.424561 83.776855 3.309143 0.740169
131.446228 83.766876 2.435679 0.678431
131.446228 83.766876 1.564321 0.678431
131.424545 83.776863 0.690856 0.751568
133.474060 82.833313 -0.000027 0.543114
139.838623 79.903221 -0.000019 0.531151
143.383316 78.271317 -0.000015 0.547738
145.646301 77.229500 -0.000014 0.336980
147.219162 76.505394 -0.000011 0.338582
148.377960 75.971901 -0.000008 0.341421
132.174286 83.630806 8.489305 0.722972
131.986053 83.719055 7.640223 0.733547
131.986053 83.719055 6.751722 0.779339
132.173111 83.631355 5.843096 0.724025
131.984802 83.719650 5.004409 0.726894
132.129639 83.651741 4.128276 0.640330
132.212982 83.612656 3.270617 0.640009
131.986145 83.719017 2.427336 0.752224
131.986145 83.719025 1.572664 0.772457
131.986145 83.719025 0.717074 0.739376
133.545807 82.987747 -0.000027 0.530007
139.889771 80.013290 -0.000019 0.560906
143.422974 78.356689 -0.000015 0.545220
145.678635 77.299088 -0.000013 0.331487
147.246399 76.564018 -0.000010 0.342336
148.401459 76.022453 -0.000008 0.334905
132.406586 83.720322 8.446297 0.762249
132.308746 83.767029 7.581654 0.678431
132.287796 83.777031 6.706604 0.723735
132.592819 83.631409 5.786822 0.706127
132.068909 83.881531 5.003627 0.774563
132.580185 83.637436 4.094380 0.660441
132.392593 83.726997 3.265043 0.747402
132.308792 83.767006 2.422899 0.678431
132.392548 83.727020 1.578619 0.733928
132.287888 83.776985 0.729256 0.754238
133.618637 83.141678 -0.000027 0.532311
139.941681 80.123001 -0.000019 0.557717
143.463242 78.441772 -0.000015 0.564935
145.711456 77.368454 -0.000013 0.334691
147.274048 76.622459 -0.000010 0.337758
148.425293 76.072838 -0.000008 0.341131
132.783279 83.737007 8.363101 0.855711
132.721512 83.767021 7.501338 0.678431
132.700912 83.777031 6.638880 0.735012
133.000778 83.631294 5.732296 0.692638
132.289505 83.976982 4.985528 0.678431
132.923706 83.668755 4.070118 0.657618
132.803848 83.727005 3.246841 0.731106
132.721573 83.766991 2.416814 0.678431
132.803833 83.727013 1.584682 0.716854
132.701004 83.776993 0.747540 0.721416
133.692535 83.295090 -0.000027 0.545449
139.994339 80.232346 -0.000019 0.551400
143.504089 78.526573 -0.000015 0.549493
145.744751 77.437592 -0.000013 0.336858
147.302109 76.680702 -0.000010 0.344472
148.449478 76.123062 -0.000008 0.341466
133.183228 83.737015 8.273151 0.822324
133.183228 83.737015 7.408946 0.826902
133.102371 83.777008 6.573291 0.726864
133.361847 83.648659 5.685340 0.710811
132.742737 83.954918 4.937595 0.757961
133.375092 83.642105 4.035924 0.635615
133.374969 83.642166 3.219815 0.647059
133.183258 83.737000 2.409814 0.822614
133.203461 83.727005 1.590555 0.744808
133.102417 83.776993 0.765247 0.725628
133.767517 83.447983 -0.000027 0.536065
140.047775 80.341324 -0.000019 0.544762
143.545532 78.611092 -0.000015 0.570748
145.778534 77.506485 -0.000013 0.334676
147.330566 76.738747 -0.000010 0.342916
148.474030 76.173111 -0.000008 0.344762
133.566772 83.739685 8.187484 0.719997
133.566772 83.739685 7.335083 0.734920
133.566788 83.739677 6.494647 0.734707
133.588043 83.728973 5.660637 0.736080
133.566910 83.739616 4.841699 0.761761
133.566910 83.739616 4.025421 0.650477
133.596603 83.724670 3.211882 0.716411
133.566772 83.739685 2.404219 0.766308
133.566772 83.739685 1.595782 0.733928
133.566788 83.739677 0.786478 0.766186
133.843552 83.600357 -0.000027 0.537209
140.101974 80.449928 -0.000019 0.537484
143.587570 78.695313 -0.000014 0.551141
145.812805 77.575150 -0.000012 0.336065
147.359436 76.796593 -0.000010 0.336416
148.498917 76.222984 -0.000008 0.343526
133.891953 83.766884 8.117943 0.678431
133.891953 83.766884 7.275121 0.678431
133.872421 83.776886 6.448125 0.741878
133.891983 83.766876 5.622982 0.678431
133.891983 83.766876 4.809773 0.678431
133.891983 83.766869 4.002666 0.678431
134.156036 83.631630 3.185308 0.710079
133.891953 83.766884 2.399676 0.678431
133.891953 83.766884 1.600324 0.678431
133.872437 83.776886 0.799039 0.746380
133.920639 83.752190 -0.000027 0.536004
140.156921 80.558144 -0.000019 0.542123
143.630188 78.779243 -0.000015 0.560815
145.847549 77.643570 -0.000013 0.331624
147.388702 76.854233 -0.000010 0.334081
148.524155 76.272690 -0.000008 0.337636
134.260986 83.766884 8.035814 0.678431
134.260986 83.766884 7.204307 0.678431
134.241760 83.776894 6.388416 0.727382
134.260986 83.766884 5.574352 0.678431
134.260986 83.766884 4.772058 0.678431
134.260986 83.766884 3.975785 0.678431
134.521881 83.630951 3.169323 0.692241
134.260986 83.766884 2.394310 0.678431
134.260986 83.766884 1.605690 0.678431
134.241760 83.776894 0.815159 0.731945
134.357559 83.716560 0.033143 0.661326
140.212631 80.665977 -0.000019 0.543832
143.673386 78.862869 -0.000014 0.553750
145.931610 77.686295 0.010010 1.000000
147.418381 76.911667 -0.000010 0.337652
148.549744 76.322212 -0.000008 0.332815
134.620239 83.766884 7.956153 0.678431
134.620239 83.766884 7.135622 0.678431
134.601349 83.776901 6.330500 0.732219
134.620224 83.766891 5.527180 0.678431
134.620224 83.766891 4.735475 0.678431
134.620239 83.766891 3.949710 0.678431
134.876312 83.631187 3.153915 0.701488
134.620239 83.766884 2.389106 0.678431
134.620239 83.766884 1.610894 0.678431
134.601334 83.776901 0.830796 0.755856
134.714691 83.716835 0.059055 0.653452
140.269089 80.773415 -0.000019 0.536477
143.717163 78.946198 -0.000014 0.542901
145.967117 77.753891 0.010008 1.000000
147.448441 76.968895 -0.000010 0.337530
148.575668 76.371559 -0.000007 0.334859
134.970169 83.766884 7.878848 0.678431
134.970154 83.766884 7.068965 0.678431
134.951599 83.776886 6.274291 0.743191
134.970139 83.766891 5.481401 0.678431
134.970139 83.766899 4.699972 0.678431
135.138443 83.676201 3.908730 0.922133
135.221664 83.631348 3.138956 0.723323
134.970169 83.766884 2.384056 0.678431
134.970154 83.766884 1.615944 0.678431
134.951569 83.776901 0.845971 0.736553
135.062469 83.717148 0.084193 0.650126
140.326294 80.880463 -0.000019 0.528786
143.761536 79.029213 -0.000014 0.518318
145.954636 77.847351 -0.000012 0.340948
147.478912 77.025917 -0.000009 0.328817
148.601944 76.420715 -0.000007 0.338094
135.311127 83.766884 7.803804 0.678431
135.311127 83.766884 7.004259 0.678431
135.292892 83.776878 6.219726 0.743038
135.311096 83.766907 5.436964 0.678431
135.311096 83.766907 4.665509 0.678431
135.419876 83.707298 3.889671 0.891814
135.521683 83.651512 3.126478 0.711727
135.311142 83.766884 2.379153 0.678431
135.311142 83.766884 1.620847 0.678431
135.292847 83.776901 0.860703 0.769985
135.402924 83.716583 0.108744 0.653681
140.384247 80.987106 -0.000018 0.556542
143.806473 79.111923 -0.000015 0.550942
145.991272 77.914780 -0.000012 0.328389
147.509781 77.082718 -0.000009 0.340597
148.628555 76.469696 -0.000008 0.338750
135.615448 83.782524 7.738976 0.626932
135.615448 83.782524 6.948362 0.616312
135.615448 83.782524 6.168846 0.627253
135.615448 83.782524 5.398566 0.639887
135.615448 83.782524 4.635730 0.660685
135.615448 83.782524 3.878617 0.640742
135.615448 83.782524 3.125558 0.676661
135.615448 83.782532 2.374918 0.603922
135.615448 83.782524 1.625082 0.657588
135.615448 83.782524 0.874441 0.639078
135.615448 83.782524 0.121382 0.650523
140.442947 81.093346 -0.000018 0.548837
143.851990 79.194313 -0.000014 0.539559
146.028381 77.981941 -0.000011 0.554955
147.541046 77.139305 -0.000009 0.337682
148.655518 76.518486 -0.000007 0.333700
135.619949 83.963791 7.760228 0.630198
135.619965 83.963783 6.966683 0.673518
135.619965 83.963776 6.184281 0.628946
135.619965 83.963776 5.411148 0.623529
135.619965 83.963776 4.645488 0.626245
135.619965 83.963776 3.885571 0.638834
135.619965 83.963776 3.129726 0.633127
135.619949 83.963791 2.376306 0.620340
135.619995 83.963768 1.623694 0.631617
135.620041 83.963745 0.870278 0.623529
135.620087 83.963715 0.114438 0.623529
140.502380 81.199165 -0.000018 0.541451
143.898087 79.276382 -0.000014 0.539742
146.065964 78.048851 -0.000011 0.524208
147.572708 77.195671 -0.000009 0.338170
148.682800 76.567085 -0.000007 0.331182
135.620392 84.148766 7.783104 0.642802
135.620392 84.148766 6.986410 0.649348
135.620392 84.148766 6.200903 0.627070
135.620392 84.148766 5.424699 0.647059
135.620392 84.148766 4.655996 0.620722
135.620392 84.148766 3.893063 0.644022
135.620392 84.148766 3.134213 0.630976
135.620392 84.148758 2.377801 0.607950
135.620392 84.148766 1.622199 0.654795
135.620377 84.148773 0.865786 0.654429
135.620361 84.148781 0.106934 0.634562
140.562546 81.304573 -0.000019 0.556344
143.944763 79.358124 -0.000014 0.515862
146.104004 78.115494 -0.000012 0.543770
147.604752 77.251816 -0.000009 0.343771
148.710449 76.615494 -0.000007 0.335714
135.620224 84.335587 7.806624 0.613046
135.620224 84.335579 7.006688 0.629221
135.620239 84.335579 6.217985 0.648646
135.620224 84.335579 5.438626 0.678431
135.620239 84.335579 4.666797 0.643290
135.620239 84.335571 3.900760 0.633692
135.620224 84.335579 3.138826 0.649149
135.620224 84.335587 2.379338 0.632105
135.620239 84.335579 1.620663 0.625513
135.620239 84.335571 0.861175 0.612909
135.620239 84.335571 0.099241 0.620401
140.623459 81.409561 -0.000018 0.524224
143.991989 79.439545 -0.000014 0.536294
146.142517 78.181870 -0.000011 0.532708
147.637192 77.307732 -0.000009 0.340246
148.738419 76.663712 -0.000007 0.349569
135.620163 84.523872 7.830589 0.647059
135.620163 84.523872 7.027353 0.621134
135.620163 84.523865 6.235394 0.602686
135.620163 84.523865 5.452817 0.623484
135.620163 84.523865 4.677803 0.705303
135.620163 84.523865 3.908605 0.643839
135.620163 84.523865 3.143525 0.642008
135.620148 84.523872 2.380903 0.620386
135.620163 84.523865 1.619097 0.632288
135.620193 84.523849 0.856476 0.686030
135.620163 84.523865 0.091394 0.647059
140.685089 81.514114 -0.000018 0.533578
144.039795 79.520630 -0.000014 0.556191
146.181473 78.247971 -0.000011 0.536660
147.670029 77.363426 -0.000009 0.337865
148.766724 76.711731 -0.000007 0.337911
135.620163 84.713692 7.855020 0.685069
135.620163 84.713692 7.048419 0.604456
135.620178 84.713684 6.253141 0.666667
135.620178 84.713684 5.467285 0.652277
135.620178 84.713684 4.689024 0.641443
135.620178 84.713684 3.916603 0.647211
135.620178 84.713684 3.148317 0.595560
135.620163 84.713699 2.382499 0.632105
135.620148 84.713699 1.617501 0.652125
135.620193 84.713669 0.851684 0.624598
135.620056 84.713753 0.083387 0.614755
140.747467 81.618233 -0.000018 0.546273
144.088165 79.601387 -0.000014 0.530739
146.220917 78.313805 -0.000011 0.521065
147.703247 77.418884 -0.000009 0.337270
148.795364 76.759552 -0.000006 0.335195
135.620209 84.905090 7.879932 0.657115
135.620209 84.905090 7.069899 0.656703
135.620209 84.905090 6.271238 0.645975
135.620209 84.905083 5.482038 0.650004
135.620224 84.905083 4.700465 0.648295
135.620209 84.905090 3.924757 0.678431
135.620224 84.905083 3.153203 0.616358
135.620209 84.905098 2.384127 0.624903
135.620209 84.905098 1.615873 0.647059
135.620239 84.905075 0.846797 0.667353
135.620026 84.905205 0.075223 0.648035
140.810547 81.721924 -0.000018 0.545647
144.137100 79.681793 -0.000014 0.544106
146.260803 78.379356 -0.000011 0.537545
147.736862 77.474113 -0.000008 0.333303
148.824341 76.807167 -0.000006 0.313802
135.620270 85.098129 7.905343 0.623484
135.620270 85.098129 7.091809 0.617838
135.620270 85.098129 6.289697 0.676890
135.620270 85.098122 5.497086 0.693812
135.620270 85.098129 4.712135 0.632334
135.620270 85.098129 3.933076 0.617746
135.620270 85.098129 3.158187 0.623529
135.620270 85.098129 2.385787 0.637507
135.620270 85.098129 1.614213 0.647059
135.620270 85.098129 0.841813 0.665934
135.620087 85.098236 0.066906 0.642008
140.874374 81.825165 -0.000018 0.533211
144.186584 79.761864 -0.000014 0.533562
146.301147 78.444626 -0.000011 0.564782
147.770844 77.529106 -0.000008 0.334600
148.853653 76.854584 -0.000007 0.332174
135.610306 85.299187 7.934232 0.776471
135.610306 85.299187 7.116718 0.782727
135.610321 85.299179 6.310683 0.804486
135.610306 85.299187 5.514196 0.776471
135.610306 85.299187 4.725406 0.776471
135.610306 85.299187 3.942533 0.782727
135.683533 85.252853 3.159596 0.699138
135.610306 85.299187 2.387674 0.776471
135.610306 85.299187 1.612326 0.782727
135.610306 85.299187 0.836147 0.787411
135.620193 85.292938 0.058425 0.665934
140.938904 81.927956 -0.000018 0.553719
144.236633 79.841583 -0.000014 0.549340
146.341949 78.509621 -0.000011 0.521569
147.805222 77.583855 -0.000008 0.332357
148.883286 76.901794 -0.000006 0.337377
135.555786 85.530800 7.976938 0.678431
135.555786 85.530800 7.153540 0.678431
135.610306 85.495773 6.329914 0.772717
135.555786 85.530800 5.539485 0.678431
135.555786 85.530800 4.745018 0.678431
135.555786 85.530800 3.956512 0.678431
135.705994 85.434296 3.163458 0.716197
135.555786 85.530800 2.390464 0.678431
135.555786 85.530800 1.609536 0.678431
135.610321 85.495773 0.830955 0.776471
135.620331 85.489334 0.049776 0.604288
141.004150 82.030296 -0.000018 0.515969
144.287247 79.920952 -0.000014 0.568521
146.383209 78.574326 -0.000011 0.528771
147.839981 77.638367 -0.000008 0.344411
148.913254 76.948792 -0.000006 0.339498
135.555786 85.729698 8.004014 0.678431
135.555786 85.729698 7.176886 0.678431
135.610306 85.694130 6.349529 0.705730
135.555786 85.729698 5.555520 0.678431
135.555786 85.729698 4.757453 0.678431
135.555786 85.729698 3.965375 0.678431
135.705750 85.631866 3.168743 0.690059
135.555786 85.729698 2.392233 0.678431
135.555786 85.729698 1.607767 0.678431
135.610321 85.694122 0.825659 0.782727
135.620483 85.687492 0.040957 0.669734
141.070114 82.132179 -0.000017 0.550027
144.338394 79.999969 -0.000014 0.524224
146.424896 78.638741 -0.000011 0.538674
147.913940 77.667297 0.010006 1.000000
148.943558 76.995590 -0.000006 0.336004
135.555801 85.930412 8.031630 0.678431
135.555786 85.930412 7.200700 0.678431
135.610306 85.894302 6.369536 0.778805
135.570572 85.920624 5.569245 0.140063
135.555786 85.930412 4.770137 0.678431
135.555786 85.930412 3.974415 0.678431
135.704590 85.831848 3.174187 0.694957
135.555801 85.930412 2.394037 0.678431
135.555801 85.930412 1.605963 0.678431
135.610321 85.894302 0.820257 0.777676
135.620270 85.887703 0.031925 0.654734
141.136780 82.233597 -0.000018 0.533501
144.390106 80.078621 -0.000013 0.524407
146.467056 78.702866 -0.000011 0.527535
147.949265 77.721054 0.010004 1.000000
148.974167 77.042168 -0.000006 0.340291
135.555801 86.132996 8.059799 0.678431
135.555786 86.132996 7.224988 0.678431
135.610306 86.096336 6.389945 0.773877
135.608597 86.097481 5.579116 0.715663
135.555786 86.132996 4.783075 0.678431
135.555786 86.132996 3.983637 0.678431
135.701050 86.035316 3.179881 0.695811
135.555786 86.132996 2.395877 0.678431
135.555786 86.132996 1.604123 0.678431
135.610321 86.096336 0.814746 0.775097
135.620468 86.089508 0.022753 0.679744
141.204163 82.334549 -0.000017 0.528267
144.442352 80.156914 -0.000013 0.533684
146.509659 78.766685 -0.000011 0.525933
147.984970 77.774559 0.010003 1.000000
149.005112 77.088531 -0.000006 0.338659
135.555786 86.337486 8.088533 0.678431
135.555786 86.337494 7.249763 0.678431
135.610306 86.300270 6.410759 0.681788
135.610321 86.300270 5.595780 0.747890
135.555786 86.337494 4.796271 0.678431
135.555786 86.337494 3.993043 0.678431
135.697403 86.240814 3.185692 0.693980
135.555786 86.337494 2.397754 0.678431
135.555786 86.337494 1.602246 0.678431
135.610306 86.300278 0.809126 0.786389
135.620361 86.293419 0.013366 0.666392
141.272247 82.435028 -0.000017 0.528359
144.495163 80.234840 -0.000014 0.521111
146.552704 78.830215 -0.000011 0.546731
147.982773 77.853943 -0.000007 0.331868
149.036377 77.134674 -0.000006 0.335012
135.555786 86.543945 8.117840 0.678431
135.555786 86.543945 7.275033 0.678431
135.607910 86.507820 6.432520 0.719783
135.610321 86.506165 5.613087 0.695842
135.555786 86.543945 4.809731 0.678431
135.555786 86.543945 4.002636 0.678431
135.610306 86.506165 3.196605 0.787121
135.555786 86.543945 2.399668 0.678431
135.555786 86.543945 1.600331 0.678431
135.610306 86.506165 0.803394 0.735363
135.620300 86.499237 0.003799 0.623529
141.341034 82.535034 -0.000017 0.528572
144.548492 80.312393 -0.000013 0.547356
146.596191 78.893440 -0.000011 0.561608
148.019409 77.907211 -0.000007 0.339727
149.067978 77.180603 -0.000005 0.332311
135.555786 86.752403 8.147730 0.678431
135.555801 86.752403 7.300805 0.678431
135.555801 86.752403 6.465771 0.678431
135.610321 86.714050 5.630739 0.776471
135.555786 86.752403 4.823459 0.678431
135.555786 86.752403 4.012421 0.678431
135.610306 86.714066 3.202452 0.807111
135.555786 86.752403 2.401621 0.678431
135.555786 86.752403 1.598379 0.678431
135.610306 86.714066 0.797548 0.732601
135.679459 86.665421 -0.000024 0.549661
141.410507 82.634552 -0.000017 0.547463
144.602386 80.389580 -0.000013 0.525353
146.640121 78.956360 -0.000011 0.540932
148.056427 77.960220 -0.000007 0.336782
149.099884 77.226311 -0.000006 0.338109
135.555801 86.962921 8.178217 0.678431
135.555786 86.962921 7.327092 0.678431
135.555801 86.962921 6.487918 0.678431
135.610321 86.924004 5.648745 0.776471
135.555786 86.962921 4.837460 0.678431
135.555786 86.962921 4.022400 0.678431
135.610306 86.924011 3.208415 0.786282
135.555786 86.962921 2.403613 0.678431
135.555786 86.962921 1.596387 0.678431
135.610306 86.924011 0.791585 0.727062
135.777908 86.804367 -0.000024 0.544671
141.480682 82.733582 -0.000017 0.515251
144.656799 80.466377 -0.000013 0.563882
146.684479 79.018974 -0.000010 0.537743
148.093796 78.012970 -0.000009 0.533013
149.132111 77.271790 -0.000005 0.346120
135.610306 87.136055 8.192450 0.789212
135.610306 87.136055 7.339365 0.783642
135.610306 87.136055 6.498257 0.776471
135.610321 87.136047 5.667109 0.783429
135.610321 87.136047 4.843996 0.790402
135.610306 87.136055 4.027060 0.771435
135.610306 87.136055 3.214497 0.805402
135.610321 87.136047 2.404543 0.771603
135.610306 87.136055 1.595457 0.777691
135.610306 87.136055 0.785503 0.784390
135.877335 86.942619 -0.000024 0.522454
141.551544 82.832123 -0.000017 0.557656
144.711761 80.542801 -0.000013 0.533455
146.729279 79.081276 -0.000011 0.569787
148.131531 78.065460 -0.000009 0.529992
149.164658 77.317047 -0.000005 0.328923
135.619598 87.343437 8.221193 0.620554
135.619598 87.343430 7.364146 0.642237
135.619614 87.343414 6.519129 0.691417
135.619583 87.343437 5.684133 0.661799
135.619598 87.343430 4.857197 0.677928
135.619598 87.343422 4.036467 0.675578
135.619614 87.343414 3.220132 0.623529
135.619583 87.343437 2.406421 0.654902
135.619751 87.343315 1.593582 0.670039
135.619965 87.343163 0.779888 0.621805
135.977722 87.080170 -0.000024 0.538552
141.623093 82.930161 -0.000017 0.516945
144.767242 80.618835 -0.000013 0.549493
146.774521 79.143257 -0.000010 0.558709
148.169647 78.117676 -0.000009 0.575784
149.197510 77.362076 -0.000005 0.349157
135.057419 87.979095 8.429117 0.785229
134.360001 88.499306 7.731343 0.678431
135.720016 87.484833 6.519761 0.677287
135.705994 87.495300 5.687238 0.724392
134.360001 88.499306 5.052782 0.678431
135.719833 87.484970 4.036769 0.635294
135.720276 87.484650 3.220288 0.635294
134.389999 88.476929 2.433629 0.777966
135.720337 87.484604 1.593529 0.647059
135.719940 87.484894 0.779692 0.678431
136.079056 87.217018 -0.000024 0.533806
141.695313 83.027702 -0.000017 0.536202
144.823257 80.694481 -0.000013 0.557885
146.820190 79.204926 -0.000010 0.537530
148.208115 78.169632 -0.000009 0.511788
149.230682 77.406868 -0.000005 0.334462
135.164871 88.122475 8.429173 0.788800
134.390015 88.708939 7.753361 0.774258
135.693588 87.722321 6.549564 0.640848
135.705658 87.713188 5.706694 0.684276
134.389999 88.708939 5.064511 0.767742
135.693588 87.722321 4.050180 0.659205
134.610001 88.542435 3.295110 0.762982
134.389999 88.708939 2.435910 0.774838
135.720108 87.702248 1.591387 0.647059
135.693588 87.722321 0.771650 0.659983
136.181351 87.353157 -0.000024 0.547219
141.768234 83.124733 -0.000016 0.539101
144.879807 80.769737 -0.000013 0.537621
146.866287 79.266273 -0.000010 0.543175
148.246948 78.221313 -0.000008 0.575845
149.264175 77.451431 -0.000005 0.331945
135.273392 88.265068 8.429211 0.759594
134.610001 88.774475 7.724157 0.724590
135.693695 87.942314 6.573817 0.643519
135.705795 87.933029 5.726447 0.694743
134.610001 88.774483 5.048956 0.751385
135.693695 87.942322 4.061110 0.652827
134.610001 88.774483 3.302022 0.731533
134.610001 88.774475 2.433698 0.727764
135.720291 87.921906 1.589210 0.647440
135.693695 87.942322 0.765102 0.660365
136.284592 87.488579 -0.000024 0.537423
141.841812 83.221252 -0.000016 0.559564
144.936874 80.844589 -0.000012 0.558938
146.912796 79.327301 -0.000010 0.555871
148.286148 78.272728 -0.000009 0.493370
149.297958 77.495758 -0.000005 0.329381
135.383057 88.406784 8.429201 0.722286
134.835587 88.833282 7.693387 0.657343
135.693726 88.164757 6.598577 0.664332
135.705917 88.155251 5.746600 0.728191
134.835587 88.833282 5.032567 0.626657
135.693726 88.164757 4.072267 0.652613
134.835587 88.833282 3.295023 0.671336
134.835587 88.833282 2.431366 0.658122
135.720322 88.144035 1.586986 0.647059
135.693726 88.164757 0.758417 0.660731
136.388763 87.623276 -0.000024 0.536202
141.916077 83.317261 -0.000017 0.516442
144.994461 80.919052 -0.000013 0.564095
146.959747 79.388000 -0.000010 0.548302
148.325699 78.323868 -0.000009 0.509392
149.332062 77.539856 -0.000005 0.328969
135.493546 88.547852 8.429241 0.797024
135.131271 88.834167 7.643264 0.645136
135.693695 88.389664 6.623841 0.662486
135.706009 88.379929 5.767162 0.718715
135.131256 88.834167 5.005868 0.653681
135.693695 88.389664 4.083652 0.656306
135.131271 88.834160 3.283621 0.665904
135.131271 88.834167 2.427568 0.649195
135.720184 88.368729 1.584715 0.635294
135.693695 88.389664 0.751595 0.655161
136.493896 87.757248 -0.000023 0.548684
141.990997 83.412750 -0.000017 0.547814
145.052567 80.993103 -0.000013 0.512520
147.007126 79.448372 -0.000010 0.572427
148.365601 78.374725 -0.000008 0.523476
149.366486 77.583710 -0.000005 0.324590
135.579285 88.708771 8.437538 0.779324
135.421616 88.835190 7.594339 0.647059
135.693695 88.617050 6.649611 0.649592
135.706070 88.607132 5.788146 0.691356
135.421616 88.835190 4.979808 0.615854
135.693695 88.617050 4.095264 0.658396
135.421616 88.835190 3.272493 0.670207
135.421600 88.835190 2.423861 0.677470
135.720047 88.595924 1.582398 0.666667
135.693695 88.617050 0.744639 0.656275
136.599945 87.890472 -0.000023 0.530571
142.066589 83.507706 -0.000016 0.517922
145.111191 81.066742 -0.000012 0.557321
147.054916 79.508408 -0.000010 0.514946
148.405869 78.425308 -0.000008 0.538231
149.401199 77.627319 -0.000005 0.330663
135.664017 88.871132 8.446577 0.696513
135.619324 88.907478 7.570926 0.599496
135.719849 88.825714 6.669761 0.647059
135.706055 88.836929 5.809563 0.704204
135.619324 88.907471 4.967336 0.620829
135.719910 88.825668 4.104339 0.666667
135.719543 88.825974 3.260821 0.654902
135.619293 88.907501 2.422088 0.613550
135.720108 88.825508 1.580038 0.647059
135.719849 88.825714 0.739199 0.648646
136.706940 88.022957 -0.000023 0.543755
142.142838 83.602135 -0.000016 0.526299
145.170334 81.139977 -0.000012 0.542504
147.103119 79.568108 -0.000010 0.543221
148.446487 78.475601 -0.000008 0.497154
149.467209 77.645477 0.010003 1.000000
141.206696 84.531731 6.683744 0.394644
135.620270 89.140137 7.602607 0.667826
135.620270 89.140129 6.720029 0.649882
135.706039 89.069382 5.831413 0.728893
135.620270 89.140137 4.984211 0.623529
135.620270 89.140137 4.126997 0.634470
135.620270 89.140137 3.274374 0.675349
135.620300 89.140114 2.424488 0.674388
135.620300 89.140114 1.575513 0.645457
135.620300 89.140114 0.725628 0.613260
136.814835 88.154694 -0.000023 0.532647
142.219742 83.696030 -0.000016 0.530266
145.229980 81.212799 -0.000013 0.540185
147.151749 79.627472 -0.000010 0.538521
148.487442 78.525612 -0.000009 0.570214
149.502350 77.688393 0.010001 1.000000
141.519699 84.440033 6.608760 0.398657
135.555801 89.430206 7.653353 0.678431
135.555801 89.430206 6.762783 0.678431
141.906311 84.116539 4.654487 0.398810
135.555801 89.430206 5.011241 0.678431
135.555786 89.430206 4.146263 0.678431
135.610291 89.384613 3.282426 0.802563
135.555801 89.430206 2.428333 0.678431
135.555801 89.430206 1.571667 0.678431
135.610291 89.384613 0.717574 0.793912
136.923660 88.285675 -0.000022 0.528435
142.297302 83.789383 -0.000016 0.537682
145.290131 81.285202 -0.000012 0.539284
147.200790 79.686493 -0.000010 0.530449
148.528763 78.575340 -0.000008 0.575128
149.537796 77.731056 0.010001 1.000000
141.981796 84.216339 6.484139 0.398108
135.555801 89.669884 7.686711 0.678431
135.555801 89.669884 6.790886 0.678431
135.705872 89.542511 5.876471 0.698039
135.555801 89.669884 5.029009 0.678431
135.555801 89.669884 4.158927 0.678431
135.610291 89.623627 3.289992 0.782818
