# This PCD file was generated using the MATLAB® pcwrite function
# from Computer Vision Toolbox®.
# .PCD v.7 - Point Cloud Data file format
VERSION .7
FIELDS x y z intensity
SIZE 4 4 4 4
TYPE F F F F
COUNT 1 1 1 1
WIDTH 1232
HEIGHT 1
VIEWPOINT 0 0 0 1 0 0 0
POINTS 1232
DATA ascii
146.920685 13.449452 -0.000008 0.511452
148.082977 14.732913 -0.000006 0.483146
148.939285 15.678507 -0.000005 0.501854
133.248245 -1.324743 9.795447 0.673350
133.285797 -1.283855 8.709539 0.549447
133.150208 -1.431498 7.689063 0.654231
133.150192 -1.431511 6.637893 0.666987
133.150208 -1.431499 5.596877 0.647059
133.285782 -1.283873 4.547240 0.620203
133.285797 -1.283857 3.526158 0.537697
132.891907 -1.712759 2.517886 0.308858
132.891907 -1.712759 1.482115 0.309804
132.891907 -1.712761 0.445234 0.333333
137.800018 3.631586 -0.000018 0.532479
142.539337 8.792131 -0.000013 0.541802
145.178879 11.666274 -0.000009 0.555566
146.863983 13.501162 -0.000007 0.565682
148.035202 14.776475 -0.000006 0.503471
148.898102 15.716066 -0.000005 0.556130
133.044800 -1.224403 9.811597 0.681376
133.285797 -0.965641 8.659082 0.577417
133.050201 -1.218603 7.672977 0.666667
133.150192 -1.111244 6.603015 0.654902
133.050201 -1.218605 5.586707 0.671534
133.285782 -0.965649 4.528084 0.663279
133.285797 -0.965639 3.514680 0.552758
132.955276 -1.320530 2.512469 0.968627
132.955276 -1.320532 1.487531 0.968627
132.955261 -1.320536 0.461494 0.968627
137.674988 3.747206 -0.000018 0.537118
142.450226 8.874537 -0.000013 0.540139
145.109772 11.730186 -0.000009 0.547997
146.807648 13.553262 -0.000008 0.523003
147.987747 14.820370 -0.000006 0.544732
148.857178 15.753914 -0.000005 0.577066
133.050186 -0.901617 9.751699 0.678431
133.285797 -0.652151 8.609697 0.559106
133.050201 -0.901608 7.630907 0.678431
133.150177 -0.795742 6.568880 0.648096
133.050201 -0.901609 5.560108 0.678431
133.285782 -0.652163 4.509335 0.590097
133.285797 -0.652153 3.503447 0.595148
132.891876 -1.069241 2.510179 0.322072
132.891876 -1.069241 1.489821 0.333745
132.891876 -1.069237 0.468368 0.334020
137.550781 3.863695 -0.000018 0.535393
142.361694 8.957567 -0.000013 0.552377
145.041107 11.794576 -0.000009 0.551614
146.751678 13.605757 -0.000007 0.569619
147.940582 14.864593 -0.000006 0.499138
148.816513 15.792048 -0.000005 0.542885
133.285782 -0.343283 9.609688 0.526497
133.285797 -0.343269 8.561356 0.651347
133.050186 -0.589270 7.589726 0.678431
133.101852 -0.535326 6.545829 0.647059
133.050186 -0.589268 5.534072 0.678431
133.285782 -0.343275 4.490983 0.537362
133.285797 -0.343262 3.492451 0.678431
132.891876 -0.754557 2.506448 0.312306
132.891876 -0.754557 1.493552 0.320806
132.891891 -0.754553 0.479571 0.333333
137.427399 3.981050 -0.000018 0.531868
142.273743 9.041212 -0.000013 0.530831
144.972900 11.859445 -0.000010 0.557717
146.696075 13.658638 -0.000008 0.524742
147.893738 14.909145 -0.000006 0.476341
148.776123 15.830462 -0.000005 0.496834
133.285782 -0.038870 9.554802 0.491234
133.285797 -0.038853 8.514031 0.555032
133.050186 -0.281445 7.549411 0.678431
133.050186 -0.281446 6.524042 0.678431
133.050186 -0.281443 5.508584 0.678431
133.285782 -0.038860 4.473015 0.453620
133.285797 -0.038849 3.481687 0.456825
132.891876 -0.444435 2.502795 0.302754
132.891876 -0.444435 1.497205 0.343725
132.891891 -0.444429 0.490537 0.325704
137.304825 4.099264 -0.000018 0.536690
142.186386 9.125468 -0.000013 0.542596
144.905151 11.924787 -0.000010 0.537041
146.640839 13.711909 -0.000008 0.559487
147.847214 14.954025 -0.000006 0.559930
148.736008 15.869158 -0.000005 0.547082
133.285782 0.261200 9.501067 0.637034
133.285797 0.261219 8.467697 0.629770
133.050186 0.021988 7.509939 0.678431
133.050186 0.021990 6.491864 0.678431
133.050186 0.021990 5.483627 0.678431
133.285797 0.261209 4.455425 0.709804
133.285797 0.261219 3.471148 0.581384
132.891891 -0.138731 2.499218 0.288640
132.891891 -0.138731 1.500781 0.321569
132.891891 -0.138733 0.501274 0.308980
137.183075 4.218325 -0.000019 0.538903
142.099609 9.210330 -0.000014 0.533639
144.837845 11.990602 -0.000010 0.543496
146.585983 13.765566 -0.000007 0.554070
147.800995 14.999228 -0.000006 0.525826
148.696152 15.908134 -0.000005 0.615824
133.285782 0.557043 9.448451 0.678431
133.285797 0.557064 8.422330 0.678431
133.285797 0.557062 7.410622 0.601831
133.285767 0.557037 6.410903 0.639139
133.285767 0.557030 5.420840 0.678431
133.285782 0.557053 4.438202 0.650324
133.285797 0.557060 3.460829 0.532143
132.983887 0.254763 2.493586 0.968627
132.983887 0.254763 1.506413 0.968627
132.983887 0.254761 0.518182 0.968627
137.062164 4.338236 -0.000019 0.532784
142.013443 9.295798 -0.000013 0.529549
144.771027 12.056888 -0.000010 0.532631
146.531494 13.819601 -0.000008 0.510887
147.755081 15.044752 -0.000006 0.510658
148.656570 15.947386 -0.000005 0.496498
133.285782 0.848785 9.396924 0.594003
133.285797 0.848799 8.377904 0.373938
133.285797 0.848797 7.373195 0.660288
133.285767 0.848774 6.380390 0.678431
133.285767 0.848776 5.397175 0.638025
133.285782 0.848789 4.421335 0.474968
133.285797 0.848803 3.450723 0.367376
132.891876 0.459846 2.492287 0.201526
132.891876 0.459846 1.507712 0.321569
132.891876 0.459848 0.522081 0.325841
136.942108 4.458992 -0.000019 0.545037
141.927856 9.381869 -0.000013 0.530907
144.704651 12.123636 -0.000010 0.525689
146.477386 13.874018 -0.000007 0.553491
147.709503 15.090595 -0.000006 0.517082
148.617279 15.986914 -0.000005 0.533242
133.285782 1.136528 9.346462 0.651362
133.285797 1.136538 8.334394 0.566537
133.285797 1.136534 7.336540 0.678431
133.285767 1.136513 6.350508 0.620523
133.285782 1.136522 5.373998 0.543038
133.285782 1.136532 4.404817 0.557061
133.285797 1.136539 3.440827 0.574289
132.891876 0.752989 2.488929 0.163638
132.891876 0.752987 1.511071 0.300587
132.891876 0.752985 0.532163 0.290196
136.822876 4.580582 -0.000019 0.540642
141.842880 9.468530 -0.000013 0.535775
144.638748 12.190846 -0.000010 0.548409
146.423660 13.928807 -0.000008 0.546868
147.664246 15.136755 -0.000006 0.512825
148.578247 16.026714 -0.000005 0.565789
133.285782 1.420383 9.297038 0.704433
133.285782 1.420383 8.291780 0.623529
133.285782 1.420383 7.300640 0.709804
133.285767 1.420364 6.321239 0.562097
133.285782 1.420383 5.351298 0.709804
133.285782 1.420385 4.388638 0.678431
133.285797 1.420391 3.431134 0.678431
132.891891 1.042166 2.485640 0.129412
132.891891 1.042166 1.514360 0.301961
132.891876 1.042164 0.542038 0.299702
136.704514 4.703001 -0.000019 0.539147
141.758514 9.555780 -0.000014 0.541375
144.573318 12.258513 -0.000010 0.539345
146.370316 13.983974 -0.000008 0.556207
147.619308 15.183229 -0.000007 0.576852
148.539490 16.066776 -0.000009 0.334539
133.285797 1.700462 9.248621 0.587945
133.285782 1.700459 8.250038 0.624781
133.285782 1.700459 7.265471 0.678431
133.285767 1.700445 6.292569 0.559274
133.285797 1.700466 5.329062 0.694636
133.285782 1.700460 4.372790 0.601251
133.285797 1.700470 3.421638 0.678431
132.891891 1.327496 2.482418 0.180392
132.891891 1.327496 1.517582 0.312749
132.891891 1.327496 0.551712 0.302800
136.587006 4.826241 -0.000019 0.536568
141.674759 9.643620 -0.000014 0.545068
144.508362 12.326639 -0.000010 0.521660
146.317368 14.039512 -0.000008 0.508675
147.574692 15.230019 -0.000006 0.555596
148.501022 16.107121 -0.000009 0.344244
133.285797 1.976864 9.201195 0.498695
133.285782 1.976854 8.209145 0.609567
133.285782 1.976856 7.231019 0.586099
133.285782 1.976847 6.264483 0.531914
133.285797 1.976868 5.307280 0.368139
133.285782 1.976856 4.357266 0.568963
133.285797 1.976864 3.412337 0.476280
132.891891 1.609077 2.479261 0.358495
132.891891 1.609076 1.520739 0.310842
132.891891 1.609077 0.561188 0.282750
136.470352 4.950296 -0.000019 0.546883
141.591614 9.732045 -0.000013 0.524468
144.443878 12.395215 -0.000010 0.551125
146.264801 14.095414 -0.000008 0.547066
147.530411 15.277117 -0.000006 0.545144
148.462845 16.147728 -0.000009 0.347570
133.285782 2.249676 9.154734 0.561929
133.285782 2.249668 8.169084 0.429725
133.285782 2.249668 7.197270 0.674617
133.285782 2.249668 6.236967 0.684474
133.285797 2.249689 5.285941 0.646097
133.285782 2.249672 4.342056 0.485100
133.285797 2.249685 3.403224 0.471733
133.285797 2.249681 2.467408 0.658824
133.285782 2.249672 1.532592 0.487297
133.285782 2.249666 0.596774 0.664683
136.354568 5.075167 -0.000020 0.530587
141.509094 9.821048 -0.000014 0.541802
144.379883 12.464236 -0.000010 0.530816
146.212631 14.151684 -0.000008 0.565026
147.486450 15.324522 -0.000007 0.546151
148.454330 16.215668 0.009999 1.000000
133.285782 2.519009 9.109211 0.678431
133.285782 2.519005 8.129831 0.517220
133.285767 2.518993 7.164203 0.575555
133.285782 2.519007 6.210007 0.601038
133.285797 2.519018 5.265034 0.701320
133.285797 2.519011 4.327155 0.625406
133.285797 2.519012 3.394297 0.541329
133.285797 2.519011 2.464433 0.704112
133.285782 2.519003 1.535566 0.487739
133.285767 2.518995 0.605702 0.706218
136.239670 5.200844 -0.000020 0.542931
141.427200 9.910619 -0.000014 0.528908
144.316376 12.533708 -0.000010 0.532189
146.160843 14.208317 -0.000008 0.538125
147.442825 15.372232 -0.000007 0.547250
148.416916 16.256607 0.010001 1.000000
133.285782 2.784941 9.064607 0.527565
133.285797 2.784952 8.091368 0.513298
133.285767 2.784933 7.131802 0.603922
133.285782 2.784948 6.183592 0.527337
133.285797 2.784960 5.244548 0.482185
133.285782 2.784948 4.312554 0.441245
133.285797 2.784950 3.385548 0.350576
133.285797 2.784952 2.461520 0.732769
133.285782 2.784948 1.538481 0.659678
133.285767 2.784937 0.614451 0.672801
136.125641 5.327322 -0.000020 0.552285
141.345932 10.000771 -0.000013 0.532784
144.253342 12.603620 -0.000010 0.522911
146.109467 14.265312 -0.000008 0.530694
147.399536 15.420250 -0.000007 0.566140
148.379745 16.297779 0.009993 1.000000
133.285782 3.047579 9.020899 0.678431
133.285797 3.047586 8.053679 0.593301
133.285767 3.047567 7.100051 0.648783
133.285797 3.047586 6.157707 0.653681
133.285797 3.047596 5.224473 0.539742
133.285797 3.047586 4.298245 0.405264
133.285782 3.047586 3.376976 0.499565
133.285782 3.047583 2.458664 0.705760
133.285782 3.047583 1.541336 0.581369
133.285767 3.047577 0.623023 0.677226
136.012497 5.454588 -0.000020 0.542458
141.265289 10.091477 -0.000014 0.555871
144.190796 12.673969 -0.000010 0.523568
146.058487 14.322664 -0.000008 0.521706
147.356598 15.468567 -0.000006 0.562966
148.342896 16.339230 0.009992 1.000000
133.285782 3.306995 8.978065 0.473732
133.285797 3.307003 8.016748 0.479927
133.285767 3.306986 7.068937 0.485359
133.285797 3.307011 6.132341 0.365652
133.285797 3.307011 5.204802 0.677958
133.285782 3.307003 4.284225 0.552087
133.285782 3.306997 3.368575 0.495933
133.285782 3.306999 2.455866 0.724529
133.285782 3.307001 1.544134 0.586725
133.285782 3.306995 0.631424 0.691630
135.900253 5.582640 -0.000020 0.534157
141.185287 10.182748 -0.000014 0.528054
144.128754 12.744754 -0.000010 0.533028
146.007904 14.380367 -0.000008 0.543557
147.313980 15.517181 -0.000006 0.521111
148.306335 16.380939 0.009993 1.000000
133.285782 3.563284 8.936086 0.457649
133.285797 3.563295 7.980553 0.373846
133.285767 3.563272 7.038444 0.475395
133.285797 3.563301 6.107481 0.456077
133.285797 3.563297 5.185523 0.601083
133.285782 3.563292 4.270483 0.587671
133.285782 3.563282 3.360342 0.427420
133.285782 3.563282 2.453124 0.682811
133.285782 3.563284 1.546876 0.569802
133.285782 3.563282 0.639657 0.671489
135.788895 5.711476 -0.000020 0.538170
141.105911 10.274576 -0.000014 0.539269
144.067200 12.815969 -0.000010 0.550484
145.957718 14.438425 -0.000008 0.557702
147.271698 15.566092 -0.000007 0.524712
148.239777 16.396896 -0.000009 0.340291
133.285767 3.816511 8.894945 0.620508
133.285782 3.816521 7.945080 0.656031
133.285767 3.816507 7.008556 0.471412
133.285797 3.816528 6.083117 0.466819
133.285797 3.816530 5.166627 0.460563
133.285782 3.816521 4.257016 0.614694
133.285767 3.816511 3.352273 0.439399
133.285782 3.816513 2.450436 0.746624
133.285782 3.816513 1.549564 0.581506
133.285782 3.816513 0.647726 0.662501
135.678452 5.841084 -0.000020 0.535607
141.027191 10.366952 -0.000014 0.541650
144.006149 12.887612 -0.000010 0.505333
145.907944 14.496830 -0.000008 0.521813
147.229767 15.615297 -0.000007 0.526589
148.203613 16.439323 -0.000009 0.333745
133.285782 4.066776 8.854619 0.536767
133.285782 4.066780 7.910310 0.639643
133.285782 4.066771 6.979264 0.631708
133.285797 4.066788 6.059237 0.595789
133.285797 4.066786 5.148108 0.618448
133.285782 4.066774 4.243816 0.695979
133.285767 4.066765 3.344366 0.454368
133.285782 4.066769 2.447802 0.693721
133.285782 4.066771 1.552199 0.644541
133.285782 4.066769 0.655635 0.741176
135.568909 5.971466 -0.000020 0.527077
140.949112 10.459882 -0.000014 0.525689
143.945602 12.959680 -0.000011 0.524590
145.858582 14.555584 -0.000008 0.535454
147.188187 15.664793 -0.000007 0.508507
148.167755 16.482002 -0.000009 0.319402
133.285782 4.314133 8.815093 0.638590
133.285782 4.314133 7.876232 0.646860
133.285782 4.314129 6.950552 0.517449
133.285797 4.314146 6.035830 0.709346
133.285797 4.314142 5.129955 0.635966
133.285782 4.314137 4.230877 0.572442
133.285767 4.314127 3.336613 0.526772
133.285767 4.314127 2.445219 0.673289
133.285767 4.314127 1.554781 0.608637
133.285767 4.314129 0.663387 0.740185
135.460266 6.102599 -0.000021 0.529976
140.871689 10.553347 -0.000015 0.547036
143.885559 13.032169 -0.000010 0.507073
145.809631 14.614677 -0.000008 0.543420
147.146942 15.714581 -0.000007 0.545449
148.132202 16.524929 -0.000009 0.337072
133.285782 4.558672 8.776348 0.489403
133.263824 4.540867 7.848929 0.576165
133.263779 4.540825 6.927561 0.700435
133.263702 4.540768 6.017105 0.605280
133.263641 4.540720 5.115441 0.585168
133.285782 4.558664 4.218195 0.612375
133.285767 4.558657 3.329015 0.637949
133.285767 4.558659 2.442688 0.683192
133.285767 4.558661 1.557311 0.590784
133.285767 4.558661 0.670985 0.678431
135.352570 6.234495 -0.000020 0.553094
140.794922 10.647354 -0.000015 0.530221
143.826004 13.105073 -0.000011 0.525719
145.761093 14.674112 -0.000008 0.501396
147.106049 15.764652 -0.000007 0.516960
148.096939 16.568104 -0.000009 0.334829
133.285782 4.800457 8.738367 0.642008
133.086441 4.641117 7.865193 0.647059
133.086441 4.641117 6.941251 0.647059
133.086456 4.641121 6.028252 0.647059
133.086456 4.641121 5.124077 0.647059
133.285767 4.800447 4.205763 0.596536
133.285767 4.800440 3.321566 0.581491
133.285767 4.800442 2.440207 0.562951
133.285767 4.800442 1.559793 0.580331
133.285767 4.800442 0.678434 0.532815
135.245773 6.367137 -0.000020 0.530861
140.718811 10.741898 -0.000014 0.530526
143.766983 13.178395 -0.000010 0.544015
145.712982 14.733887 -0.000008 0.577188
147.065506 15.815010 -0.000007 0.492851
148.061981 16.611523 -0.000009 0.345663
133.285782 5.039553 8.701138 0.643900
133.050171 4.853907 7.842758 0.678431
133.050186 4.853909 6.922350 0.678431
133.050186 4.853910 6.012844 0.678431
133.050186 4.853910 5.112127 0.678431
133.285767 5.039545 4.193576 0.647059
133.285767 5.039541 3.314264 0.709804
133.285767 5.039543 2.437775 0.761929
133.285767 5.039543 1.562225 0.578393
133.285767 5.039543 0.685736 0.730053
135.139923 6.500524 -0.000020 0.539651
140.643356 10.836967 -0.000014 0.548302
143.708466 13.252128 -0.000010 0.551019
145.665268 14.793993 -0.000009 0.547219
147.025330 15.865647 -0.000007 0.509178
148.027344 16.655186 -0.000009 0.342123
133.285782 5.276035 8.664639 0.527626
133.050186 5.093046 7.810934 0.678431
133.050186 5.093044 6.895540 0.678431
133.050186 5.093044 5.990987 0.678431
133.050186 5.093046 5.095176 0.678431
133.285767 5.276030 4.181627 0.678050
133.285767 5.276024 3.307106 0.748287
133.285767 5.276028 2.435390 0.741176
133.285767 5.276028 1.564609 0.541176
133.285767 5.276026 0.692895 0.746822
135.035004 6.634646 -0.000020 0.546548
140.568573 10.932563 -0.000014 0.537530
143.650467 13.326263 -0.000011 0.538643
145.617996 14.854433 -0.000009 0.536217
146.985489 15.916567 -0.000007 0.541695
147.992996 16.699089 -0.000009 0.322576
133.285767 5.509956 8.628860 0.602472
133.050186 5.329599 7.779735 0.678431
133.050186 5.329597 6.869255 0.678431
133.050186 5.329599 5.969558 0.678431
133.050186 5.329601 5.078558 0.678431
133.285767 5.509958 4.169916 0.666758
133.285767 5.509956 3.300087 0.767895
133.285767 5.509958 2.433053 0.769726
133.285767 5.509958 1.566947 0.624170
133.285767 5.509958 0.699912 0.744228
134.931000 6.769490 -0.000021 0.545785
140.494461 11.028676 -0.000014 0.530541
143.592987 13.400803 -0.000011 0.547143
145.571136 14.915199 -0.000009 0.565576
146.946014 15.967761 -0.000007 0.554986
147.958954 16.743231 -0.000009 0.335897
133.285767 5.741398 8.593781 0.574792
133.050186 5.563639 7.749147 0.678431
133.050186 5.563639 6.843486 0.678431
133.050186 5.563639 5.948551 0.678431
133.050186 5.563639 5.062266 0.678431
133.285782 5.741404 4.158431 0.607279
133.285767 5.741397 3.293208 0.709804
133.285767 5.741403 2.430762 0.625864
133.285767 5.741404 1.569239 0.623529
133.285767 5.741398 0.706792 0.704845
134.827972 6.905066 -0.000021 0.549294
140.421005 11.125303 -0.000015 0.529839
143.536026 13.475744 -0.000011 0.524071
145.524704 14.976294 -0.000008 0.524147
146.906891 16.019230 -0.000007 0.486473
147.925217 16.787609 -0.000009 0.328588
133.285767 5.970417 8.559388 0.667643
133.050186 5.795228 7.719158 0.678431
133.050186 5.795228 6.818223 0.678431
133.050186 5.795229 5.927956 0.678431
133.050186 5.795228 5.046294 0.678431
133.285782 5.970425 4.147173 0.518380
133.285767 5.970421 3.286462 0.690196
133.285767 5.970420 2.428515 0.660563
133.285767 5.970420 1.571485 0.627512
133.285767 5.970421 0.713538 0.700969
134.725876 7.041352 -0.000021 0.540627
140.348251 11.222445 -0.000015 0.543069
143.479599 13.551079 -0.000011 0.532113
145.478699 15.037710 -0.000008 0.524269
146.868134 16.070971 -0.000007 0.513130
147.891800 16.832224 -0.000009 0.335485
133.285767 6.197073 8.525667 0.624842
133.050186 6.024421 7.689760 0.678431
133.050186 6.024424 6.793453 0.678431
133.050186 6.024422 5.907763 0.678431
133.050186 6.024424 5.030633 0.678431
133.285767 6.197076 4.136135 0.518227
133.285767 6.197073 3.279849 0.773098
133.285767 6.197075 2.426312 0.796078
133.285767 6.197076 1.573689 0.654902
133.285767 6.197073 0.720151 0.718013
134.624725 7.178350 -0.000021 0.538079
140.276154 11.320091 -0.000014 0.527962
143.423691 13.626807 -0.000011 0.558541
145.433121 15.099447 -0.000008 0.549676
146.829727 16.122974 -0.000010 0.337453
147.858688 16.877068 -0.000009 0.337316
133.285767 6.421420 8.492607 0.678431
133.050186 6.251286 7.660933 0.678431
133.050186 6.251283 6.769168 0.678431
133.050186 6.251285 5.887966 0.678431
133.050186 6.251286 5.015279 0.678431
133.285767 6.421421 4.125314 0.647059
133.285767 6.421420 3.273365 0.741024
133.285767 6.421421 2.424152 0.704631
133.285767 6.421419 1.575848 0.678431
133.285767 6.421420 0.726635 0.639292
134.524551 7.316053 -0.000021 0.537820
140.204758 11.418236 -0.000015 0.541238
143.368317 13.702925 -0.000011 0.549401
145.387970 15.161497 -0.000009 0.538170
146.791702 16.175251 -0.000010 0.342077
147.825897 16.922146 -0.000009 0.331640
133.285767 6.643516 8.460194 0.575265
133.050186 6.475870 7.632673 0.678431
133.050186 6.475872 6.745358 0.678431
133.050186 6.475871 5.868556 0.678431
133.050186 6.475870 5.000226 0.678431
133.285767 6.643517 4.114703 0.647059
133.285767 6.643515 3.267007 0.706493
133.285767 6.643517 2.422034 0.687160
133.285767 6.643517 1.577966 0.598291
133.285767 6.643515 0.732992 0.741176
134.425339 7.454453 -0.000021 0.533791
140.134033 11.516879 -0.000015 0.522164
143.313477 13.779427 -0.000011 0.548028
145.343262 15.223866 -0.000008 0.519524
146.791794 16.254663 0.009999 1.000000
147.793427 16.967449 -0.000009 0.343862
133.285767 6.863415 8.428412 0.686610
133.050186 6.698233 7.604963 0.678431
133.050186 6.698234 6.722015 0.678431
133.050186 6.698232 5.849525 0.678431
133.050186 6.698235 4.985467 0.678431
133.285767 6.863412 4.104300 0.637949
133.285767 6.863415 3.260775 0.676036
133.285767 6.863416 2.419958 0.699535
133.285767 6.863414 1.580042 0.592157
133.285767 6.863413 0.739225 0.678431
134.327087 7.593535 -0.000021 0.543755
140.064011 11.616013 -0.000015 0.524651
143.259155 13.856306 -0.000011 0.561975
145.298981 15.286539 -0.000009 0.539422
146.754654 16.307182 0.009992 1.000000
147.761261 17.012976 -0.000009 0.333776
133.285767 7.081169 8.397257 0.600610
133.050186 6.918432 7.577796 0.678431
133.050186 6.918433 6.699127 0.678431
133.050186 6.918433 5.830866 0.678431
133.050186 6.918435 4.970996 0.678431
133.285767 7.081172 4.094100 0.558587
133.285767 7.081171 3.254663 0.642527
133.285767 7.081171 2.417923 0.658213
133.285767 7.081171 1.582078 0.571939
133.285767 7.081170 0.745335 0.612726
134.229813 7.733306 -0.000021 0.543099
139.994675 11.715632 -0.000015 0.554299
143.205399 13.933567 -0.000011 0.517968
145.255157 15.349525 -0.000008 0.556512
146.717896 16.359978 0.009991 1.000000
147.729416 17.058729 -0.000009 0.333471
133.285767 7.296834 8.366708 0.426856
133.050186 7.136516 7.551160 0.678431
133.050186 7.136516 6.676689 0.678431
133.050186 7.136516 5.812573 0.678431
133.050186 7.136516 4.956809 0.678431
133.285767 7.296837 4.084101 0.449912
133.285767 7.296836 3.248673 0.670039
133.285767 7.296835 2.415927 0.686763
133.285767 7.296835 1.584073 0.573602
133.285767 7.296834 0.751327 0.698039
134.133514 7.873752 -0.000021 0.548333
139.926041 11.815730 -0.000015 0.539605
143.152161 14.011200 -0.000011 0.558526
145.211761 15.412813 -0.000009 0.559487
146.681549 16.413052 0.010000 1.000000
147.697906 17.104702 -0.000009 0.352575
133.285767 7.510461 8.336758 0.651255
133.050186 7.352538 7.525045 0.678431
133.050186 7.352536 6.654687 0.678431
133.050186 7.352539 5.794637 0.678431
133.050186 7.352540 4.942899 0.678431
133.285767 7.510464 4.074296 0.533318
133.285767 7.510467 3.242798 0.661952
133.285767 7.510466 2.413970 0.682490
133.285767 7.510466 1.586030 0.560784
133.285767 7.510465 0.757201 0.684916
134.038208 8.014864 -0.000022 0.535912
139.858109 11.916313 -0.000015 0.545785
143.099487 14.089204 -0.000011 0.541375
145.168808 15.476402 -0.000009 0.533410
146.607071 16.440556 -0.000008 0.334798
147.666702 17.150894 -0.000009 0.342138
133.285767 7.722096 8.307392 0.572671
133.050186 7.566545 7.499443 0.678431
133.050186 7.566546 6.633117 0.678431
133.050186 7.566546 5.777052 0.678431
133.050186 7.566545 4.929262 0.678431
133.285767 7.722096 4.064684 0.528084
133.285767 7.722100 3.237039 0.690425
133.285767 7.722098 2.412052 0.678431
133.285767 7.722098 1.587948 0.611765
133.285767 7.722097 0.762960 0.651591
133.943878 8.156637 -0.000022 0.554482
139.790878 12.017362 -0.000015 0.538750
143.047333 14.167570 -0.000011 0.522972
145.126297 15.540291 -0.000009 0.518746
146.571259 16.494381 -0.000008 0.344228
147.635818 17.197304 -0.000009 0.341176
133.285767 7.931790 8.278604 0.689265
133.050186 7.778593 7.474341 0.678431
133.050186 7.778592 6.611971 0.678431
133.050186 7.778592 5.759812 0.678431
133.050186 7.778594 4.915892 0.678431
133.285767 7.931794 4.055260 0.677592
133.285767 7.931795 3.231392 0.688365
133.285767 7.931795 2.410171 0.707347
133.285767 7.931795 1.589829 0.603922
133.285767 7.931794 0.768607 0.697810
133.850540 8.299068 -0.000022 0.530953
139.724350 12.118878 -0.000015 0.539712
142.995743 14.246302 -0.000011 0.540917
145.084244 15.604475 -0.000009 0.518685
146.535828 16.548454 -0.000007 0.332113
147.605270 17.243927 -0.000010 0.338796
133.285767 8.139588 8.250379 0.628672
133.285767 8.139596 7.389310 0.630259
133.285767 8.139591 6.540335 0.424140
133.285767 8.139593 5.701414 0.655253
133.285767 8.139594 4.870600 0.708461
133.285767 8.139596 4.046021 0.647059
133.285767 8.139594 3.225857 0.748623
133.285767 8.139593 2.408328 0.724330
133.285767 8.139592 1.591673 0.641855
133.285767 8.139593 0.774142 0.767285
133.758194 8.442147 -0.000021 0.534966
139.658539 12.220859 -0.000015 0.540642
142.944702 14.325392 -0.000011 0.525963
145.042633 15.668951 -0.000009 0.540383
146.500778 16.602774 -0.000007 0.341299
147.575043 17.290764 -0.000009 0.343954
133.285767 8.345538 8.222709 0.543084
133.285767 8.345543 7.365453 0.428672
133.285767 8.345542 6.520236 0.678431
133.285767 8.345544 5.685027 0.587289
133.285782 8.345545 4.857892 0.653193
133.285767 8.345543 4.036964 0.630930
133.285767 8.345544 3.220430 0.704173
133.285767 8.345544 2.406520 0.744762
133.285767 8.345544 1.593480 0.684016
133.285767 8.345542 0.779569 0.714290
133.666855 8.585864 -0.000022 0.535073
139.593445 12.323296 -0.000015 0.535622
142.894211 14.404833 -0.000012 0.533700
145.001480 15.733715 -0.000009 0.567041
146.466095 16.657337 -0.000006 0.339925
147.545151 17.337811 -0.000009 0.334554
133.285767 8.549685 8.195581 0.656611
133.285782 8.549687 7.342063 0.609079
133.285767 8.549685 6.500531 0.678431
133.285767 8.549686 5.668964 0.678431
133.285767 8.549686 4.845435 0.596231
133.285767 8.549685 4.028084 0.603098
133.285767 8.549685 3.215111 0.657176
133.285767 8.549685 2.404747 0.706218
133.285767 8.549685 1.595252 0.678431
133.285767 8.549686 0.784889 0.637736
133.576538 8.730219 -0.000022 0.549310
139.529068 12.426184 -0.000015 0.548028
142.844284 14.484628 -0.000011 0.531884
144.960770 15.798765 -0.000009 0.551034
146.431808 16.712141 -0.000006 0.334417
147.515579 17.385063 -0.000009 0.339178
133.285767 8.752066 8.168993 0.548791
133.285767 8.752069 7.319138 0.603922
133.285767 8.752067 6.481215 0.647059
133.285767 8.752069 5.653217 0.506188
133.285767 8.752069 4.833222 0.528893
133.285767 8.752067 4.019381 0.516732
133.285767 8.752069 3.209896 0.666773
133.285767 8.752067 2.403011 0.654902
133.285767 8.752067 1.596989 0.637034
133.285767 8.752069 0.790104 0.688502
133.487213 8.875201 -0.000022 0.547860
139.465393 12.529517 -0.000015 0.532372
142.794907 14.564768 -0.000012 0.554910
144.920517 15.864098 -0.000010 0.537270
146.397903 16.767185 -0.000005 0.343786
147.486343 17.432520 -0.000009 0.336263
133.285767 8.952728 8.142926 0.636469
133.285767 8.952727 7.296663 0.504723
133.285767 8.952728 6.462281 0.372473
133.285767 8.952727 5.637782 0.492470
133.285767 8.952728 4.821252 0.565103
133.285767 8.952727 4.010848 0.559106
133.285767 8.952727 3.204783 0.726085
133.285767 8.952728 2.401308 0.709804
133.285767 8.952728 1.598692 0.592157
133.285767 8.952727 0.795216 0.718166
133.398911 9.020803 -0.000023 0.532082
139.402451 12.633294 -0.000015 0.536126
142.746094 14.645250 -0.000012 0.559945
144.880722 15.929710 -0.000009 0.510979
146.364380 16.822460 -0.000005 0.333928
147.457428 17.480183 -0.000009 0.344762
133.285782 9.151714 8.117376 0.616754
133.285767 9.151711 7.274634 0.676661
133.285767 9.151711 6.443722 0.607599
133.285767 9.151710 5.622653 0.647059
133.285782 9.151712 4.809518 0.614755
133.285782 9.151713 4.002484 0.586404
133.285767 9.151711 3.199773 0.706950
133.285767 9.151712 2.399638 0.775372
133.285767 9.151712 1.600362 0.675090
133.285767 9.151711 0.800227 0.741176
133.311615 9.167018 -0.000022 0.534829
139.340240 12.737509 -0.000016 0.534569
142.697845 14.726074 -0.000012 0.512993
144.841385 15.995598 -0.000010 0.562066
146.331238 16.877972 -0.000005 0.336400
147.428864 17.528044 -0.000009 0.335683
133.191864 9.294320 8.119561 0.645136
133.191864 9.294319 7.276518 0.498878
133.191864 9.294318 6.445310 0.618143
133.191864 9.294319 5.623946 0.709804
133.191864 9.294317 4.810521 0.677928
133.191864 9.294320 4.003200 0.543236
133.191864 9.294319 3.200201 0.726848
133.191864 9.294318 2.399781 0.692653
133.191864 9.294318 1.600218 0.635859
133.191864 9.294319 0.799798 0.682918
133.225342 9.313834 -0.000023 0.537606
139.278763 12.842155 -0.000015 0.555474
142.650162 14.807231 -0.000011 0.527016
144.802521 16.061760 -0.000010 0.530678
146.298492 16.933710 -0.000005 0.333867
147.400620 17.576103 -0.000009 0.339422
132.849045 9.294317 8.193903 0.568994
132.849045 9.294314 7.340617 0.613657
132.849045 9.294314 6.499312 0.641108
132.849045 9.294312 5.667971 0.672450
132.849045 9.294314 4.844664 0.478813
132.849045 9.294313 4.027534 0.532982
132.849045 9.294317 3.214781 0.651301
132.849045 9.294313 2.404638 0.697292
132.849045 9.294313 1.595362 0.605447
132.849045 9.294316 0.785219 0.670542
133.140106 9.461255 -0.000022 0.536309
139.218018 12.947230 -0.000015 0.530007
142.603058 14.888720 -0.000012 0.544503
144.764099 16.128191 -0.000010 0.569299
146.266129 16.989677 -0.000004 0.337224
147.372726 17.624361 -0.000009 0.339834
132.497787 9.294313 8.270380 0.639872
132.497787 9.294312 7.406559 0.701167
132.497787 9.294312 6.554865 0.677394
132.497772 9.294309 5.713261 0.535348
132.497787 9.294313 4.879786 0.651026
132.497787 9.294311 4.052569 0.657969
132.497787 9.294313 3.229780 0.516808
132.497787 9.294312 2.409634 0.567132
132.497787 9.294312 1.590366 0.603418
132.497787 9.294312 0.770219 0.665751
133.055908 9.609269 -0.000022 0.532921
139.157990 13.052721 -0.000015 0.524788
142.556503 14.970531 -0.000012 0.551095
144.726242 16.194931 0.000006 0.339635
146.234161 17.045868 -0.000004 0.332921
147.345154 17.672812 -0.000009 0.342382
132.137726 9.294309 8.349083 0.680629
132.137726 9.294311 7.474419 0.623255
132.137726 9.294311 6.612035 0.520150
132.137726 9.294308 5.759867 0.677592
132.137726 9.294309 4.915934 0.521385
132.137726 9.294308 4.078332 0.552560
132.137726 9.294309 3.245216 0.650034
132.137711 9.294307 2.414776 0.694911
132.137711 9.294307 1.585224 0.632578
132.137726 9.294309 0.754784 0.678767
132.972733 9.757860 -0.000023 0.544503
139.098709 13.158632 -0.000015 0.530007
142.510529 15.052671 -0.000012 0.540200
144.688766 16.261894 0.000007 0.339849
146.202591 17.102282 -0.000004 0.341527
147.317932 17.721453 -0.000009 0.344793
131.768478 9.294306 8.430105 0.644266
131.768478 9.294304 7.544280 0.549630
131.768478 9.294303 6.670891 0.495659
131.768478 9.294303 5.807847 0.642741
131.768478 9.294305 4.953144 0.542702
131.768478 9.294304 4.104855 0.633677
131.768478 9.294304 3.261107 0.683925
131.768478 9.294303 2.420068 0.686458
131.768478 9.294303 1.579931 0.627787
131.768478 9.294303 0.738893 0.683986
132.890594 9.907030 -0.000023 0.534188
139.040176 13.264955 -0.000015 0.539269
142.465134 15.135128 -0.000012 0.533928
144.699890 16.355404 0.009988 1.000000
146.171417 17.158915 -0.000004 0.336263
147.291046 17.770283 -0.000009 0.337316
131.389679 9.294302 8.513540 0.490791
131.389679 9.294301 7.616221 0.605234
131.389679 9.294299 6.731501 0.509880
131.389679 9.294298 5.857259 0.470390
131.389679 9.294300 4.991463 0.640848
131.389679 9.294300 4.132166 0.467979
131.389679 9.294299 3.277471 0.697032
131.389679 9.294300 2.425519 0.658946
131.389679 9.294300 1.574481 0.668467
131.389679 9.294299 0.722529 0.693355
132.809509 10.056770 -0.000023 0.539818
138.982376 13.371679 -0.000016 0.531533
142.420303 15.217899 -0.000012 0.549859
144.663544 16.422550 0.009991 1.000000
146.140625 17.215763 -0.000003 0.336980
147.264496 17.819298 -0.000009 0.330617
131.000900 9.294298 8.599499 0.430442
131.000900 9.294296 7.690339 0.621103
131.000900 9.294296 6.793941 0.508110
131.000885 9.294294 5.908163 0.491188
131.000900 9.294294 5.030942 0.502708
131.000900 9.294295 4.160305 0.613046
131.000900 9.294295 3.294329 0.652445
131.000900 9.294295 2.431135 0.612055
131.000885 9.294294 1.568865 0.647059
131.000900 9.294295 0.705671 0.570794
132.729477 10.207074 -0.000023 0.535500
138.925323 13.478806 -0.000016 0.536370
142.376068 15.300983 -0.000012 0.536324
144.627655 16.489944 0.009991 1.000000
146.110245 17.272825 -0.000003 0.341634
147.238297 17.868500 -0.000009 0.336004
130.601700 9.294295 8.688086 0.603525
130.601700 9.294291 7.766722 0.587076
130.601685 9.294290 6.858294 0.611246
130.601685 9.294290 5.960622 0.684520
130.601685 9.294290 5.071628 0.579980
130.601700 9.294291 4.189302 0.672480
130.601700 9.294291 3.311704 0.586465
130.601685 9.294289 2.436923 0.693385
130.601685 9.294289 1.563078 0.568627
130.601685 9.294290 0.688296 0.619074
132.650482 10.357936 -0.000023 0.546059
138.869019 13.586333 -0.000016 0.553048
142.332397 15.384373 -0.000012 0.528862
144.543549 16.532307 0.000008 0.339574
146.080261 17.330099 -0.000002 0.340795
147.212448 17.917883 -0.000009 0.344381
130.191620 9.294293 8.779416 0.462272
130.191620 9.294292 7.845469 0.672358
130.191620 9.294290 6.924636 0.708125
130.191620 9.294287 6.014707 0.696208
130.191620 9.294290 5.113572 0.517357
130.191620 9.294291 4.219200 0.422873
130.191620 9.294292 3.329616 0.691157
130.191620 9.294289 2.442888 0.673518
130.191620 9.294289 1.557111 0.564172
130.191620 9.294291 0.670384 0.692500
132.572540 10.509341 -0.000023 0.546029
138.813477 13.694248 -0.000016 0.558923
142.289322 15.468062 -0.000012 0.552270
144.508438 16.600534 0.000008 0.339391
146.050674 17.387579 -0.000002 0.323720
147.186935 17.967445 -0.000009 0.335317
129.770172 9.294292 8.873615 0.642863
129.770172 9.294292 7.926691 0.647059
129.770172 9.294291 6.993061 0.608392
129.770172 9.294288 6.070491 0.580957
129.770172 9.294289 5.156836 0.552590
129.770172 9.294290 4.250034 0.674052
129.770172 9.294291 3.348090 0.677760
129.770172 9.294291 2.449042 0.708476
129.770172 9.294291 1.550958 0.575982
129.770172 9.294290 0.651909 0.735332
132.495682 10.661288 -0.000023 0.547433
138.758682 13.802550 -0.000015 0.531746
142.246826 15.552054 -0.000012 0.539696
144.473785 16.669004 0.000008 0.327932
146.021484 17.445265 -0.000002 0.338079
147.161774 18.017183 -0.000008 0.347051
129.336823 9.294294 8.970813 0.672236
129.336823 9.294293 8.010498 0.678431
129.336823 9.294291 7.063668 0.652323
129.336823 9.294289 6.128051 0.581537
129.336823 9.294291 5.201474 0.606943
129.336823 9.294292 4.281852 0.523766
129.336823 9.294289 3.367154 0.651423
129.336807 9.294288 2.455392 0.717525
129.336807 9.294288 1.544607 0.654047
129.336807 9.294287 0.632846 0.753552
132.419861 10.813769 -0.000023 0.542092
138.704651 13.911228 -0.000016 0.522988
142.204926 15.636341 -0.000012 0.540520
144.439621 16.737715 0.000007 0.340368
145.992706 17.503155 -0.000001 0.331746
147.136963 18.067097 -0.000008 0.342260
128.891022 9.294295 9.071148 0.634180
128.891022 9.294293 8.097011 0.610712
128.891022 9.294291 7.136552 0.678431
128.891022 9.294290 6.187468 0.452598
128.891022 9.294291 5.247555 0.654093
128.891022 9.294291 4.314696 0.678111
128.891022 9.294291 3.386831 0.498711
128.891022 9.294291 2.461947 0.741192
128.891022 9.294291 1.538053 0.573388
128.891022 9.294290 0.613168 0.704601
132.345108 10.966774 -0.000023 0.544121
138.651367 14.020283 -0.000016 0.534157
142.163605 15.720915 -0.000012 0.560769
144.405930 16.806660 0.000007 0.337102
145.964340 17.561241 -0.000001 0.337514
147.112488 18.117182 -0.000008 0.337972
128.432190 9.294296 9.174767 0.639811
128.432175 9.294293 8.186357 0.619852
128.432175 9.294290 7.211823 0.498909
128.432175 9.294287 6.248831 0.575448
128.432175 9.294290 5.295145 0.533425
128.432175 9.294291 4.348616 0.482658
128.432175 9.294291 3.407154 0.481254
128.432175 9.294290 2.468716 0.666667
128.432175 9.294290 1.531283 0.535653
128.432175 9.294291 0.592845 0.664210
132.271439 11.120296 -0.000023 0.528420
138.598862 14.129705 -0.000016 0.538537
142.122879 15.805779 -0.000012 0.529809
144.372742 16.875841 0.000006 0.339788
145.936371 17.619526 -0.000001 0.342046
147.088379 18.167437 -0.000008 0.337362
127.959671 9.294295 9.281832 0.554086
127.959663 9.294293 8.278672 0.639933
127.959656 9.294291 7.289594 0.545800
127.959656 9.294290 6.312233 0.645426
127.959656 9.294291 5.344316 0.666972
127.959656 9.294291 4.383661 0.654261
127.959663 9.294292 3.428152 0.670710
127.959656 9.294291 2.475711 0.702968
127.959656 9.294290 1.524289 0.570443
127.959656 9.294291 0.571848 0.734356
132.198837 11.274332 -0.000023 0.535363
138.547104 14.239492 -0.000016 0.535012
142.082748 15.890924 -0.000012 0.557870
144.340027 16.945255 0.000006 0.338628
145.908798 17.678003 -0.000000 0.333455
147.064606 18.217859 -0.000008 0.332235
127.472816 9.294297 9.392503 0.666392
127.472809 9.294294 8.374098 0.600092
127.472801 9.294291 7.369989 0.614832
127.472794 9.294286 6.377774 0.663081
127.472801 9.294291 5.395145 0.659968
127.472801 9.294291 4.419890 0.562905
127.472801 9.294291 3.449858 0.612284
127.472801 9.294291 2.482941 0.666667
127.472801 9.294291 1.517059 0.523919
127.472794 9.294289 0.550142 0.713603
132.127304 11.428869 -0.000023 0.538445
138.496124 14.349640 -0.000016 0.545754
142.043213 15.976345 -0.000012 0.563653
144.307785 17.014893 0.000006 0.337362
145.881653 17.736675 0.000000 0.329747
147.041199 18.268446 -0.000007 0.334249
126.970901 9.294295 9.506966 0.633783
126.970901 9.294293 8.472790 0.603006
126.970894 9.294291 7.453135 0.660151
126.970886 9.294288 6.445556 0.603464
126.970894 9.294291 5.447712 0.572290
126.970886 9.294289 4.457359 0.662348
126.970894 9.294291 3.472306 0.537346
126.970894 9.294291 2.490419 0.722652
126.970894 9.294291 1.509582 0.581064
126.970886 9.294289 0.527693 0.650706
132.056854 11.583902 -0.000023 0.541131
138.445923 14.460140 -0.000016 0.531075
142.004272 16.062042 -0.000013 0.542870
144.276031 17.084753 0.000005 0.338964
145.854904 17.795532 0.000000 0.340108
147.018143 18.319195 -0.000008 0.331533
126.164230 9.166633 9.704531 0.654948
126.453178 9.294294 8.574911 0.641276
126.453171 9.294291 7.539169 0.600992
126.453163 9.294289 6.515694 0.583658
126.453163 9.294290 5.502108 0.526452
126.453171 9.294291 4.496129 0.534340
126.453171 9.294292 3.495535 0.642039
126.453178 9.294294 2.498156 0.684367
126.453178 9.294294 1.501844 0.579950
126.453171 9.294291 0.504464 0.470893
131.987503 11.739422 -0.000023 0.540093
138.396484 14.570986 -0.000016 0.534264
141.965927 16.148010 -0.000012 0.527062
144.244781 17.154833 0.000004 0.329976
145.828583 17.854574 0.000000 0.338796
146.995438 18.370104 -0.000008 0.334386
125.725990 9.210698 9.800669 0.663523
125.918823 9.294291 8.680638 0.577432
125.918823 9.294291 7.628239 0.498848
125.918823 9.294288 6.588307 0.629419
125.918823 9.294291 5.558422 0.625513
125.918831 9.294291 4.536267 0.582895
125.918823 9.294291 3.519583 0.532952
125.918831 9.294293 2.506166 0.708995
125.918831 9.294293 1.493834 0.618158
125.918823 9.294291 0.480415 0.532235
131.919235 11.895425 -0.000023 0.554498
138.347824 14.682175 -0.000016 0.535256
141.928192 16.234241 -0.000013 0.533318
144.214020 17.225132 0.000005 0.338949
145.802658 17.913799 0.000001 0.334356
146.973083 18.421169 -0.000007 0.341573
125.367012 9.294300 9.875034 0.661830
125.367004 9.294297 8.790154 0.547143
125.367004 9.294295 7.720504 0.502098
125.366997 9.294293 6.663522 0.537957
125.367004 9.294298 5.616755 0.630503
125.367004 9.294298 4.577844 0.563928
125.366997 9.294295 3.544494 0.648890
125.366997 9.294295 2.514464 0.532128
125.366997 9.294295 1.485537 0.639628
125.366997 9.294295 0.455505 0.652232
131.852051 12.051898 -0.000024 0.546319
138.299942 14.793703 -0.000016 0.544350
141.891052 16.320734 -0.000012 0.533608
144.183731 17.295641 0.000004 0.329046
145.777161 17.973204 0.000002 0.334890
146.951096 18.472391 -0.000007 0.333639
124.796783 9.294314 10.006674 0.625452
124.796776 9.294312 8.903658 0.620584
124.796776 9.294312 7.816126 0.594507
124.796776 9.294313 6.741477 0.538293
124.796783 9.294313 5.677212 0.560143
124.796783 9.294313 4.620934 0.511345
124.796776 9.294312 3.570311 0.657160
124.796776 9.294312 2.523064 0.692241
124.796776 9.294312 1.476937 0.685512
124.796776 9.294312 0.429688 0.679774
131.785950 12.208837 -0.000024 0.535088
138.252838 14.905561 -0.000016 0.546899
141.854477 16.407471 -0.000019 0.343099
144.153961 17.366362 0.000004 0.339712
145.752060 18.032784 0.000001 0.338201
146.929459 18.523766 -0.000007 0.329732
124.207138 9.294328 10.143188 0.506874
124.207138 9.294328 9.021364 0.624628
124.207138 9.294327 7.915294 0.490043
124.207138 9.294330 6.822318 0.611780
124.207146 9.294332 5.739908 0.629587
124.207138 9.294328 4.665622 0.622507
124.207138 9.294328 3.597086 0.566613
124.207138 9.294328 2.531981 0.642893
124.207138 9.294328 1.468018 0.640406
124.207138 9.294328 0.402914 0.684352
131.720947 12.366231 -0.000024 0.535241
138.206512 15.017744 -0.000016 0.537896
141.880997 16.519999 0.009987 1.000000
144.124664 17.437286 0.000003 0.342168
145.727402 18.092539 0.000002 0.328084
146.908188 18.575287 -0.000007 0.339300
123.596992 9.294337 10.284858 0.617456
123.596992 9.294336 9.143518 0.613352
122.910614 9.019301 8.152746 0.669810
123.596992 9.294339 6.906214 0.584146
122.910660 9.019317 5.890033 0.678431
123.596992 9.294337 4.711996 0.642634
123.596992 9.294337 3.624871 0.627756
123.596985 9.294335 2.541237 0.620752
123.596985 9.294335 1.458763 0.698024
123.596992 9.294337 0.375129 0.657603
131.657074 12.524082 -0.000023 0.545907
138.160965 15.130250 -0.000017 0.532860
141.845886 16.606827 0.009992 1.000000
144.095871 17.508417 0.000003 0.333425
145.703140 18.152466 0.000002 0.337636
146.887268 18.626957 -0.000007 0.335393
122.965164 9.294330 10.431974 0.578256
122.965164 9.294332 9.270365 0.579995
122.519379 9.119300 8.212211 0.650584
122.965179 9.294336 6.993333 0.623301
122.264717 9.019314 5.959107 0.678431
122.965179 9.294337 4.760151 0.622339
122.965172 9.294333 3.653723 0.623713
122.965179 9.294338 2.550847 0.607233
122.965179 9.294338 1.449153 0.710338
122.965172 9.294333 0.346276 0.751919
131.594284 12.682372 -0.000024 0.552697
138.116211 15.243071 -0.000017 0.543603
141.748535 16.669224 -0.000019 0.338567
144.067581 17.579746 0.000003 0.345754
145.679306 18.212559 0.000003 0.328237
146.866714 18.678772 -0.000006 0.343313
122.310471 9.294325 10.584830 0.616449
122.310486 9.294329 9.402163 0.559915
122.175499 9.242416 8.262418 0.575097
122.310501 9.294336 7.083851 0.563394
121.769691 9.086346 6.009396 0.654536
122.310501 9.294336 4.810187 0.635798
122.310493 9.294334 3.683702 0.592874
122.310493 9.294335 2.560834 0.482689
122.310493 9.294335 1.439167 0.640253
122.310493 9.294334 0.316298 0.693645
131.532593 12.841093 -0.000024 0.544182
138.072266 15.356202 -0.000016 0.544732
141.714447 16.756962 -0.000019 0.337316
144.039780 17.651272 0.000003 0.338140
145.655884 18.272816 0.000003 0.337209
146.846527 18.730728 -0.000006 0.338994
121.631569 9.294322 10.743767 0.627619
121.631569 9.294323 9.539206 0.589868
121.631561 9.294320 8.351559 0.563500
121.631592 9.294333 7.177970 0.568521
120.901390 9.019338 6.105495 0.678431
121.631607 9.294336 4.862213 0.599634
121.631607 9.294336 3.714872 0.559915
121.631607 9.294335 2.571216 0.491997
121.631607 9.294335 1.428784 0.702876
121.631599 9.294335 0.285128 0.699550
131.472031 13.000245 -0.000024 0.530602
138.029083 15.469636 -0.000016 0.532143
141.680954 16.844934 -0.000018 0.330724
144.012482 17.722988 0.000002 0.336019
145.632904 18.333237 0.000003 0.342016
146.826706 18.782825 -0.000005 0.338323
120.927002 9.294312 10.909144 0.590738
120.189308 9.022360 9.851611 0.678431
120.927002 9.294312 8.471691 0.668223
120.927055 9.294331 7.275902 0.588525
120.181137 9.019350 6.183138 0.678431
120.927063 9.294333 4.916347 0.611658
120.927063 9.294333 3.747306 0.587304
120.927063 9.294333 2.582020 0.562371
120.927063 9.294333 1.417981 0.648539
120.927063 9.294333 0.252694 0.690898
131.412567 13.159816 -0.000024 0.530114
137.986694 15.583368 -0.000016 0.538308
141.648102 16.933140 -0.000018 0.336553
143.985687 17.794893 0.000001 0.333089
145.610321 18.393816 0.000003 0.342565
146.807236 18.835060 -0.000005 0.338659
120.195267 9.294312 11.081343 0.625101
119.644363 9.095580 9.956764 0.650431
120.195267 9.294313 8.596775 0.673655
119.637077 9.092950 7.465908 0.667124
119.637070 9.092948 6.239040 0.650233
120.195320 9.294332 4.972715 0.591928
120.195328 9.294333 3.781078 0.561608
120.195328 9.294333 2.593269 0.382864
120.195328 9.294333 1.406731 0.679713
120.195328 9.294333 0.218921 0.739055
131.354233 13.319796 -0.000024 0.549340
137.945114 15.697394 -0.000016 0.547356
141.615845 17.021572 -0.000017 0.339757
143.959396 17.866985 0.000002 0.338399
145.588181 18.454552 0.000004 0.333379
146.788147 18.887428 -0.000005 0.334249
119.434647 9.294312 11.260789 0.591058
118.681564 9.028570 10.157481 0.678431
119.434647 9.294312 8.727127 0.569711
118.655296 9.019300 7.606743 0.678431
118.655296 9.019300 6.348263 0.678431
119.434708 9.294332 5.031456 0.576059
119.434692 9.294328 3.816273 0.563424
119.434692 9.294329 2.604991 0.520989
119.434692 9.294329 1.395008 0.660975
119.434700 9.294330 0.183727 0.683009
131.296997 13.480179 -0.000024 0.545266
137.904327 15.811707 -0.000017 0.532418
141.584213 17.110228 -0.000018 0.340719
143.933609 17.939257 0.000001 0.339620
145.566452 18.515440 0.000004 0.337682
146.769409 18.939930 -0.000005 0.340002
118.643333 9.294311 11.447937 0.526040
118.168976 9.130640 10.254746 0.647425
118.643341 9.294314 8.863073 0.574258
117.846252 9.019286 7.720056 0.678431
117.846252 9.019288 6.436141 0.678431
118.643372 9.294327 5.092717 0.577020
118.643379 9.294328 3.852978 0.608194
118.643387 9.294329 2.617218 0.562890
118.643387 9.294329 1.382782 0.741711
118.643379 9.294328 0.147022 0.762860
131.240891 13.640956 -0.000024 0.538720
137.864349 15.926303 -0.000016 0.540932
141.553207 17.199100 -0.000017 0.337926
143.908325 18.011707 0.000001 0.336843
145.545151 18.576479 0.000005 0.337484
146.751053 18.992559 -0.000005 0.333669
117.006104 9.020058 11.858263 0.678431
117.050888 9.035165 10.489957 0.678431
117.819321 9.294314 9.004977 0.577127
117.300491 9.119341 7.791884 0.648997
117.300491 9.119342 6.491847 0.679118
117.819359 9.294327 5.156667 0.581567
117.819359 9.294327 3.891291 0.597192
117.819351 9.294325 2.629980 0.638422
117.819351 9.294325 1.370020 0.694301
117.819359 9.294327 0.108708 0.703502
131.185913 13.802126 -0.000024 0.537209
137.825150 16.041174 -0.000017 0.543770
141.522812 17.288191 -0.000017 0.339483
143.883545 18.084335 0.000000 0.342000
145.524277 18.637665 0.000004 0.336858
146.733063 19.045317 -0.000004 0.333364
116.757477 9.227426 11.900915 0.705592
116.757484 9.227427 10.536942 0.589548
116.960464 9.294308 9.153234 0.645914
116.125847 9.019309 7.961877 0.678431
116.429382 9.119321 6.586919 0.652033
116.960526 9.294326 5.223473 0.591302
116.960526 9.294326 3.931318 0.526940
116.960518 9.294324 2.643313 0.739940
116.960510 9.294323 1.356687 0.680095
116.960526 9.294326 0.068682 0.688823
131.132065 13.963673 -0.000024 0.545983
137.786774 16.156317 -0.000016 0.533623
141.493042 17.377487 -0.000017 0.337728
143.859283 18.157131 0.000000 0.338293
145.503845 18.698994 0.000005 0.338033
146.715424 19.098198 -0.000004 0.328313
116.064438 9.294307 12.060795 0.575082
116.064445 9.294311 10.674795 0.584970
116.064438 9.294308 9.308260 0.615595
115.371788 9.071438 8.065840 0.621485
115.855850 9.227192 6.645812 0.593225
115.520554 9.119302 5.340187 0.646006
116.064484 9.294322 3.973175 0.699336
116.064484 9.294322 2.657255 0.742168
116.064484 9.294322 1.342744 0.764416
116.064484 9.294322 0.026824 0.740887
131.079346 14.125592 -0.000024 0.544884
137.749191 16.271725 -0.000017 0.547936
141.463898 17.466991 -0.000017 0.339025
143.835510 18.230095 0.000000 0.340078
145.483826 18.760466 0.000005 0.332845
146.698166 19.151199 -0.000004 0.337346
115.128662 9.294310 12.284182 0.543252
115.128670 9.294313 10.867406 0.602640
115.128662 9.294312 9.470529 0.599725
114.571396 9.119287 8.176836 0.647974
115.128693 9.294321 6.723194 0.567315
114.253021 9.019292 5.441717 0.688075
122.696274 11.671140 3.627310 0.424735
115.128693 9.294320 2.671849 0.755505
115.128693 9.294320 1.328151 0.667857
115.457748 9.397672 -0.000043 0.537469
131.027740 14.287878 -0.000024 0.532143
137.712418 16.387394 -0.000017 0.543252
141.435379 17.556698 -0.000017 0.335103
143.812256 18.303225 -0.000001 0.329580
145.464233 18.822077 0.000006 0.327245
146.681274 19.204323 -0.000004 0.335988
114.150345 9.294312 12.518230 0.533806
114.150360 9.294315 11.069213 0.577111
114.150352 9.294313 9.640544 0.638102
113.933670 9.227916 8.262411 0.585031
114.150360 9.294317 6.830689 0.573648
113.252693 9.019248 5.520058 0.670253
122.615822 11.888350 3.627923 0.426001
123.568939 12.180410 2.525941 0.421454
114.150375 9.294319 1.312861 0.684611
115.373535 9.669127 -0.000043 0.546792
130.977280 14.450513 -0.000025 0.540780
137.676453 16.503313 -0.000017 0.528771
141.407486 17.646599 -0.000016 0.337896
