# This PCD file was generated using the MATLABÂ® pcwrite function
# from Computer Vision ToolboxÂ®.
# .PCD v.7 - Point Cloud Data file format
VERSION .7
FIELDS x y z intensity
SIZE 4 4 4 4
TYPE F F F F
COUNT 1 1 1 1
WIDTH 1329
HEIGHT 1
VIEWPOINT 0 0 0 1 0 0 0
POINTS 1329
DATA ascii
nan nan nan 0.000000
nan nan nan 0.000000
nan nan nan 0.000000
nan nan nan 0.000000
174.380630 -6.831436 0.000005 0.540597
162.684570 4.549156 0.000000 0.536095
157.662994 9.435289 -0.000003 0.538430
154.866241 12.156615 -0.000004 0.563577
153.080750 13.893948 -0.000005 0.568063
151.839767 15.101463 -0.000005 0.541436
150.925461 15.991111 -0.000004 0.528420
nan nan nan 0.000000
nan nan nan 0.000000
nan nan nan 0.000000
nan nan nan 0.000000
nan nan nan 0.000000
nan nan nan 0.000000
nan nan nan 0.000000
nan nan nan 0.000000
nan nan nan 0.000000
174.181702 -7.034443 0.000006 0.537743
162.565399 4.427528 0.000000 0.541543
157.578049 9.348598 -0.000003 0.542260
154.800354 12.089381 -0.000004 0.512230
153.027039 13.839138 -0.000005 0.537377
151.794525 15.055286 -0.000005 0.525414
150.886444 15.951296 -0.000004 0.475639
nan nan nan 0.000000
nan nan nan 0.000000
nan nan nan 0.000000
nan nan nan 0.000000
nan nan nan 0.000000
nan nan nan 0.000000
nan nan nan 0.000000
nan nan nan 0.000000
nan nan nan 0.000000
173.981384 -7.236052 0.000007 0.537530
162.445374 4.306732 0.000000 0.541405
157.492508 9.262500 -0.000003 0.519127
154.734009 12.022611 -0.000004 0.540413
152.972961 13.784703 -0.000005 0.571405
151.748947 15.009428 -0.000005 0.519982
150.847153 15.911754 -0.000004 0.526665
nan nan nan 0.000000
nan nan nan 0.000000
nan nan nan 0.000000
nan nan nan 0.000000
nan nan nan 0.000000
nan nan nan 0.000000
nan nan nan 0.000000
nan nan nan 0.000000
nan nan nan 0.000000
173.779648 -7.436260 0.000007 0.546410
162.324509 4.186777 0.000000 0.548928
157.406357 9.177003 -0.000003 0.570993
154.667206 11.956303 -0.000004 0.533288
152.918488 13.730652 -0.000004 0.542245
151.703064 14.963888 -0.000005 0.545281
150.807587 15.872488 -0.000004 0.583581
nan nan nan 0.000000
nan nan nan 0.000000
nan nan nan 0.000000
nan nan nan 0.000000
nan nan nan 0.000000
nan nan nan 0.000000
nan nan nan 0.000000
nan nan nan 0.000000
nan nan nan 0.000000
173.576538 -7.635048 0.000006 0.541329
162.202805 4.067678 0.000000 0.521447
157.319611 9.092115 -0.000002 0.537774
154.599930 11.890465 -0.000004 0.554299
152.863647 13.676975 -0.000005 0.552178
151.656860 14.918670 -0.000005 0.488014
150.767746 15.833500 -0.000004 0.496437
nan nan nan 0.000000
nan nan nan 0.000000
nan nan nan 0.000000
nan nan nan 0.000000
nan nan nan 0.000000
nan nan nan 0.000000
nan nan nan 0.000000
nan nan nan 0.000000
nan nan nan 0.000000
173.372009 -7.832411 0.000007 0.539620
162.080276 3.949423 0.000000 0.536736
157.232285 9.007829 -0.000002 0.536263
154.532211 11.825100 -0.000004 0.523857
152.808441 13.623688 -0.000005 0.552270
151.610352 14.873777 -0.000005 0.481590
150.727646 15.794790 -0.000004 0.525551
nan nan nan 0.000000
nan nan nan 0.000000
nan nan nan 0.000000
nan nan nan 0.000000
nan nan nan 0.000000
nan nan nan 0.000000
nan nan nan 0.000000
nan nan nan 0.000000
nan nan nan 0.000000
173.166153 -8.028358 0.000007 0.542321
161.956924 3.832027 0.000000 0.557260
157.144363 8.924153 -0.000003 0.537438
154.464020 11.760204 -0.000004 0.552224
152.752853 13.570785 -0.000005 0.527001
151.563522 14.829206 -0.000005 0.553491
150.687271 15.756361 -0.000004 0.504265
nan nan nan 0.000000
nan nan nan 0.000000
nan nan nan 0.000000
nan nan nan 0.000000
nan nan nan 0.000000
nan nan nan 0.000000
nan nan nan 0.000000
nan nan nan 0.000000
nan nan nan 0.000000
172.958893 -8.222834 0.000008 0.544167
161.832764 3.715496 0.000001 0.535363
157.055862 8.841099 -0.000002 0.511238
154.395386 11.695793 -0.000003 0.540520
152.696899 13.518272 -0.000005 0.555261
151.516373 14.784967 -0.000005 0.507836
150.646622 15.718214 -0.000004 0.580652
nan nan nan 0.000000
nan nan nan 0.000000
nan nan nan 0.000000
109.434479 60.480087 9.841087 0.678431
114.153641 55.345016 7.278771 0.716182
113.986252 55.527161 5.782730 0.678431
114.346542 55.135117 4.240234 0.693156
113.527687 56.026138 2.766015 0.571206
113.527687 56.026138 1.233986 0.556619
117.655663 51.534355 0.000013 0.546639
128.698059 39.518780 -0.000006 0.335714
133.439072 34.359924 -0.000006 0.554543
136.079575 31.486710 -0.000005 0.522606
137.765305 29.652409 -0.000005 0.490669
138.936951 28.377495 -0.000004 0.552346
139.800171 27.438206 -0.000004 0.572747
nan nan nan 0.000000
nan nan nan 0.000000
nan nan nan 0.000000
109.932495 60.480095 9.791291 0.678431
114.585960 55.345009 7.245246 0.688502
114.420898 55.527145 5.758705 0.678431
114.624878 55.302063 4.237076 0.690517
113.968719 56.026138 2.761149 0.595834
113.968719 56.026138 1.238850 0.501350
117.865593 51.725945 0.000013 0.538064
128.823868 39.633533 -0.000003 0.335729
133.528717 34.441738 -0.000006 0.551675
136.149109 31.550156 -0.000005 0.543526
137.821991 29.704132 -0.000005 0.609873
138.984711 28.421076 -0.000004 0.574319
139.841354 27.475777 -0.000004 0.539132
nan nan nan 0.000000
nan nan nan 0.000000
nan nan nan 0.000000
110.506668 60.387856 9.724147 0.455024
115.012833 55.345016 7.212399 0.731182
115.160515 55.179733 5.696964 0.654551
115.012840 55.345009 4.225895 0.717571
114.404190 56.026138 2.756382 0.672084
114.404190 56.026138 1.243617 0.498589
118.076866 51.916054 0.000014 0.540307
129.031799 39.656399 0.010009 1.000000
133.618942 34.522926 -0.000007 0.538521
136.219070 31.613121 -0.000005 0.540932
137.879028 29.755463 -0.000005 0.543008
139.032761 28.464319 -0.000004 0.561898
139.882782 27.513063 -0.000004 0.583291
nan nan nan 0.000000
nan nan nan 0.000000
nan nan nan 0.000000
110.961754 60.421249 9.683047 0.678431
115.434418 55.345009 7.180207 0.718273
115.434418 55.345009 5.692194 0.711772
115.434418 55.345001 4.212149 0.720226
114.834274 56.026138 2.751711 0.634379
114.834274 56.026138 1.248289 0.518746
118.289444 52.104694 0.000013 0.539345
129.158478 39.768906 0.010003 1.000000
133.709732 34.603477 -0.000006 0.536385
136.289474 31.675594 -0.000005 0.551965
137.936432 29.806393 -0.000005 0.541955
139.081116 28.507225 -0.000004 0.576806
139.924484 27.550060 -0.000004 0.499214
nan nan nan 0.000000
nan nan nan 0.000000
nan nan nan 0.000000
111.440742 60.421257 9.636263 0.678431
115.850838 55.345009 7.148663 0.692409
115.850838 55.345016 5.669711 0.715496
115.850845 55.345001 4.198678 0.713573
115.259094 56.026146 2.747135 0.604044
115.259094 56.026146 1.252866 0.500359
118.503365 52.291824 0.000014 0.540352
129.206024 39.972527 0.000004 0.337713
133.801071 34.683403 -0.000007 0.552316
136.360321 31.737576 -0.000005 0.530205
137.994186 29.856920 -0.000004 0.543679
139.129776 28.549795 -0.000004 0.557916
139.966431 27.586765 -0.000004 0.548928
nan nan nan 0.000000
nan nan nan 0.000000
nan nan nan 0.000000
112.279076 59.995010 9.507158 0.927016
116.262245 55.345009 7.117747 0.751842
116.262245 55.345009 5.647676 0.678767
116.262253 55.345001 4.185475 0.734798
115.553741 56.172127 2.745794 0.678431
115.553741 56.172127 1.254206 0.678431
118.718559 52.477478 0.000014 0.540139
129.334976 40.083733 0.000006 0.337865
133.892975 34.762684 -0.000007 0.560143
136.431595 31.799059 -0.000005 0.532753
138.052292 29.907043 -0.000005 0.506539
139.178726 28.592024 -0.000004 0.584863
140.008636 27.623177 -0.000004 0.544976
nan nan nan 0.000000
nan nan nan 0.000000
nan nan nan 0.000000
112.279068 60.542595 9.569032 0.931182
116.668762 55.345009 7.087448 0.720150
116.844452 55.136986 5.603753 0.680919
116.668770 55.345001 4.172536 0.726650
115.970207 56.172127 2.741377 0.678431
115.970207 56.172127 1.258622 0.678431
118.935066 52.661610 0.000014 0.539651
129.464706 40.194042 0.000009 0.335760
133.985428 34.841316 -0.000006 0.550973
136.503296 31.860046 -0.000005 0.532296
138.110733 29.956762 -0.000005 0.565744
139.227966 28.633909 -0.000004 0.550378
140.051102 27.659290 -0.000004 0.523140
nan nan nan 0.000000
nan nan nan 0.000000
nan nan nan 0.000000
112.279083 61.099289 9.632305 0.937255
117.070511 55.345009 7.057750 0.726528
116.992836 55.438293 5.614867 0.650950
117.070518 55.345001 4.159854 0.722728
116.556854 55.961891 2.732574 0.671351
116.556854 55.961891 1.267426 0.683787
119.152832 52.844238 0.000014 0.545205
129.595215 40.303429 0.000012 0.336446
134.078415 34.919308 -0.000007 0.523812
136.575424 31.920530 -0.000005 0.551186
138.169540 30.006071 -0.000005 0.554314
139.277512 28.675449 -0.000005 0.518273
140.093811 27.695107 -0.000004 0.507118
nan nan nan 0.000000
nan nan nan 0.000000
nan nan nan 0.000000
112.279083 61.665413 9.697026 0.907103
117.467621 55.345001 7.028641 0.714855
117.318069 55.527176 5.603490 0.678431
117.467628 55.345001 4.147424 0.707942
116.908493 56.026108 2.729717 0.603922
116.908493 56.026108 1.270284 0.573343
119.371880 53.025337 0.000015 0.536385
129.726471 40.411911 0.000015 0.338369
134.171967 34.996647 -0.000007 0.537697
136.647964 31.980511 -0.000005 0.543709
138.228683 30.054966 -0.000005 0.545541
139.327332 28.716642 -0.000005 0.568399
140.136765 27.730627 -0.000004 0.564599
nan nan nan 0.000000
nan nan nan 0.000000
nan nan nan 0.000000
112.223145 62.310371 9.776426 0.918746
117.860199 55.345009 7.000107 0.723095
117.712776 55.527168 5.583041 0.678431
117.860207 55.345001 4.135238 0.724651
117.308975 56.026115 2.725576 0.678431
117.308975 56.026115 1.274423 0.596689
119.592186 53.204899 0.000015 0.536568
129.858475 40.519482 0.000016 0.337697
134.266037 35.073330 -0.000007 0.534386
136.720917 32.039982 -0.000005 0.538491
138.288162 30.103447 -0.000005 0.548913
139.377441 28.757488 -0.000004 0.508324
140.179977 27.765846 -0.000004 0.546227
nan nan nan 0.000000
nan nan nan 0.000000
nan nan nan 0.000000
112.279091 62.827087 9.830976 0.913725
118.248360 55.345009 6.972136 0.741222
118.103027 55.527176 5.562999 0.678431
118.248367 55.345001 4.123294 0.716960
117.704964 56.026115 2.721517 0.539254
117.704971 56.026115 1.278482 0.553368
119.813751 53.382908 0.000015 0.543359
129.991226 40.626129 0.000018 0.339269
134.360657 35.149353 -0.000007 0.511360
136.794296 32.098938 -0.000005 0.523583
138.347977 30.151516 -0.000005 0.558938
139.427841 28.797981 -0.000004 0.530739
140.223434 27.800760 -0.000004 0.582330
nan nan nan 0.000000
nan nan nan 0.000000
nan nan nan 0.000000
112.279083 63.423294 9.900301 0.929915
118.632233 55.345009 6.944715 0.689357
118.489075 55.527039 5.543335 0.678431
118.632240 55.345001 4.111584 0.710384
118.096573 56.026131 2.717538 0.622827
118.096573 56.026131 1.282461 0.586328
120.036530 53.559387 0.000015 0.534081
130.124680 40.731899 0.000014 0.339651
134.455795 35.224716 -0.000007 0.568994
136.868088 32.157387 -0.000005 0.551339
138.408127 30.199162 -0.000005 0.519463
139.478516 28.838123 -0.000004 0.563622
140.267120 27.835373 -0.000004 0.537087
nan nan nan 0.000000
nan nan nan 0.000000
nan nan nan 0.000000
112.279091 64.030159 9.971255 0.912337
119.011909 55.345001 6.917833 0.729656
118.871109 55.526634 5.524030 0.678431
119.011909 55.345001 4.100105 0.697978
118.483894 56.026131 2.713637 0.585550
118.483894 56.026131 1.286363 0.527276
120.260544 53.734306 0.000015 0.544991
130.258835 40.836765 0.000007 0.339025
134.551453 35.299408 -0.000007 0.544793
136.942276 32.215317 -0.000005 0.554742
138.468613 30.246389 -0.000005 0.532891
139.529465 28.877911 -0.000005 0.504906
140.311066 27.869678 -0.000004 0.474281
nan nan nan 0.000000
nan nan nan 0.000000
nan nan nan 0.000000
112.279083 64.648071 10.043891 0.929656
119.387505 55.345001 6.891480 0.703838
119.249023 55.526230 5.505105 0.678431
119.387497 55.345001 4.088851 0.724666
118.867050 56.026138 2.709814 0.566552
118.867050 56.026138 1.290186 0.577035
120.485771 53.907654 0.000014 0.539773
130.393753 40.940659 0.000003 0.338170
134.647644 35.373436 -0.000007 0.528130
137.016861 32.272728 -0.000005 0.531350
138.529419 30.293190 -0.000005 0.528222
139.580704 28.917339 -0.000005 0.517845
140.355225 27.903675 -0.000004 0.593149
nan nan nan 0.000000
nan nan nan 0.000000
nan nan nan 0.000000
112.279099 65.277359 10.118263 0.933318
119.759102 55.344994 6.865643 0.711299
119.643105 55.499023 5.483799 0.173587
119.759102 55.344994 4.077817 0.734005
119.151352 56.152000 2.708642 0.615671
119.151352 56.152000 1.291357 0.580392
120.712204 54.079422 0.000015 0.537881
130.529388 41.043625 -0.000002 0.336858
134.744339 35.446793 -0.000007 0.532250
137.091858 32.329613 -0.000005 0.529229
138.590561 30.339565 -0.000005 0.542885
139.632202 28.956409 -0.000004 0.556252
140.399643 27.937363 -0.000004 0.522698
nan nan nan 0.000000
nan nan nan 0.000000
nan nan nan 0.000000
112.279091 65.918442 10.194427 0.906722
119.868767 55.692680 6.890123 0.706111
119.603775 56.049706 5.521894 0.678431
119.868759 55.692680 4.088272 0.724788
119.151352 56.659264 2.715291 0.611765
119.151352 56.659264 1.284709 0.611627
120.939842 54.249588 0.000016 0.537789
130.665726 41.145653 -0.000008 0.337804
134.841537 35.519463 -0.000007 0.543770
137.167252 32.385979 -0.000005 0.534295
138.652008 30.385515 -0.000005 0.551553
139.683975 28.995121 -0.000005 0.593271
140.444290 27.970741 -0.000004 0.496193
nan nan nan 0.000000
nan nan nan 0.000000
nan nan nan 0.000000
112.223145 66.648193 10.286495 0.922454
119.868774 56.195335 6.936678 0.696773
119.627319 56.525444 5.552152 0.678431
119.868774 56.195335 4.108151 0.727031
119.151352 57.176170 2.722101 0.686549
119.151352 57.176170 1.277899 0.589258
121.168655 54.418175 0.000015 0.543999
130.802795 41.246704 -0.000012 0.338750
134.939255 35.591461 -0.000007 0.532784
137.243027 32.441814 -0.000006 0.559014
138.713791 30.431034 -0.000005 0.493187
139.736023 29.033470 -0.000004 0.530983
140.489166 28.003807 -0.000004 0.517800
nan nan nan 0.000000
nan nan nan 0.000000
nan nan nan 0.000000
112.279099 67.237526 10.352359 0.916564
119.868782 56.707664 6.984369 0.727413
119.672211 56.980400 5.580176 0.160784
119.868774 56.707687 4.128520 0.713405
118.904945 58.044891 2.735973 0.678431
118.904945 58.044891 1.264026 0.678431
121.398643 54.585152 0.000016 0.543160
130.940552 41.346794 -0.000017 0.336919
135.037460 35.662777 -0.000008 0.571008
137.319199 32.497116 -0.000005 0.519066
138.775879 30.476122 -0.000005 0.525322
139.788330 29.071453 -0.000005 0.570123
140.534271 28.036558 -0.000004 0.600015
nan nan nan 0.000000
nan nan nan 0.000000
nan nan nan 0.000000
nan nan nan 0.000000
119.868782 57.230042 7.033244 0.680278
119.644043 57.546486 5.619270 0.678431
119.868782 57.230049 4.149389 0.722301
119.060616 58.367950 2.738791 0.666667
119.060616 58.367950 1.261210 0.685115
121.629784 54.750542 0.000016 0.542123
131.078995 41.445946 -0.000024 0.337270
135.136169 35.733391 -0.000007 0.526818
137.395752 32.551888 -0.000005 0.532387
138.838287 30.520771 -0.000005 0.524971
139.840912 29.109070 -0.000005 0.560540
140.579605 28.068993 -0.000004 0.531258
nan nan nan 0.000000
nan nan nan 0.000000
nan nan nan 0.000000
nan nan nan 0.000000
119.868797 57.762772 7.083332 0.701991
119.644043 58.083961 5.655291 0.678431
119.868797 57.762779 4.170780 0.711711
119.151352 58.788040 2.743554 0.639338
119.151352 58.788033 1.256447 0.535714
121.862076 54.914299 0.000016 0.531975
131.218140 41.544106 -0.000027 0.337102
135.235367 35.803329 -0.000007 0.550591
137.472687 32.606125 -0.000006 0.521447
138.901016 30.564987 -0.000005 0.575387
139.893753 29.146320 -0.000004 0.528603
140.625153 28.101110 -0.000004 0.515953
nan nan nan 0.000000
nan nan nan 0.000000
nan nan nan 0.000000
nan nan nan 0.000000
119.868790 58.306267 7.134683 0.721523
119.644043 58.632263 5.692215 0.678431
119.868805 58.306252 4.192708 0.721035
119.151360 59.346901 2.751064 0.688685
119.151360 59.346901 1.248935 0.674479
122.095505 55.076431 0.000016 0.538827
131.358017 41.641235 -0.000026 0.338018
135.335052 35.872570 -0.000007 0.534234
137.549988 32.659824 -0.000006 0.533272
138.964035 30.608765 -0.000005 0.531090
139.946854 29.183201 -0.000004 0.524483
140.670944 28.132912 -0.000005 0.525750
nan nan nan 0.000000
nan nan nan 0.000000
nan nan nan 0.000000
nan nan nan 0.000000
119.868790 58.860870 7.187340 0.714031
119.644073 59.191750 5.730074 0.678431
119.868805 58.860855 4.215193 0.719432
119.324768 59.661896 2.753716 0.614984
119.324768 59.661896 1.246284 0.641581
122.330048 55.236954 0.000015 0.539727
131.498581 41.737354 -0.000021 0.337957
135.435226 35.941113 -0.000007 0.525444
137.627670 32.712982 -0.000005 0.566979
139.027359 30.652100 -0.000005 0.570779
140.000198 29.219707 -0.000004 0.536049
140.716949 28.164391 -0.000004 0.569024
nan nan nan 0.000000
nan nan nan 0.000000
nan nan nan 0.000000
nan nan nan 0.000000
119.868790 59.426994 7.241343 0.701350
119.711655 59.661880 5.758942 0.650126
119.673035 59.719597 4.255551 0.692576
119.711647 59.661880 2.750177 0.741176
119.711639 59.661888 1.249823 0.582315
122.565720 55.395813 0.000015 0.535393
131.639816 41.832481 -0.000016 0.337179
135.535858 36.008949 -0.000007 0.540398
137.705719 32.765594 -0.000006 0.573037
139.090988 30.694992 -0.000005 0.528374
140.053802 29.255844 -0.000005 0.539666
140.763168 28.195547 -0.000004 0.496651
nan nan nan 0.000000
nan nan nan 0.000000
nan nan nan 0.000000
nan nan nan 0.000000
119.868797 60.005058 7.296745 0.715114
120.071381 59.697624 5.745068 0.694667
119.868828 60.005005 4.261912 0.702510
119.868828 60.005013 2.753432 0.721614
119.868828 60.005013 1.246568 0.719158
122.802505 55.553009 0.000016 0.539788
131.781738 41.926594 -0.000008 0.337881
135.636978 36.076088 -0.000007 0.536858
137.784149 32.817661 -0.000006 0.563790
139.154922 30.737436 -0.000005 0.524468
140.107666 29.291605 -0.000005 0.552300
140.809601 28.226379 -0.000004 0.503563
nan nan nan 0.000000
nan nan nan 0.000000
nan nan nan 0.000000
104.863174 83.716965 12.991761 0.644068
119.868797 60.595497 7.353592 0.700526
119.868828 60.595451 5.815769 0.694728
119.868820 60.595459 4.286188 0.715007
119.868820 60.595459 2.761518 0.717510
119.868820 60.595459 1.238482 0.694072
123.040367 55.708572 0.000016 0.542275
131.924286 42.019753 -0.000003 0.338888
135.738556 36.142521 -0.000008 0.510674
137.862915 32.869179 -0.000006 0.556497
139.219147 30.779438 -0.000005 0.513726
140.161774 29.326988 -0.000005 0.541115
140.856247 28.256889 -0.000004 0.585718
nan nan nan 0.000000
nan nan nan 0.000000
nan nan nan 0.000000
105.477097 83.717003 12.942455 0.639597
119.868797 61.198784 7.411941 0.722896
119.868828 61.198730 5.857357 0.724895
119.868828 61.198730 4.311105 0.729595
119.868828 61.198730 2.769817 0.724666
119.868820 61.198738 1.230182 0.718837
123.279312 55.862465 0.000015 0.537987
132.067490 42.111893 0.000002 0.335622
135.840591 36.208237 -0.000008 0.523217
137.942047 32.920151 -0.000006 0.515297
139.283661 30.820988 -0.000005 0.542412
140.216125 29.361992 -0.000005 0.531594
140.903122 28.287071 -0.000004 0.528084
nan nan nan 0.000000
nan nan nan 0.000000
nan nan nan 0.000000
106.085556 83.717033 12.894120 0.623209
119.868797 61.815399 7.471846 0.718303
119.868820 61.815353 5.900055 0.725811
119.868820 61.815346 4.336687 0.723476
119.868820 61.815353 2.778339 0.721767
119.868820 61.815353 1.221660 0.697230
123.519333 56.014664 0.000017 0.535653
132.211334 42.203018 0.000010 0.338918
135.943085 36.273239 -0.000007 0.544900
138.021545 32.970558 -0.000006 0.539483
139.348465 30.862085 -0.000005 0.541787
140.270721 29.396616 -0.000005 0.567987
140.950195 28.316925 -0.000004 0.586709
nan nan nan 0.000000
nan nan nan 0.000000
nan nan nan 0.000000
106.688721 83.717049 12.846732 0.646586
119.868797 62.445839 7.533363 0.736812
119.868828 62.445786 5.943901 0.707012
119.868828 62.445778 4.362956 0.720439
119.868828 62.445786 2.787090 0.727993
119.868820 62.445786 1.212910 0.700710
123.760399 56.165215 0.000016 0.539620
132.355804 42.293152 0.000015 0.335851
136.046036 36.337528 -0.000007 0.532876
138.101379 33.020416 -0.000006 0.542824
139.413544 30.902733 -0.000005 0.555917
140.325546 29.430859 -0.000005 0.535119
140.997467 28.346451 -0.000004 0.522911
nan nan nan 0.000000
nan nan nan 0.000000
nan nan nan 0.000000
107.286705 83.717018 12.800273 0.638041
119.868797 63.090652 7.596556 0.723186
119.868820 63.090607 5.988942 0.726390
119.868828 63.090591 4.389943 0.730236
119.868820 63.090607 2.796078 0.698421
119.868820 63.090607 1.203921 0.725002
124.002518 56.314064 0.000016 0.540230
132.500900 42.382286 0.000021 0.338766
136.149429 36.401096 -0.000007 0.539254
138.181580 33.069717 -0.000006 0.541909
139.478912 30.942921 -0.000005 0.523552
140.380630 29.464714 -0.000005 0.580530
141.044952 28.375645 -0.000004 0.567254
nan nan nan 0.000000
nan nan nan 0.000000
nan nan nan 0.000000
107.879608 83.717010 12.754730 0.619760
119.868790 63.750404 7.661489 0.712047
119.868828 63.750336 6.035223 0.685145
119.868828 63.750336 4.417670 0.729625
119.868820 63.750351 2.805315 0.727138
119.868820 63.750359 1.194685 0.691508
124.245674 56.461205 0.000017 0.534936
132.646591 42.470444 0.000021 0.337377
136.253265 36.463940 -0.000007 0.528344
138.262100 33.118458 -0.000006 0.542748
139.544571 30.982655 -0.000005 0.521172
140.435928 29.498192 -0.000005 0.541390
141.092651 28.404507 -0.000004 0.565133
nan nan nan 0.000000
nan nan nan 0.000000
nan nan nan 0.000000
108.467552 83.717010 12.710096 0.666163
108.467552 83.717010 10.306125 0.642100
119.963615 64.265221 6.067513 0.688548
119.963264 64.265816 4.437053 0.704387
119.868820 64.425613 2.814809 0.703853
119.868820 64.425621 1.185192 0.722652
124.489845 56.606659 0.000017 0.537896
132.792892 42.557579 0.000022 0.337987
136.357529 36.526054 -0.000008 0.542306
138.342972 33.166626 -0.000006 0.522393
139.610489 31.021923 -0.000005 0.541573
140.491470 29.531275 -0.000004 0.530327
141.140533 28.433033 -0.000004 0.560296
nan nan nan 0.000000
nan nan nan 0.000000
nan nan nan 0.000000
109.013123 83.781570 12.677426 0.695583
109.013123 83.781563 10.280789 0.678431
119.574417 65.623207 6.179711 0.678431
119.607376 65.566544 4.501019 0.162905
119.868820 65.117027 2.824569 0.722179
119.868820 65.117035 1.175431 0.693584
124.735016 56.750427 0.000016 0.539269
132.939774 42.643723 0.000021 0.338094
136.462234 36.587440 -0.000007 0.525231
138.424164 33.214241 -0.000006 0.511330
139.676697 31.060734 -0.000005 0.528374
140.547241 29.563974 -0.000005 0.558251
141.188614 28.461227 -0.000004 0.522576
nan nan nan 0.000000
nan nan nan 0.000000
nan nan nan 0.000000
109.592133 83.781548 12.634500 0.690196
109.592133 83.781548 10.247498 0.678431
119.557846 66.368599 6.233328 0.678523
119.492027 66.483604 4.542876 0.171481
119.868820 65.825241 2.834608 0.711681
119.868820 65.825249 1.165393 0.722011
124.981201 56.892448 0.000017 0.542473
133.087265 42.728832 0.000020 0.338140
136.567368 36.648098 -0.000007 0.539269
138.505692 33.261276 -0.000006 0.527108
139.743164 31.099083 -0.000005 0.563973
140.603241 29.596281 -0.000005 0.542535
141.236908 28.489084 -0.000004 0.582574
nan nan nan 0.000000
nan nan nan 0.000000
nan nan nan 0.000000
110.197212 83.727058 12.583160 0.754925
110.197205 83.727074 10.207683 0.751568
119.523407 67.164375 6.291470 0.678431
119.544968 67.126076 4.569040 0.678187
119.868813 66.550957 2.844935 0.728847
119.868813 66.550957 1.155066 0.691676
125.228363 57.032761 0.000017 0.542596
133.235352 42.812904 0.000020 0.333547
136.672913 36.708019 -0.000008 0.548959
138.587555 33.307747 -0.000006 0.541222
139.809891 31.136969 -0.000005 0.546563
140.659454 29.628197 -0.000005 0.551553
141.285385 28.516602 -0.000004 0.544091
nan nan nan 0.000000
nan nan nan 0.000000
nan nan nan 0.000000
110.772179 83.717010 12.540274 0.621958
110.772186 83.716988 10.174418 0.655131
110.772171 83.717010 7.826319 0.631388
110.772186 83.716988 5.490791 0.614191
119.868805 67.294891 2.855563 0.737667
119.868813 67.294891 1.144437 0.725078
125.476501 57.171349 0.000016 0.535775
133.384018 42.895947 0.000019 0.337453
136.778885 36.767197 -0.000008 0.533242
138.669739 33.353645 -0.000006 0.536156
139.876892 31.174385 -0.000005 0.528389
140.715897 29.659721 -0.000005 0.531838
141.334045 28.543783 -0.000004 0.456230
nan nan nan 0.000000
nan nan nan 0.000000
111.938889 82.612450 14.650844 0.656611
111.337090 83.717010 12.499925 0.633524
111.337097 83.716995 10.143127 0.635218
111.337067 83.717026 7.804018 0.640085
111.337090 83.717003 5.477430 0.629343
111.337090 83.717010 3.158315 0.635111
111.318253 83.751572 0.841040 0.094118
125.725586 57.308205 0.000016 0.536828
133.533249 42.977951 0.000017 0.338262
136.885254 36.825638 -0.000008 0.519799
138.752243 33.398968 -0.000006 0.580972
139.944138 31.211334 -0.000005 0.518883
140.772552 29.690849 -0.000005 0.583215
141.382904 28.570623 -0.000004 0.537575
nan nan nan 0.000000
nan nan nan 0.000000
112.479034 82.632103 14.607267 0.651087
111.897720 83.717010 12.460392 0.641199
111.897720 83.717018 10.112471 0.631113
111.897720 83.717018 7.782164 0.645457
111.897720 83.717018 5.464337 0.634699
121.495682 65.804276 2.821406 0.401175
111.879211 83.751564 0.845404 0.094118
125.975601 57.443375 0.000012 0.543297
133.683044 43.058929 0.000015 0.336507
136.992035 36.883335 -0.000008 0.545800
138.835052 33.443714 -0.000006 0.531670
140.011658 31.247810 -0.000005 0.530953
140.829437 29.721581 -0.000005 0.547845
141.431946 28.597120 -0.000004 0.582788
nan nan nan 0.000000
nan nan nan 0.000000
112.856033 82.954285 14.626855 0.672251
112.454170 83.717026 12.421664 0.634333
112.454163 83.717033 10.082436 0.655207
112.454170 83.717026 7.760758 0.642985
122.385994 64.866241 4.404761 0.421881
122.294212 65.040451 2.804237 0.421958
112.454163 83.717033 0.850318 0.614893
126.226585 57.576736 0.000013 0.544350
133.833389 43.138882 0.000009 0.338109
137.099213 36.940292 -0.000008 0.535576
138.918167 33.487877 -0.000006 0.583215
140.079422 31.283817 -0.000005 0.535073
140.886520 29.751915 -0.000005 0.550744
141.481171 28.623276 -0.000004 0.595712
nan nan nan 0.000000
nan nan nan 0.000000
113.233604 83.278679 14.647358 0.665446
112.973114 83.781570 12.394506 0.678431
112.973114 83.781578 10.061375 0.678431
112.973106 83.781586 7.745746 0.678431
123.153069 64.128342 4.355182 0.414466
123.071259 64.286278 2.787409 0.413596
113.006546 83.717010 0.854503 0.615534
126.478493 57.708336 0.000013 0.545403
133.984299 43.217766 0.000006 0.336431
137.206802 36.996483 -0.000008 0.523415
139.001602 33.531464 -0.000006 0.543389
140.147430 31.319351 -0.000005 0.561807
140.943832 29.781847 -0.000004 0.539895
141.530579 28.649088 -0.000005 0.551614
nan nan nan 0.000000
nan nan nan 0.000000
113.614243 83.600540 14.667812 0.644175
113.522079 83.781563 12.357304 0.678431
113.522079 83.781555 10.032520 0.678431
113.522079 83.781563 7.725181 0.678431
123.253883 64.667969 4.376500 0.408530
123.408127 64.365028 2.786039 0.419715
113.554939 83.717018 0.858602 0.660456
126.731316 57.838173 0.000012 0.538735
134.135773 43.295578 0.000004 0.338079
137.314758 37.051933 -0.000008 0.541421
139.085327 33.574471 -0.000006 0.553170
140.215698 31.354404 -0.000005 0.553201
141.001328 29.811380 -0.000005 0.546960
141.580154 28.674551 -0.000004 0.562692
nan nan nan 0.000000
nan nan nan 0.000000
114.102661 83.710617 14.645649 0.658122
114.067162 83.781555 12.320868 0.678431
114.067177 83.781525 10.004261 0.678431
114.067169 83.781548 7.705040 0.678431
123.708115 64.514915 4.359732 0.418875
123.206726 65.516891 2.804350 0.418814
123.338409 65.253731 1.200465 0.441779
126.985031 57.966270 0.000012 0.544091
134.287781 43.372337 0.000002 0.339010
137.423111 37.106625 -0.000008 0.543084
139.169357 33.616882 -0.000006 0.533227
140.284195 31.388987 -0.000006 0.545632
141.059052 29.840513 -0.000005 0.513237
141.629913 28.699669 -0.000005 0.544869
nan nan nan 0.000000
nan nan nan 0.000000
114.643089 83.711105 14.602030 0.665721
114.640190 83.716988 12.274518 0.634745
114.640190 83.717003 9.968317 0.637324
114.640182 83.717003 7.679421 0.657435
114.640190 83.716995 5.402778 0.640757
124.404427 63.858749 2.771334 0.415518
114.640182 83.717003 0.866550 0.647120
127.239647 58.092560 0.000011 0.542962
134.440308 43.448040 -0.000001 0.337499
137.531845 37.160561 -0.000008 0.506020
139.253693 33.658707 -0.000006 0.530159
140.352936 31.423082 -0.000005 0.507240
141.116959 29.869240 -0.000005 0.580011
141.679855 28.724440 -0.000004 0.522408
nan nan nan 0.000000
nan nan nan 0.000000
115.179810 83.711601 14.559327 0.679805
116.204102 81.591179 11.889419 0.722850
116.163284 81.675690 9.680453 0.653925
116.163887 81.674431 7.474131 0.643778
123.785545 65.896461 4.418962 0.403769
123.952576 65.550697 2.799462 0.407568
115.177208 83.717003 0.870400 0.631022
127.495125 58.217094 0.000011 0.534157
134.593369 43.522671 -0.000003 0.337743
137.640945 37.213730 -0.000008 0.531853
139.338303 33.699951 -0.000006 0.571878
140.421921 31.456703 -0.000005 0.550332
141.175079 29.897564 -0.000005 0.541253
141.729965 28.748859 -0.000004 0.547265
nan nan nan 0.000000
nan nan nan 0.000000
115.712906 83.712166 14.517529 0.650324
116.719231 81.591255 11.856432 0.721569
116.668198 81.698822 9.657770 0.779202
116.648026 81.741318 7.461933 0.678431
124.240471 65.739571 4.402360 0.396841
124.001083 66.244095 2.809352 0.399390
115.710609 83.717018 0.874169 0.651942
127.751480 58.339813 0.000011 0.543008
134.746948 43.596222 -0.000005 0.338582
137.750412 37.266144 -0.000008 0.549859
139.423203 33.740597 -0.000006 0.574914
140.491135 31.489838 -0.000005 0.558007
141.233383 29.925480 -0.000005 0.541909
141.780243 28.772930 -0.000004 0.544732
nan nan nan 0.000000
nan nan nan 0.000000
116.242294 83.713165 14.476709 0.637644
117.231133 81.590965 11.824082 0.696147
117.180916 81.698753 9.632664 0.712840
117.161102 81.741264 7.444030 0.678431
124.368904 66.272240 4.423356 0.397086
124.603455 65.768875 2.798121 0.407172
116.240509 83.717003 0.877859 0.634836
128.008667 58.460770 0.000010 0.547463
134.901062 43.668648 -0.000002 0.338460
137.860260 37.317791 -0.000008 0.548241
139.508392 33.780647 -0.000006 0.550271
140.560577 31.522491 -0.000005 0.530602
141.291885 29.952988 -0.000005 0.518669
141.830688 28.796652 -0.000005 0.500999
nan nan nan 0.000000
nan nan nan 0.000000
116.768555 83.713516 14.436626 0.658167
117.739204 81.591789 11.792600 0.720394
117.690262 81.698769 9.608103 0.732692
117.670815 81.741272 7.426510 0.678431
117.670792 81.741325 5.251254 0.678431
124.857880 66.031197 2.800274 0.412390
116.766953 83.717010 0.881471 0.623301
128.266708 58.579903 0.000010 0.537545
135.055695 43.739971 0.000003 0.339361
137.970444 37.368668 -0.000008 0.540124
139.593842 33.820107 -0.000006 0.530694
140.630249 31.554657 -0.000005 0.531090
141.350586 29.980087 -0.000005 0.527184
141.881287 28.820017 -0.000004 0.506676
nan nan nan 0.000000
nan nan nan 0.000000
117.291420 83.713974 14.397425 0.659678
118.244568 81.591454 11.761609 0.715618
118.196381 81.698761 9.584066 0.776471
118.177292 81.741272 7.409366 0.678431
118.177277 81.741302 5.240981 0.678431
118.196358 81.698807 3.078792 0.776471
117.290062 83.717003 0.885005 0.646006
128.525558 58.697250 0.000010 0.541665
135.210785 43.810272 0.000003 0.335775
138.080994 37.418774 -0.000008 0.552880
139.679581 33.858967 -0.000006 0.542931
140.700134 31.586338 -0.000005 0.549310
141.409454 30.006777 -0.000005 0.554681
141.932068 28.843029 -0.000004 0.542519
nan nan nan 0.000000
nan nan nan 0.000000
117.810997 83.714478 14.359080 0.677119
118.743668 81.598160 11.732423 0.694636
118.699326 81.698776 9.560548 0.776471
118.680595 81.741272 7.392592 0.678431
118.680588 81.741287 5.230928 0.678431
118.699310 81.698799 3.075447 0.776471
117.809891 83.717003 0.888461 0.655863
128.785233 58.812775 0.000010 0.541573
135.366364 43.879524 0.000000 0.338796
138.191879 37.468109 -0.000008 0.538140
139.765579 33.897224 -0.000006 0.530144
140.770248 31.617531 -0.000005 0.543236
141.468536 30.033054 -0.000005 0.529580
141.982986 28.865686 -0.000004 0.528298
nan nan nan 0.000000
nan nan nan 0.000000
118.327332 83.715157 14.321607 0.660258
119.190208 81.719551 11.722426 0.709468
119.199188 81.698784 9.537544 0.772519
119.180817 81.741280 7.376182 0.678431
119.180817 81.741280 5.221096 0.678431
119.199181 81.698792 3.072174 0.776471
118.311592 83.751549 0.891228 0.140383
129.045715 58.926498 0.000009 0.541192
135.522415 43.947662 -0.000001 0.338643
138.303116 37.516659 -0.000007 0.538781
139.851852 33.934887 -0.000006 0.541894
140.840576 31.648232 -0.000005 0.563821
141.527771 30.058918 -0.000005 0.510216
142.034073 28.887987 -0.000004 0.488884
nan nan nan 0.000000
nan nan nan 0.000000
118.840828 83.715195 14.284829 0.677195
119.701118 81.686821 11.688129 0.754589
119.696045 81.698784 9.515041 0.737438
119.681793 81.732384 7.359340 0.116869
119.681793 81.732391 5.211005 0.123278
119.696045 81.698784 3.068974 0.744121
118.825401 83.751572 0.894538 0.139773
129.306976 59.038376 0.000009 0.541024
135.678940 44.014717 -0.000003 0.338720
138.414688 37.564445 -0.000008 0.545022
139.938370 33.971943 -0.000007 0.550881
140.911118 31.678440 -0.000006 0.496086
141.587204 30.084370 -0.000005 0.546700
142.085312 28.909929 -0.000004 0.508904
nan nan nan 0.000000
nan nan nan 0.000000
119.351074 83.715759 14.248970 0.661936
120.194946 81.686829 11.659761 0.741176
120.189972 81.698784 9.493038 0.744015
120.172287 81.741295 7.344439 0.678431
120.172295 81.741280 5.202078 0.678431
120.189972 81.698776 3.065844 0.776471
119.346382 83.727051 0.898209 0.766217
129.569016 59.148445 0.000009 0.534890
135.835922 44.080696 -0.000006 0.337713
138.526596 37.611443 -0.000008 0.558175
140.025162 34.008392 -0.000006 0.516747
140.981857 31.708155 -0.000005 0.538064
141.646805 30.109404 -0.000005 0.557046
142.136719 28.931517 -0.000004 0.505913
nan nan nan 0.000000
nan nan nan 0.000000
120.142754 83.018898 14.076868 0.675853
120.689987 81.676819 11.630426 0.642252
120.689987 81.676819 9.468797 0.642847
120.690002 81.676804 7.323385 0.638651
120.689995 81.676819 5.189465 0.631510
120.689987 81.676819 3.062395 0.643503
120.614456 81.862076 0.934330 0.692439
129.831818 59.256683 0.000009 0.539971
135.993378 44.145569 -0.000009 0.336843
138.638824 37.657661 -0.000008 0.559655
140.112198 34.044239 -0.000007 0.559640
141.052826 31.737375 -0.000005 0.508858
141.706589 30.134022 -0.000005 0.526406
142.188248 28.952744 -0.000004 0.565164
nan nan nan 0.000000
nan nan nan 0.000000
120.641907 83.018494 14.042802 0.660807
121.152328 81.741264 11.613619 0.678431
121.169296 81.698807 9.450499 0.737774
121.152328 81.741264 7.314095 0.678431
127.918594 64.809998 4.288158 0.409751
127.669662 65.432899 2.773151 0.390066
120.362755 83.717026 0.904642 0.624811
130.095352 59.363075 0.000009 0.544823
136.151245 44.209389 -0.000016 0.339727
138.751358 37.703098 -0.000008 0.548302
140.199478 34.079472 -0.000006 0.542168
141.123978 31.766102 -0.000005 0.546502
141.766541 30.158222 -0.000005 0.577874
142.239944 28.973610 -0.000004 0.561532
nan nan nan 0.000000
nan nan nan 0.000000
121.138199 83.018303 14.009550 0.675654
121.638229 81.741287 11.587109 0.678431
121.654861 81.698799 9.429951 0.734096
121.638222 81.741295 7.299443 0.678431
128.496811 64.225113 4.250990 0.407614
128.232285 64.900696 2.761666 0.405219
120.864609 83.717033 0.907662 0.635294
130.359634 59.467636 0.000008 0.540932
136.309570 44.272079 -0.000020 0.339574
138.864227 37.747749 -0.000008 0.551339
140.287003 34.114098 -0.000007 0.506706
141.195328 31.794327 -0.000005 0.545586
141.826645 30.182003 -0.000005 0.540444
142.291779 28.994116 -0.000005 0.587121
nan nan nan 0.000000
nan nan nan 0.000000
121.631645 83.018463 13.977138 0.692195
122.121475 81.741302 11.561206 0.678431
122.137764 81.698830 9.409882 0.733608
122.121475 81.741310 7.285124 0.678431
128.716202 64.546387 4.261812 0.418418
128.621262 64.793938 2.757738 0.405997
121.363724 83.717026 0.910614 0.676600
130.624649 59.570343 0.000008 0.542046
136.468384 44.333549 -0.000014 0.337560
138.977402 37.791603 -0.000008 0.569299
140.374771 34.148113 -0.000006 0.538323
141.266876 31.822060 -0.000006 0.558495
141.886932 30.205360 -0.000005 0.549584
142.343750 29.014257 -0.000004 0.551186
nan nan nan 0.000000
nan nan nan 0.000000
122.119209 83.027267 13.947156 0.656443
122.602142 81.741310 11.535906 0.678431
122.618095 81.698822 9.390272 0.752941
122.602142 81.741302 7.271140 0.678431
129.374863 63.706718 4.211764 0.396811
128.948441 64.842216 2.756576 0.412284
121.860184 83.717026 0.913496 0.668696
130.890366 59.671181 0.000008 0.539940
136.627609 44.393898 -0.000008 0.338384
139.090866 37.834671 -0.000008 0.543175
140.462784 34.181515 -0.000007 0.529427
141.338623 31.849285 -0.000005 0.520012
141.947372 30.228302 -0.000005 0.517922
142.395874 29.034035 -0.000004 0.509682
nan nan nan 0.000000
nan nan nan 0.000000
122.529747 83.239021 13.957253 0.659922
123.080299 81.741310 11.511204 0.678431
123.095917 81.698822 9.371128 0.760403
123.080299 81.741310 7.257484 0.678431
129.635849 63.907722 4.216554 0.419211
129.542938 64.160484 2.742730 0.395972
122.354034 83.717018 0.916312 0.637415
131.156784 59.770164 0.000008 0.543542
136.787262 44.453129 -0.000001 0.338460
139.204651 37.876938 -0.000008 0.549798
140.551010 34.214294 -0.000006 0.515267
141.410553 31.876015 -0.000005 0.538506
142.007965 30.250820 -0.000005 0.550027
142.448120 29.053452 -0.000004 0.512642
nan nan nan 0.000000
nan nan nan 0.000000
122.929153 83.484085 13.974325 0.668376
123.556015 81.741302 11.487088 0.678431
123.571289 81.698837 9.352439 0.765255
123.556015 81.741302 7.244154 0.678431
129.715454 64.617027 4.247966 0.410666
130.107391 63.527412 2.729837 0.413611
122.845367 83.717033 0.919058 0.636286
131.423889 59.867317 0.000008 0.545968
136.947327 44.511261 0.000004 0.337301
139.318710 37.918423 -0.000008 0.541497
140.639481 34.246464 -0.000006 0.533593
141.482681 31.902237 -0.000005 0.527642
142.068726 30.272911 -0.000005 0.563867
142.500504 29.072498 -0.000004 0.565362
nan nan nan 0.000000
nan nan nan 0.000000
123.330688 83.727089 13.991494 0.775647
124.029335 81.741310 11.463555 0.678431
124.044281 81.698822 9.334199 0.769711
124.029335 81.741318 7.231147 0.678431
129.642960 65.785629 4.303248 0.419867
129.763260 65.443703 2.761270 0.418372
123.334229 83.717033 0.921740 0.663508
131.691666 59.962570 0.000008 0.539467
137.107788 44.568260 0.000011 0.338567
139.433060 37.959103 -0.000008 0.528237
140.728165 34.278015 -0.000007 0.541436
141.554977 31.927959 -0.000005 0.544442
142.129639 30.294580 -0.000005 0.517540
142.553024 29.091183 -0.000004 0.536049
nan nan nan 0.000000
nan nan nan 0.000000
123.817230 83.727089 13.962403 0.769879
124.500343 81.741310 11.440596 0.678431
124.514961 81.698814 9.316404 0.763973
124.500351 81.741287 7.218454 0.678431
130.031647 65.661934 4.291234 0.419608
130.101105 65.460030 2.759705 0.419608
123.820694 83.717026 0.924356 0.643366
131.960083 60.055977 0.000006 0.543770
137.268616 44.624191 0.000013 0.336782
139.547684 37.998985 -0.000008 0.533578
140.817062 34.308941 -0.000006 0.540078
141.627441 31.953175 -0.000006 0.527794
142.190689 30.315823 -0.000005 0.527535
142.605667 29.109501 -0.000004 0.543130
nan nan nan 0.000000
nan nan nan 0.000000
124.304855 83.716972 13.932091 0.646159
124.969093 81.741302 11.418207 0.678431
124.983383 81.698799 9.299053 0.763058
124.969101 81.741280 7.206076 0.678431
124.969101 81.741280 5.119181 0.678431
124.983383 81.698799 3.038252 0.766720
124.304840 83.717010 0.926907 0.633967
132.229172 60.147499 0.000006 0.540490
137.429840 44.679012 0.000014 0.337804
139.662598 38.038067 -0.000009 0.528435
140.906174 34.339249 -0.000006 0.559869
141.700104 31.977879 -0.000005 0.529458
142.251892 30.336639 -0.000005 0.544808
142.658447 29.127447 -0.000004 0.561105
nan nan nan 0.000000
nan nan nan 0.000000
124.786720 83.716995 13.904444 0.625559
125.448074 81.703476 11.390475 0.657664
125.448059 81.703514 9.282710 0.627161
125.448090 81.703430 7.190746 0.631769
125.448082 81.703461 5.109996 0.661738
130.648453 65.870781 2.763222 0.402457
124.786705 83.717026 0.929394 0.642329
132.498871 60.237144 0.000006 0.538979
137.591431 44.732735 0.000012 0.340154
139.777771 38.076340 -0.000008 0.533074
140.995499 34.368942 -0.000007 0.552880
141.772919 32.002083 -0.000005 0.554040
142.313248 30.357027 -0.000005 0.519432
142.711334 29.145027 -0.000004 0.583856
nan nan nan 0.000000
nan nan nan 0.000000
125.266388 83.717003 13.877501 0.629557
125.487625 83.027222 11.575432 0.644068
125.487663 83.027100 9.426130 0.649134
125.487648 83.027168 7.292984 0.626429
125.487625 83.027229 5.171251 0.636362
125.487625 83.027229 3.056330 0.626841
125.266380 83.717010 0.931817 0.662531
132.769196 60.324898 0.000005 0.534447
137.753387 44.785309 0.000012 0.338888
139.893219 38.113815 -0.000009 0.531838
141.085037 34.397999 -0.000007 0.570764
141.845901 32.025772 -0.000005 0.546044
142.374741 30.376987 -0.000005 0.533822
142.764359 29.162237 -0.000004 0.556130
nan nan nan 0.000000
nan nan nan 0.000000
125.734123 83.748268 13.857212 0.743252
125.734131 83.748238 11.666343 0.742306
125.734131 83.748238 9.496650 0.731350
125.734123 83.748245 7.343242 0.746777
125.734123 83.748253 5.201360 0.724285
125.770744 83.631279 3.064353 0.722667
125.734131 83.748230 0.933642 0.729976
133.040146 60.410744 0.000006 0.546548
137.915726 44.836754 0.000012 0.337850
140.008911 38.150482 -0.000008 0.532631
141.174759 34.426434 -0.000007 0.565713
141.919052 32.048954 -0.000006 0.535988
142.436371 30.396517 -0.000005 0.553017
142.817490 29.179077 -0.000004 0.531487
nan nan nan 0.000000
nan nan nan 0.000000
126.205498 83.762344 13.834319 0.678431
126.205498 83.762352 11.647686 0.752941
126.205498 83.762344 9.482180 0.686030
126.205498 83.762352 7.332929 0.678431
126.205498 83.762344 5.195179 0.678431
126.245529 83.631287 3.062058 0.726284
126.205498 83.762352 0.935701 0.752941
133.311676 60.494705 0.000006 0.537163
138.078400 44.887054 0.000013 0.336767
140.124863 38.186340 -0.000009 0.537057
141.264694 34.454243 -0.000007 0.543313
141.992371 32.071625 -0.000005 0.542000
142.498123 30.415615 -0.000005 0.556512
142.870743 29.195545 -0.000005 0.529870
nan nan nan 0.000000
nan nan nan 0.000000
126.679260 83.762344 13.809431 0.678431
126.679260 83.762352 11.627394 0.741039
126.704536 83.677475 9.456257 0.925490
126.679260 83.762352 7.321712 0.678431
126.679260 83.762344 5.188458 0.678431
126.718292 83.631264 3.059824 0.693263
126.679260 83.762360 0.937939 0.745388
133.583771 60.576775 0.000006 0.537850
138.241425 44.936249 0.000010 0.338674
140.241074 38.221382 -0.000008 0.522499
141.354813 34.481422 -0.000007 0.528298
142.065826 32.093781 -0.000005 0.556298
142.560028 30.434280 -0.000005 0.534020
142.924118 29.211639 -0.000004 0.529793
nan nan nan 0.000000
nan nan nan 0.000000
127.151054 83.762360 13.785216 0.678431
127.151054 83.762352 11.607655 0.734752
127.176125 83.675980 9.440789 0.936996
127.151062 83.762344 7.310797 0.678431
127.151062 83.762344 5.181921 0.678431
127.189102 83.631264 3.057651 0.698375
127.151047 83.762375 0.940117 0.754513
133.856445 60.656952 0.000005 0.543145
138.404816 44.984234 0.000014 0.338033
140.357513 38.255615 -0.000008 0.535653
141.445114 34.507969 -0.000006 0.527077
142.139450 32.115425 -0.000005 0.527001
142.622040 30.452518 -0.000005 0.553384
142.977600 29.227362 -0.000004 0.511193
nan nan nan 0.000000
nan nan nan 0.000000
127.620949 83.762337 13.761672 0.678431
127.620941 83.762360 11.588460 0.747509
127.645966 83.673798 9.425665 0.936767
127.620941 83.762344 7.300189 0.678431
127.620941 83.762344 5.175567 0.678431
127.657990 83.631264 3.055536 0.703273
127.620941 83.762367 0.942233 0.744320
134.129669 60.735229 0.000005 0.538888
138.568558 45.030972 0.000028 0.337758
140.474197 38.289036 -0.000009 0.546044
141.535599 34.533890 -0.000006 0.526864
142.213226 32.136559 -0.000005 0.536751
142.684189 30.470318 -0.000005 0.537346
143.031189 29.242712 -0.000004 0.508766
nan nan nan 0.000000
nan nan nan 0.000000
128.101456 83.717041 13.730246 0.634668
128.129730 83.614212 11.547020 0.656840
128.101456 83.717033 9.416379 0.650980
128.101471 83.716988 7.286022 0.628031
128.101471 83.716988 5.167079 0.658305
128.125046 83.631248 3.053485 0.692134
128.129272 83.615898 0.946777 0.623941
134.403442 60.811569 0.000005 0.535485
138.732590 45.076672 0.000031 0.336522
140.591110 38.321644 -0.000009 0.529732
141.626282 34.559174 -0.000006 0.538079
142.287140 32.157173 -0.000006 0.530449
142.746460 30.487684 -0.000005 0.555428
143.084869 29.257687 -0.000005 0.562432
nan nan nan 0.000000
nan nan nan 0.000000
128.563339 83.732018 13.710865 0.678431
128.564682 83.727013 11.546269 0.773846
128.551300 83.777008 9.409484 0.752178
128.497787 83.976990 7.298086 0.678431
128.553986 83.766991 5.163626 0.678431
128.590317 83.631233 3.051489 0.696956
128.587769 83.640762 0.948349 0.677546
134.677734 60.886017 0.000005 0.540063
138.896927 45.121262 0.000031 0.339361
140.708237 38.353432 -0.000009 0.539574
141.717117 34.583832 -0.000007 0.543862
142.361191 32.177269 -0.000005 0.491463
142.808853 30.504618 -0.000005 0.550759
143.138672 29.272285 -0.000004 0.547417
nan nan nan 0.000000
nan nan nan 0.000000
129.027634 83.731995 13.689304 0.678431
129.028931 83.726997 11.528696 0.776471
129.015915 83.777031 9.395848 0.730785
128.963882 83.976997 7.288334 0.678431
133.919479 64.929291 4.201559 0.432090
133.823029 65.299995 2.739598 0.404181
128.963882 83.976990 0.944600 0.678431
134.952545 60.958549 0.000005 0.545235
139.061569 45.164715 0.000031 0.335241
140.825592 38.384399 -0.000009 0.532006
141.808136 34.607849 -0.000007 0.552163
142.435394 32.196846 -0.000005 0.537408
142.871368 30.521114 -0.000005 0.539345
143.192566 29.286507 -0.000004 0.564157
nan nan nan 0.000000
nan nan nan 0.000000
129.491486 83.727013 13.667460 0.780758
129.515442 83.632187 11.497144 0.697734
129.491486 83.727005 9.376682 0.716945
129.491486 83.726990 7.257731 0.776471
134.282211 64.770859 4.189593 0.414466
134.144028 65.317650 2.738573 0.404746
129.514526 83.635857 0.952245 0.664271
135.227844 61.029152 0.000005 0.536309
139.226517 45.207016 0.000031 0.338674
140.943161 38.414551 -0.000009 0.538354
141.899307 34.631233 -0.000007 0.547021
142.509720 32.215908 -0.000005 0.515770
142.933990 30.537170 -0.000005 0.549294
143.246567 29.300354 -0.000004 0.550652
nan nan nan 0.000000
nan nan nan 0.000000
129.942627 83.766884 13.654664 0.678431
129.975922 83.631187 11.480494 0.694057
129.948227 83.744095 9.365893 0.738476
129.942627 83.766876 7.251966 0.678431
134.717072 64.304230 4.162186 0.413443
134.477478 65.280899 2.736671 0.420783
129.940170 83.776909 0.951689 0.740749
135.503632 61.097824 0.000005 0.540459
139.391754 45.248161 0.000031 0.337972
141.060944 38.443878 -0.000008 0.535561
141.990646 34.653976 -0.000006 0.508644
142.584183 32.234451 -0.000005 0.509712
142.996719 30.552794 -0.000005 0.550546
143.300659 29.313824 -0.000004 0.561578
nan nan nan 0.000000
nan nan nan 0.000000
130.402267 83.766891 13.635022 0.678431
130.434845 83.629959 11.464332 0.715084
130.405060 83.755165 9.354790 0.742458
130.402267 83.766899 7.243115 0.678431
134.951950 64.644485 4.175724 0.420172
134.724548 65.600258 2.740800 0.411658
130.399887 83.776901 0.953455 0.734295
135.779892 61.164581 0.000004 0.540993
139.557281 45.288155 0.000031 0.338247
141.178909 38.472382 -0.000009 0.541024
142.082138 34.676079 -0.000006 0.533379
142.658783 32.252476 -0.000005 0.544030
143.059555 30.567974 -0.000005 0.545327
143.354843 29.326916 -0.000004 0.530571
nan nan nan 0.000000
nan nan nan 0.000000
130.860397 83.766907 13.616014 0.678431
130.891541 83.631798 11.449147 0.724437
130.860626 83.765907 9.344040 0.746563
130.860397 83.766891 7.234550 0.678431
135.307816 64.477203 4.163735 0.417823
135.293900 64.537537 2.721743 0.402625
135.161591 65.111427 1.268619 0.450584
136.056625 61.229416 0.000004 0.539132
139.723053 45.327057 0.000026 0.337392
141.297089 38.500061 -0.000008 0.528191
142.173798 34.697548 -0.000007 0.530724
142.733490 32.269974 -0.000005 0.545724
143.122498 30.582718 -0.000005 0.529656
143.409103 29.339626 -0.000004 0.548180
nan nan nan 0.000000
nan nan nan 0.000000
131.317047 83.766899 13.597629 0.678431
131.347321 83.631210 11.434103 0.687922
131.314804 83.776894 9.333712 0.752941
131.317032 83.766907 7.226264 0.678431
