# This PCD file was generated using the MATLABÂ® pcwrite function
# from Computer Vision ToolboxÂ®.
# .PCD v.7 - Point Cloud Data file format
VERSION .7
FIELDS x y z intensity
SIZE 4 4 4 4
TYPE F F F F
COUNT 1 1 1 1
WIDTH 1240
HEIGHT 1
VIEWPOINT 0 0 0 1 0 0 0
POINTS 1240
DATA ascii
132.486084 11.659894 -0.000016 0.558053
132.603531 13.387443 -0.000013 0.549020
132.690063 14.660223 -0.000011 0.544472
132.231705 9.294296 5.348879 0.668742
132.231705 9.294304 4.887528 0.607858
132.231705 9.294300 4.432658 0.654810
132.231705 9.294300 3.983173 0.698741
132.231705 9.294299 3.538034 0.471794
132.231705 9.294299 3.096234 0.604120
132.231705 9.294296 2.656800 0.633768
132.231705 9.294300 2.218777 0.741176
132.231705 9.294300 1.781223 0.738216
132.231705 9.294297 1.343200 0.732143
132.231705 9.294300 0.903766 0.708064
132.231705 9.294299 0.461966 0.624231
132.231705 9.294299 0.016826 0.653895
132.409546 11.665363 -0.000016 0.546838
132.539047 13.392054 -0.000013 0.552605
132.634460 14.664194 -0.000011 0.571359
132.138062 9.294297 5.350715 0.681010
132.138062 9.294305 4.889112 0.534020
132.138062 9.294301 4.433991 0.639612
132.138062 9.294301 3.984261 0.672358
132.138062 9.294300 3.538877 0.498497
132.138062 9.294299 3.096835 0.547204
132.138062 9.294297 2.657160 0.662333
132.138062 9.294300 2.218897 0.695964
132.138062 9.294300 1.781103 0.709804
132.138062 9.294298 1.342840 0.706401
132.138062 9.294300 0.903164 0.640040
132.138062 9.294300 0.461123 0.600641
132.138062 9.294300 0.015739 0.678431
132.333038 11.671372 -0.000016 0.554345
132.474609 13.397115 -0.000013 0.550805
132.578903 14.668558 -0.000011 0.514580
132.044296 9.294299 5.352716 0.659815
132.044296 9.294305 4.890838 0.424399
132.044296 9.294302 4.435445 0.455909
132.044296 9.294301 3.985446 0.692744
132.044296 9.294299 3.539797 0.516762
132.044296 9.294300 3.097490 0.657938
132.044296 9.294299 2.657552 0.728099
132.044296 9.294298 2.219028 0.776471
132.044296 9.294298 1.780972 0.776471
132.044296 9.294300 1.342447 0.733333
132.044296 9.294301 0.902510 0.732891
132.044296 9.294299 0.460203 0.717418
132.044296 9.294300 0.014554 0.733333
132.256592 11.677911 -0.000016 0.529961
132.410187 13.402624 -0.000013 0.534081
132.523361 14.673307 -0.000011 0.538643
131.950424 9.294300 5.354883 0.670878
131.950424 9.294305 4.892707 0.442588
131.950424 9.294303 4.437019 0.669062
131.950424 9.294302 3.986730 0.683116
131.950424 9.294298 3.540792 0.590448
131.950424 9.294301 3.098200 0.603677
131.950424 9.294298 2.657978 0.685054
131.950424 9.294300 2.219170 0.706859
131.950424 9.294300 1.780831 0.764614
131.950424 9.294299 1.342022 0.709895
131.950424 9.294302 0.901800 0.692164
131.950424 9.294298 0.459208 0.645808
131.950424 9.294300 0.013270 0.678859
132.180176 11.684985 -0.000016 0.540368
132.345810 13.408582 -0.000013 0.505455
132.467850 14.678448 -0.000011 0.551217
131.856430 9.294298 5.357218 0.670069
131.856430 9.294304 4.894719 0.435767
131.856430 9.294302 4.438715 0.656413
131.856430 9.294301 3.988112 0.683757
131.856430 9.294298 3.541864 0.634714
131.856430 9.294299 3.098964 0.637644
131.856430 9.294299 2.658435 0.758694
131.856430 9.294300 2.219321 0.775784
131.856430 9.294300 1.780678 0.800610
131.856430 9.294300 1.341564 0.763699
131.856430 9.294301 0.901036 0.708003
131.856430 9.294298 0.458136 0.725612
131.856430 9.294299 0.011888 0.736156
132.103821 11.692595 -0.000016 0.528176
132.281479 13.414991 -0.000014 0.536294
132.412384 14.683973 -0.000012 0.553521
131.762299 9.294299 5.359719 0.685542
131.762299 9.294303 4.896876 0.487755
131.762299 9.294302 4.440532 0.689250
131.762299 9.294302 3.989594 0.692271
131.762299 9.294301 3.543012 0.627329
131.762299 9.294300 3.099783 0.507744
131.762299 9.294299 2.658926 0.702693
131.762299 9.294301 2.219485 0.723781
131.762299 9.294299 1.780515 0.697307
131.762299 9.294300 1.341074 0.726345
131.762299 9.294301 0.900217 0.643534
131.762299 9.294301 0.456987 0.543664
131.762299 9.294300 0.010406 0.730266
132.027512 11.700733 -0.000016 0.562081
132.217209 13.421850 -0.000013 0.537896
132.356964 14.689886 -0.000012 0.542138
131.668015 9.294298 5.362389 0.272587
131.668015 9.294302 4.899177 0.389563
131.668015 9.294301 4.442472 0.662440
131.668015 9.294299 3.991174 0.348074
131.668015 9.294299 3.544239 0.497902
131.668015 9.294299 3.100657 0.499641
131.668015 9.294299 2.659450 0.659800
131.668015 9.294299 2.219660 0.649393
131.668015 9.294300 1.780341 0.684321
131.668015 9.294300 1.340550 0.660487
131.668015 9.294300 0.899343 0.605173
131.668015 9.294299 0.455761 0.603326
131.668015 9.294297 0.008825 0.680659
131.951263 11.709406 -0.000016 0.548623
132.152969 13.429155 -0.000013 0.507271
132.301575 14.696186 -0.000011 0.525490
131.573578 9.294300 5.365226 0.670405
131.573578 9.294304 4.901624 0.485740
131.573578 9.294303 4.444532 0.677791
131.573578 9.294302 3.992855 0.655268
131.573578 9.294300 3.545541 0.675364
131.573578 9.294301 3.101585 0.475608
131.573578 9.294301 2.660006 0.672221
131.573578 9.294300 2.219845 0.666667
131.573578 9.294299 1.780155 0.698039
131.573578 9.294302 1.339994 0.652293
131.573578 9.294302 0.898415 0.652262
131.573578 9.294300 0.454458 0.577752
131.573578 9.294300 0.007145 0.714458
131.875092 11.718610 -0.000016 0.515007
132.088791 13.436911 -0.000014 0.535348
132.246231 14.702871 -0.000012 0.529671
131.478973 9.294301 5.368232 0.643183
131.478973 9.294304 4.904216 0.540352
131.478973 9.294303 4.446716 0.658595
131.478973 9.294302 3.994635 0.681788
131.478973 9.294299 3.546923 0.682597
131.478973 9.294301 3.102570 0.508965
131.478973 9.294299 2.660596 0.681865
131.478973 9.294301 2.220041 0.729900
131.478973 9.294301 1.779959 0.718257
131.478973 9.294300 1.339404 0.600122
131.478973 9.294302 0.897431 0.623056
131.478973 9.294298 0.453077 0.614893
131.478973 9.294300 0.005365 0.741176
131.798965 11.728347 -0.000016 0.571237
132.024658 13.445111 -0.000014 0.537530
132.190948 14.709945 -0.000012 0.538872
131.384201 9.294300 5.371409 0.566690
131.384201 9.294306 4.906955 0.604898
131.384201 9.294302 4.449024 0.652003
131.384201 9.294301 3.996516 0.661860
131.384201 9.294300 3.548381 0.653132
131.384201 9.294300 3.103609 0.507866
131.384201 9.294300 2.661219 0.652689
131.384201 9.294299 2.220249 0.698024
131.384201 9.294299 1.779751 0.648768
131.384201 9.294301 1.338781 0.636652
131.384201 9.294300 0.896390 0.600122
131.384201 9.294300 0.451619 0.576822
131.384201 9.294299 0.003484 0.692348
131.722916 11.738614 -0.000016 0.573114
131.960587 13.453762 -0.000014 0.542535
132.135696 14.717403 -0.000012 0.549371
131.289246 9.294301 5.374756 0.558724
131.289246 9.294306 4.909841 0.652140
131.289246 9.294303 4.451455 0.533394
131.289246 9.294302 3.998498 0.672557
131.289246 9.294300 3.549919 0.655390
131.289246 9.294300 3.104705 0.556848
131.289246 9.294301 2.661875 0.707881
131.289246 9.294299 2.220467 0.706737
131.289246 9.294299 1.779532 0.720958
131.289246 9.294301 1.338125 0.737316
131.289246 9.294300 0.895295 0.690044
131.289246 9.294300 0.450081 0.658946
131.289246 9.294300 0.001502 0.707729
131.646942 11.749411 -0.000016 0.614755
131.896591 13.462859 -0.000014 0.517815
132.080505 14.725246 -0.000012 0.514244
131.194107 9.294300 5.378274 0.460151
131.194107 9.294306 4.912874 0.666224
131.194107 9.294303 4.454011 0.660502
131.194107 9.294300 4.000582 0.583749
131.194107 9.294300 3.551535 0.645060
131.194107 9.294299 3.105856 0.505653
131.194107 9.294298 2.662565 0.703731
131.194107 9.294300 2.220697 0.717586
131.194107 9.294300 1.779303 0.742214
131.194107 9.294299 1.337435 0.729351
131.194107 9.294300 0.894143 0.622782
131.194107 9.294300 0.448465 0.619211
131.194107 9.294298 -0.000582 0.693263
131.571045 11.760740 -0.000016 0.530877
131.832657 13.472405 -0.000013 0.545998
132.025375 14.733477 -0.000012 0.541390
131.098755 9.294300 5.381965 0.381628
131.098755 9.294305 4.916057 0.663264
131.098755 9.294304 4.456692 0.669429
131.098755 9.294303 4.002767 0.627375
131.098755 9.294300 3.553229 0.680156
131.098755 9.294299 3.107065 0.563638
131.098755 9.294301 2.663289 0.733608
131.098755 9.294302 2.220938 0.749416
131.098755 9.294302 1.779062 0.718135
131.098755 9.294302 1.336711 0.751293
131.098755 9.294300 0.892935 0.728923
131.098755 9.294299 0.446771 0.698405
131.101669 9.312586 -0.000021 0.549218
131.495239 11.772595 -0.000017 0.545022
131.768784 13.482394 -0.000014 0.518624
131.970306 14.742088 -0.000012 0.545190
131.003189 9.294302 5.385829 0.649638
131.003189 9.294306 4.919389 0.667353
131.003189 9.294305 4.459498 0.642939
131.003189 9.294304 4.005055 0.589853
131.003189 9.294300 3.555004 0.675166
131.003189 9.294301 3.108329 0.503441
131.003189 9.294300 2.664047 0.656245
131.003189 9.294300 2.221191 0.602213
131.003189 9.294300 1.778809 0.518639
131.003189 9.294301 1.335953 0.666773
131.003189 9.294303 0.891670 0.579690
131.003189 9.294300 0.444996 0.577325
131.008774 9.327782 -0.000021 0.531731
131.419510 11.784985 -0.000017 0.592187
131.704971 13.492827 -0.000014 0.544610
131.915298 14.751089 -0.000012 0.522667
130.907394 9.294303 5.389866 0.676020
130.907394 9.294304 4.922872 0.697780
130.907394 9.294303 4.462432 0.669764
130.907394 9.294303 4.007447 0.453666
130.907394 9.294300 3.556859 0.432044
130.907394 9.294302 3.109651 0.595056
130.907394 9.294301 2.664839 0.748531
130.907394 9.294301 2.221455 0.679408
130.907394 9.294301 1.778545 0.690684
130.907394 9.294302 1.335161 0.666667
130.907394 9.294302 0.890348 0.704219
130.907394 9.294299 0.443141 0.720714
130.916000 9.343624 -0.000021 0.538781
131.343872 11.797902 -0.000016 0.548959
131.641251 13.503709 -0.000014 0.516640
131.860352 14.760468 -0.000012 0.532280
130.811371 9.294301 5.394080 0.705272
130.811371 9.294305 4.926504 0.707042
130.811371 9.294303 4.465493 0.674876
130.811371 9.294300 4.009942 0.572717
130.811371 9.294299 3.558794 0.670069
130.811371 9.294300 3.111031 0.492302
130.811371 9.294300 2.665665 0.738293
130.811371 9.294299 2.221730 0.645472
130.811371 9.294299 1.778270 0.637812
130.811371 9.294300 1.334335 0.666667
130.811371 9.294300 0.888969 0.672770
130.811371 9.294298 0.441206 0.598383
130.823318 9.360112 -0.000021 0.525902
131.268311 11.811340 -0.000017 0.528054
131.577606 13.515034 -0.000014 0.510109
131.805466 14.770233 -0.000012 0.535027
130.715103 9.294305 5.398470 0.678431
130.715103 9.294306 4.930289 0.701961
130.715103 9.294306 4.468681 0.708034
130.715103 9.294302 4.012542 0.450828
130.715103 9.294299 3.560810 0.678981
130.715103 9.294301 3.112468 0.564920
130.715103 9.294302 2.666526 0.721569
130.715103 9.294302 2.222017 0.568627
130.715103 9.294302 1.777983 0.676966
130.715103 9.294302 1.333474 0.666667
130.715103 9.294301 0.887532 0.706493
130.715103 9.294299 0.439190 0.700664
130.730759 9.377250 -0.000021 0.530770
131.192856 11.825311 -0.000017 0.559655
131.514038 13.526804 -0.000014 0.514214
131.750656 14.780381 -0.000012 0.537011
130.618591 9.294304 5.403037 0.678431
130.618591 9.294307 4.934227 0.571511
130.618591 9.294304 4.471999 0.678431
130.618591 9.294303 4.015246 0.513039
130.618591 9.294302 3.562907 0.681361
130.618591 9.294300 3.113963 0.513863
130.618591 9.294301 2.667422 0.664088
130.618591 9.294302 2.222315 0.702693
130.618591 9.294302 1.777685 0.693675
130.618591 9.294301 1.332578 0.702815
130.618591 9.294300 0.886037 0.671687
130.618591 9.294299 0.437092 0.640940
130.638336 9.395036 -0.000020 0.517983
131.117508 11.839809 -0.000017 0.515969
131.450546 13.539016 -0.000014 0.553109
131.695923 14.790913 -0.000012 0.555169
130.521805 9.294304 5.407783 0.654459
130.521805 9.294304 4.938320 0.678676
130.521805 9.294308 4.475446 0.652583
130.521805 9.294304 4.018057 0.516884
130.521805 9.294302 3.565088 0.676860
130.521805 9.294301 3.115516 0.511513
130.521805 9.294301 2.668353 0.705119
130.521805 9.294302 2.222625 0.698039
130.521805 9.294302 1.777375 0.695216
130.521805 9.294301 1.331647 0.689784
130.521805 9.294301 0.884483 0.660594
130.521805 9.294299 0.434912 0.677485
130.546021 9.413459 -0.000021 0.539208
131.042252 11.854831 -0.000017 0.552758
131.387146 13.551673 -0.000014 0.536583
131.641251 14.801825 -0.000012 0.531624
130.424744 9.294305 5.412708 0.678431
130.424744 9.294305 4.942566 0.674662
130.424744 9.294304 4.479025 0.678431
130.424744 9.294303 4.020974 0.605249
130.424744 9.294303 3.567349 0.674113
130.424744 9.294300 3.117129 0.467628
130.424744 9.294302 2.669319 0.682719
130.424744 9.294302 2.222947 0.651591
130.424744 9.294302 1.777053 0.651591
130.424744 9.294302 1.330681 0.698039
130.424744 9.294300 0.882871 0.585336
130.424744 9.294300 0.432650 0.593820
130.453842 9.432529 -0.000021 0.538781
130.967102 11.870378 -0.000017 0.537438
131.323837 13.564769 -0.000014 0.549020
131.586670 14.813120 -0.000011 0.561990
130.327393 9.294305 5.417816 0.656535
130.327393 9.294307 4.946969 0.669474
130.327393 9.294306 4.482735 0.451637
130.327393 9.294305 4.023998 0.570871
130.327393 9.294304 3.569695 0.654398
130.327393 9.294301 3.118801 0.519112
130.327393 9.294304 2.670320 0.724758
130.327393 9.294303 2.223280 0.702052
130.327393 9.294302 1.776719 0.741176
130.327393 9.294304 1.329679 0.654902
130.327393 9.294301 0.881199 0.557961
130.327393 9.294302 0.430305 0.690196
130.361801 9.452245 -0.000021 0.540185
130.892075 11.886451 -0.000016 0.532372
131.260635 13.578310 -0.000014 0.529107
131.532166 14.824793 -0.000012 0.574853
130.229752 9.294307 5.423105 0.632227
130.229752 9.294307 4.951530 0.670222
130.229752 9.294305 4.486577 0.384009
130.229752 9.294304 4.027131 0.595850
130.229752 9.294303 3.572124 0.667262
130.229752 9.294302 3.120532 0.499535
130.229752 9.294302 2.671358 0.656123
130.229752 9.294304 2.223626 0.580728
130.229752 9.294304 1.776374 0.595834
130.229752 9.294302 1.328642 0.641077
130.229752 9.294302 0.879468 0.564950
130.229752 9.294302 0.427876 0.629129
130.269897 9.472601 -0.000021 0.525353
130.817154 11.903047 -0.000016 0.485496
131.197510 13.592291 -0.000014 0.532509
131.477737 14.836847 -0.000012 0.537392
130.131805 9.294309 5.428577 0.592340
130.131805 9.294307 4.956249 0.621790
130.131805 9.294307 4.490552 0.426474
130.131805 9.294305 4.030371 0.640208
130.131805 9.294304 3.574637 0.502007
130.131805 9.294303 3.122324 0.499199
130.131805 9.294301 2.672431 0.714046
130.131805 9.294303 2.223984 0.741176
130.131805 9.294303 1.776016 0.741176
130.131805 9.294300 1.327569 0.740780
130.131805 9.294301 0.877676 0.741176
130.131805 9.294301 0.425362 0.735103
130.178146 9.493597 -0.000021 0.547814
130.742355 11.920163 -0.000016 0.554284
131.134491 13.606710 -0.000014 0.523659
131.423401 14.849281 -0.000012 0.519539
130.033539 9.294307 5.434236 0.659434
130.033539 9.294307 4.961128 0.647028
130.033539 9.294305 4.494663 0.481209
130.033539 9.294305 4.033722 0.650721
130.033539 9.294303 3.577236 0.657145
130.033539 9.294302 3.124176 0.476249
130.033539 9.294301 2.673541 0.702937
130.033539 9.294303 2.224353 0.694362
130.033539 9.294303 1.775647 0.698039
130.033539 9.294301 1.326459 0.681865
130.033539 9.294302 0.875824 0.688869
130.033539 9.294302 0.422763 0.677455
130.086533 9.515236 -0.000021 0.541634
130.667664 11.937804 -0.000016 0.517372
131.071579 13.621572 -0.000014 0.531716
131.369156 14.862095 -0.000012 0.553948
129.934937 9.294305 5.440081 0.517769
129.934937 9.294306 4.966168 0.442298
129.934937 9.294306 4.498908 0.542748
129.934937 9.294303 4.037183 0.662943
129.934937 9.294303 3.579920 0.644251
129.934937 9.294302 3.126089 0.517037
129.934937 9.294301 2.674687 0.697734
129.934937 9.294301 2.224735 0.720958
129.934937 9.294301 1.775265 0.726650
129.934937 9.294301 1.325313 0.695094
129.934937 9.294301 0.873910 0.706035
129.934937 9.294302 0.420079 0.650736
129.995087 9.537511 -0.000021 0.548943
130.593109 11.955962 -0.000016 0.549844
131.008759 13.636872 -0.000014 0.559121
131.315002 14.875286 -0.000012 0.548379
129.835999 9.294308 5.446114 0.394751
129.835999 9.294306 4.971370 0.494942
129.835999 9.294304 4.503291 0.497383
129.835999 9.294304 4.040756 0.677241
129.835999 9.294303 3.582692 0.640513
129.835999 9.294304 3.128064 0.501534
129.835999 9.294304 2.675870 0.661158
129.835999 9.294304 2.225130 0.721569
129.835999 9.294304 1.774871 0.691127
129.835999 9.294304 1.324129 0.667994
129.835999 9.294302 0.871935 0.692378
129.835999 9.294301 0.417308 0.644282
129.903778 9.560426 -0.000021 0.534630
130.518677 11.974644 -0.000017 0.532525
130.946060 13.652610 -0.000014 0.560388
131.260925 14.888857 -0.000012 0.552453
129.736710 9.294308 5.452336 0.495155
129.736710 9.294307 4.976735 0.562860
129.736710 9.294305 4.507811 0.660975
129.736710 9.294303 4.044441 0.407462
129.736710 9.294302 3.585550 0.628962
129.736710 9.294305 3.130101 0.551995
129.736710 9.294303 2.677091 0.733333
129.736710 9.294305 2.225536 0.784726
129.736710 9.294305 1.774464 0.741176
129.736710 9.294303 1.322909 0.734585
129.736710 9.294303 0.869899 0.752880
129.736710 9.294300 0.414450 0.768566
129.812653 9.583977 -0.000021 0.535866
130.444382 11.993841 -0.000017 0.544335
130.883469 13.668784 -0.000014 0.547463
131.206955 14.902803 -0.000012 0.517586
129.637054 9.294307 5.458751 0.612665
129.637054 9.294308 4.982265 0.649821
129.637054 9.294306 4.512470 0.643442
129.637054 9.294303 4.048240 0.704707
129.637054 9.294304 3.588495 0.661234
129.637054 9.294301 3.132200 0.557229
129.637054 9.294303 2.678349 0.685420
129.637054 9.294305 2.225955 0.721889
129.637054 9.294305 1.774045 0.654673
129.637054 9.294303 1.321651 0.647517
129.637054 9.294301 0.867799 0.692988
129.637054 9.294303 0.411505 0.685176
129.721680 9.608162 -0.000021 0.544366
130.370224 12.013558 -0.000017 0.526619
130.820984 13.685394 -0.000014 0.538674
131.153091 14.917126 -0.000012 0.552346
129.537018 9.294308 5.465357 0.675502
129.537018 9.294308 4.987963 0.676509
129.537018 9.294306 4.517270 0.668910
129.537018 9.294305 4.052152 0.673335
129.537018 9.294304 3.591530 0.657267
129.537018 9.294305 3.134363 0.570397
129.537018 9.294304 2.679644 0.702724
129.537018 9.294303 2.226386 0.736767
129.537018 9.294303 1.773614 0.628000
129.537018 9.294302 1.320355 0.701991
129.537018 9.294302 0.865636 0.716686
129.537018 9.294300 0.408470 0.708247
129.630875 9.632982 -0.000021 0.549813
130.296204 12.033795 -0.000017 0.541512
130.758636 13.702446 -0.000014 0.540749
131.099319 14.931825 -0.000012 0.558785
129.436600 9.294307 5.472160 0.707851
129.436600 9.294308 4.993827 0.636820
129.436600 9.294307 4.522211 0.658778
129.436600 9.294306 4.056180 0.618814
129.436600 9.294303 3.594654 0.548898
129.436600 9.294303 3.136590 0.556985
129.436600 9.294306 2.680979 0.652079
129.436600 9.294305 2.226831 0.676600
129.436600 9.294305 1.773169 0.650980
129.436600 9.294304 1.319021 0.670893
129.436600 9.294301 0.863410 0.695125
129.436600 9.294300 0.405346 0.654169
129.540253 9.658439 -0.000020 0.548821
130.222336 12.054549 -0.000016 0.543023
130.696396 13.719927 -0.000014 0.555398
131.045654 14.946898 -0.000012 0.525582
129.335785 9.294306 5.479160 0.409613
129.335785 9.294305 4.999863 0.652827
129.335785 9.294307 4.527295 0.445228
129.335785 9.294303 4.060325 0.609537
129.335785 9.294302 3.597868 0.358099
129.335785 9.294303 3.138881 0.571206
129.335785 9.294305 2.682351 0.690196
129.335785 9.294304 2.227288 0.741176
129.335785 9.294304 1.772712 0.743664
129.335785 9.294304 1.317648 0.776471
129.335785 9.294302 0.861119 0.741176
129.335785 9.294300 0.402131 0.690196
129.449814 9.684526 -0.000020 0.557733
130.148590 12.075814 -0.000017 0.552102
130.634277 13.737843 -0.000014 0.514031
130.992096 14.962347 -0.000012 0.551156
129.234558 9.294304 5.486358 0.701534
129.234558 9.294307 5.006068 0.665492
129.234558 9.294308 4.532523 0.660380
129.234558 9.294303 4.064588 0.629648
129.234558 9.294302 3.601174 0.488930
129.234558 9.294301 3.141237 0.544457
129.234558 9.294304 2.683763 0.678431
129.234558 9.294303 2.227758 0.713481
129.234558 9.294303 1.772242 0.741588
129.234558 9.294304 1.316237 0.748730
129.234558 9.294301 0.858762 0.679118
129.234558 9.294301 0.398826 0.696284
129.359558 9.711245 -0.000021 0.526650
130.075012 12.097595 -0.000017 0.525444
130.572281 13.756194 -0.000014 0.568750
130.938644 14.978169 -0.000012 0.561822
129.132904 9.294306 5.493754 0.665339
129.132904 9.294307 5.012446 0.645716
129.132904 9.294307 4.537897 0.626062
129.132904 9.294304 4.068968 0.646143
129.132904 9.294303 3.604572 0.419638
129.132904 9.294305 3.143658 0.663233
129.132904 9.294305 2.685214 0.760586
129.132904 9.294304 2.228242 0.807843
129.132904 9.294304 1.771758 0.771099
129.132904 9.294303 1.314786 0.758633
129.132904 9.294303 0.856341 0.776471
129.132904 9.294301 0.395428 0.772152
129.269485 9.738590 -0.000021 0.539437
130.001587 12.119887 -0.000017 0.522652
130.510422 13.774972 -0.000014 0.549889
130.885315 14.994362 -0.000012 0.569665
129.030807 9.294308 5.501354 0.656870
129.030807 9.294309 5.019000 0.654963
129.030807 9.294307 4.543418 0.682841
129.030807 9.294305 4.073469 0.653422
129.030807 9.294302 3.608062 0.425162
129.030807 9.294303 3.146147 0.636027
129.030807 9.294305 2.686705 0.701900
129.030807 9.294304 2.228738 0.695155
129.030807 9.294304 1.771262 0.709804
129.030807 9.294304 1.313295 0.654658
129.030807 9.294302 0.853853 0.694163
129.030807 9.294301 0.391938 0.710445
129.179611 9.766565 -0.000021 0.541970
129.928314 12.142694 -0.000017 0.546822
130.448700 13.794188 -0.000014 0.544533
130.832092 15.010929 -0.000012 0.557046
128.928268 9.294308 5.509159 0.347829
128.928268 9.294310 5.025730 0.639124
128.928268 9.294308 4.549088 0.552346
128.928268 9.294305 4.078091 0.510018
128.928268 9.294305 3.611646 0.365194
128.928268 9.294303 3.148701 0.657160
128.928268 9.294306 2.688235 0.769436
128.928268 9.294303 2.229248 0.776471
128.928268 9.294301 1.770752 0.776471
128.928268 9.294305 1.311764 0.776471
128.928268 9.294302 0.851298 0.729152
128.928268 9.294302 0.388354 0.776471
129.089935 9.795165 -0.000021 0.559579
129.855209 12.166011 -0.000017 0.550347
130.387100 13.813829 -0.000014 0.538720
130.778976 15.027867 -0.000012 0.551324
128.825256 9.294307 5.517171 0.322469
128.825256 9.294308 5.032638 0.435920
128.825256 9.294305 4.554907 0.370703
128.825256 9.294305 4.082836 0.355795
128.825256 9.294304 3.615325 0.625254
128.825256 9.294304 3.151324 0.664271
128.825256 9.294305 2.689806 0.678431
128.825256 9.294303 2.229771 0.741176
128.825256 9.294303 1.770229 0.690196
128.825256 9.294305 1.310193 0.695781
128.825256 9.294304 0.848676 0.654902
128.825256 9.294304 0.384674 0.603922
129.000458 9.824395 -0.000021 0.529931
129.782272 12.189837 -0.000017 0.522377
130.325653 13.833904 -0.000014 0.509987
130.725998 15.045176 -0.000012 0.557961
128.721771 9.294306 5.525392 0.629129
128.721771 9.294306 5.039725 0.469352
128.721771 9.294308 4.560879 0.386267
128.721771 9.294303 4.087704 0.565469
128.721771 9.294305 3.619101 0.674296
128.721771 9.294305 3.154015 0.686366
128.721771 9.294306 2.691418 0.595865
128.721771 9.294306 2.230308 0.651469
128.721771 9.294305 1.769692 0.648981
128.721771 9.294305 1.308581 0.655177
128.721771 9.294304 0.845985 0.640162
128.721771 9.294304 0.380899 0.618387
128.911194 9.854245 -0.000021 0.535622
129.709488 12.214171 -0.000017 0.535348
130.264343 13.854405 -0.000014 0.548516
130.673126 15.062853 -0.000012 0.541283
128.617798 9.294306 5.533823 0.604044
128.617798 9.294310 5.046994 0.663340
128.617798 9.294310 4.567003 0.661234
128.617798 9.294304 4.092697 0.608454
128.617798 9.294305 3.622973 0.678401
128.617798 9.294304 3.156775 0.709804
128.617798 9.294304 2.693073 0.639887
128.617798 9.294306 2.230859 0.673228
128.617798 9.294305 1.769141 0.655543
128.617798 9.294303 1.306927 0.648646
128.617798 9.294303 0.843225 0.678431
128.617798 9.294303 0.377027 0.664790
128.822128 9.884718 -0.000021 0.544320
129.636887 12.239016 -0.000017 0.542458
130.203171 13.875336 -0.000014 0.545037
130.620392 15.080898 -0.000012 0.567544
128.513321 9.294308 5.542467 0.678431
128.513321 9.294308 5.054449 0.645197
128.513321 9.294310 4.573282 0.659388
128.513321 9.294308 4.097816 0.621027
128.513321 9.294306 3.626944 0.675639
128.513321 9.294307 3.159605 0.741176
128.513321 9.294305 2.694768 0.664134
128.513321 9.294306 2.231424 0.732601
128.513321 9.294305 1.768576 0.714214
128.513321 9.294305 1.305232 0.644373
128.513321 9.294305 0.840395 0.693828
128.513321 9.294304 0.373056 0.706859
128.733276 9.915812 -0.000021 0.518334
129.564453 12.264365 -0.000017 0.539773
130.142151 13.896690 -0.000014 0.545678
130.567780 15.099312 -0.000012 0.522271
128.408325 9.294307 5.551329 0.634928
128.408325 9.294310 5.062089 0.669490
128.408325 9.294310 4.579720 0.665660
128.408325 9.294305 4.103063 0.637552
128.408325 9.294305 3.631013 0.707469
128.408325 9.294304 3.162505 0.741176
128.408325 9.294305 2.696506 0.677073
128.408325 9.294304 2.232003 0.698039
128.408325 9.294304 1.767997 0.691203
128.408325 9.294305 1.303494 0.713848
128.408325 9.294304 0.837494 0.697200
128.408325 9.294304 0.368987 0.705760
128.644653 9.947525 -0.000021 0.538750
129.492203 12.290220 -0.000017 0.516381
130.081284 13.918472 -0.000014 0.553994
130.515289 15.118093 -0.000012 0.543542
128.302811 9.294310 5.560407 0.602090
128.302811 9.294307 5.069919 0.460655
128.302811 9.294309 4.586315 0.655863
128.302811 9.294307 4.108439 0.543938
128.302811 9.294306 3.635183 0.678431
128.302811 9.294305 3.165477 0.741176
128.302811 9.294306 2.698286 0.698039
128.302811 9.294307 2.232596 0.699779
128.302811 9.294306 1.767404 0.698039
128.302811 9.294305 1.301713 0.717433
128.302811 9.294305 0.834522 0.690196
128.302811 9.294305 0.364817 0.741176
128.556259 9.979859 -0.000021 0.538796
129.420135 12.316580 -0.000016 0.546105
130.020569 13.940679 -0.000014 0.552911
130.462936 15.137239 -0.000012 0.491508
128.196732 9.294307 5.569709 0.590829
128.196732 9.294309 5.077937 0.668315
128.196732 9.294308 4.593071 0.682933
128.196732 9.294309 4.113947 0.654185
128.196732 9.294305 3.639455 0.679896
128.196732 9.294306 3.168522 0.709804
128.196732 9.294304 2.700110 0.756619
128.196732 9.294304 2.233203 0.773434
128.196732 9.294304 1.766796 0.744137
128.196732 9.294304 1.299889 0.764706
128.196732 9.294306 0.831478 0.717418
128.196732 9.294304 0.360546 0.745312
128.468079 10.012808 -0.000021 0.509392
129.348251 12.343438 -0.000017 0.555184
129.960007 13.963305 -0.000014 0.542657
130.410721 15.156750 -0.000012 0.520699
128.090103 9.294307 5.579232 0.378241
128.090103 9.294308 5.086149 0.677668
128.090103 9.294311 4.599988 0.686183
128.090103 9.294307 4.119587 0.631830
128.090103 9.294305 3.643828 0.647730
128.090103 9.294305 3.171639 0.684321
128.090103 9.294307 2.701978 0.717891
128.090103 9.294305 2.233826 0.596872
128.090103 9.294305 1.766174 0.482353
128.090103 9.294307 1.298022 0.743954
128.090103 9.294303 0.828361 0.611765
128.090103 9.294304 0.356172 0.730755
128.380142 10.046372 -0.000021 0.525597
129.276566 12.370802 -0.000016 0.558206
129.899612 13.986359 -0.000014 0.566690
130.358643 15.176626 -0.000012 0.550195
127.982895 9.294306 5.588983 0.501839
127.982895 9.294312 5.094556 0.644709
127.982895 9.294311 4.607071 0.624018
127.982895 9.294305 4.125362 0.665675
127.982895 9.294306 3.648306 0.659785
127.982887 9.294304 3.174831 0.714687
127.982895 9.294306 2.703891 0.744015
127.982895 9.294308 2.234463 0.721569
127.982895 9.294308 1.765537 0.698039
127.982895 9.294304 1.296109 0.666667
127.982887 9.294303 0.825168 0.718715
127.982887 9.294303 0.351693 0.728618
128.292435 10.080547 -0.000021 0.527367
129.205063 12.398662 -0.000017 0.570047
129.839371 14.009831 -0.000014 0.525216
130.306702 15.196865 -0.000012 0.543145
127.875092 9.294307 5.598962 0.639292
127.875092 9.294311 5.103160 0.493797
127.875092 9.294308 4.614321 0.670924
127.875092 9.294306 4.131271 0.628550
127.875092 9.294305 3.652890 0.626459
127.875092 9.294306 3.178097 0.690593
127.875092 9.294306 2.705848 0.697795
127.875092 9.294306 2.235114 0.565957
127.875092 9.294306 1.764885 0.647059
127.875092 9.294306 1.294152 0.659266
127.875092 9.294307 0.821902 0.663523
127.875092 9.294304 0.347110 0.628702
128.204971 10.115335 -0.000021 0.519753
129.133759 12.427020 -0.000017 0.541161
129.779312 14.033724 -0.000014 0.496925
130.254913 15.217466 -0.000012 0.541360
127.766685 9.294309 5.609173 0.616815
127.766685 9.294310 5.111966 0.561044
127.766685 9.294309 4.621738 0.436759
127.766685 9.294309 4.137318 0.475853
127.766685 9.294305 3.657580 0.596353
127.766685 9.294306 3.181440 0.709804
127.766685 9.294305 2.707850 0.790570
127.766685 9.294308 2.235782 0.717708
127.766685 9.294308 1.764218 0.741176
127.766685 9.294304 1.292149 0.654139
127.766685 9.294305 0.818559 0.715938
127.766685 9.294304 0.342420 0.776471
128.117752 10.150736 -0.000020 0.538827
129.062653 12.455877 -0.000017 0.548211
129.719406 14.058036 -0.000014 0.515572
130.203262 15.238428 -0.000012 0.554223
127.657661 9.294306 5.619620 0.641962
127.657661 9.294309 5.120974 0.397040
127.657661 9.294308 4.629327 0.468452
127.657661 9.294307 4.143504 0.409842
127.657661 9.294307 3.662377 0.383993
127.657661 9.294306 3.184860 0.640238
127.657661 9.294307 2.709899 0.697887
127.657661 9.294308 2.236464 0.737804
127.657661 9.294308 1.763536 0.689281
127.657661 9.294307 1.290101 0.725475
127.657661 9.294307 0.815140 0.649195
127.657661 9.294306 0.337623 0.700023
128.030777 10.186739 -0.000021 0.536461
128.991760 12.485229 -0.000017 0.527901
129.659668 14.082763 -0.000014 0.488396
130.151764 15.259750 -0.000012 0.521782
127.547997 9.294310 5.630304 0.530938
127.547997 9.294311 5.130185 0.670344
127.547997 9.294311 4.637088 0.471458
127.547997 9.294309 4.149831 0.395560
127.547997 9.294307 3.667284 0.389425
127.547989 9.294307 3.188357 0.691600
127.547997 9.294310 2.711995 0.678431
127.547997 9.294309 2.237162 0.709682
127.547997 9.294309 1.762838 0.706691
127.547997 9.294310 1.288005 0.698039
127.547989 9.294306 0.811642 0.647089
127.547989 9.294305 0.332716 0.709850
127.944061 10.223349 -0.000021 0.545556
128.921066 12.515076 -0.000017 0.550210
129.600113 14.107910 -0.000014 0.537469
130.100403 15.281431 -0.000012 0.526528
127.437675 9.294308 5.641231 0.545419
127.437675 9.294310 5.139606 0.666880
127.437675 9.294312 4.645025 0.659312
127.437675 9.294307 4.156302 0.658640
127.437675 9.294306 3.672302 0.475578
127.437668 9.294304 3.191934 0.689998
127.437675 9.294306 2.714138 0.687999
127.437675 9.294306 2.237876 0.660212
127.437675 9.294306 1.762124 0.644312
127.437675 9.294306 1.285862 0.678431
127.437668 9.294303 0.808066 0.624857
127.437668 9.294304 0.327698 0.659251
127.857605 10.260565 -0.000021 0.531838
128.850586 12.545417 -0.000017 0.543282
129.540726 14.133469 -0.000014 0.551293
130.049210 15.303471 -0.000012 0.539666
127.326675 9.294307 5.652401 0.516152
127.326683 9.294310 5.149237 0.666529
127.326675 9.294309 4.653139 0.664134
127.326675 9.294307 4.162917 0.668666
127.326675 9.294307 3.677432 0.524361
127.326675 9.294307 3.195590 0.663035
127.326675 9.294307 2.716328 0.632105
127.326675 9.294308 2.238605 0.628855
127.326675 9.294308 1.761394 0.661646
127.326675 9.294307 1.283671 0.665202
127.326675 9.294307 0.804409 0.567163
127.326675 9.294307 0.322568 0.666804
127.771400 10.298386 -0.000021 0.548684
128.780304 12.576248 -0.000017 0.551385
129.481537 14.159442 -0.000014 0.518593
129.998154 15.325867 -0.000012 0.533059
127.214996 9.294309 5.663818 0.499809
127.214996 9.294311 5.159082 0.604501
127.215004 9.294312 4.661433 0.688960
127.214996 9.294311 4.169679 0.676402
127.214996 9.294308 3.682676 0.499443
127.214996 9.294310 3.199328 0.606867
127.214996 9.294310 2.718568 0.596689
127.214996 9.294310 2.239352 0.601678
127.214996 9.294310 1.760649 0.706127
127.214996 9.294310 1.281432 0.753994
127.214996 9.294309 0.800672 0.721202
127.214996 9.294305 0.317323 0.633677
127.685471 10.336807 -0.000020 0.533074
128.710251 12.607568 -0.000017 0.552041
129.422516 14.185831 -0.000014 0.547677
129.947281 15.348619 -0.000012 0.552331
127.102615 9.294310 5.675488 0.670436
127.102615 9.294311 5.169145 0.493248
127.102615 9.294312 4.669910 0.666896
127.102615 9.294311 4.176589 0.661616
127.102608 9.294306 3.688036 0.681895
127.102615 9.294309 3.203148 0.630915
127.102615 9.294309 2.720856 0.567895
127.102615 9.294310 2.240114 0.656870
127.102615 9.294310 1.759886 0.567071
127.102615 9.294309 1.279144 0.656870
127.102615 9.294308 0.796852 0.653101
127.102608 9.294305 0.311964 0.603952
127.599808 10.375825 -0.000020 0.550210
128.640427 12.639377 -0.000017 0.518639
129.363678 14.212630 -0.000014 0.567620
129.896545 15.371725 -0.000012 0.532738
126.989502 9.294308 5.687413 0.664729
126.989502 9.294311 5.179427 0.563561
126.989502 9.294312 4.678572 0.647654
126.989502 9.294308 4.183651 0.647059
126.989494 9.294307 3.693512 0.687831
126.989502 9.294307 3.207051 0.732723
126.989494 9.294306 2.723196 0.682307
126.989502 9.294309 2.240893 0.741176
126.989502 9.294309 1.759107 0.776471
126.989502 9.294307 1.276805 0.721492
126.989502 9.294308 0.792948 0.706264
126.989494 9.294306 0.306487 0.709392
127.514420 10.415444 -0.000020 0.535637
128.570816 12.671677 -0.000017 0.524269
129.305038 14.239838 -0.000014 0.527886
129.845978 15.395186 -0.000012 0.568017
126.875648 9.294309 5.699596 0.616953
126.875648 9.294311 5.189931 0.671183
126.875648 9.294312 4.687422 0.618097
126.875648 9.294309 4.190866 0.624079
126.875648 9.294308 3.699108 0.679530
126.875648 9.294308 3.211040 0.600809
126.875648 9.294308 2.725584 0.695064
126.875648 9.294310 2.241689 0.716426
126.875648 9.294310 1.758311 0.725246
126.875648 9.294309 1.274415 0.705623
126.875648 9.294309 0.788960 0.683436
126.875648 9.294308 0.300892 0.706996
127.429314 10.455651 -0.000021 0.537758
128.501434 12.704456 -0.000017 0.523339
129.246582 14.267456 -0.000014 0.528969
129.795578 15.418997 -0.000012 0.544213
126.761032 9.294309 5.712041 0.582116
126.761032 9.294312 5.200661 0.425650
126.761032 9.294311 4.696462 0.380652
126.761032 9.294311 4.198235 0.639628
126.761032 9.294307 3.704823 0.553735
126.761032 9.294308 3.215113 0.759915
126.761032 9.294309 2.728025 0.776471
126.761032 9.294309 2.242502 0.733593
126.761032 9.294309 1.757498 0.770169
126.761032 9.294309 1.271974 0.744015
126.761032 9.294309 0.784887 0.771099
126.761032 9.294305 0.295176 0.736934
127.344490 10.496457 -0.000020 0.558419
128.432281 12.737721 -0.000017 0.526177
129.188324 14.295480 -0.000014 0.561425
129.745346 15.443160 -0.000012 0.551171
126.645645 9.294309 5.724752 0.511635
126.645645 9.294312 5.211622 0.669749
126.645645 9.294311 4.705696 0.475776
126.645645 9.294310 4.205763 0.349584
126.645645 9.294309 3.710661 0.679530
126.645638 9.294307 3.219275 0.787869
126.645638 9.294309 2.730518 0.776471
126.645645 9.294312 2.243332 0.776471
126.645645 9.294312 1.756668 0.779492
126.645645 9.294310 1.269481 0.776471
126.645638 9.294308 0.780725 0.741176
126.645638 9.294305 0.289339 0.763424
127.259949 10.537852 -0.000021 0.534356
128.363358 12.771465 -0.000017 0.536492
129.130264 14.323908 -0.000014 0.534585
129.695282 15.467674 -0.000012 0.553033
126.529449 9.294312 5.737734 0.650706
126.529449 9.294310 5.222815 0.548699
126.529449 9.294312 4.715126 0.677455
126.529449 9.294310 4.213450 0.394507
126.529449 9.294306 3.716624 0.662501
126.529449 9.294306 3.223524 0.671809
126.529449 9.294306 2.733064 0.723690
126.529449 9.294308 2.244181 0.745815
126.529449 9.294308 1.755820 0.680186
126.529449 9.294306 1.266935 0.702266
126.529449 9.294306 0.776476 0.704982
126.529449 9.294305 0.283376 0.669383
127.175705 10.579835 -0.000021 0.529976
128.294678 12.805696 -0.000016 0.533288
129.072403 14.352744 -0.000014 0.536248
129.645401 15.492538 -0.000012 0.523445
126.412445 9.294310 5.750989 0.609522
126.412445 9.294313 5.234244 0.583841
126.412445 9.294312 4.724755 0.670802
126.412445 9.294310 4.221300 0.395911
126.412437 9.294309 3.722711 0.584176
126.412445 9.294310 3.227863 0.687221
126.412437 9.294310 2.735664 0.600610
126.412437 9.294309 2.245046 0.624903
126.412437 9.294309 1.754954 0.636286
126.412437 9.294310 1.264336 0.670283
126.412445 9.294310 0.772137 0.646326
126.412437 9.294307 0.277289 0.607111
127.091751 10.622409 -0.000020 0.526253
128.226242 12.840402 -0.000016 0.531411
129.014740 14.381983 -0.000014 0.532845
129.595673 15.517748 -0.000012 0.523812
126.294594 9.294311 5.764524 0.652857
126.294594 9.294313 5.245914 0.601022
126.294594 9.294313 4.734586 0.662776
126.294594 9.294312 4.229314 0.627054
126.294594 9.294309 3.728927 0.557977
126.294594 9.294310 3.232293 0.680171
126.294594 9.294312 2.738318 0.649561
126.294594 9.294313 2.245931 0.660624
126.294594 9.294313 1.754070 0.712489
126.294594 9.294312 1.261682 0.615625
126.294594 9.294311 0.767707 0.702220
126.294586 9.294306 0.271073 0.660716
127.008102 10.665569 -0.000020 0.533471
128.158035 12.875585 -0.000016 0.550652
128.957291 14.411624 -0.000014 0.542535
129.546143 15.543306 -0.000012 0.547860
126.175888 9.294311 5.778340 0.596185
126.175888 9.294312 5.257827 0.664424
126.175888 9.294315 4.744622 0.659785
126.175888 9.294312 4.237496 0.658824
126.175888 9.294310 3.735272 0.581216
126.175888 9.294309 3.236816 0.661204
126.175888 9.294311 2.741028 0.649485
126.175888 9.294310 2.246833 0.695521
126.175888 9.294310 1.753167 0.703548
126.175888 9.294311 1.258971 0.670726
126.175888 9.294310 0.763184 0.693874
126.175888 9.294308 0.264727 0.700252
126.924751 10.709308 -0.000020 0.512947
128.090088 12.911240 -0.000017 0.550286
128.900055 14.441663 -0.000014 0.513420
129.496780 15.569207 -0.000012 0.547799
126.056297 9.294310 5.792445 0.540185
126.056297 9.294312 5.269989 0.643061
126.056297 9.294314 4.754869 0.633707
126.056297 9.294310 4.245850 0.678431
126.056297 9.294310 3.741750 0.445441
126.056297 9.294308 3.241433 0.742016
126.056297 9.294309 2.743794 0.709636
126.056297 9.294309 2.247755 0.701305
126.056297 9.294309 1.752246 0.714580
126.056297 9.294310 1.256205 0.741176
126.056297 9.294308 0.758567 0.734798
126.056297 9.294309 0.258249 0.741176
126.841705 10.753628 -0.000020 0.541314
128.022400 12.947371 -0.000016 0.532052
128.843018 14.472103 -0.000014 0.537285
129.447601 15.595455 -0.000012 0.549599
125.935806 9.294311 5.806842 0.673411
125.935806 9.294312 5.282402 0.662470
125.935806 9.294312 4.765326 0.406561
125.935806 9.294311 4.254375 0.694240
125.935806 9.294310 3.748362 0.525414
125.935806 9.294310 3.246146 0.647028
125.935806 9.294309 2.746618 0.718288
125.935806 9.294310 2.248695 0.722026
125.935806 9.294310 1.751305 0.749172
125.935806 9.294310 1.253382 0.749096
125.935806 9.294311 0.753854 0.647059
125.935806 9.294309 0.251638 0.699748
126.758980 10.798527 -0.000020 0.553811
127.954948 12.983975 -0.000016 0.534508
128.786194 14.502940 -0.000014 0.558083
129.398621 15.622044 -0.000012 0.523842
125.814392 9.294312 5.821535 0.617700
125.814392 9.294313 5.295071 0.551843
125.814392 9.294313 4.775999 0.674052
125.814392 9.294311 4.263077 0.668452
125.814392 9.294311 3.755110 0.667964
125.814392 9.294310 3.250955 0.718746
125.814392 9.294312 2.749500 0.694438
125.814392 9.294313 2.249655 0.738933
125.814392 9.294313 1.750345 0.716518
125.814392 9.294312 1.250500 0.777813
125.814392 9.294311 0.749044 0.716518
125.814392 9.294310 0.244890 0.801114
126.676559 10.844003 -0.000020 0.530602
127.887764 13.021049 -0.000016 0.500786
128.729584 14.534172 -0.000014 0.509438
129.349808 15.648973 -0.000012 0.530434
125.692032 9.294311 5.836529 0.542184
125.692032 9.294312 5.308000 0.494972
125.692032 9.294314 4.786891 0.688853
125.692032 9.294311 4.271955 0.539651
125.692032 9.294311 3.761996 0.677317
125.692032 9.294311 3.255864 0.716320
125.692032 9.294312 2.752441 0.666957
125.692032 9.294312 2.250634 0.673396
125.692032 9.294312 1.749366 0.630915
125.692032 9.294312 1.247559 0.647059
125.692032 9.294311 0.744136 0.637217
125.692032 9.294310 0.238003 0.754253
126.594467 10.890050 -0.000020 0.544976
127.820839 13.058590 -0.000016 0.534463
128.673203 14.565802 -0.000014 0.544839
129.301193 15.676243 -0.000012 0.543633
125.568695 9.294312 5.851830 0.535943
125.568703 9.294312 5.321193 0.615961
125.568703 9.294312 4.798007 0.663539
125.568703 9.294313 4.281017 0.480903
125.568695 9.294312 3.769024 0.683940
125.568703 9.294312 3.260872 0.701717
125.568703 9.294313 2.755441 0.758434
125.568703 9.294313 2.251634 0.629877
125.568703 9.294313 1.748366 0.668833
125.568703 9.294313 1.244559 0.678431
125.568703 9.294312 0.739127 0.591516
125.568695 9.294311 0.230976 0.672389
126.512695 10.936674 -0.000020 0.550652
127.754173 13.096598 -0.000016 0.546288
128.617050 14.597820 -0.000014 0.545708
129.252762 15.703851 -0.000012 0.527398
125.444374 9.294311 5.867444 0.576043
125.444374 9.294310 5.334656 0.677913
125.444374 9.294311 4.809349 0.647532
125.444374 9.294311 4.290263 0.635691
125.444374 9.294310 3.776195 0.667872
125.444374 9.294307 3.265984 0.709804
125.444374 9.294310 2.758504 0.697551
125.444374 9.294310 2.252654 0.639796
125.444374 9.294310 1.747346 0.705486
125.444374 9.294310 1.241496 0.679377
125.444374 9.294308 0.734016 0.741176
125.444374 9.294310 0.223805 0.762356
126.431252 10.983867 -0.000020 0.517128
127.687775 13.135071 -0.000016 0.519417
128.561111 14.630231 -0.000014 0.545876
129.204544 15.731797 -0.000012 0.544121
125.319031 9.294312 5.883373 0.679606
125.319031 9.294309 5.348392 0.663722
125.319031 9.294309 4.820921 0.668986
125.319031 9.294310 4.299697 0.623194
125.319031 9.294308 3.783511 0.670359
125.319031 9.294309 3.271198 0.637613
125.319031 9.294309 2.761628 0.742458
125.319031 9.294309 2.253695 0.693416
125.319031 9.294309 1.746305 0.687022
125.319031 9.294309 1.238372 0.713664
125.319031 9.294310 0.728802 0.653071
125.319031 9.294309 0.216489 0.732967
126.350136 11.031627 -0.000020 0.539590
127.621651 13.174006 -0.000016 0.557427
128.505402 14.663034 -0.000014 0.554681
129.156509 15.760080 -0.000012 0.537423
125.192642 9.294309 5.899628 0.644694
125.192642 9.294309 5.362406 0.652827
125.192642 9.294310 4.832726 0.344335
125.192642 9.294308 4.309322 0.678431
125.192642 9.294308 3.790976 0.641398
125.192642 9.294308 3.276518 0.709804
125.192642 9.294310 2.764816 0.703182
125.192642 9.294310 2.254756 0.670375
125.192642 9.294311 1.745243 0.691585
125.192642 9.294310 1.235184 0.680125
125.192642 9.294308 0.723481 0.666667
125.192642 9.294309 0.209024 0.724178
126.269356 11.079950 -0.000020 0.526802
127.555801 13.213401 -0.000016 0.525078
128.449921 14.696222 -0.000014 0.540261
129.108673 15.788698 -0.000012 0.568704
125.065186 9.294312 5.916207 0.577554
125.065186 9.294307 5.376703 0.446281
125.065186 9.294308 4.844772 0.620096
125.065186 9.294308 4.319141 0.704128
125.065186 9.294307 3.798591 0.612299
125.065186 9.294306 3.281946 0.741176
125.065186 9.294309 2.768068 0.735439
125.065186 9.294309 2.255840 0.700999
125.065186 9.294309 1.744160 0.741176
125.065186 9.294309 1.231932 0.690425
125.065186 9.294307 0.718053 0.700084
125.065186 9.294309 0.201409 0.741176
126.188919 11.128839 -0.000020 0.546075
127.490227 13.253254 -0.000016 0.513512
128.394669 14.729799 -0.000014 0.507729
129.061035 15.817649 -0.000012 0.480446
124.936638 9.294310 5.933124 0.436118
124.936638 9.294306 5.391289 0.692805
124.936638 9.294307 4.857060 0.660975
124.936638 9.294303 4.329160 0.683330
124.936638 9.294306 3.806360 0.428183
124.936638 9.294305 3.287483 0.690196
124.936638 9.294305 2.771385 0.692287
124.936638 9.294308 2.256945 0.690196
124.936638 9.294308 1.743055 0.678431
124.936638 9.294305 1.228614 0.666667
124.936638 9.294306 0.712516 0.690196
124.936638 9.294308 0.193640 0.733333
126.108826 11.178283 -0.000020 0.534447
127.424927 13.293564 -0.000016 0.542046
128.339661 14.763760 -0.000014 0.544945
129.013596 15.846931 -0.000012 0.528511
124.806969 9.294307 5.950380 0.709804
124.806961 9.294305 5.406167 0.690501
124.806961 9.294305 4.869595 0.626062
124.806961 9.294304 4.339377 0.519402
124.806961 9.294305 3.814285 0.464851
124.806961 9.294305 3.293132 0.687083
124.806969 9.294307 2.774769 0.742840
124.806969 9.294307 2.258072 0.721752
124.806969 9.294307 1.741928 0.728389
124.806969 9.294307 1.225230 0.674754
124.806969 9.294306 0.706868 0.714824
124.806969 9.294306 0.185715 0.741985
126.029076 11.228291 -0.000020 0.523064
127.359917 13.334330 -0.000016 0.548577
128.284897 14.798103 -0.000014 0.535744
128.966370 15.876544 -0.000012 0.591302
124.676147 9.294308 5.967981 0.689509
124.676140 9.294303 5.421344 0.622965
124.676147 9.294307 4.882380 0.617044
124.676147 9.294306 4.349801 0.469535
124.676140 9.294304 3.822369 0.617350
124.676147 9.294306 3.298894 0.662760
124.676140 9.294305 2.778222 0.682338
124.676147 9.294306 2.259222 0.728786
124.676147 9.294306 1.740778 0.715557
124.676147 9.294306 1.221778 0.699382
124.676147 9.294307 0.701106 0.671443
124.676147 9.294306 0.177631 0.680171
125.949684 11.278854 -0.000019 0.558221
127.295189 13.375551 -0.000016 0.520912
128.230362 14.832830 -0.000014 0.534905
128.919357 15.906486 -0.000012 0.528893
124.544151 9.294310 5.985935 0.382376
124.544144 9.294305 5.436825 0.583291
124.544144 9.294306 4.895423 0.435935
124.544144 9.294304 4.360434 0.570565
124.544144 9.294307 3.830614 0.649470
124.544144 9.294304 3.304771 0.714214
124.544144 9.294304 2.781743 0.710811
124.544144 9.294308 2.260395 0.739590
124.544144 9.294308 1.739605 0.691615
124.544144 9.294305 1.218257 0.645975
124.544144 9.294306 0.695229 0.711543
124.544144 9.294308 0.169386 0.723171
125.870644 11.329969 -0.000019 0.502861
127.230751 13.417219 -0.000016 0.548379
128.176071 14.867935 -0.000014 0.531197
128.872543 15.936754 -0.000012 0.498207
124.410942 9.294306 6.004250 0.596750
124.410934 9.294301 5.452617 0.436377
124.410942 9.294304 4.908727 0.608026
124.410942 9.294304 4.371279 0.620081
124.410942 9.294302 3.839025 0.638041
124.410942 9.294305 3.310766 0.725917
124.410942 9.294306 2.785335 0.731945
124.410942 9.294305 2.261591 0.776471
124.410942 9.294305 1.738409 0.738384
124.410942 9.294308 1.214665 0.679774
124.410942 9.294307 0.689234 0.715694
124.410942 9.294306 0.160975 0.729274
125.791962 11.381635 -0.000019 0.536385
127.166611 13.459339 -0.000016 0.523888
128.122040 14.903419 -0.000014 0.531350
128.825958 15.967349 -0.000012 0.539391
124.276497 9.294306 6.022930 0.684382
124.276497 9.294304 5.468722 0.626337
124.276497 9.294300 4.922296 0.678431
124.276497 9.294303 4.382340 0.647059
124.276497 9.294303 3.847604 0.613657
124.276505 9.294306 3.316880 0.706859
124.276497 9.294304 2.788999 0.738781
124.276497 9.294305 2.262812 0.765438
124.276497 9.294305 1.737188 0.685206
124.276497 9.294304 1.211001 0.685145
124.276505 9.294307 0.683119 0.730999
124.276505 9.294306 0.152396 0.731991
125.713638 11.433845 -0.000019 0.526635
127.102760 13.501904 -0.000016 0.541787
128.068253 14.939279 -0.000014 0.540581
128.779572 15.998268 -0.000012 0.547524
124.140793 9.294305 6.041982 0.643381
124.140793 9.294301 5.485150 0.700069
124.140793 9.294302 4.936135 0.622736
124.140793 9.294300 4.393624 0.678431
124.140793 9.294301 3.856355 0.651896
124.140793 9.294303 3.323117 0.737209
124.140793 9.294301 2.792736 0.733181
124.140785 9.294299 2.264056 0.705272
124.140785 9.294299 1.735944 0.697673
124.140793 9.294301 1.207264 0.725368
124.140793 9.294305 0.676882 0.732448
124.140793 9.294303 0.143645 0.758679
125.635681 11.486606 -0.000019 0.526436
127.039207 13.544914 -0.000016 0.554101
128.014709 14.975514 -0.000014 0.540581
128.733414 16.029514 -0.000012 0.510689
124.003784 9.294303 6.061416 0.512078
124.003784 9.294299 5.501907 0.638422
124.003784 9.294301 4.950253 0.668498
124.003784 9.294300 4.405132 0.592767
124.003784 9.294299 3.865280 0.634867
124.003784 9.294302 3.329479 0.695247
124.003784 9.294302 2.796546 0.760983
124.003784 9.294303 2.265326 0.738949
124.003784 9.294303 1.734674 0.752621
124.003784 9.294302 1.203453 0.747295
124.003784 9.294304 0.670521 0.704082
124.003784 9.294303 0.134720 0.750713
125.558098 11.539904 -0.000019 0.534707
126.975960 13.588366 -0.000016 0.519875
127.961426 15.012121 -0.000014 0.566125
128.687469 16.061077 -0.000012 0.527749
123.865448 9.294302 6.081237 0.709804
123.865448 9.294299 5.518997 0.599603
123.865448 9.294300 4.964651 0.479988
123.865448 9.294299 4.416870 0.562097
123.865448 9.294298 3.874383 0.490089
