# This PCD file was generated using the MATLABÂ® pcwrite function
# from Computer Vision ToolboxÂ®.
# .PCD v.7 - Point Cloud Data file format
VERSION .7
FIELDS x y z intensity
SIZE 4 4 4 4
TYPE F F F F
COUNT 1 1 1 1
WIDTH 1248
HEIGHT 1
VIEWPOINT 0 0 0 1 0 0 0
POINTS 1248
DATA ascii
58.431717 78.356003 0.000000 0.520256
61.777107 81.846886 5.210992 0.534585
61.777058 81.846825 4.768622 0.563943
61.777088 81.846863 4.332490 0.569116
61.777081 81.846855 3.901513 0.524453
61.777077 81.846855 3.474702 0.566186
61.777081 81.846855 3.051094 0.598215
61.777077 81.846848 2.629755 0.617151
61.777077 81.846855 2.209769 0.629313
61.777077 81.846855 1.790232 0.521767
61.777077 81.846848 1.370245 0.518791
61.777081 81.846855 0.948905 0.547189
61.777077 81.846848 0.525298 0.519539
61.777081 81.846855 0.098487 0.618311
60.528057 80.513062 0.000001 0.573663
59.344517 79.249199 0.000000 0.543359
58.472538 78.318047 0.000000 0.564675
61.777008 81.716820 5.187272 0.560845
61.777084 81.716896 4.748210 0.560739
61.777084 81.716896 4.315286 0.516869
61.777081 81.716896 3.887487 0.577493
61.777081 81.716896 3.463825 0.541039
61.777077 81.716896 3.043342 0.545159
61.777077 81.716896 2.625110 0.614557
61.777077 81.716896 2.208221 0.583947
61.777077 81.716896 1.791779 0.527794
61.777077 81.716896 1.374890 0.518135
61.777077 81.716896 0.956658 0.506569
61.777081 81.716896 0.536175 0.525658
61.777081 81.716896 0.112512 0.502495
60.583889 80.460419 0.000000 0.517098
59.391552 79.204849 0.000000 0.532021
58.513092 78.279800 0.000000 0.530144
61.777126 81.588875 5.164131 0.555123
61.777103 81.588852 4.728227 0.587640
61.777077 81.588829 4.298443 0.562158
61.777081 81.588829 3.873758 0.541100
61.777081 81.588829 3.453178 0.530266
61.777081 81.588829 3.035753 0.610605
61.777077 81.588829 2.620563 0.578790
61.777077 81.588829 2.206707 0.570748
61.777077 81.588829 1.793293 0.561181
61.777077 81.588829 1.379437 0.566888
61.777077 81.588829 0.964247 0.533227
61.777081 81.588829 0.546822 0.561456
61.777081 81.588829 0.126242 0.565499
60.639347 80.407387 0.000000 0.521492
59.438274 79.160164 0.000000 0.496574
58.553379 78.241272 0.000000 0.548516
61.777092 81.462624 5.141422 0.505440
61.777042 81.462570 4.708637 0.579995
61.777077 81.462608 4.281956 0.534997
61.777077 81.462608 3.860317 0.620539
61.777077 81.462608 3.442753 0.618997
61.777077 81.462608 3.028323 0.627024
61.777077 81.462608 2.616112 0.547982
61.777077 81.462608 2.205224 0.576288
61.777077 81.462608 1.794776 0.554711
61.777077 81.462608 1.383888 0.536400
61.777077 81.462608 0.971677 0.520012
61.777077 81.462608 0.557247 0.538216
61.777077 81.462608 0.139683 0.523461
60.694435 80.353966 0.000000 0.552544
59.484684 79.115166 0.000000 0.530068
58.593395 78.202469 0.000000 0.429679
61.826382 81.387962 5.136745 0.540673
61.826382 81.387962 4.704620 0.579171
61.826382 81.387962 4.278563 0.536171
61.777081 81.338181 3.847158 0.827451
61.777081 81.338181 3.432548 0.517555
61.777081 81.338181 3.021048 0.519905
61.777081 81.338181 2.611753 0.559930
61.777081 81.338181 2.203772 0.539498
61.777081 81.338181 1.796228 0.583627
61.777077 81.338181 1.388247 0.610864
61.777081 81.338181 0.978951 0.634836
61.777081 81.338181 0.567453 0.601694
61.777081 81.338181 0.152843 0.549325
60.749146 80.300156 0.000001 0.513497
59.530777 79.069832 0.000000 0.543343
58.633141 78.163383 -0.000000 0.569512
29.249260 48.823906 10.401182 0.721065
29.337755 48.912029 9.216844 0.117556
29.337765 48.912041 8.079974 0.192157
29.337765 48.912041 6.956573 0.249393
29.192047 48.766930 5.867686 0.733333
35.291782 54.841122 4.050856 0.508583
29.192051 48.766937 3.651651 0.723644
35.940243 55.486870 2.394317 0.493355
35.604095 55.152130 1.597920 0.478187
36.323959 55.868980 0.842808 0.511452
35.731121 55.278622 -0.000017 0.549279
40.696030 60.222736 0.000006 0.342596
43.461071 62.976196 -0.000001 0.336904
45.226349 64.734085 0.000001 0.340948
46.453251 65.955841 -0.000008 0.521248
47.357201 66.856010 -0.000007 0.535744
29.249260 49.152077 10.343384 0.733333
29.337757 49.238983 9.167191 0.116274
35.003319 54.802578 6.593316 0.474998
29.337767 49.238991 6.922472 0.547250
35.630981 55.418953 4.802896 0.485451
35.269451 55.063927 4.039311 0.493950
34.797489 54.600456 3.254334 0.487144
35.758110 55.543793 2.395781 0.489937
35.473881 55.264675 1.597700 0.484245
36.027985 55.808804 0.830390 0.512779
35.611382 55.399704 -0.000018 0.554116
40.610680 60.309029 0.000005 0.339117
43.394882 63.043125 -0.000002 0.333150
45.172394 64.788643 0.000001 0.333196
46.407791 66.001816 -0.000008 0.591241
47.318008 66.895645 -0.000007 0.541756
29.249260 49.475777 10.286774 0.733059
34.709778 54.763649 7.503458 0.511162
34.824883 54.875111 6.607347 0.466133
34.389229 54.453236 5.846001 0.475349
35.496254 55.525253 4.805455 0.493965
35.141426 55.181648 4.040089 0.478370
35.677872 55.701134 3.185617 0.481147
35.554947 55.582092 2.397723 0.504738
35.396999 55.429138 1.598678 0.495750
29.192049 49.420372 0.370841 0.729458
35.492493 55.521614 -0.000018 0.523537
40.525955 60.395935 0.000007 0.339879
43.329163 63.110512 -0.000002 0.341299
45.118820 64.843582 0.000001 0.343542
46.362659 66.048096 -0.000008 0.532952
47.279091 66.935555 -0.000007 0.524453
29.249264 49.795128 10.231326 0.740597
34.533684 54.841461 7.519224 0.499413
34.287689 54.606548 6.711673 0.487068
34.932861 55.222656 5.708763 0.473610
35.284470 55.558418 4.820371 0.515114
35.043884 55.328674 4.037497 0.580392
35.532272 55.795059 3.187574 0.487968
35.513229 55.776871 2.396006 0.522942
35.974556 56.217415 1.614432 0.459342
29.192051 49.740494 0.381742 0.733333
35.374466 55.644360 -0.000018 0.534676
40.441822 60.483410 0.000006 0.337316
43.263920 63.178360 -0.000002 0.337087
45.065632 64.898895 0.000001 0.325154
46.317848 66.094696 -0.000008 0.497642
47.240456 66.975731 -0.000007 0.555428
34.357430 54.920540 8.419451 0.451759
34.462883 55.019844 7.503809 0.469230
34.609936 55.158318 6.600043 0.474510
34.915291 55.445869 5.687871 0.484550
34.939484 55.468647 4.856276 0.495521
35.462303 55.960979 3.976927 0.491783
34.044235 54.625607 3.280152 0.459998
35.305954 55.813751 2.398053 0.476677
35.480934 55.978527 1.605881 0.506966
29.192047 50.056374 0.392420 0.733974
35.257290 55.767921 -0.000018 0.532769
40.358295 60.571468 0.000004 0.335973
43.199150 63.246658 -0.000003 0.332113
45.012829 64.954575 0.000001 0.339055
46.273396 66.141632 0.000002 0.339422
47.202099 67.016182 -0.000007 0.580453
34.247719 55.062813 8.415184 0.494789
34.458847 55.258873 7.469184 0.506722
35.157749 55.907871 6.434083 0.487160
34.558086 55.351028 5.736182 0.514031
34.104332 54.929672 4.968800 0.450629
35.380760 56.114960 3.973186 0.452338
35.527752 56.251457 3.172364 0.513237
34.792023 55.568253 2.406939 0.483192
35.418800 56.150284 1.607058 0.503883
29.192051 50.368126 0.402881 0.752941
35.140980 55.892300 -0.000018 0.537865
40.275394 60.660114 0.000004 0.340871
43.134857 63.315411 -0.000002 0.341848
44.960415 65.010620 0.000001 0.335622
46.229240 66.188858 0.000002 0.331579
47.164024 67.056892 -0.000007 0.532509
29.192043 50.675861 10.091105 0.721614
33.983006 55.062859 7.573438 0.477104
34.621189 55.647228 6.538007 0.484840
34.984192 55.979626 5.626505 0.503182
34.694439 55.714302 4.857702 0.494896
34.945404 55.944103 4.008926 0.470893
35.362034 56.325607 3.175880 0.472587
34.786869 55.798935 2.404441 0.500862
34.376923 55.423561 1.586462 0.566262
34.386368 55.432213 0.759129 0.556283
35.025539 56.017487 -0.000018 0.528267
40.193123 60.749348 0.000005 0.338918
43.071045 63.384609 -0.000003 0.337560
44.908398 65.067039 0.000001 0.336187
46.185413 66.236382 0.000001 0.329885
47.126236 67.097878 -0.000007 0.547311
34.223251 55.522507 8.341938 0.512917
33.985291 55.307648 7.537505 0.486610
34.540394 55.808861 6.529098 0.487098
34.954842 56.183079 5.609423 0.507744
33.750896 55.096004 4.985866 0.479561
33.287521 54.677612 4.179368 0.512184
34.971050 56.197716 3.194318 0.492607
34.679771 55.934708 2.404244 0.480842
33.339836 54.724846 1.566214 0.512963
29.192049 50.979694 0.423171 0.716609
34.910980 56.143478 -0.000018 0.531167
40.111469 60.839142 0.000004 0.339330
43.007721 63.454250 -0.000003 0.338109
44.856773 65.123810 0.000001 0.344686
46.141926 66.284210 0.000001 0.350698
47.088737 67.139114 -0.000007 0.545693
33.769123 55.354843 8.454670 0.473930
29.337769 51.409454 8.846912 0.136797
33.946640 55.512894 6.645488 0.479728
29.249268 51.330662 6.720079 0.730159
34.102547 55.651703 4.913069 0.492790
34.014015 55.572876 4.086010 0.500664
35.501354 56.897110 3.151984 0.457496
34.889534 56.352383 2.397126 0.469322
33.227257 54.872402 1.566455 0.454292
29.192047 51.279716 0.433011 0.728252
34.797310 56.270264 -0.000017 0.546624
40.030445 60.929512 0.000004 0.331456
42.944878 63.524330 -0.000003 0.339132
44.805546 65.180946 0.000001 0.346716
46.133339 66.363129 0.009999 1.000000
47.051525 67.180618 -0.000007 0.537102
29.192043 51.576027 9.940574 0.699138
29.337772 51.703964 8.804779 0.120943
33.690323 55.525047 6.678964 0.497719
33.419800 55.287560 5.867826 0.496117
34.142658 55.922150 4.889004 0.483787
33.756195 55.582878 4.101305 0.510262
33.732742 55.562286 3.260513 0.492378
35.414864 57.039017 2.383242 0.463783
35.301201 56.939232 1.614282 0.482963
29.192049 51.576031 0.442652 0.722072
34.684509 56.397842 -0.000018 0.554223
39.950054 61.020439 0.000004 0.337911
42.882530 63.594849 -0.000004 0.331533
44.754719 65.238434 0.000001 0.341207
46.090717 66.411301 0.009995 1.000000
47.014603 67.222382 -0.000007 0.526665
29.192043 51.868729 9.892394 0.698039
29.297752 51.960236 8.774924 0.576715
33.242851 55.375149 6.758262 0.493309
33.555931 55.646152 5.817651 0.488762
33.785332 55.844723 4.925843 0.475471
34.704521 56.640388 3.985712 0.512215
29.249269 51.918266 3.544180 0.709804
35.254940 57.116829 2.384378 0.522698
35.086308 56.970863 1.611971 0.493660
29.192045 51.868729 0.452101 0.733333
34.572613 56.526203 -0.000018 0.545556
39.870300 61.111927 0.000004 0.335637
42.820679 63.665802 -0.000004 0.338247
44.704292 65.296280 0.000001 0.334066
46.048481 66.459816 0.010004 1.000000
46.977974 67.264397 -0.000007 0.510903
29.192047 52.157925 9.845175 0.728420
29.344391 52.287941 8.721151 0.345068
29.192047 52.157925 7.698812 0.733639
33.672707 55.982033 5.772038 0.470893
33.855206 56.137787 4.897771 0.470848
34.408028 56.609604 4.005794 0.502815
33.981331 56.245438 3.229314 0.520592
35.018616 57.130726 2.387163 0.483253
34.213371 56.443474 1.595513 0.475822
29.192045 52.157921 0.461362 0.728374
34.461613 56.655342 -0.000018 0.538567
39.791187 61.203972 0.000004 0.338064
42.759323 63.737186 -0.000004 0.332464
44.654278 65.354477 0.000001 0.337606
46.006535 66.508583 0.009998 1.000000
46.941639 67.306671 -0.000007 0.540795
29.192047 52.443687 9.798899 0.711879
29.233622 52.478668 8.712769 0.732006
29.192045 52.443684 7.665196 0.733333
29.233624 52.478668 6.610373 0.732570
33.741421 56.271866 4.897785 0.490074
34.161781 56.625591 4.020350 0.467536
29.233624 52.478668 3.526892 0.732372
33.820236 56.338188 2.410508 0.476539
33.030411 55.673576 1.572600 0.474800
34.854996 57.208912 0.834031 0.479347
34.351517 56.785252 -0.000018 0.544182
39.712719 61.296562 0.000004 0.337514
42.698463 63.808994 -0.000004 0.341619
44.604664 65.413010 0.000000 0.339483
45.929531 66.527855 0.000001 0.338811
46.905602 67.349197 -0.000007 0.508110
29.192045 52.726105 9.753540 0.718853
29.249239 52.773560 8.669344 0.739055
29.192047 52.726109 7.632246 0.725475
29.249239 52.773560 6.580547 0.730983
33.812828 56.559601 4.870257 0.473045
32.792648 55.713238 4.154466 0.496834
33.981911 56.699875 3.214918 0.467002
34.106777 56.803467 2.402029 0.474022
29.249239 52.773556 1.494690 0.698039
34.407421 57.052887 0.812243 0.455528
34.242340 56.915932 -0.000018 0.541360
39.634899 61.389702 0.000004 0.335332
42.638111 63.881226 -0.000004 0.327001
44.555462 65.471901 0.000000 0.344976
45.888077 66.577461 0.000001 0.345968
46.869862 67.391968 -0.000007 0.543801
29.192045 53.005280 9.709076 0.723796
29.249239 53.052055 8.631100 0.734478
29.192049 53.005283 7.599948 0.736645
29.192053 53.005287 6.565241 0.733333
29.192049 53.005280 5.540535 0.721569
32.533340 55.738129 4.169579 0.553887
33.928497 56.879227 3.211341 0.491753
33.756508 56.738556 2.407128 0.489891
33.425751 56.468033 1.585880 0.534493
29.192043 53.005280 0.488054 0.733333
34.134068 57.047363 -0.000018 0.537255
39.557728 61.483383 0.000004 0.337713
42.578262 63.953880 -0.000005 0.335622
44.506676 65.531128 0.000001 0.339971
45.846977 66.627365 0.000001 0.333211
46.834419 67.434998 -0.000007 0.550347
29.192047 53.281284 9.665493 0.724102
29.249239 53.327400 8.593611 0.748653
29.192049 53.281288 7.568288 0.716243
29.192051 53.281288 6.539432 0.721523
29.192051 53.281288 5.520518 0.721569
29.192051 53.281284 4.509251 0.717617
29.249239 53.327396 3.499789 0.730800
29.337763 53.398773 2.497711 0.086275
33.311638 56.602970 1.585822 0.466453
33.907021 57.083038 0.794151 0.464820
34.026722 57.179550 -0.000018 0.540948
39.481216 61.577599 0.000004 0.336431
42.518921 64.026947 -0.000005 0.337697
44.458298 65.590698 0.000001 0.347036
45.806221 66.677551 0.000001 0.336187
46.799282 67.478264 -0.000007 0.518532
29.192045 53.554192 9.622771 0.726909
29.249241 53.599655 8.556860 0.718212
29.192049 53.554199 7.537254 0.721569
29.192043 53.554192 6.514132 0.746593
29.249241 53.599655 5.492493 0.705486
29.192049 53.554195 4.495265 0.721569
29.249241 53.599655 3.491429 0.707271
29.337769 53.670021 2.494938 0.105882
29.249243 53.599655 1.503212 0.715923
33.606743 57.063259 0.782028 0.467216
33.920292 57.312485 -0.000018 0.543999
39.405365 61.672348 0.000004 0.340261
42.460091 64.100426 -0.000005 0.335134
44.410339 65.650597 0.000000 0.337072
45.765820 66.728012 0.000001 0.335195
46.764442 67.521782 -0.000007 0.599344
29.192045 53.824089 9.580889 0.698039
29.249241 53.868904 8.520836 0.721569
29.192043 53.824089 7.506831 0.698039
29.192051 53.824097 6.489329 0.734356
29.249241 53.868904 5.473303 0.727596
29.192053 53.824097 4.481555 0.735973
29.249239 53.868904 3.483235 0.714122
29.337763 53.938263 2.492218 0.087648
29.249239 53.868904 1.505941 0.732006
29.192041 53.824089 0.513195 0.714519
33.814804 57.446159 -0.000018 0.542046
39.330170 61.767620 0.000004 0.336019
42.401779 64.174316 -0.000005 0.337499
44.362801 65.710838 0.000000 0.335744
45.725769 66.778763 0.000001 0.353185
46.729912 67.565536 -0.000007 0.543343
29.192045 54.091057 9.539829 0.697887
29.249243 54.135231 8.485516 0.721569
29.192049 54.091057 7.477005 0.696696
29.192053 54.091061 6.465014 0.716518
29.249241 54.135231 5.454492 0.738262
29.192055 54.091064 4.468114 0.740139
29.249237 54.135223 3.475201 0.729976
29.337765 54.203598 2.489553 0.074510
29.249241 54.135231 1.508618 0.732433
33.549583 57.456486 0.791733 0.459556
33.710251 57.580574 -0.000018 0.531258
39.255653 61.863422 0.000004 0.335348
42.343987 64.248611 -0.000005 0.337362
44.315681 65.771400 -0.000001 0.331228
45.686073 66.829788 0.000001 0.332662
46.695686 67.609535 -0.000008 0.540780
29.192051 54.355156 9.499575 0.721843
29.249241 54.398697 8.450891 0.732052
29.192045 54.355156 7.447765 0.739345
29.192051 54.355156 6.441176 0.716243
29.249243 54.398697 5.436048 0.733333
29.192051 54.355160 4.454938 0.721569
29.249241 54.398697 3.467326 0.712703
29.337765 54.466084 2.486939 0.074601
29.249241 54.398697 1.511241 0.733333
33.278130 57.465637 0.781423 0.477852
33.606628 57.715706 -0.000018 0.550896
39.181824 61.959755 0.000007 0.340200
42.286709 64.323311 -0.000005 0.336599
44.268986 65.832291 -0.000002 0.340612
45.646740 66.881096 0.000002 0.325444
46.661766 67.653770 -0.000007 0.521614
29.337761 54.725792 9.414480 0.198932
29.249243 54.659378 8.416946 0.736431
29.192053 54.616467 7.419096 0.735164
29.192051 54.616467 6.417806 0.711498
29.249243 54.659378 5.417967 0.721569
29.192051 54.616467 4.442019 0.737469
29.249239 54.659374 3.459604 0.738231
29.337767 54.725792 2.484376 0.087373
29.249241 54.659374 1.513813 0.744823
33.235657 57.650261 0.785227 0.518868
33.503960 57.851563 -0.000018 0.541192
39.108646 62.056580 0.000007 0.334737
42.229954 64.398407 -0.000006 0.340230
44.222721 65.893517 -0.000001 0.339986
45.607761 66.932671 0.000002 0.339513
46.628159 67.698242 -0.000008 0.556344
29.337761 54.982796 9.376025 0.094118
29.192089 54.875084 8.399016 0.733654
29.192047 54.875053 7.390991 0.732296
29.192049 54.875053 6.394893 0.724376
29.249243 54.917343 5.400240 0.735073
29.192045 54.875050 4.429355 0.717800
29.249239 54.917339 3.452034 0.725155
29.337767 54.982800 2.481864 0.076295
29.249241 54.917343 1.516334 0.733333
29.192041 54.875046 0.544471 0.721569
33.402237 57.988129 -0.000018 0.539223
39.106056 62.205616 0.010010 1.000000
42.173725 64.473892 -0.000006 0.332448
44.176907 65.955078 0.000004 0.335714
45.569141 66.984512 0.000001 0.333104
46.594860 67.742943 -0.000007 0.520470
29.337751 55.237148 9.338326 0.150118
29.192049 55.130981 8.366320 0.733333
29.249243 55.172653 7.350558 0.721569
29.192051 55.130981 6.372429 0.732052
29.249243 55.172653 5.382860 0.721569
29.192053 55.130981 4.416937 0.724056
29.249235 55.172649 3.444612 0.733333
29.337767 55.237160 2.479401 0.074510
29.249239 55.172653 1.518807 0.735866
29.192039 55.130974 0.551911 0.733333
33.301476 58.125401 -0.000018 0.546593
39.034550 62.302929 0.010003 1.000000
42.118027 64.549774 -0.000006 0.338140
44.131477 66.016922 -0.000000 0.337926
45.530891 67.036629 0.000001 0.330800
46.561878 67.787880 -0.000007 0.481407
29.337751 55.488937 9.301363 0.132113
29.192049 55.384319 8.334251 0.733333
29.249245 55.425388 7.323607 0.721569
29.192049 55.384319 6.350405 0.729473
29.249245 55.425385 5.365820 0.711086
29.192051 55.384315 4.404762 0.727260
29.249239 55.425385 3.437335 0.721981
29.337772 55.488949 2.476986 0.070558
29.249245 55.425385 1.521231 0.733944
29.192041 55.384312 0.559205 0.726513
33.201675 58.263378 -0.000018 0.547738
38.893204 62.350109 0.000009 0.340108
42.062859 64.626038 -0.000007 0.337621
44.086540 66.079117 0.000007 0.335424
45.493000 67.089012 0.000001 0.340047
46.529209 67.833046 -0.000007 0.512016
29.337746 55.738209 9.265121 0.094774
29.192045 55.635124 8.302811 0.752941
29.249243 55.675591 7.297183 0.698039
29.192047 55.635124 6.328811 0.733333
29.249239 55.675587 5.349114 0.726940
29.192053 55.635128 4.392825 0.729885
29.249243 55.675591 3.430201 0.746349
29.337770 55.738228 2.474618 0.062745
29.249239 55.675591 1.523607 0.752941
29.192039 55.635117 0.566357 0.726665
33.102833 58.402042 -0.000018 0.532525
38.822586 62.448822 -0.000016 0.530709
42.008224 64.702690 -0.000007 0.336843
44.041985 66.141594 0.000004 0.330571
45.455475 67.141655 0.000001 0.341970
46.496853 67.878441 -0.000007 0.530770
29.252203 55.925404 9.255708 0.735866
29.192049 55.883469 8.271982 0.738766
29.249241 55.923340 7.271275 0.728923
29.192047 55.883469 6.307639 0.713802
29.249237 55.923332 5.332734 0.733333
29.192051 55.883472 4.381122 0.710628
29.249241 55.923336 3.423206 0.729335
29.297745 55.957153 2.473095 0.737453
29.249237 55.923332 1.525937 0.733333
29.192041 55.883465 0.573368 0.733333
33.004971 58.541401 -0.000018 0.543465
38.752831 62.548145 -0.000016 0.545159
41.954121 64.779716 -0.000007 0.338415
43.997887 66.204391 0.000005 0.336812
45.418324 67.194557 0.000001 0.344137
46.464817 67.924057 -0.000007 0.504601
29.192051 56.129410 9.239022 0.730800
29.192047 56.129410 8.241760 0.733333
29.337748 56.229469 7.226337 0.178332
29.192049 56.129410 6.286881 0.727367
29.249243 56.168694 5.316673 0.733333
29.192053 56.129410 4.369648 0.722393
29.249239 56.168686 3.416348 0.721569
29.337770 56.229485 2.470021 0.074052
29.249241 56.168690 1.528221 0.719448
29.192039 56.129402 0.580243 0.717342
32.908073 58.681435 -0.000018 0.530373
38.683773 62.647957 -0.000015 0.538460
41.900566 64.857124 -0.000007 0.337728
43.954208 66.267487 0.000001 0.332921
45.381538 67.247719 0.000001 0.336599
46.433102 67.969894 -0.000008 0.522759
29.249239 56.411694 9.187362 0.733944
29.192047 56.373001 8.212128 0.733333
29.337746 56.471573 7.201525 0.174731
29.192049 56.373001 6.266530 0.732784
29.249245 56.411697 5.300927 0.726345
29.192053 56.373001 4.358398 0.698039
29.249239 56.411690 3.409624 0.729656
29.337769 56.471584 2.467790 0.064668
29.249241 56.411694 1.530461 0.722759
29.192038 56.372993 0.586983 0.746502
32.812172 58.822144 -0.000017 0.533379
38.615410 62.748245 -0.000015 0.534630
41.847549 64.934906 -0.000007 0.333654
43.910965 66.330879 -0.000004 0.338247
45.345127 67.301140 0.000001 0.342657
46.401707 68.015953 -0.000008 0.543954
29.190205 56.613075 9.171518 0.723552
29.192053 56.614307 8.183074 0.733333
29.337742 56.711395 7.177201 0.180056
29.192053 56.614304 6.246576 0.727916
29.190201 56.613075 5.293652 0.733333
29.192053 56.614307 4.347368 0.733333
29.190203 56.613075 3.406517 0.733333
29.337767 56.711411 2.465602 0.071611
29.190201 56.613075 1.531496 0.733730
29.192041 56.614296 0.593592 0.735241
32.717239 58.963516 -0.000017 0.539956
38.547752 62.849010 -0.000015 0.557366
41.795074 65.013046 -0.000008 0.338827
43.868179 66.394577 -0.000006 0.332784
45.309090 67.354813 0.000001 0.340826
46.370632 68.062233 -0.000008 0.530190
29.249252 56.890919 9.120789 0.752483
29.192051 56.853371 8.154591 0.733333
29.337742 56.948997 7.153351 0.193622
29.192047 56.853371 6.227013 0.752941
29.249266 56.890926 5.270352 0.724697
29.192051 56.853371 4.336556 0.738811
29.249260 56.890923 3.396567 0.732906
29.337765 56.949013 2.463458 0.128634
29.249264 56.890926 1.534810 0.719402
29.192038 56.853363 0.600070 0.721111
32.623299 59.105545 -0.000018 0.530129
38.480797 62.950245 -0.000015 0.535698
41.743149 65.091560 -0.000008 0.339590
43.825859 66.458588 -0.000004 0.335561
45.273426 67.408730 0.000001 0.335088
46.339882 68.108727 -0.000008 0.546517
29.249254 57.127235 9.088480 0.715221
29.192055 57.090260 8.126665 0.723644
29.337751 57.184441 7.129967 0.136416
29.192047 57.090256 6.207834 0.739071
29.249258 57.127235 5.255514 0.718349
29.192053 57.090256 4.325953 0.740047
29.249264 57.127239 3.390230 0.734462
29.337769 57.184448 2.461355 0.093202
29.249260 57.127239 1.536921 0.719402
29.192041 57.090248 0.606422 0.740444
32.530361 59.248234 -0.000018 0.556924
38.414551 63.051941 -0.000016 0.550668
41.691772 65.170425 -0.000007 0.337423
43.783985 66.522896 -0.000002 0.341848
45.238140 67.462898 0.000001 0.339330
46.309490 68.155449 0.000002 0.345190
29.249250 57.361427 9.056806 0.733333
29.192053 57.325016 8.099288 0.727794
29.337749 57.417763 7.107045 0.158297
29.192051 57.325012 6.189032 0.730236
29.249260 57.361435 5.240967 0.733333
29.192055 57.325016 4.315560 0.730526
29.249260 57.361431 3.384018 0.739284
29.337763 57.417770 2.459293 0.074922
29.249262 57.361435 1.538990 0.711360
29.192038 57.325005 0.612649 0.732601
32.438412 59.391563 -0.000018 0.532586
38.349018 63.154099 -0.000015 0.512062
41.640945 65.249657 -0.000008 0.336294
43.742554 66.587486 -0.000002 0.338720
45.203232 67.517319 0.000001 0.337423
46.279392 68.202370 0.000002 0.326345
29.249256 57.593552 9.025753 0.740261
29.192053 57.557693 8.072451 0.721843
29.337749 57.649017 7.084571 0.130800
29.192051 57.557693 6.170599 0.733333
29.249260 57.593555 5.226706 0.740261
29.192051 57.557693 4.305370 0.740780
29.249260 57.593552 3.377928 0.720562
29.337763 57.649029 2.457272 0.064393
29.249262 57.593555 1.541019 0.719356
29.192041 57.557690 0.618754 0.733333
32.347466 59.535530 -0.000018 0.533776
38.284199 63.256714 -0.000015 0.535470
41.590675 65.329239 -0.000008 0.336233
43.701569 66.652359 -0.000002 0.338384
45.168709 67.571976 0.000001 0.330419
46.249622 68.249496 0.000002 0.339910
29.249254 57.823650 8.995312 0.752941
29.192055 57.788349 8.046141 0.721569
29.322840 57.869057 7.065729 0.318379
29.192057 57.788349 6.152528 0.730846
29.249260 57.823654 5.212725 0.741085
29.192053 57.788349 4.295383 0.727352
29.249264 57.823654 3.371958 0.725368
29.337759 57.878269 2.455291 0.086961
29.249258 57.823650 1.543007 0.727031
29.192043 57.788342 0.624739 0.726162
32.257538 59.680134 -0.000017 0.543069
38.220097 63.359779 -0.000015 0.542992
41.540966 65.409164 -0.000008 0.338338
43.661030 66.717514 -0.000005 0.333639
45.134567 67.626869 0.000001 0.329702
46.220184 68.296829 0.000002 0.338064
29.249252 58.051773 8.965473 0.729656
29.192053 58.017021 8.020350 0.719966
29.337761 58.105545 7.040944 0.141619
29.192051 58.017021 6.134816 0.721889
29.249256 58.051773 5.199021 0.723552
29.192057 58.017025 4.285591 0.731685
29.249260 58.051777 3.366105 0.727260
29.337763 58.105545 2.453349 0.085496
29.249260 58.051777 1.544957 0.719356
29.192041 58.017014 0.630605 0.733333
32.168617 59.825363 -0.000017 0.543343
38.156719 63.463291 -0.000015 0.549340
41.491810 65.489441 -0.000008 0.340337
43.620953 66.782951 -0.000006 0.335607
45.100807 67.681999 0.000001 0.338964
46.191074 68.344368 0.000002 0.330297
29.249252 58.277969 8.936224 0.733700
29.337761 58.330898 7.958402 0.244907
29.337761 58.330894 7.019777 0.114794
29.192053 58.243763 6.117452 0.739712
29.249256 58.277969 5.185588 0.736095
29.192051 58.243759 4.275993 0.728969
29.249252 58.277969 3.360369 0.729152
29.337761 58.330898 2.451445 0.090105
29.249256 58.277969 1.546867 0.719310
29.192038 58.243752 0.636355 0.727260
32.080704 59.971199 -0.000018 0.552850
38.094067 63.567238 -0.000015 0.549111
41.443214 65.570061 -0.000008 0.335973
43.581337 66.848671 -0.000006 0.338369
45.067436 67.737366 0.000001 0.340520
46.162300 68.392105 0.000002 0.337316
29.249250 58.502285 8.907555 0.726177
29.337761 58.554379 7.933773 0.129412
29.337759 58.554379 6.999028 0.135637
29.192055 58.468620 6.100433 0.721706
29.249260 58.502289 5.172421 0.739055
29.192055 58.468620 4.266586 0.735424
29.249256 58.502289 3.354746 0.724468
29.337759 58.554379 2.449579 0.105882
29.249254 58.502289 1.548741 0.721569
29.192038 58.468613 0.641991 0.733333
31.993818 60.117653 -0.000018 0.546181
38.032135 63.671623 -0.000015 0.537697
41.395184 65.651009 -0.000009 0.331609
43.542183 66.914673 -0.000006 0.334981
45.034447 67.792969 0.000001 0.329870
46.133858 68.440048 0.000002 0.336172
29.249250 58.724766 8.879456 0.733227
29.337761 58.776031 7.909635 0.129412
29.337757 58.776031 6.978694 0.130816
29.192053 58.691635 6.083753 0.733333
29.249250 58.724766 5.159516 0.717662
29.192049 58.691635 4.257366 0.741176
29.249252 58.724766 3.349236 0.733333
29.337759 58.776031 2.447751 0.074510
29.249252 58.724766 1.550576 0.709804
29.192038 58.691628 0.647516 0.733333
31.907959 60.264709 -0.000018 0.534585
37.970932 63.776436 -0.000016 0.543847
41.347721 65.732300 -0.000009 0.338277
43.503494 66.980934 -0.000006 0.331548
45.001850 67.848801 0.000001 0.335988
46.140278 68.508186 0.009996 1.000000
29.249245 58.945450 8.851918 0.752941
29.337757 58.995895 7.885978 0.137545
29.337753 58.995895 6.958763 0.137758
29.192055 58.912857 6.067405 0.733333
29.249252 58.945457 5.146868 0.708064
29.192049 58.912853 4.248329 0.730053
29.249254 58.945457 3.343834 0.733333
29.319954 58.985748 2.446293 0.320348
29.249254 58.945457 1.552375 0.721569
29.192041 58.912849 0.652930 0.732967
31.823124 60.412361 -0.000018 0.534218
37.910473 63.881676 -0.000015 0.555459
41.300831 65.813911 -0.000008 0.338735
43.465263 67.047470 -0.000005 0.340124
44.969643 67.904854 0.000001 0.334020
46.112629 68.556267 0.009991 1.000000
29.249249 59.164391 8.824928 0.740764
29.337763 59.214020 7.862794 0.153613
29.337755 59.214020 6.939230 0.211292
29.192055 59.132320 6.051384 0.723140
29.249252 59.164391 5.134473 0.695644
29.192055 59.132320 4.239473 0.720653
29.249250 59.164391 3.338541 0.733333
29.192059 59.132324 2.446935 0.725567
29.249252 59.164391 1.554138 0.709804
29.192038 59.132309 0.658236 0.727077
31.739323 60.560600 -0.000018 0.544152
37.850742 63.987331 -0.000015 0.528893
41.254509 65.895851 -0.000009 0.336568
43.427505 67.114273 -0.000005 0.333761
44.937828 67.961128 0.000001 0.337926
46.085365 68.604561 0.009999 1.000000
29.249249 59.381622 8.798482 0.734401
29.337759 59.430443 7.840076 0.156374
29.337751 59.430439 6.920093 0.137835
29.192057 59.350079 6.035685 0.725383
29.249256 59.381630 5.122327 0.698177
29.192059 59.350079 4.230795 0.721569
29.249258 59.381630 3.333354 0.723262
29.192055 59.350075 2.445203 0.722393
29.249258 59.381630 1.555866 0.709804
29.192039 59.350067 0.663436 0.731777
31.656559 60.709423 -0.000018 0.540612
37.791752 64.093399 -0.000016 0.533379
41.208755 65.978119 -0.000009 0.340124
43.390213 67.181343 -0.000005 0.336583
44.906410 68.017632 0.000001 0.336233
46.058388 68.653023 0.009994 1.000000
29.249250 59.597191 8.772567 0.729244
29.337761 59.645206 7.817815 0.137255
29.337757 59.645203 6.901337 0.160281
29.192060 59.566166 6.020301 0.752941
29.249249 59.597191 5.110426 0.725658
29.192059 59.566162 4.222292 0.713710
29.249252 59.597191 3.328271 0.702449
29.192057 59.566162 2.443506 0.722881
29.249256 59.597195 1.557559 0.724056
29.192043 59.566154 0.668530 0.717800
31.574833 60.858818 -0.000017 0.531731
37.733505 64.199883 -0.000015 0.540917
41.163582 66.060699 -0.000009 0.332677
43.353386 67.248665 -0.000004 0.333852
44.875385 68.074341 0.000001 0.336873
46.031773 68.701683 0.009995 1.000000
29.249252 59.811131 8.747177 0.719829
29.297760 59.837009 7.805797 0.740078
29.297764 59.837013 6.891212 0.709072
29.192059 59.780621 6.005229 0.750256
29.249254 59.811134 5.098765 0.725612
29.192057 59.780617 4.213962 0.738567
29.249249 59.811131 3.323293 0.698039
29.192055 59.780617 2.441844 0.726925
29.249252 59.811131 1.559217 0.731502
29.192055 59.780617 0.673523 0.702678
31.494150 61.008774 -0.000018 0.534310
37.676003 64.306770 -0.000015 0.534386
41.118988 66.143593 -0.000009 0.337697
43.317036 67.316246 -0.000004 0.334310
44.844757 68.131279 0.000001 0.332692
46.005527 68.750542 0.010004 1.000000
29.249250 60.023479 8.722304 0.722622
29.337738 60.069897 7.774643 0.141054
29.337742 60.069901 6.864964 0.142855
29.192057 59.993477 5.990465 0.733333
29.249250 60.023479 5.087342 0.733394
29.192055 59.993477 4.205799 0.721340
29.249249 60.023476 3.318415 0.698680
29.192057 59.993477 2.440214 0.714900
29.249252 60.023479 1.560842 0.730068
29.192057 59.993477 0.678412 0.731121
31.414528 61.159302 -0.000018 0.536751
37.619247 64.414055 -0.000015 0.537545
41.074970 66.226791 -0.000009 0.337179
43.281151 67.384071 -0.000004 0.339635
44.814526 68.188423 0.000001 0.346777
45.979576 68.799561 0.010000 1.000000
29.249249 60.234280 8.697941 0.739528
29.337742 60.279915 7.753713 0.107713
29.337748 60.279919 6.847332 0.137255
29.192059 60.204788 5.976001 0.721294
29.249250 60.234283 5.076151 0.725475
29.192062 60.204788 4.197804 0.702632
29.249250 60.234283 3.313636 0.734676
29.192055 60.204788 2.438619 0.716426
29.249247 60.234280 1.562434 0.730068
29.192057 60.204788 0.683203 0.723262
31.335949 61.310375 -0.000018 0.545876
37.563240 64.521736 -0.000015 0.534829
41.031536 66.310303 -0.000009 0.339117
43.245739 67.452148 -0.000004 0.337514
44.784695 68.245773 0.000001 0.336141
45.918510 68.830475 0.000002 0.341527
29.249250 60.443569 8.674074 0.740688
29.337738 60.488422 7.733213 0.083009
29.337749 60.488426 6.830060 0.121279
29.192059 60.414581 5.961834 0.721294
29.249252 60.443569 5.065191 0.721569
29.192057 60.414577 4.189973 0.746120
29.249249 60.443569 3.308955 0.732784
29.192057 60.414581 2.437057 0.713069
29.249249 60.443569 1.563993 0.718257
29.192057 60.414577 0.687894 0.732326
31.258434 61.461998 -0.000018 0.550652
37.507988 64.629799 -0.000015 0.539879
40.988686 66.394112 -0.000009 0.340917
43.210812 67.520477 -0.000004 0.327459
44.796539 68.324257 0.009995 1.000000
45.893135 68.880104 0.000002 0.332403
29.249252 60.651382 8.650702 0.725612
29.337744 60.695465 7.713133 0.117647
29.337748 60.695465 6.813145 0.123598
29.192057 60.622894 5.947961 0.732830
29.249252 60.651382 5.054457 0.709804
29.192060 60.622894 4.182303 0.749996
29.249247 60.651382 3.304371 0.712383
29.192060 60.622894 2.435525 0.730068
29.249252 60.651382 1.565521 0.730022
29.192055 60.622890 0.692490 0.724178
31.181976 61.614151 -0.000017 0.536767
37.453491 64.738251 -0.000015 0.563485
40.946419 66.478218 -0.000009 0.334432
43.176357 67.589043 -0.000003 0.339620
44.767666 68.381737 0.009997 1.000000
45.868107 68.929909 0.000002 0.343542
29.249250 60.857758 8.627813 0.730709
29.337746 60.901070 7.693472 0.117647
29.337751 60.901073 6.796580 0.131930
29.192057 60.829762 5.934373 0.741360
29.249249 60.857754 5.043945 0.723033
29.192059 60.829762 4.174794 0.735256
29.249250 60.857758 3.299882 0.723568
29.192059 60.829762 2.434026 0.704631
29.249250 60.857758 1.567015 0.746654
29.192059 60.829762 0.696989 0.733333
31.106575 61.766834 -0.000018 0.541741
37.399750 64.847076 -0.000015 0.545937
40.904743 66.562622 -0.000009 0.339574
43.142384 67.657845 -0.000003 0.341802
44.739193 68.439415 0.009999 1.000000
45.843430 68.979889 0.000002 0.337942
29.249250 61.062721 8.605404 0.727687
29.337753 61.105274 7.674220 0.105882
29.337753 61.105278 6.780362 0.117647
29.192059 61.035221 5.921071 0.731777
29.249254 61.062721 5.033653 0.751339
29.192060 61.035225 4.167440 0.722805
29.249254 61.062721 3.295487 0.745586
29.192059 61.035221 2.432559 0.727962
29.249254 61.062721 1.568479 0.733333
29.192057 61.035221 0.701395 0.730022
31.032251 61.920048 -0.000018 0.543221
37.346783 64.956276 -0.000015 0.552346
40.863659 66.647308 -0.000010 0.342565
43.108891 67.726891 -0.000002 0.341909
44.711113 68.497292 0.009998 1.000000
45.819099 69.030045 0.000002 0.344076
29.249258 61.266319 8.583464 0.732723
29.337748 61.308109 7.655375 0.109834
29.337753 61.308113 6.764483 0.110384
29.192059 61.239307 5.908048 0.730343
29.249260 61.266319 5.023576 0.737255
29.192060 61.239307 4.160241 0.711879
29.249256 61.266319 3.291183 0.733013
29.192059 61.239307 2.431122 0.717525
29.249260 61.266319 1.569913 0.710307
29.192059 61.239307 0.705708 0.702358
30.959003 62.073772 -0.000017 0.535042
37.294563 65.065842 -0.000015 0.549981
40.823162 66.732277 -0.000010 0.336782
43.075874 67.796158 -0.000003 0.341726
44.683434 68.555351 0.009997 1.000000
45.795116 69.080368 0.000002 0.339879
29.249254 61.468575 8.561989 0.732830
29.337751 61.509613 7.636927 0.116732
29.337759 61.509621 6.748941 0.116732
29.192060 61.442051 5.895299 0.724788
29.249262 61.468578 5.013713 0.713085
29.192060 61.442051 4.153194 0.721523
29.249258 61.468578 3.286972 0.728557
29.192059 61.442047 2.429716 0.712154
34.390114 63.852676 1.664046 0.477378
29.192064 61.442051 0.709931 0.723964
30.886816 62.228004 -0.000017 0.526940
37.243118 65.175774 -0.000015 0.537133
40.783260 66.817535 -0.000010 0.341527
43.043350 67.865662 -0.000002 0.336782
44.614182 68.594147 0.000001 0.332753
45.771492 69.130852 0.000002 0.334310
29.249254 61.669525 8.540972 0.721569
29.337751 61.709820 7.618871 0.182071
29.337759 61.709824 6.733730 0.160571
29.196388 61.645458 5.882117 0.715358
29.249264 61.669533 5.004060 0.721569
29.196388 61.645458 4.145908 0.700572
29.249262 61.669533 3.282850 0.726528
35.485161 64.508736 2.315188 0.463828
35.729164 64.619827 1.689199 0.507591
29.196388 61.645458 0.714296 0.733333
30.815710 62.382736 -0.000018 0.549416
37.192440 65.286057 -0.000015 0.546258
40.743961 66.903069 -0.000010 0.335546
43.011314 67.935394 -0.000002 0.342107
44.587189 68.652885 0.000001 0.330800
45.748215 69.181503 0.000002 0.344549
28.868763 61.699165 8.624797 0.733257
29.026529 61.769669 7.674828 0.096986
29.026524 61.769669 6.780875 0.129610
28.748587 61.645454 5.942667 0.720500
28.868773 61.699165 5.042558 0.732280
28.748585 61.645454 4.179379 0.698558
34.880028 64.385590 2.975828 0.523827
28.748587 61.645458 2.434941 0.713863
35.555523 64.687462 1.687064 0.502861
28.748589 61.645458 0.694243 0.730755
30.745693 62.537960 -0.000018 0.539559
37.142532 65.396698 -0.000015 0.556146
40.705257 66.988869 -0.000010 0.336446
42.979763 68.005341 -0.000001 0.336492
44.560608 68.711815 0.000001 0.332403
45.725292 69.232315 0.000002 0.344167
28.569895 61.769711 8.686098 0.236576
28.569803 61.769669 7.765028 0.113268
28.569805 61.769672 6.856863 0.138109
28.286568 61.645458 6.005335 0.727031
28.409065 61.699177 5.090916 0.730617
28.286566 61.645454 4.214020 0.732387
34.674400 64.446831 2.983847 0.469245
35.576370 64.842384 2.311598 0.472587
35.357998 64.746620 1.684500 0.489204
28.286570 61.645458 0.673488 0.715358
30.676756 62.693668 -0.000018 0.540490
37.093395 65.507675 -0.000015 0.525093
40.667152 67.074936 -0.000010 0.338201
42.948700 68.075508 -0.000001 0.326406
44.534435 68.770927 0.000001 0.331777
45.702728 69.283279 0.000001 0.340322
28.098383 61.769707 8.794428 0.203922
28.098305 61.769669 7.858431 0.135378
28.098303 61.769669 6.935555 0.143725
27.809597 61.645454 6.070229 0.724102
35.133598 64.796600 4.239398 0.521431
34.868683 64.682625 3.619778 0.543114
34.481472 64.516022 2.991186 0.516228
34.007294 64.312012 2.338607 0.517128
34.523041 64.533913 1.670581 0.476707
35.968781 65.155937 1.088357 0.472129
30.608912 62.849861 -0.000017 0.542779
37.045044 65.619003 -0.000015 0.537408
40.629646 67.161270 -0.000010 0.334890
42.918125 68.145889 -0.000001 0.336049
44.508682 68.830223 0.000001 0.337057
45.680519 69.334412 0.000001 0.335103
27.611324 61.769703 8.906666 0.180163
27.316893 61.645451 8.024210 0.721126
27.611296 61.769691 7.017075 0.162554
27.316896 61.645454 6.137465 0.721569
35.129837 64.942520 4.233215 0.489128
34.994476 64.885391 3.603772 0.549020
34.647690 64.739052 2.979378 0.475349
35.297867 65.013428 2.314678 0.496223
35.257164 64.996246 1.684599 0.465263
35.954895 65.290688 1.090324 0.504906
30.542158 63.006516 -0.000017 0.551461
36.997459 65.730659 -0.000015 0.550103
40.592747 67.247864 -0.000010 0.333120
42.888046 68.216484 -0.000001 0.337453
44.483337 68.889694 0.000001 0.340810
45.658669 69.385689 0.000002 0.348852
27.107773 61.769653 9.023050 0.175647
26.807615 61.645451 8.125698 0.743526
27.107847 61.769684 7.101597 0.129137
26.807621 61.645454 6.207168 0.733333
35.043777 65.053574 4.237424 0.499596
34.754921 64.934044 3.620357 0.493477
34.739639 64.927719 2.971636 0.470283
35.222626 65.127579 2.315094 0.515648
34.858154 64.976761 1.678451 0.462898
35.907440 65.410957 1.090451 0.500511
30.476501 63.163635 -0.000017 0.523293
36.950668 65.842644 -0.000015 0.525994
40.556454 67.334717 -0.000010 0.333654
42.858456 68.287285 -0.000001 0.335225
44.458408 68.949348 0.000001 0.326879
45.637177 69.437119 0.000002 0.330037
26.587084 61.769669 9.143739 0.216037
26.280859 61.645451 8.230974 0.727611
34.678505 65.051926 5.600477 0.543923
26.280861 61.645454 6.279473 0.736934
34.903732 65.143288 4.248420 0.479072
34.875160 65.131699 3.605090 0.473518
34.233818 64.871544 2.995677 0.475776
35.242939 65.280891 2.313835 0.493996
34.912746 65.146950 1.680334 0.479530
26.280861 61.645451 0.582697 0.721569
30.411938 63.321209 -0.000017 0.550469
36.904648 65.954956 -0.000015 0.525612
40.520763 67.421822 -0.000010 0.341390
42.880280 68.378952 0.009997 1.000000
44.433899 69.009171 0.000001 0.331167
45.616043 69.488701 0.000002 0.343938
26.048180 61.769691 9.269003 0.233692
25.735657 61.645451 8.340244 0.728801
34.175117 65.000473 5.688963 0.534752
25.735661 61.645451 6.354521 0.722423
34.820808 65.257156 4.252391 0.494362
35.530037 65.539101 3.542812 0.500664
34.050179 64.950798 3.002598 0.478004
34.104519 64.972404 2.333004 0.473823
34.625320 65.179443 1.676167 0.492226
35.528416 65.538460 1.075551 0.509133
30.348476 63.479229 -0.000017 0.541955
36.859413 66.067581 -0.000015 0.530541
40.485687 67.509171 -0.000010 0.339712
42.851841 68.449806 0.009999 1.000000
44.409805 69.069160 0.000001 0.343984
45.595268 69.540428 0.000002 0.344472
25.490002 61.769707 9.399105 0.223529
25.308878 61.699165 8.421770 0.714946
34.261681 65.186073 5.661940 0.478553
34.481873 65.271835 4.950268 0.463874
34.463272 65.264595 4.290351 0.502434
35.447899 65.648079 3.545807 0.483467
34.502731 65.279961 2.975988 0.472496
35.535488 65.682198 2.306960 0.512673
35.411095 65.633743 1.690855 0.495262
35.683228 65.739731 1.086248 0.474464
30.286125 63.637688 -0.000017 0.544793
36.814972 66.180527 -0.000015 0.534569
40.451218 67.596756 -0.000010 0.341451
42.823898 68.520859 0.010002 1.000000
44.386135 69.129318 0.000001 0.341497
45.574856 69.592300 0.000002 0.333196
24.585644 61.645447 9.621675 0.724575
34.258736 65.335327 6.335670 0.467628
34.238018 65.327423 5.656706 0.510262
34.886337 65.574730 4.878126 0.513603
35.113235 65.661285 4.204169 0.508461
35.323441 65.741470 3.552574 0.512947
34.166931 65.300308 2.991022 0.486107
35.495773 65.807205 2.306832 0.465095
35.135109 65.669632 1.686852 0.473564
35.620289 65.854706 1.085395 0.464714
30.224880 63.796581 -0.000017 0.527642
36.771317 66.293777 -0.000015 0.536751
40.417366 67.684586 -0.000010 0.337301
42.796452 68.592110 0.010005 1.000000
44.362885 69.189636 0.000001 0.340246
45.554810 69.644310 0.000002 0.332433
34.698700 65.649246 6.897516 0.473457
34.125736 65.435257 6.354921 0.482353
34.235138 65.476112 5.647642 0.497429
35.341553 65.889343 4.798470 0.499763
34.583069 65.606064 4.263474 0.482979
34.646004 65.629570 3.607784 0.478111
35.670319 66.012131 2.909574 0.470344
35.459869 65.933533 2.306651 0.489067
33.162010 65.075325 1.653210 0.478828
36.345795 66.264412 1.125849 0.473396
30.164745 63.955898 -0.000017 0.537285
36.728462 66.407326 -0.000015 0.533867
40.384121 67.772652 -0.000010 0.339193
42.717972 68.644302 -0.000000 0.338079
44.340054 69.250122 0.000001 0.333730
45.535126 69.696457 0.000002 0.332341
34.708523 65.798172 6.882280 0.473487
33.495358 65.354698 6.488661 0.517784
33.796238 65.464691 5.723274 0.479042
35.258270 65.999130 4.804414 0.495659
35.164585 65.964882 4.186415 0.512825
34.864819 65.855301 3.584538 0.467079
34.374378 65.676025 2.975016 0.516014
35.083282 65.935165 2.312423 0.474556
34.971748 65.894394 1.685635 0.474845
36.178444 66.335495 1.119347 0.506554
30.105722 64.115631 -0.000017 0.541741
36.686394 66.521179 -0.000015 0.529046
40.351498 67.860947 -0.000010 0.326650
42.691380 68.716286 0.000000 0.335744
44.317646 69.310760 0.000001 0.330617
45.515804 69.748749 0.000002 0.347234
34.421898 65.840172 6.946218 0.480522
33.387451 65.470200 6.502096 0.468940
22.693422 61.645443 7.859434 0.711345
35.045380 66.063164 4.830882 0.485069
34.730133 65.950417 4.233982 0.499458
34.628273 65.913986 3.601142 0.515953
33.306267 65.441162 3.028286 0.455787
35.250061 66.136368 2.308736 0.502083
36.204758 66.477814 1.707856 0.460731
35.921303 66.376434 1.108151 0.529564
30.047813 64.275764 -0.000017 0.533883
36.645119 66.635315 -0.000015 0.525383
40.319489 67.949463 -0.000010 0.333501
42.665287 68.788445 0.000000 0.331838
44.295662 69.371559 0.000001 0.335164
45.496849 69.801163 0.000001 0.335241
34.191170 65.905510 6.995248 0.484596
33.966156 65.826797 6.358577 0.564935
34.040554 65.852821 5.657630 0.560998
34.991905 66.185608 4.832303 0.509789
34.497101 66.012520 4.256873 0.500511
34.441292 65.993004 3.613436 0.490440
34.114662 65.878746 2.983676 0.561517
34.932983 66.164993 2.313472 0.471031
34.832943 66.129997 1.684794 0.532418
34.154999 65.892853 1.018422 0.553063
34.146019 65.889717 0.360915 0.596521
36.604641 66.749741 -0.000015 0.534691
40.288101 68.038208 -0.000010 0.342519
42.639694 68.860794 0.000000 0.335607
44.274105 69.432503 0.000001 0.344839
45.478260 69.853714 0.000002 0.344060
33.648689 65.867126 7.126812 0.486671
33.463196 65.803696 6.462871 0.469398
33.173477 65.704613 5.815550 0.526696
33.243187 65.728455 5.099619 0.465293
21.303926 61.645439 5.855482 0.726131
34.845558 66.276436 3.574512 0.485512
33.387398 65.777771 3.019063 0.459632
34.711460 66.230576 2.316547 0.494224
35.986450 66.666603 1.705504 0.457115
35.530548 66.510689 1.092209 0.445838
29.935364 64.597237 -0.000017 0.553460
36.564972 66.864441 -0.000015 0.549004
40.257332 68.127167 -0.000010 0.337194
42.614616 68.933311 0.000000 0.342382
44.252975 69.493599 0.000001 0.343130
45.460041 69.906395 0.000002 0.340124
33.593094 65.999207 7.129408 0.465873
34.440559 66.282425 6.229783 0.473274
34.757961 66.388504 5.502573 0.466407
34.384491 66.263687 4.913812 0.488716
20.565788 61.645447 5.935925 0.752987
34.820534 66.409416 3.572963 0.505760
33.255241 65.886292 3.023506 0.506523
34.594116 66.333748 2.317825 0.485435
35.698521 66.702843 1.701230 0.499367
35.447235 66.618866 1.090033 0.486580
29.880827 64.758553 -0.000017 0.542489
36.526100 66.979424 -0.000015 0.551492
40.227188 68.216339 -0.000010 0.338918
42.590034 69.006004 0.000000 0.337179
44.232265 69.554840 0.000001 0.336065
45.442188 69.959206 0.000002 0.334905
33.716660 66.189926 7.085032 0.487938
33.598724 66.151428 6.411301 0.485161
33.744537 66.199028 5.688481 0.487633
33.720367 66.191139 5.010729 0.497658
33.261475 66.041328 4.390479 0.489769
35.350700 66.723373 3.523610 0.539040
33.452301 66.103622 3.010965 0.487724
34.985245 66.604073 2.310360 0.480110
35.207245 66.676544 1.693461 0.495384
19.796139 61.645439 0.283305 0.721569
29.827410 64.920242 -0.000017 0.535088
36.488029 67.094666 -0.000015 0.545510
40.197659 68.305710 -0.000010 0.337835
42.565968 69.078873 0.000001 0.332830
44.211990 69.616226 0.000001 0.335515
45.424706 70.012131 0.000002 0.327260
34.063946 66.449379 6.982289 0.510887
33.419914 66.244087 6.441911 0.501366
19.161552 61.699215 8.465187 0.725841
33.907074 66.399368 4.974889 0.495277
33.833931 66.376060 4.315981 0.490822
35.325493 66.851494 3.522352 0.490013
34.012474 66.432968 2.979808 0.488624
34.595688 66.618866 2.316353 0.481880
33.916080 66.402245 1.671975 0.524422
18.992840 61.645439 0.245747 0.704967
29.775139 65.082314 -0.000017 0.537301
36.450768 67.210182 -0.000015 0.573251
40.168758 68.395294 -0.000010 0.335836
42.542408 69.151901 0.000000 0.337179
44.192142 69.677757 0.000001 0.344091
45.407589 70.065178 0.000002 0.343908
33.560020 66.438042 7.103542 0.516350
33.274353 66.349174 6.465081 0.491478
33.415768 66.393166 5.734751 0.495445
33.734413 66.492287 4.995178 0.473381
34.425167 66.707169 4.239664 0.474586
34.917732 66.860397 3.554024 0.464607
35.385105 67.005783 2.907035 0.472358
34.636147 66.772797 2.314964 0.483970
35.207897 66.950661 1.694834 0.526726
18.153576 61.645435 0.206420 0.719539
29.723989 65.244736 -0.000017 0.533715
36.414310 67.325943 -0.000015 0.527932
40.140488 68.485077 -0.000010 0.340810
42.519363 69.225090 0.000001 0.340002
44.172722 69.739418 0.000001 0.331655
45.390846 70.118347 0.000002 0.344396
17.275810 61.645443 11.355239 0.732372
17.275810 61.645443 10.066441 0.738354
33.408043 66.540565 5.728217 0.479057
17.685249 61.769684 7.476614 0.165499
34.634132 66.912613 4.209743 0.466346
34.347713 66.825699 3.599537 0.474983
34.508652 66.874535 2.950088 0.478935
33.413342 66.542175 2.335201 0.479698
35.235840 67.095192 1.695966 0.469718
17.275791 61.645435 0.165199 0.720882
29.673975 65.407509 -0.000017 0.543221
36.378662 67.441963 -0.000015 0.532494
40.112843 68.575058 -0.000010 0.333608
42.496819 69.298447 0.000000 0.337758
44.153736 69.801216 0.000001 0.341833
45.374474 70.171631 0.000002 0.319615
16.356758 61.645470 11.575762 0.740047
16.467232 61.678154 10.231702 0.729839
16.776760 61.769718 8.876232 0.274769
16.776489 61.769638 7.605746 0.161181
34.495049 67.011307 4.221811 0.473991
34.790287 67.098648 3.558351 0.490578
35.111168 67.193573 2.917234 0.512581
33.456505 66.704079 2.333763 0.489830
35.127228 67.198326 1.694747 0.516365
34.398666 66.982796 1.046263 0.503319
29.625097 65.570633 -0.000017 0.544869
36.343826 67.558228 -0.000015 0.540719
40.085823 68.665222 -0.000010 0.335302
42.474800 69.371956 0.000001 0.328344
44.135181 69.863144 0.000001 0.338186
45.358479 70.225029 0.000002 0.337148
15.393200 61.645473 11.807444 0.733486
15.579556 61.699188 10.414464 0.735714
15.579556 61.699188 9.088936 0.726116
15.824028 61.769661 7.741365 0.176562
34.519260 67.158607 4.214387 0.516655
34.145061 67.050743 3.610237 0.580392
33.736443 66.932961 2.985652 0.472572
34.662750 67.199966 2.312541 0.465934
15.579563 61.699192 1.362469 0.732738
34.400398 67.124344 1.048294 0.498451
29.577364 65.734093 -0.000017 0.550652
36.309807 67.674736 -0.000015 0.551873
40.059441 68.755577 -0.000010 0.336492
42.453285 69.445610 0.000000 0.338186
44.117058 69.925201 0.000001 0.337926
