# This PCD file was generated using the MATLABÂ® pcwrite function
# from Computer Vision ToolboxÂ®.
# .PCD v.7 - Point Cloud Data file format
VERSION .7
FIELDS x y z intensity
SIZE 4 4 4 4
TYPE F F F F
COUNT 1 1 1 1
WIDTH 1234
HEIGHT 1
VIEWPOINT 0 0 0 1 0 0 0
POINTS 1234
DATA ascii
nan nan nan 0.000000
nan nan nan 0.000000
nan nan nan 0.000000
nan nan nan 0.000000
-20.569031 45.126675 0.000030 0.536152
-36.862167 46.037605 -0.000009 0.331985
-43.857903 46.428726 0.000007 0.334681
-47.753975 46.646553 -0.000003 0.330270
-50.241375 46.785618 0.000003 0.321936
-51.970215 46.882275 0.000010 0.339093
-53.243843 46.953484 -0.000009 0.334804
nan nan nan 0.000000
nan nan nan 0.000000
nan nan nan 0.000000
nan nan nan 0.000000
nan nan nan 0.000000
nan nan nan 0.000000
nan nan nan 0.000000
nan nan nan 0.000000
nan nan nan 0.000000
-20.585823 44.842960 0.000027 0.531740
-36.872261 45.867615 -0.000009 0.332108
-43.865101 46.307568 0.000007 0.334559
-47.759556 46.552589 -0.000003 0.335417
-50.245922 46.709019 0.000003 0.335784
-51.974049 46.817741 0.000010 0.333456
-53.247147 46.897839 -0.000009 0.344976
nan nan nan 0.000000
nan nan nan 0.000000
nan nan nan 0.000000
nan nan nan 0.000000
16.785511 41.944794 10.995248 0.125000
16.785519 41.944794 8.411366 0.125858
15.084957 42.063709 5.757573 0.695098
16.647182 41.954468 3.277257 0.761887
22.346111 41.555958 0.629260 0.638113
-20.604847 44.559387 0.000036 0.538113
-37.005199 45.706211 0.009989 1.000000
-43.873138 46.186466 0.000007 0.334314
-47.765793 46.458668 -0.000003 0.334436
-50.251007 46.632450 0.000003 0.335784
-51.978333 46.753235 0.000010 0.336642
-53.250843 46.842220 -0.000010 0.320098
nan nan nan 0.000000
nan nan nan 0.000000
nan nan nan 0.000000
27.992405 40.534973 15.271914 0.659681
13.175152 41.675102 10.583294 0.634926
13.175152 41.675102 8.117744 0.644485
13.175137 41.675102 5.665399 0.658824
13.175106 41.675106 3.220927 0.630760
13.363293 41.660625 0.775985 0.643505
-20.625595 44.275932 0.000033 0.534436
-36.896019 45.527874 -0.000010 0.333578
-43.882034 46.065418 0.000007 0.333456
-47.772690 46.364792 -0.000003 0.325123
-50.256630 46.555920 0.000003 0.334069
-51.983067 46.688763 0.000010 0.335784
-53.254925 46.786625 -0.000009 0.315564
nan nan nan 0.000000
nan nan nan 0.000000
nan nan nan 0.000000
23.232456 40.307854 14.570814 0.660662
13.175152 41.152390 10.588121 0.623162
13.175129 41.152390 8.121181 0.621324
13.175137 41.152390 5.667459 0.633578
13.175121 41.152393 3.221612 0.640931
27.653233 39.936630 0.540635 0.788725
-20.643902 43.992260 -0.000189 0.534804
-36.908577 45.358044 -0.000101 0.530882
-43.891762 45.944439 0.000007 0.334804
-47.780239 46.270966 -0.000003 0.335294
-50.262783 46.479431 0.000002 0.332475
-51.988251 46.624321 0.000009 0.331005
-53.259392 46.731064 -0.000010 0.333824
nan nan nan 0.000000
nan nan nan 0.000000
11.508457 40.780746 15.287326 0.646324
20.788166 39.936226 14.214420 0.638113
13.175167 40.629063 10.593368 0.632230
13.175144 40.629066 8.124923 0.639951
13.175129 40.629066 5.669696 0.645098
13.175114 40.629066 3.222358 0.654657
20.787289 39.936306 0.652562 0.625245
-20.668968 43.709126 -0.000174 0.538113
-36.923565 45.188412 -0.000088 0.531373
-43.902344 45.823532 0.000007 0.333456
-47.788445 46.177197 -0.000003 0.335784
-50.269470 46.402988 0.000003 0.337623
-51.993881 46.559921 0.000009 0.336520
-53.264252 46.675533 -0.000010 0.337255
nan nan nan 0.000000
nan nan nan 0.000000
7.776920 40.634377 14.613867 0.662255
15.004223 39.925735 13.360402 0.746569
13.175144 40.105076 10.599038 0.642647
13.175137 40.105076 8.128965 0.626716
13.175121 40.105080 5.672119 0.617157
13.175121 40.105080 3.223165 0.643015
14.895863 39.936359 0.748540 0.637132
-20.695667 43.426144 -0.000176 0.534436
-36.939552 45.018871 -0.000092 0.541667
-43.913651 45.702690 -0.000006 0.332598
-47.797302 46.083485 -0.000003 0.332475
-50.276691 46.326591 0.000003 0.332475
-51.999969 46.495560 0.000009 0.332721
-53.269497 46.620037 -0.000010 0.327451
nan nan nan 0.000000
nan nan nan 0.000000
7.449146 40.182198 14.562844 0.666054
9.152637 40.003151 12.495682 0.654044
10.263828 39.886360 10.268372 0.706863
10.458637 39.865887 7.909346 0.786274
9.977222 39.916485 5.516755 0.866054
8.969074 40.022446 3.154825 0.696814
9.152729 40.003143 0.842151 0.663480
-20.724350 43.143353 -0.000179 0.535049
-36.958111 44.849594 0.000020 0.539951
-43.925915 45.581940 -0.000006 0.330025
-47.806816 45.989838 -0.000003 0.335539
-50.284447 46.250248 0.000003 0.335172
-52.006500 46.431244 0.000009 0.334069
-53.275131 46.564583 -0.000010 0.329902
nan nan nan 0.000000
nan nan nan 0.000000
5.318432 39.936161 14.182249 0.644363
5.851360 39.876385 12.010872 0.751961
5.291843 39.939144 9.699078 0.614583
5.495586 39.916290 7.504332 0.792279
5.449917 39.921413 5.295618 0.671078
4.552059 40.022125 3.082971 0.702451
5.851048 39.876419 0.895640 0.747549
-20.755371 42.860809 -0.000162 0.534191
-36.976654 44.680321 0.000033 0.533333
-43.939026 45.461277 -0.000006 0.332353
-47.816978 45.896259 -0.000003 0.334559
-50.292732 46.173962 0.000002 0.332598
-52.013485 46.366974 0.000010 0.334926
-53.281151 46.509167 -0.000010 0.331740
nan nan nan 0.000000
nan nan nan 0.000000
3.041210 39.736992 13.774804 0.642647
3.041271 39.736984 11.599173 0.640074
3.041279 39.736984 9.444559 0.646936
3.041264 39.736984 7.306110 0.624020
3.041279 39.736984 5.179113 0.634191
3.041271 39.736984 3.058947 0.623162
3.041233 39.736988 0.941053 0.638358
-20.787994 42.578453 -0.000165 0.535294
-36.996143 44.511158 0.000026 0.531863
-43.952976 45.340714 -0.000006 0.334314
-47.827797 45.802757 -0.000003 0.334436
-50.301556 46.097733 0.000003 0.331740
-52.020912 46.302757 0.000009 0.334191
-53.287560 46.453793 -0.000010 0.332598
-8.597675 40.751961 15.284928 0.664706
nan nan nan 0.000000
3.041142 39.281635 13.784887 0.645956
3.041195 39.281628 11.607391 0.642402
3.041203 39.281628 9.450933 0.646201
3.041195 39.281628 7.310654 0.650368
3.041210 39.281624 5.181838 0.655637
-18.941620 42.058704 2.697270 0.714583
3.041164 39.281631 0.940145 0.633824
-20.822552 42.296322 -0.000169 0.533946
-37.016804 44.342133 0.000018 0.526593
-43.967762 45.220245 -0.000006 0.332966
-47.839268 45.709328 -0.000003 0.331863
-50.310905 46.021568 0.000002 0.333701
-52.028790 46.238590 0.000009 0.330637
-53.294350 46.398468 -0.000010 0.320098
-8.733303 40.396515 15.262705 0.637500
-20.065220 41.908516 10.966455 0.678431
-20.383991 41.951050 9.495457 0.747794
-20.065228 41.908516 8.158218 0.678431
-20.065235 41.908516 6.775954 0.679534
-20.065243 41.908516 5.404062 0.678431
-20.065235 41.908516 4.039516 0.678431
-21.190384 42.058643 2.660779 0.705515
-18.631962 41.717278 1.296985 0.687745
-20.859543 42.014500 -0.000150 0.535049
-37.038918 44.173290 0.000033 0.533578
-43.983398 45.099884 -0.000006 0.333946
-47.851395 45.615986 -0.000003 0.329412
-50.320793 45.945473 0.000003 0.335784
-52.037117 46.174480 0.000008 0.337623
-53.301529 46.343189 -0.000010 0.337010
-22.749939 41.993153 11.729907 0.707353
-22.147976 41.908554 10.520782 0.678431
-23.214024 42.058376 8.982626 0.716176
-22.147984 41.908554 7.852127 0.678431
-22.450291 41.951038 6.503449 0.749755
-22.148003 41.908554 5.234864 0.678431
-22.147995 41.908554 3.938144 0.678431
-23.216316 42.058697 2.627932 0.715441
-8.082439 39.931770 1.121984 0.639951
-22.606686 41.973019 0.084612 0.549265
-37.061924 44.004570 0.000025 0.530515
-43.999870 44.979637 -0.000006 0.334804
-47.864170 45.522728 -0.000003 0.335294
-50.331207 45.869446 0.000003 0.334069
-52.045887 46.110432 0.000008 0.337377
-53.309093 46.287964 -0.000010 0.330270
-24.163120 41.927711 11.381879 0.119730
-24.163124 41.927711 10.089409 0.116544
-24.910091 42.038013 8.677696 0.706005
-24.163143 41.927715 7.555855 0.116789
-24.321289 41.951069 6.290406 0.745588
-24.163151 41.927715 5.071095 0.111642
-24.163158 41.927719 3.840022 0.111765
-25.050392 42.058731 2.598226 0.696201
-23.064941 41.765549 1.368931 0.690319
-23.106918 41.771744 0.107525 0.649265
-37.086102 43.836014 0.000016 0.549632
-44.103172 44.872204 0.009994 1.000000
-47.877590 45.429562 -0.000003 0.336029
-50.342148 45.793495 0.000003 0.333456
-52.055107 46.046444 0.000008 0.336520
-53.317043 46.232792 -0.000010 0.332721
-25.748516 41.908546 10.989935 0.678431
-26.100178 41.962986 9.674608 0.755392
-25.748535 41.908550 8.530375 0.678431
-25.748531 41.908550 7.323752 0.678431
-26.022785 41.951004 6.096866 0.773039
-25.748547 41.908550 4.942795 0.678431
-25.748547 41.908550 3.763152 0.678431
-26.634132 42.045647 2.572633 0.689583
-12.985924 39.932793 1.201368 0.628799
-23.110432 41.500149 0.105700 0.510172
-37.111767 43.667671 0.000033 0.556250
-44.121269 44.752800 0.009998 1.000000
-47.891670 45.336491 -0.000003 0.331127
-50.353622 45.717621 0.000003 0.334926
-52.064774 45.982521 0.000008 0.338725
-53.325378 46.177673 -0.000010 0.326716
-27.713753 41.973030 10.501202 0.660049
-27.713753 41.973030 9.330057 0.640931
-27.713757 41.973030 8.175354 0.648284
-27.713757 41.973030 7.034330 0.638603
-27.712296 41.972794 5.904503 0.730392
-27.713768 41.973030 4.782814 0.638113
-27.713772 41.973030 3.667300 0.637132
-27.633469 41.960026 2.556701 0.627451
-15.116997 39.932800 1.235811 0.636887
-23.045925 41.217003 0.100394 0.570956
-37.138290 43.499470 0.000023 0.527328
-44.140285 44.633545 0.010013 1.000000
-47.906391 45.243523 -0.000003 0.333824
-50.365631 45.641830 0.000003 0.333701
-52.074886 45.918671 0.000008 0.334926
-53.334099 46.122620 -0.000010 0.342157
-27.782631 41.744373 10.493536 0.665809
-27.782642 41.744373 9.323444 0.647549
-27.782650 41.744377 8.169783 0.630392
-27.782661 41.744377 7.029786 0.654289
-27.782661 41.744377 5.900809 0.621446
-27.782673 41.744381 4.780301 0.646936
-27.782681 41.744381 3.665795 0.622549
-27.768230 41.741936 2.555108 0.628922
-27.582020 41.710442 1.441802 0.646691
-27.582020 41.710442 0.324207 0.675490
-37.165985 43.331451 0.000013 0.538480
-44.159958 44.514393 0.010006 1.000000
-47.921768 45.150658 -0.000003 0.337010
-50.378162 45.566124 0.000003 0.321691
-52.085445 45.854889 0.000008 0.333946
-53.343204 46.067623 -0.000010 0.326593
-27.782631 41.504002 10.503784 0.648039
-27.782639 41.504002 9.332281 0.628799
-27.782654 41.504005 8.177227 0.644853
-27.782654 41.504005 7.035857 0.640074
-27.782661 41.504005 5.905515 0.634191
-27.782669 41.504005 4.783656 0.644608
-27.782673 41.504009 3.667805 0.642647
-27.768826 41.501564 2.555768 0.634069
-18.872231 39.932854 1.296403 0.636275
-23.133690 40.684265 0.100281 0.631985
-37.195076 43.163670 0.000022 0.530515
-44.180447 44.395382 0.009999 1.000000
-47.937790 45.057903 -0.000003 0.333088
-50.391228 45.490509 0.000003 0.333578
-52.096451 45.791187 0.000008 0.328554
-53.352688 46.012695 -0.000011 0.329657
-27.782639 41.263039 10.514471 0.660417
-27.782646 41.263039 9.341496 0.629902
-27.782650 41.263042 8.184992 0.622304
-27.782658 41.263042 7.042185 0.651716
-27.782669 41.263046 5.910424 0.637990
-27.782665 41.263046 4.787155 0.645588
-27.782681 41.263046 3.669901 0.629534
-27.769436 41.260616 2.556457 0.634804
-20.467598 39.920479 1.322061 0.777696
-23.180691 40.418423 0.100241 0.581863
-37.225456 42.996120 0.000041 0.543750
-44.201904 44.276539 0.010007 1.000000
-47.954460 44.965263 -0.000002 0.335294
-50.404812 45.414986 0.000003 0.331495
-52.107895 45.727562 0.000007 0.333578
-53.362560 45.957836 -0.000011 0.332475
-27.782635 41.021454 10.525602 0.670098
-27.782646 41.021458 9.351095 0.636275
-27.782650 41.021458 8.193079 0.656127
-27.782658 41.021458 7.048776 0.667892
-27.782661 41.021458 5.915536 0.636275
-27.782665 41.021461 4.790800 0.622304
-27.782673 41.021461 3.672086 0.627574
-27.770073 41.019058 2.557173 0.640809
-22.075890 39.932835 1.347967 0.635294
-23.229504 40.152897 0.100198 0.604779
-37.256653 42.828720 0.000030 0.549755
-44.138466 44.141499 -0.000024 0.334436
-47.971779 44.872742 -0.000002 0.333946
-50.418926 45.339561 0.000003 0.332475
-52.119785 45.664017 0.000007 0.336765
-53.372814 45.903046 -0.000011 0.329534
-27.782635 40.779224 10.537179 0.650858
-27.782642 40.779224 9.361078 0.643873
-27.782650 40.779228 8.201488 0.626593
-27.782650 40.779228 7.055634 0.637745
-27.782658 40.779228 5.920854 0.653309
-27.782665 40.779232 4.794589 0.612868
-27.782677 40.779232 3.674355 0.640196
-27.770733 40.776867 2.557919 0.669363
-23.485138 39.928295 1.370590 0.762745
-23.508095 39.932842 0.111570 0.640564
-37.289005 42.661537 0.000019 0.534191
-44.161625 44.022354 -0.000024 0.333211
-47.989735 44.780342 -0.000003 0.336520
-50.433571 45.264233 0.000003 0.339951
-52.132122 45.600555 0.000007 0.332966
-53.383446 45.848324 -0.000012 0.337132
-27.782642 40.536331 10.549206 0.650490
-27.782642 40.536331 9.371448 0.630270
-27.782650 40.536331 8.210224 0.625123
-27.782661 40.536335 7.062755 0.672549
-27.782661 40.536335 5.926376 0.640564
-27.782665 40.536335 4.798527 0.674755
-27.782673 40.536335 3.676714 0.638726
-27.771420 40.534027 2.558693 0.630392
-24.793575 39.922764 1.391561 0.749755
-24.842548 39.932816 0.175835 0.631740
-37.322929 42.494671 0.000041 0.539706
-44.271049 43.920914 0.010010 1.000000
-48.008343 44.688072 -0.000003 0.331127
-50.448738 45.189011 0.000003 0.336029
-52.144894 45.537182 0.000006 0.339583
-53.394463 45.793682 -0.000012 0.334314
-27.782642 40.292732 10.561684 0.636152
-27.782642 40.292732 9.382206 0.629289
-27.782654 40.292736 8.219288 0.621324
-27.782658 40.292736 7.070144 0.649387
-27.782661 40.292736 5.932108 0.635907
-27.782669 40.292740 4.802610 0.646691
-27.782669 40.292740 3.679161 0.627328
-27.772137 40.290501 2.559497 0.627819
-26.042072 39.922764 1.411560 0.745098
-26.089314 39.932804 0.235790 0.622549
-37.357616 42.327957 0.000029 0.537745
-44.295738 43.802700 0.010009 1.000000
-48.027588 44.595932 -0.000003 0.337990
-50.464432 45.113899 0.000003 0.335539
-52.158112 45.473900 0.000006 0.341299
-53.405865 45.739120 -0.000012 0.331618
-27.782639 40.048409 10.574615 0.658456
-27.782650 40.048412 9.393354 0.637132
-27.782654 40.048412 8.228682 0.639828
-27.782658 40.048412 7.077804 0.657108
-27.782661 40.048416 5.938048 0.631005
-27.782669 40.048416 4.806843 0.648775
-27.782673 40.048416 3.681698 0.670711
-27.772881 40.046265 2.560329 0.643505
-27.211044 39.922737 1.430257 0.738113
-27.256783 39.932793 0.291849 0.628431
-37.393448 42.161484 0.000017 0.536274
-44.321251 43.684662 0.010008 1.000000
-48.047482 44.503929 -0.000002 0.336029
-50.480644 45.038895 0.000003 0.326716
-52.171776 45.410713 0.000005 0.345098
-53.456665 45.693214 0.009997 1.000000
-28.152943 39.887470 10.492887 0.630760
-28.153080 39.887501 9.322858 0.741667
-28.152935 39.887466 8.169317 0.630515
-28.152943 39.887470 7.029406 0.661029
-28.730022 40.018578 5.832435 0.707598
-28.152939 39.887470 4.780093 0.631373
-28.153091 39.887505 3.665663 0.738235
-28.152950 39.887470 2.554827 0.631005
-28.152950 39.887470 1.445173 0.672672
-28.352394 39.932785 0.344377 0.630637
-37.430733 41.995331 0.000028 0.521324
-44.347595 43.566807 0.010008 1.000000
-48.068012 44.412064 -0.000003 0.337132
-50.497387 44.964005 0.000003 0.332108
-52.231045 45.357883 0.010010 1.000000
-53.468773 45.639088 0.009998 1.000000
-29.189632 39.887497 10.239862 0.678431
-29.189667 39.887505 9.104713 0.743260
-29.189625 39.887497 7.985518 0.678431
-29.189632 39.887497 6.879568 0.678431
-29.750582 40.019066 5.718024 0.722917
-29.189625 39.887497 4.697267 0.678431
-29.189667 39.887505 3.616045 0.748039
-29.189632 39.887497 2.538297 0.678431
-29.189629 39.887497 1.461703 0.678431
-29.382683 39.932777 0.393695 0.630882
-37.467247 41.828995 -0.000123 0.534436
-44.374748 43.449135 0.010007 1.000000
-48.089188 44.320351 -0.000003 0.326471
-50.514648 44.889236 0.000003 0.327574
-52.245510 45.295208 0.010008 1.000000
-53.481251 45.585049 0.009999 1.000000
-30.353680 39.932838 9.953588 0.649755
-30.353668 39.932835 8.857887 0.668382
-30.353661 39.932831 7.777568 0.659926
-30.673166 40.010128 6.661281 0.663603
-30.353653 39.932831 5.652835 0.640931
-30.353655 39.932831 4.603559 0.635049
-30.353664 39.932831 3.559901 0.613848
-30.353668 39.932835 2.519595 0.624755
-30.673128 40.010120 1.485783 0.555147
-30.485771 39.964794 0.446776 0.656373
-37.507050 41.663418 -0.000094 0.543015
-44.402630 43.331635 0.009994 1.000000
-48.111004 44.228786 -0.000003 0.330882
-50.532433 44.814590 0.000004 0.330882
-52.260353 45.232620 0.009994 1.000000
-53.455265 45.521698 -0.000010 0.337255
-31.029305 39.872826 9.792822 0.739706
-31.613821 40.018562 8.589157 0.715564
-30.499163 39.740646 7.760199 0.776471
-31.582638 40.010788 6.530243 0.636765
-31.189850 39.912853 5.559963 0.845833
-31.189846 39.912853 4.537365 0.843995
-31.029562 39.872890 3.528357 0.724265
-31.230064 39.922882 2.505707 0.805025
-31.582596 40.010777 1.500238 0.536520
-31.676727 40.034248 0.504409 0.671324
-37.547543 41.498005 -0.000105 0.539461
-44.431419 43.214352 0.009992 1.000000
-48.133457 44.137371 -0.000002 0.335539
-50.550739 44.740070 0.000003 0.335417
-52.230812 45.158958 0.000004 0.335907
-53.468559 45.467564 -0.000010 0.329534
-32.007637 39.899784 9.553593 0.108456
-32.277588 39.969097 8.452799 0.703554
-32.007645 39.899788 7.487001 0.117770
-32.007652 39.899788 6.473164 0.736397
-32.007797 39.899826 5.469108 0.113725
-32.007797 39.899826 4.472608 0.120711
-32.007797 39.899826 3.481443 0.744118
-32.007645 39.899788 2.493464 0.106127
-32.007645 39.899788 1.506536 0.143627
-32.007668 39.899792 0.518550 0.756005
-37.589508 41.332966 -0.000088 0.531495
-44.461067 43.097282 0.009995 1.000000
-48.156548 44.046120 -0.000002 0.333824
-50.569561 44.665680 0.000003 0.333824
-52.246666 45.096287 0.000002 0.338358
-53.482239 45.413528 -0.000010 0.333578
-32.820122 39.896702 9.356842 0.754167
-32.768288 39.883007 8.354927 0.678431
-32.768288 39.883007 7.353837 0.678431
-32.730331 39.872978 6.370429 0.758211
-32.768250 39.882996 5.384937 0.678431
-32.768257 39.882996 4.412615 0.678431
-32.730377 39.872990 3.447423 0.747917
-32.768291 39.883007 2.481488 0.678431
-32.768295 39.883007 1.518512 0.678431
-32.730331 39.872978 0.552574 0.737623
-37.632301 41.168137 -0.000100 0.531373
-44.491550 42.980431 0.010000 1.000000
-48.180275 43.955032 -0.000002 0.337010
-50.588905 44.591419 0.000004 0.338848
-52.262962 45.033726 0.000002 0.339461
-53.496326 45.359592 -0.000000 0.546569
-33.514870 39.872990 9.190283 0.749632
-33.551628 39.882977 8.191505 0.678431
-33.551636 39.882977 7.216160 0.678431
-33.514870 39.872990 6.258017 0.748529
-33.551773 39.883015 5.297870 0.678431
-33.551773 39.883015 4.350558 0.678431
-33.514786 39.872963 3.410201 0.746201
-33.551632 39.882977 2.469106 0.678431
-33.551636 39.882977 1.530894 0.678431
-33.514870 39.872990 0.589803 0.739951
-37.676224 41.003605 -0.000113 0.551103
-44.438843 42.840965 -0.000010 0.334436
-48.204636 43.864113 -0.000002 0.332843
-50.608765 44.517300 0.000004 0.331373
-52.279686 44.971279 0.000001 0.340564
-53.510704 45.305740 -0.000013 0.501471
-34.844864 40.036266 8.858234 0.641544
-34.395889 39.910912 8.014108 0.722181
-34.395889 39.910912 7.066707 0.755760
-34.395885 39.910912 6.130528 0.726716
-34.364742 39.902214 5.207117 0.790074
-34.652832 39.982651 4.261347 0.542402
-34.839340 40.034725 3.345355 0.638971
-34.396072 39.910961 2.455662 0.721324
-34.438854 39.922905 1.545064 0.739461
-34.396072 39.910961 0.632035 0.722181
-37.721825 40.839531 -0.000081 0.538113
-44.471069 42.723953 -0.000010 0.334191
-48.229637 43.773365 -0.000002 0.323284
-50.629143 44.443317 0.000004 0.339951
-52.296852 44.908951 0.000001 0.339951
-53.525616 45.252029 0.000016 0.551838
-35.477879 40.018936 8.706844 0.696569
-35.003334 39.882862 7.889518 0.678431
-34.968563 39.872890 6.968326 0.733701
-35.142868 39.922871 6.023426 0.753064
-34.364735 39.699745 5.213459 0.765564
-35.438522 40.007652 4.198800 0.628186
-35.531242 40.034237 3.312655 0.650613
-35.003387 39.882877 2.446225 0.678431
-35.166275 39.929585 1.556548 0.752083
-34.968460 39.872860 0.658583 0.741667
-37.767860 40.675575 -0.000109 0.547059
-44.504120 42.607170 -0.000010 0.331005
-48.255264 43.682793 -0.000002 0.330637
-50.650040 44.369484 0.000004 0.336029
-52.314209 44.846676 -0.000055 0.546569
-53.540134 45.198204 -0.000156 0.538113
-36.139759 40.018883 8.547638 0.707230
-35.813835 39.922958 7.718999 0.714706
-35.813831 39.922958 6.818088 0.735294
-36.138138 40.018406 5.877699 0.706127
-35.813980 39.923004 5.046190 0.743382
-35.813980 39.923004 4.171173 0.742770
-35.813980 39.923004 3.300841 0.739951
-35.813828 39.922958 2.433307 0.722059
-35.813831 39.922958 1.566693 0.744976
-35.813961 39.922997 0.699157 0.721936
-37.815758 40.512157 -0.000076 0.531127
-44.537979 42.490616 -0.000010 0.334436
-48.281521 43.592400 -0.000002 0.334681
-50.671448 44.295792 0.000004 0.335662
-52.332382 44.784634 -0.000025 0.522794
-53.555813 45.144707 -0.000124 0.499510
-36.556015 39.953938 8.452364 0.692770
-36.321026 39.882988 7.616488 0.678431
-36.321026 39.882988 6.731725 0.678431
-36.769501 40.018394 5.787949 0.691789
-36.320953 39.882969 4.991614 0.678431
-36.320953 39.882969 4.132273 0.678431
-36.287960 39.873009 3.279228 0.731373
-36.321030 39.882992 2.425540 0.678431
-36.321030 39.882992 1.574461 0.678431
-36.287827 39.872967 0.720765 0.730270
-37.864250 40.348915 -0.000090 0.540564
-44.572655 42.374306 -0.000010 0.331985
-48.308414 43.502197 -0.000002 0.332598
-50.693367 44.222256 0.000004 0.338603
-52.350372 44.722534 -0.000133 0.568382
-53.571693 45.091274 -0.000135 0.531005
-36.934971 39.882988 8.366784 0.678431
-36.934967 39.882988 7.489683 0.678431
-37.034542 39.913811 6.605928 0.738358
-37.372604 40.018459 5.702393 0.722917
-36.934906 39.882969 4.924070 0.678431
-36.934906 39.882969 4.084131 0.678431
-36.964783 39.892216 3.247154 0.741299
-36.934963 39.882988 2.415932 0.678431
-36.934963 39.882988 1.584068 0.678431
-36.902618 39.872974 0.749648 0.736152
-37.914257 40.186131 -0.000071 0.537010
-44.608147 42.258232 -0.000010 0.331495
-48.335938 43.412178 -0.000002 0.333211
-50.715805 44.148872 0.000004 0.333333
-52.369354 44.660732 -0.000114 0.528064
-53.588364 45.038078 -0.000038 0.593873
-37.521790 39.882980 8.226518 0.678431
-37.521790 39.882980 7.368740 0.678431
-37.490250 39.872974 6.529026 0.743382
-37.647934 39.922997 5.667655 0.744363
-37.521740 39.882965 4.859649 0.678431
-37.521740 39.882965 4.038216 0.678431
-37.650795 39.923904 3.214530 0.742279
-37.521790 39.882980 2.406769 0.678431
-37.521790 39.882980 1.593231 0.678431
-37.490250 39.872978 0.777196 0.732476
-37.965565 40.023754 -0.000038 0.536029
-44.644440 42.142418 -0.000010 0.335172
-48.364086 43.322361 -0.000002 0.336520
-50.738750 44.075649 0.000004 0.337623
-52.388630 44.599022 -0.000128 0.553922
-53.604973 44.984867 -0.000053 0.556495
-37.915993 39.828598 8.136668 0.630147
-37.915993 39.828598 7.291266 0.642892
-37.916000 39.828598 6.457734 0.672181
-37.916004 39.828602 5.634073 0.636397
-37.916000 39.828598 4.818376 0.654412
-37.916000 39.828598 4.008798 0.627696
-37.916000 39.828598 3.203556 0.624265
-37.915993 39.828598 2.400898 0.663725
-37.915985 39.828594 1.599101 0.617647
-37.915985 39.828594 0.796444 0.654902
-38.017815 39.861683 -0.000021 0.537868
-44.681541 42.026855 -0.000010 0.333578
-48.392860 43.232738 -0.000001 0.331863
-50.762211 44.002586 0.000004 0.333456
-52.408478 44.537491 -0.000108 0.526716
-53.622086 44.931816 -0.000035 0.556985
-37.915894 39.648312 8.150796 0.649387
-37.915905 39.648315 7.303446 0.638235
-37.915909 39.648315 6.467994 0.646814
-37.915916 39.648319 5.642439 0.631985
-37.915916 39.648319 4.824863 0.667647
-37.915916 39.648319 4.013422 0.649387
-37.915913 39.648315 3.206326 0.637990
-37.915894 39.648312 2.401822 0.659314
-37.915890 39.648312 1.598178 0.614583
-37.915878 39.648308 0.793672 0.669853
-38.070801 39.699844 -0.000038 0.536887
-44.719452 41.911556 -0.000010 0.333456
-48.422264 43.143318 -0.000001 0.331495
-50.786179 43.929688 0.000004 0.339583
-52.428738 44.476097 -0.000093 0.543750
-53.639324 44.878803 -0.000080 0.537500
-37.915859 39.467213 8.165274 0.662990
-37.915871 39.467216 7.315928 0.619730
-37.915878 39.467220 6.478511 0.629044
-37.915882 39.467220 5.651012 0.639828
-37.915882 39.467220 4.831512 0.669853
-37.915886 39.467220 4.018161 0.637377
-37.915882 39.467220 3.209164 0.655025
-37.915867 39.467216 2.402768 0.645956
-37.915855 39.467213 1.597233 0.641176
-37.915848 39.467209 0.790833 0.657843
-38.125320 39.538521 -0.000021 0.535539
-44.758163 41.796524 -0.000010 0.336029
-48.452286 43.054108 -0.000002 0.336029
-50.810654 43.856960 0.000004 0.330392
-52.449436 44.414848 -0.000075 0.545466
-53.657169 44.825993 -0.000063 0.574387
-37.915878 39.285263 8.180105 0.640564
-37.915882 39.285267 7.328720 0.665196
-37.915894 39.285271 6.489286 0.632353
-37.915894 39.285271 5.659798 0.631250
-37.915897 39.285271 4.838326 0.655637
-37.915894 39.285271 4.023017 0.699387
-37.915894 39.285271 3.212074 0.642034
-37.915878 39.285267 2.403737 0.629657
-37.915878 39.285263 1.596264 0.640196
-37.915867 39.285263 0.787923 0.644608
-38.180542 39.377434 -0.000039 0.528554
-44.797684 41.681763 -0.000009 0.331985
-48.482929 42.965103 -0.000002 0.333333
-50.835640 43.784405 0.000004 0.340564
-52.470413 44.353695 -0.000092 0.555025
-53.675259 44.773266 -0.000078 0.570221
-37.915924 39.102448 8.195305 0.639951
-37.915924 39.102448 7.341827 0.647304
-37.915936 39.102448 6.500329 0.636152
-37.915939 39.102451 5.668799 0.696324
-37.915939 39.102451 4.845306 0.645098
-37.915943 39.102451 4.027993 0.684436
-37.915943 39.102451 3.215055 0.646936
-37.915932 39.102448 2.404730 0.622059
-37.915924 39.102444 1.595270 0.639706
-37.915916 39.102440 0.784943 0.624877
-38.237320 39.216888 -0.000021 0.548529
-44.837997 41.567284 -0.000009 0.335662
-48.514194 42.876320 -0.000002 0.329167
-50.861126 43.712025 0.000004 0.332721
-52.492069 44.292778 -0.000050 0.534681
-53.694122 44.720810 0.000014 0.541789
-37.915993 38.918720 8.210880 0.630882
-37.915993 38.918720 7.355255 0.631127
-37.916004 38.918724 6.511641 0.680147
-37.916004 38.918724 5.678021 0.686152
-37.916004 38.918724 4.852459 0.662255
-37.916004 38.918724 4.033091 0.681373
-37.916004 38.918724 3.218110 0.655270
-37.915993 38.918720 2.405747 0.630882
-37.915993 38.918720 1.594253 0.671446
-37.915989 38.918716 0.781888 0.625980
-38.294785 39.056587 -0.000040 0.530637
-44.879112 41.453091 -0.000009 0.335294
-48.546082 42.787758 -0.000001 0.331863
-50.887123 43.639828 0.000004 0.327451
-52.513905 44.231930 -0.000065 0.582108
-53.712940 44.668343 -0.000003 0.570956
-37.916061 38.734062 8.226834 0.631618
-37.916061 38.734062 7.369012 0.623284
-37.916061 38.734062 6.523233 0.633824
-37.916061 38.734062 5.687471 0.666789
-37.916061 38.734062 4.859788 0.640686
-37.916065 38.734062 4.038315 0.674020
-37.916061 38.734062 3.221240 0.660662
-37.916061 38.734062 2.406789 0.664951
-37.916061 38.734062 1.593211 0.653186
-37.916058 38.734062 0.778759 0.624265
-38.353798 38.896858 -0.000021 0.534804
-44.921021 41.339184 -0.000009 0.333824
-48.578583 42.699421 -0.000002 0.331250
-50.913620 43.567814 0.000004 0.328799
-52.536316 44.171288 -0.000045 0.537010
-53.732250 44.616051 0.000014 0.526103
-37.916115 38.548435 8.243183 0.622549
-37.916115 38.548435 7.383108 0.616176
-37.916111 38.548435 6.535108 0.640319
-37.916115 38.548435 5.697153 0.638603
-37.916115 38.548439 4.867296 0.682230
-37.916115 38.548435 4.043665 0.623897
-37.916115 38.548435 3.224446 0.623652
-37.916115 38.548435 2.407858 0.632721
-37.916115 38.548435 1.592143 0.614338
-37.916115 38.548435 0.775553 0.639093
-38.413666 38.737438 -0.000026 0.534926
-44.963726 41.225574 -0.000009 0.333211
-48.611706 42.611313 -0.000001 0.333578
-50.940617 43.495983 0.000005 0.334926
-52.559299 44.110863 0.000011 0.554412
-53.751354 44.563683 -0.000123 0.541544
-37.906151 38.357941 8.262609 0.772917
-37.906151 38.357941 7.399861 0.781985
-37.906151 38.357941 6.549222 0.784681
-37.996353 38.392925 5.694307 0.700980
-37.906147 38.357937 4.876220 0.776471
-37.906151 38.357941 4.050027 0.782475
-37.906155 38.357941 3.228256 0.768995
-37.906151 38.357941 2.409126 0.776838
-37.906151 38.357941 1.590873 0.789461
-37.906151 38.357941 0.771743 0.805882
-38.474918 38.578552 -0.000005 0.541912
-45.007217 41.112263 -0.000009 0.335172
-48.645435 42.523434 -0.000001 0.335172
-50.968117 43.424343 0.000005 0.335049
-52.582546 44.050541 0.000029 0.525123
-53.771404 44.511665 -0.000103 0.531740
-37.851639 38.148628 8.294456 0.678431
-37.851631 38.148628 7.427319 0.678431
-37.851631 38.148624 6.572356 0.678431
-38.001785 38.208076 5.703563 0.724755
-37.851631 38.148624 4.890845 0.678431
-37.851631 38.148628 4.060451 0.678431
-37.906151 38.170212 3.231622 0.795466
-37.851631 38.148628 2.411207 0.678431
-37.851631 38.148628 1.588793 0.678431
-37.906151 38.170212 0.768377 0.788725
-38.536835 38.419918 -0.000025 0.531740
-45.051510 40.999260 -0.000009 0.335049
-48.679783 42.435795 -0.000001 0.335049
-50.996117 43.352898 0.000005 0.326838
-52.606056 43.990318 0.000010 0.528186
-53.791935 44.459843 -0.000051 0.536765
-37.851639 37.959423 8.312057 0.678431
-37.851631 37.959419 7.442495 0.678431
-37.851631 37.959419 6.585142 0.678431
-38.002251 38.020271 5.713845 0.702328
-37.851631 37.959419 4.898929 0.678431
-37.851631 37.959419 4.066213 0.678431
-37.906151 37.981445 3.235066 0.785417
-37.851631 37.959419 2.412356 0.678431
-37.851631 37.959419 1.587643 0.678431
-37.906147 37.981445 0.764934 0.798284
-38.600315 38.261906 -0.000004 0.541176
-45.096581 40.886566 -0.000009 0.333456
-48.714737 42.348400 -0.000001 0.327451
-51.024612 43.281651 0.000005 0.335049
-52.629662 43.930130 -0.000084 0.509069
-53.812706 44.408112 -0.000032 0.569608
-37.835732 37.762585 8.334375 0.135049
-37.851635 37.769138 7.458023 0.678431
-37.851631 37.769138 6.598222 0.678431
-38.001808 37.831036 5.724511 0.701716
-37.851631 37.769138 4.907200 0.678431
-37.851631 37.769138 4.072107 0.678431
-37.906147 37.791607 3.238590 0.804412
-37.851631 37.769138 2.413533 0.678431
-37.851631 37.769138 1.586467 0.678431
-37.906143 37.791607 0.761410 0.807843
-38.664886 38.104340 0.000017 0.533824
-45.142448 40.774197 -0.000008 0.334559
-48.750305 42.261250 -0.000001 0.337745
-51.053608 43.210602 0.000005 0.336520
-52.654182 43.870312 -0.000062 0.567402
-53.833740 44.356491 -0.000040 0.552819
-37.866997 37.584221 8.344315 0.712377
-37.851639 37.577766 7.473906 0.678431
-37.851631 37.577763 6.611606 0.678431
-38.001541 37.640778 5.735393 0.702328
-37.851631 37.577763 4.915660 0.678431
-37.851631 37.577766 4.078138 0.678431
-37.906143 37.600677 3.242195 0.807843
-37.851631 37.577766 2.414736 0.678431
-37.851631 37.577766 1.585263 0.678431
-37.906136 37.600677 0.757805 0.798529
-38.730103 37.947041 -0.000003 0.539216
-45.189087 40.662148 -0.000008 0.334436
-48.786480 42.174351 -0.000001 0.334191
-51.083099 43.139759 0.000005 0.330760
-52.679234 43.810715 -0.000013 0.516544
-53.855099 44.305000 -0.000057 0.559314
-37.936081 37.421452 8.344316 0.739706
-37.851639 37.385262 7.490151 0.678431
-37.851631 37.385258 6.625291 0.678431
-38.001862 37.449646 5.746427 0.729779
-37.851631 37.385258 4.924314 0.678431
-37.851631 37.385258 4.084305 0.678431
-37.906143 37.408619 3.245881 0.795833
-37.851639 37.385258 2.415968 0.678431
-37.851639 37.385258 1.584033 0.678431
-37.906143 37.408619 0.754119 0.786274
-38.796886 37.790394 0.000020 0.531250
-45.236511 40.550423 -0.000008 0.332843
-48.823257 42.087704 -0.000001 0.330882
-51.113083 43.069122 0.000005 0.333701
-52.704586 43.751244 0.000008 0.547672
-53.876957 44.253723 -0.000036 0.521446
-37.906147 37.215412 8.371696 0.676348
-37.851639 37.191597 7.506763 0.678431
-37.851635 37.191597 6.639285 0.678431
-38.001671 37.257145 5.757794 0.725123
-37.851631 37.191597 4.933162 0.678431
-37.851631 37.191597 4.090612 0.678431
-37.906136 37.215408 3.249651 0.783333
-37.851631 37.191597 2.417226 0.678431
-37.851635 37.191597 1.582774 0.678431
-37.906136 37.215408 0.750348 0.799510
-38.865036 37.634338 0.000066 0.533088
-45.284706 40.439030 -0.000009 0.335907
-48.860641 42.001316 -0.000001 0.332230
-51.143559 42.998699 0.000005 0.331495
-52.730354 43.691956 0.000031 0.558211
-53.899391 44.202694 0.000045 0.506740
-37.906151 37.021027 8.391343 0.744608
-37.851639 36.996758 7.523746 0.678431
-37.851631 36.996754 6.653592 0.678431
-38.001915 37.063663 5.769343 0.697181
-37.851631 36.996754 4.942207 0.678431
-37.851635 36.996754 4.097058 0.678431
-37.906136 37.021019 3.253505 0.802451
-37.851635 36.996754 2.418513 0.678431
-37.851639 36.996754 1.581487 0.678431
-37.906136 37.021019 0.746495 0.786520
-38.933296 37.478340 0.000025 0.532475
-45.333691 40.327980 -0.000009 0.334926
-48.898628 41.915192 -0.000001 0.335907
-51.174522 42.928490 0.000005 0.335539
-52.756161 43.632679 -0.000036 0.543873
-53.921738 44.151627 0.000004 0.559314
-37.906151 36.825420 8.411428 0.784314
-37.851639 36.800694 7.541103 0.678431
-37.851635 36.800694 6.668215 0.678431
-38.001785 36.868805 5.781209 0.702328
-37.851635 36.800694 4.951453 0.678431
-37.851631 36.800690 4.103648 0.678431
-37.906124 36.825409 3.257445 0.775368
-37.851639 36.800694 2.419828 0.678431
-37.851639 36.800694 1.580172 0.678431
-37.906124 36.825409 0.742555 0.789951
-39.003605 37.323250 0.000071 0.545098
-45.383446 40.217278 -0.000008 0.333088
-48.937210 41.829338 -0.000000 0.334069
-51.205982 42.858498 0.000005 0.331005
-52.782845 43.573795 0.000008 0.529167
-53.944374 44.100685 -0.000055 0.586275
-37.906151 36.628578 8.431953 0.776471
-37.851639 36.603394 7.558843 0.678431
-37.851639 36.603390 6.683160 0.678431
-38.001945 36.672844 5.793288 0.694240
-37.851639 36.603390 4.960901 0.678431
-37.851639 36.603394 4.110383 0.678431
-37.906128 36.628567 3.261470 0.796078
-37.851639 36.603390 2.421172 0.678431
-37.851639 36.603390 1.578828 0.678431
-37.906124 36.628567 0.738529 0.789461
-39.074017 37.168209 0.000028 0.540441
-45.433975 40.106922 -0.000008 0.331005
-48.976398 41.743752 -0.000000 0.331495
-51.287727 42.811737 0.009988 1.000000
-52.809834 43.515049 0.000026 0.576226
-53.967434 44.049938 -0.000094 0.537623
-37.916283 36.435230 8.450121 0.673162
-37.916283 36.435230 7.561538 0.646446
-37.916283 36.435226 6.685432 0.658946
-38.001839 36.475487 5.805676 0.719975
-37.916286 36.435230 4.962337 0.623284
-37.916286 36.435230 4.111406 0.628922
-37.916283 36.435226 3.265032 0.648284
-37.916283 36.435226 2.421376 0.659804
-37.916283 36.435226 1.578624 0.647794
-37.916206 36.435192 0.734963 0.652696
-39.146248 37.014008 0.000052 0.548897
-45.485268 39.996925 -0.000007 0.334069
-49.016174 41.658443 -0.000001 0.335417
-51.319984 42.742531 0.009985 1.000000
-52.837250 43.456505 0.000048 0.507721
-53.991280 43.999550 -0.000015 0.518382
-37.989361 36.270905 8.451242 0.703064
-37.909935 36.232849 7.581526 0.622304
-37.909912 36.232838 6.702275 0.659314
-38.001862 36.276894 5.818307 0.697917
-37.909943 36.232853 4.972982 0.602206
-37.909916 36.232841 4.118996 0.669118
-37.909897 36.232830 3.269580 0.644118
-37.909878 36.232822 2.422891 0.654044
-37.909508 36.232647 1.577101 0.669976
-37.909161 36.232479 0.730379 0.622794
-39.219551 36.860313 0.000076 0.540074
-45.537331 39.887287 -0.000008 0.333578
-49.056553 41.573414 -0.000000 0.336520
-51.352734 42.673561 0.009985 1.000000
-52.864666 43.397957 -0.000026 0.573775
-54.015266 43.949234 0.000006 0.533456
-38.001442 36.076744 8.469685 0.720343
-36.685844 35.435089 7.894542 0.757475
-37.987614 36.070004 6.702441 0.661765
-38.001827 36.076935 5.831222 0.721691
-36.685848 35.435089 5.139710 0.760662
-37.987617 36.070004 4.119071 0.640686
-38.015129 36.083424 3.268121 0.659191
-36.685848 35.435089 2.446606 0.760784
-38.015419 36.083565 1.577600 0.644853
-37.987621 36.070007 0.730375 0.647304
-39.293198 36.706779 0.000034 0.537132
-45.590157 39.778011 -0.000007 0.335049
-49.097523 41.488670 0.000000 0.331127
-51.386040 42.604855 0.010000 1.000000
-52.892624 43.339664 -0.000069 0.545833
-54.039524 43.899044 0.000005 0.530392
-38.001587 35.875511 8.491907 0.696078
-36.655846 35.207478 7.922060 0.678431
-36.655846 35.207478 6.989160 0.678431
-38.001869 35.875652 5.844398 0.691054
-36.655842 35.207478 5.154368 0.678431
-36.655842 35.207478 4.248277 0.678431
-38.015606 35.882469 3.272459 0.664461
-36.685852 35.222374 2.448143 0.757598
-38.015465 35.882401 1.576148 0.654289
-36.655846 35.207481 0.652963 0.678431
-39.368629 36.554115 0.000057 0.541176
-45.643738 39.669109 -0.000008 0.331495
-49.139084 41.404213 0.000000 0.331495
-51.419750 42.536346 0.010001 1.000000
-52.921272 43.281712 -0.000044 0.557843
-54.064163 43.849045 0.000014 0.545343
-38.001713 35.672867 8.514606 0.708088
-36.655846 34.993019 7.942800 0.678431
-36.655846 34.993019 7.006634 0.678431
-38.002026 35.673023 5.857836 0.689583
-36.665695 34.997993 5.164145 0.120343
-36.655846 34.993019 4.256149 0.678431
-38.016144 35.680157 3.276885 0.660417
-36.685848 35.008175 2.449713 0.758824
-38.015427 35.679794 1.574663 0.669976
-36.655849 34.993019 0.648245 0.678431
-39.445129 36.401989 0.000080 0.533456
-45.698082 39.560585 -0.000008 0.335172
-49.181232 41.320049 0.000001 0.328922
-51.453880 42.468048 0.009988 1.000000
-52.950546 43.224068 0.000034 0.537377
-54.089203 43.799244 0.000036 0.575123
-38.001808 35.468773 8.537794 0.725368
-36.896782 34.900867 7.905470 0.775123
-37.988873 35.462128 6.751764 0.666544
-38.001747 35.468742 5.871630 0.724632
-36.896786 34.900871 5.145530 0.787623
-37.988876 35.462128 4.141298 0.647181
-38.016685 35.476418 3.281406 0.668505
-36.896782 34.900867 2.447435 0.773775
-38.015404 35.475761 1.573146 0.652206
-37.988876 35.462128 0.717058 0.635784
-39.521904 36.249996 0.000031 0.539951
-45.753181 39.452438 -0.000008 0.335294
-49.223961 41.236179 0.000000 0.332230
-51.439743 42.374939 0.000005 0.340686
-52.979706 43.166370 -0.000011 0.537745
-54.114277 43.749462 -0.000029 0.524755
-38.001869 35.263191 8.561479 0.709681
-37.147827 34.816711 7.865696 0.653431
-37.989914 35.256943 6.768775 0.666299
-38.001884 35.263203 5.885643 0.710784
-37.147823 34.816708 5.124347 0.652574
-37.989914 35.256943 4.148964 0.646201
-38.015694 35.270420 3.286106 0.670343
-37.147812 34.816704 2.444421 0.661152
-38.015015 35.270065 1.571591 0.637745
-37.989914 35.256943 0.712465 0.628309
-39.600525 36.098949 0.000055 0.546446
-45.809048 39.344688 -0.000007 0.333824
-49.267284 41.152615 0.000001 0.333456
-51.475060 42.306808 0.000005 0.337745
-53.009460 43.108974 -0.000010 0.539706
-54.140018 43.700016 -0.000004 0.558824
-38.001865 35.056080 8.585676 0.707598
-37.549107 34.815342 7.789170 0.644853
-37.989250 35.049370 6.786500 0.648775
-38.002121 35.056217 5.899932 0.693505
-37.549103 34.815338 5.083584 0.682476
-37.989250 35.049374 4.156951 0.633578
-38.015804 35.063492 3.290843 0.647549
-37.549095 34.815338 2.438623 0.632843
-38.014877 35.062996 1.570009 0.662500
-37.989246 35.049370 0.707679 0.635907
-39.680199 35.948463 0.000079 0.543995
-45.865654 39.237328 -0.000007 0.335662
-49.311184 41.069351 0.000001 0.335172
-51.510849 42.238934 0.000006 0.335539
-53.039711 43.051846 0.000014 0.554412
-54.166023 43.650715 -0.000001 0.559804
-38.001968 34.847473 8.610346 0.699142
-37.878990 34.780979 7.729885 0.628064
-38.014858 34.854443 6.799155 0.635539
-38.001572 34.847260 5.914651 0.705760
-37.878986 34.780975 5.052007 0.659191
-38.014751 34.854385 4.162663 0.664706
-38.015903 34.855007 3.295679 0.653186
-37.878990 34.780979 2.434132 0.637010
-38.014988 34.854511 1.568399 0.640686
-38.014854 34.854439 0.704263 0.648284
-39.760658 35.798393 0.000078 0.540931
-45.923004 39.130363 -0.000007 0.335172
-49.355667 40.986397 0.000001 0.324632
-51.547112 42.171307 0.000006 0.336029
-53.070560 42.995033 0.000087 0.516176
-54.192619 43.601727 0.000071 0.553064
-38.001953 34.637230 8.635559 0.728186
-37.915665 34.589790 7.742697 0.627574
-37.915672 34.589790 6.838051 0.647059
-38.001762 34.637119 5.929547 0.711765
-37.915665 34.589787 5.058831 0.628309
-37.915665 34.589790 4.180182 0.638113
-37.915672 34.589790 3.306238 0.651838
-37.915802 34.589863 2.435099 0.671936
-37.915924 34.589931 1.564903 0.634069
-37.915924 34.589931 0.693775 0.634681
-39.842194 35.648907 0.000081 0.549632
-45.981106 39.023804 -0.000007 0.335907
-49.400723 40.903751 0.000001 0.337745
-51.583843 42.103935 0.000006 0.335662
-53.101173 42.938095 0.000006 0.533578
-54.219303 43.552792 0.000072 0.531127
-38.001823 34.425285 8.661325 0.713480
-37.851654 34.341362 7.780801 0.678431
-37.851646 34.341358 6.870154 0.678431
-37.999680 34.424088 5.945138 0.707475
-37.851650 34.341358 5.079127 0.678431
-37.851646 34.341358 4.194648 0.678431
-37.906158 34.371822 3.311839 0.791054
-37.851646 34.341358 2.437989 0.678431
-37.851646 34.341358 1.562011 0.678431
-37.906155 34.371819 0.688161 0.785049
-39.924232 35.499687 0.000033 0.530637
-46.039948 38.917648 -0.000007 0.333333
-49.446358 40.821423 0.000001 0.332966
-51.621048 42.036816 0.000006 0.330882
-53.132324 42.881443 -0.000041 0.524265
-54.246071 43.503895 -0.000002 0.547181
-38.001591 34.211636 8.687648 0.686397
-37.851646 34.126453 7.803588 0.678431
-37.851646 34.126453 6.889351 0.678431
-37.906155 34.157417 5.976643 0.784681
-37.851646 34.126453 5.091265 0.678431
-37.851643 34.126450 4.203299 0.678431
-37.906155 34.157417 3.317010 0.785907
-37.851646 34.126453 2.439715 0.678431
-37.851646 34.126453 1.560285 0.678431
-37.906151 34.157417 0.682990 0.799755
-40.008110 35.351498 0.000060 0.536642
-46.099525 38.811905 -0.000007 0.334191
-49.492569 40.739418 0.000001 0.334559
-51.658905 41.970070 0.000046 0.533211
-53.164352 42.825287 0.000031 0.547794
-54.273518 43.455376 0.000022 0.487010
-38.010536 34.001575 8.711853 0.691299
-37.851646 33.909840 7.826839 0.678431
-37.851643 33.909840 6.908941 0.678431
-37.906151 33.941307 5.992575 0.800858
-37.851639 33.909836 5.103649 0.678431
-37.851643 33.909836 4.212127 0.678431
-37.906158 33.941311 3.322286 0.799877
-37.851643 33.909840 2.441478 0.678431
-37.851643 33.909840 1.558523 0.678431
-37.906155 33.941311 0.677714 0.791422
-40.092834 35.203793 0.000069 0.536274
-46.159840 38.706581 -0.000008 0.331373
-49.539345 40.657738 0.000001 0.331863
-51.697048 41.903488 0.000047 0.539583
-53.196583 42.769245 0.000057 0.557353
-54.301292 43.407051 0.000044 0.497794
-37.906158 33.723454 8.769495 0.806373
-37.851643 33.691471 7.850565 0.678431
-37.851639 33.691467 6.928927 0.678431
-37.906151 33.723450 6.008832 0.806373
-37.851635 33.691467 5.116286 0.678431
-37.851639 33.691467 4.221134 0.678431
-37.906151 33.723450 3.327670 0.797059
-37.851639 33.691467 2.443275 0.678431
-37.851639 33.691467 1.556726 0.678431
-37.906151 33.723450 0.672330 0.781373
-40.178490 35.056622 0.000069 0.543505
-46.220901 38.601688 -0.000006 0.335662
-49.586697 40.576385 0.000001 0.333333
-51.735649 41.837170 0.000047 0.567279
-53.229012 42.713322 0.000034 0.537255
-54.329269 43.358841 0.000026 0.574020
-37.906158 33.503807 8.797502 0.796078
-37.851635 33.471306 7.874771 0.678431
-37.851631 33.471302 6.949321 0.678431
-37.906151 33.503803 6.025416 0.795833
-37.851631 33.471302 5.129180 0.678431
-37.851635 33.471306 4.230323 0.678431
-37.906151 33.503803 3.333162 0.798039
-37.851639 33.471306 2.445108 0.678431
-37.851639 33.471306 1.554891 0.678431
-37.906151 33.503803 0.666837 0.787500
-40.264633 34.909737 0.000018 0.527328
-46.282684 38.497219 -0.000007 0.333211
-49.634609 40.495369 0.000001 0.331250
-51.774429 41.770954 -0.000012 0.525735
-53.261726 42.657562 -0.000014 0.546446
-54.357487 43.310768 -0.000021 0.550000
-37.906158 33.282318 8.826075 0.780637
-37.851631 33.249294 7.899467 0.678431
-37.851631 33.249294 6.970127 0.678431
-37.906155 33.282314 6.042337 0.782475
-37.851631 33.249290 5.142334 0.678431
-37.851631 33.249294 4.239699 0.678431
-37.906155 33.282314 3.338766 0.769485
-37.851631 33.249290 2.446980 0.678431
-37.851631 33.249290 1.553020 0.678431
-37.906151 33.282314 0.661233 0.778431
-40.352325 34.763767 0.000017 0.537990
-46.345192 38.393181 -0.000007 0.334926
-49.683090 40.414684 0.000001 0.339828
-51.813950 41.705177 -0.000012 0.535294
-53.295189 42.602245 0.000027 0.501716
-54.386333 43.263069 0.000019 0.523897
-37.906158 33.058949 8.855228 0.800123
-37.851631 33.025406 7.924662 0.678431
-37.851624 33.025398 6.991354 0.678431
-37.906151 33.058949 6.059601 0.797059
-37.851624 33.025398 5.155755 0.678431
-37.851627 33.025402 4.249265 0.678431
-37.906155 33.058949 3.344484 0.795466
-37.851627 33.025402 2.448889 0.678431
-37.851631 33.025406 1.551111 0.678431
-37.906151 33.058949 0.655516 0.782230
-40.441315 34.618587 0.000043 0.536397
-46.408432 38.289585 -0.000007 0.333456
-49.732136 40.334343 0.000002 0.336152
-51.853951 41.639690 -0.000008 0.546814
-53.328697 42.546963 -0.000016 0.565074
-54.415394 43.215504 0.000025 0.556618
-37.906155 32.833652 8.884966 0.788480
-37.851627 32.799580 7.950364 0.678431
-37.851624 32.799576 7.013006 0.678431
-37.906151 32.833649 6.077212 0.774877
-37.851624 32.799576 5.169444 0.678431
-37.851624 32.799576 4.259022 0.678431
-37.906151 32.833649 3.350316 0.788725
-37.851624 32.799576 2.450836 0.678431
-37.851624 32.799576 1.549164 0.678431
-37.906151 32.833649 0.649683 0.788235
-40.531528 34.474167 0.000089 0.537500
-46.472393 38.186432 -0.000006 0.335539
-49.781734 40.254341 0.000002 0.333701
-51.894386 41.574471 -0.000008 0.561029
-53.362766 42.492020 -0.000015 0.537868
-54.444736 43.168110 0.000016 0.561887
-55.491287 43.766254 3.698316 0.713726
-55.491280 43.766251 3.464353 0.714461
-55.491283 43.766251 3.233674 0.693505
-55.491280 43.766247 3.005727 0.719363
-55.491280 43.766251 2.779984 0.731373
-55.491280 43.766251 2.555933 0.705024
-55.491280 43.766251 2.333083 0.772794
-55.491280 43.766251 2.110948 0.730392
-55.491280 43.766251 1.889052 0.685172
-55.491283 43.766251 1.666917 0.664951
-55.491280 43.766251 1.444066 0.718015
-55.491280 43.766251 1.220017 0.690319
-55.491280 43.766247 0.994273 0.694240
-55.491287 43.766254 0.766327 0.695466
-55.491287 43.766254 0.535649 0.714216
-55.491287 43.766254 0.301685 0.707721
-55.579693 43.766914 3.679570 0.701593
-55.579689 43.766911 3.448190 0.724632
-55.579689 43.766911 3.220057 0.690564
-55.579689 43.766911 2.994627 0.697549
-55.579689 43.766911 2.771374 0.705270
-55.579685 43.766911 2.549797 0.716544
-55.579685 43.766911 2.329407 0.718995
-55.579685 43.766911 2.109724 0.746936
-55.579685 43.766911 1.890276 0.640074
-55.579685 43.766911 1.670593 0.674510
-55.579685 43.766911 1.450202 0.719730
-55.579689 43.766911 1.228626 0.690074
-55.579689 43.766911 1.005373 0.698897
-55.579693 43.766914 0.779944 0.717157
-55.579697 43.766914 0.551811 0.725490
-55.579697 43.766918 0.320430 0.723652
-55.666172 43.767563 3.661314 0.725735
-55.666172 43.767563 3.432448 0.717525
-55.666168 43.767559 3.206796 0.710784
-55.666168 43.767559 2.983816 0.705270
-55.666168 43.767559 2.762990 0.725858
-55.666168 43.767559 2.543821 0.718505
-55.666168 43.767559 2.325826 0.736520
-55.666168 43.767559 2.108531 0.746446
-55.666168 43.767559 1.891469 0.706985
-55.666168 43.767559 1.674174 0.680637
-55.666168 43.767559 1.456179 0.727083
-55.666168 43.767559 1.237010 0.731495
-55.666176 43.767563 1.016186 0.696446
-55.666176 43.767563 0.793205 0.725245
-55.666176 43.767567 0.567553 0.714338
-55.666164 43.767559 0.338684 0.700735
-55.750786 43.768188 3.643534 0.597304
-55.750786 43.768188 3.417117 0.734436
-55.750786 43.768188 3.193879 0.650980
-55.750778 43.768185 2.973286 0.779044
-55.750778 43.768185 2.754824 0.731127
-55.750778 43.768185 2.538001 0.719853
-55.750778 43.768185 2.322339 0.744240
-55.750778 43.768185 2.107369 0.740931
-55.750778 43.768185 1.892630 0.667525
-55.750778 43.768185 1.677661 0.680515
-55.750786 43.768188 1.461999 0.768382
-55.750778 43.768185 1.245176 0.715074
-55.750786 43.768188 1.026715 0.687623
-55.750786 43.768188 0.806121 0.772917
-55.750786 43.768188 0.582882 0.801838
-55.750778 43.768185 0.356464 0.823162
-55.833618 43.768810 3.626205 0.726471
-55.833618 43.768810 3.402175 0.766667
-55.833618 43.768810 3.181292 0.581985
-55.833614 43.768806 2.963024 0.702574
-55.833614 43.768806 2.746866 0.748652
-55.833614 43.768806 2.532329 0.725245
-55.833614 43.768806 2.318940 0.739583
