# This PCD file was generated using the MATLAB® pcwrite function
# from Computer Vision Toolbox®.
# .PCD v.7 - Point Cloud Data file format
VERSION .7
FIELDS x y z intensity
SIZE 4 4 4 4
TYPE F F F F
COUNT 1 1 1 1
WIDTH 1247
HEIGHT 1
VIEWPOINT 0 0 0 1 0 0 0
POINTS 1247
DATA ascii
-53.958271 7.406610 1.284565 0.776333
-53.958271 7.406610 1.077502 0.464805
-53.958271 7.406610 0.868419 0.495628
-53.958271 7.406610 0.656830 0.478340
-53.958271 7.406610 0.442228 0.465980
-53.958267 7.450265 3.556590 0.813779
-53.958267 7.450265 3.342151 0.471687
-53.958267 7.450265 3.130722 0.485008
-53.958267 7.450265 2.921798 0.657847
-53.958267 7.450265 2.714893 0.433951
-53.958267 7.450265 2.509540 0.457115
-53.958271 7.450265 2.305287 0.436683
-53.958267 7.450265 2.101690 0.458976
-53.958267 7.450265 1.898310 0.682338
-53.958271 7.450265 1.694713 0.485023
-53.958271 7.450265 1.490460 0.521889
-53.958267 7.450265 1.285107 0.771878
-53.958271 7.450264 1.078202 0.477791
-53.958271 7.450265 0.869277 0.453635
-53.958271 7.450265 0.657849 0.500084
-53.958271 7.450265 0.443409 0.485161
-53.958267 7.493856 3.555487 0.811185
-53.958267 7.493856 3.341199 0.476539
-53.958267 7.493856 3.129921 0.544228
-53.958267 7.493856 2.921144 0.666712
-53.958267 7.493856 2.714386 0.460792
-53.958267 7.493856 2.509179 0.808942
-53.958267 7.493856 2.305070 0.659327
-53.958267 7.493856 2.101617 0.464240
-53.958267 7.493856 1.898382 0.677516
-53.958267 7.493856 1.694929 0.445121
-53.958271 7.493856 1.490821 0.513054
-53.958271 7.493856 1.285614 0.647379
-53.958271 7.493856 1.078855 0.463874
-53.958271 7.493856 0.870079 0.488716
-53.958271 7.493856 0.658800 0.467094
-53.958271 7.493856 0.444513 0.796399
-53.958267 7.537388 3.554460 0.594369
-53.958267 7.537388 3.340315 0.463554
-53.958267 7.537388 3.129176 0.498894
-53.958267 7.537388 2.920537 0.640955
-53.958267 7.537388 2.713915 0.436866
-53.958267 7.537388 2.508843 0.428260
-53.958267 7.537388 2.304869 0.466575
-53.958267 7.537388 2.101550 0.462776
-53.958267 7.537388 1.898450 0.608042
-53.958267 7.537388 1.695131 0.461143
-53.958271 7.537388 1.491157 0.506600
-53.958271 7.537388 1.286085 0.702571
-53.958271 7.537388 1.079463 0.467720
-53.958271 7.537388 0.870824 0.693828
-53.958271 7.537388 0.659685 0.453483
-53.958271 7.537388 0.445539 0.475166
-53.958267 7.580865 3.553511 0.699351
-53.958267 7.580865 3.339497 0.492714
-53.958267 7.580865 3.128486 0.475074
-53.958267 7.580865 2.919975 0.594217
-53.958267 7.580865 2.713479 0.448814
-53.958267 7.580865 2.508532 0.461006
-53.958267 7.580865 2.304683 0.475593
-53.958267 7.580865 2.101488 0.462837
-53.958267 7.580865 1.898512 0.612406
-53.958267 7.580865 1.695317 0.454246
-53.958271 7.580865 1.491467 0.519066
-53.958267 7.580865 1.286521 0.728908
-53.958271 7.580864 1.080025 0.470039
-53.958271 7.580864 0.871513 0.694774
-53.958271 7.580864 0.660503 0.470741
-53.958271 7.580864 0.446488 0.505516
-53.958267 7.624290 3.552639 0.805920
-53.958267 7.624290 3.338744 0.481285
-53.958267 7.624290 3.127852 0.462425
-53.958267 7.624290 2.919458 0.676280
-53.958267 7.624290 2.713078 0.457603
-53.958267 7.624290 2.508246 0.427619
-53.958267 7.624290 2.304512 0.654978
-53.958267 7.624290 2.101431 0.655024
-53.958267 7.624290 1.898569 0.675715
-53.958267 7.624290 1.695488 0.492790
-53.958267 7.624290 1.491753 0.466148
-53.958271 7.624290 1.286922 0.622690
-53.958271 7.624290 1.080541 0.470359
-53.958271 7.624290 0.872147 0.850660
-53.958271 7.624290 0.661255 0.538598
-53.958271 7.624290 0.447360 0.490806
-53.958267 7.667669 3.551843 0.750973
-53.958267 7.667669 3.338058 0.452476
-53.958267 7.667669 3.127274 0.491203
-53.958267 7.667669 2.918987 0.722576
-53.958267 7.667669 2.712713 0.521675
-53.958267 7.667669 2.507986 0.437308
-53.958267 7.667669 2.304356 0.649714
-53.958267 7.667669 2.101380 0.444465
-53.958267 7.667669 1.898621 0.715526
-53.958271 7.667669 1.695644 0.479072
-53.958267 7.667669 1.492014 0.459419
-53.958271 7.667669 1.287287 0.726192
-53.958271 7.667669 1.081013 0.453605
-53.958271 7.667669 0.872725 0.557351
-53.958271 7.667669 0.661942 0.462379
-53.958271 7.667669 0.448156 0.514382
-53.958267 7.711006 3.551124 0.732372
-53.958267 7.711006 3.337438 0.445884
-53.958267 7.711006 3.126751 0.495842
-53.958267 7.711006 2.918561 0.430152
-53.958267 7.711006 2.712382 0.457969
-53.958267 7.711006 2.507751 0.430152
-53.958267 7.711006 2.304215 0.740612
-53.958271 7.711006 2.101332 0.445747
-53.958271 7.711006 1.898667 0.679927
-53.958271 7.711006 1.695785 0.491417
-53.958271 7.711006 1.492249 0.482063
-53.958271 7.711006 1.287618 0.720195
-53.958271 7.711006 1.081439 0.453788
-53.958271 7.711006 0.873248 0.677714
-53.958271 7.711006 0.662562 0.454032
-53.958271 7.711006 0.448875 0.492668
-53.958267 7.754304 3.550480 0.809262
-53.958267 7.754304 3.336883 0.466453
-53.958267 7.754304 3.126284 0.542412
-53.958267 7.754304 2.918180 0.424506
-53.958267 7.754304 2.712087 0.456626
-53.958267 7.754304 2.507540 0.458427
-53.958267 7.754304 2.304088 0.702815
-53.958267 7.754304 2.101290 0.467079
-53.958267 7.754304 1.898710 0.732265
-53.958267 7.754304 1.695911 0.598154
-53.958267 7.754304 1.492460 0.454612
-53.958271 7.754304 1.287913 0.740993
-53.958267 7.754304 1.081820 0.478538
-53.958271 7.754304 0.873715 0.658869
-53.958271 7.754304 0.663116 0.451728
-53.958271 7.754304 0.449519 0.473213
-53.958267 7.797569 3.549914 0.798505
-53.958267 7.797569 3.336394 0.504463
-53.958267 7.797569 3.125872 0.487221
-53.958267 7.797569 2.917844 0.426200
-53.958267 7.797569 2.711826 0.472648
-53.958267 7.797569 2.507354 0.491661
-53.958267 7.797569 2.303977 0.802060
-53.958271 7.797569 2.101254 0.474647
-53.958271 7.797569 1.898747 0.654246
-53.958271 7.797569 1.696023 0.455985
-53.958267 7.797569 1.492645 0.462379
-53.958271 7.797569 1.288174 0.708324
-53.958267 7.797569 1.082156 0.619074
-53.958271 7.797569 0.874127 0.551522
-53.958271 7.797569 0.663606 0.467857
-53.958271 7.797569 0.450085 0.484276
-53.958267 7.840804 3.549422 0.492607
-53.958267 7.840804 3.335970 0.491341
-53.958267 7.840804 3.125515 0.497200
-53.958267 7.840804 2.917553 0.450980
-53.958267 7.840804 2.711601 0.472267
-53.958267 7.840804 2.507194 0.467384
-53.958271 7.840804 2.303881 0.653590
-53.958267 7.840804 2.101221 0.470420
-53.958267 7.840804 1.898779 0.650462
-53.958271 7.840804 1.696119 0.467552
-53.958271 7.840804 1.492806 0.460914
-53.958271 7.840804 1.288399 0.669230
-53.958271 7.840804 1.082447 0.508095
-53.958271 7.840804 0.874484 0.558328
-53.958271 7.840804 0.664029 0.452262
-53.958271 7.840804 0.450577 0.491432
-53.958267 7.884014 3.549007 0.514443
-53.958267 7.884014 3.335612 0.448829
-53.958267 7.884014 3.125214 0.492973
-53.958267 7.884014 2.917307 0.515831
-53.958267 7.884014 2.711410 0.441718
-53.958267 7.884014 2.507058 0.454063
-53.958267 7.884014 2.303800 0.592447
-53.958271 7.884014 2.101194 0.461677
-53.958271 7.884014 1.898806 0.632700
-53.958271 7.884014 1.696200 0.439902
-53.958271 7.884014 1.492942 0.463630
-53.958267 7.884014 1.288590 0.638590
-53.958271 7.884014 1.082693 0.451667
-53.958271 7.884014 0.874786 0.654597
-53.958271 7.884014 0.664388 0.453712
-53.958271 7.884014 0.450992 0.495949
-53.958267 7.927203 3.548667 0.810056
-53.958267 7.927203 3.335319 0.805325
-53.958267 7.927203 3.124967 0.484565
-53.958267 7.927203 2.917106 0.754910
-53.958267 7.927203 2.711254 0.831632
-53.958267 7.927203 2.506947 0.465415
-53.958267 7.927203 2.303733 0.654887
-53.958271 7.927203 2.101172 0.799893
-53.958271 7.927203 1.898828 0.728695
-53.958267 7.927203 1.696267 0.450767
-53.958271 7.927203 1.493053 0.816846
-53.958271 7.927203 1.288746 0.786084
-53.958271 7.927203 1.082894 0.428916
-53.958271 7.927203 0.875033 0.788861
-53.958271 7.927203 0.664680 0.562249
-53.958271 7.927203 0.451332 0.495033
-53.958267 7.970375 3.548403 0.544488
-53.958267 7.970375 3.335092 0.498375
-53.958267 7.970375 3.124775 0.457191
-53.958267 7.970375 2.916950 0.511223
-53.958267 7.970375 2.711133 0.418540
-53.958267 7.970375 2.506860 0.478798
-53.958267 7.970375 2.303681 0.752392
-53.958271 7.970375 2.101155 0.468910
-53.958271 7.970375 1.898845 0.642893
-53.958267 7.970375 1.696319 0.444450
-53.958271 7.970375 1.493140 0.460227
-53.958271 7.970375 1.288867 0.540276
-53.958271 7.970375 1.083050 0.460090
-53.958271 7.970375 0.875225 0.534035
-53.958271 7.970375 0.664908 0.429099
-53.958271 7.970375 0.451596 0.492195
-53.958267 8.013535 3.548214 0.489830
-53.958267 8.013535 3.334929 0.447196
-53.958267 8.013535 3.124638 0.455848
-53.958267 8.013535 2.916838 0.432151
-53.958267 8.013535 2.711046 0.423484
-53.958267 8.013535 2.506798 0.475456
-53.958267 8.013535 2.303644 0.673625
-53.958267 8.013535 2.101142 0.470909
-53.958267 8.013535 1.898858 0.641138
-53.958271 8.013535 1.696356 0.437720
-53.958267 8.013535 1.493202 0.429953
-53.958271 8.013535 1.288954 0.504601
-53.958271 8.013535 1.083162 0.463401
-53.958271 8.013535 0.875362 0.665263
-53.958271 8.013535 0.665071 0.431617
-53.958271 8.013535 0.451785 0.505470
-53.958267 8.056685 3.548101 0.555001
-53.958267 8.056685 3.334831 0.430014
-53.958267 8.056685 3.124556 0.765133
-53.958267 8.056685 2.916770 0.460945
-53.958267 8.056685 2.710994 0.447807
-53.958267 8.056685 2.506761 0.502541
-53.958267 8.056685 2.303622 0.741390
-53.958267 8.056685 2.101135 0.470558
-53.958271 8.056685 1.898865 0.806165
-53.958271 8.056685 1.696378 0.735378
-53.958271 8.056685 1.493239 0.404700
-53.958271 8.056685 1.289006 0.522194
-53.958271 8.056685 1.083229 0.482811
-53.958271 8.056685 0.875444 0.627085
-53.958271 8.056685 0.665169 0.435782
-53.958271 8.056685 0.451898 0.703792
-53.958267 8.099832 3.548063 0.543069
-53.958267 8.099832 3.334798 0.477684
-53.958267 8.099832 3.124528 0.486763
-53.958267 8.099832 2.916748 0.468421
-53.958267 8.099832 2.710976 0.458701
-53.958267 8.099832 2.506749 0.456657
-53.958267 8.099832 2.303614 0.671916
-53.958267 8.099832 2.101132 0.459922
-53.958267 8.099832 1.898867 0.657938
-53.958271 8.099832 1.696385 0.452064
-53.958271 8.099832 1.493251 0.447349
-53.958271 8.099832 1.289023 0.492149
-53.958271 8.099832 1.083251 0.485527
-53.958271 8.099832 0.875471 0.653315
-53.958271 8.099832 0.665201 0.461906
-53.958271 8.099832 0.451936 0.489586
-53.958267 8.142979 3.548101 0.540841
-53.958267 8.142979 3.334831 0.463951
-53.958267 8.142979 3.124556 0.477653
-53.958267 8.142979 2.916770 0.437964
-53.958267 8.142979 2.710994 0.422171
-53.958267 8.142979 2.506761 0.442451
-53.958267 8.142979 2.303622 0.705653
-53.958267 8.142979 2.101135 0.468544
-53.958271 8.142979 1.898865 0.640970
-53.958271 8.142979 1.696378 0.461387
-53.958271 8.142979 1.493239 0.444831
-53.958271 8.142979 1.289006 0.527565
-53.958271 8.142979 1.083229 0.452293
-53.958271 8.142979 0.875444 0.788495
-53.958271 8.142979 0.665169 0.471977
-53.958271 8.142979 0.451898 0.464469
-53.958267 8.186130 3.548214 0.548074
-53.958267 8.186130 3.334929 0.481727
-53.958267 8.186130 3.124638 0.469688
-53.958267 8.186130 2.916838 0.520073
-53.958267 8.186130 2.711046 0.460822
-53.958267 8.186130 2.506798 0.436530
-53.958267 8.186130 2.303644 0.710552
-53.958267 8.186130 2.101142 0.481315
-53.958267 8.186130 1.898858 0.621439
-53.958271 8.186130 1.696356 0.443900
-53.958267 8.186130 1.493202 0.496880
-53.958271 8.186130 1.288954 0.530373
-53.958271 8.186130 1.083162 0.527276
-53.958271 8.186130 0.875362 0.737942
-53.958271 8.186130 0.665071 0.645335
-53.958271 8.186130 0.451785 0.459617
-53.958267 8.229289 3.548403 0.596002
-53.958267 8.229289 3.335092 0.563546
-53.958267 8.229289 3.124775 0.462760
-53.958267 8.229289 2.916950 0.831601
-53.958267 8.229289 2.711132 0.452125
-53.958267 8.229289 2.506860 0.432547
-53.958267 8.229289 2.303681 0.734997
-53.958271 8.229289 2.101155 0.519356
-53.958271 8.229289 1.898845 0.677241
-53.958267 8.229289 1.696319 0.434806
-53.958271 8.229289 1.493140 0.459098
-53.958271 8.229289 1.288867 0.803800
-53.958271 8.229289 1.083050 0.507042
-53.958271 8.229289 0.875224 0.789837
-53.958271 8.229289 0.664908 0.472938
-53.958271 8.229289 0.451596 0.479103
-53.958267 8.272461 3.548667 0.555230
-53.958267 8.272461 3.335319 0.502892
-53.958267 8.272461 3.124967 0.454948
-53.958267 8.272461 2.917106 0.586465
-53.958267 8.272461 2.711254 0.464820
-53.958267 8.272461 2.506947 0.433143
-53.958267 8.272461 2.303733 0.745632
-53.958267 8.272461 2.101172 0.489998
-53.958267 8.272461 1.898828 0.698421
-53.958267 8.272461 1.696267 0.437400
-53.958271 8.272461 1.493053 0.459861
-53.958271 8.272461 1.288746 0.498970
-53.958271 8.272461 1.082894 0.495674
-53.958271 8.272461 0.875033 0.799268
-53.958271 8.272461 0.664680 0.462287
-53.958271 8.272461 0.451332 0.448676
-53.958267 8.315650 3.549007 0.572976
-53.958267 8.315650 3.335612 0.494209
-53.958267 8.315650 3.125214 0.538888
-53.958267 8.315650 2.917307 0.489372
-53.958267 8.315650 2.711410 0.424048
-53.958267 8.315650 2.507058 0.430579
-53.958267 8.315650 2.303800 0.755093
-53.958271 8.315650 2.101194 0.475181
-53.958271 8.315650 1.898806 0.763867
-53.958271 8.315650 1.696200 0.420218
-53.958271 8.315650 1.492942 0.460288
-53.958267 8.315650 1.288590 0.607645
-53.958271 8.315650 1.082693 0.504509
-53.958271 8.315650 0.874786 0.793149
-53.958271 8.315650 0.664388 0.459785
-53.958271 8.315650 0.450992 0.478447
-53.958267 8.358859 3.549422 0.577401
-53.958267 8.358859 3.335970 0.479469
-53.958267 8.358859 3.125515 0.470726
-53.958267 8.358859 2.917553 0.453208
-53.958267 8.358859 2.711601 0.421454
-53.958267 8.358859 2.507194 0.802625
-53.958271 8.358859 2.303881 0.804196
-53.958267 8.358859 2.101221 0.469734
-53.958267 8.358859 1.898779 0.725704
-53.958271 8.358859 1.696119 0.502602
-53.958271 8.358859 1.492806 0.458595
-53.958271 8.358859 1.288399 0.703502
-53.958271 8.358859 1.082447 0.488365
-53.958271 8.358859 0.874484 0.786648
-53.958271 8.358859 0.664029 0.452399
-53.958271 8.358859 0.450577 0.489281
-53.958267 8.402095 3.549914 0.836988
-53.958267 8.402095 3.336394 0.458183
-53.958267 8.402095 3.125872 0.473518
-53.958267 8.402095 2.917844 0.469108
-53.958267 8.402095 2.711826 0.434012
-53.958267 8.402095 2.507354 0.466377
-53.958267 8.402095 2.303977 0.665232
-53.958271 8.402095 2.101254 0.470481
-53.958271 8.402095 1.898747 0.644190
-53.958271 8.402095 1.696023 0.469825
-53.958267 8.402095 1.492645 0.462104
-53.958271 8.402095 1.288173 0.573281
-53.958267 8.402095 1.082156 0.448722
-53.958271 8.402095 0.874127 0.796246
-53.958271 8.402095 0.663606 0.467231
-53.958271 8.402095 0.450085 0.462287
-53.958267 8.445359 3.550480 0.834562
-53.958267 8.445359 3.336883 0.456535
-53.958267 8.445359 3.126284 0.471138
-53.958267 8.445359 2.918180 0.508217
-53.958267 8.445359 2.712087 0.423346
-53.958267 8.445359 2.507540 0.464378
-53.958267 8.445359 2.304088 0.627787
-53.958267 8.445359 2.101290 0.465156
-53.958267 8.445359 1.898710 0.650919
-53.958267 8.445359 1.695911 0.461463
-53.958267 8.445359 1.492460 0.459770
-53.958271 8.445359 1.287913 0.569116
-53.958267 8.445359 1.081820 0.416541
-53.958271 8.445359 0.873715 0.709377
-53.958271 8.445359 0.663116 0.456168
-53.958271 8.445359 0.449519 0.466438
-53.958267 8.488658 3.551124 0.820951
-53.958267 8.488658 3.337438 0.503761
-53.958267 8.488658 3.126751 0.461387
-53.958267 8.488658 2.918561 0.471870
-53.958267 8.488658 2.712382 0.835843
-53.958267 8.488658 2.507751 0.474235
-53.958271 8.488658 2.304215 0.657572
-53.958271 8.488658 2.101332 0.469459
-53.958271 8.488658 1.898667 0.700755
-53.958271 8.488658 1.695785 0.431449
-53.958271 8.488658 1.492249 0.625422
-53.958271 8.488658 1.287618 0.606973
-53.958271 8.488658 1.081439 0.438911
-53.958271 8.488658 0.873248 0.807279
-53.958271 8.488658 0.662562 0.736156
-53.958271 8.488658 0.448875 0.462837
-53.958267 8.531995 3.551843 0.837339
-53.958267 8.531995 3.338058 0.457359
-53.958267 8.531995 3.127274 0.472465
-53.958267 8.531995 2.918987 0.712734
-53.958267 8.531995 2.712713 0.436149
-53.958267 8.531995 2.507986 0.486534
-53.958267 8.531995 2.304356 0.716564
-53.958267 8.531995 2.101380 0.439689
-53.958267 8.531995 1.898621 0.680400
-53.958271 8.531995 1.695644 0.423026
-53.958267 8.531995 1.492014 0.432898
-53.958271 8.531995 1.287287 0.534798
-53.958271 8.531995 1.081013 0.455940
-53.958271 8.531995 0.872725 0.726772
-53.958271 8.531995 0.661942 0.461128
-53.958271 8.531995 0.448156 0.470222
-53.958267 8.575374 3.552639 0.805844
-53.958267 8.575374 3.338744 0.468635
-53.958267 8.575374 3.127852 0.482139
-53.958267 8.575374 2.919458 0.682094
-53.958267 8.575374 2.713078 0.428000
-53.958267 8.575374 2.508246 0.502068
-53.958267 8.575374 2.304512 0.644022
-53.958267 8.575374 2.101432 0.444434
-53.958267 8.575374 1.898569 0.653742
-53.958271 8.575374 1.695488 0.427070
-53.958267 8.575374 1.491753 0.457618
-53.958271 8.575374 1.286922 0.459220
-53.958271 8.575374 1.080541 0.439017
-53.958271 8.575374 0.872147 0.704479
-53.958271 8.575374 0.661255 0.456291
-53.958271 8.575374 0.447360 0.472999
-53.958267 8.618799 3.553511 0.838483
-53.958267 8.618799 3.339497 0.439338
-53.958267 8.618799 3.128486 0.798764
-53.958267 8.618799 2.919975 0.762875
-53.958267 8.618799 2.713479 0.433906
-53.958267 8.618799 2.508532 0.488884
-53.958267 8.618799 2.304683 0.473777
-53.958267 8.618799 2.101488 0.443778
-53.958267 8.618799 1.898512 0.708263
-53.958267 8.618799 1.695317 0.494041
-53.958271 8.618799 1.491467 0.447837
-53.958271 8.618799 1.286521 0.545434
-53.958271 8.618799 1.080025 0.431952
-53.958271 8.618799 0.871513 0.699245
-53.958271 8.618799 0.660503 0.510292
-53.958271 8.618799 0.446488 0.468849
-53.958267 8.662275 3.554461 0.811643
-53.958267 8.662275 3.340315 0.437888
-53.958267 8.662276 3.129176 0.460563
-53.958267 8.662275 2.920537 0.762982
-53.958267 8.662276 2.713915 0.434699
-53.958267 8.662276 2.508843 0.454246
-53.958267 8.662275 2.304869 0.572580
-53.958267 8.662275 2.101550 0.454566
-53.958267 8.662275 1.898450 0.715694
-53.958267 8.662275 1.695131 0.442786
-53.958271 8.662276 1.491157 0.445380
-53.958271 8.662276 1.286085 0.506035
-53.958271 8.662276 1.079463 0.703105
-53.958271 8.662276 0.870824 0.744137
-53.958271 8.662276 0.659685 0.457847
-53.958271 8.662276 0.445539 0.464012
-53.958267 8.705808 3.555487 0.806195
-53.958267 8.705808 3.341199 0.420554
-53.958267 8.705808 3.129921 0.471916
-53.958267 8.705808 2.921144 0.788266
-53.958267 8.705808 2.714386 0.423865
-53.958267 8.705808 2.509179 0.478889
-53.958267 8.705808 2.305070 0.514031
-53.958267 8.705808 2.101617 0.461830
-53.958267 8.705808 1.898382 0.712474
-53.958267 8.705808 1.694929 0.438788
-53.958271 8.705808 1.490821 0.457435
-53.958271 8.705808 1.285614 0.602716
-53.958271 8.705808 1.078855 0.466743
-53.958271 8.705808 0.870079 0.524681
-53.958271 8.705808 0.658800 0.442542
-53.958271 8.705808 0.444512 0.483619
-53.958267 8.749399 3.556590 0.715434
-53.958267 8.749399 3.342151 0.447288
-53.958267 8.749399 3.130722 0.492668
-53.958267 8.749399 2.921798 0.788464
-53.958267 8.749399 2.714893 0.437354
-53.958267 8.749399 2.509540 0.468727
-53.958271 8.749399 2.305287 0.510094
-53.958267 8.749399 2.101690 0.471382
-53.958271 8.749399 1.898310 0.794522
-53.958271 8.749399 1.694713 0.459297
-53.958271 8.749399 1.490460 0.461891
-53.958267 8.749399 1.285107 0.631571
-53.958271 8.749399 1.078202 0.413230
-53.958271 8.749399 0.869277 0.500252
-53.958271 8.749399 0.657848 0.453635
-53.958271 8.749399 0.443409 0.434577
-53.958267 8.793055 3.557772 0.699687
-53.958267 8.793055 3.343169 0.718578
-53.958267 8.793055 3.131580 0.493446
-53.958267 8.793055 2.922497 0.728771
-53.958267 8.793055 2.715435 0.782925
-53.958267 8.793055 2.509927 0.487236
-53.958267 8.793055 2.305518 0.529625
-53.958267 8.793055 2.101767 0.718807
-53.958267 8.793055 1.898233 0.703700
-53.958271 8.793055 1.694481 0.460914
-53.958271 8.793055 1.490073 0.825940
-53.958271 8.793055 1.284565 0.592218
-53.958271 8.793055 1.077502 0.446754
-53.958271 8.793055 0.868419 0.843381
-53.958271 8.793055 0.656830 0.562814
-53.958271 8.793055 0.442228 0.465080
-53.958267 8.836778 3.559030 0.772732
-53.958267 8.836778 3.344255 0.476402
-53.958267 8.836778 3.132495 0.493751
-53.958267 8.836778 2.923243 0.727199
-53.958267 8.836778 2.716013 0.431098
-53.958267 8.836778 2.510339 0.466163
-53.958267 8.836778 2.305765 0.479347
-53.958267 8.836778 2.101849 0.428275
-53.958271 8.836778 1.898151 0.693217
-53.958271 8.836778 1.694234 0.471427
-53.958271 8.836778 1.489661 0.448844
-53.958271 8.836778 1.283987 0.772946
-53.958271 8.836778 1.076757 0.463111
-53.958271 8.836778 0.867505 0.581491
-53.958271 8.836778 0.655745 0.465431
-53.958271 8.836778 0.440969 0.464195
-53.958267 8.880574 3.560367 0.695583
-53.958267 8.880574 3.345408 0.472511
-53.958267 8.880574 3.133466 0.480674
-53.958267 8.880574 2.924034 0.721202
-53.958267 8.880574 2.716627 0.435309
-53.958267 8.880574 2.510776 0.470710
-53.958267 8.880574 2.306028 0.477089
-53.958267 8.880574 2.101936 0.453285
-53.958271 8.880574 1.898064 0.628626
-53.958271 8.880575 1.693972 0.479805
-53.958267 8.880575 1.489223 0.467201
-53.958267 8.880575 1.283373 0.689815
-53.958271 8.880575 1.075965 0.469551
-53.958271 8.880575 0.866534 0.552117
-53.958271 8.880575 0.654592 0.745327
-53.958271 8.880575 0.439632 0.468910
-53.958267 8.924449 3.561783 0.667216
-53.958267 8.924449 3.346628 0.477317
-53.958267 8.924449 3.134494 0.775708
-53.958267 8.924449 2.924873 0.750271
-53.958267 8.924449 2.717278 0.427817
-53.958267 8.924449 2.511240 0.464607
-53.958267 8.924449 2.306305 0.553933
-53.958267 8.924449 2.102029 0.441062
-53.958267 8.924449 1.897971 0.725856
-53.958267 8.924449 1.693695 0.711894
-53.958267 8.924449 1.488760 0.468772
-53.958271 8.924449 1.282722 0.628016
-53.958271 8.924449 1.075127 0.468299
-53.958271 8.924449 0.865505 0.548867
-53.958271 8.924449 0.653372 0.640101
-53.958271 8.924449 0.438217 0.784878
-53.958267 8.968404 3.563277 0.816602
-53.958267 8.968404 3.347917 0.491188
-53.958267 8.968404 3.135580 0.471687
-53.958267 8.968404 2.925758 0.779232
-53.958267 8.968404 2.717964 0.443687
-53.958267 8.968405 2.511729 0.467536
-53.958267 8.968404 2.306598 0.506020
-53.958267 8.968404 2.102126 0.437934
-53.958267 8.968404 1.897874 0.724712
-53.958267 8.968404 1.693402 0.411032
-53.958271 8.968405 1.488271 0.475654
-53.958271 8.968405 1.282036 0.771649
-53.958271 8.968405 1.074242 0.389044
-53.958271 8.968405 0.864420 0.492699
-53.958271 8.968405 0.652083 0.511055
-53.958271 8.968405 0.436723 0.406378
-53.958267 9.012446 3.564850 0.734936
-53.958267 9.012446 3.349273 0.465400
-53.958267 9.012446 3.136723 0.457420
-53.958267 9.012446 2.926689 0.770001
-53.958267 9.012446 2.718686 0.479133
-53.958267 9.012446 2.512244 0.476112
-53.958267 9.012446 2.306907 0.461021
-53.958267 9.012446 2.102229 0.427955
-53.958267 9.012446 1.897771 0.716899
-53.958267 9.012446 1.693093 0.428443
-53.958271 9.012446 1.487756 0.457328
-53.958271 9.012446 1.281313 0.646006
-53.958271 9.012446 1.073310 0.479606
-53.958271 9.012446 0.863277 0.487526
-53.958271 9.012446 0.650727 0.594430
-53.958271 9.012446 0.435149 0.426963
-53.958267 9.056580 3.566503 0.441550
-53.958267 9.056580 3.350698 0.474510
-53.958267 9.056581 3.137924 0.453880
-53.958267 9.056581 2.927669 0.789700
-53.958267 9.056580 2.719445 0.502708
-53.958267 9.056580 2.512785 0.473777
-53.958267 9.056580 2.307231 0.454292
-53.958267 9.056580 2.102337 0.462440
-53.958267 9.056580 1.897663 0.660975
-53.958271 9.056581 1.692769 0.461646
-53.958271 9.056581 1.487215 0.453101
-53.958271 9.056581 1.280554 0.576791
-53.958271 9.056581 1.072331 0.461311
-53.958271 9.056581 0.862076 0.501167
-53.958271 9.056581 0.649301 0.760479
-53.958271 9.056581 0.433496 0.393500
-53.958267 9.100808 3.568236 0.498421
-53.958267 9.100808 3.352193 0.493004
-53.958267 9.100808 3.139182 0.494072
-53.958267 9.100808 2.928695 0.776196
-53.958267 9.100808 2.720242 0.516747
-53.958271 9.100808 2.513352 0.468894
-53.958267 9.100808 2.307571 0.457008
-53.958267 9.100808 2.102451 0.504646
-53.958267 9.100808 1.897550 0.751324
-53.958267 9.100808 1.692429 0.472816
-53.958271 9.100808 1.486647 0.496162
-53.958271 9.100808 1.279758 0.780880
-53.958271 9.100808 1.071305 0.465156
-53.958271 9.100808 0.860817 0.457206
-53.958271 9.100808 0.647807 0.679286
-53.958271 9.100808 0.431763 0.426459
-53.958267 9.145137 3.570050 0.481926
-53.958267 9.145138 3.353756 0.479789
-53.958267 9.145138 3.140500 0.478660
-53.958267 9.145138 2.929769 0.749050
-53.958267 9.145138 2.721075 0.452506
-53.958267 9.145138 2.513946 0.446159
-53.958267 9.145138 2.307927 0.467323
-53.958271 9.145138 2.102569 0.490990
-53.958271 9.145138 1.897431 0.681086
-53.958267 9.145138 1.692073 0.459937
-53.958271 9.145138 1.486054 0.504738
-53.958267 9.145138 1.278925 0.773434
-53.958271 9.145138 1.070231 0.439719
-53.958271 9.145138 0.859500 0.453834
-53.958271 9.145138 0.646243 0.705150
-53.958271 9.145138 0.429949 0.471183
-53.958267 9.189571 3.571945 0.587594
-53.958267 9.189571 3.355390 0.476707
-53.958267 9.189571 3.141876 0.527550
-53.958267 9.189571 2.930891 0.653056
-53.958267 9.189571 2.721944 0.459190
-53.958267 9.189571 2.514566 0.466438
-53.958267 9.189571 2.308298 0.494774
-53.958271 9.189571 2.102693 0.465660
-53.958271 9.189571 1.897307 0.730938
-53.958267 9.189571 1.691702 0.579080
-53.958271 9.189571 1.485434 0.531090
-53.958271 9.189571 1.278055 0.760937
-53.958271 9.189571 1.069109 0.457954
-53.958271 9.189571 0.858124 0.436225
-53.958271 9.189571 0.644609 0.669398
-53.958271 9.189571 0.428055 0.468528
-53.958267 9.234114 3.573921 0.422110
-53.958267 9.234114 3.357093 0.479103
-53.958267 9.234114 3.143311 0.460914
-53.958267 9.234114 2.932061 0.727108
-53.958267 9.234114 2.722852 0.464897
-53.958267 9.234114 2.515213 0.516091
-53.958267 9.234114 2.308686 0.773190
-53.958271 9.234114 2.102822 0.476814
-53.958271 9.234114 1.897178 0.703120
-53.958267 9.234114 1.691314 0.457008
-53.958267 9.234114 1.484787 0.523308
-53.958271 9.234114 1.277148 0.704082
-53.958271 9.234114 1.067939 0.702541
-53.958271 9.234114 0.856688 0.439078
-53.958271 9.234114 0.642906 0.695277
-53.958271 9.234114 0.426079 0.501503
-53.958267 9.278770 3.575978 0.459892
-53.958267 9.278770 3.358868 0.479179
-53.958267 9.278770 3.144806 0.464500
-53.958267 9.278770 2.933279 0.691615
-53.958267 9.278770 2.723797 0.462852
-53.958271 9.278771 2.515887 0.500252
-53.958271 9.278771 2.309089 0.454429
-53.958267 9.278771 2.102956 0.464210
-53.958271 9.278771 1.897044 0.681529
-53.958271 9.278771 1.690911 0.463462
-53.958271 9.278771 1.484113 0.509194
-53.958271 9.278771 1.276203 0.749371
-53.958271 9.278771 1.066720 0.460822
-53.958271 9.278771 0.855193 0.437201
-53.958271 9.278771 0.641132 0.787625
-53.958271 9.278771 0.424022 0.461418
-53.958267 9.323547 3.578118 0.467933
-53.958267 9.323547 3.360713 0.493690
-53.958267 9.323547 3.146360 0.426047
-53.958267 9.323547 2.934546 0.649104
-53.958267 9.323547 2.724780 0.462928
-53.958267 9.323547 2.516587 0.501671
-53.958267 9.323547 2.309509 0.460624
-53.958271 9.323547 2.103096 0.472618
-53.958271 9.323547 1.896904 0.718257
-53.958271 9.323547 1.690491 0.460136
-53.958267 9.323547 1.483413 0.504372
-53.958271 9.323548 1.275220 0.778561
-53.958271 9.323548 1.065453 0.472419
-53.958271 9.323547 0.853639 0.459846
-53.958271 9.323548 0.639287 0.752941
-53.958271 9.323547 0.421881 0.649393
-53.958267 9.368447 3.580341 0.470832
-53.958267 9.368447 3.362630 0.801404
-53.958267 9.368447 3.147975 0.453910
-53.958267 9.368447 2.935863 0.511452
-53.958267 9.368447 2.725801 0.521050
-53.958267 9.368447 2.517315 0.464530
-53.958267 9.368447 2.309945 0.462760
-53.958267 9.368447 2.103241 0.837217
-53.958267 9.368447 1.896759 0.784970
-53.958271 9.368448 1.690055 0.471504
-53.958271 9.368448 1.482685 0.801801
-53.958271 9.368448 1.274199 0.613931
-53.958271 9.368448 1.064137 0.458793
-53.958271 9.368448 0.852024 0.812772
-53.958271 9.368447 0.637370 0.587655
-53.958271 9.368448 0.419658 0.537896
-53.958267 9.413477 3.582648 0.476539
-53.958267 9.413477 3.364619 0.481346
-53.958267 9.413477 3.149651 0.481041
-53.958271 9.413477 2.937229 0.615488
-53.958267 9.413477 2.726860 0.477638
-53.958271 9.413477 2.518070 0.456794
-53.958267 9.413477 2.310397 0.461463
-53.958267 9.413477 2.103392 0.439292
-53.958267 9.413477 1.896608 0.680095
-53.958267 9.413477 1.689603 0.477485
-53.958271 9.413477 1.481930 0.475700
-53.958267 9.413477 1.273140 0.716350
-53.958271 9.413478 1.062771 0.447120
-53.958271 9.413477 0.850349 0.461509
-53.958271 9.413478 0.635381 0.626886
-53.958271 9.413477 0.417352 0.754406
-53.958267 9.458640 3.585038 0.479728
-53.958267 9.458641 3.366680 0.473808
-53.958267 9.458640 3.151387 0.504967
-53.958267 9.458641 2.938645 0.600305
-53.958267 9.458641 2.727958 0.471946
-53.958267 9.458640 2.518852 0.505226
-53.958271 9.458641 2.310866 0.437034
-53.958267 9.458641 2.103548 0.464256
-53.958267 9.458641 1.896452 0.744030
-53.958271 9.458641 1.689134 0.476234
-53.958267 9.458641 1.481147 0.477974
-53.958271 9.458641 1.272042 0.719448
-53.958271 9.458641 1.061355 0.434211
-53.958271 9.458641 0.848612 0.463737
-53.958271 9.458641 0.633319 0.510521
-53.958271 9.458641 0.414961 0.759991
-53.958267 9.503942 3.587514 0.832166
-53.958267 9.503942 3.368814 0.464744
-53.958267 9.503942 3.153185 0.740261
-53.958267 9.503942 2.940110 0.654459
-53.958267 9.503942 2.729095 0.471290
-53.958267 9.503942 2.519663 0.832349
-53.958271 9.503942 2.311352 0.450370
-53.958267 9.503942 2.103710 0.463798
-53.958267 9.503942 1.896290 0.819944
-53.958271 9.503943 1.688648 0.773220
-53.958267 9.503942 1.480337 0.461143
-53.958271 9.503942 1.270905 0.782101
-53.958267 9.503942 1.059889 0.453590
-53.958271 9.503942 0.846814 0.474250
-53.958271 9.503943 0.631185 0.613214
-53.958271 9.503942 0.412486 0.848173
-53.958267 9.549388 3.590075 0.450416
-53.958267 9.549388 3.371022 0.472313
-53.958267 9.549388 3.155046 0.522774
-53.958267 9.549389 2.941627 0.482780
-53.958267 9.549389 2.730271 0.461433
-53.958267 9.549389 2.520501 0.667262
-53.958267 9.549389 2.311854 0.446723
-53.958271 9.549389 2.103877 0.461891
-53.958271 9.549389 1.896123 0.700648
-53.958267 9.549389 1.688146 0.468315
-53.958271 9.549389 1.479499 0.473442
-53.958271 9.549389 1.269729 0.807843
-53.958271 9.549389 1.058373 0.547417
-53.958267 9.549389 0.844954 0.466835
-53.958271 9.549389 0.628977 0.477073
-53.958271 9.549389 0.409925 0.799466
-53.958267 9.594982 3.592721 0.471382
-53.958267 9.594983 3.373305 0.461738
-53.958267 9.594983 3.156969 0.710048
-53.958267 9.594983 2.943195 0.454673
-53.958267 9.594983 2.731487 0.444526
-53.958267 9.594983 2.521368 0.460105
-53.958267 9.594983 2.312373 0.439307
-53.958267 9.594983 2.104050 0.471366
-53.958267 9.594983 1.895950 0.728847
-53.958267 9.594983 1.687627 0.469230
-53.958271 9.594983 1.478632 0.470756
-53.958271 9.594983 1.268513 0.582330
-53.958271 9.594983 1.056805 0.532845
-53.958271 9.594983 0.843031 0.469825
-53.958271 9.594983 0.626695 0.466133
-53.958271 9.594983 0.407278 0.775372
-53.958267 9.640733 3.595455 0.472175
-53.958267 9.640733 3.375661 0.643030
-53.958267 9.640733 3.158954 0.725261
-53.958267 9.640733 2.944813 0.540429
-53.958267 9.640733 2.732742 0.682841
-53.958267 9.640734 2.522262 0.431861
-53.958267 9.640733 2.312909 0.456519
-53.958267 9.640733 2.104228 0.537316
-53.958267 9.640733 1.895771 0.700191
-53.958271 9.640734 1.687091 0.432944
-53.958271 9.640734 1.477738 0.654551
-53.958271 9.640734 1.267258 0.530816
-53.958271 9.640734 1.055186 0.460792
-53.958271 9.640734 0.841045 0.704753
-53.958271 9.640734 0.624338 0.475074
-53.958271 9.640734 0.404544 0.734249
-53.958267 9.686642 3.598276 0.471305
-53.958267 9.686642 3.378094 0.476493
-53.958267 9.686642 3.161003 0.723781
-53.958267 9.686642 2.946484 0.508751
-53.958267 9.686642 2.734038 0.437385
-53.958267 9.686642 2.523186 0.422889
-53.958267 9.686642 2.313462 0.471702
-53.958267 9.686642 2.104413 0.480751
-53.958267 9.686642 1.895587 0.701717
-53.958267 9.686642 1.686538 0.448585
-53.958267 9.686642 1.476814 0.477348
-53.958271 9.686642 1.265962 0.542245
-53.958267 9.686642 1.053516 0.465064
-53.958271 9.686642 0.838996 0.466987
-53.958271 9.686642 0.621905 0.502525
-53.958271 9.686642 0.401723 0.575021
-53.958267 9.732716 3.601185 0.469429
-53.958267 9.732716 3.380603 0.477409
-53.958267 9.732716 3.163116 0.804166
-53.958267 9.732716 2.948207 0.457099
-53.958267 9.732716 2.735374 0.462959
-53.958267 9.732716 2.524138 0.487312
-53.958267 9.732716 2.314033 0.480522
-53.958267 9.732716 2.104603 0.477073
-53.958267 9.732716 1.895397 0.698375
-53.958267 9.732716 1.685967 0.444984
-53.958271 9.732716 1.475862 0.444236
-53.958271 9.732716 1.264626 0.585321
-53.958271 9.732716 1.051793 0.504601
-53.958267 9.732716 0.836883 0.470100
-53.958271 9.732716 0.619397 0.487480
-53.958271 9.732717 0.398814 0.595789
-53.958267 9.778959 3.604183 0.720821
-53.958267 9.778959 3.383187 0.485451
-53.958267 9.778959 3.165294 0.752895
-53.958267 9.778959 2.949982 0.486244
-53.958267 9.778959 2.736751 0.456580
-53.958267 9.778959 2.525119 0.427192
-53.958267 9.778959 2.314621 0.461738
-53.958267 9.778959 2.104799 0.468299
-53.958267 9.778959 1.895201 0.803189
-53.958267 9.778959 1.685379 0.774716
-53.958267 9.778959 1.474880 0.438483
-53.958267 9.778959 1.263249 0.527428
-53.958271 9.778959 1.050018 0.489372
-53.958271 9.778959 0.834705 0.470298
-53.958271 9.778959 0.616812 0.477546
-53.958271 9.778960 0.395816 0.500374
-53.958267 9.825378 3.607271 0.454658
-53.958267 9.825378 3.385850 0.508080
-53.958267 9.825378 3.167537 0.696056
-53.958267 9.825378 2.951810 0.713848
-53.958267 9.825379 2.738169 0.456519
-53.958267 9.825379 2.526130 0.833204
-53.958267 9.825379 2.315227 0.462211
-53.958267 9.825379 2.105000 0.481910
-53.958267 9.825379 1.895000 0.732418
-53.958271 9.825379 1.684773 0.439643
-53.958267 9.825379 1.473870 0.463539
-53.958271 9.825379 1.261831 0.504219
-53.958271 9.825379 1.048189 0.801251
-53.958271 9.825379 0.832462 0.468299
-53.958271 9.825379 0.614150 0.439872
-53.958271 9.825379 0.392728 0.502953
-53.958267 9.871980 3.610449 0.453437
-53.958267 9.871980 3.388590 0.610468
-53.958267 9.871980 3.169846 0.640162
-53.958267 9.871980 2.953692 0.428733
-53.958267 9.871980 2.739628 0.487663
-53.958267 9.871980 2.527170 0.808774
-53.958267 9.871980 2.315850 0.446586
-53.958267 9.871980 2.105208 0.475059
-53.958267 9.871980 1.894792 0.496712
-53.958267 9.871981 1.684150 0.464118
-53.958267 9.871980 1.472829 0.445182
-53.958271 9.871981 1.260371 0.482261
-53.958267 9.871980 1.046307 0.646082
-53.958271 9.871981 0.830154 0.464759
-53.958271 9.871981 0.611409 0.464164
-53.958271 9.871981 0.389550 0.479805
-53.958267 9.918768 3.613719 0.453574
-53.958267 9.918768 3.391409 0.614939
-53.958267 9.918768 3.172221 0.650660
-53.958267 9.918768 2.955629 0.433845
-53.958267 9.918768 2.741130 0.545769
-53.958267 9.918768 2.528241 0.830427
-53.958267 9.918768 2.316491 0.449104
-53.958267 9.918768 2.105422 0.490959
-53.958267 9.918768 1.894578 0.480308
-53.958267 9.918768 1.683509 0.477729
-53.958271 9.918768 1.471759 0.454765
-53.958267 9.918768 1.258870 0.452064
-53.958271 9.918768 1.044371 0.644388
-53.958271 9.918768 0.827778 0.473030
-53.958271 9.918769 0.608590 0.460670
-53.958271 9.918769 0.386280 0.515999
-53.958267 9.965749 3.617081 0.481621
-53.958267 9.965748 3.394308 0.804974
-53.958267 9.965748 3.174664 0.504189
-53.958267 9.965749 2.957620 0.459236
-53.958267 9.965748 2.742674 0.513893
-53.958271 9.965749 2.529341 0.852796
-53.958267 9.965748 2.317151 0.459556
-53.958267 9.965748 2.105642 0.514946
-53.958267 9.965749 1.894359 0.517754
-53.958267 9.965748 1.682849 0.440497
-53.958271 9.965749 1.470658 0.470649
-53.958271 9.965749 1.257326 0.442008
-53.958271 9.965749 1.042380 0.804654
-53.958271 9.965749 0.825336 0.440940
-53.958271 9.965749 0.605691 0.460288
-53.958271 9.965750 0.382918 0.506889
-53.958267 10.012928 3.620536 0.502678
-53.958267 10.012928 3.397287 0.815381
-53.958267 10.012928 3.177173 0.526802
-53.958267 10.012929 2.959666 0.454841
-53.958267 10.012928 2.744261 0.450980
-53.958267 10.012928 2.530472 0.820798
-53.958267 10.012929 2.317828 0.443137
-53.958267 10.012928 2.105867 0.499153
-53.958267 10.012929 1.894133 0.524880
-53.958271 10.012929 1.682172 0.422263
-53.958271 10.012929 1.469527 0.464027
-53.958267 10.012928 1.255739 0.504158
-53.958271 10.012929 1.040334 0.693248
-53.958271 10.012929 0.822826 0.472526
-53.958271 10.012929 0.602712 0.470680
-53.958271 10.012929 0.379463 0.504189
-53.958267 10.060310 3.624085 0.541161
-53.958267 10.060311 3.400348 0.805508
-53.958267 10.060311 3.179752 0.422156
-53.958267 10.060311 2.961768 0.443626
-53.958267 10.060311 2.745891 0.454704
-53.958267 10.060311 2.531634 0.788342
-53.958267 10.060310 2.318524 0.447852
-53.958267 10.060311 2.106099 0.488807
-53.958267 10.060311 1.893901 0.569818
-53.958267 10.060311 1.681476 0.649561
-53.958271 10.060311 1.468366 0.464103
-53.958267 10.060311 1.254109 0.427543
-53.958267 10.060311 1.038232 0.700282
-53.958271 10.060311 0.820248 0.431037
-53.958271 10.060311 0.599652 0.463371
-53.958267 10.060311 0.375914 0.488899
-53.958267 10.107905 3.627730 0.690059
-53.958267 10.107904 3.403490 0.690806
-53.958267 10.107905 3.182399 0.451026
-53.958267 10.107905 2.963926 0.551339
-53.958267 10.107905 2.747565 0.451118
-53.958267 10.107905 2.532827 0.804425
-53.958267 10.107905 2.319239 0.447044
-53.958267 10.107905 2.106337 0.473060
-53.958267 10.107905 1.893663 0.527581
-53.958267 10.107905 1.680761 0.460212
-53.958267 10.107905 1.467173 0.469871
-53.958267 10.107905 1.252435 0.593576
-53.958267 10.107905 1.036074 0.795972
-53.958271 10.107906 0.817601 0.431327
-53.958271 10.107905 0.596509 0.448829
-53.958271 10.107906 0.372269 0.474983
-53.958267 10.155716 3.631471 0.781369
-53.958267 10.155717 3.406716 0.584131
-53.958267 10.155717 3.185116 0.425818
-53.958267 10.155717 2.966141 0.502571
-53.958267 10.155716 2.749283 0.440192
-53.958267 10.155716 2.534051 0.816678
-53.958267 10.155717 2.319973 0.439261
-53.958267 10.155717 2.106581 0.467247
-53.958267 10.155717 1.893419 0.534539
-53.958267 10.155717 1.680027 0.462776
-53.958267 10.155717 1.465948 0.453010
-53.958267 10.155717 1.250717 0.482551
-53.958271 10.155717 1.033858 0.836011
-53.958271 10.155717 0.814883 0.514290
-53.958271 10.155718 0.593284 0.451133
-53.958271 10.155718 0.368529 0.462745
-53.958267 10.203749 3.635308 0.806622
-53.958267 10.203749 3.410024 0.454704
-53.958267 10.203749 3.187904 0.453605
-53.958267 10.203749 2.968414 0.492424
-53.958267 10.203749 2.751045 0.451301
-53.958267 10.203749 2.535308 0.833982
-53.958267 10.203749 2.320725 0.446097
-53.958267 10.203749 2.106832 0.464698
-53.958267 10.203749 1.893168 0.535180
-53.958267 10.203749 1.679274 0.501045
-53.958267 10.203749 1.464692 0.452720
-53.958267 10.203749 1.248955 0.483772
-53.958267 10.203749 1.031586 0.647501
-53.958267 10.203749 0.812096 0.483757
-53.958271 10.203750 0.589975 0.433371
-53.958271 10.203750 0.364691 0.454932
-53.958267 10.252011 3.639244 0.735103
-53.958267 10.252011 3.413418 0.450675
-53.958267 10.252011 3.190763 0.555016
-53.958267 10.252011 2.970745 0.504158
-53.958267 10.252011 2.752853 0.531060
-53.958267 10.252011 2.536596 0.534554
-53.958267 10.252011 2.321497 0.434638
-53.958267 10.252011 2.107089 0.522957
-53.958267 10.252011 1.892911 0.526268
-53.958267 10.252011 1.678503 0.493828
-53.958267 10.252011 1.463404 0.505837
-53.958271 10.252012 1.247147 0.508812
-53.958271 10.252012 1.029255 0.644495
-53.958271 10.252012 0.809237 0.512032
-53.958271 10.252012 0.586582 0.435569
-53.958271 10.252012 0.360756 0.508354
-53.958267 10.300508 3.643279 0.458717
-53.958267 10.300508 3.416897 0.455207
-53.958267 10.300508 3.193694 0.453529
-53.958267 10.300508 2.973134 0.495521
-53.958267 10.300508 2.754706 0.446937
-53.958267 10.300508 2.537917 0.550881
-53.958267 10.300508 2.322289 0.438743
-53.958267 10.300508 2.107353 0.453025
-53.958267 10.300508 1.892647 0.481559
-53.958267 10.300508 1.677711 0.504112
-53.958271 10.300508 1.462083 0.455970
-53.958271 10.300508 1.245294 0.493309
-53.958271 10.300508 1.026865 0.458244
-53.958271 10.300508 0.806306 0.493523
-53.958271 10.300508 0.583102 0.439384
-53.958271 10.300508 0.356721 0.449042
-53.958267 10.349247 3.647415 0.424262
-53.958267 10.349247 3.420463 0.453162
-53.958267 10.349247 3.196698 0.429862
-53.958267 10.349247 2.975583 0.504250
-53.958267 10.349247 2.756606 0.452384
-53.958271 10.349247 2.539271 0.567620
-53.958271 10.349247 2.323100 0.462516
-53.958267 10.349247 2.107623 0.454292
-53.958267 10.349247 1.892377 0.637491
-53.958271 10.349248 1.676900 0.706188
-53.958271 10.349247 1.460729 0.422080
-53.958271 10.349247 1.243394 0.499199
-53.958271 10.349247 1.024417 0.474876
-53.958267 10.349247 0.803302 0.720439
-53.958271 10.349247 0.579537 0.472557
-53.958271 10.349247 0.352585 0.453666
-53.958267 10.398233 3.651651 0.449149
-53.958267 10.398233 3.424116 0.458976
-53.958267 10.398233 3.199776 0.439536
-53.958267 10.398233 2.978092 0.680995
-53.958267 10.398233 2.758551 0.568399
-53.958267 10.398233 2.540658 0.575097
-53.958267 10.398233 2.323931 0.494118
-53.958267 10.398233 2.107900 0.443946
-53.958267 10.398233 1.892100 0.600641
-53.958271 10.398233 1.676069 0.495888
-53.958267 10.398233 1.459342 0.422873
-53.958267 10.398233 1.241449 0.631403
-53.958271 10.398234 1.021907 0.463752
-53.958271 10.398234 0.800224 0.862318
-53.958271 10.398234 0.575883 0.480186
-53.958271 10.398234 0.348348 0.406592
-53.958267 10.447475 3.655992 0.443931
-53.958267 10.447475 3.427858 0.452903
-53.958267 10.447475 3.202928 0.461845
-53.958267 10.447475 2.980662 0.480964
-53.958267 10.447475 2.760545 0.542214
-53.958267 10.447475 2.542078 0.407874
-53.958267 10.447475 2.324782 0.494240
-53.958267 10.447475 2.108183 0.466087
-53.958267 10.447475 1.891817 0.616464
-53.958267 10.447475 1.675218 0.550774
-53.958267 10.447475 1.457922 0.447837
-53.958271 10.447476 1.239455 0.491707
-53.958267 10.447475 1.019338 0.429786
-53.958271 10.447475 0.797071 0.795117
-53.958271 10.447476 0.572141 0.644343
-53.958271 10.447476 0.344008 0.453391
-53.958267 10.496979 3.660435 0.451728
-53.958267 10.496979 3.431690 0.455985
-53.958267 10.496979 3.206156 0.456748
-53.958267 10.496980 2.983294 0.474022
-53.958267 10.496979 2.762585 0.597513
-53.958267 10.496980 2.543533 0.414542
-53.958267 10.496979 2.325653 0.464027
-53.958267 10.496980 2.108474 0.445472
-53.958267 10.496980 1.891526 0.631128
-53.958267 10.496980 1.674346 0.539345
-53.958267 10.496980 1.456467 0.453407
-53.958267 10.496980 1.237415 0.461112
-53.958271 10.496980 1.016706 0.467781
-53.958267 10.496980 0.793844 0.763058
-53.958267 10.496980 0.568310 0.761028
-53.958271 10.496980 0.339565 0.415076
-53.958267 10.546753 3.664984 0.595148
-53.958267 10.546753 3.435612 0.453727
-53.958267 10.546752 3.209461 0.792111
-53.958267 10.546753 2.985988 0.453208
-53.958267 10.546753 2.764675 0.798108
-53.958267 10.546753 2.545022 0.446586
-53.958267 10.546753 2.326545 0.456382
-53.958267 10.546753 2.108771 0.538018
-53.958267 10.546753 1.891229 0.535821
-53.958267 10.546753 1.673454 0.588296
-53.958271 10.546753 1.454978 0.722301
-53.958271 10.546753 1.235325 0.452476
-53.958267 10.546753 1.014012 0.424216
-53.958271 10.546753 0.790539 0.786664
-53.958271 10.546753 0.564387 0.742947
-53.958271 10.546753 0.335015 0.792752
-53.958267 10.596800 3.669640 0.440696
-53.958267 10.596801 3.439626 0.485435
-53.958267 10.596801 3.212843 0.462516
-53.958267 10.596801 2.988745 0.461311
-53.958267 10.596801 2.766813 0.832670
-53.958267 10.596801 2.546546 0.452171
-53.958267 10.596801 2.327459 0.468849
-53.958267 10.596802 2.109075 0.443458
-53.958267 10.596802 1.890925 0.511437
-53.958267 10.596802 1.672541 0.578225
-53.958267 10.596802 1.453454 0.449149
-53.958267 10.596801 1.233187 0.463767
-53.958267 10.596801 1.011255 0.454978
-53.958271 10.596802 0.787157 0.566125
-53.958271 10.596802 0.560373 0.836423
-53.958271 10.596802 0.330360 0.827085
-53.958267 10.647133 3.674404 0.436194
-53.958267 10.647133 3.443734 0.536309
-53.958267 10.647133 3.216303 0.484047
-53.958267 10.647133 2.991566 0.543053
-53.958267 10.647133 2.769001 0.703548
-53.958267 10.647133 2.548105 0.432135
-53.958267 10.647133 2.328393 0.424079
-53.958267 10.647133 2.109386 0.427436
-53.958267 10.647133 1.890614 0.608789
-53.958267 10.647133 1.671607 0.685176
-53.958271 10.647134 1.451894 0.497810
-53.958267 10.647134 1.230999 0.474342
-53.958271 10.647134 1.008434 0.424231
-53.958271 10.647134 0.783697 0.435233
-53.958271 10.647134 0.556266 0.631281
-53.958271 10.647134 0.325596 0.735546
-53.958267 10.697754 3.679276 0.433906
-53.958267 10.697754 3.447936 0.425299
-53.958267 10.697754 3.219843 0.473930
-53.958267 10.697755 2.994451 0.719890
-53.958267 10.697755 2.771239 0.799908
-53.958267 10.697755 2.549700 0.431373
-53.958267 10.697754 2.329349 0.431724
-53.958267 10.697754 2.109704 0.423636
-53.958267 10.697755 1.890296 0.620996
-53.958267 10.697755 1.670651 0.752575
-53.958267 10.697755 1.450299 0.432761
-53.958267 10.697755 1.228761 0.419608
-53.958267 10.697755 1.005548 0.439200
-53.958271 10.697755 0.780157 0.489769
-53.958271 10.697756 0.552064 0.476753
-53.958271 10.697756 0.320723 0.549310
-53.958267 10.748676 3.684260 0.452171
-53.958267 10.748675 3.452233 0.454170
-53.958267 10.748676 3.223463 0.428946
-53.958267 10.748676 2.997403 0.557290
-53.958267 10.748675 2.773528 0.544396
-53.958267 10.748676 2.551332 0.433234
-53.958267 10.748675 2.330326 0.447791
-53.958267 10.748676 2.110030 0.441840
-53.958267 10.748676 1.889970 0.578546
-53.958267 10.748676 1.669674 0.692851
-53.958267 10.748676 1.448668 0.425376
-53.958267 10.748676 1.226472 0.460868
-53.958267 10.748676 1.002597 0.461357
-53.958271 10.748676 0.776536 0.478248
-53.958271 10.748676 0.547767 0.470832
-53.958271 10.748676 0.315739 0.457481
-53.958267 10.799902 3.689357 0.547707
-53.958267 10.799902 3.456627 0.476402
-53.958267 10.799902 3.227165 0.751354
-53.958267 10.799902 3.000421 0.745541
-53.958267 10.799902 2.775868 0.566461
-53.958267 10.799902 2.553000 0.796841
-53.958271 10.799903 2.331326 0.446036
-53.958267 10.799902 2.110363 0.718303
-53.958267 10.799902 1.889637 0.598993
-53.958271 10.799903 1.668674 0.758022
-53.958271 10.799903 1.447000 0.502815
-53.958271 10.799903 1.224132 0.459480
-53.958271 10.799903 0.999579 0.815015
-53.958271 10.799903 0.772835 0.477287
-53.958271 10.799903 0.543373 0.545342
-53.958271 10.799903 0.310643 0.450980
-53.958267 10.851441 3.694566 0.510369
-53.958267 10.851441 3.461119 0.471748
-53.958267 10.851441 3.230949 0.505669
-53.958267 10.851441 3.003506 0.775051
-53.958267 10.851441 2.778261 0.511940
-53.958267 10.851441 2.554705 0.452552
-53.958267 10.851441 2.332347 0.462913
-53.958267 10.851441 2.110703 0.475853
-53.958267 10.851441 1.889297 0.473640
-53.958271 10.851441 1.667653 0.776471
-53.958267 10.851441 1.445294 0.481575
-53.958271 10.851442 1.221739 0.468528
-53.958271 10.851442 0.996494 0.471656
-53.958271 10.851442 0.769050 0.456535
-53.958271 10.851442 0.538881 0.476066
-53.958271 10.851442 0.305434 0.425620
-53.958267 10.903302 3.699891 0.450507
-53.958267 10.903302 3.465710 0.518471
-53.958267 10.903303 3.234818 0.672099
-53.958267 10.903302 3.006659 0.765301
-53.958267 10.903303 2.780706 0.436545
-53.958267 10.903303 2.556449 0.425589
-53.958267 10.903303 2.333392 0.450950
-53.958267 10.903303 2.111051 0.462852
-53.958267 10.903303 1.888949 0.448066
-53.958267 10.903303 1.666608 0.807843
-53.958267 10.903303 1.443551 0.481758
-53.958271 10.903303 1.219294 0.413550
-53.958271 10.903303 0.993340 0.435492
-53.958271 10.903303 0.765182 0.476631
-53.958271 10.903303 0.534289 0.455787
-53.958271 10.903303 0.300108 0.456550
-53.958267 10.955493 3.705334 0.568994
-53.958267 10.955492 3.470403 0.660273
-53.958267 10.955492 3.238770 0.835050
-53.958267 10.955492 3.009882 0.646815
-53.958267 10.955492 2.783206 0.501854
-53.958267 10.955493 2.558230 0.437903
-53.958267 10.955493 2.334459 0.608209
-53.958267 10.955493 2.111407 0.469032
-53.958267 10.955493 1.888593 0.531731
-53.958267 10.955493 1.665541 0.775799
