# This PCD file was generated using the MATLABÂ® pcwrite function
# from Computer Vision ToolboxÂ®.
# .PCD v.7 - Point Cloud Data file format
VERSION .7
FIELDS x y z intensity
SIZE 4 4 4 4
TYPE F F F F
COUNT 1 1 1 1
WIDTH 1319
HEIGHT 1
VIEWPOINT 0 0 0 1 0 0 0
POINTS 1319
DATA ascii
nan nan nan 0.000000
nan nan nan 0.000000
nan nan nan 0.000000
nan nan nan 0.000000
nan nan nan 0.000000
nan nan nan 0.000000
nan nan nan 0.000000
67.474350 85.846245 0.000002 0.538598
61.158875 70.798401 0.000009 0.544488
58.447426 64.337860 0.000012 0.543236
56.937294 60.739670 0.000014 0.544671
55.973213 58.442562 0.000012 0.576455
55.303139 56.845985 0.000010 0.551797
54.809460 55.669693 0.000009 0.549432
nan nan nan 0.000000
nan nan nan 0.000000
nan nan nan 0.000000
nan nan nan 0.000000
nan nan nan 0.000000
nan nan nan 0.000000
nan nan nan 0.000000
nan nan nan 0.000000
nan nan nan 0.000000
67.736015 85.735321 0.000002 0.545876
61.315655 70.731956 0.000010 0.542168
58.559174 64.290497 0.000012 0.542351
57.023956 60.702942 0.000014 0.514061
56.043861 58.412621 0.000012 0.533059
55.362659 56.820755 0.000010 0.551080
54.860779 55.647942 0.000009 0.569299
nan nan nan 0.000000
nan nan nan 0.000000
nan nan nan 0.000000
nan nan nan 0.000000
nan nan nan 0.000000
nan nan nan 0.000000
nan nan nan 0.000000
nan nan nan 0.000000
nan nan nan 0.000000
67.996925 85.622597 0.000002 0.540673
61.471973 70.664413 0.000010 0.538720
58.670589 64.242355 0.000012 0.546975
57.110367 60.665611 0.000014 0.546883
56.114307 58.382187 0.000012 0.550698
55.422009 56.795116 0.000010 0.499428
54.911949 55.625832 0.000009 0.587961
nan nan nan 0.000000
nan nan nan 0.000000
nan nan nan 0.000000
nan nan nan 0.000000
nan nan nan 0.000000
nan nan nan 0.000000
nan nan nan 0.000000
nan nan nan 0.000000
nan nan nan 0.000000
68.257027 85.508041 0.000003 0.537057
61.627815 70.595787 0.000010 0.544549
58.781662 64.193436 0.000012 0.548455
57.196510 60.627674 0.000014 0.524605
56.184532 58.351257 0.000012 0.541176
55.481171 56.769058 0.000010 0.605478
54.962963 55.603367 0.000009 0.527062
nan nan nan 0.000000
nan nan nan 0.000000
nan nan nan 0.000000
nan nan nan 0.000000
nan nan nan 0.000000
nan nan nan 0.000000
nan nan nan 0.000000
nan nan nan 0.000000
nan nan nan 0.000000
68.516335 85.391678 0.000003 0.546838
61.783176 70.526070 0.000010 0.550729
58.892395 64.143753 0.000012 0.526680
57.282387 60.589138 0.000014 0.558358
56.254543 58.319839 0.000012 0.511345
55.540154 56.742596 0.000010 0.490303
55.013821 55.580547 0.000008 0.594476
nan nan nan 0.000000
nan nan nan 0.000000
nan nan nan 0.000000
nan nan nan 0.000000
nan nan nan 0.000000
nan nan nan 0.000000
nan nan nan 0.000000
nan nan nan 0.000000
nan nan nan 0.000000
68.774818 85.273506 0.000003 0.540902
61.938049 70.455276 0.000009 0.538033
59.002781 64.093292 0.000012 0.540490
57.367996 60.550007 0.000014 0.557916
56.324333 58.287937 0.000012 0.538720
55.598949 56.715717 0.000010 0.539910
55.064518 55.557373 0.000008 0.531914
nan nan nan 0.000000
nan nan nan 0.000000
nan nan nan 0.000000
nan nan nan 0.000000
nan nan nan 0.000000
nan nan nan 0.000000
nan nan nan 0.000000
nan nan nan 0.000000
nan nan nan 0.000000
69.032471 85.153549 0.000003 0.539818
62.092415 70.383392 0.000010 0.542077
59.112808 64.042061 0.000012 0.548608
57.453327 60.510277 0.000013 0.555886
56.393898 58.255547 0.000012 0.551934
55.657555 56.688427 0.000010 0.541146
55.115047 55.533844 0.000008 0.543145
nan nan nan 0.000000
nan nan nan 0.000000
nan nan nan 0.000000
nan nan nan 0.000000
nan nan nan 0.000000
nan nan nan 0.000000
nan nan nan 0.000000
nan nan nan 0.000000
nan nan nan 0.000000
69.289284 85.031769 0.000003 0.537606
62.246277 70.310432 0.000010 0.527123
59.222477 63.990059 0.000012 0.498680
57.538380 60.469948 0.000014 0.531456
56.463234 58.222672 0.000012 0.541192
55.715969 56.660732 0.000010 0.581964
55.165417 55.509960 0.000009 0.566247
nan nan nan 0.000000
nan nan nan 0.000000
nan nan nan 0.000000
nan nan nan 0.000000
nan nan nan 0.000000
nan nan nan 0.000000
nan nan nan 0.000000
nan nan nan 0.000000
nan nan nan 0.000000
69.545227 84.908203 0.000003 0.536583
62.399632 70.236412 0.000010 0.533242
59.331779 63.937298 0.000012 0.553872
57.623146 60.429024 0.000014 0.557794
56.532341 58.189316 0.000011 0.548516
55.774189 56.632629 0.000010 0.484474
55.215614 55.485729 0.000009 0.597360
nan nan nan 0.000000
nan nan nan 0.000000
nan nan nan 0.000000
nan nan nan 0.000000
nan nan nan 0.000000
nan nan nan 0.000000
nan nan nan 0.000000
nan nan nan 0.000000
nan nan nan 0.000000
69.800323 84.782875 0.000003 0.539971
62.552467 70.161316 0.000010 0.537209
59.440708 63.883774 0.000012 0.505806
57.707626 60.387516 0.000014 0.524041
56.601212 58.155476 0.000012 0.554055
55.832211 56.604118 0.000010 0.554681
55.265644 55.461147 0.000009 0.569909
nan nan nan 0.000000
nan nan nan 0.000000
nan nan nan 0.000000
nan nan nan 0.000000
nan nan nan 0.000000
nan nan nan 0.000000
nan nan nan 0.000000
nan nan nan 0.000000
nan nan nan 0.000000
70.054520 84.655746 0.000004 0.538918
62.704773 70.085159 0.000010 0.543313
59.549263 63.829491 0.000012 0.516594
57.791817 60.345421 0.000014 0.533776
56.669846 58.121155 0.000011 0.544793
55.890030 56.575207 0.000010 0.572259
55.315498 55.436218 0.000009 0.527657
nan nan nan 0.000000
nan nan nan 0.000000
nan nan nan 0.000000
nan nan nan 0.000000
nan nan nan 0.000000
nan nan nan 0.000000
nan nan nan 0.000000
nan nan nan 0.000000
nan nan nan 0.000000
70.307831 84.526871 0.000004 0.541863
62.856541 70.007942 0.000010 0.537545
59.657436 63.774452 0.000012 0.547875
57.875710 60.302734 0.000013 0.546517
56.738235 58.086357 0.000012 0.532586
55.947651 56.545887 0.000010 0.497154
55.365181 55.410942 0.000008 0.565225
nan nan nan 0.000000
nan nan nan 0.000000
nan nan nan 0.000000
nan nan nan 0.000000
nan nan nan 0.000000
nan nan nan 0.000000
nan nan nan 0.000000
nan nan nan 0.000000
nan nan nan 0.000000
70.560234 84.396210 0.000004 0.541573
63.007759 69.929657 0.000010 0.550774
59.765221 63.718655 0.000013 0.550118
57.959301 60.259464 0.000013 0.571283
56.806385 58.051086 0.000011 0.495003
56.005062 56.516174 0.000009 0.526772
55.414680 55.385319 0.000008 0.530159
nan nan nan 0.000000
nan nan nan 0.000000
nan nan nan 0.000000
nan nan nan 0.000000
nan nan nan 0.000000
nan nan nan 0.000000
nan nan nan 0.000000
nan nan nan 0.000000
nan nan nan 0.000000
70.811714 84.263794 0.000004 0.539879
63.158440 69.850327 0.000010 0.542428
59.872616 63.662113 0.000012 0.542321
58.042587 60.215614 0.000013 0.536385
56.874283 58.015335 0.000011 0.516136
56.062263 56.486053 0.000010 0.509911
55.464005 55.359348 0.000008 0.534997
nan nan nan 0.000000
nan nan nan 0.000000
nan nan nan 0.000000
nan nan nan 0.000000
nan nan nan 0.000000
nan nan nan 0.000000
nan nan nan 0.000000
nan nan nan 0.000000
nan nan nan 0.000000
71.062263 84.129623 0.000005 0.541482
63.308556 69.769943 0.000010 0.536858
59.979614 63.604820 0.000012 0.538918
58.125572 60.171185 0.000013 0.583276
56.941933 57.979111 0.000011 0.535683
56.119255 56.455536 0.000010 0.526619
55.513145 55.333035 0.000008 0.535592
nan nan nan 0.000000
nan nan nan 0.000000
nan nan nan 0.000000
nan nan nan 0.000000
nan nan nan 0.000000
nan nan nan 0.000000
nan nan nan 0.000000
nan nan nan 0.000000
nan nan nan 0.000000
71.311874 83.993698 0.000005 0.537789
63.458111 69.688515 0.000010 0.534234
60.086205 63.546780 0.000013 0.525765
58.208237 60.126167 0.000013 0.539010
57.009323 57.942413 0.000011 0.568841
56.176033 56.424622 0.000009 0.528252
55.562103 55.306381 0.000008 0.484733
17.793037 -12.478027 19.436979 0.543969
17.793015 -12.478073 17.034832 0.519997
17.793018 -12.478050 14.666397 0.683482
17.793015 -12.478065 12.326020 0.409491
17.693226 -12.656860 10.031814 0.160784
17.693218 -12.656872 7.724679 0.172549
18.624783 -10.987804 5.335992 0.903960
26.363005 2.876602 2.851382 0.497383
26.035736 2.290241 1.137630 0.495109
31.878265 12.758183 -0.000026 0.537209
39.831875 27.008493 -0.000015 0.335317
43.246662 33.126694 -0.000001 0.546288
45.148479 36.534145 0.000001 0.541146
46.389397 38.757465 0.009997 1.000000
47.206512 40.221474 0.000006 0.336690
47.828224 41.335388 0.000000 0.332036
17.234280 -12.478054 19.505625 0.502358
17.234272 -12.478058 17.094013 0.575723
17.234272 -12.478069 14.716261 0.706676
17.234280 -12.478050 12.366666 0.475853
17.056755 -12.790955 10.081167 0.678431
17.056759 -12.790951 7.759853 0.678431
18.216431 -10.746861 5.335516 0.899123
17.056759 -12.790951 3.149502 0.678431
25.627472 2.316212 1.134723 0.488365
31.630571 12.897564 -0.000026 0.540902
39.683472 27.092003 -0.000015 0.337118
43.140888 33.186218 -0.000001 0.542153
45.066448 36.580307 0.000001 0.537041
46.295742 38.747116 -0.000002 0.319814
47.150158 40.253155 0.000001 0.333745
47.779648 41.362724 0.000000 0.329244
16.522892 -12.735073 19.649982 0.678431
16.671082 -12.478065 17.154406 0.820096
16.522892 -12.735073 14.821118 0.678431
16.671089 -12.478050 12.408140 0.624811
16.490650 -12.790993 10.113505 0.678431
16.490662 -12.790977 7.782901 0.678431
17.808155 -10.506004 5.335202 0.902434
16.490650 -12.790993 3.154101 0.678431
17.975483 -10.215805 0.894541 0.900328
31.383846 13.038662 -0.000027 0.530907
39.535648 27.176535 -0.000016 0.337285
43.035530 33.246475 -0.000002 0.549233
44.984741 36.627037 0.000001 0.543816
46.229130 38.785213 -0.000002 0.333867
47.094028 40.285229 -0.000005 0.332509
47.731262 41.390400 0.000000 0.336904
15.952755 -12.735085 19.721750 0.678431
16.103344 -12.478065 17.216026 0.642008
15.952744 -12.735092 14.873253 0.678431
16.103336 -12.478065 12.450464 0.756237
15.920010 -12.790966 10.146491 0.678431
15.920002 -12.790962 7.806413 0.678431
17.399960 -10.265160 5.335051 0.905882
15.919987 -12.790997 3.158794 0.678431
16.103336 -12.478069 0.847141 0.565148
31.138121 13.181484 -0.000027 0.540520
39.388420 27.262102 -0.000016 0.338857
42.930599 33.307468 -0.000001 0.528527
44.903362 36.674343 0.000001 0.543725
46.162800 38.823795 0.000002 0.553689
47.038139 40.317722 -0.000004 0.340444
47.683071 41.418411 0.000001 0.342824
15.530922 -12.478100 19.720058 0.677775
15.530933 -12.478062 17.278896 0.524910
15.530941 -12.478062 14.872018 0.463386
15.530945 -12.478050 12.493642 0.743191
15.344669 -12.790939 10.180147 0.678431
15.344635 -12.790993 7.830408 0.664027
16.978767 -10.046165 5.336309 0.902342
16.872452 -10.224743 3.114711 0.094118
16.872452 -10.224743 0.885290 0.094118
30.893394 13.326015 -0.000028 0.540185
39.241791 27.348692 -0.000018 0.338582
42.826092 33.369186 -0.000002 0.533272
44.822311 36.722210 0.000000 0.533608
46.096725 38.862823 0.000003 0.527306
46.982498 40.350639 0.000006 0.348074
47.635075 41.446758 0.000000 0.327642
14.953743 -12.478088 19.794451 0.437858
14.953754 -12.478069 17.343040 0.511162
14.953758 -12.478062 14.926057 0.522225
14.953762 -12.478058 12.537699 0.659144
14.764477 -12.791004 10.214497 0.678431
14.764488 -12.790993 7.854885 0.678431
16.424679 -10.046169 5.350316 0.905913
14.756382 -12.804390 3.168724 0.678431
14.953751 -12.478077 0.837517 0.609644
30.649683 13.472252 -0.000028 0.543038
39.095772 27.436306 -0.000018 0.335790
42.722019 33.431633 -0.000002 0.550134
44.741604 36.770645 0.000001 0.552468
46.030930 38.902306 0.000002 0.548837
46.927052 40.383881 0.000001 0.343023
47.587276 41.475441 0.000001 0.342672
14.371658 -12.478092 19.870348 0.543389
14.371674 -12.478069 17.408484 0.596765
14.371681 -12.478058 14.981187 0.474098
14.371677 -12.478062 12.582643 0.593378
14.179405 -12.790997 10.249533 0.678431
14.179405 -12.790993 7.879856 0.678431
15.865887 -10.046165 5.364604 0.896605
14.177887 -12.793465 3.173497 0.237446
14.371666 -12.478077 0.832559 0.592767
30.406990 13.620178 -0.000030 0.546212
38.950371 27.524937 -0.000019 0.337972
42.618389 33.494812 -0.000002 0.530465
44.661232 36.819637 0.000001 0.522377
45.965408 38.942249 0.000002 0.499290
46.871834 40.417503 -0.000007 0.341253
47.539680 41.504456 0.000001 0.330037
13.663219 -12.672535 20.005180 0.341894
13.784584 -12.478069 17.475239 0.796262
13.624195 -12.735065 15.092550 0.678431
13.784580 -12.478062 12.628491 0.595392
13.589294 -12.790993 10.285274 0.678431
13.589298 -12.790985 7.905332 0.678431
15.302277 -10.046173 5.379183 0.878767
15.184456 -10.234966 3.129232 0.094118
15.184456 -10.234966 0.870768 0.094118
30.165350 13.769814 -0.000029 0.539269
38.805592 27.614588 -0.000019 0.338491
42.515198 33.558712 -0.000002 0.528023
44.581203 36.869194 0.000000 0.536065
45.900166 38.982647 0.000002 0.544121
46.816879 40.451553 -0.000003 0.348608
47.492290 41.533806 0.000001 0.342443
13.086124 -12.645668 20.076445 0.274525
13.192348 -12.478069 17.543339 0.793469
13.086121 -12.645664 15.130906 0.430243
13.192356 -12.478054 12.675261 0.662379
12.994011 -12.790981 10.321733 0.678431
12.994015 -12.790989 7.931316 0.678431
14.733742 -10.046169 5.394053 0.896284
12.994015 -12.790985 3.183722 0.678431
13.192348 -12.478065 0.822342 0.723705
29.924742 13.921104 -0.000031 0.540124
38.661442 27.705240 -0.000020 0.336355
42.412460 33.623329 -0.000002 0.547738
44.501522 36.919304 0.000000 0.528801
45.835209 39.023499 0.000002 0.529122
46.762154 40.485970 -0.000003 0.325429
47.445107 41.563480 0.000000 0.325002
12.594852 -12.478069 20.107307 0.621195
12.594875 -12.478031 17.612793 0.580224
12.594887 -12.478016 15.153311 0.599527
12.594860 -12.478058 12.722972 0.571679
12.393448 -12.790974 10.358922 0.678431
12.393444 -12.790977 7.957823 0.678431
14.160141 -10.046177 5.409222 0.890211
12.393452 -12.790970 3.189010 0.678431
12.594845 -12.478077 0.817078 0.527489
29.685215 14.074100 -0.000031 0.538003
38.517921 27.796892 -0.000021 0.338842
42.310169 33.688660 -0.000003 0.520241
44.422195 36.969971 0.000000 0.535988
45.770542 39.064808 0.000002 0.535653
46.707672 40.520767 -0.000003 0.342046
47.398129 41.593487 0.000000 0.327794
11.991959 -12.478073 20.189484 0.593576
11.991993 -12.478012 17.683645 0.592676
11.991993 -12.478024 15.213007 0.605356
11.991970 -12.478065 12.771638 0.600336
11.875877 -12.655685 10.378263 0.160784
11.875870 -12.655689 7.971611 0.160784
13.581375 -10.046177 5.424695 0.896620
11.875881 -12.655685 3.191761 0.160784
11.991959 -12.478077 0.811709 0.622889
29.446760 14.228760 -0.000031 0.540307
38.375130 27.889675 -0.000009 0.334890
42.208344 33.754704 -0.000002 0.531548
44.343224 37.021194 0.000000 0.551324
45.706158 39.106564 0.000002 0.542107
46.653442 40.555965 0.000001 0.334951
47.351360 41.623814 -0.000001 0.332998
11.383537 -12.478073 20.273308 0.531456
11.212994 -12.735088 17.822556 0.678431
11.212994 -12.735088 15.330032 0.544976
11.383545 -12.478069 12.821276 0.612573
11.175900 -12.790977 10.435554 0.678431
11.175907 -12.790970 8.012442 0.678431
12.997292 -10.046181 5.440475 0.884184
11.175919 -12.790951 3.199910 0.678431
11.699539 -12.001862 0.815586 0.895018
29.209383 14.385078 -0.000031 0.541360
38.233078 27.983582 0.000015 0.336477
42.106979 33.821465 -0.000002 0.531731
44.264610 37.072968 0.000000 0.537072
45.642075 39.148769 0.000002 0.489479
46.599461 40.591530 0.000004 0.326299
47.304802 41.654469 -0.000002 0.325017
10.769470 -12.478058 20.358801 0.706096
10.656551 -12.645676 17.873299 0.172549
10.656551 -12.645676 15.372786 0.160784
10.769474 -12.478054 12.871904 0.689143
10.558670 -12.790974 10.475019 0.678431
10.558659 -12.790977 8.040573 0.678431
12.288692 -10.222965 5.467046 0.894881
10.558666 -12.790977 3.205525 0.678431
11.714905 -11.074673 0.828339 0.882353
28.973110 14.543045 -0.000031 0.546105
38.091488 28.078176 0.000010 0.338476
42.006081 33.888924 -0.000002 0.530739
44.186363 37.125282 0.000000 0.528252
45.578281 39.191418 0.000001 0.523018
46.571564 40.665829 0.009994 1.000000
47.258469 41.685455 -0.000000 0.338323
10.149586 -12.478065 20.446007 0.570672
10.149570 -12.478088 17.904846 0.507973
10.149586 -12.478058 15.399358 0.515938
10.149586 -12.478062 12.923546 0.533364
9.935589 -12.790981 10.515278 0.678431
9.935593 -12.790970 8.069265 0.678431
11.288074 -10.813316 5.518649 0.885725
9.935593 -12.790977 3.211253 0.678431
11.696705 -10.215797 0.839800 0.905882
28.737930 14.702641 -0.000033 0.541192
37.950470 28.173632 -0.000008 0.336934
41.905659 33.957085 -0.000003 0.543023
44.108479 37.178146 0.000000 0.530907
45.514790 39.234516 0.000002 0.535027
46.518364 40.701984 0.010003 1.000000
47.212353 41.716770 0.000002 0.328145
9.523750 -12.478077 20.534948 0.620279
9.523731 -12.478104 17.981544 0.667109
9.523769 -12.478046 15.463964 0.584466
9.523743 -12.478085 12.976224 0.584253
9.306530 -12.790989 10.556338 0.678431
9.306530 -12.790989 8.098532 0.678431
10.257168 -11.421539 5.571989 0.870588
9.306538 -12.790977 3.217091 0.678431
19.057133 1.255310 1.062712 0.467475
28.503883 14.863895 -0.000033 0.536461
37.810284 28.270302 -0.000003 0.338354
41.805717 34.025948 -0.000003 0.553552
44.030972 37.231552 0.000000 0.524086
45.451603 39.278053 0.000002 0.532906
46.465382 40.738464 0.009997 1.000000
47.166458 41.748405 0.000005 0.324987
8.891830 -12.478058 20.625666 0.638300
8.710732 -12.735096 18.127661 0.678431
8.891838 -12.478046 15.529859 0.577478
8.710743 -12.735081 13.076581 0.678431
8.671349 -12.790993 10.598216 0.678431
8.671352 -12.790993 8.128382 0.678431
9.194481 -12.048515 5.627151 0.905882
8.671352 -12.790993 3.223049 0.678431
18.700623 1.443569 1.061894 0.466987
28.270964 15.026772 -0.000034 0.541680
37.670750 28.367907 -0.000001 0.337423
41.706253 34.095505 -0.000003 0.542199
43.953835 37.285500 0.000000 0.523659
45.388718 39.322033 0.000002 0.549874
46.412666 40.775326 0.009997 1.000000
47.120773 41.780338 0.000001 0.331579
8.253654 -12.478062 20.718195 0.617060
8.133797 -12.645679 18.184036 0.160784
8.253658 -12.478054 15.597075 0.565454
8.133801 -12.645676 13.115300 0.160784
8.029877 -12.790997 10.640932 0.461067
8.029881 -12.791000 8.158825 0.405112
8.029884 -12.790993 5.690010 0.458122
8.029888 -12.790989 3.229126 0.620493
18.349361 1.640411 1.061193 0.470375
33.314934 22.569216 0.445553 0.468971
37.531853 28.466425 -0.000006 0.338293
41.607281 34.165756 -0.000003 0.554604
43.877075 37.339981 0.000000 0.547707
45.326141 39.366447 0.000002 0.540368
46.333305 40.774929 0.000006 0.340902
47.075302 41.812584 -0.000005 0.339834
7.609066 -12.478085 20.812572 0.521141
7.609089 -12.478046 18.220900 0.470603
7.609081 -12.478062 15.665628 0.605692
7.609085 -12.478054 13.140620 0.645472
7.382004 -12.790977 10.684493 0.678431
7.382000 -12.790977 8.189875 0.678431
7.382004 -12.790974 5.708616 0.678431
17.751831 1.498924 2.946400 0.472068
31.710625 20.734537 1.442516 0.489632
27.808569 15.357403 -0.000035 0.540413
37.393646 28.565897 -0.000012 0.337774
41.508797 34.236694 -0.000003 0.546883
43.800701 37.395000 0.000000 0.546593
45.263878 39.411297 0.000001 0.554299
46.280861 40.812729 0.000010 0.341176
47.030087 41.845184 0.000001 0.343252
6.957920 -12.478081 20.908825 0.588388
6.957951 -12.478039 18.303892 0.725826
6.957943 -12.478058 15.735550 0.493721
6.957958 -12.478035 13.197618 0.500435
6.793510 -12.701344 10.716124 0.308980
6.727539 -12.790932 8.221542 0.678431
6.727531 -12.790943 5.727587 0.678431
17.497314 1.834225 2.944430 0.493416
31.902206 21.395803 1.453102 0.486702
32.497990 22.204865 0.407493 0.504036
37.256165 28.666382 -0.000013 0.337118
41.410820 34.308331 -0.000002 0.515801
43.724712 37.450550 0.000000 0.551553
45.201931 39.456585 0.000002 0.560037
46.228672 40.850880 0.000009 0.337942
46.985096 41.878090 0.000005 0.332036
6.300049 -12.478081 21.007002 0.437308
6.107990 -12.735111 18.457850 0.678431
6.300076 -12.478043 15.806863 0.776471
6.107986 -12.735119 13.303362 0.678431
6.176151 -12.643890 10.753126 0.193622
6.066265 -12.790951 8.253847 0.678431
31.848282 21.713436 3.630912 0.476158
31.558346 21.325411 2.551176 0.487404
31.714575 21.534494 1.453096 0.488624
32.587463 22.702688 0.429754 0.481926
37.119434 28.767879 -0.000008 0.336599
41.313339 34.380638 -0.000002 0.543221
43.649113 37.506630 0.000000 0.568444
45.140301 39.502304 0.000001 0.520516
46.176739 40.889381 0.000007 0.520119
46.940331 41.911304 0.000006 0.328725
5.635277 -12.478081 21.107141 0.654902
5.578529 -12.552929 18.495184 0.664897
5.635292 -12.478058 15.879606 0.531350
5.578537 -12.552917 13.328998 0.501060
5.545494 -12.596504 10.792399 0.574792
5.398071 -12.790951 8.286795 0.678431
5.398060 -12.790962 5.766684 0.678431
31.846470 22.094664 2.538282 0.480415
32.737389 23.269798 1.485849 0.468833
32.440701 22.878460 0.432318 0.488731
36.983398 28.870314 -0.000005 0.339467
41.216362 34.453621 -0.000003 0.543206
43.573906 37.563232 -0.000000 0.536660
45.078987 39.548447 0.000001 0.553368
46.125088 40.928261 0.000006 0.500938
46.895786 41.944817 0.000003 0.324758
4.963428 -12.478069 21.209274 0.550500
4.963451 -12.478039 18.562956 0.664073
4.963444 -12.478054 15.953802 0.520668
4.963448 -12.478039 13.375545 0.401404
4.963428 -12.478069 10.822213 0.732219
4.773510 -12.724972 8.313577 0.161028
31.964470 22.624731 3.591787 0.470130
32.299606 23.060429 2.521222 0.528695
31.819277 22.435972 1.465886 0.508583
32.429474 23.229265 0.445681 0.467552
36.922531 29.070475 0.010010 1.000000
41.119904 34.527283 -0.000003 0.551308
43.499092 37.620361 -0.000000 0.532082
45.018002 39.595020 0.000001 0.540520
46.073708 40.967495 0.000006 0.492546
46.851482 41.978645 0.000003 0.328588
4.284336 -12.478069 21.313459 0.606683
4.083748 -12.735104 18.723213 0.678431
4.284344 -12.478058 16.029480 0.709407
4.083748 -12.735107 13.485611 0.678431
4.284336 -12.478065 10.870061 0.565927
31.717342 22.675730 4.665884 0.489052
32.006744 23.046581 3.574133 0.472450
32.341583 23.475657 2.515430 0.476417
16.593006 3.294773 1.065678 0.484947
26.673172 16.211918 -0.000037 0.545602
36.788586 29.174232 0.010009 1.000000
41.023960 34.601616 -0.000003 0.553109
43.424686 37.678009 -0.000000 0.540032
44.957340 39.642017 0.000001 0.561532
46.022606 41.007092 0.000006 0.546212
46.807426 42.012794 0.000005 0.336309
3.597782 -12.478073 21.419733 0.422431
3.394325 -12.735073 18.815222 0.678431
3.597790 -12.478065 16.106682 0.450980
3.394333 -12.735069 13.548802 0.678431
3.597786 -12.478073 10.918870 0.534249
3.350113 -12.790928 8.389645 0.678431
3.350105 -12.790932 5.828305 0.678431
31.296167 22.509403 2.538433 0.564950
31.797602 23.142792 1.474787 0.484825
31.446548 22.699360 0.395449 0.559091
36.579498 29.183092 -0.000015 0.336202
40.928535 34.676624 -0.000003 0.554910
43.350681 37.736176 -0.000000 0.542779
44.897011 39.689438 0.000001 0.551385
45.971767 41.047028 0.000002 0.504860
46.763592 42.047226 0.000001 0.335912
2.903614 -12.478069 21.528133 0.503716
2.903595 -12.478096 18.837904 0.671550
2.903629 -12.478062 16.185425 0.542489
2.903595 -12.478096 13.564381 0.553277
2.903622 -12.478062 10.968655 0.680812
31.304390 22.886496 4.673350 0.478111
31.699539 23.378532 3.570714 0.470527
31.635324 23.298573 2.524875 0.496742
31.718008 23.401531 1.477285 0.490593
31.820511 23.529167 0.438776 0.462654
36.446388 29.289293 -0.000010 0.337621
40.833637 34.752285 -0.000003 0.525780
43.277084 37.794861 -0.000000 0.524895
44.837013 39.737278 0.000001 0.570001
45.921219 41.087330 0.000002 0.518273
46.719994 42.081963 -0.000004 0.333288
2.201611 -12.478069 21.638718 0.645685
2.201618 -12.478065 18.933243 0.493019
2.201630 -12.478050 16.265753 0.620920
2.201611 -12.478073 13.629862 0.654902
2.201622 -12.478062 11.019442 0.352941
2.201630 -12.478050 8.428608 0.528908
30.842251 22.679579 3.623898 0.453758
31.019588 22.897272 2.536318 0.447715
31.382027 23.342182 1.473072 0.470054
31.761570 23.808086 0.447609 0.468330
36.313995 29.396389 -0.000010 0.339132
40.739269 34.828613 -0.000004 0.532204
43.203896 37.854050 -0.000001 0.524773
44.777348 39.785534 0.000001 0.543313
45.870956 41.127983 0.000002 0.578637
46.676651 42.117012 -0.000006 0.330632
1.491581 -12.478069 21.751528 0.703487
1.279163 -12.735138 19.102539 0.678431
1.491589 -12.478062 16.347702 0.500923
1.279171 -12.735130 13.746133 0.678431
1.491570 -12.478085 11.071256 0.629801
1.279175 -12.735123 8.492880 0.678431
31.137712 23.399427 3.587351 0.500145
30.850487 23.051830 2.536118 0.511360
30.647804 22.806547 1.458675 0.467155
31.245478 23.529844 0.420959 0.494514
36.182327 29.504379 -0.000012 0.340078
40.645439 34.905602 -0.000003 0.530388
43.131130 37.913761 -0.000000 0.525078
44.718025 39.834206 0.000001 0.533059
45.820976 41.168991 0.000002 0.532403
46.633553 42.152363 -0.000008 0.339071
0.773308 -12.478077 21.866623 0.685267
0.632824 -12.645691 19.176985 0.237964
0.773304 -12.478081 16.431309 0.562325
0.632843 -12.645672 13.797262 0.223346
0.773308 -12.478073 11.124110 0.587625
0.632824 -12.645695 8.521145 0.228595
31.046215 23.641424 3.581088 0.478096
30.699108 23.227283 2.535496 0.458976
30.839048 23.394251 1.468069 0.445136
29.903658 22.278204 0.331529 0.483116
36.051395 29.613255 -0.000018 0.338247
40.552147 34.983234 -0.000003 0.524910
43.058777 37.973972 -0.000000 0.540200
44.659042 39.883293 0.000001 0.541909
45.771286 41.210342 0.000002 0.502113
46.590733 42.188049 0.000002 0.334325
0.046577 -12.478073 21.984039 0.540871
0.046604 -12.478046 19.230986 0.649577
0.046570 -12.478081 16.516603 0.579232
0.046597 -12.478058 13.834356 0.528161
0.046589 -12.478058 11.178035 0.599985
0.046597 -12.478054 8.541645 0.673411
0.046616 -12.478035 5.919374 0.629389
30.550327 23.404993 2.534843 0.479942
31.509291 24.533066 1.489384 0.496315
31.127916 24.084436 0.438131 0.482841
35.921257 29.723080 -0.000019 0.336996
40.459400 35.061523 -0.000003 0.541848
42.986847 38.034683 -0.000001 0.536645
44.600403 39.932789 0.000001 0.523461
45.721886 41.252045 0.000002 0.575128
46.548149 42.224018 0.000007 0.343755
-0.688828 -12.478077 22.103840 0.637949
-0.910454 -12.735123 19.407593 0.678431
-0.688820 -12.478077 16.603626 0.434501
-0.910469 -12.735149 13.955649 0.678431
-0.688816 -12.478065 11.233057 0.506645
-0.910442 -12.735126 8.608694 0.666758
-0.910454 -12.735138 5.959546 0.676921
30.401003 23.581232 2.534242 0.476738
30.675148 23.899199 1.472628 0.456001
31.130434 24.427259 0.451005 0.453376
35.791927 29.833858 -0.000016 0.337179
40.367203 35.140457 -0.000003 0.536156
42.915344 38.095898 -0.000001 0.521737
44.542110 39.982693 0.000001 0.558099
45.672775 41.294083 0.000002 0.534691
46.531860 42.290489 0.010002 1.000000
-1.657913 -12.735142 22.311611 0.563180
-1.657913 -12.735142 19.513437 0.678431
-1.433132 -12.478073 16.692417 0.493141
-1.657917 -12.735142 14.028343 0.678431
-1.433132 -12.478077 11.289196 0.588617
-1.657913 -12.735142 8.648876 0.678431
10.336819 0.982052 5.088442 0.477729
30.268351 23.775778 2.533262 0.472358
11.681900 2.520290 1.004693 0.494255
24.920582 17.660061 -0.000039 0.542535
35.663361 29.945518 -0.000014 0.336278
40.275555 35.220028 -0.000003 0.528496
42.844269 38.157612 -0.000001 0.550698
44.484169 40.033005 0.000001 0.539742
45.623962 41.336472 0.000003 0.546899
46.489967 42.326839 0.009997 1.000000
-2.186565 -12.478050 22.350796 0.556435
-2.186546 -12.478031 19.547218 0.614557
-2.186588 -12.478077 16.783026 0.733104
-2.186546 -12.478031 14.051545 0.520836
-2.186588 -12.478077 11.346483 0.574075
-2.186539 -12.478024 8.661700 0.501305
-2.186554 -12.478043 5.991305 0.495628
9.778187 1.013603 3.034400 0.497551
10.035751 1.304039 0.971953 0.473289
30.803082 24.721632 0.451306 0.460655
35.535789 30.058313 0.000014 0.337957
40.184467 35.300243 -0.000003 0.560861
42.773624 38.219818 -0.000001 0.533257
44.426582 40.083717 0.000001 0.524346
45.575443 41.379196 0.000002 0.533684
46.448345 42.363495 0.009997 1.000000
-2.949459 -12.478107 22.478098 0.715526
-2.949459 -12.478107 19.656990 0.523980
-2.949436 -12.478081 16.875484 0.548623
-2.949455 -12.478096 14.126933 0.653178
-2.949432 -12.478073 11.404938 0.433448
-2.949448 -12.478092 8.703372 0.820386
-2.949467 -12.478107 6.016274 0.508385
10.168373 2.107380 3.016797 0.492241
9.711021 1.598858 0.972012 0.475273
24.495270 18.037199 -0.000041 0.545174
35.408829 30.171795 0.000020 0.338796
40.093941 35.381088 -0.000004 0.554772
42.703419 38.282520 -0.000001 0.576074
44.369347 40.134834 0.000001 0.539055
45.527225 41.422256 0.000002 0.559731
46.406975 42.400436 0.009996 1.000000
-3.956387 -12.735142 22.695135 0.678431
-3.956383 -12.735146 19.844131 0.678431
-3.721920 -12.478085 16.969841 0.516350
-3.956379 -12.735142 14.255462 0.678431
-3.721920 -12.478081 11.464595 0.611475
-3.956387 -12.735142 8.774424 0.678431
-3.906422 -12.680363 6.055199 0.116762
-3.721909 -12.478065 3.346288 0.601205
-3.721909 -12.478065 0.653714 0.554574
24.284615 18.228004 -0.000040 0.545373
35.282646 30.286139 0.000023 0.338323
40.003998 35.462578 -0.000001 0.540536
42.633656 38.345711 -0.000001 0.545708
44.312469 40.186344 0.000001 0.518639
45.479309 41.465656 0.000002 0.525780
46.338963 42.408173 -0.000004 0.339529
-4.504257 -12.478024 22.740538 0.584360
-4.504265 -12.478031 19.883280 0.623346
-4.504311 -12.478088 17.066147 0.598138
-4.504269 -12.478035 14.282353 0.733562
-4.504307 -12.478081 11.525483 0.583978
-4.504250 -12.478024 8.789282 0.523659
-4.504250 -12.478024 6.067744 0.473182
-4.504288 -12.478058 3.354947 0.604212
8.847809 1.957336 0.966827 0.509514
24.075293 18.420269 -0.000040 0.538155
35.157196 30.401283 0.000018 0.337606
39.914612 35.544685 -0.000001 0.545586
42.564331 38.409382 -0.000001 0.503929
44.255959 40.238258 0.000001 0.518669
45.431694 41.509388 0.000002 0.543206
46.297909 42.445881 -0.000004 0.344106
-5.296783 -12.478008 22.875841 0.542184
-5.296814 -12.478043 19.999950 0.584344
-5.296856 -12.478081 17.164434 0.463325
-5.296810 -12.478031 14.362481 0.581888
-5.296852 -12.478081 11.587626 0.532738
-5.296810 -12.478031 8.833576 0.625345
-5.296803 -12.478024 6.094283 0.567895
-5.296829 -12.478050 3.363786 0.464118
-5.296833 -12.478054 0.636212 0.558648
23.867308 18.613981 -0.000040 0.536706
35.032440 30.517183 0.000000 0.339879
39.825802 35.627411 -0.000001 0.553307
42.495453 38.473537 -0.000001 0.545449
44.199802 40.290554 0.000001 0.557473
45.384392 41.553452 0.000002 0.533669
46.257118 42.483868 -0.000005 0.335592
-6.344326 -12.735085 23.102837 0.678431
-6.099865 -12.478088 20.119055 0.649287
-6.099857 -12.478077 17.264765 0.571298
-6.344326 -12.735085 14.496898 0.678431
-6.099869 -12.478088 11.651063 0.570535
-6.344337 -12.735092 8.907880 0.678431
-6.259270 -12.645660 6.132736 0.173251
-6.099838 -12.478058 3.372811 0.594186
-6.099850 -12.478073 0.627190 0.698711
23.660679 18.809139 -0.000041 0.545312
34.908646 30.634113 -0.000000 0.336431
39.737564 35.710747 -0.000001 0.543908
42.427025 38.538174 -0.000001 0.558892
44.144020 40.343250 0.000001 0.533883
45.337395 41.597843 0.000002 0.530022
46.216625 42.522175 0.000006 0.512444
-6.927223 -12.492207 23.159904 0.713512
-6.913597 -12.478081 20.240627 0.600122
-6.913589 -12.478077 17.367188 0.570901
-6.927235 -12.492218 14.530695 0.674296
-6.913605 -12.478088 11.715816 0.585794
-6.927231 -12.492210 8.926560 0.698466
-6.913605 -12.478088 6.149030 0.589044
-6.913574 -12.478054 3.382023 0.520409
-6.913574 -12.478054 0.617979 0.608011
23.455427 19.005741 -0.000041 0.544350
34.785645 30.751869 -0.000004 0.337957
39.649910 35.794697 -0.000002 0.535286
42.359051 38.603287 -0.000001 0.557534
44.088604 40.396328 0.000001 0.569314
45.290707 41.642559 0.000002 0.528695
46.176369 42.560734 0.000005 0.540230
-7.738312 -12.478020 23.298912 0.639704
-7.738377 -12.478085 20.364744 0.488487
-7.738384 -12.478088 17.471756 0.655665
-7.738293 -12.477997 14.613007 0.588266
-7.738365 -12.478073 11.781926 0.613138
-7.738297 -12.478008 8.972061 0.548821
-7.738380 -12.478081 6.177262 0.669322
-7.738335 -12.478043 3.391423 0.612802
-7.738338 -12.478046 0.608575 0.678203
23.251553 19.203775 -0.000041 0.539406
34.663368 30.870386 -0.000019 0.336675
39.562851 35.879269 -0.000002 0.526970
42.291531 38.668869 -0.000001 0.541466
44.033558 40.449795 0.000001 0.557260
45.244335 41.687607 0.000002 0.538033
46.136383 42.599571 0.000005 0.514488
-8.829433 -12.735115 23.536591 0.678431
-8.574493 -12.478096 20.491472 0.683711
-8.740788 -12.645744 17.621483 0.163821
-8.829441 -12.735119 14.753763 0.678431
-8.574493 -12.478096 11.849427 0.577356
-8.829437 -12.735123 9.049865 0.678431
-8.574493 -12.478096 6.206086 0.658274
-8.574455 -12.478058 3.401027 0.561929
-8.574455 -12.478062 0.598973 0.624567
23.049070 19.403225 -0.000041 0.542412
34.542046 30.989878 -0.000020 0.339437
39.476383 35.964436 -0.000002 0.534142
42.224468 38.734921 -0.000001 0.578729
43.978893 40.503643 0.000001 0.553903
45.198280 41.732971 0.000002 0.564965
46.096676 42.638691 0.000006 0.516472
-9.428345 -12.484131 23.598131 0.620142
-9.422287 -12.478100 20.620876 0.631174
-9.428345 -12.484131 17.689095 0.709392
-9.428337 -12.484116 14.790203 0.613977
-9.422272 -12.478088 11.918353 0.657099
-9.428341 -12.484127 9.070009 0.627848
-9.422272 -12.478092 6.235518 0.653147
-9.422234 -12.478050 3.410831 0.604303
-9.422234 -12.478050 0.589169 0.628687
22.847960 19.604071 -0.000042 0.546151
34.421570 31.110226 -0.000019 0.336965
39.390511 36.050209 -0.000002 0.550072
42.157871 38.801445 -0.000001 0.542748
43.924599 40.557873 0.000000 0.572686
45.152538 41.778656 0.000002 0.570611
46.057236 42.678082 0.000005 0.493050
-10.281982 -12.478031 23.749220 0.558267
-10.282032 -12.478085 20.753016 0.619089
-10.281994 -12.478046 17.798847 0.597940
-10.281982 -12.478031 14.879683 0.582818
-10.282036 -12.478085 11.988738 0.553414
-10.281986 -12.478039 9.119471 0.554742
-10.282043 -12.478096 6.265576 0.581338
-10.282013 -12.478062 3.420845 0.547646
2.692673 0.242134 0.876488 0.477607
22.648283 19.806335 -0.000042 0.529564
34.301918 31.231394 -0.000021 0.335515
39.305241 36.136581 -0.000003 0.537346
42.091743 38.868431 -0.000001 0.515908
43.870689 40.612484 0.000001 0.545159
45.107121 41.824661 0.000002 0.511681
46.018074 42.717751 0.000005 0.535393
-11.419937 -12.735062 23.998371 0.678431
-11.154133 -12.478081 20.887974 0.594797
-11.419949 -12.735069 17.979836 0.678431
-11.419937 -12.735054 15.027224 0.678431
-11.154140 -12.478088 12.060625 0.614267
-11.419945 -12.735065 9.201029 0.678431
-11.154152 -12.478104 6.296276 0.629297
-11.154102 -12.478050 3.431069 0.619883
2.233456 0.464867 0.873646 0.485145
22.450005 20.009970 -0.000042 0.544640
34.183243 31.353516 -0.000008 0.336614
39.220573 36.223545 -0.000003 0.524544
42.026081 38.935871 -0.000001 0.547311
43.817162 40.667465 0.000001 0.521157
45.062023 41.870983 0.000002 0.532830
45.979191 42.757690 0.000006 0.575448
-12.038925 -12.478088 24.065638 0.601175
-12.038910 -12.478077 21.025822 0.661112
-12.038891 -12.478065 18.028687 0.715038
-12.038918 -12.478081 15.067059 0.555764
-12.038918 -12.478085 12.134050 0.546960
-12.038906 -12.478073 9.223043 0.640223
-12.038918 -12.478085 6.327632 0.580545
2.378479 1.267044 3.115550 0.501381
2.718571 1.591282 0.892138 0.481056
22.253176 20.215006 -0.000042 0.543374
34.065331 31.476370 -0.000006 0.338201
39.136520 36.311096 -0.000003 0.543053
41.960892 39.003773 -0.000001 0.541024
43.764015 40.722820 0.000000 0.534829
45.017250 41.917618 0.000002 0.520821
45.940590 42.797901 0.000006 0.522484
-12.936710 -12.478039 24.228941 0.680049
-12.936771 -12.478092 21.166651 0.645197
-12.936718 -12.478043 18.147320 0.593194
-12.936710 -12.478035 15.163764 0.598749
-12.936779 -12.478092 12.209058 0.604852
-12.936703 -12.478024 9.276501 0.708125
-12.936779 -12.478092 6.359663 0.608408
-12.936733 -12.478054 3.452183 0.604166
2.872509 2.384720 0.902894 0.478065
22.057751 20.421383 -0.000044 0.543877
33.948273 31.600044 -0.000004 0.335943
39.053070 36.399231 -0.000003 0.538430
41.896179 39.072128 -0.000001 0.549401
43.711258 40.778542 0.000000 0.581308
44.972805 41.964565 0.000002 0.545541
45.902264 42.838379 0.000005 0.522637
-14.125332 -12.735161 24.490524 0.678431
-13.848034 -12.478085 21.310514 0.604852
-14.125340 -12.735165 18.337337 0.678431
-14.181896 -12.787598 15.330113 0.153155
-13.848042 -12.478092 12.285687 0.766690
-14.125347 -12.735168 9.362131 0.678431
-13.848064 -12.478111 6.392388 0.614862
-13.847996 -12.478046 3.463083 0.551049
1.986748 2.201809 0.890257 0.481422
21.863802 20.629147 -0.000044 0.542046
33.832081 31.724531 -0.000003 0.337438
38.970245 36.487946 -0.000003 0.539025
41.831944 39.140930 -0.000001 0.565820
43.658894 40.834633 0.000000 0.521737
44.928692 42.011822 0.000002 0.546136
45.864227 42.879124 0.000005 0.542245
-14.773174 -12.478115 24.566307 0.579660
-14.773144 -12.478088 21.457512 0.587777
-14.773174 -12.478115 18.392384 0.593484
-14.773167 -12.478111 15.363551 0.542901
-14.773144 -12.478092 12.363987 0.505119
-14.773174 -12.478115 9.386936 0.658488
-14.773151 -12.478100 6.425823 0.579049
0.935089 1.881878 3.125950 0.481422
0.766014 1.727310 0.870301 0.470451
21.671291 20.838242 -0.000044 0.539773
33.716728 31.849792 -0.000005 0.337285
38.888039 36.577240 -0.000004 0.542916
41.768192 39.210182 -0.000001 0.530022
43.606918 40.891090 0.000000 0.538750
44.884903 42.059383 0.000002 0.550317
45.826473 42.920135 0.000006 0.567025
-15.712498 -12.478100 24.740515 0.547005
-15.712490 -12.478088 21.607731 0.622919
-15.997540 -12.735043 18.588758 0.678431
-15.712482 -12.478081 15.466713 0.604318
-15.712490 -12.478088 12.443997 0.505974
-15.997547 -12.735050 9.475431 0.678431
-15.712513 -12.478107 6.459991 0.526802
-15.712444 -12.478046 3.485600 0.560296
-15.712444 -12.478046 0.514398 0.602975
21.480255 21.048691 -0.000044 0.540825
33.602234 31.975847 -0.000008 0.335897
38.806461 36.667107 -0.000003 0.549310
41.704926 39.279877 -0.000001 0.535454
43.555344 40.947906 0.000000 0.540215
44.841454 42.107250 0.000002 0.587686
45.789005 42.961407 0.000006 0.559579
-16.666515 -12.478111 24.918577 0.572839
-16.666500 -12.478092 21.761255 0.663066
-16.852306 -12.643250 18.693506 0.160784
-16.666492 -12.478085 15.572156 0.551980
-16.666515 -12.478104 12.525776 0.628336
-16.852291 -12.643230 9.522630 0.119295
-16.666515 -12.478104 6.494912 0.555734
-16.666439 -12.478043 3.497231 0.484657
0.067844 2.396362 0.869145 0.504036
21.290676 21.260448 -0.000045 0.541527
33.488544 32.102619 -0.000022 0.338003
38.725513 36.757542 -0.000004 0.545113
41.642143 39.350014 -0.000001 0.531060
43.504162 41.005081 0.000000 0.538323
44.798336 42.155418 0.000002 0.555352
45.751831 43.002937 0.000005 0.478996
-17.635624 -12.478107 25.100574 0.551369
-17.635616 -12.478100 21.918184 0.665385
-17.635571 -12.478058 18.780466 0.545983
-17.635601 -12.478081 15.679936 0.666926
-17.635609 -12.478096 12.609359 0.629633
-17.635571 -12.478058 9.561819 0.640726
-17.635632 -12.478107 6.530607 0.452628
-17.635571 -12.478058 3.509123 0.543938
21.317778 21.662132 1.338477 0.479866
21.102604 21.473545 -0.000045 0.541863
33.375870 32.230301 -0.000021 0.337270
38.645195 36.848537 -0.000004 0.550286
41.579853 39.420582 -0.000002 0.532036
43.453381 41.062614 0.000000 0.542382
44.755554 42.203888 0.000002 0.535058
45.714943 43.044731 0.000005 0.553140
-18.620274 -12.478085 25.286623 0.492912
-18.620281 -12.478096 22.078609 0.607630
-18.917629 -12.735054 18.987137 0.678431
-18.620274 -12.478085 15.790113 0.540719
-18.620289 -12.478096 12.694813 0.445533
-18.917645 -12.735065 9.654953 0.678431
-18.620289 -12.478096 6.567098 0.625834
21.744677 22.404047 2.648283 0.467552
21.042503 21.797247 1.336530 0.451179
20.916004 21.687933 -0.000045 0.547433
33.264084 32.358757 -0.000020 0.337362
38.565514 36.940090 -0.000004 0.537911
41.518059 39.491589 -0.000001 0.524605
43.403008 41.120499 0.000000 0.524956
44.713116 42.252651 0.000002 0.525780
45.678349 43.086777 0.000006 0.530816
-19.620991 -12.478085 25.476856 0.529961
-19.620869 -12.477978 22.242594 0.619760
-19.620884 -12.477989 19.053787 0.479072
-19.620998 -12.478088 15.902771 0.659037
-19.620983 -12.478081 12.782177 0.487022
-19.620884 -12.477989 9.684987 0.658030
-19.621021 -12.478104 6.604408 0.448707
21.398941 22.472820 2.651843 0.467491
20.983734 22.119041 1.339230 0.471839
20.730915 21.903631 -0.000045 0.539910
33.153198 32.487999 -0.000019 0.337118
38.486477 37.032196 -0.000004 0.531380
41.456764 39.563023 -0.000002 0.530922
43.353035 41.178734 0.000000 0.527611
44.671013 42.301712 0.000001 0.531579
45.642048 43.129082 0.000005 0.541955
-20.638226 -12.478081 25.671377 0.617853
-20.638226 -12.478085 22.410357 0.603876
-20.638218 -12.478069 19.195114 0.498253
-20.638248 -12.478096 16.017971 0.672358
-20.638233 -12.478085 12.871513 0.627298
-20.638218 -12.478073 9.748673 0.677928
21.153692 22.629990 3.961141 0.484199
21.367313 22.809446 2.648681 0.478248
21.071089 22.560596 1.344988 0.474205
20.547340 22.120611 -0.000045 0.540276
33.136925 32.696724 0.010016 1.000000
38.408081 37.124855 -0.000005 0.546258
41.395969 39.634884 -0.000001 0.541390
43.303474 41.237316 0.000000 0.538918
44.629257 42.351067 0.000002 0.554620
45.606045 43.171635 0.000005 0.528359
-21.672543 -12.478096 25.870337 0.557687
-21.874874 -12.645668 22.638649 0.164996
-21.874889 -12.645676 19.387447 0.191180
-21.672558 -12.478100 16.135788 0.641245
-21.874866 -12.645653 12.993111 0.187518
-21.874874 -12.645668 9.835346 0.202213
20.882795 22.767490 3.967033 0.479133
21.086073 22.935852 2.650890 0.514244
21.355234 23.158777 1.354829 0.517189
20.365267 22.338856 -0.000046 0.532723
32.934158 32.748783 -0.000017 0.337728
38.330334 37.218056 -0.000005 0.553826
41.335674 39.707165 -0.000002 0.531670
43.254322 41.296246 0.000001 0.498634
44.587849 42.400711 0.000001 0.515175
45.570339 43.214439 0.000005 0.527123
-22.724438 -12.478092 26.073847 0.547601
-22.724346 -12.478024 22.757357 0.521935
-22.724354 -12.478031 19.487461 0.655482
-22.724445 -12.478104 16.256304 0.478813
-22.724323 -12.478001 13.056341 0.593179
-22.724339 -12.478012 9.880409 0.468650
20.829195 23.084600 3.959172 0.518334
20.519564 22.831778 2.659133 0.489403
21.045635 23.261328 1.351982 0.483635
20.184738 22.558384 -0.000046 0.544182
32.826004 32.880314 -0.000016 0.336629
38.253242 37.311798 -0.000005 0.548913
41.275887 39.779865 -0.000002 0.505898
43.205578 41.355515 0.000000 0.531411
44.546787 42.450645 0.000002 0.551293
45.534935 43.257492 0.000005 0.538338
-23.794460 -12.478096 26.282047 0.522454
-24.113659 -12.735031 23.025400 0.678431
-24.113628 -12.735012 19.713270 0.678431
-23.794483 -12.478115 16.379601 0.432563
-24.113651 -12.735031 13.199115 0.678431
-24.113644 -12.735023 9.982172 0.678431
20.667658 23.311974 3.958302 0.456352
20.948748 23.538240 2.646396 0.466850
20.409723 23.104347 1.342280 0.481178
20.005754 22.779171 -0.000045 0.531823
32.718739 33.012569 -0.000019 0.533425
38.176807 37.406078 -0.000005 0.555459
41.216606 39.852982 -0.000002 0.528801
43.157257 41.415123 0.000000 0.551247
44.506073 42.500862 0.000002 0.514000
45.499832 43.300793 0.000005 0.548974
nan nan nan 0.000000
nan nan nan 0.000000
-24.883213 -12.478096 19.793470 0.615717
-24.883236 -12.478123 16.505764 0.525719
-24.883175 -12.478069 13.249816 0.641962
-24.883190 -12.478085 10.018309 0.601831
20.107420 23.222673 3.982540 0.491020
20.151880 23.257954 2.659446 0.468971
20.944323 23.886766 1.357108 0.490547
19.828314 23.001198 -0.000046 0.542138
32.612427 33.145592 -0.000019 0.537545
38.101036 37.500893 -0.000005 0.549920
41.157845 39.926514 -0.000001 0.546517
43.109344 41.475063 0.000000 0.519722
44.465714 42.551361 0.000001 0.529915
45.465031 43.344337 0.000005 0.566445
nan nan nan 0.000000
nan nan nan 0.000000
nan nan nan 0.000000
-25.991306 -12.478104 16.634876 0.591882
-26.319805 -12.735058 13.397931 0.678431
-26.319798 -12.735054 10.123879 0.678431
-25.991322 -12.478127 6.846870 0.559945
19.823792 23.358507 2.662644 0.479866
20.433786 23.835642 1.350028 0.490089
20.868504 24.175678 0.075803 0.476905
32.507034 33.279350 -0.000020 0.530709
38.025917 37.596226 -0.000005 0.542428
41.099590 40.000454 -0.000002 0.568597
43.061859 41.535339 0.000000 0.526436
44.425705 42.602142 0.000001 0.520974
45.430534 43.388123 0.000005 0.600519
nan nan nan 0.000000
nan nan nan 0.000000
nan nan nan 0.000000
nan nan nan 0.000000
nan nan nan 0.000000
-27.119251 -12.478035 10.162726 0.521904
-27.119350 -12.478119 6.890637 0.570123
-27.119244 -12.478035 3.629046 0.481819
20.750223 24.429762 1.360080 0.473594
20.761330 24.438324 0.079558 0.487098
32.402588 33.413841 -0.000019 0.541314
37.951473 37.692085 -0.000005 0.543236
41.041855 40.074795 -0.000002 0.552773
43.014790 41.595947 0.000000 0.534066
44.386051 42.653202 0.000001 0.541360
45.396347 43.432148 0.000005 0.541100
nan nan nan 0.000000
nan nan nan 0.000000
nan nan nan 0.000000
nan nan nan 0.000000
nan nan nan 0.000000
nan nan nan 0.000000
nan nan nan 0.000000
nan nan nan 0.000000
20.714033 24.745150 1.362747 0.459831
20.775703 24.792017 0.090680 0.464393
32.299084 33.549061 -0.000020 0.526177
37.877701 37.788460 -0.000005 0.545403
40.984642 40.149540 -0.000001 0.553643
42.968147 41.656879 -0.000000 0.556786
44.346756 42.704536 0.000001 0.565667
45.362465 43.476410 0.000005 0.576028
nan nan nan 0.000000
nan nan nan 0.000000
nan nan nan 0.000000
nan nan nan 0.000000
nan nan nan 0.000000
nan nan nan 0.000000
nan nan nan 0.000000
nan nan nan 0.000000
-11.952557 0.618130 0.698230 0.476921
19.134117 23.901493 -0.000047 0.541024
32.196526 33.685001 -0.000019 0.538415
37.804600 37.885349 -0.000006 0.541131
40.927952 40.224686 -0.000001 0.515343
42.921936 41.718140 0.000000 0.557061
44.307823 42.756145 0.000001 0.547234
45.328892 43.520908 0.000005 0.519585
nan nan nan 0.000000
nan nan nan 0.000000
nan nan nan 0.000000
nan nan nan 0.000000
nan nan nan 0.000000
nan nan nan 0.000000
nan nan nan 0.000000
-12.262558 1.079590 3.301335 0.480598
-12.150372 1.162399 0.700947 0.503838
18.964523 24.129572 -0.000047 0.537926
32.094917 33.821651 -0.000020 0.527642
37.732182 37.982750 -0.000006 0.536187
40.871784 40.300217 -0.000002 0.540505
42.876144 41.779716 0.000000 0.569314
44.269249 42.808025 0.000002 0.509575
45.295631 43.565639 0.000005 0.543374
nan nan nan 0.000000
nan nan nan 0.000000
nan nan nan 0.000000
nan nan nan 0.000000
nan nan nan 0.000000
nan nan nan 0.000000
nan nan nan 0.000000
-12.844120 1.343082 3.306465 0.475578
-12.345943 1.705460 0.703618 0.494545
18.796532 24.358833 -0.000048 0.541329
31.994263 33.959007 -0.000020 0.538643
37.660439 38.080647 -0.000006 0.534966
40.816147 40.376144 -0.000002 0.545968
42.830791 41.841618 0.000000 0.525856
44.231037 42.860172 0.000001 0.550225
45.262684 43.610603 0.000005 0.539147
nan nan nan 0.000000
nan nan nan 0.000000
nan nan nan 0.000000
nan nan nan 0.000000
nan nan nan 0.000000
nan nan nan 0.000000
nan nan nan 0.000000
-13.647465 1.453022 3.316068 0.482292
-12.232742 2.467079 0.712415 0.476204
18.630150 24.589268 -0.000047 0.539803
31.894573 34.097065 -0.000020 0.547509
37.589386 38.179047 -0.000006 0.536263
40.761047 40.452457 -0.000002 0.515923
42.785866 41.903828 0.000000 0.556909
44.193192 42.912582 0.000001 0.508217
45.230049 43.655792 0.000005 0.534249
nan nan nan 0.000000
nan nan nan 0.000000
nan nan nan 0.000000
-5.162460 8.133137 12.329911 0.608179
nan nan nan 0.000000
nan nan nan 0.000000
nan nan nan 0.000000
-13.412197 2.306561 3.304835 0.490623
nan nan nan 0.000000
18.465382 24.820854 -0.000047 0.543313
31.795855 34.235817 -0.000020 0.545693
37.519020 38.277939 -0.000006 0.558053
40.706474 40.529152 -0.000002 0.521523
42.741379 41.966351 0.000000 0.514687
44.155712 42.965256 0.000001 0.549111
45.197735 43.701210 0.000005 0.540978
nan nan nan 0.000000
nan nan nan 0.000000
nan nan nan 0.000000
-4.815704 8.966717 12.216812 0.656703
-5.046547 8.806084 9.955917 0.571344
-5.045021 8.807140 7.670432 0.608865
-5.047516 8.805408 5.397540 0.717556
-5.047253 8.805592 3.131701 0.611719
-5.045948 8.806499 0.868327 0.681865
18.302219 25.053581 -0.000047 0.538643
31.698095 34.375248 -0.000021 0.550378
37.449348 38.377319 -0.000006 0.540017
40.652443 40.606228 -0.000002 0.527489
42.697330 42.029182 0.000000 0.544335
44.118603 43.018196 0.000002 0.576699
45.165737 43.746853 0.000005 0.526284
35.803474 37.396145 6.833667 0.641260
35.803471 37.396141 6.167770 0.617380
35.803467 37.396141 5.511223 0.683284
35.803467 37.396137 4.862453 0.658640
35.803463 37.396141 4.219951 0.677211
35.803467 37.396141 3.582270 0.640772
35.803467 37.396137 2.948004 0.621225
35.803467 37.396137 2.315776 0.609735
35.805279 37.397381 1.684260 0.660029
