# This PCD file was generated using the MATLABÂ® pcwrite function
# from Computer Vision ToolboxÂ®.
# .PCD v.7 - Point Cloud Data file format
VERSION .7
FIELDS x y z intensity
SIZE 4 4 4 4
TYPE F F F F
COUNT 1 1 1 1
WIDTH 1203
HEIGHT 1
VIEWPOINT 0 0 0 1 0 0 0
POINTS 1203
DATA ascii
-35.313782 87.400269 -0.000016 0.555413
-36.730934 85.351326 -0.000013 0.533974
-37.715908 83.927238 -0.000011 0.547433
-38.441589 82.878036 -0.000010 0.507942
-15.968914 114.792381 13.777118 0.141894
-15.968895 114.792412 12.154684 0.142351
-15.796413 115.038101 10.609640 0.698039
-15.858717 114.949356 9.002747 0.644373
-17.346710 112.829773 7.132996 0.253498
-17.348471 112.827271 5.658292 0.205142
-17.349415 112.825912 4.191755 0.205615
-15.738647 115.120392 2.775938 0.737774
-15.796412 115.038101 1.225707 0.732891
-19.591618 109.632004 -0.000045 0.538399
-28.968567 96.274933 -0.000028 0.546578
-32.994396 90.540314 -0.000020 0.545678
-35.236557 87.346451 -0.000016 0.520882
-36.667976 85.307457 -0.000013 0.539834
-37.662865 83.890282 -0.000011 0.528328
-38.395855 82.846169 -0.000010 0.572747
-15.966700 114.229828 13.662390 0.148394
-15.966656 114.229889 12.055770 0.144152
-15.794180 114.471962 10.525771 0.732784
-15.794176 114.471970 8.950459 0.722393
-17.351938 112.285614 7.081538 0.321569
-17.349207 112.289452 5.622254 0.237797
-17.349703 112.288757 4.170203 0.234165
-15.736406 114.553047 2.768379 0.705394
-15.794176 114.471970 1.233249 0.721614
-19.359558 109.467896 -0.000045 0.542290
-28.829533 96.176605 -0.000028 0.531777
-32.895298 90.470230 -0.000020 0.538888
-35.159702 87.292099 -0.000016 0.537255
-36.605324 85.263145 -0.000013 0.526818
-37.610085 83.852943 -0.000011 0.532815
-38.350346 82.813980 -0.000009 0.506371
-15.939085 113.713287 13.561312 0.700801
-15.964451 113.678207 11.959249 0.141360
-15.791990 113.916718 10.443927 0.715358
-15.791988 113.916725 8.883738 0.733455
-17.384394 111.714447 7.025980 0.117647
-17.384981 111.713638 5.582188 0.117647
-17.386221 111.711922 4.146134 0.117647
-15.734221 113.996613 2.761003 0.725063
-15.791985 113.916725 1.240610 0.734188
-19.128660 109.302155 -0.000045 0.537255
-28.691195 96.077309 -0.000028 0.536873
-32.796700 90.399460 -0.000020 0.539986
-35.083233 87.237213 -0.000016 0.555962
-36.542984 85.218399 -0.000013 0.526314
-37.557564 83.815254 -0.000011 0.514763
-38.305061 82.781479 -0.000010 0.497108
-15.732075 113.450745 13.538679 0.736171
-15.962297 113.136978 11.865035 0.105257
-15.789841 113.372009 10.364043 0.733333
-15.789841 113.372017 8.818613 0.718303
-17.348097 111.248352 6.985096 0.292363
-17.344311 111.253510 5.553655 0.235294
-17.342508 111.255966 4.129292 0.250416
-15.732067 113.450752 2.753803 0.726986
-15.789835 113.372025 1.247794 0.722469
-18.898912 109.134827 -0.000046 0.536934
-28.553551 95.977051 -0.000028 0.523537
-32.698593 90.328003 -0.000021 0.552407
-35.007149 87.181793 -0.000015 0.540337
-36.480957 85.173218 -0.000013 0.524330
-37.505310 83.777191 -0.000011 0.542885
-38.260002 82.748657 -0.000010 0.528161
-15.729967 112.915070 13.431094 0.735439
-15.729967 112.915070 11.856321 0.740780
-15.787735 112.837486 10.286056 0.721569
-15.787733 112.837494 8.755035 0.709804
-17.344978 110.745972 6.938834 0.304738
-17.344973 110.745987 5.520156 0.235294
-17.340996 110.751328 4.109402 0.237873
-15.729958 112.915085 2.746776 0.732876
-15.787731 112.837494 1.254808 0.718563
-18.670343 108.965897 -0.000047 0.541024
-28.416611 95.875832 -0.000028 0.543191
-32.600986 90.255859 -0.000021 0.546380
-34.931454 87.125847 -0.000016 0.525368
-36.419250 85.127609 -0.000013 0.550042
-37.453320 83.738762 -0.000011 0.552865
-38.215179 82.715523 -0.000010 0.529152
-15.727901 112.389267 13.326037 0.725643
-15.727898 112.389275 11.765738 0.727520
-15.713583 112.408218 10.231665 0.726177
-15.785723 112.312729 8.692942 0.729305
-17.336477 110.260010 6.894697 0.263478
-17.338890 110.256821 5.488369 0.222385
-17.337580 110.258553 4.090135 0.223880
-15.727886 112.389290 2.739912 0.721569
-15.785721 112.312737 1.261658 0.730022
-18.442961 108.795364 -0.000047 0.539940
-28.280380 95.773659 -0.000028 0.547784
-32.503891 90.183029 -0.000021 0.543770
-34.856148 87.069366 -0.000016 0.550881
-36.357857 85.081566 -0.000013 0.534936
-37.401604 83.699974 -0.000011 0.584527
-38.170582 82.682083 -0.000010 0.550927
-15.725866 111.873032 13.223442 0.728237
-15.725863 111.873032 11.677276 0.711101
-15.725866 111.873032 10.152817 0.740093
-15.783682 111.797607 8.632317 0.722530
-17.341743 109.764870 6.849000 0.310735
-17.338827 109.768677 5.456519 0.247059
-17.338514 109.769081 4.070971 0.223529
-15.725855 111.873047 2.733211 0.719966
-15.783682 111.797607 1.268346 0.735973
-18.216776 108.623253 -0.000047 0.543404
-28.144863 95.670540 -0.000028 0.531731
-32.407303 90.109535 -0.000020 0.536522
-34.781242 87.012367 -0.000016 0.556649
-36.296795 85.035095 -0.000013 0.538888
-37.350155 83.660820 -0.000011 0.531090
-38.126225 82.648323 -0.000010 0.644114
-15.723866 111.366043 13.123222 0.714626
-15.723867 111.366028 11.590863 0.704753
-15.723867 111.366028 10.080016 0.733333
-15.781679 111.291687 8.573097 0.734112
-17.343735 109.282951 6.804975 0.249836
-17.343588 109.283142 5.424768 0.209171
-17.343996 109.282616 4.051889 0.185534
-15.723858 111.366043 2.726663 0.698833
-15.781677 111.291695 1.274878 0.721431
-17.991812 108.449554 -0.000046 0.536995
-28.010075 95.566475 -0.000028 0.542611
-32.311230 90.035362 -0.000021 0.546487
-34.706734 86.954842 -0.000016 0.547967
-36.236053 84.988205 -0.000013 0.548394
-37.298985 83.621315 -0.000011 0.536797
-38.082100 82.614258 -0.000010 0.536141
-15.721909 110.867989 13.025309 0.737514
-15.721909 110.867981 11.506438 0.738811
-15.721910 110.867981 10.008891 0.725612
-15.779711 110.794716 8.515240 0.698039
-17.330978 108.828331 6.764706 0.319844
-17.332146 108.826859 5.395893 0.235294
-17.333569 108.825050 4.034508 0.223529
-15.721899 110.867996 2.720267 0.717388
-15.779715 110.794708 1.281261 0.709804
-17.768059 108.274292 -0.000046 0.537697
-27.876017 95.461472 -0.000028 0.529595
-32.215675 89.960526 -0.000021 0.536019
-34.632629 86.896805 -0.000016 0.534005
-36.175640 84.940887 -0.000013 0.554467
-37.248089 83.581451 -0.000011 0.561028
-38.038216 82.579887 -0.000010 0.562219
-15.719986 110.378601 12.929634 0.752392
-15.719986 110.378601 11.423943 0.717571
-15.719984 110.378601 9.939394 0.721645
-15.777779 110.306381 8.458704 0.721569
-17.336645 108.358490 6.721983 0.306874
-17.333807 108.362038 5.365968 0.235294
-17.337614 108.357285 4.016392 0.239399
-15.719973 110.378616 2.714017 0.720378
-15.777775 110.306389 1.287498 0.733150
-17.545528 108.097481 -0.000047 0.541176
-27.742685 95.355545 -0.000029 0.531365
-32.120651 89.885017 -0.000021 0.543587
-34.558933 86.838242 -0.000016 0.538231
-36.115562 84.893150 -0.000013 0.538003
-37.197475 83.541237 -0.000011 0.548943
-37.994576 82.545212 -0.000010 0.554314
-15.775869 109.826447 12.813166 0.721431
-15.718090 109.897614 11.343318 0.727581
-15.718088 109.897621 9.871469 0.713207
-15.794733 109.803207 8.399014 0.721401
-17.362524 107.871956 6.676537 0.124727
-17.362757 107.871674 5.333172 0.129412
-17.361586 107.873108 3.997134 0.129412
-15.718079 109.897629 2.707908 0.724010
-15.775869 109.826447 1.293593 0.689601
-17.324238 107.919121 -0.000047 0.539727
-27.610104 95.248672 -0.000029 0.540398
-32.026154 89.808853 -0.000021 0.549706
-34.485649 86.779175 -0.000016 0.519478
-36.055817 84.844994 -0.000013 0.560967
-37.147141 83.500664 -0.000011 0.551324
-37.951176 82.510223 -0.000010 0.547463
-15.774006 109.354614 12.721959 0.721889
-15.716227 109.424774 11.264508 0.733639
-15.716230 109.424774 9.805075 0.729137
-15.716246 109.424759 8.362921 0.726329
-17.327467 107.468079 6.643119 0.305089
-17.329027 107.466187 5.309183 0.235294
-17.327765 107.467720 3.982769 0.335073
-15.716215 109.424789 2.701936 0.719356
-15.774004 109.354614 1.299551 0.720104
-17.104193 107.739227 -0.000047 0.537270
-27.478268 95.140892 -0.000029 0.525734
-31.932190 89.732025 -0.000021 0.549096
-34.412773 86.719589 -0.000016 0.534936
-35.996407 84.796425 -0.000013 0.545663
-37.097092 83.459747 -0.000011 0.528496
-37.908020 82.474945 -0.000010 0.525963
-15.772171 108.890648 12.632795 0.719905
-15.714397 108.959824 11.187465 0.734844
-15.714394 108.959824 9.740168 0.739269
-15.714401 108.959808 8.310009 0.724605
-17.329132 107.026535 6.603898 0.302617
-17.328665 107.027100 5.281489 0.235294
-17.326881 107.029236 3.966215 0.384375
-15.714380 108.959839 2.696100 0.722805
-15.772163 108.890656 1.305376 0.713619
-16.885424 107.557777 -0.000047 0.542550
-27.347197 95.032181 -0.000029 0.535851
-31.838764 89.654549 -0.000021 0.540169
-34.340321 86.659508 -0.000016 0.561715
-35.937340 84.747437 -0.000013 0.572427
-37.047329 83.418472 -0.000011 0.525078
-37.865112 82.439362 -0.000010 0.519326
-15.770432 108.434235 12.545588 0.709804
-15.712597 108.502502 11.112127 0.733333
-15.712622 108.502472 9.676693 0.721569
-17.374987 106.540176 7.876776 0.202441
-17.335211 106.587135 6.564764 0.094118
-17.335464 106.586830 5.253504 0.139132
-17.335091 106.587273 3.949339 0.114244
-15.712584 108.502518 2.690391 0.722026
-15.770435 108.434235 1.311074 0.723552
-16.667913 107.374825 -0.000047 0.536004
-27.216881 94.922562 -0.000029 0.540230
-31.745884 89.576416 -0.000021 0.558236
-34.268284 86.598915 -0.000016 0.562264
-35.878616 84.698036 -0.000013 0.533669
-36.997856 83.376862 -0.000011 0.573510
-37.822456 82.403481 -0.000010 0.536019
-15.768661 107.985306 12.460328 0.709804
-15.710827 108.052612 11.038457 0.718486
-15.710848 108.052589 9.614627 0.699779
-17.373285 106.117752 7.829270 0.117693
-17.324293 106.174774 6.529490 0.298253
-17.325850 106.172966 5.228199 0.235294
-17.327423 106.171135 3.934031 0.352941
-15.710804 108.052635 2.684810 0.720302
-15.768658 107.985306 1.316643 0.717754
-16.451691 107.190353 -0.000047 0.541497
-27.087332 94.812042 -0.000029 0.539330
-31.653553 89.497635 -0.000021 0.538140
-34.196674 86.537819 -0.000017 0.530968
-35.820240 84.648232 -0.000013 0.529946
-36.948673 83.334900 -0.000011 0.573480
-37.780052 82.367302 -0.000010 0.563485
-15.766916 107.543549 12.376937 0.709804
-15.766907 107.543556 10.947390 0.724285
-15.709099 107.609894 9.553922 0.733562
-17.371902 105.701752 7.782740 0.131472
-17.322422 105.758530 6.493420 0.303349
-17.323780 105.756973 5.202517 0.228626
-17.325907 105.754532 3.918603 0.353216
-15.709068 107.609924 2.679350 0.723476
-15.766912 107.543549 1.322091 0.733333
-16.236761 107.004379 -0.000047 0.538247
-26.958561 94.700615 -0.000029 0.545266
-31.561768 89.418221 -0.000021 0.531960
-34.125496 86.476227 -0.000016 0.528862
-35.762211 84.598022 -0.000013 0.509071
-36.899788 83.292595 -0.000011 0.551812
-37.737900 82.330826 -0.000010 0.526299
-15.765198 107.108757 12.295362 0.709804
-15.765192 107.108765 10.877054 0.706905
-15.707384 107.174171 9.494537 0.724193
-17.370062 105.292854 7.737330 0.117647
-17.340946 105.325798 6.454597 0.136538
-17.339840 105.327049 5.175152 0.129412
-17.341333 105.325363 3.902256 0.129412
-15.707350 107.174210 2.674010 0.733333
-15.765198 107.108757 1.327420 0.711482
-16.023134 106.816902 -0.000047 0.548318
-26.830572 94.588287 -0.000029 0.543038
-31.470543 89.338165 -0.000021 0.541695
-34.054749 86.414139 -0.000016 0.542382
-35.704536 84.547401 -0.000013 0.552254
-36.851196 83.249954 -0.000011 0.532296
-37.696003 82.294060 -0.000010 0.513893
-15.763508 106.680733 12.215556 0.724651
-15.763504 106.680740 10.808240 0.744228
-15.705690 106.745239 9.436441 0.729244
-17.368174 104.890404 7.692924 0.107866
-17.320610 104.943466 6.423298 0.278431
-17.321407 104.942581 5.152608 0.235294
-17.319340 104.944885 3.889012 0.224537
-15.705662 106.745270 2.668785 0.733333
-15.763504 106.680740 1.332633 0.715450
-15.705650 106.745285 -0.007788 0.731350
-26.703367 94.475082 -0.000029 0.538674
-31.379881 89.257469 -0.000021 0.532387
-33.984436 86.351555 -0.000016 0.531456
-35.647213 84.496384 -0.000013 0.549462
-36.802906 83.206978 -0.000011 0.513283
-37.654366 82.256996 -0.000010 0.539559
-15.761841 106.259277 12.137468 0.698039
-15.761841 106.259277 10.740907 0.722484
-15.704014 106.322891 9.379600 0.738018
-17.367388 104.492928 7.649233 0.114961
-17.317751 104.547531 6.389705 0.301961
-17.317303 104.548027 5.128819 0.235294
-17.315163 104.550385 3.874763 0.239338
-15.704000 106.322906 2.663671 0.737469
-15.761837 106.259277 1.337735 0.729885
-15.703987 106.322922 0.007560 0.733577
-26.576958 94.360977 -0.000029 0.539605
-31.289780 89.176147 -0.000021 0.534478
-33.914558 86.288490 -0.000016 0.549462
-35.590248 84.444969 -0.000013 0.503578
-36.754917 83.163658 -0.000011 0.537652
-37.612988 82.219650 -0.000010 0.520241
-15.760206 105.844193 12.061048 0.709804
-15.760202 105.844193 10.675017 0.732815
-15.702381 105.906921 9.323969 0.721569
-17.365644 104.102539 7.606694 0.117006
-17.365482 104.102722 6.348252 0.129412
-17.363022 104.105392 5.099514 0.129412
-17.360828 104.107765 3.857209 0.129412
-15.702360 105.906937 2.658669 0.714076
-15.760202 105.844193 1.342727 0.736553
-15.702351 105.906952 0.022580 0.733333
-26.451344 94.246010 -0.000029 0.537118
-31.200256 89.094200 -0.000021 0.552422
-33.845127 86.224930 -0.000016 0.544244
-35.533646 84.393158 -0.000013 0.526268
-36.707230 83.120010 -0.000011 0.555215
-37.571869 82.182014 -0.000010 0.538369
-15.700771 105.497139 12.007466 0.723293
-15.758581 105.435303 10.610531 0.710262
-15.931293 105.250534 9.208096 0.106126
-17.361807 103.720238 7.565518 0.136034
-17.314819 103.770500 6.324205 0.280430
-17.313721 103.771675 5.082211 0.242618
-17.312756 103.772713 3.846752 0.196658
-15.700747 105.497169 2.653772 0.728328
-15.758581 105.435303 1.347614 0.730068
-15.700739 105.497177 0.037279 0.729061
-26.326542 94.130150 -0.000029 0.546685
-31.111298 89.011627 -0.000021 0.533684
-33.776138 86.160889 -0.000016 0.550103
-35.477409 84.340950 -0.000013 0.546319
-36.659847 83.076027 -0.000011 0.502205
-37.531013 82.144089 -0.000010 0.545281
-15.699181 105.093407 11.934101 0.721981
-15.756989 105.032425 10.547409 0.720104
-15.929703 104.850227 9.155260 0.121431
-17.364296 103.336884 7.523858 0.114000
-17.312908 103.391090 6.292575 0.295201
-17.313580 103.390381 5.059454 0.247059
-17.313255 103.390724 3.833070 0.223529
-15.699162 105.093430 2.648980 0.732891
-15.756989 105.032425 1.352396 0.721019
-15.699150 105.093437 0.051669 0.733333
-26.202551 94.013428 -0.000029 0.557076
-31.022926 88.928429 -0.000021 0.529671
-33.707600 86.096375 -0.000016 0.547005
-35.421532 84.288353 -0.000013 0.531167
-36.612774 83.031715 -0.000011 0.542382
-37.490425 82.105881 -0.000010 0.570748
-15.697617 104.695518 11.862279 0.730571
-15.755417 104.635391 10.485615 0.710491
-15.928144 104.455711 9.103530 0.114458
-17.360046 102.966171 7.484516 0.122652
-17.314339 103.013718 6.261058 0.280781
-17.315659 103.012344 5.036915 0.258824
-17.314255 103.013809 3.819643 0.200748
-15.697592 104.695541 2.644287 0.717281
-15.755428 104.635376 1.357077 0.732158
-15.697584 104.695557 0.065754 0.721569
-26.079376 93.895844 -0.000029 0.530022
-30.935131 88.844627 -0.000021 0.532387
-33.639511 86.031380 -0.000016 0.539117
-35.366024 84.235367 -0.000013 0.514076
-36.566010 82.987076 -0.000011 0.525765
-37.450108 82.067390 -0.000009 0.526619
-15.696068 104.303329 11.791965 0.720073
-15.753866 104.244034 10.425118 0.722438
-15.926603 104.066841 9.052885 0.150729
-17.358139 102.598343 7.445511 0.117647
-17.313927 102.643692 6.230506 0.237964
-17.313053 102.644585 5.015397 0.231800
-17.313997 102.643616 3.806586 0.175860
-15.696041 104.303360 2.639694 0.710521
-15.753860 104.244041 1.361661 0.722026
-15.696037 104.303360 0.079545 0.719692
-25.957024 93.777405 -0.000029 0.533165
-30.847925 88.760208 -0.000021 0.542779
-33.571880 85.965912 -0.000016 0.547189
-35.310890 84.181992 -0.000013 0.524376
-36.519562 82.942108 -0.000011 0.549584
-37.410057 82.028618 -0.000010 0.552422
-15.694550 103.916672 11.723115 0.678737
-15.752352 103.858200 10.365879 0.733333
-15.925085 103.683456 9.003298 0.355428
-17.360958 102.230934 7.406325 0.125490
-17.309935 102.282547 6.201181 0.278431
-17.308170 102.284332 4.994598 0.236149
-17.309811 102.282677 3.794075 0.233555
-15.694527 103.916687 2.635197 0.733776
-15.752344 103.858208 1.366150 0.721569
-15.694515 103.916702 0.093048 0.725185
-25.835495 93.658127 -0.000030 0.535515
-30.761311 88.675179 -0.000021 0.536065
-33.504707 85.899971 -0.000016 0.536583
-35.256126 84.128235 -0.000014 0.549752
-36.473427 82.896820 -0.000011 0.527825
-37.370277 81.989571 -0.000010 0.556710
-15.693048 103.535393 11.655694 0.730465
-15.750858 103.477722 10.307868 0.714763
-15.736687 103.491859 9.002775 0.718334
-17.356451 101.876030 7.369488 0.101839
-17.304388 101.927971 6.172722 0.278431
-17.305000 101.927353 4.974036 0.247059
-17.309700 101.922668 3.781545 0.205890
-15.693022 103.535416 2.630791 0.698360
-15.750853 103.477730 1.370545 0.740414
-15.693018 103.535423 0.106271 0.737728
-25.714815 93.537979 -0.000029 0.538109
-30.675293 88.589554 -0.000021 0.531518
-33.438000 85.833557 -0.000016 0.543999
-35.201744 84.074097 -0.000013 0.534463
-36.427612 82.851212 -0.000011 0.545632
-37.330772 81.950249 -0.000010 0.518181
-15.691566 103.159348 11.589666 0.702770
-15.749378 103.102478 10.251059 0.733333
-15.749374 103.102478 8.951273 0.727642
-17.323874 101.553589 7.339259 0.128298
-17.323877 101.553589 6.140818 0.121950
-17.323875 101.553589 4.951368 0.122286
-17.323874 101.553589 3.768289 0.119799
-15.691547 103.159370 2.626478 0.732143
-15.749374 103.102478 1.374849 0.741176
-15.691530 103.159386 0.119220 0.728420
-25.594971 93.417000 -0.000030 0.538079
-30.589876 88.503326 -0.000021 0.547951
-33.371754 85.766685 -0.000016 0.551812
-35.147739 84.019585 -0.000013 0.544533
-36.382114 82.805283 -0.000011 0.545861
-37.291542 81.910645 -0.000010 0.539330
-15.690111 102.788391 11.524994 0.716625
-15.690098 102.788406 10.212814 0.726116
-15.747923 102.732315 8.904394 0.710582
-16.961512 101.555016 7.377858 0.117647
-16.961512 101.555016 6.170752 0.135729
-16.961512 101.555016 4.972703 0.107713
-16.961512 101.555016 3.781073 0.136110
-15.690079 102.788422 2.622253 0.731548
-15.747915 102.732315 1.379065 0.731167
-15.690073 102.788429 0.131904 0.721843
-25.475973 93.295197 -0.000029 0.542031
-30.505060 88.416504 -0.000021 0.524727
-33.305981 85.699356 -0.000016 0.547494
-35.094116 83.964691 -0.000013 0.526085
-36.336937 82.759041 -0.000011 0.546593
-37.252590 81.870773 -0.000009 0.505638
-15.688667 102.422394 11.461650 0.721904
-15.688654 102.422409 10.158197 0.729473
-15.746487 102.367088 8.858477 0.709804
-16.593859 101.556465 7.417281 0.117647
-16.593859 101.556465 6.201327 0.127764
-16.593849 101.556473 4.994498 0.127916
-16.593853 101.556473 3.794130 0.129595
-15.688641 102.422424 2.618115 0.729290
-15.746485 102.367088 1.383195 0.739513
-15.688635 102.422432 0.144328 0.730617
-25.357826 93.172562 -0.000030 0.536446
-30.420855 88.329102 -0.000021 0.546990
-33.240673 85.631569 -0.000016 0.547936
-35.040878 83.909431 -0.000013 0.520806
-36.292088 82.712479 -0.000011 0.509514
-37.213917 81.830627 -0.000010 0.513344
-15.687235 102.061218 11.399600 0.752895
-15.687233 102.061226 10.104692 0.735073
-15.745070 102.006668 8.813495 0.720287
-16.220737 101.557945 7.457560 0.117647
-16.220741 101.557938 6.232564 0.117647
-16.220737 101.557945 5.016762 0.110597
-16.220732 101.557953 3.807468 0.117647
-15.687216 102.061241 2.614061 0.729198
-15.745064 102.006668 1.387239 0.733333
-15.687208 102.061249 0.156497 0.733333
-25.240543 93.049095 -0.000029 0.540871
-30.337261 88.241104 -0.000021 0.541054
-33.175842 85.563324 -0.000016 0.521218
-34.988026 83.853790 -0.000013 0.571176
-36.247562 82.665611 -0.000011 0.528817
-37.175526 81.790215 -0.000010 0.527443
-15.685837 101.704727 11.338808 0.736919
-15.685829 101.704735 10.052274 0.735943
-15.743673 101.650925 8.769428 0.722652
-15.842024 101.559433 7.498710 0.132235
-15.842018 101.559441 6.264481 0.117250
-15.842020 101.559441 5.039509 0.117647
-15.842018 101.559441 3.821098 0.118135
-15.685814 101.704750 2.610090 0.736904
-15.743664 101.650932 1.391203 0.712154
-15.685808 101.704758 0.168421 0.730526
-25.124126 92.924820 -0.000030 0.540078
-30.254286 88.152519 -0.000021 0.527016
-33.111492 85.494629 -0.000016 0.523903
-34.935566 83.797791 -0.000013 0.536095
-36.203362 82.618431 -0.000011 0.542123
-37.137417 81.749535 -0.000010 0.512917
-15.684444 101.352798 11.279248 0.690990
-15.684439 101.352806 10.000919 0.734447
-15.742289 101.299744 8.726254 0.725612
-15.684437 101.352814 7.495084 0.739544
-15.684431 101.352814 6.261667 0.709880
-15.742283 101.299744 5.031067 0.733333
-15.684427 101.352814 3.819897 0.716396
-15.684427 101.352821 2.606198 0.715694
-15.742283 101.299744 1.395086 0.733333
-15.684420 101.352829 0.180102 0.738613
-25.008581 92.799728 -0.000029 0.538903
-30.171926 88.063370 -0.000021 0.531746
-33.047623 85.425484 -0.000016 0.550591
-34.883495 83.741425 -0.000013 0.537362
-36.159500 82.570938 -0.000011 0.563867
-37.099594 81.708588 -0.000009 0.501320
-15.683071 101.005325 11.220887 0.699611
-15.683071 101.005325 9.950600 0.738811
-15.740923 100.952995 8.683950 0.725826
-15.683067 101.005325 7.460524 0.752941
-15.683065 101.005333 6.234863 0.733272
-15.740927 100.952995 5.012003 0.733333
-15.683058 101.005333 3.808451 0.733333
-15.683056 101.005341 2.602386 0.717586
-15.740917 100.953003 1.398890 0.734752
-15.683054 101.005341 0.191548 0.735882
-24.893906 92.673843 -0.000030 0.539330
-30.090195 87.973640 -0.000021 0.537789
-32.984234 85.355896 -0.000016 0.538842
-34.831821 83.684692 -0.000013 0.535973
-36.115963 82.523148 -0.000011 0.553475
-37.062057 81.667381 -0.000010 0.548837
-15.681717 100.662170 11.163704 0.747585
-15.681717 100.662170 9.901291 0.733333
-15.739576 100.610565 8.642496 0.733333
-15.681723 100.662170 7.426656 0.733303
-15.681711 100.662178 6.208600 0.722622
-15.739574 100.610565 4.993324 0.733333
-15.681711 100.662178 3.797235 0.722377
-15.681707 100.662178 2.598651 0.744595
-15.739576 100.610565 1.402618 0.732784
-15.681700 100.662186 0.202764 0.730510
-24.780111 92.547157 -0.000030 0.543221
-30.009089 87.883347 -0.000021 0.537865
-32.921333 85.285866 -0.000016 0.540780
-34.780548 83.627602 -0.000013 0.547539
-36.072762 82.475052 -0.000011 0.526787
-37.024811 81.625908 -0.000010 0.550729
-15.680380 100.323227 11.107662 0.730739
-15.680378 100.323227 9.852973 0.725963
-15.738241 100.272339 8.601875 0.723293
-15.680378 100.323227 7.393471 0.733333
-15.680380 100.323227 6.182861 0.734173
-15.738245 100.272339 4.975017 0.733333
-15.680372 100.323235 3.786243 0.728649
-15.680370 100.323242 2.594989 0.736919
-15.738241 100.272339 1.406272 0.732341
-15.680361 100.323242 0.213755 0.726848
-24.667210 92.419678 -0.000030 0.547753
-29.928619 87.792488 -0.000021 0.508766
-32.858921 85.215401 -0.000016 0.539544
-34.729668 83.570160 -0.000013 0.512444
-36.029903 82.426659 -0.000010 0.584695
-36.987850 81.584183 -0.000009 0.561242
-15.679058 99.988396 11.052744 0.733166
-15.869879 99.822922 9.751068 0.723583
-15.736902 99.938232 8.562069 0.689998
-15.736906 99.938232 7.349591 0.704814
-15.679064 99.988388 6.157637 0.738659
-15.736904 99.938232 4.957080 0.733288
-15.679058 99.988396 3.775472 0.727077
-15.679056 99.988396 2.591401 0.739086
-15.736910 99.938225 1.409851 0.709804
-15.679047 99.988403 0.224526 0.734432
-24.555201 92.291412 -0.000029 0.543175
-29.848785 87.701065 -0.000021 0.552102
-32.797009 85.144501 -0.000016 0.526177
-34.679192 83.512360 -0.000013 0.537621
-35.987373 82.377968 -0.000011 0.540856
-36.951187 81.542191 -0.000010 0.540276
-15.735617 99.608078 10.979849 0.727749
-15.908497 99.460266 9.693640 0.142382
-15.735605 99.608093 8.523051 0.724239
-15.735609 99.608086 7.317782 0.720729
-15.677755 99.657547 6.132918 0.723644
-15.735611 99.608086 4.939497 0.709804
-15.677753 99.657555 3.764916 0.742870
-15.677752 99.657555 2.587885 0.740353
-15.735609 99.608086 1.413361 0.721569
-15.677742 99.657562 0.235083 0.710033
-24.444090 92.162369 -0.000029 0.542458
-29.769588 87.609093 -0.000021 0.545296
-32.735588 85.073174 -0.000016 0.517098
-34.629120 83.454208 -0.000013 0.529671
-35.945194 82.328972 -0.000011 0.516564
-36.914814 81.499954 -0.000009 0.550286
-15.734341 99.281815 10.927199 0.725795
-15.907207 99.136093 9.648537 0.135943
-15.734325 99.281830 8.484808 0.716838
-15.734325 99.281830 7.286605 0.721874
-15.676470 99.330597 6.108688 0.712108
-15.734331 99.281822 4.922263 0.709804
-15.676466 99.330597 3.754568 0.733333
-15.676464 99.330605 2.584439 0.724376
-15.734331 99.281822 1.416800 0.713222
-15.676455 99.330612 0.245430 0.722164
-24.333891 92.032547 -0.000029 0.549264
-29.691036 87.516563 -0.000021 0.537148
-32.674667 85.001419 -0.000016 0.545861
-34.579460 83.395714 -0.000013 0.549401
-35.903355 82.279694 -0.000011 0.548165
-36.878738 81.457458 -0.000009 0.540703
-15.733072 98.959351 10.875598 0.733333
-15.905939 98.815674 9.604330 0.130480
-15.733063 98.959358 8.447323 0.733333
-15.733063 98.959358 7.256045 0.727245
-15.675200 99.007446 6.084938 0.719829
-15.733067 98.959351 4.905371 0.709804
-15.675198 99.007446 3.744427 0.735485
-15.675184 99.007462 2.581060 0.698955
-15.733067 98.959351 1.420171 0.732372
-15.675188 99.007462 0.255572 0.726772
-24.224588 91.901962 -0.000028 0.541894
-29.613132 87.423492 -0.000021 0.546944
-32.614250 84.929237 -0.000016 0.548699
-34.530205 83.336868 -0.000013 0.518013
-35.861858 82.230118 -0.000011 0.558663
-36.842960 81.414711 -0.000010 0.537011
-15.731819 98.640572 10.825017 0.734615
-15.904690 98.498932 9.560994 0.149020
-15.731808 98.640579 8.410583 0.721569
-15.731812 98.640579 7.226093 0.747005
-15.673931 98.688004 6.061661 0.734752
-15.731813 98.640579 4.888814 0.752941
-15.673933 98.688004 3.734485 0.722713
-15.673931 98.688004 2.577749 0.697963
-15.731812 98.640579 1.423475 0.730892
-15.673922 98.688011 0.265513 0.721569
-24.116205 91.770622 -0.000028 0.546288
-29.535887 87.329880 -0.000020 0.548592
-32.554340 84.856636 -0.000016 0.536767
-34.481365 83.277679 -0.000013 0.508522
-35.820709 82.180252 -0.000011 0.543297
-36.807480 81.371719 -0.000010 0.557046
-15.730583 98.325394 10.775434 0.752941
-15.903452 98.185753 9.518514 0.147799
-15.672684 98.372162 8.388103 0.719783
-15.730572 98.325401 7.196730 0.740017
-15.672680 98.372162 6.038842 0.735637
-15.730577 98.325394 4.872583 0.730159
-15.672691 98.372154 3.724741 0.736858
-15.672686 98.372162 2.574503 0.733333
-15.730574 98.325394 1.426714 0.709804
-15.672676 98.372162 0.275258 0.725567
-24.008736 91.638535 -0.000028 0.533776
-29.459286 87.235733 -0.000021 0.531075
-32.494938 84.783615 -0.000016 0.523217
-34.432934 83.218155 -0.000013 0.552224
-35.779911 82.130104 -0.000011 0.549020
-36.772301 81.328484 -0.000010 0.559167
-15.729357 98.013718 10.726828 0.752941
-15.902224 97.876068 9.476871 0.139391
-15.671450 98.059830 8.352722 0.721843
-15.729355 98.013725 7.167946 0.731456
-15.671450 98.059830 6.016471 0.726024
-15.729355 98.013725 4.856672 0.733333
-15.671457 98.059830 3.715188 0.731456
-15.671455 98.059830 2.571321 0.724514
-15.729355 98.013725 1.429890 0.740536
-15.671450 98.059830 0.284810 0.731991
-23.902193 91.505692 -0.000029 0.542611
-29.383350 87.141052 -0.000020 0.529778
-32.436047 84.710190 -0.000016 0.520790
-34.384926 83.158295 -0.000013 0.542412
-35.739464 82.079674 -0.000011 0.555566
-36.737427 81.284996 -0.000009 0.506035
-15.728146 97.705467 10.679178 0.736660
-15.901018 97.569771 9.436049 0.143450
-15.670233 97.750923 8.318036 0.739528
-15.728140 97.705475 7.139728 0.723781
-15.670233 97.750923 5.994542 0.733333
-15.728140 97.705475 4.841074 0.733150
-15.670244 97.750916 3.705822 0.731350
-15.670238 97.750923 2.568201 0.732326
-15.728144 97.705467 1.433002 0.721752
-15.670237 97.750923 0.294176 0.725704
-23.796579 91.372116 -0.000029 0.542718
-29.308079 87.045837 -0.000020 0.539651
-32.377666 84.636345 -0.000016 0.555261
-34.337334 83.098099 -0.000013 0.560189
-35.699371 82.028961 -0.000011 0.550393
-36.702858 81.241272 -0.000009 0.534478
-15.726948 97.400543 10.632463 0.732189
-15.899820 97.266785 9.396029 0.138720
-15.669020 97.445366 8.284033 0.727825
-15.726944 97.400543 7.112064 0.716930
-15.669024 97.445358 5.973043 0.722255
-15.726944 97.400543 4.825783 0.734585
-15.669024 97.445358 3.696642 0.732296
-15.669039 97.445351 2.565143 0.718029
-15.726944 97.400543 1.436055 0.733333
-15.669029 97.445358 0.303357 0.721569
-23.691904 91.237793 -0.000029 0.537774
-29.233467 86.950104 -0.000021 0.526421
-32.319805 84.562103 -0.000016 0.559457
-34.290161 83.037575 -0.000013 0.560021
-35.659630 81.977966 -0.000011 0.554162
-36.668594 81.197304 -0.000009 0.557717
-15.725767 97.098869 10.586664 0.733333
-15.898632 96.967041 9.356794 0.666911
-15.667833 97.143051 8.250694 0.720470
-15.725758 97.098877 7.084944 0.709804
-15.667831 97.143051 5.951967 0.721569
-15.725758 97.098877 4.810791 0.737987
-15.667828 97.143051 3.687643 0.733333
-15.667847 97.143044 2.562145 0.708705
-15.725760 97.098877 1.439047 0.740322
-15.667837 97.143051 0.312358 0.698039
-23.588173 91.102745 -0.000029 0.550225
-29.159527 86.853851 -0.000021 0.523781
-32.262463 84.487457 -0.000016 0.552697
-34.243416 82.976715 -0.000013 0.550072
-35.620251 81.926697 -0.000011 0.504250
-36.634659 81.153076 -0.000001 0.341085
-15.724592 96.800369 10.541766 0.733333
-15.666649 96.843925 9.380690 0.728145
-15.666649 96.843925 8.218011 0.724056
-15.724586 96.800377 7.058353 0.712749
-15.666653 96.843918 5.931301 0.732235
-15.724590 96.800369 4.796093 0.709804
-15.666649 96.843925 3.678818 0.737499
-15.666653 96.843918 2.559206 0.737316
-15.724590 96.800369 1.441980 0.722988
-15.666664 96.843910 0.321183 0.713436
-23.485380 90.966988 -0.000028 0.536431
-29.086264 86.757088 -0.000021 0.534218
-32.205647 84.412407 -0.000016 0.549828
-34.197098 82.915535 -0.000013 0.550729
-35.581226 81.875160 -0.000011 0.554208
-36.601013 81.108635 -0.000001 0.336629
-15.723421 96.504967 10.497749 0.719829
-15.665482 96.547890 9.342653 0.710445
-15.896288 96.376915 8.133703 0.129412
-15.896282 96.376915 7.000375 0.302434
-15.665482 96.547890 5.911042 0.746120
-15.723427 96.504967 4.781683 0.709804
-15.665482 96.547890 3.670167 0.708247
-15.665482 96.547890 2.556325 0.727596
-15.723421 96.504967 1.444856 0.734401
-15.665497 96.547882 0.329834 0.732601
-23.383535 90.830513 -0.000029 0.546242
-29.013676 86.659813 -0.000021 0.545113
-32.149349 84.336967 -0.000016 0.525902
-34.151203 82.854034 -0.000013 0.558038
-35.542564 81.823349 -0.000010 0.540368
-36.567673 81.063965 -0.000002 0.338735
-15.722275 96.212570 10.454588 0.709804
-15.664330 96.254868 9.305361 0.715358
-15.895142 96.086372 8.102551 0.099123
-15.793715 96.160416 6.993607 0.714336
-15.664322 96.254875 5.891180 0.722408
-15.722279 96.212570 4.767554 0.709804
-15.664322 96.254875 3.661684 0.733791
-15.664326 96.254875 2.553499 0.726711
-15.722277 96.212570 1.447675 0.703059
-15.664341 96.254868 0.338317 0.721569
-23.282652 90.693321 -0.000029 0.544839
-28.941772 86.562035 -0.000021 0.540612
-32.093586 84.261139 -0.000016 0.542229
-34.105740 82.792221 -0.000013 0.557626
-35.504265 81.771263 -0.000010 0.535607
-36.566895 80.995522 0.009998 1.000000
-15.663179 95.964813 10.430156 0.722179
-15.663187 95.964806 9.268801 0.728664
-15.894011 95.798759 8.072008 0.154528
-15.663187 95.964806 6.992258 0.706676
-15.663183 95.964813 5.871705 0.748882
-15.663183 95.964813 4.759558 0.715404
-15.663179 95.964813 3.653367 0.730480
-15.663179 95.964813 2.550729 0.712566
-15.663179 95.964813 1.449271 0.722942
-15.663195 95.964798 0.346633 0.696895
-23.182732 90.555435 -0.000028 0.540734
-28.870552 86.463753 -0.000021 0.540856
-32.038353 84.184914 -0.000016 0.537194
-34.060715 82.730080 -0.000013 0.533608
-35.466328 81.718918 -0.000010 0.546258
-36.534344 80.950615 0.009996 1.000000
-15.720001 95.636536 10.370790 0.740780
-15.662050 95.677620 9.232952 0.714534
-15.875628 95.526230 8.045912 0.459373
-15.720007 95.636536 6.957101 0.732113
-15.662043 95.677620 5.852610 0.730526
-15.720007 95.636536 4.740123 0.721569
-15.662046 95.677620 3.645214 0.731502
-15.662046 95.677620 2.548013 0.718074
-15.719997 95.636543 1.453150 0.710216
-15.662043 95.677620 0.354786 0.689082
-23.083773 90.416847 -0.000028 0.538720
-28.800018 86.364983 -0.000021 0.540917
-31.983650 84.108315 -0.000016 0.551553
-34.016121 82.667633 -0.000013 0.562768
-35.428757 81.666306 -0.000010 0.562661
-36.502113 80.905472 0.009996 1.000000
-15.395256 95.578773 10.428990 0.721569
-15.279364 95.659714 9.298323 0.708751
-15.483568 95.517097 8.103300 0.159594
-15.395266 95.578766 6.991565 0.713085
-15.279366 95.659714 5.887430 0.722103
-15.395266 95.578766 4.759175 0.709804
-15.279364 95.659714 3.660083 0.721294
-15.279364 95.659714 2.552966 0.731609
-15.395262 95.578773 1.449348 0.721752
-15.279303 95.659760 0.339913 0.723964
-22.985781 90.277580 -0.000029 0.539315
-28.730175 86.265717 -0.000021 0.537545
-31.929485 84.031334 -0.000016 0.535454
-33.971962 82.604874 -0.000013 0.540398
-35.391560 81.613434 -0.000010 0.578637
-36.470192 80.860115 0.009996 1.000000
-14.978439 95.580406 10.515030 0.722484
-14.860781 95.661362 9.372828 0.718395
-15.068089 95.518723 8.165600 0.218570
-15.068085 95.518723 7.026377 0.261158
-14.860777 95.661369 5.927114 0.714214
-14.978447 95.580406 4.787340 0.709804
-14.860773 95.661369 3.677030 0.703304
-14.860773 95.661369 2.558611 0.722347
-14.978439 95.580406 1.443727 0.731640
-14.860718 95.661407 0.322967 0.713069
-22.888765 90.137627 -0.000029 0.538109
-28.661030 86.165970 -0.000021 0.536995
-31.875856 83.953972 -0.000016 0.548394
-33.928246 82.541809 -0.000013 0.541283
-35.354752 81.560287 -0.000004 0.337194
-36.405712 80.837158 -0.000003 0.338781
-14.553009 95.582077 10.603269 0.715221
-14.433544 95.663048 9.449233 0.712840
-14.433544 95.663048 8.275757 0.739635
-14.644022 95.520386 7.078463 0.121828
-14.433544 95.663048 5.967812 0.726818
-14.553005 95.582077 4.816226 0.709804
-14.433542 95.663055 3.694408 0.710781
-14.433498 95.663086 2.564400 0.714992
-14.553005 95.582077 1.437962 0.729747
-14.433489 95.663086 0.305587 0.706035
-22.792725 89.997009 -0.000028 0.534600
-28.592583 86.065735 -0.000021 0.533883
-31.822773 83.876236 -0.000016 0.531777
-33.884964 82.478439 -0.000013 0.533013
-35.318295 81.506897 -0.000004 0.333928
-36.374275 80.791130 -0.000003 0.334951
-14.118641 95.583778 10.693782 0.703227
-13.997335 95.664772 9.527611 0.696086
-13.997337 95.664772 8.341786 0.720836
-14.210941 95.522156 7.131912 0.140444
-13.997335 95.664772 6.009559 0.728115
-14.118635 95.583786 4.845855 0.709804
-13.997293 95.664803 3.712240 0.716060
-13.997288 95.664803 2.570339 0.723964
-14.118637 95.583778 1.432049 0.727428
-13.997280 95.664810 0.287760 0.711269
-22.697674 89.855721 -0.000029 0.536721
-28.524830 85.965034 -0.000021 0.529885
-31.770233 83.798141 -0.000016 0.533410
-33.842133 82.414764 -0.000013 0.552087
-35.320713 81.427551 0.009996 1.000000
-36.343159 80.744881 -0.000003 0.334386
-13.675014 95.585526 10.786654 0.701167
-13.551834 95.666527 9.608027 0.727474
-13.600136 95.634766 8.399017 0.720211
-13.768751 95.523880 7.186731 0.120241
-13.551830 95.666534 6.052394 0.730632
-13.675011 95.585526 4.876256 0.733333
-13.551796 95.666550 3.730530 0.735988
-13.551792 95.666557 2.576431 0.732418
-13.675009 95.585526 1.425982 0.735988
-13.551781 95.666565 0.269468 0.722988
-22.603607 89.713768 -0.000029 0.541329
-28.457790 85.863853 -0.000021 0.540566
-31.718237 83.719673 -0.000015 0.551186
-33.799747 82.350800 -0.000013 0.539651
-35.285172 81.373932 0.009993 1.000000
-36.312366 80.698418 -0.000004 0.329091
-13.221790 95.587296 10.881969 0.730434
-13.096685 95.668327 9.690561 0.733761
-13.221783 95.587303 8.451950 0.715633
-13.316984 95.525642 7.242994 0.147524
-13.096655 95.668343 6.096358 0.726513
-13.221794 95.587296 4.907456 0.701808
-13.096657 95.668343 3.749302 0.716365
-13.096655 95.668343 2.582685 0.714488
-13.221790 95.587296 1.419755 0.736934
-13.096645 95.668350 0.250695 0.724880
-22.510542 89.571167 -0.000028 0.538796
-28.391453 85.762215 -0.000021 0.536446
-31.666794 83.640846 -0.000016 0.544244
-33.757809 82.286537 -0.000013 0.543359
-35.250008 81.320068 0.009991 1.000000
-36.281902 80.651733 -0.000004 0.338674
-12.758514 95.589172 10.979843 0.694331
-12.631536 95.670158 9.775286 0.714809
-12.758518 95.589172 8.523046 0.733333
-12.855289 95.527443 7.300751 0.170428
-12.631514 95.670174 6.141487 0.733028
-12.758518 95.589172 4.939495 0.734173
-12.631500 95.670181 3.768576 0.727352
-12.631500 95.670181 2.589104 0.739498
-12.758514 95.589172 1.413361 0.719921
-12.631489 95.670189 0.231423 0.733333
-22.418472 89.427910 -0.000028 0.533578
-28.325829 85.660118 -0.000021 0.528923
-31.615898 83.561661 -0.000016 0.541512
-33.716316 82.221985 -0.000013 0.551934
-35.215218 81.265968 0.009989 1.000000
-36.251762 80.604843 -0.000004 0.330663
-12.155989 95.672035 11.118473 0.733013
-12.155983 95.672043 9.862293 0.714305
-12.284960 95.591034 8.596037 0.713664
-12.383245 95.529312 7.360066 0.119432
-12.155970 95.672050 6.187828 0.719646
-12.284960 95.591034 4.972387 0.737392
-12.155960 95.672058 3.788364 0.694331
-12.155960 95.672058 2.595696 0.722988
-12.284964 95.591034 1.406797 0.723674
-12.155947 95.672058 0.211633 0.727825
-22.327400 89.284027 -0.000028 0.541863
-28.260920 85.557556 -0.000021 0.528389
-31.565559 83.482124 -0.000016 0.542748
-33.675278 82.157143 -0.000013 0.523674
-35.141644 81.236214 -0.000002 0.331609
-36.221951 80.557739 -0.000004 0.338735
-11.669657 95.673958 11.222116 0.714153
-11.669657 95.673958 9.951656 0.727871
-11.800671 95.592949 8.671006 0.706157
-11.900501 95.531219 7.420989 0.142535
-11.669640 95.673965 6.235429 0.733333
-11.800673 95.592941 5.006171 0.725978
-11.669634 95.673973 3.808692 0.745785
-11.669630 95.673973 2.602466 0.728054
-11.800676 95.592941 1.400054 0.709804
-11.669621 95.673981 0.191307 0.745251
-22.237331 89.139503 -0.000029 0.537514
-28.196730 85.454552 -0.000021 0.544915
-31.515774 83.402237 -0.000015 0.542107
-33.634693 82.092018 -0.000013 0.543984
-35.107452 81.181351 -0.000002 0.336172
-36.192471 80.510437 -0.000004 0.337026
-11.172132 95.675911 11.328598 0.721843
-11.172132 95.675911 10.043469 0.745281
-11.406586 95.533188 8.726442 0.127398
-11.172121 95.675919 7.524308 0.731060
-11.172119 95.675919 6.284331 0.715709
-11.305223 95.594894 5.040881 0.713542
-11.172110 95.675926 3.829576 0.732647
-11.172098 95.675934 2.609424 0.729351
-11.305225 95.594894 1.393127 0.709804
-11.172092 95.675934 0.170423 0.743832
-22.148285 88.994354 -0.000029 0.531289
-28.133255 85.351097 -0.000021 0.537346
-31.466551 83.322006 -0.000015 0.529320
-33.594696 82.026535 0.000016 0.338689
-35.073647 81.126244 -0.000002 0.332326
-36.163319 80.462921 -0.000004 0.338537
-10.662964 95.677917 11.438031 0.709834
-10.662956 95.677917 10.137829 0.732525
-10.901169 95.535187 8.805349 0.129839
-10.662945 95.677925 7.589115 0.726162
-10.662941 95.677933 6.334592 0.730022
-10.798176 95.596893 5.076555 0.721645
-10.662933 95.677933 3.851038 0.733806
-10.662926 95.677940 2.616572 0.707469
-10.798176 95.596893 1.386008 0.721569
-10.662918 95.677940 0.148960 0.724559
-22.060247 88.848595 -0.000028 0.548058
-28.070513 85.247200 -0.000020 0.535897
-31.417889 83.241432 -0.000015 0.539178
-33.602112 81.932632 0.010003 1.000000
-35.040226 81.070908 -0.000001 0.341054
-36.134499 80.415207 -0.000005 0.335195
-10.141670 95.679970 11.550537 0.719524
-10.154255 95.672546 10.231677 0.729778
-10.383709 95.537224 8.886473 0.129412
-10.141651 95.679977 7.655738 0.721569
-10.141647 95.679977 6.386262 0.721569
-10.279060 95.598938 5.113228 0.737423
-10.141628 95.679993 3.873104 0.714305
-10.141624 95.679993 2.623922 0.726696
-10.279057 95.598938 1.378689 0.709804
-10.141613 95.680000 0.126895 0.722347
-21.973238 88.702209 -0.000028 0.548135
-28.008488 85.142876 -0.000021 0.550088
-31.369785 83.160522 -0.000015 0.550027
-33.563076 81.867012 0.010000 1.000000
-35.007191 81.015335 -0.000001 0.339010
-36.106018 80.367294 -0.000005 0.323903
-9.607777 95.682068 11.666231 0.720073
-9.747402 95.601028 10.299722 0.722255
-9.853752 95.539307 8.969896 0.132723
-9.607750 95.682083 7.724254 0.733333
-9.607742 95.682091 6.439398 0.724392
-9.747402 95.601028 5.150942 0.730282
-9.607731 95.682098 3.895796 0.713756
-9.607735 95.682091 2.631480 0.716472
-9.747402 95.601028 1.371162 0.717159
-9.607716 95.682106 0.104203 0.729122
-21.887245 88.555229 -0.000028 0.537484
-27.947197 85.038116 -0.000020 0.550256
-31.322254 83.079277 -0.000015 0.544274
-33.524494 81.801125 0.009994 1.000000
-34.974548 80.959534 -0.000000 0.338415
-36.077866 80.319183 -0.000005 0.324086
-9.060764 95.684219 11.785249 0.728557
-9.202663 95.603180 10.401917 0.697765
-9.310848 95.541397 9.055695 0.153140
-9.060734 95.684235 7.794735 0.724926
-9.060726 95.684242 6.494058 0.718212
-9.202660 95.603180 5.189739 0.721569
-9.060715 95.684250 3.919138 0.728023
-9.060707 95.684250 2.639256 0.732525
-9.202660 95.603180 1.363419 0.721569
-9.060696 95.684258 0.080861 0.733333
-21.802280 88.407654 -0.000028 0.546487
-27.886642 84.932930 -0.000020 0.543374
-31.275291 82.997696 -0.000015 0.541421
-33.438774 81.762154 0.000015 0.325154
-34.942291 80.903511 -0.000001 0.334905
-36.050056 80.270874 -0.000005 0.323568
-8.500080 95.686432 11.907717 0.721569
-8.546127 95.660553 10.531404 0.737560
-8.754269 95.543610 9.144012 0.145647
-8.500050 95.686447 7.867263 0.724300
-8.500050 95.686447 6.550308 0.715175
-8.546131 95.660553 5.238897 0.709804
-8.500031 95.686455 3.943157 0.732357
-8.500023 95.686462 2.647257 0.712627
-8.546131 95.660553 1.353608 0.732921
-8.500019 95.686462 0.056841 0.718532
-21.718349 88.259483 -0.000028 0.533288
-27.826818 84.827324 -0.000020 0.533730
-31.228897 82.915802 -0.000015 0.554314
-33.400955 81.695389 0.000015 0.339010
-34.910431 80.847260 -0.000000 0.328511
-36.022579 80.222374 -0.000005 0.338552
-8.183453 95.545929 11.959866 0.216358
-8.071766 95.607658 10.615335 0.733333
-8.183533 95.545883 9.234927 0.212131
-7.925114 95.688713 7.941923 0.741146
-8.071758 95.607658 6.588933 0.735058
-8.071762 95.607658 5.270762 0.709804
-8.183453 95.545929 3.953382 0.187198
-7.925095 95.688728 2.655492 0.726055
-8.071758 95.607658 1.347249 0.737606
-7.925087 95.688728 0.032115 0.720928
-21.635448 88.110741 -0.000028 0.543359
-27.767736 84.721298 -0.000020 0.543847
-31.183073 82.833572 -0.000015 0.527916
-33.363594 81.628357 0.000015 0.338415
-34.878960 80.790787 0.000000 0.333364
-35.995441 80.173683 -0.000005 0.339529
-7.598042 95.548218 12.088730 0.205463
-7.484451 95.609970 10.726809 0.737087
-7.598068 95.548203 9.328546 0.128511
-7.335342 95.691040 8.018803 0.721111
-7.484451 95.609970 6.648308 0.718700
-7.484447 95.609978 5.313083 0.729549
-7.598045 95.548218 3.978656 0.182925
-7.335316 95.691055 2.663975 0.717830
-7.484447 95.609978 1.338804 0.712581
-7.335304 95.691055 0.006652 0.702342
-21.553600 87.961411 -0.000028 0.540932
-27.709391 84.614876 -0.000020 0.552972
-31.137827 82.751038 -0.000015 0.561334
-33.326710 81.561066 0.000015 0.330144
-34.847885 80.734093 0.000000 0.337682
-35.968647 80.124802 -0.000005 0.336187
-6.881699 95.612350 12.254296 0.718196
-6.881706 95.612350 10.841640 0.732036
-6.997337 95.550529 9.424961 0.126802
-6.913830 95.595177 8.067092 0.554910
-6.881710 95.612350 6.709472 0.729931
-6.881706 95.612350 5.356678 0.733074
-6.997250 95.550583 4.004691 0.181918
-6.730045 95.693436 2.672711 0.732219
-6.881706 95.612350 1.330103 0.709804
-6.730030 95.693443 -0.019577 0.723827
-21.472788 87.811523 -0.000028 0.529213
-27.651794 84.508034 -0.000020 0.538369
-31.093357 82.668076 0.000018 0.340642
-33.290295 81.493523 0.000015 0.338201
-34.817207 80.677193 0.000001 0.339940
-35.942196 80.075737 -0.000005 0.342397
-6.262871 95.614784 12.391534 0.698772
-6.380417 95.552994 10.931293 0.160784
-6.108635 95.695862 9.580217 0.729351
-6.380447 95.552979 8.134066 0.101442
-6.262871 95.614784 6.772505 0.721523
-6.262863 95.614792 5.401604 0.732006
-6.380413 95.552994 4.031521 0.189441
-6.108608 95.695877 2.681714 0.717540
-6.262871 95.614784 1.321137 0.709804
-6.947464 95.254906 -0.000048 0.538857
-21.393030 87.661064 -0.000028 0.545449
-27.594944 84.400803 -0.000020 0.542229
-31.108788 82.553619 0.009993 1.000000
-33.254353 81.425728 0.000015 0.338888
-34.786926 80.620071 0.000000 0.339376
-35.916084 80.026489 -0.000006 0.334524
-5.627205 95.617294 12.533022 0.709804
-5.746807 95.555481 11.052893 0.140703
-5.470310 95.698380 9.683426 0.727474
-5.470264 95.698402 8.263761 0.750759
-5.627209 95.617294 6.837484 0.727169
-5.627197 95.617294 5.447919 0.730663
-5.746807 95.555481 4.059178 0.181140
-5.470280 95.698395 2.690996 0.739071
-5.627205 95.617294 1.311895 0.721614
-6.816097 95.002861 -0.000048 0.539696
-21.314312 87.510063 -0.000028 0.545296
-27.538845 84.293175 -0.000020 0.546136
-31.065498 82.470566 0.009993 1.000000
-33.218880 81.357681 0.000014 0.339147
-34.757046 80.562744 0.000001 0.330755
-35.890320 79.977058 -0.000005 0.337163
-4.973961 95.619865 12.678944 0.738598
-5.069241 95.571465 11.184706 0.129412
-4.814327 95.700958 9.789867 0.729931
-4.814281 95.700981 8.350535 0.743481
-4.973961 95.619865 6.904501 0.732387
-4.973953 95.619873 5.495685 0.709712
-5.069237 95.571465 4.089161 0.272679
-4.814281 95.700981 2.700569 0.724666
-4.973953 95.619873 1.302361 0.736126
-6.686478 94.749924 -0.000048 0.540002
-21.236658 87.358513 -0.000028 0.540307
-27.483505 84.185150 -0.000019 0.546532
-31.022778 82.387222 0.009991 1.000000
-33.183887 81.289391 0.000014 0.342947
-34.727566 80.505211 0.000001 0.341650
-35.864902 79.927452 -0.000005 0.333562
-4.302490 95.622437 12.829453 0.721843
-4.426086 95.560730 11.307726 0.192523
-4.139885 95.703613 9.899689 0.739574
-4.302483 95.622437 8.413101 0.723964
-4.302486 95.622437 6.973625 0.716106
-4.139839 95.703636 5.559859 0.733333
-4.426075 95.560738 4.117144 0.173495
-4.139835 95.703636 2.710445 0.732204
-4.302483 95.622437 1.292529 0.746914
-6.558640 94.496071 -0.000049 0.543481
-21.160065 87.206421 -0.000028 0.532937
-27.428909 84.076752 -0.000019 0.553719
-30.920494 82.333603 0.000018 0.338323
-33.149376 81.220856 0.000014 0.337301
-34.698490 80.447472 0.000001 0.339971
-35.839828 79.877663 -0.000006 0.346670
-3.475456 95.691948 13.022846 0.733303
-3.737450 95.563431 11.441287 0.139162
-3.446114 95.706345 10.013050 0.730892
-3.611629 95.625153 8.505125 0.725063
-3.737431 95.563438 7.028876 0.099855
-3.446053 95.706375 5.610945 0.703548
-3.737438 95.563431 4.147524 0.192157
-3.446068 95.706367 2.720641 0.725750
-3.611629 95.625153 1.282377 0.745968
-6.432571 94.241333 -0.000048 0.540444
-21.084536 87.053802 -0.000028 0.546441
-27.375074 83.967972 -0.000020 0.540703
-30.878742 82.249245 0.000017 0.338048
-33.115337 81.152077 0.000014 0.338766
-34.669815 80.389526 0.000001 0.333242
-35.815102 79.827705 -0.000006 0.336248
-3.028721 95.566216 13.109711 0.208209
-3.028721 95.566216 11.579213 0.118135
-2.732121 95.709152 10.130113 0.706264
-2.900627 95.627945 8.600158 0.728191
-3.028923 95.566116 7.102314 0.093141
-2.732040 95.709190 5.663698 0.719402
-3.028713 95.566223 4.178895 0.180758
-2.732059 95.709183 2.731168 0.720653
-2.900620 95.627953 1.271893 0.718715
-6.308292 93.985733 -0.000049 0.546670
-21.010078 86.900658 -0.000028 0.540612
-27.322006 83.858818 -0.000019 0.536660
-30.837585 82.164589 0.000018 0.337377
-33.081783 81.083069 0.000014 0.333043
-34.641548 80.331390 0.000002 0.337133
-35.790730 79.777580 -0.000006 0.333501
-2.298935 95.569084 13.274975 0.213413
-2.298916 95.569092 11.721716 0.125231
-2.092922 95.666595 10.231724 0.732769
-2.168480 95.630836 8.698340 0.724926
-2.299122 95.568993 7.178215 0.095903
-1.996811 95.712090 5.718198 0.733043
-2.298920 95.569092 4.211309 0.229480
-1.996830 95.712082 2.742045 0.703166
-2.168480 95.630836 1.261061 0.717906
-6.185795 93.729256 -0.000048 0.540597
-20.936686 86.746994 -0.000028 0.550500
-27.269691 83.749298 -0.000019 0.538933
-30.797016 82.079659 0.000017 0.335973
-33.048710 81.013824 0.000014 0.334035
-34.613686 80.273056 0.000002 0.339269
