# This PCD file was generated using the MATLABÂ® pcwrite function
# from Computer Vision ToolboxÂ®.
# .PCD v.7 - Point Cloud Data file format
VERSION .7
FIELDS x y z intensity
SIZE 4 4 4 4
TYPE F F F F
COUNT 1 1 1 1
WIDTH 1250
HEIGHT 1
VIEWPOINT 0 0 0 1 0 0 0
POINTS 1250
DATA ascii
121.144089 16.620453 8.228181 0.678431
120.276962 16.773350 5.688309 0.701122
120.899094 16.663651 3.238894 0.753841
122.432892 16.393200 0.735618 0.654719
86.433502 22.740871 -0.000039 0.541497
70.361626 25.574778 -0.000023 0.546380
63.461452 26.791466 -0.000017 0.530694
59.618435 27.469093 -0.000013 0.542367
57.165009 27.901699 -0.000010 0.535714
55.459785 28.202377 -0.000009 0.538460
54.203457 28.423903 -0.000007 0.552193
nan nan nan 0.000000
nan nan nan 0.000000
nan nan nan 0.000000
129.072540 14.626178 14.477153 0.644480
117.867691 16.682653 10.366009 0.807706
117.867691 16.682655 7.962873 0.782177
117.867706 16.682653 5.572609 0.754131
117.867676 16.682657 3.190019 0.770871
129.073624 14.625980 0.623545 0.630472
86.383179 22.461145 -0.000039 0.538537
70.331474 25.407185 -0.000023 0.535271
63.439957 26.672014 -0.000017 0.537285
59.601768 27.376453 -0.000013 0.532464
57.151421 27.826178 -0.000010 0.543053
55.448338 28.138752 -0.000009 0.545480
54.193588 28.369041 -0.000007 0.521675
nan nan nan 0.000000
nan nan nan 0.000000
nan nan nan 0.000000
125.899277 14.633699 14.014264 0.665949
115.414063 16.633862 10.089585 0.678431
115.414032 16.633865 7.765853 0.678431
115.414047 16.633865 5.454566 0.678431
115.188278 16.676931 3.146937 0.776471
125.899994 14.633562 0.674615 0.629953
86.330894 22.181774 -0.000039 0.541604
70.300148 25.239803 -0.000023 0.531197
63.417633 26.552713 -0.000017 0.548287
59.584450 27.283932 -0.000013 0.541146
57.137302 27.750750 -0.000010 0.539437
55.436443 28.075207 -0.000008 0.504906
54.183334 28.314251 -0.000007 0.530388
nan nan nan 0.000000
nan nan nan 0.000000
118.010605 15.619280 15.294040 0.674159
122.953445 14.640571 13.585123 0.650919
113.292511 16.553488 9.851768 0.648478
113.292496 16.553490 7.596348 0.633967
113.292465 16.553495 5.353007 0.675624
113.292465 16.553495 3.116870 0.662196
113.517792 16.508881 0.879371 0.674205
86.276657 21.902773 -0.000039 0.535058
70.267654 25.072641 -0.000023 0.541863
63.394478 26.433569 -0.000017 0.542672
59.566494 27.191530 -0.000013 0.543389
57.122662 27.675423 -0.000010 0.542473
55.424110 28.011745 -0.000009 0.545510
54.172695 28.259531 -0.000007 0.540169
nan nan nan 0.000000
nan nan nan 0.000000
117.754471 15.151163 15.265190 0.653407
120.210709 14.646970 13.186118 0.650950
113.291367 16.067310 9.862694 0.627710
113.291351 16.067310 7.604138 0.643565
113.291336 16.067314 5.357674 0.640940
113.291321 16.067316 3.118424 0.640848
120.380615 14.612095 0.763147 0.094118
86.220459 21.624166 -0.000038 0.542046
70.234001 24.905716 -0.000023 0.536065
63.370476 26.314594 -0.000016 0.542397
59.547882 27.099260 -0.000013 0.544625
57.107491 27.600203 -0.000010 0.537911
55.411331 27.948374 -0.000009 0.567269
54.161678 28.204891 -0.000007 0.530907
nan nan nan 0.000000
nan nan nan 0.000000
114.324295 15.359941 14.646467 0.661646
117.650864 14.652857 12.814242 0.635721
113.290207 15.579741 9.874037 0.635203
113.290207 15.579742 7.612220 0.635218
113.290192 15.579748 5.362515 0.638331
113.290176 15.579750 3.120038 0.647120
117.650375 14.652961 0.807018 0.633341
86.162338 21.345951 -0.000038 0.540703
70.199173 24.739027 -0.000024 0.538491
63.345657 26.195787 -0.000016 0.547280
59.528641 27.007120 -0.000013 0.547356
57.091801 27.525085 -0.000010 0.553933
55.398109 27.885090 -0.000009 0.548135
54.150280 28.150326 -0.000007 0.531655
nan nan nan 0.000000
nan nan nan 0.000000
113.794464 14.979620 14.566860 0.666712
115.551819 14.593240 12.511780 0.678431
113.289063 15.090742 9.885795 0.623041
113.289063 15.090741 7.620601 0.629313
113.289063 15.090742 5.367539 0.636759
113.289032 15.090746 3.121709 0.658625
115.254761 14.658553 0.845354 0.626215
86.102272 21.068148 -0.000038 0.543343
70.163193 24.572584 -0.000023 0.539071
63.320015 26.077154 -0.000016 0.568948
59.508747 26.915115 -0.000013 0.524498
57.075584 27.450081 -0.000010 0.552316
55.384449 27.821903 -0.000009 0.514855
54.138500 28.095842 -0.000007 0.549981
nan nan nan 0.000000
nan nan nan 0.000000
113.008545 14.663726 14.439839 0.636271
113.147141 14.632239 12.162401 0.739864
113.147141 14.632240 9.881367 0.732631
113.147141 14.632238 7.617447 0.728573
113.147141 14.632239 5.365649 0.751888
112.628113 14.750156 3.112373 0.713451
113.147141 14.632238 0.878918 0.733547
86.040268 20.790771 -0.000038 0.541695
70.126045 24.406397 -0.000023 0.536797
63.293533 25.958706 -0.000016 0.559136
59.488216 26.823254 -0.000013 0.531609
57.058846 27.375195 -0.000010 0.562646
55.370350 27.758810 -0.000009 0.548165
54.126343 28.041443 -0.000007 0.511925
nan nan nan 0.000000
106.298096 15.747408 15.301077 0.672770
110.896652 14.668828 14.065205 0.627482
110.584351 14.742077 11.788324 0.627070
110.896622 14.668833 9.628152 0.638987
110.896622 14.668835 7.436966 0.640269
110.896622 14.668835 5.257517 0.634501
110.527771 14.755346 3.078864 0.694667
110.584518 14.742037 0.920183 0.627436
85.976334 20.513836 -0.000038 0.544564
70.087723 24.240479 -0.000023 0.553933
63.266232 25.840445 -0.000016 0.533822
59.467041 26.731539 -0.000013 0.539208
57.041580 27.300425 -0.000010 0.526421
55.355804 27.695820 -0.000009 0.545983
54.113800 27.987129 -0.000008 0.532113
nan nan nan 0.000000
106.086166 15.356340 15.276127 0.674983
109.056198 14.637815 13.740746 0.121675
108.553299 14.759480 11.494651 0.709499
108.886459 14.678878 9.402930 0.914687
109.056213 14.637810 7.290761 0.134585
109.056023 14.637856 5.169908 0.112596
108.550522 14.760151 3.047369 0.703975
109.059952 14.636908 0.944052 0.724147
85.910469 20.237356 -0.000038 0.542535
70.048264 24.074827 -0.000023 0.536736
63.238102 25.722380 -0.000016 0.513375
59.445225 26.639973 -0.000013 0.535805
57.023796 27.225779 -0.000010 0.547051
55.340824 27.632933 -0.000009 0.548028
54.100883 27.932905 -0.000007 0.546304
nan nan nan 0.000000
105.874832 14.966753 15.251868 0.658946
107.033600 14.677840 13.381606 0.647364
106.701096 14.760743 11.227785 0.726665
106.719376 14.756186 9.158699 0.628397
107.033691 14.677816 7.128927 0.639475
107.033691 14.677817 5.072954 0.640040
106.685287 14.764686 3.017711 0.725719
107.033615 14.677836 0.976414 0.637064
85.842682 19.961332 -0.000038 0.541924
70.007645 23.909452 -0.000022 0.532860
63.209152 25.604509 -0.000016 0.527108
59.422771 26.548559 -0.000013 0.559182
57.005493 27.151255 -0.000010 0.544259
55.325401 27.570148 -0.000009 0.565621
54.087585 27.878771 -0.000007 0.545357
nan nan nan 0.000000
102.787102 15.317308 14.586782 0.652781
105.300446 14.671991 13.076140 0.734249
105.300186 14.672058 11.029555 0.753597
105.300209 14.672053 9.002798 0.730236
105.300377 14.672009 6.991262 0.757870
105.300186 14.672057 4.990464 0.736355
104.921890 14.769189 2.989718 0.709133
105.300385 14.672008 1.003887 0.732555
85.772949 19.685802 -0.000038 0.542672
69.965881 23.744370 -0.000023 0.543435
63.179382 25.486847 -0.000016 0.534615
59.399681 26.457308 -0.000013 0.526116
56.986671 27.076864 -0.000010 0.582315
55.309544 27.507477 -0.000009 0.522835
54.073914 27.824734 -0.000007 0.555871
nan nan nan 0.000000
102.583092 14.950393 14.564121 0.658824
103.774300 14.635662 12.809083 0.678431
103.774734 14.635548 10.811949 0.678431
103.812668 14.625525 8.838545 0.733089
103.774925 14.635496 6.870975 0.678431
103.774734 14.635547 4.918396 0.678431
103.253967 14.773140 2.963290 0.721828
103.819702 14.623666 1.027135 0.733150
85.701317 19.410753 -0.000038 0.537774
69.922951 23.579580 -0.000023 0.538933
63.148781 25.369392 -0.000016 0.545708
59.375954 26.366219 -0.000013 0.530053
56.967327 27.002605 -0.000010 0.546593
55.293247 27.444916 -0.000009 0.515862
54.059860 27.770790 -0.000007 0.536843
nan nan nan 0.000000
102.455124 14.564324 14.559000 0.656977
103.154167 14.374396 12.712395 0.621622
103.154175 14.374397 10.733057 0.617884
103.154144 14.374403 8.772846 0.641123
103.154160 14.374400 6.827349 0.650019
103.154160 14.374398 4.892268 0.625940
103.154167 14.374398 2.963400 0.637583
103.154190 14.374393 1.036599 0.655619
85.627762 19.136217 -0.000038 0.542382
69.878876 23.415096 -0.000023 0.537194
63.117371 25.252157 -0.000016 0.521782
59.351593 26.275297 -0.000013 0.541863
56.947468 26.928482 -0.000010 0.545647
55.276516 27.382471 -0.000009 0.551888
54.045433 27.716948 -0.000007 0.508858
nan nan nan 0.000000
102.452774 14.143501 14.582651 0.647150
103.152237 13.948207 12.732648 0.624949
103.152252 13.948202 10.749572 0.625299
103.152290 13.948191 8.785663 0.630884
103.152283 13.948193 6.836481 0.624399
103.152298 13.948187 4.897740 0.619364
103.152267 13.948197 2.965223 0.631174
103.152237 13.948207 1.034777 0.627192
85.552277 18.862206 -0.000038 0.543648
69.833649 23.250925 -0.000022 0.533303
63.085136 25.135143 -0.000016 0.538842
59.326591 26.184549 -0.000012 0.550134
56.927090 26.854502 -0.000010 0.520623
55.259346 27.320145 -0.000009 0.548318
54.030632 27.663208 -0.000007 0.550607
nan nan nan 0.000000
102.446365 13.722231 14.606093 0.679088
103.151840 13.519939 12.753797 0.626169
103.151825 13.519941 10.766807 0.637125
103.151855 13.519936 8.799026 0.634806
103.151840 13.519939 6.846007 0.623224
103.151840 13.519938 4.903447 0.634287
103.151848 13.519936 2.967125 0.629908
103.151833 13.519941 1.032876 0.651637
85.474884 18.588722 -0.000037 0.543664
69.787285 23.087072 -0.000023 0.545464
63.052094 25.018356 -0.000016 0.539025
59.300964 26.093977 -0.000012 0.532357
56.906197 26.780664 -0.000010 0.506020
55.241745 27.257938 -0.000009 0.549187
54.015453 27.609571 -0.000007 0.538155
nan nan nan 0.000000
103.150772 13.090151 14.790277 0.677913
103.160843 13.087189 12.777339 0.766201
103.160858 13.087183 10.786003 0.743038
103.160873 13.087181 8.813913 0.789792
103.160858 13.087183 6.856617 0.719478
103.160858 13.087187 4.909803 0.720836
103.065826 13.115154 2.967622 0.706432
103.160858 13.087187 1.030758 0.758160
85.395576 18.315792 -0.000037 0.539605
69.739777 22.923544 -0.000023 0.513695
63.018234 24.901804 -0.000016 0.533211
59.274704 26.003584 -0.000013 0.530449
56.884789 26.706976 -0.000010 0.533135
55.223709 27.195858 -0.000009 0.525582
53.999901 27.556044 -0.000007 0.528283
nan nan nan 0.000000
103.149643 12.658636 14.816669 0.663066
103.214340 12.639105 12.809960 0.678431
103.214325 12.639109 10.812593 0.678431
103.159866 12.655552 8.827988 0.777020
103.214340 12.639103 6.871316 0.678431
103.214325 12.639109 4.918610 0.678431
103.064705 12.684282 2.969619 0.717891
103.214340 12.639103 1.027825 0.678431
85.314392 18.043415 -0.000038 0.542275
69.691132 22.760357 -0.000023 0.536599
62.983555 24.785492 -0.000016 0.537499
59.247814 25.913380 -0.000013 0.512901
56.862862 26.633438 -0.000010 0.560433
55.205238 27.133904 -0.000009 0.544793
53.983978 27.502625 -0.000007 0.545632
nan nan nan 0.000000
103.148598 12.225275 14.843817 0.617258
103.213318 12.205240 12.832863 0.678431
103.213303 12.205244 10.831264 0.678431
103.158844 12.222103 8.842455 0.796078
103.213318 12.205240 6.881637 0.678431
103.213318 12.205242 4.924793 0.678431
103.063652 12.251570 2.971671 0.714626
103.213303 12.205244 1.025765 0.678431
85.231293 17.771610 -0.000038 0.541238
69.641342 22.597507 -0.000023 0.550469
62.948067 24.669422 -0.000016 0.537362
59.220291 25.823362 -0.000013 0.533242
56.840431 26.560053 -0.000010 0.570916
55.186340 27.072079 -0.000009 0.521828
53.967682 27.449318 -0.000007 0.534737
nan nan nan 0.000000
103.147690 11.790020 14.871743 0.672389
103.212280 11.769531 12.856392 0.678431
103.212280 11.769531 10.850449 0.678431
103.157822 11.786808 8.857319 0.802197
103.212296 11.769527 6.892241 0.678431
103.212296 11.769531 4.931148 0.678431
103.062607 11.817011 2.973783 0.727916
103.212296 11.769526 1.023649 0.678431
85.146286 17.500404 -0.000037 0.535760
69.590416 22.435017 -0.000022 0.554360
62.911777 24.553604 -0.000016 0.532143
59.192139 25.733543 -0.000012 0.515145
56.817482 26.486830 -0.000010 0.525353
55.167004 27.010391 -0.000008 0.531228
53.951012 27.396128 -0.000007 0.529046
nan nan nan 0.000000
103.146294 11.353001 14.900311 0.676555
103.163429 11.347433 12.871407 0.748531
103.163437 11.347429 10.862688 0.760113
103.156799 11.349588 8.872581 0.798383
103.163429 11.347433 6.899006 0.751171
103.163437 11.347431 4.935201 0.763485
103.061539 11.380537 2.975947 0.706859
103.163437 11.347431 1.022298 0.738155
85.059418 17.229784 -0.000038 0.538491
69.538361 22.272879 -0.000023 0.534646
62.874672 24.438044 -0.000016 0.537514
59.163368 25.643919 -0.000012 0.526940
56.794022 26.413767 -0.000010 0.532280
55.147240 26.948837 -0.000008 0.494026
53.933971 27.343054 -0.000008 0.549203
nan nan nan 0.000000
103.145523 10.913794 14.929781 0.687526
104.405106 10.494785 13.134492 0.678431
104.160294 10.576225 11.038893 0.678431
103.059296 10.942478 8.876554 0.650828
103.059555 10.942392 6.901287 0.622278
104.405106 10.494785 5.006233 0.678431
103.060471 10.942089 2.978173 0.717159
103.059341 10.942461 1.021847 0.678431
84.970627 16.959778 -0.000038 0.534478
69.485176 22.111107 -0.000023 0.528145
62.836761 24.322741 -0.000016 0.541436
59.133965 25.554499 -0.000012 0.549691
56.770054 26.340868 -0.000010 0.518212
55.127048 26.887423 -0.000009 0.520409
53.916557 27.290100 -0.000007 0.533150
nan nan nan 0.000000
103.179817 10.460630 14.968018 0.662242
104.404022 10.043879 13.160476 0.678431
104.159241 10.127209 11.059988 0.678431
103.046043 10.506170 8.891119 0.660166
103.072922 10.497021 6.913976 0.643275
104.404037 10.043873 5.013247 0.678431
103.059372 10.501635 2.980455 0.697047
103.072937 10.497017 1.019312 0.649729
84.879967 16.690411 -0.000037 0.541680
69.430862 21.949717 -0.000023 0.548409
62.798050 24.207710 -0.000016 0.540795
59.103943 25.465286 -0.000013 0.518975
56.745579 26.268139 -0.000010 0.542550
55.106430 26.826151 -0.000008 0.523095
53.898781 27.237268 -0.000007 0.537423
nan nan nan 0.000000
102.945099 10.098497 14.945547 0.642283
104.226257 9.652351 13.153084 0.593729
104.158173 9.676062 11.081627 0.678431
103.130951 10.033777 8.918049 0.534005
103.130936 10.033783 6.930840 0.672129
104.226257 9.652349 5.011250 0.602884
103.058258 10.059090 2.982796 0.723705
103.130936 10.033783 1.015946 0.678431
84.787430 16.421669 -0.000037 0.541863
69.375412 21.788706 -0.000022 0.537469
62.758537 24.092949 -0.000016 0.539879
59.073299 25.376284 -0.000012 0.546960
56.720596 26.195583 -0.000010 0.554818
55.085381 26.765024 -0.000008 0.542504
53.880634 27.184563 -0.000008 0.530343
nan nan nan 0.000000
102.706589 9.739244 14.922734 0.678782
103.215546 9.558018 12.985322 0.671489
103.215591 9.557999 10.955564 0.634791
103.043777 9.619181 8.924432 0.635615
103.043915 9.619129 6.935403 0.645777
103.215546 9.558018 4.965957 0.629526
103.057159 9.614414 2.985195 0.705089
103.043823 9.619164 1.015036 0.646235
84.693031 16.153587 -0.000037 0.542031
69.318855 21.628090 -0.000022 0.547692
62.718224 23.978470 -0.000016 0.544747
59.042034 25.287500 -0.000013 0.538689
56.695107 26.123203 -0.000010 0.558923
55.063911 26.704048 -0.000009 0.512230
53.862122 27.131985 -0.000008 0.485695
nan nan nan 0.000000
102.466492 9.382114 14.900070 0.672068
103.206055 9.112936 13.011130 0.678431
103.206062 9.112932 10.976596 0.678431
103.151611 9.132750 8.955059 0.782696
103.206062 9.112934 6.961972 0.678431
103.206055 9.112932 4.972924 0.678431
103.056046 9.167534 2.987656 0.723476
103.206055 9.112934 1.009733 0.678431
84.596756 15.886169 -0.000037 0.536355
69.261169 21.467867 -0.000022 0.532052
62.677101 23.864273 -0.000016 0.522744
59.010147 25.198936 -0.000013 0.540108
56.669113 26.051004 -0.000010 0.533486
55.042011 26.643221 -0.000009 0.513863
53.843235 27.079540 -0.000007 0.525689
nan nan nan 0.000000
102.226654 9.026432 14.877981 0.676371
103.205002 8.662588 13.039246 0.678431
103.205002 8.662588 10.999516 0.678431
103.150558 8.682835 8.972818 0.784253
103.205002 8.662590 6.974640 0.678431
103.204994 8.662592 4.980516 0.678431
103.054932 8.718399 2.990175 0.695857
103.205002 8.662590 1.007205 0.678431
84.498611 15.619436 -0.000037 0.546197
69.202370 21.308056 -0.000022 0.545357
62.635193 23.750366 -0.000016 0.542336
58.977646 25.110600 -0.000012 0.528222
56.642616 25.978989 -0.000010 0.523186
55.019688 26.582550 -0.000008 0.559853
53.823990 27.027225 -0.000007 0.534890
nan nan nan 0.000000
102.040863 8.651720 14.868896 0.664286
103.203934 8.209913 13.068043 0.678431
103.203934 8.209911 11.022993 0.678431
103.149521 8.230583 8.991011 0.776791
103.203934 8.209913 6.987616 0.678431
103.203934 8.209915 4.988292 0.678431
103.053802 8.266941 2.992759 0.720760
103.203934 8.209913 1.004615 0.678431
84.398621 15.353384 -0.000037 0.540169
69.142456 21.148659 -0.000022 0.537560
62.592495 23.636755 -0.000016 0.547448
58.944523 25.022490 -0.000012 0.555337
56.615616 25.907158 -0.000010 0.508736
54.996941 26.522036 -0.000009 0.532219
53.804375 26.975048 -0.000007 0.539849
nan nan nan 0.000000
102.190811 8.147398 14.938164 0.653025
103.202866 7.754847 13.097535 0.678431
103.202866 7.754845 11.047035 0.678431
103.148460 7.775949 9.009638 0.789242
103.202866 7.754845 7.000908 0.678431
103.202850 7.754852 4.996252 0.678431
103.052696 7.813093 2.995401 0.700725
103.202866 7.754845 1.001962 0.678431
84.296753 15.088045 -0.000037 0.540002
69.081436 20.989681 -0.000022 0.536706
62.548996 23.523445 -0.000016 0.542260
58.910789 24.934612 -0.000012 0.539483
56.588120 25.835518 -0.000010 0.523201
54.973774 26.461681 -0.000009 0.533898
53.784401 26.923008 -0.000007 0.546487
nan nan nan 0.000000
nan nan nan 0.000000
103.137390 7.322817 13.115128 0.619730
103.137405 7.322811 11.061380 0.621988
103.137405 7.322813 9.027475 0.623316
103.137413 7.322811 7.008837 0.624628
103.137405 7.322817 5.001003 0.622889
103.051590 7.356791 2.998110 0.727001
103.137405 7.322813 1.000380 0.622538
84.193024 14.823428 -0.000036 0.541527
69.019295 20.831131 -0.000022 0.544839
62.504707 23.410442 -0.000015 0.540337
58.876446 24.846972 -0.000012 0.511757
56.560120 25.764072 -0.000010 0.543969
54.950184 26.401489 -0.000009 0.553552
53.764061 26.871111 -0.000007 0.486137
nan nan nan 0.000000
nan nan nan 0.000000
103.135941 6.863457 13.145923 0.671870
103.135933 6.863459 11.086482 0.633005
103.135941 6.863453 9.046946 0.664424
103.135941 6.863453 7.022713 0.636866
103.135925 6.863457 5.009318 0.661738
103.135895 6.863470 3.002388 0.638804
103.135986 6.863436 0.997609 0.658976
84.087486 14.559529 -0.000036 0.546059
68.956055 20.673027 -0.000022 0.539208
62.459641 23.297749 -0.000016 0.543023
58.841492 24.759577 -0.000012 0.504997
56.531620 25.692825 -0.000010 0.563668
54.926178 26.341465 -0.000008 0.540978
53.743359 26.819355 -0.000007 0.561898
nan nan nan 0.000000
nan nan nan 0.000000
103.135017 6.401283 13.177541 0.632242
103.135010 6.401289 11.112258 0.644999
103.135002 6.401289 9.066936 0.622843
103.135010 6.401287 7.036960 0.640757
103.135002 6.401289 5.017855 0.634119
103.134972 6.401304 3.005232 0.641245
103.135033 6.401279 0.994767 0.631022
83.980087 14.296378 -0.000036 0.545296
68.891708 20.515362 -0.000022 0.535210
62.413773 23.185375 -0.000015 0.538613
58.805923 24.672424 -0.000012 0.536019
56.502628 25.621775 -0.000010 0.533928
54.901752 26.281609 -0.000009 0.550057
53.722298 26.767744 -0.000007 0.547219
nan nan nan 0.000000
nan nan nan 0.000000
103.134613 5.936258 13.209991 0.660365
103.134651 5.936239 11.138718 0.662760
103.134644 5.936243 9.087456 0.646387
103.134636 5.936245 7.051586 0.654368
103.134644 5.936241 5.026618 0.640482
103.134697 5.936220 3.008152 0.644968
103.134544 5.936285 0.991850 0.642206
83.870872 14.033986 -0.000036 0.540093
68.826279 20.358150 -0.000022 0.535409
62.367134 23.073326 -0.000015 0.543450
58.769753 24.585526 -0.000012 0.539620
56.473137 25.550934 -0.000010 0.556878
54.876907 26.221926 -0.000008 0.547250
53.700878 26.716284 -0.000007 0.567864
nan nan nan 0.000000
nan nan nan 0.000000
nan nan nan 0.000000
nan nan nan 0.000000
nan nan nan 0.000000
nan nan nan 0.000000
nan nan nan 0.000000
nan nan nan 0.000000
nan nan nan 0.000000
83.759827 13.772350 -0.000036 0.541726
68.759735 20.201399 -0.000022 0.535485
62.319710 22.961599 -0.000015 0.527581
58.732971 24.498877 -0.000012 0.548226
56.443153 25.480295 -0.000010 0.537881
54.851646 26.162416 -0.000008 0.552407
53.679100 26.664970 -0.000007 0.592584
127.377182 -5.593775 24.151371 0.478065
127.377167 -5.593767 21.099741 0.516670
127.377182 -5.593771 18.090967 0.524895
127.377197 -5.593779 15.117832 0.545632
127.377182 -5.593771 12.173421 0.796521
127.377182 -5.593775 9.251110 0.551492
127.377197 -5.593775 6.344445 0.519677
nan nan nan 0.000000
nan nan nan 0.000000
83.646942 13.511509 -0.000036 0.540841
68.692108 20.045115 -0.000022 0.552132
62.271511 22.850208 -0.000016 0.537804
58.695587 24.412491 -0.000012 0.504524
56.412674 25.409870 -0.000010 0.546258
54.825974 26.103085 -0.000009 0.513588
53.656960 26.613813 -0.000008 0.526894
125.859482 -5.593851 23.803537 0.597787
126.285965 -5.783728 20.900663 0.678431
126.285950 -5.783724 17.923244 0.678431
126.285980 -5.783735 14.981099 0.678431
125.859497 -5.593851 12.013678 0.483162
126.285980 -5.783735 9.175528 0.678431
126.285980 -5.783731 6.299161 0.678431
125.991211 -5.652498 3.426749 0.080400
125.991211 -5.652494 0.573251 0.352941
83.532242 13.251461 -0.000036 0.536706
68.623390 19.889313 -0.000022 0.522377
62.222527 22.739161 -0.000015 0.535439
58.657604 24.326366 -0.000012 0.525597
56.381710 25.339661 -0.000010 0.519966
54.799881 26.043936 -0.000008 0.538186
53.634464 26.562813 -0.000007 0.547204
124.461731 -5.627081 23.487597 0.573373
124.388428 -5.593828 20.510031 0.560769
124.718948 -5.743765 17.660191 0.087816
124.718964 -5.743769 14.766647 0.162402
124.388412 -5.593824 11.859312 0.618601
124.718948 -5.743765 9.056987 0.234607
124.718948 -5.743765 6.228138 0.138491
124.597733 -5.688776 3.406193 0.678431
124.597733 -5.688776 0.593805 0.678431
83.415741 12.992212 -0.000036 0.536263
68.553581 19.733988 -0.000022 0.545953
62.172775 22.628452 -0.000016 0.528374
58.619022 24.240507 -0.000012 0.530617
56.350254 25.269665 -0.000010 0.497993
54.773384 25.984966 -0.000008 0.533104
53.611614 26.511969 -0.000007 0.519997
123.022491 -5.621775 23.159254 0.750774
122.962067 -5.593851 20.229933 0.584039
123.022491 -5.621771 17.370285 0.561578
123.022491 -5.621775 14.530308 0.708278
122.962051 -5.593843 11.710117 0.590356
123.022507 -5.621778 8.926348 0.563729
123.022507 -5.621778 6.149867 0.618494
123.167587 -5.688814 3.384917 0.650874
123.167587 -5.688818 0.615083 0.630243
83.297409 12.733797 -0.000036 0.541146
68.482689 19.579161 -0.000021 0.551980
62.122250 22.518097 -0.000016 0.538491
58.579834 24.154924 -0.000012 0.557260
56.318310 25.199896 -0.000010 0.546792
54.746468 25.926188 -0.000008 0.554330
53.588409 26.461287 -0.000007 0.504295
121.577942 -5.593771 22.828348 0.647440
121.577927 -5.593763 19.958984 0.639612
121.577942 -5.593771 17.129917 0.617426
121.577957 -5.593775 14.334352 0.545159
121.577927 -5.593763 11.565803 0.659602
121.577927 -5.593763 8.818026 0.561547
121.577942 -5.593767 6.084965 0.659983
121.779831 -5.688772 3.364334 0.590463
121.779831 -5.688772 0.635666 0.475914
83.177292 12.476208 -0.000036 0.542489
68.410721 19.424828 -0.000021 0.539574
62.070953 22.408100 -0.000015 0.535866
58.540054 24.069614 -0.000012 0.534524
56.285881 25.130348 -0.000010 0.540307
54.719147 25.867598 -0.000008 0.515618
53.564850 26.410769 -0.000007 0.550607
120.234497 -5.593790 22.524364 0.610666
120.234497 -5.593790 19.696882 0.628626
120.234482 -5.593782 16.909096 0.592813
120.234482 -5.593782 14.154328 0.639673
120.234497 -5.593786 11.426190 0.643915
120.234482 -5.593779 8.718517 0.725185
120.234482 -5.593782 6.025346 0.751003
120.432800 -5.688795 3.344421 0.601907
120.432800 -5.688795 0.655577 0.584344
83.055389 12.219458 -0.000036 0.543603
68.337685 19.271000 -0.000022 0.541222
62.018890 22.298462 -0.000015 0.546059
58.499676 23.984585 -0.000012 0.553704
56.252968 25.061029 -0.000010 0.549981
54.691418 25.809198 -0.000008 0.581933
53.540939 26.360415 -0.000007 0.523186
119.318893 -5.783667 22.338575 0.625299
118.929611 -5.593801 19.443142 0.701640
119.318909 -5.783670 16.774139 0.589212
119.318893 -5.783670 14.044312 0.632532
118.929611 -5.593801 11.291039 0.663050
119.318909 -5.783678 8.657706 0.600702
119.318893 -5.783670 5.988910 0.657603
119.124207 -5.688715 3.325141 0.678431
119.124222 -5.688719 0.674857 0.674220
82.931671 11.963572 -0.000036 0.541314
68.263565 19.117687 -0.000021 0.533791
61.966064 22.189186 -0.000015 0.550179
58.458706 23.899839 -0.000012 0.537316
56.219566 24.991943 -0.000010 0.493629
54.663280 25.750994 -0.000008 0.546700
53.516682 26.310228 -0.000007 0.512413
117.819672 -5.672289 21.989304 0.573358
117.819672 -5.672297 19.235535 0.682292
117.819687 -5.672300 16.520428 0.626642
117.819672 -5.672293 13.837476 0.530053
117.819687 -5.672300 11.180457 0.637629
117.819672 -5.672289 8.543370 0.552651
117.819672 -5.672293 5.920409 0.770443
117.889664 -5.707041 3.307148 0.074083
117.889664 -5.707041 0.692852 0.089952
82.806198 11.708551 -0.000036 0.535607
68.188385 18.964897 -0.000021 0.547097
61.912483 22.080284 -0.000015 0.529076
58.417149 23.815384 -0.000011 0.537148
56.185688 24.923090 -0.000010 0.544259
54.634739 25.692987 -0.000008 0.575814
53.492073 26.260212 -0.000007 0.554894
117.819687 -6.296465 22.059315 0.621744
117.819687 -6.296465 19.295898 0.526238
117.819702 -6.296473 16.571287 0.548653
117.819687 -6.296461 13.878934 0.651041
117.819702 -6.296476 11.212611 0.607477
117.819687 -6.296465 8.566288 0.722042
117.819687 -6.296465 5.934140 0.536492
117.914688 -6.344450 3.312186 0.678431
117.914688 -6.344450 0.687816 0.678431
82.678925 11.454420 -0.000035 0.548180
68.112137 18.812634 -0.000021 0.537301
61.858135 21.971758 -0.000015 0.553811
58.375000 23.731216 -0.000012 0.534981
56.151325 24.854477 -0.000009 0.548791
54.605789 25.635183 -0.000008 0.534676
53.467113 26.210369 -0.000007 0.538888
117.819717 -6.925055 22.130802 0.587381
117.819702 -6.925051 19.357538 0.636454
117.819733 -6.925062 16.623215 0.670237
117.819717 -6.925051 13.921268 0.601129
117.819733 -6.925058 11.245441 0.605753
117.819702 -6.925051 8.589690 0.540475
117.819717 -6.925058 5.948162 0.830518
117.889740 -6.961042 3.316402 0.094118
117.889740 -6.961042 0.683598 0.232776
82.549896 11.201174 -0.000036 0.539559
68.034828 18.660908 -0.000021 0.539574
61.803036 21.863615 -0.000015 0.544717
58.332268 23.647346 -0.000012 0.556237
56.116489 24.786104 -0.000010 0.542214
54.576439 25.577581 -0.000008 0.502541
53.441807 26.160704 -0.000007 0.574029
118.009659 -7.657465 22.257469 0.622522
117.848892 -7.573423 19.427576 0.684947
118.009659 -7.657469 16.715221 0.505211
118.009659 -7.657465 13.996284 0.628885
118.039551 -7.673094 11.307497 0.653056
118.009659 -7.657469 8.631153 0.630411
118.009659 -7.657469 5.973004 0.613626
117.914734 -7.607847 3.321635 0.675364
117.914734 -7.607847 0.678364 0.671321
82.419083 10.948845 -0.000035 0.538033
67.956459 18.509724 -0.000021 0.533745
61.747177 21.755859 -0.000015 0.556451
58.288948 23.563778 -0.000012 0.540688
56.081173 24.717976 -0.000009 0.547158
54.546688 25.520185 -0.000008 0.544915
53.416153 26.111216 -0.000007 0.487709
117.819702 -8.195890 22.278284 0.759319
117.819717 -8.195894 19.484707 0.618814
117.819717 -8.195902 16.730349 0.519081
117.819717 -8.195894 14.008611 0.450874
117.819733 -8.195902 11.313178 0.821927
117.819717 -8.195894 8.637970 0.618509
117.819702 -8.195894 5.977086 0.542596
117.914688 -8.246393 3.326509 0.678431
117.914688 -8.246393 0.673491 0.660563
82.286514 10.697439 -0.000035 0.542199
67.877037 18.359097 -0.000021 0.549020
61.690571 21.648499 -0.000015 0.538643
58.245052 23.480515 -0.000012 0.538323
56.045387 24.650097 -0.000010 0.546731
54.516541 25.462999 -0.000008 0.554086
53.390156 26.061909 -0.000007 0.499504
117.819672 -8.838369 22.354326 0.700587
117.819672 -8.838377 19.550270 0.575769
117.819687 -8.838381 16.785587 0.665644
117.819672 -8.838373 14.053638 0.559274
117.819702 -8.838385 11.348102 0.687526
117.819672 -8.838373 8.662860 0.609186
117.819656 -8.838369 5.992001 0.427039
117.914673 -8.889742 3.331485 0.678431
117.914673 -8.889742 0.668517 0.678431
82.152206 10.446953 -0.000035 0.539590
67.796570 18.209023 -0.000021 0.546731
61.633217 21.541534 -0.000015 0.540673
58.200565 23.397560 -0.000011 0.523018
56.009121 24.582470 -0.000009 0.555138
54.485989 25.406025 -0.000008 0.530129
53.363815 26.012783 -0.000007 0.566262
118.009659 -9.590178 22.486259 0.678431
117.819656 -9.485723 19.617197 0.479530
118.009674 -9.590185 16.881422 0.678431
118.009644 -9.590174 14.131764 0.678431
117.819656 -9.485723 11.383748 0.582818
118.009659 -9.590181 8.706046 0.678431
118.009659 -9.590181 6.017873 0.678431
117.889694 -9.524229 3.336095 0.062745
117.889694 -9.524229 0.663905 0.075547
82.016167 10.197411 -0.000035 0.542321
67.715050 18.059515 -0.000021 0.553429
61.575111 21.434975 -0.000015 0.545556
58.155510 23.314915 -0.000012 0.515557
55.972393 24.515095 -0.000010 0.525597
54.455040 25.349266 -0.000008 0.530907
53.337132 25.963842 -0.000007 0.530800
117.819672 -10.138102 22.511173 0.403754
117.819672 -10.138098 19.685507 0.523308
117.819687 -10.138109 16.899517 0.725994
117.819672 -10.138098 14.146521 0.584787
117.819687 -10.138102 11.420134 0.440848
117.819672 -10.138102 8.714201 0.487007
117.819656 -10.138094 6.022759 0.602060
117.914658 -10.191183 3.341744 0.678431
117.914658 -10.191183 0.658256 0.678431
81.878357 9.948826 -0.000034 0.545617
67.632492 17.910572 -0.000021 0.539284
61.516273 21.328815 -0.000015 0.545769
58.109875 23.232588 -0.000011 0.530159
55.935188 24.447979 -0.000010 0.554726
54.423698 25.292721 -0.000008 0.564691
53.310104 25.915089 -0.000007 0.515846
117.819702 -10.795580 22.592026 0.614511
117.819717 -10.795588 19.755226 0.445716
117.819717 -10.795588 16.958252 0.449393
117.819702 -10.795580 14.194401 0.657725
117.819702 -10.795584 11.457267 0.731579
117.819702 -10.795580 8.740667 0.636500
117.819702 -10.795584 6.038619 0.526864
117.914673 -10.849535 3.347031 0.678431
117.914673 -10.849535 0.652968 0.678431
81.738838 9.701206 -0.000034 0.545968
67.548904 17.762215 -0.000021 0.544198
61.456692 21.223074 -0.000015 0.545937
58.063667 23.150581 -0.000011 0.547326
55.897518 24.381126 -0.000010 0.548806
54.391964 25.236401 -0.000008 0.544350
53.282742 25.866526 -0.000007 0.523003
117.819733 -11.458292 22.674532 0.498772
117.819733 -11.458300 19.826365 0.570520
117.819748 -11.458300 17.018185 0.511193
117.819733 -11.458296 14.243261 0.681910
117.819748 -11.458300 11.495159 0.591745
117.819717 -11.458288 8.767677 0.694255
117.819733 -11.458292 6.054801 0.561120
117.914673 -11.513109 3.352430 0.678431
117.914673 -11.513109 0.647572 0.678431
81.597588 9.454575 -0.000034 0.539239
67.464272 17.614450 -0.000021 0.537133
61.396378 21.117752 -0.000015 0.531365
58.016888 23.068901 -0.000011 0.544366
55.859383 24.314537 -0.000009 0.560937
54.359837 25.180300 -0.000008 0.514946
53.255043 25.818153 -0.000007 0.529671
117.969711 -12.214350 22.802269 0.110964
117.819672 -12.126326 19.898930 0.706813
117.969696 -12.214346 17.110964 0.173739
117.969727 -12.214361 14.318908 0.062745
117.819672 -12.126322 11.533810 0.562112
117.969711 -12.214350 8.809490 0.122698
117.969711 -12.214357 6.079854 0.164324
117.889679 -12.167398 3.357462 0.082918
117.889679 -12.167398 0.642540 0.085176
81.454620 9.208929 -0.000034 0.543145
67.378616 17.467272 -0.000021 0.537621
61.335320 21.012856 -0.000015 0.536950
57.969536 22.987549 -0.000012 0.549996
55.820778 24.248217 -0.000009 0.518578
54.327316 25.124426 -0.000008 0.499672
53.227001 25.769978 -0.000007 0.576989
117.819641 -12.799860 22.844570 0.655863
117.819656 -12.799871 19.972979 0.700343
117.819672 -12.799875 17.141703 0.501747
117.819656 -12.799864 14.343957 0.595834
117.819656 -12.799868 11.573253 0.604089
117.819656 -12.799871 8.823338 0.685725
117.819641 -12.799860 6.088148 0.599695
117.914688 -12.856516 3.363553 0.612940
117.914688 -12.856520 0.636446 0.678431
81.309937 8.964294 -0.000034 0.537316
67.291931 17.320702 -0.000021 0.543374
61.273533 20.908388 -0.000015 0.536965
57.921623 22.906527 -0.000012 0.510002
55.781719 24.182167 -0.000009 0.524681
54.294411 25.068781 -0.000008 0.535470
53.198627 25.721998 -0.000007 0.489036
117.819641 -13.479059 22.932190 0.645991
117.819656 -13.479074 20.048531 0.465995
117.819672 -13.479082 17.205357 0.419974
117.819656 -13.479071 14.395847 0.688518
117.819656 -13.479071 11.613496 0.464836
117.819656 -13.479063 8.852022 0.624033
117.819656 -13.479063 6.105332 0.640635
117.914642 -13.536596 3.369284 0.574655
117.914642 -13.536596 0.630716 0.640894
81.163544 8.720671 -0.000034 0.542412
67.204224 17.174740 -0.000020 0.537087
61.211021 20.804348 -0.000015 0.544579
57.873142 22.825842 -0.000011 0.544945
55.742195 24.116390 -0.000009 0.576242
54.261112 25.013367 -0.000008 0.516457
53.169914 25.674219 -0.000006 0.553933
118.009705 -14.280943 23.077484 0.678431
117.819672 -14.164026 20.125607 0.575296
118.009720 -14.280951 17.310888 0.678431
118.009705 -14.280939 14.481883 0.678431
117.819672 -14.164034 11.654553 0.737041
118.009720 -14.280947 8.899580 0.678431
118.009705 -14.280943 6.133828 0.678431
117.914734 -14.222509 3.375134 0.678431
117.914734 -14.222513 0.624867 0.678431
81.015457 8.478075 -0.000034 0.540093
67.115501 17.029390 -0.000020 0.537270
61.147789 20.700752 -0.000015 0.533196
57.824100 22.745501 -0.000011 0.553323
55.702217 24.050892 -0.000009 0.551125
54.227428 24.958187 -0.000008 0.505943
53.140873 25.626640 -0.000006 0.539223
117.819656 -14.854898 23.112783 0.764981
117.819687 -14.854910 20.204239 0.624933
117.819672 -14.854902 17.336529 0.445182
117.819672 -14.854902 14.502789 0.673777
117.819672 -14.854906 11.696432 0.487602
117.819672 -14.854906 8.911136 0.496635
117.819672 -14.854906 6.140752 0.597131
82.396149 7.280180 2.695734 0.840070
82.396149 7.280178 1.304266 0.853147
80.865692 8.236513 -0.000034 0.539071
67.025345 16.884926 0.000020 0.337316
61.083824 20.597599 -0.000014 0.532219
57.774498 22.665499 -0.000011 0.536492
55.661777 23.985674 -0.000009 0.564202
54.193363 24.903242 -0.000008 0.516274
53.111500 25.579264 -0.000007 0.482078
117.819641 -15.551794 23.205797 0.388403
117.819656 -15.551802 20.284439 0.495338
117.819656 -15.551809 17.404102 0.695201
117.819656 -15.551805 14.557875 0.514992
117.819672 -15.551809 11.739157 0.594781
117.819641 -15.551798 8.941582 0.483757
117.819641 -15.551798 6.158994 0.516030
81.842224 7.280176 2.688063 0.821195
81.842224 7.280176 1.311937 0.847486
80.714233 7.996019 -0.000033 0.542428
66.831841 16.806051 0.010000 1.000000
61.019150 20.494898 -0.000014 0.537926
57.724342 22.585850 -0.000011 0.552636
55.620888 23.920740 -0.000009 0.552071
54.158913 24.848537 -0.000008 0.559533
53.081799 25.532097 -0.000006 0.559915
118.009674 -16.377390 23.357321 0.675395
117.819641 -16.254923 20.366257 0.552789
118.009674 -16.377386 17.514166 0.678431
118.009674 -16.377386 14.647601 0.678431
117.819656 -16.254927 11.782736 0.559853
118.009674 -16.377386 8.991180 0.678431
85.961700 4.276123 4.315670 0.948898
81.300323 7.280178 2.680593 0.826993
81.300323 7.280178 1.319408 0.827665
80.561096 7.756582 -0.000033 0.540841
66.740685 16.663227 0.009987 1.000000
60.953758 20.392647 -0.000015 0.511559
57.673622 22.506550 -0.000011 0.549142
55.579544 23.856094 -0.000009 0.545357
54.124081 24.794075 -0.000007 0.543526
53.051765 25.485138 -0.000006 0.547143
117.819656 -16.964403 23.397484 0.727794
117.819687 -16.964418 20.449722 0.731441
117.819687 -16.964430 17.543348 0.659800
117.819672 -16.964415 14.671390 0.678279
117.819656 -16.964407 11.827188 0.659510
117.819656 -16.964407 9.004332 0.666529
85.360741 4.276117 4.290910 0.937255
80.770050 7.280178 2.673315 0.820630
80.770058 7.280176 1.326685 0.832517
80.406296 7.518213 -0.000033 0.540291
66.750381 16.454399 -0.000005 0.337728
60.887657 20.290855 -0.000014 0.540642
57.622360 22.427607 -0.000011 0.560250
55.537750 23.791737 -0.000009 0.578851
54.088871 24.739857 -0.000008 0.562341
53.021404 25.438387 -0.000007 0.571374
117.819641 -17.680395 23.496206 0.557427
117.819672 -17.680414 20.534849 0.522484
117.819672 -17.680414 17.615059 0.638254
117.819656 -17.680403 14.729854 0.599222
117.819656 -17.680403 11.872530 0.575280
117.819656 -17.680399 9.036646 0.730266
84.772461 4.276108 4.266783 0.937255
80.250977 7.280174 2.666223 0.835828
80.250977 7.280174 1.333776 0.831281
80.249832 7.280933 -0.000032 0.535409
66.656693 16.312199 -0.000010 0.339330
60.820843 20.189529 -0.000014 0.546761
57.570541 22.349024 -0.000011 0.544060
55.495510 23.727673 -0.000009 0.565118
54.053284 24.685886 -0.000008 0.511788
52.990719 25.391851 -0.000006 0.536248
117.819641 -18.403051 23.596907 0.402060
117.819672 -18.403063 20.621672 0.594293
118.009674 -18.531229 17.729912 0.678431
118.009659 -18.531214 14.823480 0.678431
117.819656 -18.403063 11.918781 0.608103
118.009659 -18.531218 9.088402 0.678431
84.196411 4.276106 4.243266 0.937255
79.742699 7.280176 2.659312 0.815030
79.742699 7.280176 1.340688 0.826246
79.742691 7.280178 0.020650 0.695430
66.561958 16.170700 -0.000009 0.338567
60.753319 20.088676 -0.000014 0.531243
57.518177 22.270807 -0.000010 0.546212
55.452820 23.663906 -0.000009 0.527687
54.017319 24.632164 -0.000007 0.540230
52.959709 25.345531 -0.000006 0.604700
117.819672 -19.132574 23.699627 0.491218
117.819687 -19.132589 20.710241 0.708415
117.819687 -19.132589 17.762823 0.610498
117.819687 -19.132593 14.850317 0.674434
117.819672 -19.132582 11.965952 0.587350
117.819687 -19.132589 9.103236 0.526741
83.632172 4.276098 4.220340 0.937255
79.244812 7.280182 2.652574 0.827482
79.244820 7.280180 1.347426 0.829389
79.244820 7.280180 0.040880 0.697337
66.466248 16.029854 -0.000010 0.338079
60.685097 19.988289 -0.000014 0.551965
57.465271 22.192951 -0.000011 0.532250
55.409687 23.600441 -0.000009 0.514580
53.980984 24.578693 -0.000007 0.549020
52.928379 25.299427 -0.000006 0.547799
117.819656 -19.869074 23.804384 0.570397
117.819672 -19.869089 20.800568 0.609293
117.819687 -19.869089 17.838921 0.678019
117.819672 -19.869081 14.912351 0.590661
117.819672 -19.869085 12.014065 0.570504
117.819672 -19.869081 9.137526 0.550393
83.079323 4.276093 4.197984 0.937255
78.757011 7.280176 2.646002 0.819623
78.757011 7.280176 1.353997 0.838743
78.757011 7.280178 0.060606 0.691524
66.369545 15.889691 -0.000009 0.335439
60.616184 19.888382 -0.000014 0.519829
57.411819 22.115473 -0.000011 0.512657
55.366112 23.537275 -0.000009 0.522393
53.944275 24.525480 -0.000008 0.524544
52.896725 25.253546 -0.000006 0.520180
117.819656 -20.612768 23.911230 0.577783
118.009735 -20.746855 20.942932 0.678431
118.009750 -20.746862 17.958862 0.678431
118.009750 -20.746862 15.010129 0.678431
117.819672 -20.612780 12.063138 0.607385
118.009735 -20.746855 9.191578 0.678431
83.033348 3.926277 4.205991 0.910643
78.278900 7.280174 2.639594 0.832944
78.278900 7.280172 1.360406 0.861326
78.278900 7.280172 0.079847 0.699443
66.271805 15.750247 -0.000003 0.337270
60.546566 19.788960 -0.000014 0.541146
57.357826 22.038366 -0.000011 0.552621
55.322102 23.474415 -0.000009 0.540520
53.907192 24.472525 -0.000007 0.484627
52.864754 25.207884 -0.000006 0.544442
117.819672 -21.363836 24.020218 0.691371
117.819687 -21.363848 20.986666 0.579614
117.819672 -21.363840 17.995705 0.580575
117.819702 -21.363852 15.040167 0.619043
117.819672 -21.363832 12.113189 0.667597
117.819687 -21.363848 9.208179 0.701625
82.851746 3.670748 4.205991 0.936248
77.810143 7.280178 2.633341 0.823560
77.810143 7.280178 1.366659 0.861799
77.810150 7.280176 0.098618 0.697063
66.172997 15.611559 0.000013 0.337713
60.476257 19.690029 -0.000014 0.547982
57.303303 21.961639 -0.000011 0.559197
55.277645 23.411867 -0.000009 0.541238
53.869743 24.419827 -0.000008 0.531838
52.832462 25.162447 -0.000006 0.520546
nan nan nan 0.000000
nan nan nan 0.000000
117.819656 -22.122427 18.076443 0.493874
117.819656 -22.122423 15.105983 0.772686
117.819656 -22.122419 12.164235 0.616403
117.819656 -22.122419 9.244562 0.605509
82.668152 3.416643 4.205977 0.937255
77.350464 7.280172 2.627240 0.844587
77.350456 7.280174 1.372760 0.851621
77.350464 7.280176 0.116934 0.696117
66.073395 15.473443 0.000013 0.337362
60.405258 19.591587 -0.000014 0.529168
57.248238 21.885298 -0.000010 0.560418
55.232758 23.349628 -0.000009 0.525979
53.831924 24.367393 -0.000007 0.556100
52.799858 25.117237 -0.000006 0.578485
nan nan nan 0.000000
nan nan nan 0.000000
118.009705 -23.028875 18.201754 0.678431
118.009689 -23.028860 15.208143 0.678431
117.819672 -22.888769 12.216306 0.529854
118.009689 -23.028872 9.301033 0.678431
82.483002 3.163673 4.205977 0.895964
76.899521 7.280172 2.621286 0.859388
76.899521 7.280172 1.378714 0.861830
76.899521 7.280174 0.134811 0.709133
65.972969 15.335921 -0.000002 0.338155
60.333572 19.493647 -0.000013 0.555200
57.192646 21.809338 -0.000010 0.546426
55.187439 23.287706 -0.000009 0.516442
53.793743 24.315226 -0.000007 0.517220
52.766933 25.072254 -0.000006 0.521370
nan nan nan 0.000000
nan nan nan 0.000000
117.819702 -23.663057 18.242802 0.701411
117.819702 -23.663061 15.241608 0.578286
117.819687 -23.663042 12.269413 0.704387
117.819702 -23.663057 9.319531 0.596613
82.296097 2.912003 4.205977 0.909773
76.457031 7.280178 2.615472 0.835981
76.457031 7.280178 1.384527 0.853101
76.457039 7.280176 0.152262 0.695079
65.871445 15.199216 -0.000002 0.337621
60.261211 19.396206 -0.000014 0.526345
57.136524 21.733770 -0.000010 0.499413
55.141685 23.226101 -0.000009 0.501518
53.755199 24.263325 -0.000007 0.499168
52.733700 25.027504 -0.000006 0.592462
nan nan nan 0.000000
nan nan nan 0.000000
117.819702 -24.445452 18.328480 0.596826
117.819702 -24.445452 15.311455 0.597543
117.819702 -24.445459 12.323588 0.643961
117.819702 -24.445452 9.358138 0.564599
82.107246 2.661779 4.205966 0.910857
76.022736 7.280174 2.609797 0.819165
76.022736 7.280174 1.390203 0.825833
76.022736 7.280180 0.169302 0.696712
65.769104 15.063107 -0.000017 0.336965
60.188160 19.299278 -0.000013 0.545602
57.079872 21.658596 -0.000010 0.549142
55.095505 23.164818 -0.000009 0.519554
53.716290 24.211697 -0.000007 0.582116
52.700153 24.982986 -0.000006 0.507454
nan nan nan 0.000000
nan nan nan 0.000000
118.009705 -25.382498 18.459505 0.678431
117.819717 -25.236193 15.382699 0.703395
117.819702 -25.236177 12.378839 0.594461
118.009705 -25.382494 9.417183 0.554299
81.916855 2.412741 4.205966 0.934585
75.596367 7.280172 2.604254 0.827070
75.596367 7.280172 1.395746 0.834867
75.596367 7.280172 0.185942 0.697993
65.665657 14.927853 -0.000015 0.338369
60.114445 19.202860 -0.000013 0.540154
57.022701 21.583820 -0.000010 0.526070
55.048897 23.103857 -0.000008 0.531365
53.677025 24.160339 -0.000007 0.568750
52.666298 24.938705 -0.000006 0.495308
nan nan nan 0.000000
nan nan nan 0.000000
117.819733 -26.035482 18.505014 0.477974
117.819733 -26.035479 15.455367 0.676249
117.819717 -26.035471 12.435199 0.613886
117.819733 -26.035482 9.437691 0.398215
81.724701 2.165051 4.205966 0.911315
75.177643 7.280170 2.598840 0.823468
75.177643 7.280170 1.401160 0.832868
75.177643 7.280174 0.202196 0.683299
65.561287 14.793296 -0.000015 0.337011
60.040054 19.106953 -0.000014 0.539818
56.965012 21.509443 -0.000010 0.503304
55.001862 23.043224 -0.000008 0.510948
53.637405 24.109257 -0.000007 0.553582
52.632133 24.894661 -0.000006 0.555596
nan nan nan 0.000000
nan nan nan 0.000000
118.009674 -26.994074 18.640036 0.678431
117.819748 -26.843538 15.529492 0.608377
117.819717 -26.843527 12.492683 0.595361
118.009674 -26.994078 9.498535 0.678431
81.530754 1.918762 4.205960 0.915419
74.766342 7.280172 2.593551 0.815778
74.766342 7.280172 1.406449 0.823438
74.766342 7.280172 0.218075 0.692195
65.455956 14.659493 -0.000011 0.335683
59.965000 19.011572 -0.000014 0.535958
56.906803 21.435471 -0.000010 0.531151
54.954411 22.982918 -0.000008 0.562554
53.597424 24.058453 -0.000007 0.498680
52.597660 24.850855 -0.000006 0.501335
nan nan nan 0.000000
122.123367 -31.120794 23.001902 0.616449
117.819748 -27.660589 18.688690 0.592935
117.819733 -27.660589 15.605107 0.583719
117.819733 -27.660582 12.551326 0.474037
117.819748 -27.660593 9.520462 0.511040
81.335167 1.673775 4.205960 0.930312
74.362221 7.280167 2.588382 0.820203
74.362221 7.280167 1.411618 0.827451
74.362221 7.280170 0.233591 0.695583
65.349686 14.526436 -0.000009 0.339300
59.889278 18.916718 -0.000013 0.537606
56.848076 21.361908 -0.000010 0.549004
54.906536 22.922947 -0.000009 0.529229
53.557091 24.007927 -0.000007 0.527626
52.562881 24.807291 -0.000006 0.540383
121.126144 -31.183466 26.173189 0.437415
121.126160 -31.183485 22.843046 0.499535
117.819748 -28.486837 18.783304 0.559503
117.819748 -28.486841 15.682242 0.585138
117.819733 -28.486830 12.611146 0.596765
117.819748 -28.486837 9.563097 0.591882
81.137985 1.430079 4.205966 0.908248
73.965065 7.280169 2.583331 0.823377
73.965065 7.280169 1.416668 0.833234
73.965065 7.280169 0.248754 0.688792
65.242523 14.394103 -0.000008 0.336950
59.812893 18.822399 -0.000013 0.543847
56.788837 21.288759 -0.000010 0.533028
54.858242 22.863316 -0.000008 0.519219
53.516407 23.957689 -0.000007 0.586252
52.527805 24.763973 -0.000006 0.527810
119.993439 -31.120813 25.943985 0.613916
119.993454 -31.120825 22.645411 0.567651
117.976013 -29.451857 18.916729 0.721294
117.819672 -29.322519 15.760915 0.444953
117.976013 -29.451845 12.695503 0.710658
117.976013 -29.451857 9.623223 0.550301
80.939011 1.187828 4.205966 0.932372
73.574638 7.280170 2.578395 0.826215
73.574638 7.280170 1.421606 0.851469
73.574638 7.280169 0.263575 0.700359
65.134399 14.262541 -0.000005 0.338201
59.735855 18.728607 -0.000013 0.523781
56.729092 21.216019 -0.000010 0.527855
54.809536 22.804016 -0.000008 0.539742
53.475372 23.907730 -0.000007 0.576959
52.492424 24.720898 -0.000006 0.516030
119.151031 -31.285089 25.808208 0.244144
119.151031 -31.285078 22.528332 0.168032
117.819656 -30.167929 18.978275 0.476570
117.819656 -30.167933 15.841186 0.436896
117.819656 -30.167921 12.734414 0.399863
117.819656 -30.167925 9.650957 0.610010
80.738449 0.946899 4.205974 0.935347
73.190758 7.280169 2.573568 0.827100
73.190750 7.280170 1.426432 0.827451
73.190758 7.280169 0.278064 0.693614
65.025337 14.131771 0.000002 0.336721
59.658165 18.635365 -0.000013 0.552453
56.668839 21.143703 -0.000010 0.552117
54.760414 22.745062 -0.000008 0.517784
53.433990 23.858065 -0.000007 0.564569
52.456741 24.678072 -0.000006 0.515709
117.934219 -31.120829 25.548843 0.613031
117.934219 -31.120832 22.304703 0.561883
117.819656 -31.023340 19.078741 0.621775
117.819656 -31.023336 15.923087 0.617945
117.819641 -31.023329 12.797932 0.617685
117.819656 -31.023333 9.696230 0.617060
80.536118 0.707449 4.205974 0.928557
72.813202 7.280169 2.568849 0.831205
72.813202 7.280170 1.431150 0.858930
72.813202 7.280170 0.292232 0.700557
64.915421 14.001708 0.000002 0.336019
59.579823 18.542660 -0.000013 0.519219
56.608082 21.071808 -0.000010 0.539574
54.710884 22.686451 -0.000008 0.564095
53.392265 23.808685 -0.000007 0.501396
52.420761 24.635498 -0.000006 0.524269
117.149902 -31.310850 25.430653 0.678431
117.149887 -31.310839 22.202787 0.678431
117.149902 -31.310843 19.020250 0.678431
116.929794 -31.120852 15.832273 0.519173
117.149902 -31.310843 12.760953 0.678431
75.922035 4.276098 5.204203 0.937255
80.332108 0.469427 4.205974 0.903426
72.441788 7.280170 2.564234 0.825437
72.441788 7.280170 1.435765 0.861738
72.441788 7.280170 0.306085 0.695766
64.804512 13.872492 0.000012 0.337514
59.500839 18.450502 -0.000013 0.546395
56.546829 21.000336 -0.000010 0.532967
54.660946 22.628185 -0.000008 0.548318
53.350189 23.759600 -0.000007 0.554498
52.384487 24.593174 -0.000006 0.542947
115.941528 -31.120901 25.171003 0.543603
115.941528 -31.120897 21.978912 0.549172
115.941528 -31.120897 18.831640 0.543618
115.941528 -31.120893 15.721644 0.551843
115.941528 -31.120905 12.641711 0.584009
75.507874 4.276096 5.178574 0.937255
80.126541 0.232759 4.205979 0.906050
