# This PCD file was generated using the MATLAB® pcwrite function
# from Computer Vision Toolbox®.
# .PCD v.7 - Point Cloud Data file format
VERSION .7
FIELDS x y z intensity
SIZE 4 4 4 4
TYPE F F F F
COUNT 1 1 1 1
WIDTH 1265
HEIGHT 1
VIEWPOINT 0 0 0 1 0 0 0
POINTS 1265
DATA ascii
nan nan nan 0.000000
nan nan nan 0.000000
nan nan nan 0.000000
nan nan nan 0.000000
nan nan nan 0.000000
nan nan nan 0.000000
nan nan nan 0.000000
nan nan nan 0.000000
nan nan nan 0.000000
91.362617 129.656631 0.000048 0.549187
84.614807 114.798401 0.000029 0.536522
81.717690 108.419128 0.000021 0.549676
80.104141 104.866196 0.000016 0.524834
79.074020 102.597939 0.000013 0.485969
78.358047 101.021408 0.000011 0.540917
77.830551 99.859886 0.000010 0.559396
nan nan nan 0.000000
nan nan nan 0.000000
nan nan nan 0.000000
nan nan nan 0.000000
nan nan nan 0.000000
nan nan nan 0.000000
nan nan nan 0.000000
nan nan nan 0.000000
nan nan nan 0.000000
91.620972 129.538208 0.000048 0.537987
84.769608 114.727448 0.000029 0.541268
81.828026 108.368561 0.000021 0.520150
80.189705 104.826973 0.000016 0.544274
79.143776 102.565956 0.000014 0.539544
78.416817 100.994469 0.000011 0.579629
77.881218 99.836662 0.000010 0.530755
nan nan nan 0.000000
nan nan nan 0.000000
nan nan nan 0.000000
nan nan nan 0.000000
nan nan nan 0.000000
nan nan nan 0.000000
nan nan nan 0.000000
nan nan nan 0.000000
nan nan nan 0.000000
91.878487 129.417953 0.000049 0.543770
84.923904 114.655418 0.000029 0.545724
81.938004 108.317215 0.000021 0.534936
80.274994 104.787155 0.000016 0.542397
79.213310 102.533501 0.000014 0.531579
78.475395 100.967117 0.000011 0.537377
77.931732 99.813080 0.000010 0.481239
nan nan nan 0.000000
nan nan nan 0.000000
nan nan nan 0.000000
nan nan nan 0.000000
nan nan nan 0.000000
nan nan nan 0.000000
nan nan nan 0.000000
nan nan nan 0.000000
nan nan nan 0.000000
92.135178 129.295929 0.000049 0.541787
85.077698 114.582306 0.000029 0.547631
82.047615 108.265106 0.000021 0.552178
80.360008 104.746735 0.000017 0.525017
79.282608 102.500549 0.000014 0.540124
78.533783 100.939369 0.000011 0.544656
77.982071 99.789154 0.000010 0.547204
nan nan nan 0.000000
nan nan nan 0.000000
nan nan nan 0.000000
nan nan nan 0.000000
nan nan nan 0.000000
nan nan nan 0.000000
nan nan nan 0.000000
nan nan nan 0.000000
nan nan nan 0.000000
92.390999 129.172119 0.000049 0.536049
85.230972 114.508125 0.000030 0.547539
82.156860 108.212234 0.000021 0.545174
80.444733 104.705734 0.000017 0.517449
79.351685 102.467125 0.000013 0.539208
78.591972 100.911201 0.000011 0.507790
78.032249 99.764870 0.000010 0.519219
nan nan nan 0.000000
nan nan nan 0.000000
nan nan nan 0.000000
nan nan nan 0.000000
nan nan nan 0.000000
nan nan nan 0.000000
nan nan nan 0.000000
nan nan nan 0.000000
nan nan nan 0.000000
92.645950 129.046539 0.000049 0.537194
85.383720 114.432869 0.000030 0.555856
82.265739 108.158600 0.000021 0.536995
80.529175 104.664139 0.000017 0.612848
79.420517 102.433212 0.000013 0.516167
78.649963 100.882637 0.000011 0.573648
78.082253 99.740234 0.000010 0.552438
nan nan nan 0.000000
nan nan nan 0.000000
nan nan nan 0.000000
nan nan nan 0.000000
nan nan nan 0.000000
nan nan nan 0.000000
nan nan nan 0.000000
nan nan nan 0.000000
nan nan nan 0.000000
92.900024 128.919159 0.000049 0.544228
85.535950 114.356560 0.000030 0.539315
82.374237 108.104210 0.000021 0.541344
80.613319 104.621956 0.000017 0.530007
79.489120 102.398827 0.000014 0.524330
78.707756 100.853661 0.000012 0.515877
78.132080 99.715256 0.000010 0.548089
nan nan nan 0.000000
nan nan nan 0.000000
nan nan nan 0.000000
nan nan nan 0.000000
nan nan nan 0.000000
nan nan nan 0.000000
nan nan nan 0.000000
nan nan nan 0.000000
nan nan nan 0.000000
93.153183 128.790009 0.000050 0.536950
85.687637 114.279190 0.000030 0.532662
82.482353 108.049065 0.000021 0.548226
80.697166 104.579185 0.000017 0.564874
79.557472 102.363960 0.000014 0.521996
78.765343 100.824287 0.000012 0.520577
78.181732 99.689926 0.000010 0.527718
nan nan nan 0.000000
90.554779 123.212051 9.464678 0.692042
90.554771 123.212036 8.288768 0.647791
90.554771 123.212036 7.126788 0.647929
90.554779 123.212044 5.976038 0.549828
90.554771 123.212036 4.833921 0.621759
90.638474 123.371971 3.706789 0.647059
90.554695 123.211891 2.565567 0.678431
90.638474 123.371971 1.431476 0.678431
90.554703 123.211914 0.302084 0.610986
85.838783 114.200760 0.000030 0.545571
82.590080 107.993156 0.000022 0.532525
80.780716 104.535835 0.000017 0.546044
79.625587 102.328613 0.000014 0.540978
78.822723 100.794510 0.000012 0.550271
78.231209 99.664253 0.000010 0.552590
nan nan nan 0.000000
90.537918 122.666840 9.358839 0.450675
90.537910 122.666840 8.199602 0.519234
90.537910 122.666832 7.054097 0.616114
90.537910 122.666832 5.919662 0.624262
90.537910 122.666824 4.793740 0.664057
90.712784 122.995377 3.692132 0.678431
90.537735 122.666504 2.557544 0.676493
90.712784 122.995384 1.436359 0.678431
90.537750 122.666534 0.326168 0.634302
85.989372 114.121269 0.000030 0.542077
82.697418 107.936508 0.000022 0.545800
80.863960 104.491890 0.000017 0.569299
79.693451 102.292801 0.000014 0.558633
78.879898 100.764336 0.000012 0.563638
78.280510 99.638237 0.000010 0.520928
nan nan nan 0.000000
90.521523 122.136841 9.256307 0.494911
90.521515 122.136841 8.113222 0.655375
90.521515 122.136841 6.983677 0.627405
90.521515 122.136841 5.865050 0.674723
90.521515 122.136833 4.754815 0.446998
90.695686 122.458618 3.668500 0.678431
90.521240 122.136314 2.549773 0.678431
90.695679 122.458611 1.444231 0.678431
90.521271 122.136383 0.349499 0.455680
86.139404 114.040733 0.000030 0.537423
82.804352 107.879097 0.000022 0.516930
80.946892 104.447372 0.000018 0.544121
79.761063 102.256508 0.000014 0.536278
78.936859 100.733765 0.000012 0.563989
78.329620 99.611870 0.000010 0.573037
nan nan nan 0.000000
90.505585 121.621399 9.156935 0.528847
90.505585 121.621399 8.029509 0.598566
90.505585 121.621399 6.915431 0.539101
90.505577 121.621391 5.812120 0.556100
90.505585 121.621399 4.717091 0.649622
90.679054 121.936615 3.645599 0.678431
90.505203 121.620697 2.542241 0.644633
90.679054 121.936615 1.451859 0.678431
90.505249 121.620781 0.372110 0.551049
86.288879 113.959145 0.000031 0.541863
82.910889 107.820953 0.000022 0.508980
81.029518 104.402283 0.000017 0.529641
79.828415 102.219742 0.000014 0.553109
78.993607 100.702789 0.000012 0.563561
78.378548 99.585167 0.000010 0.533761
nan nan nan 0.000000
90.490074 121.119850 9.060593 0.664103
90.490067 121.119843 7.948339 0.591562
90.490067 121.119835 6.849258 0.553735
90.490067 121.119843 5.760802 0.704936
90.490067 121.119843 4.680513 0.587030
90.662827 121.428642 3.623391 0.678431
90.489594 121.118996 2.534937 0.497032
90.662827 121.428642 1.459256 0.660533
90.489647 121.119087 0.394034 0.664454
86.437775 113.876534 0.000031 0.544106
83.017014 107.762070 0.000022 0.509743
81.111824 104.356613 0.000018 0.545525
79.895515 102.182510 0.000014 0.500359
79.050133 100.671425 0.000012 0.566217
78.427292 99.558121 0.000010 0.541985
nan nan nan 0.000000
90.474976 120.631607 8.967143 0.590616
90.474968 120.631599 7.869609 0.678431
90.474968 120.631592 6.785076 0.540993
90.474968 120.631592 5.711026 0.558846
90.474976 120.631607 4.645036 0.659434
90.647079 120.934250 3.601856 0.678431
90.474396 120.630585 2.527855 0.561898
90.647079 120.934242 1.466429 0.678431
90.474472 120.630714 0.415298 0.643793
86.586090 113.792877 0.000031 0.543282
83.122726 107.702438 0.000022 0.553063
81.193810 104.310364 0.000018 0.543114
79.962349 102.144814 0.000014 0.558953
79.106438 100.639664 0.000012 0.547585
78.475845 99.530739 0.000010 0.526528
nan nan nan 0.000000
90.460182 120.155945 8.876427 0.665461
90.547684 120.307343 7.825003 0.638544
90.460175 120.155937 6.722773 0.661616
90.547684 120.307343 5.682825 0.653544
90.460197 120.155968 4.610600 0.532540
90.631729 120.452782 3.580961 0.678431
90.459602 120.154938 2.520981 0.561624
90.631737 120.452782 1.473389 0.678431
90.459671 120.155060 0.435932 0.558755
86.733818 113.708176 0.000031 0.535592
83.228020 107.642075 0.000023 0.528572
81.275467 104.263550 0.000017 0.532433
80.028923 102.106644 0.000014 0.535225
79.162521 100.607513 0.000012 0.560586
78.524200 99.503014 0.000011 0.575448
nan nan nan 0.000000
90.445602 119.692200 8.788299 0.577218
90.693001 120.113457 7.807831 0.678431
90.445602 119.692200 6.662247 0.706615
90.693001 120.113457 5.671968 0.678431
90.445694 119.692352 4.577153 0.622705
90.616791 119.983688 3.560679 0.678431
90.445183 119.691490 2.514309 0.584360
90.616791 119.983688 1.480145 0.678431
90.445267 119.691635 0.455960 0.647059
86.880943 113.622452 0.000032 0.549111
83.332893 107.580978 0.000023 0.539345
81.356796 104.216171 0.000018 0.555474
80.095230 102.068016 0.000014 0.552621
79.218384 100.574966 0.000012 0.589868
78.572365 99.474953 0.000011 0.519463
nan nan nan 0.000000
90.431396 119.240181 8.702726 0.478828
90.678169 119.653740 7.734475 0.678431
90.572327 119.476364 6.644272 0.655253
90.678169 119.653740 5.625589 0.678431
90.431541 119.240425 4.544674 0.572747
90.600075 119.522865 3.540779 0.656474
90.431129 119.239731 2.507831 0.603906
90.600082 119.522865 1.486774 0.653437
90.431221 119.239891 0.475409 0.694057
87.027481 113.535713 0.000032 0.531151
83.437332 107.519150 0.000023 0.539956
81.437798 104.168221 0.000018 0.549752
80.161255 102.028931 0.000014 0.520867
79.274017 100.542038 0.000012 0.551888
78.620331 99.446564 0.000010 0.493156
nan nan nan 0.000000
90.417542 118.799393 8.619599 0.555581
90.663704 119.205460 7.663219 0.678431
90.557999 119.031082 6.586574 0.647059
90.663712 119.205467 5.580539 0.678431
90.417755 118.799736 4.513126 0.678431
90.588028 119.080620 3.521856 0.678431
90.417427 118.799202 2.501537 0.676432
90.588028 119.080620 1.493077 0.678431
90.417534 118.799377 0.494300 0.657176
87.173401 113.447937 0.000032 0.537469
83.541336 107.456596 0.000023 0.548623
81.518456 104.119705 0.000018 0.511986
80.227020 101.989380 0.000015 0.541939
79.329414 100.508713 0.000012 0.473960
78.668098 99.417831 0.000011 0.516655
nan nan nan 0.000000
90.404022 118.369377 8.538825 0.446265
90.649597 118.768158 7.593982 0.678431
90.588730 118.669327 6.543160 0.655268
90.649597 118.768158 5.536763 0.678431
90.404274 118.369781 4.482467 0.647059
90.574173 118.645676 3.503268 0.678431
90.404060 118.369431 2.495423 0.616968
90.574173 118.645668 1.499269 0.678431
90.404175 118.369621 0.512658 0.512810
87.318703 113.359161 0.000033 0.529351
83.644905 107.393311 0.000023 0.546731
81.598778 104.070625 0.000018 0.519417
80.292496 101.949371 0.000015 0.527230
79.384583 100.475006 0.000012 0.562982
78.715668 99.388763 0.000011 0.540078
90.389084 117.946915 9.491666 0.443214
90.390831 117.949707 8.460307 0.611063
90.635826 118.341408 7.526684 0.678431
90.635834 118.341415 6.505516 0.678431
90.635834 118.341415 5.494215 0.678431
90.391121 117.950180 4.452664 0.450828
90.560646 118.221207 3.485199 0.678431
90.655388 118.372681 2.497637 0.585321
90.560646 118.221207 1.505287 0.678431
90.391136 117.950203 0.530504 0.588434
87.463387 113.269363 0.000033 0.536553
83.748032 107.329308 0.000023 0.558526
81.678757 104.020988 0.000018 0.548348
80.357697 101.908905 0.000014 0.510872
79.439507 100.440918 0.000012 0.542657
78.763023 99.359367 0.000011 0.532097
90.377953 117.539986 9.403950 0.499382
90.377953 117.539993 8.383965 0.467613
90.517014 117.758896 7.425491 0.655360
90.517014 117.758896 6.423019 0.647059
90.517014 117.758896 5.430235 0.647761
90.378242 117.540443 4.423679 0.523430
90.378204 117.540390 3.452126 0.551843
90.378204 117.540382 2.483696 0.478614
90.378204 117.540382 1.516304 0.571160
90.378281 117.540512 0.547867 0.516777
87.607437 113.178558 0.000033 0.541024
83.850700 107.264587 0.000023 0.557763
81.758385 103.970795 0.000018 0.543618
80.422607 101.867981 0.000015 0.538231
79.494194 100.406441 0.000013 0.512749
78.810181 99.329643 0.000011 0.505745
90.365372 117.139809 9.317825 0.672740
90.365372 117.139801 8.309705 0.508644
90.365364 117.139801 7.315739 0.614755
90.609360 117.518036 6.400311 0.678431
90.609344 117.518021 5.412624 0.703487
90.365623 117.140205 4.395483 0.651652
90.365601 117.140167 3.435232 0.632944
90.365601 117.140167 2.478069 0.678431
90.365601 117.140167 1.521931 0.652247
90.365669 117.140274 0.564761 0.599664
87.750854 113.086754 0.000033 0.536355
83.952919 107.199158 0.000023 0.532860
81.837662 103.920052 0.000018 0.540185
80.487236 101.826614 0.000015 0.540917
79.548645 100.371590 0.000012 0.549157
78.857132 99.299599 0.000011 0.514549
90.353081 116.748825 9.234035 0.608194
90.412468 116.839493 8.260867 0.576410
90.353081 116.748817 7.254872 0.485084
90.596542 117.120514 6.349835 0.678431
90.491226 116.959732 5.351368 0.653300
90.353310 116.749168 4.368049 0.520378
90.353294 116.749153 3.418797 0.657206
90.353294 116.749146 2.472595 0.641001
90.353294 116.749146 1.527406 0.627008
90.353355 116.749245 0.581197 0.586465
87.893616 112.993942 0.000033 0.531518
84.054680 107.133011 0.000023 0.554009
81.916580 103.868744 0.000019 0.524132
80.551575 101.784790 0.000015 0.525505
79.602844 100.336357 0.000013 0.533806
78.903862 99.269218 0.000011 0.574304
90.341072 116.366669 9.152485 0.669673
90.478783 116.573746 8.220852 0.647059
90.341072 116.366669 7.195635 0.644892
90.584015 116.731979 6.300711 0.678431
90.341324 116.367043 5.284963 0.678431
90.341270 116.366966 4.341350 0.678431
90.341263 116.366959 3.402800 0.577325
90.341263 116.366959 2.467267 0.674784
90.341263 116.366959 1.532733 0.580331
90.341324 116.367043 0.597194 0.564248
88.035736 112.900146 0.000033 0.555978
84.155975 107.066147 0.000024 0.531914
81.995140 103.816895 0.000018 0.548150
80.615616 101.742523 0.000015 0.556298
79.656799 100.300751 0.000013 0.556771
78.950386 99.238510 0.000011 0.584314
90.329330 115.993027 9.073095 0.470817
90.490509 116.231758 8.160903 0.666346
90.329330 115.993027 7.137966 0.576074
90.571762 116.352104 6.252888 0.678431
90.329552 115.993347 5.248494 0.539635
90.329498 115.993271 4.315356 0.678431
90.329498 115.993271 3.387228 0.654566
90.329498 115.993271 2.462080 0.638483
90.329498 115.993271 1.537921 0.532723
90.329559 115.993355 0.612767 0.636835
88.177200 112.805359 0.000033 0.539940
84.256805 106.998589 0.000024 0.526955
82.073334 103.764503 0.000018 0.540764
80.679367 101.699806 0.000015 0.551476
79.710503 100.264763 0.000013 0.544167
78.996689 99.207481 0.000011 0.558465
90.317841 115.627556 8.995783 0.610925
90.559784 115.980568 8.124460 0.723629
90.317841 115.627556 7.081805 0.549020
90.559784 115.980576 6.206320 0.678431
90.318039 115.627846 5.212982 0.627909
90.317993 115.627777 4.290048 0.545983
90.317993 115.627769 3.372063 0.709804
90.317993 115.627777 2.457028 0.617212
90.317993 115.627777 1.542972 0.594736
90.318039 115.627838 0.627932 0.709804
88.317993 112.709572 0.000034 0.538659
84.357155 106.930321 0.000024 0.524330
82.151161 103.711555 0.000019 0.549203
80.742813 101.656647 0.000015 0.525689
79.763962 100.228401 0.000013 0.580713
79.042778 99.176132 0.000011 0.507774
90.306602 115.269974 8.920478 0.526772
90.548065 115.617065 8.058418 0.678431
90.306602 115.269974 7.027103 0.564935
90.548065 115.617065 6.160962 0.678431
90.306778 115.270218 5.178392 0.570321
90.306732 115.270157 4.265393 0.666789
90.306732 115.270164 3.357292 0.534463
90.306732 115.270157 2.452108 0.614160
90.306732 115.270157 1.547892 0.661860
90.306778 115.270218 0.642703 0.517403
88.458115 112.612816 0.000034 0.535363
84.457024 106.861359 0.000024 0.547860
82.228615 103.658073 0.000018 0.560159
80.805954 101.613045 0.000015 0.549813
79.817154 100.191666 0.000013 0.560830
79.088646 99.144455 0.000012 0.521553
90.295601 114.919991 8.847105 0.521691
90.431702 115.112747 7.954797 0.672480
90.295601 114.919991 6.973804 0.631861
90.431702 115.112747 6.089792 0.653651
90.295753 114.920204 5.144690 0.568902
90.295715 114.920158 4.241373 0.635294
90.295715 114.920151 3.342901 0.652476
90.295715 114.920151 2.447314 0.573617
90.295715 114.920151 1.552686 0.556374
90.295753 114.920204 0.657096 0.705669
88.597557 112.515091 0.000034 0.545083
84.556412 106.791695 0.000024 0.522530
82.305695 103.604050 0.000019 0.557534
80.868797 101.569000 0.000015 0.517052
79.870094 100.154564 0.000013 0.523659
79.134300 99.112465 0.000011 0.573343
90.284828 114.577332 8.775599 0.537865
90.525299 114.912903 7.931342 0.678431
90.284821 114.577324 6.921859 0.533974
90.525299 114.912910 6.073685 0.678431
90.284958 114.577499 5.111843 0.610056
90.284927 114.577461 4.217962 0.520516
90.284927 114.577461 3.328874 0.534676
90.284927 114.577469 2.442642 0.578393
90.284927 114.577469 1.557358 0.539269
90.284958 114.577507 0.671122 0.531716
88.736320 112.416382 0.000034 0.533959
84.655319 106.721352 0.000024 0.547646
82.382401 103.549492 0.000019 0.540887
80.931328 101.524521 0.000016 0.503731
79.922775 100.117088 0.000013 0.514565
79.179718 99.080154 0.000011 0.571496
90.274269 114.241730 8.705892 0.608774
90.514313 114.571823 7.870224 0.678431
90.274269 114.241730 6.871225 0.653712
90.514320 114.571831 6.031709 0.678431
90.274384 114.241882 5.079825 0.527947
90.274353 114.241844 4.195143 0.455146
90.274353 114.241844 3.315203 0.515679
90.274353 114.241844 2.438088 0.499352
90.274353 114.241844 1.561912 0.515587
90.274384 114.241882 0.684795 0.596536
88.874382 112.316711 0.000034 0.538064
84.753723 106.650314 0.000024 0.544244
82.458717 103.494400 0.000019 0.546441
80.993546 101.479607 0.000015 0.522606
79.975189 100.079254 0.000013 0.539666
79.224915 99.047531 0.000011 0.515251
90.263947 113.912979 8.637934 0.644221
90.503563 114.237679 7.810632 0.678431
90.263947 113.912979 6.821859 0.707225
90.503563 114.237679 5.990780 0.678431
90.264030 113.913086 5.048609 0.637659
90.264008 113.913063 4.172894 0.670161
90.264015 113.913063 3.301872 0.501030
90.264015 113.913063 2.433647 0.454826
90.264015 113.913063 1.566353 0.517586
90.264038 113.913094 0.698126 0.589227
89.011749 112.216080 0.000034 0.541405
84.851631 106.578583 0.000024 0.540536
82.534653 103.438774 0.000019 0.530022
81.055450 101.434265 0.000015 0.542290
80.027344 100.041046 0.000013 0.578393
79.269882 99.014587 0.000011 0.528695
90.253815 113.590782 8.571647 0.547845
90.493011 113.910233 7.752516 0.678431
90.253815 113.590775 6.773706 0.473915
90.493019 113.910248 5.950867 0.678431
90.253876 113.590866 5.018161 0.457511
90.253860 113.590843 4.151193 0.709804
90.253860 113.590843 3.288870 0.508385
90.253860 113.590843 2.429317 0.645563
90.253860 113.590843 1.570683 0.651240
90.253876 113.590866 0.711128 0.558953
89.148407 112.114494 0.000034 0.552239
84.949036 106.506180 0.000025 0.514946
82.610191 103.382622 0.000019 0.515770
81.117035 101.388481 0.000016 0.475013
80.079224 100.002480 0.000013 0.521935
79.314613 98.981331 0.000011 0.544030
90.243896 113.274956 8.506990 0.616022
90.482681 113.589264 7.695826 0.678431
90.243896 113.274948 6.726742 0.697169
90.482689 113.589272 5.911931 0.678431
90.243942 113.275009 4.988463 0.525628
90.243927 113.274994 4.130026 0.491096
90.243927 113.274994 3.276188 0.545281
90.243927 113.274994 2.425092 0.610513
90.243927 113.274994 1.574908 0.654536
90.243942 113.275009 0.723811 0.576059
89.284355 112.011955 0.000035 0.535882
85.045937 106.433090 0.000024 0.521096
82.685341 103.325935 0.000019 0.525292
81.178299 101.342278 0.000015 0.528664
80.130836 99.963554 0.000013 0.555688
79.359116 98.947769 0.000011 0.575143
90.234146 112.965240 8.443895 0.527764
90.472549 113.274536 7.640514 0.678431
90.234138 112.965240 6.680908 0.571252
90.472549 113.274536 5.873942 0.678431
90.234169 112.965271 4.959483 0.705821
90.234161 112.965263 4.109371 0.511498
90.234161 112.965263 3.263812 0.646540
90.234161 112.965263 2.420971 0.705150
90.234161 112.965263 1.579030 0.700038
90.234169 112.965271 0.736186 0.672496
89.419586 111.908470 0.000035 0.542260
85.142319 106.359329 0.000025 0.523751
82.760086 103.268730 0.000020 0.566567
81.239235 101.295639 0.000016 0.587961
80.182175 99.924263 0.000013 0.552056
79.403389 98.913895 0.000011 0.563058
90.224602 112.661491 8.382331 0.526238
90.462616 112.965858 7.586536 0.678431
90.248306 112.691803 6.643191 0.609018
90.462616 112.965858 5.836869 0.678431
90.224609 112.661491 4.931203 0.492729
90.224602 112.661491 4.089216 0.549859
90.224602 112.661491 3.251737 0.543297
90.224602 112.661491 2.416948 0.696574
90.224602 112.661491 1.583052 0.678431
90.224609 112.661499 0.748263 0.558877
89.554092 111.804047 0.000035 0.549676
85.238190 106.284897 0.000025 0.531518
82.834442 103.211006 0.000019 0.549218
81.299843 101.248581 0.000016 0.548272
80.233246 99.884621 0.000013 0.523522
79.447418 98.879707 0.000011 0.504891
90.215523 112.363831 8.322351 0.658640
90.215530 112.363838 7.451370 0.470954
90.215523 112.363831 6.592617 0.580392
90.215523 112.363831 5.744035 0.576288
90.215523 112.363831 4.903656 0.512932
90.215523 112.363831 4.069581 0.490745
90.215523 112.363831 3.239974 0.400977
90.215523 112.363831 2.413029 0.678431
90.215523 112.363831 1.586971 0.678431
90.215523 112.363831 0.760027 0.374899
89.687859 111.698677 0.000035 0.540246
85.333534 106.209801 0.000025 0.548562
82.908386 103.152771 0.000020 0.514855
81.360130 101.201103 0.000016 0.554360
80.284027 99.844620 0.000014 0.547158
79.491203 98.845215 0.000012 0.540734
90.206711 112.071815 8.263826 0.661631
90.206711 112.071815 7.400909 0.632959
90.206703 112.071808 6.550104 0.646937
90.206703 112.071808 5.709376 0.640345
90.206711 112.071815 4.876777 0.622248
90.206703 112.071808 4.050424 0.512642
90.206711 112.071815 3.228495 0.597620
90.206711 112.071815 2.409206 0.678431
90.206711 112.071815 1.590794 0.669703
90.206711 112.071815 0.771505 0.647059
89.820892 111.592384 0.000035 0.535912
85.428352 106.134041 0.000025 0.544091
82.981918 103.094009 0.000019 0.522759
81.420082 101.153206 0.000016 0.528557
80.334534 99.804260 0.000014 0.522683
79.534752 98.810425 0.000011 0.479133
90.198044 111.785126 8.206671 0.362310
90.198044 111.785133 7.351627 0.558282
90.198036 111.785126 6.508585 0.560098
90.198036 111.785126 5.675529 0.606439
90.198044 111.785126 4.850527 0.437430
90.198044 111.785126 4.031714 0.537011
90.198036 111.785126 3.217285 0.604364
90.198044 111.785126 2.405472 0.606485
90.198044 111.785126 1.594528 0.626047
90.198044 111.785126 0.782714 0.661204
89.953171 111.485161 0.000035 0.530587
85.522644 106.057625 0.000025 0.536828
83.055046 103.034744 0.000019 0.502983
81.479691 101.104881 0.000016 0.523873
80.384758 99.763557 0.000013 0.536934
79.578056 98.775322 0.000012 0.492958
90.189529 111.503609 8.150845 0.656428
90.189529 111.503609 7.303491 0.587854
90.189529 111.503609 6.468033 0.532891
90.189529 111.503601 5.642471 0.483940
90.189529 111.503609 4.824888 0.685725
90.189529 111.503609 4.013440 0.671061
90.189529 111.503609 3.206337 0.634195
90.189529 111.503609 2.401825 0.606821
90.189529 111.503609 1.598175 0.678431
90.189529 111.503616 0.793663 0.647059
90.084709 111.377014 0.000036 0.543816
85.616394 105.980537 0.000025 0.542443
83.127754 102.974968 0.000019 0.520562
81.538963 101.056152 0.000016 0.559182
80.434692 99.722504 0.000014 0.545602
79.621117 98.739922 0.000012 0.521645
90.181168 111.227097 8.096309 0.625498
90.181168 111.227097 7.256468 0.567788
90.181168 111.227097 6.428417 0.642252
90.181168 111.227097 5.610175 0.647059
90.181168 111.227097 4.799841 0.678431
90.181168 111.227097 3.995588 0.693507
90.181168 111.227097 3.195641 0.678431
90.181168 111.227097 2.398262 0.678431
90.181168 111.227097 1.601737 0.678431
90.181168 111.227097 0.804359 0.642847
90.215492 111.267967 0.000035 0.537469
85.709602 105.902809 0.000025 0.530953
83.200043 102.914680 0.000020 0.536233
81.597900 101.007004 0.000016 0.513069
80.484344 99.681099 0.000013 0.568322
79.663925 98.704224 0.000012 0.544274
90.172943 110.955421 8.043021 0.581918
90.172935 110.955414 7.210519 0.629908
90.172943 110.955414 6.389708 0.622492
90.172943 110.955414 5.578618 0.655756
90.172943 110.955414 4.775368 0.542977
90.172943 110.955414 3.978144 0.610849
90.172935 110.955414 3.185189 0.619791
90.172943 110.955414 2.394781 0.678431
90.172943 110.955414 1.605219 0.670604
90.172943 110.955414 0.814811 0.596811
90.172935 110.955414 0.021856 0.469154
85.802269 105.824425 0.000026 0.551354
83.271912 102.853897 0.000020 0.530190
81.656487 100.957451 0.000016 0.518013
80.533699 99.639351 0.000014 0.570596
79.706482 98.668228 0.000011 0.557656
90.164871 110.688454 7.990950 0.558282
90.164871 110.688446 7.165622 0.429541
90.164871 110.688454 6.351883 0.532418
90.164871 110.688454 5.547783 0.650629
90.164871 110.688446 4.751452 0.504051
90.164871 110.688446 3.961099 0.512657
90.164871 110.688454 3.174976 0.546670
90.164871 110.688454 2.391379 0.611765
90.164871 110.688454 1.608621 0.543877
90.164871 110.688454 0.825022 0.573343
90.164871 110.688446 0.038900 0.510597
85.894386 105.745407 0.000026 0.533211
83.343353 102.792610 0.000019 0.572564
81.714729 100.907486 0.000016 0.518822
80.582771 99.597260 0.000014 0.541390
79.748787 98.631935 0.000012 0.535775
90.156944 110.426033 7.940055 0.678431
90.156937 110.426033 7.121739 0.678431
90.156937 110.426033 6.314913 0.678431
90.156944 110.426041 5.517644 0.678431
90.156937 110.426033 4.728079 0.678431
90.156944 110.426033 3.944439 0.566369
90.156937 110.426025 3.164995 0.410224
90.156937 110.426033 2.388055 0.530037
90.156937 110.426033 1.611945 0.567224
90.156937 110.426033 0.835005 0.538674
90.156944 110.426033 0.055560 0.642130
85.985947 105.665741 0.000026 0.548440
83.414368 102.730820 0.000020 0.548135
81.772621 100.857117 0.000016 0.509377
80.631538 99.554825 0.000014 0.528115
79.790840 98.595345 0.000012 0.529381
90.149139 110.168022 7.890303 0.501381
90.149147 110.168022 7.078841 0.522087
90.149139 110.168030 6.278772 0.557839
90.149147 110.168030 5.488181 0.521553
90.149139 110.168022 4.705230 0.656580
90.149139 110.168022 3.928153 0.674754
90.149139 110.168022 3.155238 0.492531
90.149147 110.168022 2.384804 0.678431
90.149147 110.168022 1.615196 0.661753
90.149147 110.168022 0.844762 0.511452
90.149147 110.168022 0.071846 0.678431
86.076958 105.585434 0.000026 0.540978
83.484947 102.668549 0.000020 0.534768
81.830154 100.806351 0.000016 0.570291
80.680016 99.512047 0.000014 0.574914
79.832642 98.558464 0.000012 0.556481
90.141373 109.914185 7.841621 0.663401
90.141373 109.914185 7.036867 0.672297
90.141380 109.914185 6.243411 0.678431
90.141380 109.914185 5.459354 0.678431
90.141373 109.914185 4.682872 0.491875
90.225830 110.007904 3.922562 0.620584
90.141350 109.914154 3.145689 0.506676
90.225830 110.007896 2.383688 0.550210
90.225830 110.007904 1.616312 0.537148
90.141350 109.914154 0.854312 0.567132
90.141342 109.914146 0.087785 0.663737
86.167397 105.504501 0.000026 0.539879
83.555084 102.605774 0.000020 0.530877
81.887337 100.755180 0.000016 0.539773
80.728188 99.468941 0.000014 0.532326
79.874176 98.521294 0.000012 0.525216
90.133575 109.664314 7.793962 0.478904
90.133575 109.664314 6.995773 0.476738
90.133583 109.664314 6.208790 0.439811
90.133583 109.664314 5.431129 0.603922
90.133575 109.664314 4.660983 0.612222
90.352364 109.903702 3.923208 0.648585
90.133469 109.664192 3.136335 0.544289
90.352364 109.903702 2.383817 0.647059
90.352364 109.903702 1.616183 0.648096
90.133469 109.664192 0.863665 0.490257
90.133469 109.664192 0.103396 0.498009
86.257278 105.422935 0.000026 0.546319
83.624786 102.542511 0.000020 0.539544
81.944160 100.703606 0.000017 0.480613
80.776062 99.425491 0.000014 0.553613
79.915459 98.483833 0.000012 0.564569
90.125916 109.418488 7.747354 0.554086
90.125916 109.418488 6.955586 0.564691
90.125916 109.418488 6.174935 0.678386
90.125916 109.418488 5.403528 0.537682
90.125916 109.418488 4.639578 0.678431
90.365799 109.677315 3.910295 0.678431
90.125732 109.418289 3.127188 0.709804
90.365799 109.677315 2.381241 0.669703
90.365799 109.677315 1.618760 0.678431
90.125732 109.418289 0.872812 0.647059
90.125732 109.418289 0.118662 0.528801
86.346573 105.340744 0.000026 0.526680
83.694046 102.478775 0.000020 0.541451
82.000626 100.651642 0.000016 0.505684
80.823624 99.381714 0.000014 0.544991
79.956467 98.446083 0.000012 0.549630
90.118362 109.176559 7.701760 0.627482
90.118370 109.176567 6.916276 0.500267
90.118370 109.176567 6.141817 0.608804
90.118370 109.176567 5.376530 0.564706
90.118362 109.176567 4.618639 0.532464
90.358086 109.431625 3.895137 0.678431
90.118095 109.176277 3.118241 0.678431
90.358093 109.431625 2.378215 0.671809
90.358093 109.431625 1.621785 0.678431
90.118103 109.176285 0.881759 0.684688
90.118095 109.176277 0.133596 0.628717
86.435303 105.257927 0.000026 0.540383
83.762863 102.414551 0.000020 0.573312
82.056725 100.599281 0.000017 0.532753
80.870888 99.337601 0.000014 0.530617
79.997223 98.408051 0.000012 0.504189
90.110939 108.938446 7.657165 0.598413
90.110947 108.938446 6.877822 0.687083
90.110939 108.938446 6.109419 0.402472
90.110939 108.938446 5.350119 0.667811
90.110939 108.938446 4.598157 0.550851
90.350510 109.189796 3.880308 0.678431
90.110603 108.938095 3.109489 0.678431
90.350510 109.189796 2.375256 0.673747
90.350502 109.189796 1.624745 0.678431
90.110603 108.938095 0.890510 0.628412
90.110596 108.938087 0.148203 0.648402
86.523445 105.174492 0.000027 0.535958
83.831223 102.349846 0.000020 0.550500
82.112450 100.546539 0.000017 0.538018
80.917839 99.293167 0.000014 0.569131
80.037704 98.369736 0.000012 0.508049
90.103630 108.704010 7.613529 0.645548
90.103630 108.704010 6.840198 0.443519
90.103630 108.704010 6.077724 0.623072
90.103630 108.704010 5.324279 0.542473
90.103638 108.704010 4.578117 0.647425
90.343040 108.951706 3.865800 0.678431
90.103218 108.703583 3.100927 0.647059
90.343040 108.951714 2.372360 0.675578
90.343040 108.951714 1.627640 0.678431
90.103218 108.703583 0.899074 0.540566
90.103218 108.703583 0.162495 0.586664
86.611015 105.090454 0.000026 0.544747
83.899132 102.284668 0.000020 0.544427
82.167816 100.493401 0.000017 0.576562
80.964478 99.248398 0.000014 0.550134
80.077919 98.331131 0.000012 0.545846
90.096428 108.473145 7.570832 0.312932
90.096428 108.473145 6.803381 0.633768
90.096428 108.473145 6.046706 0.476280
90.096428 108.473152 5.298993 0.634806
90.096428 108.473145 4.558506 0.545678
90.335686 108.717255 3.851603 0.678431
90.095932 108.472649 3.092546 0.477577
90.335686 108.717262 2.369527 0.677699
90.335686 108.717262 1.630473 0.678431
90.095940 108.472649 0.907453 0.465156
90.095932 108.472649 0.176481 0.534813
86.697990 105.005798 0.000027 0.527535
83.966583 102.219009 0.000020 0.528420
82.222801 100.439880 0.000017 0.553002
81.010803 99.203308 0.000014 0.561196
80.117859 98.292259 0.000012 0.537758
90.089333 108.245766 7.529045 0.706249
90.089333 108.245766 6.767353 0.589029
90.089340 108.245766 6.016354 0.614221
90.089333 108.245766 5.274248 0.669627
90.089340 108.245766 4.539316 0.482261
90.328445 108.486336 3.837710 0.678431
90.088776 108.245201 3.084346 0.476265
90.328438 108.486336 2.366754 0.678431
90.328438 108.486336 1.633246 0.678431
90.088776 108.245201 0.915653 0.591821
90.088776 108.245201 0.190166 0.563134
86.784363 104.920540 0.000027 0.548333
84.033569 102.152893 0.000021 0.530571
82.277420 100.385971 0.000016 0.524605
81.056816 99.157898 0.000014 0.546471
80.157532 98.253098 0.000012 0.509133
90.082352 108.021759 7.488149 0.442069
90.082352 108.021759 6.732090 0.700130
90.082352 108.021759 5.986644 0.632914
90.082344 108.021751 5.250029 0.503471
90.082352 108.021759 4.520534 0.451804
90.321304 108.258842 3.824111 0.678431
90.081718 108.021126 3.076322 0.448966
90.321304 108.258842 2.364041 0.678431
90.321304 108.258842 1.635960 0.678431
90.081718 108.021133 0.923678 0.563989
90.081718 108.021126 0.203562 0.469215
86.870155 104.834686 0.000027 0.538399
84.100098 102.086304 0.000021 0.559197
82.331650 100.331688 0.000017 0.512062
81.102509 99.112160 0.000014 0.546365
80.196930 98.213669 0.000012 0.554528
90.075462 107.801025 7.448114 0.694301
90.075462 107.801025 6.697569 0.536812
90.075462 107.801025 5.957563 0.446830
90.075462 107.801025 5.226321 0.671305
90.075470 107.801033 4.502148 0.575784
90.314270 108.034683 3.810801 0.678431
90.074768 107.800339 3.068465 0.562493
90.314278 108.034683 2.361384 0.678431
90.314278 108.034683 1.638616 0.678431
90.074768 107.800339 0.931535 0.625330
90.074760 107.800339 0.216674 0.696757
86.955330 104.748230 0.000027 0.559670
84.166168 102.019257 0.000021 0.537911
82.385513 100.277031 0.000017 0.566201
81.147881 99.066109 0.000014 0.546014
80.236053 98.173958 0.000012 0.542962
90.204422 107.714447 7.456171 0.662623
90.204422 107.714447 6.704516 0.647059
90.204422 107.714447 5.963415 0.659724
90.204414 107.714447 5.231091 0.654902
90.068832 107.583626 4.484170 0.669169
90.204178 107.714218 3.786015 0.647059
90.067909 107.582741 3.060774 0.595010
90.204178 107.714211 2.356438 0.649668
90.204178 107.714218 1.643563 0.663447
90.067917 107.582741 0.939225 0.657954
90.067909 107.582733 0.229511 0.686259
87.039902 104.661179 0.000027 0.540154
84.231758 101.951744 0.000021 0.529503
82.438980 100.221992 0.000017 0.563394
81.192932 99.019745 0.000014 0.557687
80.274895 98.133980 0.000012 0.542016
90.301788 107.597191 7.453461 0.678431
90.301788 107.597191 6.702180 0.678431
90.301788 107.597191 5.961447 0.678431
90.301788 107.597183 5.229487 0.678431
90.062325 107.369347 4.466576 0.522271
90.259254 107.556717 3.780342 0.645335
90.061157 107.368233 3.053244 0.583642
90.259254 107.556717 2.355305 0.654902
90.259254 107.556717 1.644695 0.653162
90.061157 107.368240 0.946755 0.553124
90.061157 107.368240 0.242079 0.708476
87.123878 104.573547 0.000027 0.545769
84.296875 101.883774 0.000021 0.535393
82.492073 100.166580 0.000017 0.532860
81.237656 98.973068 0.000014 0.536110
80.313461 98.093735 0.000012 0.543236
90.296852 107.384140 7.415911 0.678431
90.296852 107.384140 6.669802 0.678431
90.296852 107.384140 5.934170 0.678431
90.296852 107.384140 5.207251 0.678431
90.055908 107.158081 4.449348 0.633936
90.293846 107.381317 3.772527 0.678431
90.054497 107.156754 3.045871 0.637766
90.293846 107.381317 2.353746 0.678431
90.293846 107.381317 1.646255 0.678431
90.054497 107.156754 0.954128 0.707149
90.054489 107.156746 0.254386 0.634760
87.207230 104.485329 0.000026 0.542138
84.361519 101.815361 0.000021 0.517922
82.544769 100.110809 0.000017 0.549538
81.282059 98.926071 0.000014 0.544656
80.351746 98.053215 0.000012 0.548363
90.291985 107.173996 7.379136 0.678431
90.291985 107.173996 6.638094 0.678431
90.291977 107.173996 5.907456 0.678431
90.291985 107.173996 5.185473 0.678431
90.049583 106.949722 4.432477 0.559136
90.287201 107.169571 3.760292 0.678431
90.047920 106.948189 3.038650 0.676310
90.287201 107.169571 2.351304 0.678431
90.287193 107.169563 1.648696 0.678431
90.047920 106.948189 0.961349 0.677104
90.047920 106.948189 0.266436 0.477928
87.289955 104.396515 0.000027 0.548119
84.425682 101.746490 0.000021 0.533806
82.597076 100.054665 0.000017 0.552392
81.326126 98.878777 0.000015 0.535424
80.389740 98.012436 0.000012 0.522393
90.287178 106.966675 7.343116 0.678431
90.287178 106.966675 6.607036 0.678431
90.287178 106.966675 5.881290 0.678431
90.287178 106.966675 5.164143 0.678431
90.043343 106.744217 4.415954 0.654002
90.280640 106.960709 3.748309 0.678431
90.041443 106.742485 3.031579 0.657588
90.280640 106.960709 2.348913 0.678431
90.280640 106.960709 1.651088 0.678431
90.041443 106.742485 0.968421 0.606470
90.041443 106.742477 0.278239 0.566995
87.372078 104.307144 0.000027 0.534295
84.489365 101.677170 0.000021 0.561379
82.648994 99.998154 0.000017 0.525429
81.369865 98.831169 0.000014 0.554925
80.427452 97.971382 0.000012 0.559030
90.282440 106.762100 7.307830 0.678431
90.282440 106.762100 6.576612 0.678431
90.282440 106.762100 5.855660 0.678431
90.282440 106.762100 5.143246 0.678431
90.037193 106.541473 4.399769 0.675395
90.274170 106.754662 3.736573 0.678431
90.035049 106.539543 3.024652 0.669154
90.274170 106.754662 2.346570 0.678431
90.274170 106.754662 1.653430 0.678431
90.035049 106.539543 0.975347 0.514168
90.035049 106.539551 0.289800 0.637476
87.453560 104.217201 0.000027 0.536629
84.552559 101.607422 0.000021 0.540429
82.700516 99.941292 0.000017 0.529137
81.413261 98.783257 0.000015 0.511574
80.464874 97.930077 0.000012 0.533623
90.277756 106.560204 7.273263 0.678431
90.277763 106.560204 6.546809 0.678431
90.277763 106.560204 5.830552 0.678431
90.277763 106.560204 5.122777 0.678431
90.031128 106.341423 4.383916 0.467369
90.267784 106.551353 3.725076 0.678431
90.028748 106.339310 3.017868 0.617319
90.267792 106.551353 2.344276 0.678431
90.267784 106.551353 1.655724 0.678431
90.028740 106.339310 0.982132 0.430594
90.028740 106.339310 0.301124 0.637690
87.534416 104.126686 0.000027 0.532433
84.615265 101.537216 0.000021 0.530571
82.751640 99.884064 0.000017 0.514092
81.456337 98.735046 0.000014 0.514778
80.502014 97.888504 0.000012 0.542062
90.273148 106.360909 7.239401 0.678431
90.273140 106.360909 6.517607 0.678431
90.273140 106.360909 5.805951 0.678431
90.273148 106.360909 5.102723 0.678431
90.025131 106.143982 4.368385 0.570932
90.261490 106.350716 3.713814 0.678431
90.022514 106.141693 3.011221 0.707164
90.261490 106.350708 2.342028 0.678431
90.261490 106.350708 1.657972 0.678431
90.022522 106.141693 0.988778 0.378439
90.022514 106.141693 0.312217 0.708019
87.614639 104.035614 0.000027 0.535317
84.677490 101.466591 0.000021 0.565911
82.802353 99.826477 0.000017 0.528954
81.499062 98.686539 0.000014 0.556817
80.538857 97.846680 0.000012 0.492195
90.268585 106.164146 7.206220 0.678431
90.268585 106.164146 6.488999 0.678431
90.268585 106.164154 5.781849 0.678431
90.268585 106.164146 5.083074 0.678431
90.019218 105.949089 4.353170 0.523293
90.255272 106.152664 3.702781 0.678431
90.016373 105.946632 3.004710 0.619348
90.255272 106.152664 2.339827 0.678431
90.255272 106.152664 1.660174 0.678431
90.016373 105.946632 0.995290 0.425071
90.016373 105.946640 0.323085 0.647074
87.694229 103.943977 0.000027 0.553323
84.739212 101.395523 0.000021 0.541604
82.852676 99.768547 0.000017 0.550759
81.541458 98.637726 0.000014 0.552316
80.575409 97.804596 0.000012 0.477913
90.264084 105.969849 7.173706 0.678431
90.264084 105.969849 6.460965 0.678431
90.264084 105.969849 5.758230 0.678431
90.264084 105.969849 5.063819 0.678431
90.013359 105.756660 4.338259 0.438437
90.249130 105.957138 3.691971 0.678431
90.010307 105.754059 2.998330 0.562448
90.249130 105.957138 2.337669 0.678431
90.249130 105.957138 1.662331 0.678431
90.010307 105.754059 1.001670 0.509957
90.010307 105.754066 0.333733 0.601801
87.773170 103.851791 0.000027 0.555673
84.800438 101.324028 0.000021 0.532418
82.902588 99.710258 0.000017 0.554665
81.583504 98.588623 0.000014 0.547311
80.611664 97.762253 0.000012 0.561578
90.259644 105.777962 7.141847 0.678431
90.259636 105.777962 6.433495 0.678431
90.259636 105.777962 5.735087 0.678431
90.259644 105.777962 5.044952 0.678431
90.007607 105.566666 4.323652 0.438926
90.243073 105.764069 3.681378 0.678431
90.004318 105.563911 2.992079 0.485237
90.243073 105.764069 2.335555 0.678431
90.243073 105.764069 1.664445 0.678431
90.004318 105.563911 1.007921 0.555734
90.004318 105.563911 0.344167 0.472648
87.851471 103.759056 0.000028 0.537285
84.861160 101.252106 0.000021 0.539193
82.952087 99.651627 0.000017 0.542260
81.625214 98.539230 0.000014 0.541451
80.647629 97.719666 0.000012 0.553994
90.255249 105.588409 7.110624 0.678431
90.255249 105.588409 6.406573 0.678431
90.255249 105.588409 5.712407 0.678431
90.255241 105.588409 5.026463 0.678431
90.001915 105.379021 4.309339 0.676127
90.237083 105.573395 3.670998 0.678431
89.998405 105.376114 2.985953 0.613901
90.237083 105.573395 2.333483 0.678431
90.237083 105.573395 1.666517 0.678431
89.998405 105.376122 1.014047 0.677638
89.998405 105.376122 0.354391 0.420615
87.929115 103.665771 0.000028 0.533333
84.921371 101.179764 0.000021 0.522194
83.001183 99.592651 0.000017 0.523812
81.666573 98.489540 0.000015 0.561196
80.683289 97.676819 0.000013 0.512322
90.250908 105.401138 7.080025 0.678431
90.250908 105.401138 6.380188 0.678431
90.250908 105.401138 5.690180 0.678431
90.250908 105.401138 5.008342 0.678431
89.996277 105.193649 4.295308 0.648508
90.128510 105.301399 3.649968 0.654047
89.992561 105.190620 2.979950 0.629862
90.128510 105.301399 2.329286 0.647059
90.128510 105.301399 1.670714 0.659312
89.992569 105.190628 1.020050 0.677043
89.992561 105.190620 0.364411 0.678431
88.006111 103.571953 0.000027 0.533501
84.981094 101.107002 0.000021 0.542336
83.049866 99.533333 0.000017 0.537377
81.707581 98.439568 0.000014 0.556435
80.718651 97.633736 0.000013 0.542184
90.246620 105.216080 7.050034 0.678431
90.246613 105.216080 6.354330 0.678431
90.246620 105.216087 5.668395 0.678431
90.246620 105.216087 4.990583 0.678431
89.990730 105.010529 4.281561 0.518181
90.225441 105.199066 3.650868 0.674296
89.986786 105.007362 2.974067 0.659129
90.225433 105.199066 2.329466 0.669978
90.225433 105.199066 1.670534 0.668254
89.986794 105.007362 1.025933 0.674876
89.986786 105.007362 0.374230 0.644343
88.082443 103.477600 0.000028 0.534218
85.040291 101.033829 0.000021 0.537499
83.098129 99.473679 0.000017 0.530221
81.748245 98.389313 0.000014 0.539193
80.753708 97.590401 0.000012 0.568521
90.242386 105.033195 7.020639 0.678431
90.242386 105.033195 6.328985 0.678431
90.242378 105.033188 5.647040 0.678431
90.242378 105.033188 4.973174 0.678431
89.985222 104.829552 4.268084 0.521645
90.219666 105.015205 3.641099 0.678431
89.981087 104.826279 2.968300 0.502235
90.219666 105.015205 2.327516 0.678431
90.219666 105.015205 1.672484 0.678431
89.981087 104.826279 1.031699 0.541009
89.981087 104.826279 0.383855 0.507393
88.158127 103.382713 0.000028 0.537194
85.098984 100.960236 0.000021 0.513344
83.145973 99.413681 0.000017 0.518807
81.788559 98.338768 0.000014 0.510140
80.788467 97.546822 0.000012 0.523934
90.238190 104.852409 6.991825 0.678431
90.238197 104.852417 6.304141 0.678431
90.238197 104.852417 5.626112 0.678431
90.238190 104.852409 4.956111 0.678431
89.979805 104.650719 4.254879 0.603830
90.213966 104.833496 3.631522 0.678431
89.975449 104.647316 2.962648 0.706538
90.213959 104.833496 2.325605 0.678431
90.213959 104.833496 1.674395 0.678431
89.975449 104.647316 1.037351 0.698940
89.975449 104.647316 0.393287 0.675166
88.233139 103.287300 0.000028 0.536049
85.157166 100.886246 0.000021 0.534859
83.193405 99.353363 0.000017 0.525322
81.828514 98.287949 0.000014 0.527123
80.822922 97.502998 0.000012 0.519936
90.234047 104.673683 6.963581 0.678431
90.234055 104.673691 6.279788 0.678431
90.234055 104.673691 5.605595 0.678431
90.234055 104.673683 4.939385 0.678431
89.974426 104.473923 4.241930 0.630289
90.208328 104.653893 3.622136 0.678431
89.969879 104.470428 2.957109 0.672801
90.208321 104.653885 2.323731 0.678431
90.208321 104.653885 1.676268 0.678431
89.969879 104.470428 1.042890 0.681819
89.969879 104.470428 0.402533 0.649927
88.307487 103.191368 0.000028 0.544137
85.214821 100.811844 0.000021 0.538643
83.240410 99.292709 0.000018 0.532982
81.868111 98.236855 0.000014 0.529168
80.857063 97.458939 0.000013 0.613077
90.229958 104.496956 6.935895 0.678431
90.229958 104.496956 6.255914 0.678431
90.229958 104.496956 5.585483 0.678431
90.229965 104.496964 4.922990 0.678431
89.969131 104.299164 4.229242 0.613046
90.202751 104.476326 3.612934 0.678431
89.964363 104.295547 2.951679 0.661723
90.202751 104.476326 2.321896 0.678431
90.202751 104.476326 1.678105 0.678431
89.964371 104.295547 1.048321 0.704417
89.964371 104.295547 0.411596 0.675029
88.381157 103.094917 0.000028 0.551415
85.271957 100.737038 0.000021 0.512276
83.286987 99.231728 0.000017 0.541512
81.907356 98.185478 0.000015 0.539590
80.890900 97.414642 0.000012 0.550362
90.225906 104.322189 6.908752 0.678431
90.225906 104.322189 6.232513 0.678431
90.225906 104.322189 5.565766 0.678431
90.225906 104.322182 4.906917 0.678431
89.963875 104.126343 4.216802 0.601251
90.197235 104.300758 3.603915 0.678431
89.958923 104.122635 2.946356 0.675731
90.197235 104.300758 2.320096 0.678431
90.197235 104.300758 1.679905 0.678431
89.958923 104.122635 1.053644 0.696117
89.958923 104.122635 0.420481 0.449622
88.454163 102.997955 0.000028 0.539132
85.328575 100.661842 0.000021 0.554833
83.333145 99.170425 0.000017 0.550057
81.946236 98.133827 0.000014 0.548119
80.924431 97.370117 0.000012 0.510842
90.221901 104.149315 6.882145 0.678431
90.221901 104.149315 6.209569 0.678431
90.221901 104.149315 5.546437 0.678431
90.221901 104.149315 4.891160 0.678431
89.958702 103.955444 4.204609 0.529305
90.191788 104.127136 3.595072 0.678431
89.953537 103.951637 2.941138 0.702571
90.191788 104.127136 2.318330 0.678431
90.191788 104.127136 1.681669 0.678431
89.953537 103.951645 1.058862 0.645548
89.953537 103.951645 0.429190 0.455970
88.526482 102.900490 0.000028 0.539284
85.384659 100.586250 0.000021 0.544350
83.378868 99.108803 0.000017 0.528572
81.984756 98.081917 0.000014 0.547539
80.957642 97.325348 0.000012 0.543389
90.217941 103.978302 6.856059 0.678431
90.217941 103.978302 6.187078 0.678431
90.217941 103.978302 5.527489 0.678431
90.217941 103.978302 4.875712 0.678431
89.953560 103.786392 4.192652 0.442329
90.186394 103.955406 3.586404 0.678431
89.948212 103.782509 2.936022 0.683345
90.186394 103.955406 2.316601 0.678431
90.186394 103.955406 1.683399 0.678431
89.948204 103.782509 1.063977 0.620691
89.948212 103.782509 0.437728 0.481086
88.598122 102.802513 0.000028 0.528664
85.440224 100.510269 0.000021 0.528740
83.424164 99.046860 0.000018 0.542077
82.022919 98.029732 0.000014 0.564630
80.990547 97.280350 0.000012 0.523354
90.214020 103.809097 6.830485 0.678431
90.214020 103.809097 6.165027 0.678431
90.214020 103.809097 5.508911 0.678431
90.214020 103.809097 4.860568 0.675578
89.948479 103.619164 4.180930 0.465019
90.181061 103.785522 3.577906 0.678431
89.942940 103.615204 2.931007 0.519890
90.181068 103.785530 2.314905 0.678431
90.181068 103.785530 1.685095 0.678431
89.942940 103.615204 1.068993 0.482292
89.942940 103.615204 0.446099 0.603281
88.669075 102.704048 0.000028 0.550576
85.495247 100.433899 0.000021 0.539818
83.469025 98.984604 0.000017 0.555428
82.060715 97.977280 0.000015 0.524102
81.023132 97.235130 0.000013 0.531487
90.210136 103.641663 6.805410 0.678431
90.210144 103.641663 6.143408 0.678431
90.210144 103.641663 5.490698 0.678431
90.108437 103.569984 4.827262 0.667124
89.943466 103.453720 4.169442 0.433509
90.175789 103.617447 3.569575 0.678431
89.937721 103.449669 2.926090 0.559091
90.175789 103.617447 2.313242 0.678431
90.175789 103.617447 1.686758 0.678431
89.937721 103.449669 1.073910 0.484504
89.937721 103.449669 0.454306 0.527932
88.739342 102.605087 0.000028 0.536339
85.549744 100.357155 0.000022 0.523308
83.513443 98.922035 0.000017 0.493309
82.098137 97.924568 0.000015 0.523598
81.055397 97.189674 0.000013 0.531548
90.206299 103.475945 6.780828 0.678431
90.206306 103.475945 6.122212 0.678431
90.206299 103.475945 5.472840 0.678431
90.104622 103.405342 4.812799 0.672175
89.938492 103.289986 4.158175 0.694606
90.170563 103.451126 3.561406 0.678431
89.932564 103.285866 2.921269 0.455573
90.170563 103.451126 2.311612 0.678431
90.170563 103.451126 1.688388 0.678431
89.932571 103.285873 1.078730 0.581949
89.932571 103.285873 0.462351 0.647059
88.808914 102.505638 0.000028 0.529381
85.603699 100.280022 0.000022 0.539010
83.557434 98.859154 0.000018 0.530358
82.135193 97.871597 0.000015 0.519631
81.087357 97.144005 0.000013 0.517754
90.202507 103.311905 6.756729 0.678431
90.202499 103.311905 6.101429 0.678431
90.202499 103.311905 5.455334 0.678431
90.100853 103.242371 4.798620 0.702129
89.933563 103.127937 4.147130 0.592630
90.165398 103.286530 3.553399 0.678431
89.927460 103.123756 2.916544 0.502052
90.165398 103.286522 2.310014 0.678431
90.165398 103.286522 1.689986 0.678431
89.927460 103.123756 1.083456 0.646952
89.927460 103.123756 0.470239 0.663111
88.877785 102.405701 0.000028 0.539269
85.657112 100.202522 0.000022 0.517861
83.600975 98.795975 0.000018 0.547387
82.171883 97.818367 0.000015 0.522988
81.118988 97.098106 0.000013 0.547250
90.198738 103.149506 6.733099 0.678431
