# This PCD file was generated using the MATLABÂ® pcwrite function
# from Computer Vision ToolboxÂ®.
# .PCD v.7 - Point Cloud Data file format
VERSION .7
FIELDS x y z intensity
SIZE 4 4 4 4
TYPE F F F F
COUNT 1 1 1 1
WIDTH 1277
HEIGHT 1
VIEWPOINT 0 0 0 1 0 0 0
POINTS 1277
DATA ascii
35.653755 71.032341 0.000009 0.512749
22.524561 39.936329 12.454889 0.628168
22.793449 40.576126 10.864708 0.655879
22.793449 40.576130 9.468251 0.667140
22.793449 40.576126 8.088339 0.642283
22.793447 40.576122 6.721759 0.663249
22.793446 40.576118 5.365436 0.631174
22.793442 40.576111 4.016375 0.647593
22.793438 40.576103 2.671645 0.663615
22.524561 39.936329 1.316999 0.603815
22.922661 40.883575 0.000009 0.542260
29.245535 55.928360 0.000027 0.528756
31.960102 62.387459 0.000021 0.545098
33.471973 65.984840 0.000017 0.528038
34.437180 68.281471 0.000013 0.537163
35.108032 69.877716 0.000011 0.558419
35.602291 71.053764 0.000009 0.557153
22.207556 39.936333 12.485905 0.647059
22.793449 41.303619 10.720071 0.639368
22.793446 41.303612 9.346400 0.653284
22.793446 41.303612 7.989001 0.628153
22.793442 41.303604 6.644722 0.657084
22.793440 41.303600 5.310526 0.651896
22.793436 41.303589 3.983475 0.626383
22.793430 41.303577 2.660687 0.637736
22.207554 39.936329 1.314972 0.628122
22.793453 41.303631 0.016525 0.574899
29.088785 55.994881 0.000027 0.548608
31.848377 62.434875 0.000021 0.529671
33.385326 66.021614 0.000016 0.546838
34.366543 68.311447 0.000013 0.518547
35.048523 69.902969 0.000011 0.557610
35.550980 71.075539 0.000009 0.554818
22.762457 41.936848 11.970806 0.665446
22.762455 41.936840 10.597207 0.635615
22.762447 41.936825 9.242894 0.640024
22.762447 41.936825 7.904620 0.623529
22.762442 41.936813 6.579281 0.632761
22.762440 41.936810 5.263883 0.637598
22.762436 41.936802 3.955530 0.661402
22.762434 41.936794 2.651377 0.657298
21.888636 39.936329 1.312900 0.623392
22.779770 41.976482 0.046597 0.568627
28.932499 56.062496 0.000027 0.541802
31.736984 62.483067 0.000021 0.550454
33.298939 66.058990 0.000017 0.522805
34.296112 68.341911 0.000013 0.516838
34.989193 69.928642 0.000011 0.514641
35.499821 71.097672 0.000009 0.570886
22.514084 42.062222 11.967174 0.721706
22.471491 41.966534 10.616695 0.749996
22.471491 41.966534 9.259310 0.746868
22.471485 41.966522 7.918003 0.747250
22.471485 41.966522 6.589658 0.773388
22.471487 41.966526 5.271279 0.747723
22.471487 41.966526 3.959962 0.757855
22.513979 42.061985 2.651145 0.718669
22.391939 41.787823 1.343946 0.626474
22.475920 41.976482 0.040574 0.550408
28.776695 56.131210 0.000027 0.537865
31.625933 62.532036 0.000021 0.540185
33.212811 66.096962 0.000016 0.532464
34.225903 68.372879 0.000013 0.563424
34.930038 69.954727 0.000011 0.513252
35.448818 71.120163 0.000009 0.549783
22.209005 42.062111 11.998518 0.707500
22.140951 41.912056 10.656687 0.678431
22.160213 41.954529 9.284515 0.752438
22.140944 41.912041 7.945470 0.678431
22.160213 41.954529 6.605593 0.748440
22.140945 41.912045 5.286462 0.678431
22.140945 41.912045 3.969059 0.678431
22.208956 42.062004 2.653190 0.732769
21.244907 39.936333 1.308616 0.634592
22.170172 41.976486 0.034418 0.556085
28.621372 56.201000 0.000027 0.545022
31.515226 62.581779 0.000021 0.546685
33.126953 66.135544 0.000016 0.533211
34.155907 68.404327 0.000013 0.519951
34.871071 69.981224 0.000011 0.553017
35.397972 71.143005 0.000009 0.536538
21.901945 42.061909 12.030576 0.734127
21.832712 41.912045 10.684399 0.678431
21.852346 41.954544 9.307829 0.750729
21.832708 41.912037 7.964502 0.678431
21.852343 41.954533 6.620335 0.739712
21.832706 41.912029 5.296983 0.678431
21.832705 41.912025 3.975362 0.678431
21.901999 42.062023 2.655280 0.731548
20.919994 39.936340 1.306403 0.616403
21.862482 41.976482 0.028126 0.558480
28.466537 56.271873 0.000027 0.545449
31.404867 62.632298 0.000021 0.539879
33.041367 66.174721 0.000016 0.536812
34.086132 68.436264 0.000013 0.496437
34.812290 70.008125 0.000011 0.574945
35.347286 71.166206 0.000009 0.516762
21.592842 42.061592 12.063366 0.684916
21.548098 41.966484 10.699715 0.803769
21.548098 41.966484 9.329252 0.776547
21.548101 41.966488 7.975020 0.804486
21.548101 41.966488 6.633877 0.776226
21.548115 41.966518 5.302794 0.775784
21.548117 41.966526 3.978842 0.776379
21.593056 42.062046 2.657415 0.693049
20.588224 39.926239 1.303960 0.757946
21.552811 41.976501 0.021698 0.592706
28.312204 56.343826 0.000028 0.532219
31.294867 62.683582 0.000022 0.537301
32.956055 66.214493 0.000016 0.552392
34.016586 68.468689 0.000013 0.538521
34.753696 70.035446 0.000011 0.551308
35.296768 71.189758 0.000010 0.554177
20.263811 39.936359 12.687044 0.648188
21.210217 41.912052 10.741631 0.678431
21.230558 41.954517 9.355999 0.750103
21.210218 41.912056 8.003809 0.678431
21.236298 41.966496 6.649260 0.785733
21.210211 41.912037 5.318712 0.678431
21.210211 41.912037 3.988379 0.678431
21.282072 42.062054 2.659597 0.717067
20.247253 39.901794 1.301205 0.131975
21.108133 41.698944 0.000012 0.542397
28.158379 56.416859 0.000028 0.544045
31.185225 62.735634 0.000022 0.536599
32.871021 66.254860 0.000016 0.549676
33.947266 68.501602 0.000013 0.516838
34.695297 70.063171 0.000011 0.524376
35.246410 71.213669 0.000009 0.540200
19.927509 39.926266 12.725978 0.763958
20.895849 41.912048 10.771178 0.678431
20.916555 41.954510 9.380861 0.735637
20.895849 41.912052 8.024104 0.678431
20.922401 41.966499 6.664973 0.802380
20.895836 41.912022 5.329930 0.678431
20.895840 41.912029 3.995100 0.678431
20.969004 42.062069 2.661826 0.715633
19.915571 39.901787 1.298843 0.137255
20.852247 41.822636 0.000012 0.541955
28.005062 56.490959 0.000028 0.541924
31.075949 62.788448 0.000022 0.535119
32.786274 66.295822 0.000016 0.529702
33.878174 68.534988 0.000013 0.529549
34.637089 70.091301 0.000011 0.543694
35.196224 71.237923 0.000010 0.518181
19.566729 39.871773 12.778118 0.678431
20.579330 41.912045 10.801357 0.678431
20.600410 41.954517 9.406256 0.743603
20.579329 41.912037 8.044830 0.678431
20.606361 41.966507 6.681022 0.807004
20.579325 41.912029 5.341387 0.678431
20.579323 41.912029 4.001965 0.678431
20.653797 42.062084 2.664104 0.711177
19.581617 39.901775 1.296430 0.137362
20.597221 41.948093 0.000012 0.538506
27.852270 56.566132 0.000028 0.550118
30.967043 62.842022 0.000021 0.539330
32.701813 66.337372 0.000016 0.533883
33.809322 68.568863 0.000013 0.542763
34.579082 70.119843 0.000011 0.543267
35.146210 71.262527 0.000009 0.514580
19.230202 39.871773 12.815857 0.678431
20.260614 41.912037 10.832177 0.678431
20.282070 41.954521 9.432188 0.740764
20.260616 41.912037 8.065996 0.678431
20.288126 41.966507 6.697412 0.726604
20.260607 41.912022 5.353087 0.678431
20.260607 41.912022 4.008975 0.678431
20.336407 42.062107 2.666428 0.698299
19.262800 39.936321 1.294600 0.634241
20.343092 42.075344 0.000013 0.537636
27.700008 56.642372 0.000028 0.541024
30.858521 62.896362 0.000022 0.542290
32.617649 66.379517 0.000016 0.528847
33.740707 68.603218 0.000013 0.555795
34.521275 70.148781 0.000011 0.576883
35.096367 71.287483 0.000009 0.578637
18.891289 39.871773 12.854393 0.678431
19.939638 41.912033 10.863647 0.678431
19.961473 41.954525 9.458666 0.762798
19.939636 41.912029 8.087608 0.678431
19.967085 41.965446 6.714285 0.754086
19.939632 41.912022 5.365033 0.678431
19.939632 41.912022 4.016133 0.678431
20.016760 42.062119 2.668802 0.696757
18.924454 39.936317 1.292087 0.637827
20.089846 42.204357 0.000013 0.544579
27.548279 56.719666 0.000029 0.527855
30.750372 62.951450 0.000022 0.535851
32.533775 66.422241 0.000017 0.525567
33.672333 68.638054 0.000014 0.553491
34.463673 70.178123 0.000011 0.561212
35.046696 71.312790 0.000009 0.497826
18.565626 39.901794 12.885251 0.843503
19.616350 41.912025 10.895775 0.678431
19.638563 41.954521 9.485701 0.753185
19.616348 41.912022 8.109676 0.678431
19.616350 41.912025 6.738308 0.678431
19.616341 41.912006 5.377232 0.678431
19.616344 41.912014 4.023441 0.678431
19.694815 42.062141 2.671227 0.699763
18.583672 39.936321 1.289521 0.603922
19.837509 42.335140 0.000013 0.539040
27.397097 56.798027 0.000029 0.529030
30.642614 63.007301 0.000022 0.544762
32.450203 66.465546 0.000016 0.534066
33.604202 68.673363 0.000013 0.519509
34.406273 70.207870 0.000011 0.535958
34.997208 71.338440 0.000010 0.558434
18.235052 39.926262 12.918444 0.741390
19.290701 41.912025 10.928574 0.678431
19.313293 41.954521 9.513300 0.741588
19.290697 41.912014 8.132203 0.678431
19.290701 41.912022 6.755778 0.678431
19.290691 41.912003 5.389684 0.678431
19.290691 41.912003 4.030902 0.678431
19.370501 42.062134 2.673701 0.727199
18.240398 39.936321 1.286902 0.630030
19.586092 42.467678 0.000014 0.542473
27.246460 56.877426 0.000029 0.528511
30.535250 63.063896 0.000021 0.541558
32.366936 66.509445 0.000016 0.554894
33.536320 68.709145 0.000013 0.541192
34.349087 70.238022 0.000011 0.537072
34.947895 71.364426 0.000009 0.534829
17.894573 39.936340 12.956515 0.635294
18.962637 41.912048 10.962048 0.678431
18.985609 41.954544 9.541468 0.746609
18.962633 41.912041 8.155192 0.678431
18.978859 41.942055 6.769682 0.797971
18.962635 41.912045 5.402390 0.678431
18.962633 41.912041 4.038515 0.678431
19.043783 42.062153 2.676227 0.703716
17.894567 39.936329 1.284228 0.626505
19.335606 42.601967 0.000014 0.542931
27.096382 56.957878 0.000029 0.534676
30.428280 63.121239 0.000022 0.533501
32.283978 66.553917 0.000016 0.544427
33.468689 68.745399 0.000013 0.533761
34.292107 70.268562 0.000011 0.529473
34.898769 71.390762 0.000009 0.547967
17.546118 39.936344 12.998287 0.636896
18.632065 41.912041 10.996222 0.678431
18.655432 41.954552 9.570223 0.761212
18.632059 41.912025 8.178663 0.678431
18.648552 41.942036 6.787872 0.881071
18.632057 41.912022 5.415364 0.678431
18.632061 41.912033 4.046288 0.678431
18.714584 42.062168 2.678805 0.693416
17.546104 39.936321 1.281499 0.647272
19.086061 42.738007 0.000014 0.538247
26.946869 57.039383 0.000029 0.542702
30.321712 63.179329 0.000021 0.523033
32.201332 66.598969 0.000017 0.553887
33.401314 68.782127 0.000013 0.533379
34.235348 70.299507 0.000011 0.513207
34.849827 71.417442 0.000009 0.559060
17.194992 39.936359 13.040919 0.644373
18.315729 41.942047 11.023670 0.837934
18.322718 41.954552 9.599567 0.744457
18.315729 41.942047 8.197515 0.837110
18.315727 41.942043 6.806431 0.808057
18.315716 41.942024 5.425788 0.821118
18.315722 41.942036 4.052532 0.843015
18.382862 42.062191 2.681437 0.692699
17.194969 39.936317 1.278713 0.648463
18.837482 42.875786 0.000015 0.542245
26.797932 57.121925 0.000029 0.543618
30.215557 63.238159 0.000021 0.537362
32.119003 66.644600 0.000017 0.547662
33.334198 68.819321 0.000013 0.571054
34.178802 70.330841 0.000011 0.536690
34.801071 71.444466 0.000009 0.557076
16.841097 39.936363 13.084432 0.656245
17.999863 41.976528 11.050667 0.620737
17.999861 41.976524 9.624920 0.631098
17.999859 41.976521 8.216057 0.645151
17.999861 41.976524 6.820813 0.637232
17.999866 41.976536 5.436033 0.662974
17.999865 41.976528 4.058672 0.631983
18.048529 42.062210 2.684121 0.721294
17.875406 41.757404 1.310142 0.687251
18.589857 43.015293 0.000015 0.536171
26.649574 57.205513 0.000029 0.537682
30.109814 63.297737 0.000021 0.544335
32.036995 66.690796 0.000017 0.548623
33.267342 68.856987 0.000013 0.570581
34.122478 70.362579 0.000011 0.571801
34.752506 71.471825 0.000009 0.575097
16.484394 39.936371 13.128828 0.636164
17.624828 41.912014 11.103008 0.678431
17.649393 41.954571 9.660074 0.807843
17.624826 41.912014 8.252007 0.678431
17.624826 41.912014 6.848691 0.678431
17.624823 41.912006 5.455906 0.678431
17.624823 41.912006 4.070579 0.678431
17.711531 42.062214 2.686861 0.704692
16.484365 39.936325 1.272970 0.633371
18.343222 43.156528 0.000015 0.537484
26.501804 57.290134 0.000030 0.540413
30.004486 63.358040 0.000021 0.521462
31.955311 66.737572 0.000016 0.555886
33.200748 68.895119 0.000013 0.525505
34.066380 70.394699 0.000011 0.519265
34.704136 71.499527 0.000009 0.539391
16.086908 39.871765 13.192892 0.678431
17.283710 41.912025 11.140060 0.678431
17.315678 41.966526 9.688734 0.731685
17.283710 41.912025 8.277453 0.678431
17.283709 41.912022 6.868428 0.678431
17.283705 41.912022 5.469973 0.678431
17.283705 41.912018 4.079007 0.678431
17.371817 42.062229 2.689658 0.690944
16.124771 39.936314 1.270010 0.636774
18.097578 43.299480 0.000015 0.541268
26.354628 57.375778 0.000030 0.546441
29.899590 63.419086 0.000021 0.535714
31.873955 66.784912 0.000016 0.556542
33.134426 68.933716 0.000013 0.553063
34.010502 70.427216 0.000011 0.545388
34.655956 71.527557 0.000009 0.537591
15.723740 39.871750 13.239196 0.678431
16.939781 41.912041 11.177868 0.678431
16.972250 41.966518 9.720543 0.776226
16.939777 41.912033 8.303417 0.678431
16.939774 41.912029 6.888564 0.678431
16.939772 41.912025 5.484327 0.678431
16.939772 41.912025 4.087607 0.678431
17.029303 42.062241 2.692510 0.690333
15.762220 39.936317 1.266991 0.628504
17.852936 43.444141 0.000016 0.542412
26.208052 57.462448 0.000030 0.555688
29.795115 63.480862 0.000021 0.554986
31.792933 66.832825 0.000016 0.554879
33.068375 68.972771 0.000013 0.533303
33.954857 70.460121 0.000011 0.553628
34.607975 71.555931 0.000009 0.523232
15.357538 39.871746 13.286433 0.678431
16.592947 41.912006 11.216451 0.678431
16.625959 41.966526 9.752989 0.728832
16.592943 41.912003 8.329917 0.678431
16.592951 41.912010 6.909113 0.678431
16.592949 41.912010 5.498972 0.678431
16.592947 41.912006 4.096381 0.678431
16.683926 42.062256 2.695420 0.717037
15.396641 39.936325 1.263911 0.626139
17.609306 43.590508 0.000016 0.537575
26.062080 57.550137 0.000030 0.546563
29.691074 63.543362 0.000021 0.533227
31.712244 66.881294 0.000016 0.547112
33.002594 69.012283 0.000013 0.530999
33.899437 70.493408 0.000011 0.524834
34.560192 71.584633 0.000009 0.526223
15.030005 39.939648 13.314657 0.770520
16.243198 41.912006 11.255802 0.678431
16.243193 41.911999 9.797739 0.678431
16.243198 41.912010 8.356945 0.678431
16.243204 41.912022 6.930073 0.678431
16.250021 41.923100 5.512845 0.112551
16.243200 41.912014 4.105332 0.678431
16.335625 42.062271 2.698389 0.691554
15.027958 39.936321 1.260767 0.648142
17.366720 43.738583 0.000018 0.541482
25.916733 57.638844 0.000030 0.534417
29.587477 63.606590 0.000021 0.531090
31.631901 66.930328 0.000016 0.541527
32.937096 69.052261 0.000013 0.548806
33.844257 70.527084 0.000011 0.535897
34.512611 71.613670 0.000009 0.588312
14.634514 39.901787 13.374916 0.843992
15.890421 41.912003 11.295947 0.678431
15.890419 41.911999 9.831560 0.678431
15.890430 41.912018 8.384514 0.678431
15.890436 41.912029 6.951456 0.678431
15.938213 41.988499 5.521757 0.803113
15.890436 41.912029 4.114462 0.678431
15.984306 42.062279 2.701418 0.700542
14.656092 39.936321 1.257561 0.632807
17.125160 43.888340 0.000018 0.539467
25.772003 57.728569 0.000029 0.535348
29.484320 63.670540 0.000021 0.539101
31.551897 66.979919 0.000016 0.530587
32.871872 69.092690 0.000013 0.545327
33.789310 70.561150 0.000011 0.537118
34.465237 71.643044 0.000009 0.542031
14.280956 39.936310 13.414782 0.627085
15.534554 41.911999 11.336898 0.678431
15.534557 41.912006 9.866059 0.678431
15.534573 41.912033 8.412638 0.678431
15.534575 41.912033 6.973268 0.678431
15.569149 41.966526 5.539405 0.759655
15.534575 41.912033 4.123777 0.678431
15.629908 42.062283 2.704507 0.687114
14.280964 39.936321 1.254290 0.625162
16.884651 44.039780 0.000018 0.542519
25.627903 57.819298 0.000030 0.549935
29.381611 63.735203 0.000021 0.548669
31.472242 67.030075 0.000016 0.547799
32.806934 69.133575 0.000013 0.571588
33.734604 70.595596 0.000011 0.565698
34.418064 71.672745 0.000009 0.521447
13.902514 39.936344 13.465842 0.663966
15.175524 41.912003 11.378673 0.678431
15.175524 41.912003 9.901253 0.678431
15.175552 41.912048 8.441324 0.678431
15.175552 41.912048 6.995516 0.678431
15.210655 41.966526 5.555242 0.735241
15.175550 41.912045 4.133279 0.678431
15.272369 42.062302 2.707660 0.704372
13.902493 39.936310 1.250953 0.630884
16.645206 44.192890 0.000018 0.541176
25.484440 57.911026 0.000030 0.543069
29.279358 63.800587 0.000021 0.536812
31.392939 67.080780 0.000016 0.535637
32.742287 69.174919 0.000013 0.538491
33.680138 70.630417 0.000011 0.576577
34.371101 71.702774 0.000009 0.546487
13.520638 39.936348 13.517933 0.652705
14.813253 41.912006 11.421281 0.678431
14.813251 41.912006 9.937150 0.678431
14.813282 41.912052 8.470589 0.678431
14.813286 41.912056 7.018209 0.678431
14.848911 41.966507 5.571394 0.753628
14.813284 41.912056 4.142971 0.678431
14.911585 42.062298 2.710875 0.699077
13.520628 39.936337 1.247551 0.643183
16.406839 44.347672 0.000019 0.542138
25.341623 58.003761 0.000030 0.548684
29.177565 63.866684 0.000021 0.540642
31.313992 67.132034 0.000016 0.535973
32.677929 69.216705 0.000013 0.549661
33.625916 70.665627 0.000011 0.505592
34.324352 71.733124 0.000009 0.574701
13.128609 39.926346 13.574074 0.734768
14.457418 41.926697 11.460935 0.706249
14.457411 41.926689 9.970557 0.719402
14.457418 41.926697 8.497831 0.723934
14.457417 41.926697 7.039339 0.720226
14.483862 41.966507 5.587871 0.777203
14.457411 41.926689 4.151993 0.699855
14.547518 42.062332 2.714153 0.700450
13.128609 39.926346 1.243883 0.722133
16.169558 44.504108 0.000019 0.539635
25.199459 58.097488 0.000030 0.532692
29.076235 63.933487 0.000021 0.535012
31.235409 67.183853 0.000016 0.529290
32.613865 69.258942 0.000013 0.566262
33.571945 70.701210 0.000011 0.528542
34.277813 71.763809 0.000009 0.546792
12.715673 39.890980 13.638970 0.678431
14.078682 41.912060 11.509059 0.678431
14.078686 41.912067 10.011101 0.678431
14.098894 41.942032 8.525522 0.839216
14.078684 41.912064 7.064973 0.678431
14.115402 41.966511 5.604675 0.763256
14.078676 41.912052 4.162939 0.678431
14.180017 42.062321 2.717499 0.686915
12.715673 39.890980 1.239644 0.678431
15.933365 44.662201 0.000019 0.546334
25.057945 58.192207 0.000030 0.547158
28.975372 64.000999 0.000021 0.542733
31.157185 67.236206 0.000016 0.536706
32.550095 69.301620 0.000013 0.534539
33.518219 70.737167 0.000011 0.536843
34.231491 71.794815 0.000009 0.543053
12.322557 39.890980 13.694314 0.678431
13.726685 41.942001 11.546438 0.838071
13.706181 41.912048 10.049194 0.678431
13.733395 41.951801 8.554794 0.839216
13.706175 41.912041 7.089058 0.678431
13.747932 41.973038 5.621167 0.774777
13.706171 41.912037 4.173225 0.678431
13.809076 42.062347 2.720910 0.720851
13.606779 41.766850 1.273230 0.683665
15.698299 44.821949 0.000020 0.535698
24.917099 58.287903 0.000030 0.538170
28.874985 64.069206 0.000021 0.550561
31.079330 67.289108 0.000016 0.543053
32.486626 69.344749 0.000013 0.538369
33.464745 70.773499 0.000010 0.553704
34.185387 71.826141 0.000009 0.549722
11.925657 39.890984 13.750762 0.678431
13.374905 41.976521 11.583442 0.656382
13.374895 41.976509 10.073767 0.669688
13.374887 41.976498 8.581974 0.665034
13.374889 41.976501 7.104594 0.647028
13.439241 42.069107 5.629054 0.699626
13.374880 41.976482 4.179860 0.615808
13.434526 42.062321 2.724391 0.697108
11.925655 39.890980 1.232341 0.678431
15.464333 44.983311 0.000020 0.545586
24.776928 58.384590 0.000030 0.538064
28.775076 64.138123 0.000021 0.535210
31.001844 67.342552 0.000016 0.537835
32.423454 69.388321 0.000013 0.542535
33.411530 70.810204 0.000011 0.521523
34.139500 71.857788 0.000009 0.504555
11.524885 39.890972 13.808339 0.678431
11.574919 39.961910 12.162846 0.901030
11.524885 39.890972 10.577693 0.678431
11.524925 39.891026 8.992775 0.729580
11.524891 39.890980 7.423195 0.678431
11.617266 40.021954 5.852242 0.705882
11.524887 39.890976 4.315914 0.678431
11.524891 39.890980 2.771419 0.678431
11.524891 39.890980 1.228580 0.678431
15.231510 45.146313 0.000020 0.540856
24.637432 58.482246 0.000030 0.534112
28.675650 64.207726 0.000021 0.558633
30.924736 67.396530 0.000016 0.553491
32.360596 69.432327 0.000013 0.538308
33.358570 70.847282 0.000011 0.548699
34.093838 71.889755 0.000009 0.540948
11.120155 39.890976 13.867059 0.678431
11.181763 39.977039 12.209368 0.906371
11.120150 39.890968 10.620348 0.678431
11.120190 39.891022 9.027550 0.753399
11.120157 39.890980 7.450165 0.678431
11.214264 40.022446 5.871348 0.720699
11.120155 39.890976 4.327431 0.678431
11.120157 39.890980 2.775256 0.678431
11.120157 39.890980 1.224744 0.678431
14.999836 45.310940 0.000020 0.542580
24.498623 58.580879 0.000030 0.546746
28.576712 64.278023 0.000021 0.539910
30.848007 67.451057 0.000016 0.544152
32.298042 69.476768 0.000013 0.548043
33.305874 70.884727 0.000011 0.530556
34.048397 71.922043 0.000009 0.538735
10.744303 39.936329 13.912909 0.655558
10.744299 39.936321 12.271764 0.632120
10.744295 39.936317 10.653657 0.631220
10.744303 39.936329 9.054710 0.654765
10.744301 39.936325 7.471223 0.630442
10.806740 40.022278 5.890904 0.728466
10.744307 39.936333 4.336423 0.621668
10.744295 39.936317 2.778253 0.648402
10.744291 39.936310 1.221748 0.637079
14.768534 45.476109 -0.000044 0.338552
24.360504 58.680473 0.000029 0.531838
28.478268 64.349014 0.000021 0.523247
30.771660 67.506111 0.000016 0.552300
32.235802 69.521652 0.000013 0.550912
33.253437 70.922539 0.000010 0.542550
34.003185 71.954643 0.000009 0.545571
10.324495 39.926388 13.977020 0.776471
10.140200 39.676376 12.394119 0.678431
10.339897 39.947281 10.695501 0.831800
10.287607 39.876347 9.101897 0.751690
10.140205 39.676384 7.536396 0.678431
10.394995 40.022030 5.910858 0.697230
10.324495 39.926388 4.348997 0.725277
10.320807 39.921383 2.782542 0.678431
10.140205 39.676384 1.212477 0.678431
14.539192 45.643993 -0.000043 0.338079
24.223083 58.781033 0.000030 0.539162
28.380322 64.420685 0.000021 0.533440
30.695698 67.561691 0.000016 0.552621
32.173874 69.566971 0.000013 0.504494
33.201267 70.960716 0.000011 0.517815
33.958202 71.987564 0.000009 0.556100
9.915075 39.936325 14.036160 0.678111
9.982847 40.026932 12.353594 0.672862
9.877691 39.886345 10.754541 0.678431
9.870213 39.876347 9.138809 0.754299
9.720625 39.676353 7.565175 0.678431
9.978909 40.021667 5.931222 0.698451
9.907652 39.926399 4.361205 0.779065
9.903894 39.921375 2.786610 0.678431
9.982906 40.027012 1.215550 0.666026
14.311010 45.813442 -0.000041 0.337743
24.086372 58.882545 0.000030 0.555352
28.282879 64.493042 0.000021 0.549645
30.620125 67.617813 0.000016 0.534401
32.112267 69.612717 0.000013 0.552926
33.149361 70.999252 0.000010 0.504692
33.913448 72.020798 0.000009 0.584649
9.493944 39.936325 14.099638 0.644465
9.531773 39.986172 12.419250 0.665873
9.456013 39.886341 10.800712 0.678431
9.448420 39.876339 9.176460 0.735332
9.311855 39.696392 7.591632 0.108293
9.558382 40.021233 5.951999 0.693416
9.486404 39.926392 4.373658 0.732540
9.482601 39.921383 2.790757 0.678431
9.531824 39.986237 1.210575 0.678431
14.084023 45.984501 -0.000040 0.338827
23.950371 58.985023 0.000030 0.532265
28.185940 64.566078 0.000021 0.546273
30.544949 67.674454 0.000016 0.563378
32.050976 69.658890 0.000013 0.530465
33.097729 71.038155 0.000011 0.558099
33.868927 72.054337 0.000009 0.551293
9.068354 39.936337 14.164376 0.638071
9.060741 39.926453 12.491282 0.759487
9.060743 39.926456 10.838593 0.743908
9.060743 39.926456 9.205480 0.732998
9.060743 39.926453 7.588150 0.732754
9.060783 39.926506 5.982949 0.743252
9.060757 39.926472 4.386355 0.728069
9.060751 39.926464 2.794884 0.747738
9.060749 39.926464 1.205117 0.730205
13.858246 46.157135 -0.000039 0.338201
23.815086 59.088432 0.000029 0.527901
28.089520 64.639786 0.000021 0.544045
30.470169 67.731621 0.000016 0.545892
31.990015 69.705490 0.000013 0.551095
33.046371 71.077423 0.000011 0.542016
33.824646 72.088188 0.000009 0.520790
8.638138 39.936333 14.230424 0.652491
8.599218 39.886513 12.559187 0.678431
8.599224 39.886517 10.895801 0.678431
8.591347 39.876434 9.254013 0.747021
8.599213 39.886501 7.624320 0.678431
8.612837 39.903942 6.006921 0.755474
8.599218 39.886509 4.401802 0.678431
8.599213 39.886501 2.800028 0.678431
8.599213 39.886501 1.199971 0.687739
13.633663 46.331337 -0.000037 0.338048
23.680529 59.192787 0.000029 0.540124
27.993610 64.714165 0.000021 0.540581
30.395788 67.789307 0.000016 0.550256
31.929379 69.752518 0.000013 0.515541
32.995285 71.117043 0.000011 0.532067
33.780598 72.122353 0.000009 0.548104
8.203203 39.936333 14.297789 0.657252
8.163715 39.886509 12.617351 0.678431
8.163729 39.886524 10.944797 0.678431
8.155733 39.876434 9.293971 0.749050
8.163719 39.886513 7.655299 0.678431
8.158014 39.879311 6.031568 0.743160
8.163715 39.886509 4.415032 0.678431
8.163721 39.886513 2.804436 0.678431
8.163721 39.886513 1.195565 0.689952
13.410311 46.507111 -0.000036 0.338643
23.546696 59.298080 0.000029 0.534981
27.898224 64.789215 0.000021 0.540841
30.321812 67.847511 0.000016 0.516579
31.869072 69.799973 0.000013 0.534936
32.944477 71.157013 0.000010 0.565332
33.736790 72.156822 0.000009 0.514977
7.763441 39.936340 14.366506 0.670192
7.723396 39.886524 12.676672 0.678431
7.723402 39.886532 10.994779 0.678431
7.716400 39.877823 9.334463 0.749401
7.723391 39.886513 7.686899 0.678431
7.715307 39.876461 6.054397 0.738155
7.723391 39.886513 4.428524 0.678431
7.723392 39.886517 2.808931 0.678431
7.723392 39.886517 1.191070 0.691905
13.188185 46.684429 -0.000036 0.338064
23.413610 59.404305 0.000029 0.534768
27.803368 64.864929 0.000021 0.521218
30.248243 67.906219 0.000016 0.544961
31.809097 69.847839 0.000013 0.554467
32.893951 71.197342 0.000011 0.547799
33.693222 72.191589 0.000009 0.502220
7.318708 39.936340 14.436603 0.618372
7.278093 39.886536 12.737189 0.678431
7.278095 39.886539 11.045762 0.678431
7.299435 39.912708 9.369362 0.739422
7.278082 39.886524 7.719135 0.678431
7.269882 39.876465 6.077379 0.731823
7.278080 39.886520 4.442290 0.678431
7.278084 39.886524 2.813516 0.678431
7.278084 39.886524 1.186485 0.703044
12.967300 46.863297 -0.000034 0.337804
23.281265 59.511459 0.000030 0.540108
27.709036 64.941299 0.000021 0.545022
30.175087 67.965454 0.000016 0.543221
31.749458 69.896126 0.000013 0.516136
32.843708 71.238022 0.000011 0.532708
33.649899 72.226669 0.000009 0.570474
6.868858 39.936306 14.508125 0.656641
6.868914 39.936375 12.784961 0.636225
6.868910 39.936367 11.086011 0.624033
6.868910 39.936367 9.407181 0.649897
6.868893 39.936348 7.744582 0.666697
6.868896 39.936352 6.094452 0.650690
6.868898 39.936352 4.453157 0.659373
6.868872 39.936321 2.817136 0.649882
6.868872 39.936321 1.182864 0.644282
12.747679 47.043697 -0.000033 0.338460
23.149677 59.619534 0.000029 0.536919
27.615244 65.018326 0.000021 0.526604
30.102348 68.025192 0.000016 0.545968
31.690157 69.944832 0.000013 0.554849
32.793747 71.279053 0.000011 0.531716
33.606823 72.262047 0.000009 0.546441
6.486137 40.022522 14.552895 0.689509
6.420609 39.944412 12.845599 0.115831
6.405460 39.926357 11.141383 0.776471
6.470070 40.003365 9.437412 0.647974
6.371944 39.886410 7.785587 0.678431
6.363525 39.876373 6.124753 0.765972
6.195732 39.676376 4.484137 0.678431
6.397072 39.916359 2.822329 0.834440
6.363514 39.876358 1.176817 0.731655
12.529324 47.225639 -0.000032 0.337819
23.018839 59.728523 0.000029 0.540825
27.521996 65.096016 0.000021 0.539467
30.030025 68.085442 0.000016 0.540230
31.631199 69.993942 0.000013 0.536126
32.744076 71.320427 0.000010 0.532586
33.563995 72.297722 0.000009 0.512016
6.187492 40.211407 14.565033 0.668544
5.910896 39.886356 12.926229 0.689921
5.934353 39.913921 11.198438 0.767605
6.016026 40.009903 9.480140 0.657420
5.910923 39.886391 7.819818 0.678431
5.902412 39.876385 6.149154 0.746471
5.732208 39.676365 4.498835 0.678431
5.936420 39.916351 2.827193 0.842344
5.902393 39.876362 1.171947 0.718364
12.312248 47.409096 -0.000030 0.338949
22.888775 59.838425 0.000030 0.532418
27.429283 65.174339 0.000020 0.535454
29.958130 68.146194 0.000016 0.541680
31.572586 70.043472 0.000013 0.510399
32.694695 71.362152 0.000010 0.511193
33.521416 72.333694 0.000009 0.517128
5.890182 40.402908 14.577072 0.657557
5.470310 39.916409 12.983222 0.831052
5.561062 40.021561 11.227762 0.696544
5.551765 40.010788 9.524854 0.656657
5.470264 39.916351 7.850188 0.836927
5.452847 39.896172 6.171907 0.713787
5.373749 39.804520 4.505514 0.737850
5.470268 39.916359 2.832158 0.835279
5.452755 39.896065 1.167404 0.747326
12.096443 47.594055 -0.000029 0.337026
22.759470 59.949226 0.000029 0.545663
27.337124 65.253319 0.000020 0.547539
29.886656 68.207443 0.000016 0.540566
31.514320 70.093399 0.000013 0.534096
32.645607 71.404221 0.000010 0.545373
33.479092 72.369972 0.000009 0.534936
5.593750 40.596462 14.589185 0.646113
4.972298 39.886467 13.058661 0.678431
5.090714 40.021755 11.283879 0.719875
4.972347 39.886520 9.595147 0.678431
4.972347 39.886520 7.890353 0.678431
4.963589 39.876518 6.199442 0.743053
4.972351 39.886524 4.515408 0.678431
4.972343 39.886520 2.837870 0.678431
4.972343 39.886520 1.162129 0.706859
11.881948 47.780529 -0.000027 0.338827
22.630947 60.060928 0.000029 0.547753
27.245522 65.332939 0.000021 0.536980
29.815613 68.269188 0.000016 0.520699
31.456400 70.143738 0.000013 0.544198
32.596813 71.446625 0.000010 0.545327
33.437019 72.406540 0.000009 0.560571
5.158611 40.634796 14.654059 0.669871
4.494320 39.886475 13.126925 0.678431
4.614868 40.022270 11.341063 0.709804
4.494366 39.886524 9.642033 0.678431
4.494366 39.886524 7.926714 0.678431
4.485470 39.876503 6.225367 0.738750
4.494358 39.886517 4.530936 0.678431
4.494362 39.886520 2.843043 0.678431
4.494358 39.886517 1.156957 0.725734
11.668758 47.968498 -0.000026 0.338460
22.503206 60.173531 0.000029 0.532357
27.154474 65.413193 0.000020 0.531075
29.744999 68.331429 0.000016 0.535561
31.398834 70.194481 0.000012 0.541131
32.548317 71.489372 0.000010 0.564523
33.395206 72.443398 0.000009 0.562921
4.051693 39.932358 14.970031 0.673930
4.010384 39.886475 13.196584 0.678431
4.132442 40.022053 11.399597 0.692973
4.010437 39.886536 9.689876 0.678431
4.010441 39.886536 7.963817 0.678431
4.001389 39.876480 6.251822 0.738293
4.010429 39.886524 4.546782 0.678431
4.010429 39.886524 2.848320 0.678431
4.010429 39.886520 1.151679 0.711772
11.456879 48.157932 -0.000024 0.337575
22.376259 60.287022 0.000029 0.544289
27.063988 65.494080 0.000020 0.539193
29.674828 68.394165 0.000016 0.544961
31.341629 70.245621 0.000013 0.557229
32.500122 71.532463 0.000010 0.580209
33.353649 72.480545 0.000009 0.568368
3.561073 39.931118 15.052804 0.661723
3.520325 39.886482 13.267674 0.678431
3.644722 40.022739 11.459109 0.698863
3.520367 39.886528 9.738702 0.678431
3.520374 39.886539 8.001684 0.678431
3.511177 39.876465 6.278820 0.732769
3.520363 39.886528 4.562953 0.678431
3.520370 39.886532 2.853707 0.678431
3.540653 39.908749 1.146785 0.114244
11.246334 48.348858 -0.000023 0.339055
22.250099 60.401390 0.000029 0.540337
26.974075 65.575607 0.000021 0.534844
29.605091 68.457390 0.000016 0.523629
31.284777 70.297165 0.000012 0.538537
32.452225 71.575882 0.000010 0.566308
33.312351 72.517990 0.000009 0.591989
3.064095 39.929806 15.137300 0.664286
nan nan nan 0.000000
nan nan nan 0.000000
nan nan nan 0.000000
nan nan nan 0.000000
nan nan nan 0.000000
nan nan nan 0.000000
nan nan nan 0.000000
-14.002777 21.496395 0.730681 0.461280
11.037125 48.541237 -0.000022 0.336828
22.124748 60.516640 0.000029 0.536522
26.884727 65.657753 0.000021 0.537865
29.535797 68.521088 0.000015 0.549310
31.228291 70.349098 0.000013 0.526497
32.404636 71.619637 0.000010 0.553338
33.271317 72.555710 0.000009 0.554070
2.537720 39.904118 15.231922 0.661768
nan nan nan 0.000000
-6.280163 30.512569 13.955831 0.652033
nan nan nan 0.000000
nan nan nan 0.000000
nan nan nan 0.000000
nan nan nan 0.000000
nan nan nan 0.000000
-13.913799 22.382313 0.742278 0.480018
10.829254 48.735073 -0.000021 0.339162
22.000200 60.632767 0.000029 0.548730
26.795952 65.740517 0.000020 0.533837
29.466951 68.585281 0.000015 0.535683
31.172163 70.401428 0.000012 0.508125
32.357353 71.663727 0.000011 0.559533
33.230545 72.593727 0.000008 0.515755
2.232494 40.118355 15.245458 0.668055
nan nan nan 0.000000
-6.673508 30.764687 13.971667 0.672541
nan nan nan 0.000000
nan nan nan 0.000000
nan nan nan 0.000000
nan nan nan 0.000000
-14.552647 22.489494 3.263629 0.486290
-13.475876 23.620392 0.761923 0.490211
10.622759 48.930367 -0.000019 0.337774
21.876461 60.749748 0.000028 0.548119
26.707760 65.823898 0.000020 0.544045
29.398556 68.649948 0.000015 0.519829
31.116405 70.454147 0.000012 0.538003
32.310375 71.708138 0.000010 0.538766
33.190044 72.632019 0.000008 0.512032
nan nan nan 0.000000
nan nan nan 0.000000
-6.790970 31.304306 13.915586 0.665919
-6.790985 31.304291 11.713939 0.660838
-6.791008 31.304268 9.533567 0.650416
-6.791031 31.304245 7.369554 0.650172
-6.790993 31.304283 5.217124 0.658839
-6.791019 31.304256 3.071609 0.633799
-6.790840 31.304443 0.928396 0.626215
10.417610 49.127071 -0.000019 0.337591
21.753553 60.867603 0.000028 0.532128
26.620155 65.907898 0.000020 0.532570
29.330614 68.715096 0.000015 0.562478
31.061016 70.507256 0.000013 0.559442
32.263714 71.752876 0.000010 0.488304
33.149807 72.670601 0.000009 0.544930
nan nan nan 0.000000
nan nan nan 0.000000
-6.789749 31.959034 13.830016 0.639521
-6.789730 31.959049 11.644171 0.625040
-6.789707 31.959080 9.479454 0.659251
-6.789692 31.959095 7.330979 0.643748
-6.789730 31.959057 5.194017 0.635477
-6.789726 31.959057 3.063911 0.640253
-6.789806 31.958977 0.936086 0.674907
10.213850 49.325222 -0.000017 0.338903
21.631464 60.986313 0.000028 0.534447
26.533134 65.992508 0.000020 0.531395
29.263126 68.780708 0.000015 0.550057
31.006001 70.560753 0.000012 0.533440
32.217361 71.797943 0.000010 0.542123
33.109844 72.709457 0.000008 0.480247
nan nan nan 0.000000
nan nan nan 0.000000
-6.800232 32.592670 13.749256 0.743481
-6.800240 32.592663 11.578340 0.807843
-6.800232 32.592674 9.428401 0.754055
-6.800243 32.592659 7.294595 0.746761
-6.800236 32.592670 5.172215 0.753933
-6.704433 32.689163 3.054425 0.710170
-6.800240 32.592663 0.943350 0.747906
10.011497 49.524803 -0.000016 0.336858
21.510210 61.105862 0.000028 0.541421
26.446712 66.077721 0.000020 0.527108
29.196102 68.846802 0.000015 0.538689
30.951357 70.614624 0.000012 0.519326
32.171329 71.843338 0.000010 0.541070
33.070152 72.748596 0.000009 0.557671
nan nan nan 0.000000
nan nan nan 0.000000
-6.854767 33.173859 13.681493 0.678431
-6.713120 33.314545 11.493481 0.687907
-6.854759 33.173862 9.385557 0.678431
-6.854759 33.173862 7.264055 0.678431
-6.854767 33.173859 5.153916 0.678431
-6.704556 33.323048 3.047091 0.691722
-6.854763 33.173862 0.949445 0.702174
9.810530 49.725773 -0.000015 0.339208
21.389795 61.226265 0.000029 0.540413
26.360888 66.163536 0.000020 0.533852
29.129536 68.913345 0.000015 0.535592
30.897093 70.668884 0.000012 0.544366
32.125614 71.889046 0.000010 0.527504
33.030735 72.788010 0.000009 0.561822
nan nan nan 0.000000
nan nan nan 0.000000
-6.854786 33.801193 13.601338 0.678431
-6.704052 33.948826 11.426452 0.729946
-6.854774 33.801201 9.334878 0.678431
-6.854786 33.801193 7.227936 0.678431
-6.854782 33.801197 5.132276 0.678431
-6.704609 33.948277 3.039906 0.726177
-6.854786 33.801193 0.956653 0.681376
9.610968 49.928146 -0.000013 0.338231
21.270220 61.347496 0.000028 0.543526
26.275661 66.249947 0.000020 0.529305
29.063440 68.980370 0.000015 0.552254
30.843208 70.723511 0.000012 0.575402
32.080215 71.935074 0.000010 0.552880
32.991592 72.827690 0.000008 0.553780
nan nan nan 0.000000
nan nan nan 0.000000
-6.800182 34.472771 13.509015 0.754406
-6.704548 34.565140 11.362764 0.724392
-6.800205 34.472752 9.276513 0.741176
-6.800209 34.472744 7.186337 0.755154
-6.800194 34.472763 5.107350 0.754406
-6.704590 34.565098 3.032868 0.722377
-6.800205 34.472748 0.964955 0.741176
9.412809 50.131897 -0.000013 0.337804
21.151489 61.469566 0.000028 0.535302
26.191034 66.336952 0.000020 0.545907
28.997814 69.047844 0.000015 0.546090
30.789707 70.778526 0.000012 0.569100
32.035145 71.981415 0.000010 0.534463
32.952728 72.867653 0.000009 0.576150
nan nan nan 0.000000
nan nan nan 0.000000
-7.080067 34.816006 13.502539 0.626123
-6.704765 35.173458 11.300326 0.691188
-6.715019 35.163692 9.214418 0.671153
-6.689491 35.188004 7.139188 0.661646
-7.080067 34.816006 5.105602 0.674754
-6.704594 35.173618 3.025976 0.688640
-6.715019 35.163692 0.973789 0.667185
9.216082 50.337025 -0.000012 0.338964
21.033625 61.592461 0.000028 0.542214
26.107023 66.424545 0.000020 0.524147
28.932659 69.115776 0.000015 0.541711
30.736589 70.833900 0.000012 0.546853
31.990395 72.028069 0.000010 0.578943
32.914143 72.907883 0.000008 0.499199
nan nan nan 0.000000
nan nan nan 0.000000
-7.728191 34.812740 13.588629 0.652033
-6.705582 35.773186 11.239285 0.724330
-6.734547 35.745983 9.170021 0.678065
-6.734531 35.745998 7.110432 0.431281
-7.728184 34.812748 5.128845 0.657786
-6.704575 35.774132 3.019225 0.722057
-6.734543 35.745987 0.980104 0.664744
9.020809 50.543541 -0.000011 0.336828
20.916613 61.716175 0.000028 0.538033
26.023623 66.512718 0.000020 0.532753
28.867981 69.184158 0.000015 0.552789
30.683861 70.889656 0.000012 0.531182
31.945972 72.075043 0.000010 0.552209
32.875839 72.948380 0.000008 0.499947
nan nan nan 0.000000
-5.697731 37.299290 15.068533 0.679637
-6.786457 36.290958 13.279860 0.636210
-6.786430 36.290981 11.195666 0.635218
-6.786572 36.290855 9.131643 0.640024
-6.786522 36.290905 7.083076 0.647761
-6.786472 36.290951 5.045482 0.647150
-6.704514 36.366852 3.012608 0.723156
-6.788479 36.289089 0.985519 0.667826
8.826963 50.751396 -0.000010 0.339330
20.800465 61.840698 0.000028 0.524437
25.940840 66.601471 0.000020 0.546197
28.803778 69.252998 0.000015 0.546365
30.631523 70.945770 0.000012 0.525078
31.901878 72.122314 0.000010 0.511193
32.837822 72.989143 0.000009 0.545113
nan nan nan 0.000000
-6.039909 37.558876 15.084974 0.665888
-6.854710 36.814739 13.224483 0.678431
-6.800266 36.864460 11.139594 0.746410
-6.800220 36.864502 9.088127 0.772793
-6.854713 36.814735 7.058114 0.678431
-6.854717 36.814735 5.030530 0.678431
-6.704357 36.952053 3.006122 0.700313
-6.854721 36.814732 0.990544 0.678431
8.634571 50.960594 -0.000010 0.338964
20.685200 61.966042 0.000028 0.528710
25.858685 66.690811 0.000020 0.538155
28.740061 69.322281 0.000015 0.549569
30.579578 71.002251 0.000012 0.537896
31.858118 72.169899 0.000010 0.567666
32.800087 73.030167 0.000008 0.537606
nan nan nan 0.000000
-6.380760 37.821091 15.101464 0.649454
-6.854729 37.394257 13.153652 0.678431
-6.856216 37.392921 11.093081 0.109468
-6.800205 37.443363 9.043391 0.787701
-6.854736 37.394253 7.026196 0.678431
-6.854744 37.394249 5.011405 0.678431
-6.704243 37.529781 2.999771 0.706615
-6.854744 37.394249 0.996915 0.678431
8.443668 51.171146 -0.000009 0.337560
20.570808 62.092171 0.000028 0.542702
25.777153 66.780716 0.000020 0.528466
28.676826 69.391998 0.000015 0.548882
30.528030 71.059090 0.000012 0.529381
31.814690 72.217789 0.000010 0.505226
32.762642 73.071457 0.000009 0.509865
nan nan nan 0.000000
-6.717903 38.088070 15.117305 0.660685
-6.854748 37.966553 13.084243 0.678431
-6.854759 37.966549 11.036199 0.678431
-6.800213 38.014984 8.999556 0.795499
-6.854755 37.966549 6.994917 0.678431
-6.854755 37.966549 4.992666 0.678431
-6.704124 38.100307 2.993547 0.729030
-6.854759 37.966545 1.003158 0.678431
8.254223 51.383018 -0.000008 0.338506
20.457300 62.219109 0.000028 0.549798
25.696247 66.871185 0.000020 0.526772
28.614086 69.462173 0.000015 0.542840
30.476879 71.116295 0.000012 0.513191
31.771595 72.265976 0.000010 0.537575
32.725487 73.113014 0.000008 0.502693
nan nan nan 0.000000
-6.790619 38.587955 15.057680 0.643030
-6.790047 38.588451 13.000571 0.626398
-6.790043 38.588459 10.967985 0.621027
-6.790047 38.588451 8.955048 0.629221
-6.790051 38.588455 6.957211 0.618799
-6.790047 38.588451 4.970073 0.632166
-6.790031 38.588470 2.989317 0.613581
-6.790112 38.588398 1.010681 0.646647
8.066261 51.596207 -0.000007 0.337377
20.344683 62.346832 0.000028 0.528161
25.615978 66.962219 0.000020 0.532692
28.551830 69.532768 0.000015 0.568078
30.426128 71.173851 0.000012 0.548409
31.728840 72.314468 0.000010 0.527932
32.688622 73.154823 0.000008 0.509239
nan nan nan 0.000000
-6.790497 39.145672 14.978625 0.645579
-6.790207 39.145924 12.934036 0.636667
-6.790203 39.145927 10.913746 0.641123
-6.790207 39.145924 8.912982 0.636332
-6.790207 39.145924 6.927229 0.629038
-6.790207 39.145924 4.952110 0.622705
-6.790211 39.145916 2.983335 0.625177
-6.790218 39.145912 1.016665 0.643351
7.879780 51.810696 -0.000007 0.337926
20.232946 62.475334 0.000028 0.545754
25.536343 67.053818 0.000020 0.549798
28.490068 69.603806 0.000015 0.568399
30.375780 71.231758 0.000012 0.539040
31.686422 72.363251 0.000010 0.531243
32.652046 73.196884 0.000008 0.557305
nan nan nan 0.000000
-6.089840 40.292992 14.702459 0.639765
-6.789341 39.697575 12.868588 0.647639
-6.789246 39.697659 10.860373 0.649180
-6.789234 39.697670 8.871587 0.647700
-6.789242 39.697655 6.897725 0.634546
-6.789238 39.697666 4.934434 0.634485
-6.789135 39.697746 2.977443 0.634104
-6.789444 39.697487 1.022550 0.640726
7.694813 52.026489 -0.000006 0.338750
20.122120 62.604614 0.000028 0.547890
25.457348 67.145958 0.000019 0.543877
28.428808 69.675270 0.000015 0.546166
30.325836 71.290016 0.000012 0.543954
31.644348 72.412338 0.000010 0.553719
32.615765 73.239204 0.000008 0.533730
nan nan nan 0.000000
-6.325279 40.631420 14.694112 0.649699
-7.157547 39.932957 12.892113 0.645167
-7.157547 39.932957 10.879567 0.628534
-7.157692 39.932835 8.886496 0.645426
-7.157730 39.932804 6.908357 0.631830
-7.157753 39.932785 4.940804 0.626352
-7.157749 39.932789 2.979569 0.632364
-7.157612 39.932899 1.020435 0.650874
7.511364 52.243568 -0.000005 0.337575
20.012201 62.734665 0.000027 0.549996
25.378998 67.238647 0.000019 0.554284
28.368046 69.747154 0.000015 0.549432
30.276302 71.348625 0.000012 0.549355
31.602615 72.461708 0.000010 0.511620
32.579784 73.281776 0.000008 0.526314
nan nan nan 0.000000
-7.819149 39.927956 15.039246 0.651804
-7.813416 39.932697 12.983822 0.631159
-7.813335 39.932766 10.954320 0.633570
-7.813232 39.932850 8.944431 0.635798
-7.813274 39.932816 6.949651 0.626154
-7.813293 39.932800 4.965546 0.631785
-7.813305 39.932789 2.987810 0.630243
-7.813339 39.932758 1.012191 0.637888
7.329437 52.461929 -0.000004 0.338781
19.903189 62.865482 0.000027 0.539971
25.301308 67.331894 0.000020 0.522515
28.307791 69.819466 0.000015 0.518196
30.227180 71.407578 0.000012 0.520409
31.561230 72.511368 0.000009 0.574731
32.544102 73.324600 0.000008 0.507240
nan nan nan 0.000000
-8.487503 39.926682 15.150957 0.655711
-8.480255 39.932590 13.077590 0.626474
-8.480145 39.932682 11.030755 0.636667
-8.479931 39.932858 9.003695 0.661189
-8.479980 39.932823 6.991889 0.627665
-8.479988 39.932812 4.990851 0.657176
-8.480003 39.932796 2.996238 0.637217
-8.480145 39.932682 1.003758 0.649683
7.149010 52.681526 -0.000005 0.337972
19.795097 62.997055 0.000027 0.534295
25.224264 67.425674 0.000020 0.535561
28.248037 69.892197 0.000014 0.523644
30.178467 71.466866 0.000012 0.522545
31.520191 72.561325 0.000010 0.565698
32.508717 73.367676 0.000008 0.546334
nan nan nan 0.000000
-9.067642 40.005657 15.237592 0.659586
-9.158478 39.932613 13.173488 0.665553
-9.158390 39.932678 11.108937 0.659785
-9.158157 39.932865 9.064325 0.651789
-9.158192 39.932838 7.035104 0.642420
-9.158218 39.932816 5.016743 0.645701
-9.158241 39.932804 3.004863 0.637018
-9.158447 39.932636 0.995132 0.639857
6.970766 52.902908 0.000035 0.537758
19.687923 63.129383 0.000028 0.547753
25.147873 67.519989 0.000019 0.534295
28.188793 69.965347 0.000014 0.548150
30.130173 71.526497 0.000012 0.549798
31.479504 72.611565 0.000010 0.537240
32.473633 73.410988 0.000008 0.531945
nan nan nan 0.000000
-9.400208 40.288040 15.255669 0.663340
-9.848461 39.932709 13.271587 0.626032
-9.848423 39.932735 11.188922 0.625177
-9.848240 39.932880 9.126365 0.639750
-9.848286 39.932846 7.079323 0.626703
-9.848301 39.932835 5.043237 0.621805
-9.848328 39.932812 3.013689 0.633844
-9.848534 39.932652 0.986308 0.635111
6.793444 53.125015 0.000036 0.538506
19.581676 63.262455 0.000028 0.543191
25.072144 67.614838 0.000019 0.543511
28.130066 70.038902 0.000015 0.516915
30.082294 71.586464 0.000012 0.530831
31.439167 72.662079 0.000010 0.517845
32.438854 73.454552 0.000008 0.579187
nan nan nan 0.000000
-9.731850 40.572674 15.273932 0.664302
-10.550686 39.932827 13.371979 0.622446
-10.550678 39.932835 11.270771 0.649256
-10.550602 39.932896 9.189856 0.654215
-10.550655 39.932854 7.124578 0.674479
-10.550682 39.932831 5.070352 0.652491
-10.550697 39.932819 3.022721 0.639323
-10.550835 39.932716 0.977277 0.626017
6.617668 53.348358 0.000036 0.539300
19.476358 63.396263 0.000027 0.551339
24.997080 67.710213 0.000019 0.533898
28.071846 70.112869 0.000014 0.534066
30.034836 71.646767 0.000012 0.557168
31.399183 72.712883 0.000010 0.528069
32.404381 73.498352 0.000008 0.522408
nan nan nan 0.000000
-10.062508 40.859570 15.292376 0.668132
-11.349529 39.868263 13.494028 0.678431
-11.265621 39.932896 11.354557 0.636500
-11.278713 39.922810 9.256751 0.774533
-11.349525 39.868267 7.179578 0.678431
-11.349529 39.868267 5.103303 0.678431
-11.265709 39.932831 3.031965 0.653468
-11.265762 39.932789 0.968034 0.638605
6.443470 53.572914 0.000037 0.549187
19.371983 63.530804 0.000027 0.540246
24.922688 67.806107 0.000019 0.548409
28.014153 70.187241 0.000014 0.536553
29.987797 71.707390 0.000012 0.515679
31.359558 72.763962 0.000010 0.518334
32.370213 73.542389 0.000008 0.577081
nan nan nan 0.000000
-10.555054 41.025093 15.355165 0.669108
-12.078896 39.868244 13.599456 0.678431
-11.993748 39.932888 11.440356 0.655802
-12.078899 39.868244 9.333690 0.678431
-12.078899 39.868244 7.227087 0.678431
-12.078907 39.868240 5.131769 0.678431
-11.993813 39.932835 3.041430 0.628260
-11.993809 39.932838 0.958571 0.640253
6.270847 53.798698 0.000038 0.538567
19.268543 63.666073 0.000027 0.540917
24.848961 67.902519 0.000019 0.543816
27.956978 70.262009 0.000015 0.548989
29.941185 71.768349 0.000012 0.534173
31.320290 72.815315 0.000010 0.534981
32.336353 73.586670 0.000008 0.469917
nan nan nan 0.000000
nan nan nan 0.000000
-12.821693 39.868305 13.707382 0.678431
-12.735382 39.932877 11.528212 0.623667
-12.821754 39.868256 9.401934 0.678431
-12.821690 39.868301 7.275725 0.678431
-12.821678 39.868309 5.160907 0.678431
-12.735432 39.932850 3.051121 0.641917
-12.735416 39.932858 0.948880 0.644434
6.099792 54.025665 0.000038 0.535439
19.166052 63.802055 0.000027 0.548943
24.775909 67.999443 0.000019 0.551568
27.900322 70.337181 0.000014 0.573724
29.894999 71.829628 0.000012 0.515679
31.281380 72.866943 0.000010 0.559701
32.302803 73.631187 0.000008 0.576547
nan nan nan 0.000000
nan nan nan 0.000000
-13.491028 39.932850 13.798147 0.654658
-13.491009 39.932865 11.618194 0.657267
-13.491020 39.932858 9.459311 0.633173
-13.491024 39.932854 7.316624 0.640635
-13.491024 39.932854 5.185414 0.669871
-13.491001 39.932873 3.061045 0.663828
-13.537849 39.898331 0.938002 0.177508
5.930317 54.253822 0.000038 0.539925
19.064516 63.938755 0.000027 0.534722
24.703541 68.096878 0.000019 0.552911
27.844196 70.412743 0.000015 0.528252
29.849239 71.891228 0.000011 0.564797
31.242828 72.918839 0.000009 0.555383
32.269566 73.675934 0.000008 0.563073
nan nan nan 0.000000
nan nan nan 0.000000
-14.261093 39.932827 13.911217 0.644129
-14.261105 39.932823 11.710373 0.655375
-14.261105 39.932823 9.530800 0.626978
-14.261116 39.932819 7.367579 0.626154
-14.261097 39.932831 5.215941 0.639002
-14.261093 39.932831 3.071215 0.641199
-14.272774 39.924343 0.928548 0.472969
5.762463 54.483166 0.000039 0.542641
18.963936 64.076164 0.000027 0.533089
24.631851 68.194809 0.000019 0.523049
27.788597 70.488693 0.000015 0.562875
29.803917 71.953148 0.000011 0.572656
31.204645 72.971001 0.000010 0.530098
32.236641 73.720917 0.000008 0.554528
nan nan nan 0.000000
nan nan nan 0.000000
-15.046131 39.932800 14.027066 0.674693
-15.046135 39.932800 11.804818 0.652125
-15.136223 39.868290 9.616791 0.678431
-15.136234 39.868282 7.428871 0.678431
-15.136230 39.868282 5.252665 0.678431
-15.046112 39.932812 3.081634 0.632197
-15.046047 39.932861 0.918368 0.636057
5.596195 54.713669 0.000039 0.542733
18.864317 64.214264 0.000027 0.565576
24.560848 68.293243 0.000019 0.534661
