# This PCD file was generated using the MATLABÂ® pcwrite function
# from Computer Vision ToolboxÂ®.
# .PCD v.7 - Point Cloud Data file format
VERSION .7
FIELDS x y z intensity
SIZE 4 4 4 4
TYPE F F F F
COUNT 1 1 1 1
WIDTH 1292
HEIGHT 1
VIEWPOINT 0 0 0 1 0 0 0
POINTS 1292
DATA ascii
-79.107147 122.953712 1.511775 0.370153
-79.107147 122.953712 0.534277 0.348394
-73.663826 122.911964 -0.000031 0.524819
-66.657394 122.858223 -0.000026 0.534661
-62.755203 122.828300 -0.000023 0.518593
-60.263783 122.809189 0.000017 0.531594
-58.532337 122.795914 0.000017 0.527611
-57.256683 122.786125 0.000017 0.568765
-79.326027 123.165230 9.528814 0.422492
-79.361237 123.165741 8.499233 0.169543
-79.326035 123.165230 7.469005 0.446113
-79.361237 123.165749 6.463715 0.168658
-79.326035 123.165230 5.457747 0.426413
-79.326035 123.165230 4.464511 0.408164
-79.361237 123.165749 3.478321 0.171466
-79.325912 123.165230 2.491843 0.422004
-79.325912 123.165230 1.508156 0.417258
-79.325912 123.165230 0.523414 0.396506
-73.661926 123.082237 -0.000031 0.543740
-66.656036 122.979591 -0.000026 0.541558
-62.754150 122.922424 -0.000022 0.551614
-60.262924 122.885918 0.000017 0.556344
-58.531616 122.860558 0.000017 0.555398
-57.256065 122.841866 0.000017 0.562051
-79.548073 123.379913 9.585401 0.397665
-79.665802 123.382462 8.565851 0.678431
-79.548073 123.379913 7.510108 0.404196
-79.548073 123.379913 6.492002 0.396857
-79.548080 123.379913 5.483735 0.405371
-79.548080 123.379913 4.483033 0.419608
-79.665802 123.382462 3.493474 0.678431
-79.547943 123.379913 2.495540 0.421820
-79.547943 123.379913 1.504460 0.374960
-79.547951 123.379913 0.512317 0.401175
-73.658836 123.252502 -0.000031 0.544915
-66.653839 123.100945 -0.000026 0.529839
-62.752441 123.016533 -0.000023 0.525628
-60.261536 122.962646 0.000017 0.549569
-58.530441 122.925194 0.000017 0.531594
-57.255054 122.897598 0.000017 0.538674
-79.773499 123.597862 9.643220 0.396033
-79.892097 123.601257 8.615899 0.678431
-79.773499 123.597862 7.552110 0.427207
-79.773499 123.597862 6.526242 0.391211
-79.773499 123.597862 5.510290 0.371313
-79.773499 123.597862 4.501960 0.399344
-79.892105 123.601257 3.504858 0.678431
-79.773369 123.597862 2.499318 0.398260
-79.773369 123.597862 1.500683 0.412482
-79.773369 123.597862 0.500977 0.392630
-73.654564 123.422737 -0.000031 0.542992
-66.650795 123.222275 -0.000026 0.533288
-62.750084 123.110634 -0.000023 0.566888
-60.259605 123.039352 0.000017 0.538949
-58.528820 122.989815 0.000017 0.541680
-57.253654 122.953323 0.000017 0.523690
-80.002388 123.819176 9.702305 0.442542
-80.043159 123.820625 8.650028 0.227481
-80.002396 123.819176 7.595030 0.412619
-80.002396 123.819176 6.561233 0.417700
-80.002396 123.819176 5.537425 0.413626
-80.002396 123.819176 4.521301 0.422736
-80.043152 123.820625 3.512621 0.229587
-80.002251 123.819168 2.503177 0.415839
-80.002251 123.819168 1.496823 0.411872
-80.002258 123.819168 0.489389 0.395331
-73.649094 123.592934 -0.000031 0.555596
-66.646904 123.343590 -0.000026 0.541131
-62.747059 123.204712 -0.000023 0.544305
-60.257145 123.116051 0.000016 0.575662
-58.526745 123.054428 0.000017 0.501595
-57.251862 123.009033 0.000017 0.547356
-80.234863 124.043945 9.762693 0.427710
-80.355255 124.049072 8.719313 0.678431
-80.234879 124.043938 7.638898 0.437186
-80.234871 124.043938 6.596994 0.397848
-80.234871 124.043938 5.565160 0.393286
-80.234871 124.043938 4.541069 0.396078
-80.355263 124.049072 3.528380 0.678431
-80.234718 124.043938 2.507122 0.417868
-80.234718 124.043938 1.492878 0.429526
-80.234718 124.043938 0.477546 0.421027
-73.642448 123.763092 -0.000031 0.533715
-66.642159 123.464867 -0.000026 0.531914
-62.743382 123.298775 -0.000023 0.562478
-60.254143 123.192726 0.000017 0.560479
-58.524220 123.119026 0.000017 0.555093
-57.249687 123.064735 0.000017 0.488930
-80.471031 124.272270 9.824421 0.420523
-80.592339 124.278290 8.772744 0.678431
-80.471024 124.272270 7.683735 0.398840
-80.471031 124.272270 6.633547 0.382528
-80.471031 124.272270 5.593509 0.404761
-80.471031 124.272270 4.561275 0.403662
-80.592346 124.278290 3.540534 0.678431
-80.470871 124.272263 2.511154 0.417685
-80.470871 124.272263 1.488846 0.431373
-80.470871 124.272263 0.465440 0.404440
-73.634605 123.933197 -0.000031 0.533257
-66.636566 123.586113 -0.000026 0.544091
-62.739048 123.392799 -0.000023 0.518914
-60.250614 123.269379 0.000016 0.556710
-58.521240 123.183609 0.000017 0.550652
-57.247120 123.120415 0.000017 0.489982
-80.710991 124.504272 9.887525 0.395041
-80.759491 124.507019 8.811415 0.223651
-80.710983 124.504280 7.729574 0.410681
-80.710991 124.504280 6.670917 0.396429
-80.710991 124.504280 5.622492 0.403891
-80.710991 124.504272 4.581931 0.430747
-80.759491 124.507019 3.549330 0.225544
-80.710823 124.504265 2.515277 0.412985
-80.710823 124.504265 1.484723 0.365255
-80.710831 124.504265 0.453064 0.431373
-73.625572 124.103249 -0.000031 0.548394
-66.630135 123.707314 -0.000026 0.533593
-62.734062 123.486801 -0.000023 0.511849
-60.246754 123.346024 -0.000021 0.539300
-58.517815 123.248161 0.000016 0.526101
-57.244164 123.176079 0.000017 0.541344
-80.954857 124.740067 9.952045 0.402701
-81.078049 124.747902 8.883213 0.678431
-80.954865 124.740067 7.776443 0.373251
-80.954865 124.740067 6.709126 0.378805
-80.954872 124.740067 5.652124 0.406470
-80.954865 124.740067 4.603051 0.396353
-81.078049 124.747902 3.565661 0.678431
-80.954674 124.740051 2.519491 0.423255
-80.954674 124.740051 1.480508 0.381720
-80.954681 124.740051 0.440411 0.394141
-73.615364 124.273232 -0.000031 0.539315
-66.622856 123.828468 -0.000027 0.511604
-62.728416 123.580757 -0.000023 0.522667
-60.242149 123.422623 -0.000021 0.554009
-58.513935 123.312698 0.000017 0.495918
-57.240822 123.231720 0.000016 0.532357
-81.202774 124.979752 10.018024 0.413336
-81.270172 124.984512 8.928038 0.465904
-81.202766 124.979752 7.824370 0.406348
-81.202766 124.979752 6.748197 0.399481
-81.202774 124.979752 5.682425 0.379660
-81.202774 124.979752 4.624649 0.411612
-81.326920 124.988518 3.578652 0.678431
-81.202576 124.979736 2.523801 0.423102
-81.202576 124.979736 1.476198 0.410254
-81.202576 124.979736 0.427471 0.400412
-73.603966 124.443138 -0.000032 0.545007
-66.614731 123.949570 -0.000027 0.558434
-62.722107 123.674675 -0.000023 0.528435
-60.237011 123.499184 -0.000021 0.561822
-58.509605 123.377197 0.000016 0.539620
-57.237087 123.287338 0.000017 0.513375
-81.454842 125.223465 10.085505 0.407843
-81.454842 125.223465 8.971628 0.407843
-81.454834 125.223465 7.873389 0.430823
-81.454849 125.223465 6.788159 0.416281
-81.454842 125.223465 5.713417 0.405158
-81.454842 125.223465 4.646739 0.435828
-81.487946 125.226036 3.587404 0.209155
-81.454636 125.223450 2.528209 0.408469
-81.454636 125.223450 1.471790 0.439765
-81.454636 125.223450 0.414237 0.426734
-73.591377 124.612961 -0.000032 0.550500
-66.605759 124.070610 -0.000026 0.571633
-62.715149 123.768547 -0.000023 0.539284
-60.231339 123.575714 -0.000021 0.500130
-58.504829 123.441666 0.000016 0.562615
-57.232967 123.342926 0.000016 0.552987
-81.711197 125.471321 10.154531 0.399664
-81.711197 125.471321 9.031143 0.467185
-81.711197 125.471321 7.923530 0.394736
-81.711197 125.471321 6.829034 0.412558
-81.837326 125.482002 5.759679 0.678431
-81.711197 125.471321 4.669333 0.398764
-81.837326 125.482002 3.605529 0.678431
-81.710983 125.471306 2.532719 0.444663
-81.710983 125.471306 1.467281 0.404517
-81.710976 125.471306 0.400700 0.433814
-73.577606 124.782692 -0.000032 0.522011
-66.595940 124.191582 -0.000026 0.546777
-62.707539 123.862373 -0.000023 0.562997
-60.225132 123.652199 -0.000022 0.549950
-58.499599 123.506104 0.000016 0.509010
-57.228458 123.398483 0.000016 0.550057
-81.971985 125.723465 10.225150 0.371527
-81.971985 125.723465 9.092035 0.346777
-81.971985 125.723465 7.974830 0.352300
-81.971985 125.723465 6.870854 0.342901
-82.099129 125.735123 5.792240 0.678431
-81.971985 125.723465 4.692451 0.363165
-82.099129 125.735123 3.619433 0.678431
-81.971756 125.723442 2.537333 0.334005
-81.971756 125.723442 1.462668 0.316747
-81.971756 125.723442 0.386850 0.340551
-73.562645 124.952316 -0.000032 0.525246
-66.585281 124.312485 -0.000027 0.545388
-62.699272 123.956139 -0.000024 0.554086
-60.218391 123.728638 -0.000022 0.538308
-58.493923 123.570503 0.000016 0.567926
-57.223564 123.454010 0.000016 0.581247
-82.237343 125.980019 10.297411 0.389059
-82.237335 125.980019 9.154341 0.399390
-82.237343 125.980019 8.027321 0.361715
-82.237335 125.980019 6.913648 0.407416
-82.275940 125.983833 5.815200 0.288441
-82.237343 125.980019 4.716105 0.414984
-82.275940 125.983833 3.629238 0.289006
-82.237106 125.979996 2.542053 0.430396
-82.237106 125.979996 1.457947 0.403967
-82.237106 125.979996 0.372679 0.402411
-73.546509 125.121841 -0.000032 0.535195
-66.573776 124.433311 -0.000027 0.540902
-62.690346 124.049843 -0.000023 0.530358
-60.211117 123.805031 -0.000021 0.519524
-58.487793 123.634857 0.000016 0.558297
-57.218281 123.509499 0.000016 0.574807
-82.507408 126.241142 10.371364 0.357122
-82.507401 126.241142 9.218105 0.368139
-82.507416 126.241142 8.081040 0.403754
-82.507401 126.241142 6.957442 0.438834
-82.636642 126.254814 5.859653 0.678431
-82.507416 126.241142 4.740314 0.428534
-82.636627 126.254814 3.648221 0.678431
-82.507172 126.241112 2.546884 0.433143
-82.507172 126.241112 1.453116 0.409964
-82.507172 126.241112 0.358175 0.435737
-73.529175 125.291245 -0.000032 0.546075
-66.561424 124.554054 -0.000026 0.569421
-62.680771 124.143478 -0.000024 0.535103
-60.203312 123.881363 -0.000022 0.553918
-58.481216 123.699173 0.000016 0.513878
-57.212608 123.564949 0.000016 0.531655
-82.782349 126.506966 10.447064 0.408148
-82.782349 126.506966 9.283375 0.429328
-82.782349 126.506973 8.136029 0.402640
-82.782349 126.506973 7.002270 0.401144
-82.912651 126.521675 5.894554 0.678431
-82.782364 126.506973 4.765092 0.421118
-82.912651 126.521675 3.663125 0.678431
-82.782097 126.506943 2.551829 0.429496
-82.782097 126.506943 1.448171 0.408743
-82.782104 126.506943 0.343329 0.431098
-73.510674 125.460526 -0.000032 0.553414
-66.548233 124.674706 -0.000027 0.527276
-62.670544 124.237053 -0.000024 0.531197
-60.194973 123.957649 -0.000022 0.556252
-58.474190 123.763435 0.000016 0.552117
-57.206551 123.620361 0.000016 0.539788
-83.062332 126.777664 10.524564 0.383566
-83.062325 126.777664 9.350199 0.362066
-83.193726 126.793419 8.216404 0.678431
-83.062332 126.777664 7.048166 0.430152
-83.193710 126.793419 5.930285 0.678431
-83.062332 126.777664 4.790462 0.389502
-83.193710 126.793419 3.678384 0.678431
-83.062065 126.777634 2.556891 0.383642
-83.062057 126.777626 1.443108 0.345571
-83.062065 126.777634 0.328129 0.371374
-73.490990 125.629669 -0.000033 0.551308
-66.534203 124.795265 -0.000027 0.546380
-62.659657 124.330551 -0.000024 0.532082
-60.186100 124.033875 -0.000022 0.556725
-58.466717 123.827644 0.000016 0.556390
-57.200108 123.675728 0.000016 0.542107
-83.479996 127.070213 10.637377 0.678431
-83.347504 127.053383 9.418626 0.432990
-83.480003 127.070213 8.274276 0.678431
-83.347504 127.053383 7.095161 0.407385
-83.480003 127.070213 5.966875 0.678431
-83.347511 127.053383 4.816440 0.440894
-83.480003 127.070213 3.694009 0.678431
-83.347229 127.053345 2.562077 0.417960
-83.347229 127.053345 1.437924 0.404654
-83.347229 127.053345 0.312566 0.411093
-73.470108 125.798676 -0.000032 0.534936
-66.519325 124.915726 -0.000027 0.553399
-62.648117 124.423973 -0.000023 0.548501
-60.176697 124.110031 -0.000022 0.525628
-58.458797 123.891808 0.000016 0.529320
-57.193275 123.731049 0.000016 0.492439
-83.678299 127.339699 10.695371 0.286564
-83.638054 127.334297 9.488705 0.368917
-83.678299 127.339699 8.316402 0.288441
-83.638046 127.334297 7.143292 0.373877
-83.678299 127.339699 5.993509 0.292180
-83.638062 127.334305 4.843046 0.434699
-83.678299 127.339699 3.705383 0.293797
-83.637756 127.334259 2.567386 0.417578
-83.637756 127.334259 1.432615 0.399588
-83.637756 127.334259 0.296626 0.401999
-73.448067 125.967529 -0.000032 0.544121
-66.503616 125.036079 -0.000027 0.547509
-62.635933 124.517311 -0.000024 0.567773
-60.166756 124.186119 -0.000022 0.546090
-58.450424 123.955910 0.000016 0.515541
-57.186058 123.786324 0.000016 0.524056
-84.068924 127.639626 10.802552 0.678431
-83.934158 127.620590 9.560496 0.395087
-84.068939 127.639626 8.394260 0.678431
-83.934158 127.620590 7.192599 0.405661
-84.068932 127.639626 6.042733 0.678431
-83.934174 127.620590 4.870300 0.409888
-84.068939 127.639626 3.726404 0.678431
-83.933846 127.620544 2.572824 0.378500
-83.933846 127.620544 1.427175 0.399451
-83.933853 127.620544 0.280297 0.413825
-73.424843 126.136223 -0.000032 0.553674
-66.487061 125.156311 -0.000027 0.529229
-62.623093 124.610558 -0.000024 0.546258
-60.156292 124.262138 -0.000022 0.524178
-58.441608 124.019951 0.000016 0.536782
-57.178459 123.841545 0.000015 0.485344
-84.367401 127.931931 10.887037 0.223697
-84.236023 127.912437 9.634053 0.415183
-84.367416 127.931931 8.455632 0.223438
-84.236023 127.912437 7.243117 0.418509
-84.367416 127.931931 6.081537 0.222797
-84.236023 127.912437 4.898225 0.410849
-84.367416 127.931931 3.742974 0.223438
-84.235703 127.912392 2.578398 0.397208
-84.235703 127.912392 1.421602 0.402350
-84.235695 127.912392 0.263568 0.419745
-73.400444 126.304756 -0.000033 0.532036
-66.469666 125.276436 -0.000027 0.525429
-62.609604 124.703720 -0.000024 0.518868
-60.145294 124.338089 -0.000022 0.561837
-58.432343 124.083939 0.000015 0.559533
-57.170471 123.896713 0.000015 0.530983
-115.737976 133.061127 18.848839 0.366690
-115.737976 133.061127 16.527706 0.410300
-115.737991 133.061127 14.239161 0.369665
-115.737991 133.061127 11.977724 0.403815
-115.737991 133.061127 9.738142 0.396597
-115.737976 133.061127 7.515362 0.414801
-115.737991 133.061127 5.304485 0.367010
-115.737976 133.061127 3.100708 0.350637
-115.737976 133.061127 0.899292 0.396353
-89.500473 128.980850 -0.000026 0.541344
-73.374863 126.473114 -0.000032 0.539498
-66.451431 125.396431 -0.000027 0.518334
-62.595467 124.796776 -0.000024 0.536904
-60.133766 124.413948 -0.000022 0.529320
-58.422630 124.147850 0.000015 0.567422
-57.162094 123.951820 0.000016 0.511772
-116.329590 133.633133 19.017706 0.372107
-116.329590 133.633118 16.673306 0.413245
-116.329605 133.633133 14.361829 0.412146
-116.329620 133.633133 12.077726 0.395712
-116.329620 133.633133 9.815697 0.405921
-116.329605 133.633118 7.570638 0.439811
-116.329620 133.633133 5.337605 0.388800
-116.329605 133.633133 3.111740 0.370977
-116.329605 133.633133 0.888260 0.372580
-89.455811 129.261536 -0.000026 0.536294
-73.348099 126.641281 -0.000033 0.535607
-66.432358 125.516296 -0.000027 0.559136
-62.580677 124.889740 -0.000024 0.528145
-60.121712 124.489738 -0.000022 0.522789
-58.412476 124.211693 0.000015 0.597528
-57.153339 124.006866 0.000015 0.582086
-116.933228 134.216736 19.190834 0.399542
-116.933228 134.216736 16.822588 0.409216
-116.933212 134.216736 14.487590 0.382086
-116.933228 134.216736 12.180250 0.403159
-116.933228 134.216736 9.895208 0.439231
-116.933228 134.216736 7.627309 0.427649
-116.933228 134.216736 5.371558 0.390936
-116.933228 134.216736 3.123050 0.398703
-116.933228 134.216736 0.876950 0.400671
-89.409210 129.541916 -0.000026 0.546197
-73.320183 126.809273 -0.000033 0.544076
-66.412460 125.636024 -0.000027 0.538552
-62.565239 124.982590 -0.000024 0.542306
-60.109123 124.565437 -0.000021 0.537133
-58.401878 124.275467 0.000015 0.515923
-57.144199 124.061852 0.000015 0.488975
-117.549286 134.812378 19.368378 0.394491
-117.549286 134.812378 16.975666 0.397848
-117.549286 134.812378 14.616559 0.399466
-117.549301 134.812378 12.285389 0.404593
-117.549301 134.812378 9.976748 0.407111
-117.549286 134.812378 7.685427 0.441062
-117.549286 134.812378 5.406379 0.384817
-117.549286 134.812378 3.134648 0.403708
-117.549286 134.812378 0.865351 0.440635
-89.360626 129.821945 -0.000026 0.538857
-73.291084 126.977051 -0.000033 0.532097
-66.391716 125.755615 -0.000027 0.542321
-62.549156 125.075340 -0.000024 0.525643
-60.096016 124.641045 -0.000022 0.577600
-58.390827 124.339165 0.000015 0.538705
-57.134674 124.116776 0.000015 0.518776
-118.178238 135.420471 19.550488 0.365438
-118.178238 135.420471 17.132696 0.362066
-118.178238 135.420471 14.748848 0.366140
-118.178238 135.420471 12.393234 0.378668
-118.178253 135.420471 10.060386 0.366445
-118.178238 135.420471 7.745042 0.364157
-118.178253 135.420471 5.442097 0.384649
-118.178238 135.420471 3.146546 0.404288
-118.178238 135.420471 0.853454 0.402426
-89.310104 130.101639 -0.000026 0.541711
-73.260811 127.144630 -0.000033 0.526635
-66.370140 125.875053 -0.000027 0.544839
-62.532421 125.167969 -0.000024 0.505806
-60.082371 124.716560 -0.000021 0.546410
-58.379337 124.402779 0.000015 0.539818
-57.124763 124.171631 0.000015 0.541863
nan nan nan 0.000000
nan nan nan 0.000000
nan nan nan 0.000000
nan nan nan 0.000000
nan nan nan 0.000000
nan nan nan 0.000000
nan nan nan 0.000000
nan nan nan 0.000000
-141.904160 140.461395 0.456647 0.695613
-89.257645 130.380981 -0.000026 0.535027
-73.229362 127.311989 -0.000032 0.533608
-66.347733 125.994339 -0.000027 0.518990
-62.515038 125.260475 -0.000023 0.517983
-60.068207 124.791977 -0.000022 0.549981
-58.367401 124.466316 0.000015 0.514672
-57.114471 124.226410 0.000015 0.577554
nan nan nan 0.000000
nan nan nan 0.000000
nan nan nan 0.000000
nan nan nan 0.000000
nan nan nan 0.000000
nan nan nan 0.000000
nan nan nan 0.000000
nan nan nan 0.000000
-141.510239 141.054413 0.461116 0.694408
-89.203217 130.659943 -0.000026 0.543908
-73.196762 127.479126 -0.000032 0.546746
-66.324493 126.113464 -0.000027 0.531838
-62.497017 125.352867 -0.000024 0.539147
-60.053509 124.867294 -0.000022 0.518471
-58.355022 124.529770 0.000015 0.550072
-57.103798 124.281120 0.000015 0.556466
nan nan nan 0.000000
nan nan nan 0.000000
nan nan nan 0.000000
nan nan nan 0.000000
nan nan nan 0.000000
nan nan nan 0.000000
nan nan nan 0.000000
nan nan nan 0.000000
-141.139130 141.648285 0.465140 0.693401
-89.146851 130.938507 -0.000027 0.535973
-73.162994 127.646034 -0.000033 0.542214
-66.300415 126.232430 -0.000027 0.532937
-62.478352 125.445129 -0.000024 0.547097
-60.038292 124.942505 -0.000021 0.528572
-58.342205 124.593132 0.000014 0.521935
-57.092747 124.335762 0.000014 0.487190
nan nan nan 0.000000
nan nan nan 0.000000
nan nan nan 0.000000
nan nan nan 0.000000
nan nan nan 0.000000
nan nan nan 0.000000
nan nan nan 0.000000
nan nan nan 0.000000
-140.751434 142.235123 0.469381 0.693660
-89.088531 131.216675 -0.000027 0.539162
-73.128052 127.812698 -0.000033 0.535210
-66.275520 126.351219 -0.000027 0.560128
-62.459038 125.537254 -0.000023 0.549615
-60.022545 125.017609 -0.000021 0.534813
-58.328941 124.656403 0.000015 0.568643
-57.081310 124.390312 0.000014 0.566674
nan nan nan 0.000000
nan nan nan 0.000000
nan nan nan 0.000000
nan nan nan 0.000000
nan nan nan 0.000000
nan nan nan 0.000000
nan nan nan 0.000000
nan nan nan 0.000000
-140.360123 142.817505 0.473617 0.697414
-89.028290 131.494446 -0.000027 0.532647
-73.091949 127.979111 -0.000033 0.539635
-66.249786 126.469833 -0.000027 0.556710
-62.439079 125.629242 -0.000024 0.536004
-60.006275 125.092598 -0.000021 0.564370
-58.315235 124.719582 0.000014 0.553399
-57.069492 124.444786 0.000014 0.555200
nan nan nan 0.000000
nan nan nan 0.000000
nan nan nan 0.000000
nan nan nan 0.000000
nan nan nan 0.000000
nan nan nan 0.000000
nan nan nan 0.000000
nan nan nan 0.000000
-139.969482 143.396378 0.477783 0.694484
-88.966110 131.771774 -0.000028 0.533745
-73.054688 128.145279 -0.000033 0.541268
-66.223228 126.588264 -0.000026 0.554101
-62.418484 125.721092 -0.000023 0.535348
-59.989483 125.167480 -0.000021 0.562387
-58.301090 124.782661 0.000014 0.495888
-57.057297 124.499176 0.000014 0.511620
nan nan nan 0.000000
nan nan nan 0.000000
nan nan nan 0.000000
nan nan nan 0.000000
nan nan nan 0.000000
nan nan nan 0.000000
nan nan nan 0.000000
nan nan nan 0.000000
-139.580963 143.972107 0.481851 0.695552
-88.901978 132.048676 -0.000027 0.536187
-73.016266 128.311172 -0.000032 0.541207
-66.195847 126.706505 -0.000027 0.536263
-62.397247 125.812790 -0.000024 0.520912
-59.972172 125.242233 -0.000021 0.551049
-58.286507 124.845642 0.000014 0.497795
-57.044720 124.553482 0.000014 0.509728
nan nan nan 0.000000
nan nan nan 0.000000
nan nan nan 0.000000
nan nan nan 0.000000
nan nan nan 0.000000
nan nan nan 0.000000
nan nan nan 0.000000
nan nan nan 0.000000
-139.180542 144.541428 0.486058 0.693401
-88.835907 132.325104 -0.000027 0.540429
-72.976685 128.476791 -0.000032 0.544884
-66.167633 126.824554 -0.000027 0.543587
-62.375366 125.904343 -0.000024 0.551095
-59.954334 125.316872 -0.000021 0.563989
-58.271481 124.908524 0.000014 0.541238
-57.031765 124.607697 0.000014 0.563470
nan nan nan 0.000000
nan nan nan 0.000000
nan nan nan 0.000000
nan nan nan 0.000000
nan nan nan 0.000000
nan nan nan 0.000000
nan nan nan 0.000000
nan nan nan 0.000000
-138.771545 145.104935 0.490350 0.694942
-88.767944 132.601074 -0.000027 0.543954
-72.935959 128.642136 -0.000033 0.536477
-66.138596 126.942398 -0.000026 0.528756
-62.352852 125.995743 -0.000023 0.529580
-59.935982 125.391380 -0.000021 0.529458
-58.256016 124.971291 0.000014 0.552972
-57.018433 124.661819 0.000014 0.529824
nan nan nan 0.000000
nan nan nan 0.000000
nan nan nan 0.000000
nan nan nan 0.000000
nan nan nan 0.000000
nan nan nan 0.000000
nan nan nan 0.000000
nan nan nan 0.000000
-138.363892 145.665024 0.494563 0.696544
-88.698029 132.876556 -0.000028 0.531502
-72.894066 128.807205 -0.000032 0.541863
-66.108742 127.060043 -0.000026 0.546578
-62.329697 126.086975 -0.000023 0.538140
-59.917103 125.465759 -0.000021 0.515358
-58.240116 125.033951 0.000013 0.574960
-57.004723 124.715851 0.000014 0.535958
nan nan nan 0.000000
nan nan nan 0.000000
nan nan nan 0.000000
nan nan nan 0.000000
nan nan nan 0.000000
nan nan nan 0.000000
nan nan nan 0.000000
nan nan nan 0.000000
-137.957596 146.221786 0.498693 0.695140
-88.626205 133.151550 -0.000028 0.537316
-72.851028 128.971954 -0.000032 0.534371
-66.078072 127.177475 -0.000027 0.524453
-62.305908 126.178055 -0.000023 0.522744
-59.897709 125.540009 -0.000021 0.548196
-58.223778 125.096504 0.000013 0.511467
-56.990639 124.769783 0.000013 0.530510
nan nan nan 0.000000
nan nan nan 0.000000
nan nan nan 0.000000
nan nan nan 0.000000
nan nan nan 0.000000
nan nan nan 0.000000
nan nan nan 0.000000
nan nan nan 0.000000
-137.544327 146.773041 0.502883 0.694560
-88.552452 133.426041 -0.000028 0.538613
-72.806839 129.136414 -0.000032 0.536461
-66.046570 127.294693 -0.000026 0.533181
-62.281483 126.268959 -0.000023 0.521599
-59.877800 125.614113 -0.000021 0.560525
-58.207005 125.158936 0.000013 0.511040
-56.976173 124.823616 0.000013 0.558968
nan nan nan 0.000000
nan nan nan 0.000000
nan nan nan 0.000000
nan nan nan 0.000000
nan nan nan 0.000000
nan nan nan 0.000000
nan nan nan 0.000000
nan nan nan 0.000000
-137.164978 147.330109 0.506439 0.695079
-88.476776 133.699997 -0.000027 0.540078
-72.761505 129.300552 -0.000032 0.544991
-66.014267 127.411682 -0.000026 0.546807
-62.256424 126.359688 -0.000023 0.555581
-59.857368 125.688080 -0.000021 0.544945
-58.189796 125.221245 0.000013 0.544961
-56.961334 124.877342 0.000013 0.580423
nan nan nan 0.000000
nan nan nan 0.000000
nan nan nan 0.000000
nan nan nan 0.000000
nan nan nan 0.000000
nan nan nan 0.000000
nan nan nan 0.000000
nan nan nan 0.000000
-136.748520 147.873383 0.510569 0.695689
-88.399231 133.973434 -0.000028 0.541512
-72.715027 129.464371 -0.000032 0.529625
-65.981133 127.528450 -0.000026 0.539178
-62.230732 126.450241 -0.000023 0.535363
-59.836426 125.761902 -0.000021 0.540963
-58.172150 125.283440 0.000013 0.548684
-56.946121 124.930969 0.000013 0.504845
nan nan nan 0.000000
nan nan nan 0.000000
nan nan nan 0.000000
nan nan nan 0.000000
nan nan nan 0.000000
nan nan nan 0.000000
nan nan nan 0.000000
nan nan nan 0.000000
-136.334381 148.413696 0.514603 0.692485
-88.319733 134.246307 -0.000028 0.537697
-72.667404 129.627869 -0.000032 0.545846
-65.947189 127.644981 -0.000026 0.541207
-62.204403 126.540619 -0.000022 0.526116
-59.814964 125.835579 -0.000021 0.538308
-58.154072 125.345512 0.000013 0.545281
-56.930531 124.984489 0.000013 0.510414
nan nan nan 0.000000
nan nan nan 0.000000
nan nan nan 0.000000
nan nan nan 0.000000
nan nan nan 0.000000
nan nan nan 0.000000
nan nan nan 0.000000
nan nan nan 0.000000
-135.920532 148.950531 0.518576 0.694179
-88.238365 134.518631 -0.000028 0.536721
-72.618652 129.791031 -0.000032 0.535698
-65.912430 127.761269 -0.000026 0.538048
-62.177452 126.630806 -0.000023 0.555016
-59.792984 125.909103 -0.000020 0.529503
-58.135559 125.407455 0.000012 0.543374
-56.914570 125.037895 0.000013 0.533837
nan nan nan 0.000000
nan nan nan 0.000000
nan nan nan 0.000000
nan nan nan 0.000000
nan nan nan 0.000000
nan nan nan 0.000000
nan nan nan 0.000000
nan nan nan 0.000000
-135.489532 149.478531 0.522788 0.694743
-88.155067 134.790375 -0.000028 0.548684
-72.568741 129.953842 -0.000032 0.551766
-65.876869 127.877312 -0.000026 0.531014
-62.149868 126.720802 -0.000022 0.546883
-59.770500 125.982468 -0.000020 0.554894
-58.116615 125.469261 0.000013 0.583902
-56.898235 125.091187 0.000013 0.506294
nan nan nan 0.000000
nan nan nan 0.000000
nan nan nan 0.000000
nan nan nan 0.000000
nan nan nan 0.000000
nan nan nan 0.000000
nan nan nan 0.000000
nan nan nan 0.000000
-135.060577 150.003448 0.526910 0.692668
-88.069908 135.061539 -0.000029 0.541024
-72.517708 130.116302 -0.000032 0.541375
-65.840500 127.993111 -0.000026 0.540871
-62.121658 126.810608 -0.000022 0.536629
-59.747505 126.055679 -0.000020 0.563027
-58.097244 125.530937 0.000012 0.549844
-56.881535 125.144371 0.000012 0.557427
nan nan nan 0.000000
nan nan nan 0.000000
nan nan nan 0.000000
nan nan nan 0.000000
nan nan nan 0.000000
nan nan nan 0.000000
nan nan nan 0.000000
nan nan nan 0.000000
-134.634430 150.525604 0.530931 0.695552
-87.982826 135.332077 -0.000029 0.539361
-72.465538 130.278397 -0.000032 0.531258
-65.803314 128.108643 -0.000026 0.540948
-62.092819 126.900208 -0.000022 0.525322
-59.723991 126.128731 -0.000020 0.526482
-58.077438 125.592476 0.000012 0.520821
-56.864456 125.197433 0.000012 0.591684
nan nan nan 0.000000
nan nan nan 0.000000
nan nan nan 0.000000
nan nan nan 0.000000
nan nan nan 0.000000
nan nan nan 0.000000
nan nan nan 0.000000
nan nan nan 0.000000
-134.210571 151.044952 0.534860 0.692042
-87.893883 135.602020 -0.000029 0.540993
-72.412239 130.440140 -0.000032 0.541131
-65.765320 128.223923 -0.000026 0.524224
-62.063358 126.989609 -0.000022 0.522148
-59.699974 126.201607 -0.000020 0.560021
-58.057205 125.653877 0.000012 0.518090
-56.847012 125.250374 0.000012 0.541848
nan nan nan 0.000000
nan nan nan 0.000000
nan nan nan 0.000000
nan nan nan 0.000000
nan nan nan 0.000000
nan nan nan 0.000000
nan nan nan 0.000000
nan nan nan 0.000000
-133.772049 151.555771 0.538986 0.692332
-87.803040 135.871338 -0.000029 0.536263
-72.357819 130.601486 -0.000032 0.549996
-65.726532 128.338928 -0.000026 0.525460
-62.033272 127.078796 -0.000022 0.539651
-59.675449 126.274323 -0.000020 0.538521
-58.036545 125.715134 0.000012 0.531868
-56.829193 125.303192 0.000012 0.523293
nan nan nan 0.000000
nan nan nan 0.000000
nan nan nan 0.000000
nan nan nan 0.000000
nan nan nan 0.000000
nan nan nan 0.000000
nan nan nan 0.000000
nan nan nan 0.000000
-133.332397 152.062500 0.543082 0.692363
-87.710327 136.140015 -0.000029 0.540597
-72.302261 130.762466 -0.000031 0.526116
-65.686928 128.453659 -0.000025 0.541054
-62.002563 127.167778 -0.000022 0.567071
-59.650414 126.346863 -0.000020 0.497963
-58.015457 125.776245 0.000012 0.556649
-56.811012 125.355881 0.000011 0.531655
nan nan nan 0.000000
nan nan nan 0.000000
nan nan nan 0.000000
nan nan nan 0.000000
nan nan nan 0.000000
nan nan nan 0.000000
nan nan nan 0.000000
nan nan nan 0.000000
-132.894547 152.566208 0.547096 0.694423
-87.615730 136.408020 -0.000029 0.538170
-72.245575 130.923035 -0.000031 0.525643
-65.646538 128.568115 -0.000025 0.548486
-61.971237 127.256546 -0.000022 0.539315
-59.624878 126.419220 -0.000020 0.517830
-57.993942 125.837204 0.000011 0.536645
-56.792461 125.408447 0.000012 0.523735
nan nan nan 0.000000
nan nan nan 0.000000
nan nan nan 0.000000
nan nan nan 0.000000
nan nan nan 0.000000
nan nan nan 0.000000
nan nan nan 0.000000
nan nan nan 0.000000
-132.459259 153.067230 0.551013 0.692180
-87.519279 136.675385 -0.000029 0.542077
-72.187790 131.083221 -0.000031 0.541863
-65.605339 128.682281 -0.000025 0.544961
-61.939289 127.345085 -0.000022 0.507851
-59.598831 126.491402 -0.000019 0.535653
-57.972004 125.898018 0.000011 0.528542
-56.773544 125.460876 0.000011 0.512352
nan nan nan 0.000000
nan nan nan 0.000000
nan nan nan 0.000000
nan nan nan 0.000000
nan nan nan 0.000000
nan nan nan 0.000000
nan nan nan 0.000000
nan nan nan 0.000000
-132.017609 153.562332 0.554991 0.692775
-87.420952 136.942047 -0.000029 0.541482
-72.128876 131.242996 -0.000031 0.532952
-65.563354 128.796158 -0.000025 0.521355
-61.906723 127.433403 -0.000021 0.530221
-59.572285 126.563400 -0.000019 0.550179
-57.949638 125.958672 0.000011 0.523781
-56.754261 125.513184 0.000011 0.501152
nan nan nan 0.000000
nan nan nan 0.000000
nan nan nan 0.000000
nan nan nan 0.000000
nan nan nan 0.000000
nan nan nan 0.000000
nan nan nan 0.000000
nan nan nan 0.000000
-131.567139 154.050491 0.559075 0.693065
-87.320770 137.208023 -0.000029 0.536278
-72.068848 131.402344 -0.000031 0.535317
-65.520569 128.909729 -0.000025 0.525994
-61.873543 127.521484 -0.000021 0.534890
-59.545235 126.635216 -0.000019 0.526177
-57.926853 126.019173 0.000011 0.503380
-56.734615 125.565346 0.000011 0.518608
nan nan nan 0.000000
nan nan nan 0.000000
nan nan nan 0.000000
nan nan nan 0.000000
nan nan nan 0.000000
nan nan nan 0.000000
nan nan nan 0.000000
nan nan nan 0.000000
-131.135468 154.542252 0.562779 0.698283
-87.218742 137.473297 -0.000029 0.545830
-72.007721 131.561295 -0.000031 0.535546
-65.476997 129.023026 -0.000025 0.537530
-61.839748 127.609344 -0.000021 0.568215
-59.517685 126.706833 -0.000019 0.558206
-57.903645 126.079514 0.000010 0.555489
-56.714603 125.617371 0.000010 0.551949
nan nan nan 0.000000
nan nan nan 0.000000
nan nan nan 0.000000
nan nan nan 0.000000
nan nan nan 0.000000
nan nan nan 0.000000
nan nan nan 0.000000
nan nan nan 0.000000
-130.685120 155.023239 0.566761 0.697841
-87.114853 137.737854 -0.000029 0.534310
-71.945465 131.719788 -0.000031 0.547219
-65.432632 129.135986 -0.000025 0.531624
-61.805344 127.696960 -0.000021 0.532998
-59.489635 126.778259 -0.000019 0.514015
-57.880013 126.139687 0.000010 0.519234
-56.694229 125.669258 0.000010 0.542458
nan nan nan 0.000000
nan nan nan 0.000000
nan nan nan 0.000000
nan nan nan 0.000000
nan nan nan 0.000000
nan nan nan 0.000000
nan nan nan 0.000000
nan nan nan 0.000000
-130.237930 155.501862 0.570639 0.695445
-87.009109 138.001663 -0.000029 0.539940
-71.882118 131.877853 -0.000031 0.536385
-65.387482 129.248657 -0.000024 0.541375
-61.770325 127.784332 -0.000021 0.551446
-59.461086 126.849487 -0.000019 0.566827
-57.855965 126.199692 0.000010 0.539590
-56.673492 125.720993 0.000011 0.519921
-67.222870 130.137939 6.864657 0.637873
-67.222870 130.137939 6.194492 0.869520
-67.222870 130.137939 5.533735 0.819272
-67.222878 130.137939 4.880805 0.599939
-67.222870 130.137939 4.234184 0.776471
nan nan nan 0.000000
nan nan nan 0.000000
nan nan nan 0.000000
-129.773315 155.969742 0.574780 0.696101
-86.901535 138.264740 -0.000029 0.538582
-71.817665 132.035477 -0.000030 0.539712
-65.341537 129.360992 -0.000024 0.528908
-61.734695 127.871460 -0.000021 0.541512
-59.432045 126.920517 -0.000018 0.535012
-57.831615 126.259583 -0.000017 0.512047
-56.652397 125.772591 0.000010 0.534157
-67.103157 130.234634 6.846305 0.567010
-67.103157 130.234634 6.178667 0.844175
-67.103165 130.234634 5.520404 0.681315
-67.103157 130.234634 4.869936 0.302266
-67.103165 130.234634 4.225755 0.745937
-67.206985 130.278366 3.595644 0.151385
-67.206985 130.278366 2.956018 0.265766
-67.206985 130.278366 2.318445 0.264164
-67.206985 130.278366 1.681555 0.329702
-67.206985 130.278366 1.043982 0.364630
-67.206985 130.278366 0.404355 0.307149
-65.294823 129.473022 -0.000024 0.553750
-61.698463 127.958336 -0.000021 0.534478
-59.402504 126.991341 -0.000018 0.537255
-57.806728 126.319244 -0.000017 0.535073
-56.630939 125.824036 0.000010 0.547280
-66.984344 130.330612 6.828327 0.678080
-66.984344 130.330612 6.163165 0.487022
-66.984337 130.330612 5.507342 0.746471
-66.984344 130.330612 4.859288 0.755276
-66.984344 130.330612 4.217497 0.803632
-67.083054 130.373001 3.589330 0.678431
-67.083054 130.373001 2.952234 0.678431
-67.083054 130.373001 2.317185 0.678431
-67.083054 130.373001 1.682815 0.678431
-67.083054 130.373001 1.047765 0.678431
-67.083054 130.373001 0.410669 0.678431
-65.247322 129.584702 -0.000024 0.534066
-61.661625 128.044952 -0.000021 0.506523
-59.372471 127.061958 -0.000018 0.554177
-57.781425 126.378738 -0.000017 0.541070
-56.609127 125.875336 0.000010 0.574411
-66.866394 130.425873 6.810712 0.732357
-66.866394 130.425873 6.147978 0.519310
-66.866394 130.425873 5.494549 0.751110
-66.866394 130.425873 4.848857 0.397299
-66.866394 130.425873 4.209407 0.428870
-66.938622 130.457489 3.581221 0.094118
-66.938622 130.457489 2.947375 0.079164
-66.938622 130.457489 2.315566 0.094118
-66.938622 130.457489 1.684434 0.094118
-66.938622 130.457489 1.052624 0.094118
-66.938622 130.457489 0.418779 0.094118
-65.199036 129.696060 -0.000024 0.532937
-61.624180 128.131317 -0.000020 0.512581
-59.341949 127.132362 -0.000018 0.534829
-57.755711 126.438049 -0.000016 0.579446
-56.586956 125.926476 0.000010 0.537240
-66.921890 130.597443 6.840798 0.171969
-66.921890 130.597443 6.173919 0.172473
-66.921890 130.597443 5.516401 0.172976
-66.921883 130.597443 4.866673 0.173480
-66.749298 130.520462 4.201484 0.429389
-66.846680 130.563904 3.577851 0.678431
-66.846680 130.563889 2.945357 0.678431
-66.846680 130.563889 2.314894 0.678431
-66.846680 130.563889 1.685106 0.678431
-66.846680 130.563889 1.054643 0.678431
-66.846680 130.563904 0.422148 0.678431
-65.149979 129.807083 -0.000024 0.532433
-61.586128 128.217407 -0.000019 0.541131
-59.310928 127.202545 -0.000017 0.544305
-57.729580 126.497185 -0.000016 0.525826
-56.564426 125.977463 0.000009 0.560647
-66.826523 130.702301 6.829798 0.666667
-66.826523 130.702301 6.164433 0.666667
-66.826523 130.702301 5.508411 0.666667
-66.826523 130.702301 4.860159 0.666667
-66.633026 130.614365 4.193722 0.589746
-66.729767 130.658325 3.572289 0.678431
-66.729767 130.658325 2.942024 0.678431
-66.729767 130.658325 2.313784 0.678431
-66.729767 130.658325 1.686216 0.678431
-66.729767 130.658325 1.057976 0.678431
-66.729759 130.658325 0.427711 0.678431
-65.100151 129.917755 -0.000023 0.529015
-61.547489 128.303238 -0.000020 0.529030
-59.279427 127.272522 -0.000017 0.550011
-57.703037 126.556129 -0.000016 0.535683
-56.541542 126.028290 0.000009 0.521660
-66.709785 130.796600 6.813067 0.678431
-66.709793 130.796600 6.150008 0.678431
-66.709785 130.796600 5.496258 0.678431
-66.709785 130.796600 4.850251 0.678431
-66.517563 130.707611 4.186121 0.535958
-66.613663 130.752106 3.566842 0.678431
-66.613663 130.752106 2.938760 0.678431
-66.613663 130.752106 2.312697 0.678431
-66.613663 130.752106 1.687303 0.678431
-66.613663 130.752106 1.061239 0.678431
-66.613663 130.752106 0.433158 0.678431
-65.049545 130.028076 -0.000023 0.539544
-61.508247 128.388794 -0.000020 0.528054
-59.247429 127.342270 -0.000017 0.509896
-57.676086 126.614891 -0.000016 0.550927
-56.518303 126.078957 0.000009 0.556848
-66.402901 130.800232 6.743805 0.325948
-66.402901 130.800232 6.090288 0.619516
-66.402901 130.800232 5.445946 0.659480
-66.402901 130.800232 4.809237 0.565988
-66.402893 130.800232 4.178679 0.834348
-66.473244 130.833389 3.559231 0.086275
-66.473236 130.833389 2.934200 0.081773
-66.473236 130.833389 2.311178 0.081956
-66.473236 130.833389 1.688822 0.086275
-66.473236 130.833389 1.065799 0.078508
-66.473244 130.833389 0.440769 0.090776
-64.998177 130.138031 -0.000023 0.541955
-61.468403 128.474075 -0.000020 0.516793
-59.214951 127.411797 -0.000017 0.564263
-57.648724 126.673470 -0.000015 0.573022
-56.494713 126.129463 0.000008 0.522881
-66.289009 130.892212 6.727940 0.574762
-66.289001 130.892212 6.076608 0.613169
-66.289009 130.892212 5.434421 0.936629
-66.289009 130.892212 4.799841 0.505074
-66.289001 130.892212 4.171392 0.793667
-66.383850 130.937744 3.556287 0.678431
-66.383850 130.937744 2.932436 0.678431
-66.383850 130.937744 2.310591 0.678431
-66.383850 130.937744 1.689410 0.678431
-66.383850 130.937744 1.067563 0.678431
-66.383850 130.937744 0.443713 0.678431
-64.946037 130.247635 -0.000023 0.537102
-61.427967 128.559082 -0.000019 0.536507
-59.181988 127.481094 -0.000017 0.551141
-57.620949 126.731842 -0.000015 0.547662
-56.470772 126.179794 0.000008 0.538018
-66.175873 130.983597 6.712410 0.623621
-66.175873 130.983597 6.063218 0.379416
-66.175865 130.983597 5.423141 0.706554
-66.175865 130.983597 4.790644 0.486595
-66.175865 130.983597 4.164261 0.706538
-66.270073 131.029617 3.551175 0.638972
-66.270065 131.029617 2.929373 0.638972
-66.270065 131.029617 2.309570 0.638972
-66.270065 131.029617 1.690430 0.639460
-66.270065 131.029617 1.070626 0.639460
-66.270073 131.029617 0.448825 0.670344
-64.893135 130.356873 -0.000022 0.537438
-61.386940 128.643799 -0.000019 0.557168
-59.148540 127.550156 -0.000016 0.521340
-57.592773 126.790031 -0.000015 0.531609
-56.446476 126.229965 0.000008 0.530159
-66.063469 131.074387 6.697211 0.869123
-66.063469 131.074387 6.050112 0.831586
-66.063461 131.074387 5.412097 0.849302
-66.063461 131.074387 4.781643 0.556725
-66.063461 131.074387 4.157280 0.654612
-66.157036 131.120911 3.546170 0.678431
-66.157036 131.120911 2.926375 0.678431
-66.157036 131.120911 2.308572 0.678431
-66.157043 131.120911 1.691429 0.678431
-66.157036 131.120911 1.073624 0.678431
-66.157043 131.120911 0.453829 0.678431
-64.839470 130.465744 -0.000022 0.534844
-61.345322 128.728226 -0.000019 0.552209
-59.114613 127.618980 -0.000016 0.556191
-57.564190 126.848015 -0.000015 0.546044
-56.421829 126.279961 0.000008 0.545342
-66.125580 131.252533 6.731123 0.094118
-66.125580 131.252533 6.079353 0.173892
-66.125580 131.252533 5.436735 0.174548
-66.125572 131.252533 4.801726 0.238880
-65.951782 131.164597 4.150448 0.642298
-66.044739 131.211624 3.541275 0.678431
-66.044731 131.211624 2.923442 0.678431
-66.044739 131.211624 2.307594 0.678431
-66.044731 131.211624 1.692406 0.678431
-66.044731 131.211624 1.076558 0.678431
-66.044739 131.211624 0.458725 0.678431
-64.785049 130.574219 -0.000022 0.549859
-61.303116 128.812363 -0.000018 0.544427
-59.080208 127.687576 -0.000016 0.535683
-57.535202 126.905800 -0.000015 0.535332
-56.396839 126.329788 0.000008 0.548714
-66.025475 131.349304 6.719809 0.678431
-66.025475 131.349304 6.069599 0.678431
-66.025475 131.349304 5.428516 0.678431
-66.025467 131.349304 4.795026 0.678431
-65.840790 131.254242 4.143764 0.870848
-65.933136 131.301773 3.536484 0.678431
-65.933136 131.301773 2.920573 0.678431
-65.933136 131.301773 2.306639 0.678431
-65.933136 131.301773 1.693362 0.678431
-65.933136 131.301773 1.079427 0.678431
-65.933136 131.301773 0.463515 0.678431
-64.729874 130.682327 -0.000022 0.537011
-61.260323 128.896210 -0.000018 0.546334
-59.045322 127.755920 -0.000016 0.545480
-57.505814 126.963379 -0.000015 0.526696
-56.371498 126.379440 0.000008 0.550378
-65.913948 131.439392 6.705416 0.678431
-65.913940 131.439392 6.057186 0.678431
-65.913940 131.439392 5.418059 0.678431
-65.913940 131.439392 4.786502 0.678431
-65.730484 131.343323 4.137224 0.375250
-65.794418 131.376801 3.529225 0.086275
-65.794418 131.376801 2.916223 0.094118
-65.794418 131.376801 2.305189 0.144335
-65.794418 131.376801 1.694811 0.094118
-65.794418 131.376801 1.083777 0.118929
-65.794418 131.376801 0.470774 0.174670
-64.673943 130.790054 -0.000022 0.548257
-61.216946 128.979752 -0.000018 0.515160
-59.009956 127.824028 -0.000016 0.558877
-57.476021 127.020760 -0.000014 0.531731
-56.345814 126.428909 0.000007 0.522377
-65.620850 131.431885 6.639616 0.597070
-65.620850 131.431885 6.000453 0.511727
-65.620850 131.431885 5.370263 0.441184
-65.620850 131.431885 4.747537 0.568170
-65.620850 131.431885 4.130829 0.460563
-65.711975 131.480408 3.527214 0.678431
-65.711975 131.480408 2.915018 0.678431
-65.711967 131.480408 2.304789 0.678431
-65.711967 131.480408 1.695212 0.678431
-65.711975 131.480408 1.084982 0.678431
-65.711975 131.480408 0.472785 0.678431
-64.617256 130.897369 -0.000021 0.528222
-61.172989 129.062973 -0.000018 0.529366
-58.974121 127.891876 -0.000015 0.535180
-57.445827 127.077919 -0.000014 0.510597
-56.319782 126.478195 0.000007 0.539925
-65.511864 131.519913 6.625998 0.661189
-65.511864 131.519913 5.988711 0.661967
-65.511864 131.519913 5.360371 0.474388
-65.511864 131.519913 4.739472 0.580346
-65.511864 131.519913 4.124575 0.826551
-65.602371 131.568924 3.522731 0.678431
-65.602371 131.568924 2.912332 0.678431
-65.602371 131.568924 2.303894 0.678431
-65.602371 131.568924 1.696106 0.678431
-65.602371 131.568924 1.087668 0.678431
-65.602371 131.568924 0.477269 0.678431
-64.559830 131.004303 -0.000021 0.535821
-61.128448 129.145905 -0.000018 0.548684
-58.937809 127.959480 -0.000015 0.541680
-57.415237 127.134872 -0.000014 0.531533
-56.293411 126.527306 0.000007 0.548821
-65.403511 131.607422 6.612686 0.912749
-65.403503 131.607422 5.977232 0.629648
-65.403503 131.607422 5.350699 0.617487
-65.403503 131.607422 4.731587 0.449378
-65.403511 131.607422 4.118461 0.669276
-65.493401 131.656921 3.518348 0.678431
-65.493408 131.656921 2.909706 0.678431
-65.493408 131.656921 2.303019 0.678431
-65.493408 131.656937 1.696981 0.678431
-65.493408 131.656937 1.090294 0.678431
-65.493408 131.656921 0.481651 0.678431
-64.501648 131.110825 -0.000021 0.537774
-61.083328 129.228516 -0.000017 0.538186
-58.901031 128.026825 -0.000015 0.544518
-57.384254 127.191612 -0.000014 0.552087
-56.266693 126.576233 0.000007 0.541222
-65.295776 131.694458 6.599673 0.941909
-65.295769 131.694443 5.966011 0.330205
-65.295769 131.694443 5.341247 0.644892
-65.295769 131.694443 4.723881 0.698161
-65.295769 131.694443 4.112484 0.324346
-65.385063 131.744431 3.514064 0.497185
-65.385063 131.744431 2.907139 0.497185
-65.385063 131.744431 2.302164 0.488212
-65.385063 131.744431 1.697836 0.486824
-65.385063 131.744431 1.092860 0.497185
-65.385063 131.744431 0.485935 0.497185
-64.442734 131.216934 -0.000021 0.548608
-61.037636 129.310806 -0.000017 0.541009
-58.863777 128.093918 -0.000015 0.546685
-57.352867 127.248138 -0.000013 0.524834
-56.239635 126.624962 0.000007 0.513191
-65.328690 131.860672 6.627318 0.112322
-65.328690 131.860672 5.989848 0.083696
-65.328690 131.860672 5.361329 0.094118
-65.328690 131.860672 4.740253 0.075486
-65.188637 131.780991 4.106643 0.386664
-65.277328 131.831451 3.509878 0.669612
-65.277328 131.831451 2.904631 0.669612
-65.277328 131.831451 2.301328 0.669612
-65.277328 131.831451 1.698672 0.669612
-65.277328 131.831451 1.095369 0.669612
-65.277328 131.831451 0.490122 0.669612
-64.383080 131.322632 -0.000020 0.548089
-60.991371 129.392792 -0.000017 0.552865
-58.826061 128.160751 -0.000014 0.555001
-57.321095 127.304436 -0.000013 0.534920
-56.212238 126.673508 0.000007 0.529641
-65.258293 131.968948 6.625516 0.678431
-65.258293 131.968933 5.988295 0.678431
-65.258293 131.968948 5.360021 0.678431
-65.258293 131.968948 4.739187 0.678431
-65.082077 131.867035 4.100936 0.526833
-65.170181 131.917984 3.505787 0.678431
-65.170181 131.917984 2.902181 0.678431
-65.170181 131.917984 2.300512 0.678431
-65.170181 131.917999 1.699488 0.678431
-65.170189 131.917999 1.097819 0.678431
-65.170189 131.917999 0.494211 0.678431
-64.322685 131.427902 -0.000020 0.550774
-60.944534 129.474426 -0.000016 0.530816
-58.787880 128.227310 -0.000014 0.523964
-57.288925 127.360512 -0.000013 0.528588
-56.184505 126.721863 0.000006 0.552697
-65.151138 132.055496 6.613247 0.678431
-65.151138 132.055511 5.977716 0.678431
-65.151138 132.055496 5.351107 0.678431
-65.151138 132.055496 4.731921 0.678431
-64.976089 131.952637 4.095361 0.521981
-65.063614 132.004074 3.501793 0.678431
-65.063614 132.004074 2.899787 0.678431
-65.063614 132.004074 2.299715 0.678431
-65.063614 132.004074 1.700285 0.678431
-65.063614 132.004074 1.100212 0.678431
-65.063614 132.004074 0.498206 0.678431
-64.261559 131.532761 -0.000020 0.540963
-60.897125 129.555756 -0.000016 0.537148
-58.749229 128.293594 -0.000014 0.502068
-57.256367 127.416367 -0.000013 0.571557
-56.156433 126.770020 0.000006 0.523735
-65.044540 132.141602 6.601264 0.678431
-65.044540 132.141602 5.967385 0.678431
-65.044540 132.141602 5.342405 0.678431
-65.044540 132.141602 4.724826 0.678431
-64.870667 132.037796 4.089919 0.477745
-64.934723 132.076035 3.495708 0.086275
-64.934723 132.076035 2.896141 0.076432
-64.934723 132.076035 2.298501 0.086275
-64.934723 132.076035 1.701500 0.086275
-64.934723 132.076035 1.103858 0.083284
-64.934723 132.076035 0.504292 0.081224
-64.199699 131.637192 -0.000019 0.538918
-60.849155 129.636734 -0.000016 0.528222
-58.710121 128.359619 -0.000014 0.544396
-57.223419 127.471985 -0.000012 0.548516
-56.128029 126.817978 0.000006 0.539940
-64.765778 132.122513 6.538970 0.398016
-64.765785 132.122513 5.913671 0.629084
-64.765778 132.122513 5.297153 0.659266
-64.765778 132.122513 4.687934 0.470512
-64.765778 132.122513 4.084605 0.622156
-64.852127 132.174881 3.494084 0.678431
-64.852127 132.174881 2.895169 0.678431
-64.852127 132.174881 2.298176 0.676341
-64.852127 132.174881 1.701823 0.676341
-64.852127 132.174881 1.104831 0.676341
-64.852127 132.174881 0.505916 0.678431
-64.137115 131.741180 -0.000019 0.529717
-60.800621 129.717392 -0.000016 0.521767
-58.670555 128.425369 -0.000013 0.528786
-57.190086 127.527374 -0.000012 0.562036
-56.099285 126.865738 0.000006 0.491844
-64.661423 132.206802 6.527681 0.559411
-64.661423 132.206802 5.903936 0.749157
-64.661423 132.206802 5.288951 0.488731
-64.661423 132.206802 4.681249 0.547692
-64.661423 132.206802 4.079420 0.728374
-64.747192 132.259644 3.490367 0.678431
-64.747192 132.259644 2.892942 0.678431
-64.747192 132.259644 2.297435 0.678431
-64.747192 132.259644 1.702565 0.678431
-64.747185 132.259644 1.107058 0.678431
-64.747192 132.259644 0.509632 0.678431
-64.073807 131.844742 -0.000019 0.539147
-60.751518 129.797699 -0.000015 0.549203
-58.630527 128.490845 -0.000013 0.557870
-57.156361 127.582535 -0.000011 0.525338
-56.070213 126.913300 0.000005 0.473503
-64.557571 132.290680 6.516665 0.491646
-64.557571 132.290680 5.894440 0.859617
-64.557571 132.290665 5.280950 0.452308
-64.557571 132.290665 4.674726 0.607950
-64.557579 132.290680 4.074362 0.672740
-64.642769 132.343994 3.486742 0.678431
-64.642769 132.343994 2.890770 0.678431
-64.642769 132.343994 2.296711 0.678431
-64.642769 132.343994 1.703289 0.678431
-64.642769 132.343994 1.109230 0.678431
-64.642769 132.343994 0.513257 0.678431
-64.009781 131.947845 -0.000019 0.542275
-60.701862 129.877670 -0.000015 0.523323
-58.590046 128.556030 -0.000013 0.565118
-57.122257 127.637451 -0.000011 0.534401
-56.040806 126.960655 0.000005 0.513497
-64.439087 132.364517 6.501429 0.774472
-64.439087 132.364517 5.881302 0.793729
-64.439087 132.364517 5.269881 0.333654
-64.439087 132.364517 4.665703 0.576135
-64.454224 132.374146 4.069428 0.615412
-64.538849 132.427933 3.483207 0.678431
-64.538849 132.427933 2.888652 0.678431
-64.538849 132.427933 2.296005 0.678431
-64.538849 132.427933 1.703994 0.678431
-64.538849 132.427933 1.111348 0.678431
-64.538849 132.427933 0.516793 0.678431
-63.945030 132.050507 -0.000019 0.551492
-60.651646 129.957275 -0.000015 0.564492
-58.549107 128.620941 -0.000013 0.566751
-57.087769 127.692131 -0.000011 0.555566
-56.011070 127.007797 0.000005 0.546166
-64.519447 132.565704 6.545560 0.495857
-64.519440 132.565704 5.919353 0.495857
-64.519440 132.565704 5.301939 0.495857
-64.519440 132.565704 4.691836 0.495857
