# This PCD file was generated using the MATLABÂ® pcwrite function
# from Computer Vision ToolboxÂ®.
# .PCD v.7 - Point Cloud Data file format
VERSION .7
FIELDS x y z intensity
SIZE 4 4 4 4
TYPE F F F F
COUNT 1 1 1 1
WIDTH 1196
HEIGHT 1
VIEWPOINT 0 0 0 1 0 0 0
POINTS 1196
DATA ascii
nan nan nan 0.000000
nan nan nan 0.000000
nan nan nan 0.000000
nan nan nan 0.000000
6.972717 131.619598 12.665181 0.741176
7.042725 131.566116 9.608837 0.727520
6.880997 131.689636 6.548776 0.177462
6.972717 131.619583 3.517066 0.733333
7.042679 131.566162 0.481496 0.715938
-34.351620 163.180237 0.000043 0.536629
-47.320641 173.085068 0.000027 0.542123
-52.888794 177.337631 0.000020 0.540764
-55.989975 179.706100 0.000016 0.553582
-57.969822 181.218170 0.000013 0.524575
-59.345894 182.269119 0.000011 0.550164
-60.359722 183.043411 0.000010 0.497093
nan nan nan 0.000000
nan nan nan 0.000000
nan nan nan 0.000000
nan nan nan 0.000000
5.921349 131.615463 12.569607 0.723415
5.990372 131.561981 9.540648 0.723918
5.830963 131.685486 6.508012 0.221744
5.921349 131.615463 3.503469 0.725978
5.990326 131.562012 0.495103 0.733333
-34.524910 162.954971 0.000043 0.538445
-47.424473 172.950104 0.000027 0.540383
-52.962799 177.241440 0.000020 0.543420
-56.047371 179.631500 0.000015 0.542199
-58.016613 181.157349 0.000013 0.542596
-59.385311 182.217880 0.000011 0.560052
-60.393707 182.999222 0.000010 0.535561
-41.176117 167.821823 10.133886 0.607538
-41.176113 167.821823 9.013346 0.596109
-41.176117 167.821823 7.908535 0.370993
-41.176113 167.821823 6.816812 0.665293
-41.176113 167.821823 5.735638 0.592126
-41.176109 167.821823 4.662577 0.766430
-41.099483 167.761581 3.600050 0.678431
-41.099487 167.761581 2.532969 0.678431
-41.099487 167.761581 1.467031 0.678431
-41.099483 167.761581 0.399949 0.678431
-47.529236 172.815857 0.000027 0.533715
-53.037468 177.145752 0.000020 0.531212
-56.105278 179.557297 0.000015 0.515038
-58.063820 181.096863 0.000013 0.558877
-59.425083 182.166916 0.000011 0.536431
-60.428001 182.955292 0.000010 0.524987
-41.356754 167.675919 10.121099 0.796078
-41.356758 167.675919 9.002317 0.550851
-41.356754 167.675919 7.899245 0.581552
-41.356754 167.675919 6.809237 0.854749
-41.356758 167.675919 5.729764 0.611765
-41.356758 167.675919 4.658390 0.704662
-41.280678 167.615250 3.597533 0.678431
-41.280678 167.615250 2.532131 0.678431
-41.280678 167.615250 1.467869 0.678431
-41.280678 167.615250 0.402466 0.678431
-47.634941 172.682358 0.000027 0.541176
-53.112808 177.050598 0.000020 0.510140
-56.163708 179.483490 0.000015 0.548409
-58.111458 181.036697 0.000013 0.506828
-59.465214 182.116226 0.000011 0.547692
-60.462605 182.911591 0.000010 0.550698
-41.536835 167.530457 10.108747 0.927657
-41.536835 167.530472 8.991666 0.457938
-41.536831 167.530457 7.890274 0.446708
-41.536835 167.530457 6.801922 0.592004
-41.536835 167.530472 5.724090 0.695094
-41.536835 167.530457 4.654346 0.751110
-41.461296 167.469360 3.595104 0.678431
-41.461296 167.469360 2.531322 0.678431
-41.461296 167.469360 1.468679 0.678431
-41.461296 167.469360 0.404896 0.678431
-47.741570 172.549591 0.000027 0.537209
-53.188805 176.955963 0.000019 0.549218
-56.222649 179.410110 0.000016 0.531624
-58.159508 180.976868 0.000013 0.518044
-59.505695 182.065826 0.000011 0.569436
-60.497509 182.868118 0.000009 0.546807
-41.716381 167.385452 10.096822 0.589624
-41.716377 167.385452 8.981385 0.578637
-41.716377 167.385437 7.881611 0.614878
-41.716385 167.385452 6.794860 0.573007
-41.716385 167.385452 5.718614 0.905669
-41.716381 167.385452 4.650443 0.678431
-41.641376 167.323898 3.592759 0.678431
-41.641376 167.323914 2.530540 0.678431
-41.641380 167.323914 1.469460 0.678431
-41.641380 167.323914 0.407241 0.678431
-47.849129 172.417587 0.000027 0.537102
-53.265472 176.861877 0.000020 0.536736
-56.282104 179.337128 0.000016 0.540063
-58.207973 180.917374 0.000013 0.534981
-59.546528 182.015701 0.000011 0.505241
-60.532715 182.824905 0.000009 0.538766
-41.895401 167.240845 10.085327 0.640528
-41.895405 167.240860 8.971475 0.504128
-41.895409 167.240845 7.873259 0.623255
-41.895405 167.240860 6.788053 0.721798
-41.895405 167.240860 5.713335 0.822309
-41.895401 167.240845 4.646680 0.424018
-41.820942 167.178879 3.590497 0.670390
-41.820946 167.178879 2.529787 0.678431
-41.820946 167.178879 1.470213 0.678431
-41.820942 167.178879 0.409503 0.678431
-47.957596 172.286316 0.000027 0.533211
-53.342785 176.768326 0.000020 0.546532
-56.342064 179.264572 0.000015 0.532128
-58.256855 180.858231 0.000013 0.522911
-59.587711 181.965881 0.000011 0.561990
-60.568226 182.781937 0.000010 0.559213
-42.073936 167.096649 10.074258 0.541466
-42.073929 167.096649 8.961931 0.656641
-42.073936 167.096664 7.865220 0.560784
-42.073936 167.096664 6.781497 0.908278
-42.073936 167.096664 5.708251 0.393805
-42.073936 167.096649 4.643057 0.712062
-42.019459 167.050674 3.587068 0.088670
-42.019463 167.050674 2.528645 0.094118
-42.019463 167.050674 1.471355 0.094118
-42.019459 167.050674 0.412931 0.050492
-48.066990 172.155823 0.000028 0.548440
-53.420750 176.675308 0.000020 0.526925
-56.402531 179.192444 0.000016 0.530755
-58.306152 180.799423 0.000013 0.525887
-59.629238 181.916321 0.000011 0.487068
-60.604034 182.739227 0.000009 0.576989
-42.105194 166.827164 10.112015 0.678431
-42.105194 166.827179 8.994485 0.678431
-42.251984 166.952850 7.857485 0.760342
-42.105194 166.827179 6.803858 0.678431
-42.105198 166.827179 5.725591 0.678431
-42.105202 166.827179 4.655416 0.678431
-42.178585 166.890015 3.586225 0.678431
-42.178581 166.889999 2.528365 0.678431
-42.178581 166.889999 1.471636 0.678431
-42.178581 166.890015 0.413774 0.678431
-48.177284 172.026077 0.000028 0.542062
-53.499367 176.582840 0.000020 0.530114
-56.463501 179.120728 0.000016 0.543709
-58.355854 180.740952 0.000013 0.546777
-59.671112 181.867081 0.000011 0.555795
-60.640137 182.696747 0.000010 0.530709
-42.283836 166.682861 10.101729 0.678431
-42.283844 166.682877 8.985616 0.678431
-42.429565 166.809418 7.850059 0.495918
-42.283852 166.682877 6.797765 0.678431
-42.283852 166.682877 5.720866 0.678431
-42.283852 166.682877 4.652049 0.678431
-42.356705 166.746140 3.584214 0.666667
-42.356705 166.746140 2.527694 0.666667
-42.356705 166.746140 1.472306 0.666667
-42.356705 166.746140 0.415786 0.678431
-48.288483 171.897125 0.000027 0.541360
-53.578629 176.490921 0.000020 0.548989
-56.524967 179.049438 0.000016 0.532784
-58.405968 180.682846 0.000013 0.507332
-59.713329 181.818115 0.000011 0.533013
-60.676540 182.654541 0.000010 0.543954
-42.462059 166.538940 10.091859 0.678431
-42.462059 166.538940 8.977105 0.678431
-42.606716 166.666336 7.842930 0.521935
-42.462059 166.538940 6.791920 0.678431
-42.462059 166.538940 5.716334 0.678431
-42.462059 166.538940 4.648817 0.678431
-42.534386 166.602631 3.582284 0.678431
-42.534386 166.602631 2.527051 0.678431
-42.534386 166.602631 1.472949 0.678431
-42.534386 166.602646 0.417716 0.678431
-48.400578 171.768936 0.000027 0.535302
-53.658524 176.399567 0.000020 0.534844
-56.586933 178.978577 0.000016 0.538689
-58.456478 180.625076 0.000013 0.541726
-59.755886 181.769455 0.000011 0.483085
-60.713234 182.612579 0.000010 0.547753
-42.783440 166.523605 10.034181 0.464485
-42.783447 166.523605 8.927374 0.667277
-42.783440 166.523605 7.836107 0.425055
-42.783440 166.523605 6.757764 0.482658
-42.783440 166.523605 5.689844 0.448035
-42.783440 166.523590 4.629938 0.779828
-42.711639 166.459473 3.580436 0.678431
-42.711639 166.459473 2.526436 0.678431
-42.711639 166.459473 1.473564 0.678431
-42.711643 166.459473 0.419564 0.678431
-48.513569 171.641541 0.000027 0.536004
-53.739052 176.308762 0.000020 0.531609
-56.649391 178.908157 0.000016 0.549538
-58.507397 180.567657 0.000013 0.546380
-59.798782 181.721085 0.000011 0.534157
-60.750217 182.570877 0.000009 0.518853
-42.959763 166.381195 10.025198 0.574868
-42.959763 166.381195 8.919630 0.462409
-42.959759 166.381195 7.829583 0.630030
-42.959755 166.381180 6.752446 0.540047
-42.959759 166.381195 5.685719 0.727489
-42.959763 166.381195 4.626997 0.531929
-42.888489 166.316635 3.578669 0.415625
-42.888489 166.316635 2.525848 0.431434
-42.888489 166.316635 1.474153 0.431434
-42.888489 166.316635 0.421330 0.628550
-48.627449 171.514938 0.000028 0.538689
-53.820217 176.218521 0.000020 0.539712
-56.712334 178.838181 0.000016 0.526116
-58.558712 180.510620 0.000013 0.544137
-59.842014 181.673019 0.000011 0.576486
-60.787498 182.529434 0.000010 0.538857
-43.135700 166.239090 10.016626 0.595987
-43.135696 166.239090 8.912239 0.301106
-43.135693 166.239090 7.823357 0.398474
-43.135693 166.239090 6.747371 0.486900
-43.135693 166.239090 5.681784 0.690990
-43.135696 166.239090 4.624192 0.418509
-43.064953 166.174103 3.576983 0.678431
-43.064957 166.174103 2.525285 0.678431
-43.064957 166.174103 1.474715 0.678431
-43.064953 166.174103 0.423017 0.678431
-48.742207 171.389130 0.000028 0.541009
-53.902012 176.128845 0.000020 0.539101
-56.775772 178.768631 0.000016 0.562295
-58.610424 180.453918 0.000013 0.557061
-59.885582 181.625259 0.000011 0.565408
-60.825062 182.488251 0.000010 0.523445
-43.311268 166.097290 10.008463 0.591119
-43.311260 166.097275 8.905201 0.697536
-43.311260 166.097275 7.817427 0.432074
-43.311256 166.097275 6.742537 0.550088
-43.311256 166.097275 5.678035 0.380255
-43.311256 166.097275 4.621521 0.417029
-43.241043 166.031876 3.575377 0.666667
-43.241043 166.031876 2.524750 0.666667
-43.241043 166.031876 1.475249 0.666667
-43.241043 166.031876 0.424622 0.678431
-48.857830 171.264130 0.000027 0.550576
-53.984428 176.039749 0.000020 0.550057
-56.839691 178.699539 0.000016 0.520882
-58.662533 180.397583 0.000013 0.570413
-59.929482 181.577805 0.000011 0.574868
-60.862915 182.447327 0.000010 0.541543
-43.486477 165.955750 10.000710 0.373907
-43.486481 165.955750 8.898514 0.619776
-43.486481 165.955750 7.811793 0.487922
-43.486481 165.955765 6.737943 0.491127
-43.486481 165.955750 5.674473 0.519966
-43.486481 165.955750 4.618981 0.502556
-43.416786 165.889923 3.573851 0.664027
-43.416790 165.889923 2.524242 0.664027
-43.416790 165.889923 1.475757 0.659556
-43.416786 165.889923 0.426148 0.658213
-48.974339 171.139938 0.000028 0.538674
-54.067471 175.951233 0.000021 0.529122
-56.904087 178.630890 0.000016 0.562524
-58.715034 180.341629 0.000013 0.518013
-59.973713 181.530655 0.000011 0.500832
-60.901051 182.406677 0.000009 0.557534
-43.661369 165.814514 9.993355 0.420142
-43.661369 165.814499 8.892174 0.551705
-43.661362 165.814499 7.806452 0.568063
-43.661366 165.814499 6.733591 0.620874
-43.661369 165.814499 5.671095 0.418448
-43.661369 165.814514 4.616574 0.763287
-43.592205 165.748245 3.572404 0.410117
-43.592209 165.748245 2.523761 0.455070
-43.592209 165.748245 1.476239 0.455070
-43.592201 165.748245 0.427594 0.678431
-49.091709 171.016571 0.000028 0.527901
-54.151123 175.863297 0.000020 0.549996
-56.968964 178.562683 0.000016 0.570932
-58.767921 180.286026 0.000013 0.518868
-60.018269 181.483810 0.000011 0.513497
-60.939468 182.366287 0.000010 0.556527
-43.835941 165.673492 9.986406 0.450553
-43.835941 165.673492 8.886181 0.515618
-43.835938 165.673492 7.801404 0.518807
-43.835938 165.673492 6.729474 0.776471
-43.835941 165.673492 5.667904 0.471824
-43.835938 165.673492 4.614300 0.550057
-43.767307 165.606827 3.571038 0.678431
-43.767303 165.606827 2.523305 0.678431
-43.767303 165.606827 1.476694 0.678431
-43.767307 165.606827 0.428962 0.678431
-49.209930 170.894012 0.000028 0.536294
-54.235390 175.775955 0.000021 0.537240
-57.034317 178.494949 0.000016 0.560159
-58.821198 180.230804 0.000013 0.526741
-60.063152 181.437286 0.000011 0.542611
-60.978172 182.326172 0.000010 0.550301
-43.873985 165.398529 10.027760 0.678431
-43.873993 165.398529 8.921835 0.678431
-44.010223 165.532730 7.796645 0.794553
-43.873993 165.398529 6.753961 0.678431
-43.873993 165.398529 5.686895 0.678431
-43.873993 165.398529 4.627835 0.678431
-43.942108 165.465637 3.569750 0.678431
-43.942108 165.465637 2.522876 0.678431
-43.942108 165.465637 1.477124 0.678431
-43.942108 165.465637 0.430251 0.678431
-49.329010 170.772293 0.000028 0.544381
-54.320263 175.689194 0.000021 0.539178
-57.100140 178.427658 0.000016 0.545602
-58.874859 180.175949 0.000013 0.552422
-60.108360 181.391068 0.000011 0.552743
-61.017151 182.286331 0.000010 0.533196
-44.049042 165.257141 10.021568 0.678431
-44.049042 165.257156 8.916498 0.678431
-44.184227 165.392197 7.792177 0.533440
-44.049042 165.257156 6.750297 0.678431
-44.049049 165.257156 5.684051 0.678431
-44.049042 165.257156 4.625809 0.678431
-44.116631 165.324677 3.568540 0.678431
-44.116631 165.324661 2.522473 0.678431
-44.116631 165.324661 1.477527 0.678431
-44.116631 165.324677 0.431460 0.678431
-49.448933 170.651398 0.000028 0.550652
-54.405735 175.603027 0.000020 0.540993
-57.166428 178.360840 0.000016 0.568673
-58.928902 180.121475 0.000013 0.546456
-60.153889 181.345184 0.000011 0.523949
-61.056404 182.246750 0.000010 0.522515
-44.223835 165.115982 10.015779 0.678431
-44.223831 165.115982 8.911510 0.678431
-44.357971 165.251862 7.787997 0.459922
-44.223831 165.115982 6.746870 0.678431
-44.223831 165.115982 5.681394 0.678431
-44.223831 165.115967 4.623916 0.678431
-44.290894 165.183914 3.567408 0.678431
-44.290894 165.183914 2.522096 0.678431
-44.290897 165.183914 1.477904 0.678431
-44.290897 165.183914 0.432592 0.678431
-49.569695 170.531342 0.000028 0.555703
-54.491810 175.517456 0.000020 0.540520
-57.233185 178.294479 0.000016 0.537713
-58.983322 180.067368 0.000013 0.525048
-60.199738 181.299606 0.000011 0.507881
-61.095940 182.207458 0.000009 0.488487
-44.531483 165.111725 9.962593 0.619120
-44.531479 165.111725 8.865650 0.355261
-44.531479 165.111725 7.784107 0.498436
-44.531479 165.111725 6.715373 0.401648
-44.531471 165.111725 5.656969 0.435523
-44.531475 165.111725 4.606504 0.392355
-44.464920 165.043365 3.566354 0.678431
-44.464920 165.043365 2.521746 0.678431
-44.464920 165.043365 1.478255 0.678431
-44.464924 165.043365 0.433646 0.678431
-49.691299 170.412140 0.000028 0.533639
-54.578484 175.432495 0.000020 0.539406
-57.300400 178.228577 0.000016 0.553979
-59.038120 180.013657 0.000013 0.528847
-60.245903 181.254349 0.000011 0.565240
-61.135742 182.168427 0.000009 0.520531
-44.704758 164.971771 9.957632 0.505577
-44.704754 164.971771 8.861372 0.482506
-44.704758 164.971771 7.780502 0.595758
-44.704754 164.971771 6.712433 0.715999
-44.704758 164.971771 5.654689 0.597360
-44.704754 164.971771 4.604881 0.521202
-44.638718 164.902985 3.565378 0.678431
-44.638718 164.902985 2.521420 0.678431
-44.638718 164.902985 1.478580 0.678431
-44.638718 164.902985 0.434622 0.678431
-49.813728 170.293793 0.000028 0.524651
-54.665745 175.348145 0.000021 0.519234
-57.368073 178.163162 0.000016 0.532052
-59.093292 179.960327 0.000013 0.495644
-60.292381 181.209412 0.000011 0.541146
-61.175819 182.129684 0.000010 0.525780
-44.877823 164.831985 9.953066 0.529290
-44.877823 164.831985 8.857433 0.511070
-44.877823 164.831985 7.777184 0.812680
-44.877823 164.831985 6.709729 0.542123
-44.877823 164.831985 5.652592 0.588235
-44.877823 164.831985 4.603385 0.675731
-44.812305 164.762772 3.564479 0.678431
-44.812309 164.762787 2.521121 0.678431
-44.812309 164.762787 1.478880 0.678431
-44.812309 164.762772 0.435520 0.678431
-49.936981 170.176300 0.000028 0.550271
-54.753597 175.264404 0.000021 0.545327
-57.436207 178.098221 0.000016 0.548821
-59.148834 179.907379 0.000013 0.553811
-60.339172 181.164810 0.000011 0.500160
-61.216167 182.091232 0.000010 0.536995
-45.050705 164.692352 9.948890 0.472877
-45.050701 164.692352 8.853833 0.626566
-45.050705 164.692352 7.774151 0.560784
-45.050705 164.692352 6.707257 0.779049
-45.050701 164.692352 5.650673 0.510536
-45.050705 164.692352 4.602019 0.636515
-44.985710 164.622726 3.563658 0.678431
-44.985710 164.622726 2.520846 0.678431
-44.985710 164.622726 1.479153 0.678431
-44.985710 164.622726 0.436342 0.678431
-50.061058 170.059662 0.000028 0.527108
-54.842026 175.181259 0.000020 0.527337
-57.504791 178.033752 0.000016 0.532799
-59.204742 179.854813 0.000013 0.555154
-60.386280 181.120529 0.000011 0.549157
-61.256783 182.053055 0.000010 0.564370
-45.223408 164.552856 9.945106 0.566125
-45.223404 164.552856 8.850571 0.583658
-45.223408 164.552856 7.771401 0.779828
-45.223404 164.552856 6.705016 0.730571
-45.223408 164.552856 5.648935 0.576989
-45.223408 164.552856 4.600780 0.566461
-45.158936 164.482819 3.562913 0.678431
-45.158936 164.482819 2.520599 0.678431
-45.158936 164.482819 1.479401 0.678431
-45.158936 164.482819 0.437087 0.678431
-50.185932 169.943909 0.000028 0.546456
-54.931034 175.098755 0.000021 0.540612
-57.573822 177.969757 0.000016 0.538277
-59.261017 179.802643 0.000013 0.509590
-60.433689 181.076584 0.000011 0.520668
-61.297661 182.015152 0.000010 0.546334
-45.395958 164.413483 9.941709 0.501732
-45.395958 164.413483 8.847643 0.885466
-45.395958 164.413483 7.768937 0.538094
-45.395954 164.413483 6.703005 0.609354
-45.395958 164.413483 5.647376 0.660136
-45.395958 164.413483 4.599669 0.528069
-45.332001 164.343018 3.562245 0.678431
-45.332001 164.343033 2.520376 0.658213
-45.332001 164.343033 1.479623 0.658213
-45.332001 164.343018 0.437754 0.658213
-50.311619 169.829025 0.000028 0.544747
-55.020615 175.016876 0.000020 0.528786
-57.643295 177.906250 0.000016 0.512016
-59.317657 179.750870 0.000013 0.528130
-60.481403 181.032959 0.000011 0.553704
-61.338802 181.977554 0.000010 0.550851
-45.568371 164.274231 9.938707 0.665415
-45.568367 164.274231 8.845055 0.800732
-45.568367 164.274231 7.766754 0.428428
-45.568367 164.274231 6.701226 0.419608
-45.568367 164.274231 5.645997 0.681697
-45.568367 164.274231 4.598684 0.397543
-45.504929 164.203354 3.561655 0.678431
-45.504929 164.203354 2.520180 0.678431
-45.504929 164.203354 1.479820 0.678431
-45.504929 164.203354 0.438345 0.678431
-50.438103 169.715012 0.000028 0.549264
-55.110767 174.935608 0.000020 0.530465
-57.713215 177.843231 0.000016 0.543679
-59.374660 179.699493 0.000014 0.586511
-60.529427 180.989685 0.000011 0.548211
-61.380211 181.940231 0.000010 0.509041
-45.614815 163.992477 9.983728 0.678431
-45.614815 163.992477 8.883873 0.678431
-45.740662 164.135071 7.764853 0.556344
-45.614819 163.992493 6.727888 0.678431
-45.614815 163.992477 5.666675 0.678431
-45.614815 163.992477 4.613423 0.678431
-45.677742 164.063782 3.561140 0.678431
-45.677742 164.063782 2.520008 0.678431
-45.677742 164.063782 1.479992 0.678431
-45.677742 164.063782 0.438860 0.678431
-50.565388 169.601898 0.000029 0.547341
-55.201488 174.854980 0.000020 0.553429
-57.783569 177.780701 0.000016 0.510948
-59.432014 179.648529 0.000013 0.563912
-60.577747 180.946732 0.000011 0.528664
-61.421875 181.903198 0.000010 0.558206
-45.788036 163.852570 9.981489 0.678431
-45.788033 163.852570 8.881941 0.678431
-45.912849 163.996002 7.763235 0.567376
-45.788040 163.852585 6.726561 0.678431
-45.788040 163.852585 5.665644 0.678431
-45.788033 163.852570 4.612690 0.678431
-45.850441 163.924286 3.560701 0.678431
-45.850441 163.924286 2.519863 0.678431
-45.850441 163.924286 1.480138 0.678431
-45.850441 163.924286 0.439298 0.678431
-50.693451 169.489655 0.000028 0.533242
-55.292770 174.774994 0.000021 0.519326
-57.854359 177.718658 0.000016 0.542473
-59.489723 179.597946 0.000013 0.546715
-60.626366 180.904129 0.000011 0.505699
-61.463795 181.866455 0.000010 0.538293
-45.961166 163.712738 9.979635 0.678431
-45.961166 163.712738 8.880345 0.678431
-46.084938 163.856995 7.761900 0.820203
-45.961166 163.712738 6.725465 0.678431
-45.961174 163.712753 5.664793 0.678431
-45.961174 163.712753 4.612083 0.678431
-46.023056 163.784866 3.560340 0.632227
-46.023056 163.784882 2.519742 0.632227
-46.023056 163.784882 1.480258 0.639002
-46.023056 163.784866 0.439660 0.639002
-50.822292 169.378326 0.000028 0.534295
-55.384602 174.695633 0.000021 0.540337
-57.925583 177.657120 0.000016 0.555261
-59.547787 179.547775 0.000013 0.551781
-60.675282 180.861862 0.000011 0.521782
-61.505970 181.830017 0.000009 0.547906
-46.256962 163.718048 9.930573 0.640314
-46.256966 163.718048 8.838039 0.554757
-46.256966 163.718063 7.760844 0.645884
-46.256969 163.718063 6.696409 0.813596
-46.256966 163.718048 5.642261 0.575723
-46.256966 163.718063 4.596023 0.571313
-46.195595 163.645508 3.560054 0.678431
-46.195595 163.645508 2.519647 0.678431
-46.195595 163.645508 1.480354 0.678431
-46.195595 163.645508 0.439945 0.678431
-50.951916 169.267899 0.000029 0.534752
-55.476986 174.616928 0.000020 0.565087
-57.997231 177.596069 0.000016 0.535317
-59.606197 179.498016 0.000013 0.528786
-60.724491 180.819931 0.000011 0.564050
-61.548401 181.793869 0.000009 0.529564
-46.428932 163.579163 9.929508 0.611765
-46.428932 163.579163 8.837121 0.601114
-46.428936 163.579163 7.760071 0.750408
-46.428940 163.579163 6.695777 0.740749
-46.428940 163.579163 5.641771 0.568627
-46.428936 163.579163 4.595675 0.574289
-46.384098 163.525391 3.558616 0.094118
-46.384094 163.525391 2.519168 0.094118
-46.384094 163.525391 1.480833 0.094118
-46.384094 163.525391 0.441383 0.094118
-51.082302 169.158371 0.000028 0.539956
-55.569923 174.538864 0.000021 0.545022
-58.069305 177.535538 0.000016 0.539101
-59.664955 179.448654 0.000013 0.556435
-60.773994 180.778351 0.000011 0.508614
-61.591084 181.758011 0.000010 0.542901
-46.600868 163.440292 9.928829 0.550515
-46.600868 163.440277 8.836536 0.905882
-46.600872 163.440292 7.759577 0.678431
-46.600872 163.440292 6.695376 0.592157
-46.600868 163.440292 5.641460 0.525490
-46.600876 163.440292 4.595451 0.575891
-46.540527 163.366913 3.559711 0.678431
-46.540527 163.366913 2.519533 0.678431
-46.540527 163.366913 1.480468 0.678431
-46.540527 163.366913 0.440288 0.678431
-51.213448 169.049759 0.000028 0.554788
-55.663399 174.461456 0.000020 0.544762
-58.141804 177.475494 0.000016 0.560815
-59.724056 179.399719 0.000013 0.519127
-60.823780 180.737122 0.000011 0.529885
-61.634014 181.722458 0.000010 0.558846
-46.772781 163.301437 9.928534 0.680735
-46.772781 163.301437 8.836281 0.805707
-46.772781 163.301437 7.759365 0.435233
-46.772781 163.301437 6.695202 0.419608
-46.772781 163.301437 5.641325 0.622827
-46.772781 163.301437 4.595356 0.409689
-46.712959 163.227646 3.559654 0.654627
-46.712952 163.227646 2.519513 0.647807
-46.712952 163.227646 1.480487 0.450507
-46.712959 163.227646 0.440346 0.450507
-51.345348 168.942062 0.000028 0.533074
-55.757412 174.384689 0.000020 0.546563
-58.214714 177.415970 0.000016 0.555810
-59.783493 179.351181 0.000013 0.505745
-60.873863 180.696228 0.000011 0.552377
-61.677193 181.687210 0.000009 0.569680
-46.944695 163.162598 9.928627 0.826047
-46.944687 163.162598 8.836365 0.365255
-46.944687 163.162598 7.759434 0.604593
-46.944691 163.162598 6.695259 0.259922
-46.944691 163.162598 5.641369 0.491386
-46.944695 163.162598 4.595386 0.565209
-46.885376 163.088379 3.559673 0.678431
-46.885376 163.088379 2.519520 0.678431
-46.885376 163.088379 1.480481 0.678431
-46.885376 163.088379 0.440327 0.678431
-51.478004 168.835297 0.000028 0.533303
-55.851959 174.308594 0.000020 0.542763
-58.288040 177.356949 0.000016 0.552621
-59.843269 179.303070 0.000013 0.536248
-60.924221 180.655701 0.000011 0.558846
-61.720615 181.652252 0.000009 0.532265
-47.116608 163.023727 9.929111 0.616754
-47.116608 163.023727 8.836778 0.435355
-47.116608 163.023727 7.759784 0.547509
-47.116608 163.023727 6.695544 0.776471
-47.116608 163.023727 5.641590 0.594675
-47.116611 163.023727 4.595544 0.658701
-47.057816 162.949097 3.559767 0.678431
-47.057816 162.949097 2.519551 0.678431
-47.057816 162.949097 1.480449 0.678431
-47.057816 162.949097 0.440233 0.678431
-51.611404 168.729462 0.000029 0.527398
-55.947041 174.233154 0.000021 0.547250
-58.361778 177.298447 0.000016 0.556344
-59.903385 179.255371 0.000013 0.537118
-60.974865 180.615509 0.000011 0.578546
-61.764282 181.617615 0.000010 0.516670
-47.288555 162.884857 9.929978 0.715633
-47.288559 162.884857 8.837525 0.466911
-47.288551 162.884842 7.760416 0.868605
-47.288551 162.884842 6.696058 0.559442
-47.288559 162.884857 5.641988 0.682689
-47.288559 162.884857 4.595828 0.659358
-47.230286 162.809799 3.559937 0.678431
-47.230282 162.809799 2.519608 0.678431
-47.230282 162.809799 1.480392 0.678431
-47.230286 162.809814 0.440063 0.678431
-51.745529 168.624557 0.000029 0.539010
-56.042641 174.158386 0.000021 0.557382
-58.435921 177.240448 0.000016 0.539147
-59.963829 179.208099 0.000013 0.538613
-61.025787 180.575684 0.000011 0.550988
-61.808189 181.583267 0.000010 0.572259
-47.345032 162.595001 9.978841 0.678431
-47.345032 162.595001 8.879658 0.678431
-47.460556 162.745926 7.761325 0.691798
-47.345032 162.595001 6.724993 0.678431
-47.345039 162.595001 5.664428 0.678431
-47.345032 162.595001 4.611823 0.678431
-47.402798 162.670471 3.560184 0.498711
-47.402794 162.670471 2.519690 0.490440
-47.402794 162.670471 1.480310 0.541543
-47.402794 162.670471 0.439816 0.524086
-51.880394 168.520584 0.000029 0.538140
-56.138763 174.084274 0.000020 0.524269
-58.510464 177.182983 0.000016 0.526116
-60.024601 179.161240 0.000013 0.546014
-61.076984 180.536224 0.000011 0.522225
-61.852333 181.549240 0.000009 0.488472
-47.518124 162.455200 9.980492 0.678431
-47.518124 162.455200 8.881083 0.678431
-47.632607 162.606949 7.762518 0.806714
-47.518127 162.455200 6.725970 0.678431
-47.518127 162.455200 5.665187 0.678431
-47.518127 162.455200 4.612363 0.678431
-47.575371 162.531082 3.560507 0.678431
-47.575371 162.531082 2.519798 0.678431
-47.575371 162.531082 1.480203 0.678431
-47.575371 162.531082 0.439493 0.678431
-52.015976 168.417557 0.000028 0.540108
-56.235401 174.010849 0.000021 0.551217
-58.585411 177.126038 0.000016 0.537408
-60.085701 179.114822 0.000013 0.529915
-61.128456 180.497101 0.000011 0.521233
-61.896717 181.515503 0.000009 0.562661
-47.691292 162.315323 9.982533 0.678431
-47.691299 162.315338 8.882840 0.678431
-47.804749 162.467926 7.763990 0.678431
-47.691292 162.315323 6.727180 0.678431
-47.691296 162.315323 5.666125 0.678431
-47.691292 162.315323 4.613031 0.678431
-47.748024 162.391632 3.560906 0.678431
-47.748024 162.391632 2.519930 0.678431
-47.748024 162.391632 1.480069 0.678431
-47.748024 162.391632 0.439093 0.678431
-52.152271 168.315491 0.000028 0.543847
-56.332546 173.938095 0.000021 0.534752
-58.660751 177.069611 0.000016 0.532738
-60.147121 179.068817 0.000013 0.521889
-61.180202 180.458359 0.000011 0.523430
-61.941334 181.482101 0.000010 0.550408
-47.976982 162.328812 9.937319 0.623178
-47.976990 162.328827 8.843853 0.820218
-47.976982 162.328812 7.765746 0.444480
-47.976982 162.328812 6.700405 0.515709
-47.976982 162.328812 5.645359 0.642466
-47.976982 162.328827 4.598231 0.434501
-47.920773 162.252106 3.561382 0.678431
-47.920773 162.252106 2.520088 0.678431
-47.920773 162.252106 1.479911 0.678431
-47.920769 162.252106 0.438618 0.678431
-52.289280 168.214371 0.000029 0.542535
-56.430199 173.866013 0.000021 0.531899
-58.736485 177.013718 0.000016 0.517449
-60.208862 179.023254 0.000013 0.531273
-61.232216 180.419968 0.000011 0.524056
-61.986183 181.448990 0.000010 0.573739
-48.149323 162.189606 9.940125 0.700008
-48.149330 162.189606 8.846275 0.368215
-48.149330 162.189621 7.767783 0.650202
-48.149323 162.189606 6.702067 0.225177
-48.149326 162.189606 5.646648 0.482353
-48.149326 162.189606 4.599148 0.616358
-48.093639 162.112488 3.561933 0.678431
-48.093636 162.112488 2.520273 0.678431
-48.093636 162.112488 1.479727 0.678431
-48.093639 162.112488 0.438067 0.678431
-52.426987 168.114197 0.000029 0.536339
-56.528351 173.794632 0.000021 0.552728
-58.812607 176.958344 0.000016 0.510445
-60.270916 178.978119 0.000013 0.548272
-61.284500 180.381943 0.000011 0.542626
-62.031261 181.416214 0.000009 0.569757
-48.321804 162.050293 9.943320 0.528084
-48.321808 162.050308 8.849030 0.428687
-48.321808 162.050308 7.770103 0.574075
-48.321808 162.050308 6.703958 0.810117
-48.321808 162.050308 5.648114 0.536950
-48.321808 162.050308 4.600195 0.501320
-48.266640 161.972763 3.562561 0.678431
-48.266632 161.972748 2.520482 0.678431
-48.266632 161.972748 1.479518 0.678431
-48.266636 161.972748 0.437438 0.678431
-52.565392 168.015015 0.000029 0.539162
-56.626999 173.723923 0.000021 0.536812
-58.889114 176.903519 0.000016 0.526116
-60.333286 178.933411 0.000013 0.506722
-61.337044 180.344269 0.000011 0.566720
-62.076569 181.383728 0.000009 0.524407
-48.494431 161.910873 9.946903 0.583154
-48.494431 161.910873 8.852119 0.390814
-48.494427 161.910873 7.772709 0.799771
-48.494431 161.910873 6.706080 0.575662
-48.494431 161.910873 5.649761 0.655375
-48.494431 161.910889 4.601368 0.610559
-48.439777 161.832916 3.563266 0.678431
-48.439777 161.832916 2.520717 0.678431
-48.439777 161.832916 1.479283 0.678431
-48.439781 161.832916 0.436733 0.678431
-52.704487 167.916779 0.000029 0.528359
-56.726143 173.653915 0.000021 0.545251
-58.966003 176.849213 0.000016 0.539422
-60.395969 178.889145 0.000013 0.542702
-61.389851 180.306976 0.000011 0.552514
-62.122101 181.351578 0.000009 0.529427
-48.667213 161.771301 9.950880 0.608469
-48.667213 161.771317 8.855548 0.633127
-48.667217 161.771317 7.775596 0.734630
-48.667221 161.771317 6.708434 0.837934
-48.667221 161.771317 5.651586 0.594324
-48.667221 161.771317 4.602670 0.582162
-48.613083 161.692932 3.564049 0.678431
-48.613083 161.692932 2.520977 0.678431
-48.613083 161.692932 1.479023 0.678431
-48.613083 161.692932 0.435951 0.678431
-52.844265 167.819519 0.000029 0.537789
-56.825768 173.584595 0.000021 0.535042
-59.043266 176.795456 0.000016 0.543328
-60.458954 178.845322 0.000013 0.571038
-61.442913 180.270050 0.000011 0.540734
-62.167854 181.319748 0.000010 0.508003
-48.840187 161.631607 9.955248 0.535698
-48.840191 161.631607 8.859314 0.668681
-48.840187 161.631607 7.778770 0.835660
-48.840195 161.631607 6.711020 0.613108
-48.840195 161.631607 5.653592 0.568627
-48.840195 161.631607 4.604098 0.729274
-48.800686 161.573547 3.563676 0.092821
-48.800682 161.573532 2.520853 0.091295
-48.800686 161.573547 1.479147 0.094118
-48.800686 161.573547 0.436324 0.094118
-52.984718 167.723251 0.000029 0.534630
-56.925877 173.515976 0.000021 0.538369
-59.120903 176.742233 0.000016 0.534386
-60.522251 178.801941 0.000013 0.527993
-61.496239 180.233505 0.000011 0.565560
-62.213833 181.288223 0.000009 0.550576
-49.013359 161.491730 9.960007 0.321553
-49.013359 161.491730 8.863420 0.860410
-49.013359 161.491730 7.782227 0.655131
-49.013363 161.491745 6.713839 0.592157
-49.013359 161.491745 5.655780 0.526101
-49.013363 161.491745 4.605658 0.533333
-48.960266 161.412506 3.565845 0.678431
-48.960262 161.412506 2.521576 0.678431
-48.960262 161.412506 1.478425 0.678431
-48.960266 161.412506 0.434155 0.678431
-53.125835 167.627945 0.000029 0.527779
-57.026459 173.448059 0.000021 0.549279
-59.198910 176.689560 0.000016 0.531441
-60.585842 178.758987 0.000013 0.536736
-61.549816 180.197327 0.000011 0.537743
-62.260025 181.257034 0.000009 0.546044
-49.081585 161.192398 10.012974 0.678431
-49.081589 161.192398 8.909088 0.678431
-49.186745 161.351700 7.785971 0.458335
-49.081589 161.192398 6.745207 0.678431
-49.081589 161.192398 5.680106 0.678431
-49.081589 161.192398 4.622995 0.678431
-49.148003 161.293015 3.565625 0.094118
-49.148010 161.293015 2.521501 0.094118
-49.148010 161.293015 1.478498 0.084855
-49.148006 161.293015 0.434375 0.094118
-53.267624 167.533646 0.000029 0.553811
-57.127514 173.380829 0.000021 0.552224
-59.277287 176.637421 0.000016 0.540108
-60.649734 178.716492 0.000013 0.577859
-61.603645 180.161530 0.000011 0.502770
-62.306442 181.226166 0.000009 0.546609
-49.256248 161.051331 10.018557 0.678431
-49.256248 161.051331 8.913902 0.678431
-49.360367 161.211472 7.790002 0.647059
-49.256248 161.051331 6.748513 0.678431
-49.256248 161.051331 5.682670 0.678431
-49.256248 161.051331 4.624824 0.678431
-49.308308 161.131393 3.567950 0.678431
-49.308308 161.131393 2.522277 0.678431
-49.308308 161.131393 1.477723 0.678431
-49.308308 161.131393 0.432049 0.678431
-53.410057 167.440323 0.000028 0.544823
-57.229042 173.314316 0.000021 0.537392
-59.356022 176.585846 0.000016 0.533928
-60.713924 178.674438 0.000013 0.566949
-61.657719 180.126099 0.000011 0.502876
-62.353065 181.195618 0.000010 0.548333
-49.431160 160.910049 10.024538 0.678431
-49.431160 160.910065 8.919060 0.678431
-49.534233 161.071045 7.794320 0.558556
-49.431160 160.910049 6.752057 0.678431
-49.431160 160.910049 5.685417 0.678431
-49.431160 160.910049 4.626781 0.678431
-49.493050 161.006714 3.568177 0.403738
-49.493046 161.006714 2.522352 0.403738
-49.493046 161.006714 1.477647 0.316548
-49.493050 161.006714 0.431823 0.103212
-53.553139 167.348007 0.000028 0.531197
-57.331024 173.248520 0.000020 0.536904
-59.435116 176.534821 0.000016 0.533043
-60.778400 178.632843 0.000013 0.528878
-61.712040 180.091049 0.000011 0.531395
-62.399902 181.165390 0.000009 0.559380
-49.708374 160.930389 9.982999 0.643610
-49.708374 160.930405 8.883244 0.400366
-49.708374 160.930389 7.798929 0.699031
-49.708374 160.930405 6.727456 0.610193
-49.708374 160.930389 5.666339 0.655619
-49.708374 160.930389 4.613184 0.767361
-49.657356 160.849472 3.570368 0.678431
-49.657356 160.849472 2.523082 0.678431
-49.657356 160.849472 1.476918 0.678431
-49.657356 160.849472 0.429632 0.678431
-53.696865 167.256683 0.000028 0.541146
-57.433464 173.183426 0.000020 0.541924
-59.514565 176.484329 0.000016 0.548241
-60.843170 178.591690 0.000013 0.565667
-61.766605 180.056381 0.000011 0.529274
-62.446953 181.135498 0.000009 0.526711
-49.882801 160.789520 9.989742 0.514412
-49.882797 160.789520 8.889060 0.603174
-49.882797 160.789520 7.803828 0.713054
-49.882797 160.789520 6.731449 0.784741
-49.882797 160.789520 5.669436 0.568444
-49.882797 160.789520 4.615392 0.728618
-49.845589 160.729584 3.570457 0.086275
-49.845589 160.729584 2.523111 0.094118
-49.845592 160.729584 1.476888 0.137591
-49.845592 160.729584 0.429542 0.094118
-53.841228 167.166367 0.000028 0.542626
-57.536358 173.119064 0.000020 0.537667
-59.594364 176.434418 0.000016 0.517754
-60.908226 178.550995 0.000013 0.535225
-61.821411 180.022095 0.000011 0.533837
-62.494209 181.105942 0.000009 0.538521
-50.057518 160.648392 9.996892 0.678996
-50.057522 160.648392 8.895222 0.518975
-50.057522 160.648392 7.809020 0.703304
-50.057518 160.648392 6.735683 0.500755
-50.057518 160.648392 5.672720 0.432044
-50.057518 160.648392 4.617732 0.837507
-50.007553 160.566620 3.573101 0.678431
-50.007553 160.566620 2.523993 0.678431
-50.007553 160.566620 1.476007 0.678431
-50.007553 160.566635 0.426899 0.678431
-53.986214 167.077072 0.000028 0.538109
-57.639698 173.055420 0.000020 0.523842
-59.674507 176.385056 0.000016 0.540902
-60.973564 178.510742 0.000013 0.525780
-61.876457 179.988190 0.000011 0.518410
-62.541672 181.076706 0.000009 0.480674
-50.232567 160.507004 10.004443 0.406348
-50.232567 160.507004 8.901731 0.694804
-50.232567 160.507004 7.814505 0.540169
-50.232574 160.507004 6.740153 0.461372
-50.232567 160.507004 5.676187 0.598993
-50.232567 160.507004 4.620203 0.489525
-50.196140 160.446442 3.573346 0.094118
-50.196136 160.446442 2.524073 0.094118
-50.196136 160.446442 1.475926 0.094118
-50.196140 160.446442 0.426654 0.094118
-54.131828 166.988800 0.000029 0.529885
-57.743481 172.992493 0.000020 0.540734
-59.754997 176.336243 0.000016 0.554437
-61.039181 178.470963 0.000013 0.533013
-61.931740 179.954681 0.000011 0.528298
-62.589336 181.047806 0.000009 0.517693
-50.407955 160.365356 10.012394 0.739147
-50.407959 160.365356 8.908589 0.285527
-50.407955 160.365341 7.820283 0.491432
-50.407959 160.365356 6.744863 0.543938
-50.407959 160.365356 5.679839 0.691798
-50.407959 160.365356 4.622807 0.416541
-50.359043 160.282745 3.576150 0.678431
-50.359043 160.282745 2.525008 0.678431
-50.359043 160.282745 1.474992 0.678431
-50.359043 160.282745 0.423849 0.678431
-54.278049 166.901520 0.000029 0.531273
-57.847702 172.930283 0.000021 0.539010
-59.835823 176.288010 0.000016 0.546212
-61.105072 178.431641 0.000013 0.548348
-61.987251 179.921539 0.000011 0.529839
-62.637199 181.019241 0.000009 0.519326
-50.583698 160.223404 10.020758 0.552804
-50.583694 160.223389 8.915801 0.736416
-50.583702 160.223404 7.826356 0.573159
-50.583702 160.223404 6.749815 0.479316
-50.583702 160.223404 5.683680 0.394507
-50.583702 160.223404 4.625545 0.651255
-50.535313 160.140366 3.577795 0.678431
-50.535316 160.140366 2.525556 0.678431
-50.535316 160.140366 1.474444 0.678431
-50.535313 160.140366 0.422204 0.678431
-54.424873 166.815277 0.000029 0.537270
-57.952351 172.868820 0.000021 0.572808
-59.916981 176.240341 0.000016 0.546914
-61.171238 178.392776 0.000013 0.551492
-62.042992 179.888794 0.000011 0.522789
-62.685261 180.991013 0.000009 0.534081
-50.759819 160.081146 10.029527 0.435584
-50.759819 160.081146 8.923365 0.478294
-50.759819 160.081146 7.832729 0.534859
-50.759819 160.081146 6.755010 0.459998
-50.759819 160.081146 5.687708 0.463996
-50.759819 160.081146 4.628414 0.548272
-50.711960 159.997681 3.579520 0.678431
-50.711967 159.997696 2.526130 0.678431
-50.711967 159.997696 1.473870 0.678431
-50.711960 159.997681 0.420479 0.678431
-54.572296 166.730057 0.000029 0.532006
-58.057426 172.808075 0.000021 0.562921
-59.998474 176.193222 0.000016 0.525414
-61.237671 178.354370 0.000013 0.507988
-62.098961 179.856445 0.000011 0.509911
-62.733521 180.963104 0.000009 0.534386
-50.841682 159.770813 10.086964 0.678431
-50.841679 159.770798 8.972886 0.678431
-50.936333 159.938583 7.839396 0.465370
-50.841675 159.770798 6.789023 0.678431
-50.841679 159.770798 5.714086 0.678431
-50.841679 159.770798 4.647216 0.678431
-50.889004 159.854691 3.581327 0.678431
-50.889004 159.854691 2.526732 0.678431
-50.889004 159.854691 1.473267 0.678431
-50.889000 159.854691 0.418672 0.678431
-54.720314 166.645874 0.000029 0.543374
-58.162926 172.748062 0.000021 0.546914
-60.080292 176.146698 0.000016 0.531502
-61.304371 178.316437 0.000013 0.541146
-62.155155 179.824478 0.000010 0.555215
-62.781975 180.935547 0.000009 0.530343
-51.019676 159.627060 10.096614 0.678431
-51.019676 159.627060 8.981208 0.678431
-51.113258 159.795685 7.846369 0.549020
-51.019669 159.627045 6.794739 0.678431
-51.019669 159.627045 5.718520 0.678431
-51.019669 159.627045 4.650376 0.678431
-51.066460 159.711349 3.583215 0.678431
-51.066456 159.711349 2.527361 0.678431
-51.066456 159.711349 1.472639 0.678431
-51.066460 159.711349 0.416785 0.678431
-54.868916 166.562714 0.000029 0.545342
-58.268845 172.688797 0.000020 0.542565
-60.162434 176.100723 0.000016 0.511360
-61.371338 178.278961 0.000013 0.542962
-62.211571 179.792923 0.000010 0.526040
-62.830616 180.908325 0.000009 0.499443
-51.198097 159.482941 10.106688 0.656107
-51.198101 159.482941 8.989892 0.654688
-51.290623 159.652435 7.853642 0.422446
-51.198097 159.482925 6.800704 0.659800
-51.198097 159.482941 5.723146 0.659800
-51.198097 159.482941 4.653673 0.678431
-51.244354 159.567673 3.585184 0.678431
-51.244354 159.567673 2.528018 0.678431
-51.244354 159.567673 1.471983 0.678431
-51.244354 159.567673 0.414815 0.678431
-55.018097 166.480606 0.000029 0.546334
-58.375172 172.630280 0.000020 0.536736
-60.244896 176.055344 0.000016 0.538521
-61.438560 178.241959 0.000013 0.537331
-62.268204 179.761749 0.000011 0.560311
-62.879452 180.881454 0.000009 0.510170
-51.468430 159.508804 10.068752 0.568307
-51.468433 159.508820 8.957182 0.520241
-51.468433 159.508820 7.861218 0.616678
-51.468433 159.508820 6.778235 0.531395
-51.468430 159.508820 5.705721 0.905882
-51.468433 159.508820 4.641253 0.557595
-51.422695 159.423615 3.587237 0.678431
-51.422695 159.423630 2.528701 0.678431
-51.422699 159.423630 1.471299 0.678431
-51.422695 159.423615 0.412763 0.678431
-55.167839 166.399536 0.000029 0.545907
-58.481903 172.572495 0.000021 0.533211
-60.327671 176.010529 0.000016 0.552789
-61.506042 178.205429 0.000013 0.524498
-62.325058 179.730957 0.000010 0.538415
-62.928471 180.854919 0.000009 0.498802
-51.646713 159.364822 10.079602 0.563973
-51.646713 159.364822 8.966537 0.369024
-51.646709 159.364822 7.869102 0.518044
-51.646709 159.364822 6.784664 0.759243
-51.646709 159.364822 5.710706 0.785046
-51.646709 159.364822 4.644807 0.420829
-51.601509 159.279205 3.589371 0.678431
-51.601509 159.279205 2.529411 0.678431
-51.601509 159.279205 1.470588 0.666850
-51.601509 159.279205 0.410628 0.658366
-55.318150 166.319519 0.000029 0.534096
-58.589035 172.515457 0.000021 0.547814
-60.410759 175.966293 0.000016 0.558328
-61.573776 178.169357 0.000013 0.530053
-62.382122 179.700592 0.000011 0.543191
-62.977673 180.828720 0.000009 0.509636
-51.825478 159.220428 10.090878 0.500023
-51.825481 159.220428 8.976259 0.688121
-51.825478 159.220428 7.877293 0.604700
-51.825478 159.220428 6.791340 0.822675
-51.825478 159.220428 5.715884 0.358618
-51.825478 159.220428 4.648498 0.458488
-51.780811 159.134369 3.591590 0.569207
-51.780811 159.134369 2.530151 0.565499
-51.780811 159.134369 1.469849 0.565499
-51.780811 159.134369 0.408410 0.585748
-55.469013 166.240540 0.000029 0.539818
-58.696564 172.459167 0.000020 0.535378
-60.494152 175.922638 0.000016 0.549035
-61.641762 178.133774 0.000013 0.534813
-62.439396 179.670609 0.000010 0.540307
-63.027058 180.802872 0.000009 0.549584
-52.004753 159.075623 10.102583 0.562402
-52.004757 159.075638 8.986350 0.601175
-52.004753 159.075638 7.885794 0.532174
-52.004753 159.075623 6.798274 0.716930
-52.004753 159.075623 5.721260 0.420111
-52.004749 159.075623 4.652329 0.547723
-51.960629 158.989136 3.593891 0.678431
-51.960625 158.989136 2.530917 0.678431
-51.960625 158.989136 1.469082 0.678431
-51.960625 158.989136 0.406107 0.678431
-55.620422 166.162628 0.000028 0.534295
-58.804482 172.403641 0.000021 0.530114
-60.577847 175.879578 0.000015 0.532998
-61.709995 178.098663 0.000013 0.533593
-62.496880 179.641022 0.000011 0.556085
-63.076622 180.777359 0.000009 0.501534
-52.184555 158.930405 10.114717 0.592157
-52.184559 158.930405 8.996813 0.504753
-52.184555 158.930405 7.894609 0.531243
-52.184555 158.930405 6.805458 0.701900
-52.184555 158.930405 5.726833 0.564309
-52.184555 158.930389 4.656301 0.870588
-52.140976 158.843475 3.596278 0.678431
-52.140976 158.843475 2.531712 0.678431
-52.140976 158.843475 1.468287 0.678431
-52.140976 158.843475 0.403721 0.678431
-55.772377 166.085785 0.000029 0.543114
-58.912788 172.348862 0.000021 0.546456
-60.661842 175.837082 0.000016 0.527977
-61.778469 178.064026 0.000013 0.549004
-62.554565 179.611847 0.000011 0.525917
-63.126362 180.752213 0.000009 0.552148
-52.364910 158.784729 10.127283 0.678431
-52.364910 158.784729 9.007649 0.463600
-52.364910 158.784729 7.903738 0.564462
-52.364910 158.784729 6.812900 0.792966
-52.364910 158.784729 5.732605 0.564721
-52.364910 158.784729 4.660415 0.555856
-52.333206 158.720383 3.597490 0.076951
-52.333206 158.720383 2.532116 0.086275
-52.333206 158.720383 1.467884 0.086275
-52.333206 158.720383 0.402509 0.094118
-55.924862 166.009979 0.000029 0.533944
-59.021473 172.294830 0.000021 0.541878
-60.746132 175.795197 0.000016 0.532113
-61.847183 178.029877 0.000013 0.518532
-62.612457 179.583069 0.000011 0.549752
-63.176277 180.727402 0.000009 0.563577
-52.545826 158.638596 10.140287 0.867109
-52.545830 158.638596 9.018864 0.590631
-52.545830 158.638596 7.913184 0.527596
-52.545830 158.638611 6.820601 0.499153
-52.545830 158.638596 5.738578 0.720104
-52.545830 158.638611 4.664671 0.842466
-52.503326 158.550797 3.601309 0.678431
-52.503326 158.550797 2.533388 0.678431
-52.503326 158.550797 1.466612 0.678431
-52.503330 158.550812 0.398691 0.678431
-56.077873 165.935257 0.000029 0.539940
-59.130531 172.241577 0.000020 0.553124
-60.830711 175.753876 0.000015 0.546441
-61.916138 177.996201 0.000013 0.555322
-62.670547 179.554703 0.000010 0.558587
-63.226364 180.702927 0.000009 0.515892
-52.643433 158.315536 10.202675 0.678431
-52.643433 158.315536 9.072657 0.678431
-52.727341 158.492004 7.922947 0.545449
-52.643429 158.315521 6.857546 0.678431
-52.643433 158.315536 5.767228 0.678431
-52.643433 158.315536 4.685093 0.678431
-52.685383 158.403763 3.603953 0.653696
-52.685379 158.403748 2.534269 0.662425
-52.685379 158.403748 1.465731 0.662425
-52.685383 158.403763 0.396047 0.678431
-56.231400 165.861603 0.000029 0.543359
-59.239960 172.189072 0.000020 0.533059
-60.915577 175.713165 0.000016 0.521859
-61.985321 177.963013 0.000013 0.536751
-62.728836 179.526733 0.000011 0.525322
-63.276623 180.678818 0.000009 0.554589
-52.826645 158.167557 10.216644 0.678431
-52.826645 158.167557 9.084702 0.678431
-52.909462 158.344910 7.933033 0.579690
-52.826645 158.167557 6.865818 0.678431
-52.826645 158.167557 5.773644 0.678431
-52.826645 158.167557 4.689666 0.678431
-52.868050 158.256226 3.606684 0.676143
-52.868050 158.256226 2.535179 0.676020
-52.868050 158.256226 1.464821 0.676143
-52.868050 158.256226 0.393316 0.678431
-56.385437 165.789017 0.000029 0.540566
-59.349747 172.137329 0.000020 0.530297
-61.000725 175.673035 0.000015 0.558480
-62.054733 177.930298 0.000012 0.516106
-62.787315 179.499176 0.000011 0.550805
-63.327045 180.655060 0.000009 0.552453
-53.027687 158.056580 10.220726 0.090059
-53.027691 158.056580 9.088221 0.106188
-53.092213 158.197311 7.943444 0.424750
-53.027691 158.056580 6.868235 0.094118
-53.027687 158.056580 5.775520 0.147005
-53.027691 158.056580 4.691001 0.103426
-53.051350 158.108185 3.609503 0.678431
-53.051350 158.108185 2.536118 0.678431
-53.051346 158.108170 1.463882 0.678431
-53.051346 158.108170 0.390496 0.678431
-56.539978 165.717499 0.000028 0.545113
-59.459900 172.086365 0.000020 0.549661
-61.086151 175.633514 0.000016 0.539498
-62.124378 177.898071 0.000013 0.537255
-62.845985 179.472031 0.000011 0.528527
-63.377636 180.631653 0.000008 0.536751
-53.275608 158.049164 10.196729 0.709804
-53.275608 158.049179 9.067532 0.774884
-53.275612 158.049179 7.954183 0.723079
-53.275608 158.049179 6.854025 0.553841
-53.275608 158.049179 5.764500 0.688243
-53.275612 158.049179 4.683146 0.587442
-53.235306 157.959610 3.612411 0.678431
-53.235302 157.959610 2.537087 0.678431
-53.235302 157.959610 1.462913 0.678431
-53.235302 157.959610 0.387588 0.678431
-56.695015 165.647079 0.000029 0.533989
-59.570404 172.036179 0.000020 0.540108
-61.171852 175.594589 0.000015 0.522820
-62.194244 177.866348 0.000013 0.553246
-62.904846 179.445297 0.000010 0.543587
-63.428387 180.608597 0.000009 0.555367
-53.459679 157.900482 10.211973 0.896742
-53.459679 157.900497 9.080670 0.666010
-53.459686 157.900497 7.965252 0.643214
-53.459686 157.900497 6.863050 0.469337
-53.459682 157.900497 5.771496 0.525078
-53.459682 157.900497 4.688135 0.598856
-53.419926 157.810486 3.615409 0.670832
-53.419926 157.810486 2.538085 0.678431
-53.419926 157.810486 1.461915 0.670832
-53.419926 157.810486 0.384590 0.670832
-56.850544 165.577744 0.000029 0.530053
-59.681255 171.986755 0.000020 0.541482
-61.257820 175.556259 0.000016 0.555383
-62.264328 177.835098 0.000012 0.553368
-62.963890 179.418976 0.000010 0.558923
-63.479298 180.585907 0.000009 0.520104
-53.644447 157.751251 10.227666 0.741176
-53.644447 157.751251 9.094204 0.346380
-53.644451 157.751266 7.976655 0.791928
-53.644451 157.751266 6.872344 0.634852
-53.644451 157.751266 5.778705 0.397009
-53.644451 157.751266 4.693274 0.492515
-53.605247 157.660797 3.618497 0.678431
-53.605247 157.660797 2.539114 0.678431
-53.605247 157.660797 1.460887 0.678431
-53.605247 157.660797 0.381503 0.678431
-57.006546 165.509491 0.000028 0.542519
-59.792446 171.938095 0.000020 0.546349
-61.344055 175.518524 0.000016 0.560021
-62.334629 177.804337 0.000012 0.569314
-63.023117 179.393066 0.000011 0.559762
-63.530365 180.563553 0.000008 0.534951
-53.829933 157.601440 10.243826 0.391516
-53.829937 157.601440 9.108136 0.727520
-53.829937 157.601440 7.988394 0.484474
-53.829937 157.601440 6.881913 0.671550
-53.829937 157.601440 5.786128 0.567941
-53.829937 157.601440 4.698564 0.465843
-53.791290 157.510529 3.621676 0.678431
-53.791290 157.510529 2.540173 0.677928
-53.791290 157.510529 1.459827 0.677928
-53.791290 157.510529 0.378324 0.677653
-57.163025 165.442322 0.000028 0.556786
-59.903976 171.890228 0.000020 0.532937
