# This PCD file was generated using the MATLABÂ® pcwrite function
# from Computer Vision ToolboxÂ®.
# .PCD v.7 - Point Cloud Data file format
VERSION .7
FIELDS x y z intensity
SIZE 4 4 4 4
TYPE F F F F
COUNT 1 1 1 1
WIDTH 1267
HEIGHT 1
VIEWPOINT 0 0 0 1 0 0 0
POINTS 1267
DATA ascii
nan nan nan 0.000000
nan nan nan 0.000000
-9.940705 -12.478027 19.884089 0.515953
-9.940711 -12.478058 16.579638 0.580713
-9.940711 -12.478058 13.307117 0.685420
-9.940711 -12.478058 10.059152 0.531289
-9.940713 -12.478065 6.828576 0.677272
-7.601335 -1.845261 3.430221 0.647059
-7.601335 -1.845261 0.569779 0.648798
2.431041 43.753265 -0.000039 0.541497
5.937794 59.691948 -0.000015 0.528527
7.443339 66.534851 -0.000012 0.532021
8.281845 70.345978 -0.000010 0.532860
8.817160 72.779060 -0.000008 0.565362
9.189222 74.470131 -0.000007 0.551125
9.463341 75.716042 -0.000007 0.548928
nan nan nan 0.000000
nan nan nan 0.000000
nan nan nan 0.000000
-10.644412 -12.478065 16.602425 0.533913
-10.644412 -12.478065 13.324792 0.520577
-10.644408 -12.478050 10.071745 0.565805
-10.644410 -12.478058 6.836121 0.591943
-8.226737 -1.843727 3.432429 0.502739
-8.226737 -1.843727 0.567571 0.634226
2.153668 43.815304 -0.000038 0.541711
5.771611 59.729118 -0.000016 0.543023
7.324893 66.561356 -0.000012 0.543679
8.189985 70.366531 -0.000010 0.552575
8.742271 72.795807 -0.000008 0.550607
9.126132 74.484245 -0.000007 0.559304
9.408942 75.728210 -0.000006 0.577050
nan nan nan 0.000000
nan nan nan 0.000000
nan nan nan 0.000000
-11.350335 -12.478065 16.625998 0.545663
-11.410655 -12.735092 13.373440 0.678431
-11.410659 -12.735100 10.106421 0.678431
-11.350329 -12.478043 6.843928 0.593317
-8.854095 -1.842201 3.434714 0.646998
-8.854095 -1.842201 0.565284 0.620325
1.876742 43.879288 -0.000039 0.542992
5.605695 59.767448 -0.000016 0.536141
7.206635 66.588669 -0.000012 0.532982
8.098272 70.387718 -0.000010 0.543450
8.667505 72.813080 -0.000008 0.563439
9.063143 74.498802 -0.000007 0.535607
9.354630 75.740753 -0.000006 0.540276
nan nan nan 0.000000
nan nan nan 0.000000
nan nan nan 0.000000
-12.058562 -12.478073 16.650356 0.556222
-12.058566 -12.478081 13.361967 0.603998
-12.058564 -12.478081 10.098242 0.656443
-12.058558 -12.478058 6.851996 0.691127
-9.483476 -1.840652 3.437080 0.648157
-9.483479 -1.840660 0.562919 0.631861
1.600271 43.945190 -0.000039 0.544045
5.440051 59.806931 -0.000016 0.544900
7.088573 66.616814 -0.000012 0.540047
8.006710 70.409546 -0.000010 0.533242
8.592861 72.830872 -0.000008 0.549218
9.000257 74.513786 -0.000007 0.549126
9.300408 75.753677 -0.000007 0.567590
nan nan nan 0.000000
nan nan nan 0.000000
nan nan nan 0.000000
nan nan nan 0.000000
-12.769195 -12.478050 13.381471 0.594079
-12.769197 -12.478050 10.112149 0.439384
-12.769202 -12.478073 6.860332 0.570047
-10.114985 -1.839134 3.439521 0.628748
-10.114984 -1.839127 0.560477 0.607492
1.324264 44.013023 -0.000039 0.540764
5.274686 59.847580 -0.000016 0.543069
6.970709 66.645782 -0.000012 0.535271
7.915301 70.432007 -0.000010 0.534401
8.518342 72.849190 -0.000008 0.541588
8.937478 74.529221 -0.000007 0.542412
9.246278 75.766983 -0.000006 0.537331
nan nan nan 0.000000
nan nan nan 0.000000
nan nan nan 0.000000
nan nan nan 0.000000
nan nan nan 0.000000
-13.548343 -12.735062 10.148256 0.678431
-13.482320 -12.478065 6.868928 0.657954
-10.278499 -0.007477 3.411122 0.650584
-10.670651 -1.533897 0.563089 0.690959
1.048736 44.082790 -0.000039 0.537438
5.109606 59.889374 -0.000015 0.534417
6.853049 66.675568 -0.000012 0.541070
7.824051 70.455109 -0.000010 0.527596
8.443953 72.868027 -0.000008 0.543038
8.874806 74.545082 -0.000007 0.554467
9.192240 75.780663 -0.000007 0.563348
nan nan nan 0.000000
nan nan nan 0.000000
nan nan nan 0.000000
nan nan nan 0.000000
nan nan nan 0.000000
-14.265927 -12.735062 10.163099 0.678431
-13.531270 -9.956108 6.749644 0.657374
-10.727370 0.650032 3.402562 0.673899
-10.727370 0.650040 0.597436 0.691600
0.773712 44.154491 -0.000037 0.540581
4.944827 59.932320 -0.000016 0.543740
6.735603 66.706184 -0.000012 0.550149
7.732967 70.478859 -0.000010 0.550958
8.369698 72.887375 -0.000008 0.539605
8.812250 74.561394 -0.000007 0.522026
9.138301 75.794724 -0.000006 0.517296
nan nan nan 0.000000
nan nan nan 0.000000
nan nan nan 0.000000
nan nan nan 0.000000
nan nan nan 0.000000
-14.309928 -10.247452 9.967015 0.563073
-13.596759 -7.624062 6.639817 0.563073
-11.347051 0.651535 3.405165 0.622019
-11.016622 1.867027 0.615447 0.489952
0.499187 44.228096 -0.000037 0.542718
4.780348 59.976418 -0.000016 0.529213
6.618371 66.737610 -0.000012 0.545342
7.642049 70.503227 -0.000010 0.541802
8.295579 72.907249 -0.000008 0.538247
8.749805 74.578133 -0.000007 0.534936
9.084460 75.809158 -0.000006 0.535271
nan nan nan 0.000000
nan nan nan 0.000000
nan nan nan 0.000000
nan nan nan 0.000000
nan nan nan 0.000000
-13.653516 -5.376617 9.567680 0.604364
-13.429013 -4.572983 6.493126 0.596139
-11.969058 0.653069 3.407844 0.638300
-4.932761 25.840229 1.020096 0.474693
0.225177 44.303612 -0.000037 0.539590
4.616181 60.021667 -0.000016 0.537423
6.501360 66.769859 -0.000012 0.534524
7.551302 70.528236 -0.000010 0.546136
8.221600 72.927635 -0.000008 0.517632
8.687481 74.595306 -0.000007 0.521950
9.030721 75.823975 -0.000007 0.520195
nan nan nan 0.000000
nan nan nan 0.000000
nan nan nan 0.000000
nan nan nan 0.000000
nan nan nan 0.000000
nan nan nan 0.000000
-13.542016 -2.651566 6.403815 0.693721
-12.353190 1.492104 3.396348 0.481559
-5.302905 26.065998 1.022000 0.470848
-0.048294 44.381039 -0.000037 0.542580
4.452333 60.068050 -0.000016 0.528511
6.384580 66.802925 -0.000012 0.530755
7.460733 70.553879 -0.000010 0.522744
8.147766 72.948540 -0.000008 0.547906
8.625278 74.612915 -0.000007 0.553658
8.977087 75.839157 -0.000006 0.525017
nan nan nan 0.000000
nan nan nan 0.000000
nan nan nan 0.000000
nan nan nan 0.000000
-16.006294 -8.804596 13.071295 0.572122
-15.693974 -7.743980 9.800411 0.635813
-13.819409 -1.378136 6.347546 0.638849
-13.838443 -1.442780 3.449249 0.648096
-5.708344 26.166225 1.021724 0.497841
-0.321216 44.460373 -0.000037 0.542519
4.288819 60.115593 -0.000015 0.532967
6.268032 66.836807 -0.000012 0.543801
7.370346 70.580154 -0.000010 0.532113
8.074080 72.969963 -0.000008 0.552956
8.563200 74.630966 -0.000007 0.549187
8.923561 75.854713 -0.000007 0.538796
nan nan nan 0.000000
nan nan nan 0.000000
nan nan nan 0.000000
-16.772778 -9.018593 16.338488 0.584512
-16.531422 -8.219604 13.024076 0.564797
-15.585231 -5.087288 9.589116 0.566461
-14.463220 -1.372948 6.356340 0.646525
-6.008313 26.616474 2.972618 0.482979
-5.796836 27.316555 1.039348 0.483223
-0.593576 44.541611 -0.000037 0.543023
4.125638 60.164261 -0.000015 0.532753
6.151726 66.871498 -0.000012 0.536370
7.280147 70.607063 -0.000010 0.523888
8.000546 72.991898 -0.000008 0.557946
8.501249 74.649445 -0.000007 0.603052
8.870145 75.870651 -0.000006 0.535576
nan nan nan 0.000000
nan nan nan 0.000000
-17.573441 -9.322754 19.683826 0.567895
-17.398502 -8.757904 16.328657 0.560815
-17.150349 -7.956673 13.015977 0.575006
-15.483407 -2.574394 9.389637 0.543236
-15.110095 -1.369034 6.365450 0.643061
-6.155503 27.543816 2.958812 0.486442
-6.224214 27.321957 1.037387 0.486351
-0.865375 44.624737 -0.000037 0.538903
3.962796 60.214073 -0.000015 0.540063
6.035660 66.906998 -0.000011 0.562036
7.190133 70.634598 -0.000010 0.542077
7.927164 73.014343 -0.000008 0.507347
8.439427 74.668350 -0.000007 0.529183
8.816840 75.886955 -0.000006 0.582162
nan nan nan 0.000000
nan nan nan 0.000000
nan nan nan 0.000000
nan nan nan 0.000000
-15.664983 -1.066681 12.208523 0.614176
-15.732148 -1.278305 9.294334 0.637278
-15.722804 -1.248856 6.368824 0.621881
-6.692460 27.204151 2.966744 0.483543
-6.846307 26.719414 1.024933 0.493446
-1.136568 44.709789 -0.000037 0.541115
3.800310 60.265018 -0.000015 0.528405
5.919848 66.943306 -0.000012 0.528054
7.100316 70.662750 -0.000010 0.523339
7.853944 73.037300 -0.000008 0.525109
8.377741 74.687698 -0.000007 0.498131
8.763652 75.903633 -0.000006 0.499321
nan nan nan 0.000000
nan nan nan 0.000000
nan nan nan 0.000000
-16.398373 -1.318817 15.231972 0.558907
-16.008884 -0.120682 12.117009 0.634440
-16.098774 -0.397194 9.234743 0.618723
-16.098774 -0.397202 6.334639 0.636774
-16.098183 -0.395370 3.443817 0.588129
-7.034507 27.486057 1.035935 0.502708
-1.407179 44.796696 -0.000037 0.540139
3.638181 60.317101 -0.000015 0.540185
5.804292 66.980431 -0.000011 0.532189
7.010696 70.691544 -0.000010 0.530922
7.780883 73.060768 -0.000008 0.543450
8.316191 74.707466 -0.000007 0.560174
8.710580 75.920677 -0.000006 0.492500
nan nan nan 0.000000
-6.336625 30.885391 13.979686 0.649683
-16.966301 -1.053207 18.217363 0.520424
-16.816711 -0.603752 15.150600 0.540322
-16.579998 0.107498 12.112602 0.729717
-16.598000 0.053398 9.212436 0.736446
-16.598000 0.053406 6.321273 0.558343
-16.597996 0.053406 3.439394 0.649836
-16.597980 0.053459 0.560605 0.603983
-1.677168 44.885498 -0.000037 0.540825
3.476423 60.370308 -0.000015 0.536553
5.688998 67.018356 -0.000011 0.538216
6.921282 70.720955 -0.000010 0.562905
7.707989 73.084747 -0.000008 0.551354
8.254780 74.727669 -0.000007 0.556283
8.657629 75.938095 -0.000006 0.545235
nan nan nan 0.000000
-6.711864 30.984726 13.985217 0.666041
-17.564796 -0.880493 18.222326 0.548959
-17.389397 -0.365509 15.144216 0.553399
-17.141270 0.363014 12.105350 0.650568
-17.182171 0.242935 9.212990 0.623362
-17.182175 0.242920 6.321607 0.657725
-17.182167 0.242935 3.439507 0.610193
-17.182167 0.242935 0.560493 0.636378
-1.946527 44.976200 -0.000037 0.545861
3.315039 60.424648 -0.000015 0.542428
5.573971 67.057083 -0.000012 0.543069
6.832076 70.750992 -0.000009 0.542107
7.635264 73.109230 -0.000008 0.548302
8.193511 74.748299 -0.000007 0.545937
8.604802 75.955887 -0.000006 0.539406
-5.781871 34.831577 14.913203 0.661341
-6.789891 31.938282 13.795986 0.644572
-6.789886 31.938301 11.937764 0.645716
-6.789861 31.938366 10.101543 0.651759
-6.789857 31.938377 8.283083 0.627039
-6.789874 31.938328 6.478274 0.636896
-6.789882 31.938316 4.683123 0.642786
-6.789836 31.938438 2.893734 0.637934
-6.789916 31.938213 1.106263 0.641627
-2.215246 45.068783 -0.000036 0.543770
3.154038 60.480110 -0.000015 0.543008
5.459219 67.096619 -0.000011 0.532280
6.743080 70.781647 -0.000009 0.552590
7.562713 73.134224 -0.000008 0.511955
8.132388 74.769348 -0.000007 0.520027
8.552099 75.974037 -0.000006 0.561303
-6.129437 34.928394 14.919263 0.683772
-6.854676 32.892620 13.606228 0.678431
-6.800303 33.045238 11.748424 0.784909
-6.854674 32.892616 9.971231 0.678431
-6.854676 32.892612 8.182023 0.678431
-6.800275 33.045326 6.392946 0.746609
-6.854672 32.892624 4.639962 0.678431
-6.800279 33.045311 2.876707 0.742901
-6.854672 32.892624 1.120640 0.678431
-2.483309 45.163242 -0.000036 0.539651
2.993426 60.536694 -0.000015 0.538903
5.344744 67.136948 -0.000012 0.534203
6.654298 70.812927 -0.000010 0.545632
7.490337 73.159721 -0.000008 0.524865
8.071415 74.790833 -0.000007 0.549813
8.499525 75.992561 -0.000006 0.534524
-6.476609 35.027325 14.925417 0.646601
-6.854711 33.988960 13.383453 0.678431
-6.800296 34.138401 11.561284 0.791287
-6.854711 33.988964 9.818229 0.678431
-6.854707 33.988972 8.063360 0.678431
-6.800296 34.138405 6.308622 0.782696
-6.854705 33.988976 4.589290 0.678431
-6.800223 34.138596 2.859875 0.762905
-6.854709 33.988968 1.137520 0.678431
-2.681080 45.450779 0.009962 1.000000
2.833218 60.594398 -0.000015 0.537758
5.230556 67.178078 -0.000011 0.537713
6.565741 70.844826 -0.000010 0.541741
7.418141 73.185730 -0.000008 0.515221
8.010592 74.812744 -0.000007 0.566629
8.447082 76.011452 -0.000006 0.562554
-6.090562 37.098007 14.405260 0.672007
-6.939664 34.815849 13.222192 0.647822
-6.704282 35.448498 11.331541 0.715999
-6.717950 35.411758 9.613159 0.678431
-6.939664 34.815853 7.977467 0.651484
-6.717948 35.411762 6.208306 0.602945
-6.939660 34.815861 4.552608 0.652201
-6.939662 34.815857 2.850262 0.655894
-6.717948 35.411766 1.160142 0.678431
-2.946476 45.548473 0.009961 1.000000
2.673412 60.653229 -0.000015 0.535821
5.116653 67.220001 -0.000011 0.532418
6.477405 70.877342 -0.000010 0.543023
7.346127 73.212234 -0.000008 0.543191
7.949922 74.835075 -0.000007 0.535500
8.394770 76.030708 -0.000006 0.516396
-6.381858 37.304745 14.382469 0.678233
-7.328454 34.813896 13.252144 0.642145
-6.808993 36.180794 11.213528 0.794003
-7.328467 34.813866 9.728050 0.636011
-7.328444 34.813923 7.993417 0.664012
-7.328469 34.813862 6.271815 0.632090
-7.328462 34.813873 4.559424 0.649210
-7.328464 34.813873 2.852533 0.637980
-7.328467 34.813866 1.147468 0.647257
-3.211174 45.648006 0.009961 1.000000
2.514025 60.713161 -0.000015 0.538003
5.003048 67.262718 -0.000012 0.537072
6.389301 70.910477 -0.000009 0.505760
7.274302 73.239243 -0.000008 0.547387
7.889412 74.857826 -0.000007 0.552865
8.342596 76.050323 -0.000006 0.539284
-6.713109 37.405075 14.388758 0.688396
-6.854796 37.039936 12.766646 0.678431
-6.854796 37.039936 11.070579 0.678431
-6.854793 37.039948 9.394598 0.678431
-6.854796 37.039940 7.734821 0.678431
-6.800286 37.180412 6.075140 0.800717
-6.854795 37.039940 4.448991 0.678431
-6.800286 37.180416 2.813281 0.741817
-6.854795 37.039944 1.184253 0.678431
-3.475185 45.749371 0.009960 1.000000
2.355056 60.774208 -0.000016 0.533059
4.889744 67.306229 -0.000012 0.536156
6.301429 70.944214 -0.000009 0.531365
7.202667 73.266754 -0.000008 0.507729
7.829062 74.881004 -0.000007 0.560418
8.290560 76.070313 -0.000006 0.521737
-6.789830 38.149010 14.222281 0.616220
-6.854772 37.985062 12.576600 0.678431
-6.854770 37.985069 10.910468 0.678431
-6.854768 37.985073 9.264075 0.683452
-6.854768 37.985069 7.633593 0.678431
-6.800248 38.122704 6.003205 0.783749
-6.854766 37.985073 4.405763 0.678431
-6.809369 38.099686 2.799331 0.703838
-6.854768 37.985069 1.198653 0.678431
-3.738477 45.852604 0.009960 1.000000
2.196514 60.836365 -0.000015 0.541650
4.776746 67.350540 -0.000011 0.543679
6.213794 70.978577 -0.000009 0.528176
7.131225 73.294769 -0.000008 0.526177
7.768872 74.904602 -0.000007 0.548180
8.238663 76.090660 -0.000006 0.559014
-6.789573 39.058655 14.010710 0.625788
-6.789420 39.059032 12.355999 0.626673
-6.789418 39.059036 10.724621 0.622843
-6.789418 39.059032 9.112566 0.659388
-6.789424 39.059021 7.516093 0.672740
-6.789420 39.059029 5.931597 0.636164
-6.789422 39.059025 4.355583 0.627085
-6.789350 39.059208 2.784631 0.645853
-6.789672 39.058411 1.215355 0.630152
-4.077192 45.769241 -0.000024 0.337972
2.038417 60.899628 -0.000016 0.563348
4.664061 67.395630 -0.000011 0.553445
6.126402 71.013542 -0.000010 0.545480
7.059980 73.323273 -0.000008 0.518013
7.708852 74.928619 -0.000007 0.534081
8.186910 76.111366 -0.000006 0.565927
-6.811847 39.882782 13.821696 0.669245
-6.811843 39.882793 12.193110 0.659922
-6.813573 39.878590 10.588219 0.620859
-6.815032 39.875053 9.001936 0.620996
-6.815034 39.875050 7.430295 0.668803
-6.815032 39.875053 5.870443 0.647776
-6.815034 39.875050 4.318944 0.635508
-6.814687 39.875893 2.772415 0.636393
-6.811849 39.882774 1.227707 0.628992
-4.340337 45.876659 -0.000025 0.338033
1.880762 60.963997 -0.000015 0.533516
4.551691 67.441505 -0.000011 0.534905
6.039255 71.049126 -0.000009 0.545007
6.988935 73.352280 -0.000008 0.530983
7.648998 74.953056 -0.000007 0.544335
8.135302 76.132431 -0.000006 0.561440
-7.148355 39.932518 13.842598 0.648798
-7.148353 39.932522 12.211137 0.641001
-7.148313 39.932617 10.602561 0.628244
-7.148236 39.932796 9.013029 0.638209
-7.148231 39.932812 7.438896 0.665431
-7.148229 39.932816 5.876574 0.648280
-7.148223 39.932827 4.322617 0.618708
-7.148227 39.932823 2.773653 0.625086
-7.148280 39.932693 1.226345 0.623209
-4.602717 45.985905 -0.000025 0.337682
1.723563 61.029457 -0.000015 0.540047
4.439648 67.488159 -0.000011 0.545815
5.952360 71.085312 -0.000010 0.543053
6.918096 73.381775 -0.000008 0.548669
7.589317 74.977905 -0.000007 0.542901
8.083843 76.153862 -0.000006 0.526268
-7.507453 39.932579 13.877746 0.619898
-7.507453 39.932571 12.241440 0.623575
-7.507419 39.932659 10.628093 0.624201
-7.507350 39.932819 9.033848 0.647044
-7.507354 39.932808 7.455044 0.621698
-7.507348 39.932819 5.888083 0.612680
-7.507350 39.932823 4.329513 0.625483
-7.507348 39.932827 2.775951 0.625132
-7.507396 39.932713 1.224048 0.628290
-4.864333 46.096989 -0.000026 0.338369
1.566820 61.096012 -0.000015 0.543633
4.327933 67.535606 -0.000011 0.531411
5.865718 71.122101 -0.000010 0.528038
6.847465 73.411774 -0.000008 0.547631
7.529813 75.003174 -0.000007 0.518807
8.032537 76.175652 -0.000006 0.548760
-7.868699 39.932640 13.913678 0.635035
-7.868697 39.932648 12.272422 0.637598
-7.868670 39.932709 10.654199 0.636423
-7.868621 39.932823 9.055138 0.651469
-7.868627 39.932808 7.471555 0.660426
-7.868623 39.932819 5.899852 0.634379
-7.868623 39.932816 4.336565 0.637598
-7.868623 39.932819 2.778298 0.648051
-7.868665 39.932724 1.221700 0.648737
-5.125159 46.209892 -0.000026 0.338094
1.410552 61.163666 -0.000015 0.538537
4.216550 67.583817 -0.000011 0.550912
5.779339 71.159500 -0.000009 0.527260
6.777045 73.442261 -0.000008 0.563745
7.470486 75.028862 -0.000007 0.538247
7.981382 76.197792 -0.000006 0.563989
-8.232152 39.932732 13.950410 0.631876
-8.232154 39.932732 12.304095 0.637217
-8.232133 39.932770 10.680884 0.656077
-8.232106 39.932835 9.076900 0.646967
-8.232116 39.932808 7.488435 0.640970
-8.232112 39.932819 5.911881 0.656367
-8.232108 39.932827 4.343773 0.627802
-8.232110 39.932827 2.780700 0.656138
-8.232139 39.932762 1.219300 0.628428
-5.385203 46.324600 -0.000027 0.338277
1.254757 61.232407 -0.000015 0.538735
4.105506 67.632813 -0.000012 0.548348
5.693221 71.197495 -0.000009 0.530175
6.706839 73.473236 -0.000008 0.570291
7.411339 75.054955 -0.000007 0.519738
7.930385 76.220299 -0.000006 0.550881
-8.597863 39.932827 13.987948 0.618906
-8.597865 39.932823 12.336465 0.617670
-8.597863 39.932831 10.708163 0.635431
-8.597861 39.932835 9.099148 0.614664
-8.597871 39.932812 7.505687 0.659586
-8.597869 39.932816 5.924181 0.626062
-8.597865 39.932823 4.351140 0.626429
-8.597865 39.932823 2.783153 0.640482
-8.597875 39.932804 1.216846 0.629358
-5.644431 46.441135 -0.000028 0.339055
1.099443 61.302231 -0.000015 0.535241
3.994809 67.682587 -0.000011 0.544976
5.607370 71.236092 -0.000009 0.535454
6.636849 73.504700 -0.000008 0.516442
7.352376 75.081467 -0.000007 0.533272
7.879544 76.243156 -0.000006 0.593088
-8.965915 39.932896 14.026325 0.620310
-8.965909 39.932911 12.369549 0.655604
-8.965920 39.932888 10.736042 0.643656
-8.965941 39.932838 9.121884 0.665934
-8.965957 39.932808 7.523321 0.625071
-8.965951 39.932816 5.936749 0.624659
-8.965951 39.932819 4.358670 0.654429
-8.965949 39.932823 2.785662 0.667109
-8.965930 39.932869 1.214339 0.624628
-5.902810 46.559547 -0.000025 0.338125
0.944622 61.373138 -0.000015 0.547478
3.884460 67.733124 -0.000011 0.537255
5.521790 71.275291 -0.000009 0.521462
6.567082 73.536652 -0.000008 0.530526
7.293599 75.108383 -0.000007 0.564034
7.828865 76.266365 -0.000006 0.555276
-9.336480 39.932674 14.065616 0.667155
-9.336478 39.932682 12.403428 0.646479
-9.336438 39.932762 10.764565 0.663508
-9.336398 39.932846 9.145115 0.679850
-9.336415 39.932812 7.541337 0.652232
-9.336413 39.932816 5.949590 0.635386
-9.336415 39.932812 4.366365 0.619745
-9.336410 39.932823 2.788224 0.636805
-9.336478 39.932682 1.211772 0.640620
-6.160396 46.679672 -0.000026 0.337896
0.790302 61.445133 -0.000015 0.551965
3.774467 67.784431 -0.000011 0.543954
5.436488 71.315086 -0.000009 0.545052
6.497541 73.569092 -0.000008 0.547463
7.235013 75.135719 -0.000007 0.547295
7.778350 76.289932 -0.000006 0.558862
-9.709342 39.932781 14.105666 0.645182
-9.709332 39.932796 12.437959 0.648157
-9.709325 39.932816 10.793665 0.652796
-9.709313 39.932838 9.168850 0.625391
-9.709329 39.932808 7.559746 0.623819
-9.709323 39.932819 5.962708 0.618112
-9.709327 39.932812 4.374227 0.616114
-9.709321 39.932823 2.790843 0.653071
-9.709348 39.932766 1.209156 0.620493
-6.417129 46.801617 -0.000026 0.338445
0.636487 61.518200 -0.000015 0.532647
3.664837 67.836517 -0.000011 0.544686
5.351462 71.355469 -0.000009 0.533211
6.428226 73.602020 -0.000008 0.582528
7.176617 75.163452 -0.000007 0.528389
7.727999 76.313850 -0.000006 0.532204
-10.084706 39.932861 14.146582 0.629389
-10.084701 39.932873 12.473239 0.648371
-10.084702 39.932869 10.823395 0.644617
-10.084712 39.932850 9.193090 0.632883
-10.084733 39.932808 7.578547 0.626810
-10.084727 39.932819 5.976110 0.616403
-10.084729 39.932816 4.382256 0.619699
-10.084723 39.932827 2.793517 0.646845
-10.084706 39.932861 1.206483 0.624903
-6.673001 46.925335 -0.000027 0.337316
0.483189 61.592335 -0.000015 0.548501
3.555573 67.889351 -0.000011 0.539193
5.266723 71.396446 -0.000009 0.562615
6.359146 73.635429 -0.000008 0.533898
7.118419 75.191597 -0.000007 0.527321
7.677817 76.338120 -0.000006 0.545480
-10.462729 39.932785 14.188417 0.661753
-10.462716 39.932808 12.509308 0.638987
-10.462699 39.932846 10.853774 0.660136
-10.462693 39.932858 9.217852 0.643290
-10.462718 39.932804 7.597753 0.624582
-10.462718 39.932808 5.989798 0.616449
-10.462712 39.932816 4.390456 0.631983
-10.462710 39.932823 2.796250 0.636530
-10.462750 39.932743 1.203749 0.641520
-6.928018 47.050831 -0.000028 0.338155
0.330404 61.667538 -0.000015 0.559182
3.446677 67.942955 -0.000011 0.522026
5.182270 71.438019 -0.000009 0.546517
6.290296 73.669319 -0.000008 0.539147
7.060416 75.220154 -0.000007 0.510658
7.627804 76.362732 -0.000006 0.573236
-10.843318 39.932819 14.231110 0.617166
-10.843299 39.932861 12.546114 0.643488
-10.843297 39.932865 10.884787 0.634241
-10.843301 39.932858 9.243140 0.628916
-10.843328 39.932804 7.617363 0.650736
-10.843331 39.932796 6.003778 0.646143
-10.843324 39.932804 4.398831 0.636439
-10.843324 39.932812 2.799039 0.641184
-10.843310 39.932835 1.200962 0.630228
-7.182137 47.178135 -0.000029 0.338643
0.178151 61.743805 -0.000015 0.550500
3.338157 67.997314 -0.000011 0.553124
5.098110 71.480179 -0.000009 0.544060
6.221687 73.703690 -0.000008 0.550820
7.002614 75.249107 -0.000007 0.556848
7.577966 76.387695 -0.000006 0.521935
-11.226621 39.932819 14.274709 0.659556
-11.231795 39.922756 12.586164 0.755871
-11.259805 39.868279 10.929673 0.678431
-11.231793 39.922760 9.270645 0.757565
-11.259801 39.868282 7.645735 0.678431
-11.226626 39.932808 6.018049 0.645548
-11.259803 39.868279 4.410947 0.678431
-11.226626 39.932808 2.801887 0.644572
-11.226649 39.932762 1.198112 0.635065
-7.435346 47.307224 -0.000027 0.338491
0.026438 61.821136 -0.000015 0.539757
3.230025 68.052437 -0.000011 0.524620
5.014247 71.522926 -0.000009 0.514412
6.153320 73.738533 -0.000008 0.548516
6.945017 75.278465 -0.000007 0.556451
7.528303 76.413010 -0.000006 0.580499
-11.612687 39.932816 14.319226 0.624079
-11.646438 39.868282 12.637830 0.735500
-11.646438 39.868286 10.962056 0.678431
-11.646436 39.868282 9.306130 0.711360
-11.646434 39.868286 7.666209 0.678431
-11.612687 39.932819 6.032620 0.639735
-11.646438 39.868286 4.419690 0.678431
-11.612695 39.932808 2.804795 0.636149
-11.612674 39.932846 1.195205 0.609232
-7.687671 47.438046 -0.000028 0.338079
-0.124737 61.899525 -0.000015 0.552331
3.122275 68.108307 -0.000011 0.543084
4.930683 71.566254 -0.000009 0.512322
6.085197 73.773857 -0.000008 0.492775
6.887625 75.308220 -0.000007 0.507973
7.478818 76.438675 -0.000006 0.564508
-12.001573 39.932835 14.364667 0.646906
-12.035901 39.868294 12.677072 0.678431
-12.035893 39.868301 10.995112 0.678431
-12.035895 39.868301 9.333080 0.705043
-12.035895 39.868301 7.687110 0.678431
-12.001578 39.932819 6.047496 0.657145
-12.035903 39.868290 4.428616 0.678431
-12.001584 39.932812 2.807765 0.655985
-12.001584 39.932812 1.192235 0.648859
-7.939065 47.570641 -0.000028 0.337850
-0.275352 61.978973 -0.000015 0.546761
3.014923 68.164925 -0.000011 0.550134
4.847427 71.610168 -0.000009 0.544182
6.017323 73.809654 -0.000008 0.528878
6.830444 75.338379 -0.000007 0.535119
7.429515 76.464676 -0.000006 0.510872
-12.393365 39.932831 14.411057 0.632380
-12.428269 39.868294 12.717128 0.678431
-12.406238 39.909027 11.020437 0.763317
-12.428269 39.868294 9.360594 0.678431
-12.428266 39.868298 7.708447 0.678431
-12.393359 39.932838 6.062679 0.649454
-12.428271 39.868286 4.437726 0.678431
-12.393380 39.932796 2.810795 0.631388
-12.393382 39.932796 1.189205 0.626520
-8.189534 47.704967 -0.000029 0.338476
-0.425414 62.059464 -0.000014 0.539361
2.907968 68.222298 -0.000011 0.541558
4.764476 71.654655 -0.000010 0.564416
5.949700 73.845924 -0.000008 0.529137
6.773474 75.368942 -0.000007 0.552087
7.380393 76.491028 -0.000006 0.575723
-12.788127 39.932823 14.458405 0.617212
-12.815484 39.883080 12.754368 0.839216
-12.789466 39.930393 11.050412 0.736858
-12.823640 39.868252 9.388680 0.678431
-12.815475 39.883099 7.728280 0.838560
-12.788117 39.932842 6.078177 0.674510
-12.815476 39.883091 4.446197 0.870588
-12.788133 39.932812 2.813887 0.672312
-12.788140 39.932800 1.186111 0.633799
-8.439067 47.841034 -0.000030 0.338399
-0.574911 62.140999 -0.000015 0.539269
2.801415 68.280411 -0.000011 0.524498
4.681841 71.699730 -0.000009 0.538384
5.882333 73.882668 -0.000008 0.547021
6.716720 75.399895 -0.000006 0.522103
7.331456 76.517715 -0.000006 0.492378
-13.185935 39.932831 14.506725 0.666163
-13.185920 39.932858 12.783763 0.646922
-13.185916 39.932861 11.085000 0.651820
-13.185920 39.932858 9.406359 0.639429
-13.185920 39.932854 7.743940 0.657771
-13.185924 39.932846 6.093996 0.676265
-13.185924 39.932846 4.452884 0.645136
-13.185941 39.932819 2.817044 0.632578
-13.185943 39.932816 1.182955 0.627161
-8.687612 47.978905 -0.000028 0.337530
-0.723838 62.223576 -0.000015 0.532128
2.695266 68.339272 -0.000011 0.532769
4.599521 71.745377 -0.000009 0.564614
5.815223 73.919884 -0.000007 0.547784
6.660181 75.431244 -0.000006 0.590127
7.282707 76.544746 -0.000005 0.547417
-13.573083 39.957062 14.549056 0.664042
-13.586839 39.932858 12.826283 0.650660
-13.586837 39.932861 11.120821 0.658946
-13.586843 39.932854 9.435562 0.625406
-13.586846 39.932846 7.766589 0.658869
-13.586846 39.932842 6.110137 0.666804
-13.586856 39.932831 4.462557 0.648203
-13.586856 39.932831 2.820266 0.655375
-13.606494 39.898270 1.179084 0.135653
-8.935214 48.118446 -0.000028 0.338354
-0.872180 62.307190 -0.000015 0.545251
2.589535 68.398865 -0.000011 0.543648
4.517522 71.791595 -0.000009 0.508080
5.748374 73.957565 -0.000007 0.538491
6.603863 75.462990 -0.000006 0.533822
7.234148 76.572121 -0.000006 0.523659
-13.894403 40.100037 14.557990 0.682429
-13.990962 39.932850 12.869673 0.649638
-13.990958 39.932858 11.157376 0.635554
-13.990960 39.932850 9.465361 0.651331
-13.990966 39.932842 7.789699 0.627970
-13.990962 39.932850 6.126608 0.627054
-13.990968 39.932838 4.472425 0.637095
-13.990966 39.932842 2.823554 0.640787
-14.010934 39.898270 1.175794 0.139300
-9.181830 48.259735 -0.000029 0.338369
-1.019938 62.391838 -0.000015 0.532265
2.484221 68.459198 -0.000011 0.546838
4.435847 71.838394 -0.000009 0.525689
5.681791 73.995712 -0.000007 0.566598
6.547769 75.495125 -0.000006 0.560143
7.185780 76.599831 -0.000006 0.531792
-14.215314 40.244728 14.567114 0.676646
-14.398349 39.932854 12.913943 0.664134
-14.398353 39.932842 11.194674 0.648035
-14.398347 39.932854 9.495765 0.626490
-14.398353 39.932842 7.813279 0.648783
-14.398355 39.932838 6.143417 0.637598
-14.398356 39.932838 4.482496 0.641062
-14.398356 39.932838 2.826908 0.661952
-14.404248 39.922798 1.172902 0.760266
-9.427464 48.402725 -0.000030 0.337942
-1.167103 62.477516 -0.000015 0.540291
2.379330 68.520264 -0.000011 0.551217
4.354500 71.885750 -0.000009 0.517006
5.615476 74.034317 -0.000008 0.537789
6.491899 75.527657 -0.000006 0.548547
7.137608 76.627876 -0.000006 0.586252
-14.535888 40.391006 14.576463 0.667063
-14.815120 39.922741 12.961653 0.758129
-14.809096 39.932846 11.232725 0.622339
-14.815120 39.922741 9.528536 0.759106
-14.815118 39.922741 7.838692 0.743038
-14.809100 39.932842 6.160564 0.625559
-14.815120 39.922741 4.493348 0.751705
-14.809106 39.932831 2.830329 0.623026
-14.809102 39.932838 1.169670 0.644099
-9.672030 48.547523 -0.000025 0.338201
-1.313661 62.564224 -0.000015 0.537346
2.274870 68.582062 -0.000011 0.565759
4.273488 71.933678 -0.000009 0.549477
5.549431 74.073395 -0.000007 0.558282
6.436259 75.560570 -0.000006 0.552178
7.089633 76.656258 -0.000005 0.562448
-14.856128 40.538860 14.586046 0.682170
-15.262374 39.868282 13.021500 0.678431
-15.223262 39.932846 11.271551 0.625971
-15.262368 39.868294 9.569636 0.678431
-15.262374 39.868282 7.870569 0.678431
-15.223264 39.932842 6.178061 0.655924
-15.262376 39.868279 4.506960 0.678431
-15.223258 39.932850 2.833822 0.644160
-15.223260 39.932850 1.166178 0.637964
-9.915626 48.693947 -0.000025 0.338216
-1.459610 62.651947 -0.000015 0.550195
2.170846 68.644592 -0.000011 0.533516
4.192811 71.982170 -0.000009 0.550988
5.483662 74.112923 -0.000007 0.539986
6.380851 75.593872 -0.000006 0.496147
7.041858 76.684975 -0.000005 0.464744
-15.211734 40.630318 14.612915 0.659861
-15.680692 39.868286 13.068583 0.678431
-15.640954 39.932850 11.311160 0.628809
-15.680694 39.868279 9.601975 0.678431
-15.680694 39.868279 7.895648 0.678431
-15.640956 39.932850 6.195909 0.635477
-15.680694 39.868279 4.517671 0.678431
-15.640954 39.932850 2.837384 0.643931
-15.640956 39.932846 1.162617 0.613413
-10.158202 48.842060 -0.000025 0.338277
-1.604944 62.740692 -0.000015 0.533562
2.067258 68.707840 -0.000011 0.551705
4.112476 72.031227 -0.000009 0.558145
5.418170 74.152916 -0.000007 0.555352
6.325675 75.627563 -0.000006 0.543450
6.994284 76.714020 -0.000005 0.539895
-15.625504 40.631561 14.667278 0.677394
-16.103382 39.867039 13.116930 0.111254
-16.062244 39.932854 11.351563 0.614221
-16.103378 39.867050 9.635178 0.108202
-16.103382 39.867043 7.921400 0.144015
-16.062244 39.932854 6.214115 0.633158
-16.103382 39.867046 4.528666 0.109575
-16.062252 39.932850 2.841017 0.662669
-16.062252 39.932850 1.158983 0.642969
-10.399735 48.991863 -0.000024 0.338079
-1.749652 62.830452 -0.000014 0.544762
1.964118 68.771820 -0.000011 0.552758
4.032483 72.080833 -0.000009 0.542535
5.352958 74.193359 -0.000008 0.521859
6.270736 75.661644 -0.000006 0.535332
6.946913 76.743401 -0.000006 0.546532
-16.043903 40.631229 14.723208 0.637629
-16.509205 39.898266 13.157940 0.862043
-16.487240 39.932861 11.392776 0.645243
-16.528221 39.868305 9.668610 0.678431
-16.509212 39.898251 7.943245 0.850492
-16.487244 39.932858 6.232687 0.626993
-16.509209 39.898258 4.537994 0.862760
-16.487244 39.932858 2.844724 0.643610
-16.487244 39.932858 1.155276 0.623789
-10.640170 49.143433 -0.000020 0.338964
-1.893739 62.921211 -0.000014 0.552529
1.861420 68.836510 -0.000011 0.546899
3.952837 72.131004 -0.000009 0.549081
5.288028 74.234261 -0.000007 0.533028
6.216036 75.696098 -0.000006 0.535302
6.899747 76.773109 -0.000006 0.537041
-16.918755 39.928612 14.989557 0.638285
-16.916019 39.932854 13.198997 0.623392
-16.916023 39.932850 11.434823 0.628885
-16.916019 39.932861 9.691542 0.642466
-16.916019 39.932861 7.965112 0.619577
-16.916019 39.932858 6.251634 0.619364
-16.916019 39.932858 4.547334 0.626535
-16.916016 39.932861 2.848504 0.657481
-16.916019 39.932854 1.151495 0.636698
-10.879598 49.296585 -0.000020 0.338796
-2.037187 63.012974 -0.000014 0.527184
1.759179 68.901917 -0.000011 0.536248
3.873547 72.181732 -0.000008 0.546014
5.223387 74.275612 -0.000007 0.539681
6.161578 75.730934 -0.000006 0.570459
6.852792 76.803154 -0.000006 0.514214
-17.352051 39.927689 15.048877 0.673030
-17.348671 39.932854 13.249901 0.643793
-17.348663 39.932861 11.477708 0.674357
-17.348671 39.932850 9.726505 0.640299
-17.348671 39.932846 7.992226 0.634058
-17.348671 39.932850 6.270962 0.646357
-17.348675 39.932846 4.558913 0.640818
-17.348663 39.932865 2.852362 0.634440
-17.348667 39.932858 1.147639 0.662409
-11.117934 49.451420 -0.000020 0.337209
-2.179985 63.105743 -0.000014 0.535027
1.657394 68.968025 -0.000011 0.541619
3.794611 72.233009 -0.000009 0.535119
5.159037 74.317413 -0.000008 0.554788
6.107364 75.766151 -0.000006 0.532540
6.806047 76.833519 -0.000006 0.540413
-17.789165 39.927029 15.109303 0.672190
-17.785301 39.932850 13.301826 0.633692
-17.785294 39.932858 11.521450 0.645502
-17.785294 39.932858 9.762167 0.655924
-17.785301 39.932850 8.019884 0.672709
-17.785297 39.932850 6.290675 0.647929
-17.785305 39.932842 4.570724 0.622065
-17.785294 39.932858 2.856296 0.612634
-17.785301 39.932846 1.143705 0.639872
-11.355193 49.607914 -0.000021 0.339147
-2.322136 63.199501 -0.000014 0.544427
1.556082 69.034859 -0.000010 0.525673
3.716036 72.284836 -0.000009 0.532372
5.094982 74.359665 -0.000007 0.566644
6.053398 75.801750 -0.000006 0.529458
6.759517 76.864212 -0.000005 0.564202
-18.230255 39.926525 15.170885 0.680919
-18.225998 39.932835 13.354789 0.634058
-18.164391 40.024147 11.546030 0.647059
-18.164391 40.024143 9.782204 0.658457
-18.164394 40.024139 8.035424 0.648615
-18.164402 40.024132 6.301750 0.628122
-18.164402 40.024124 4.577360 0.649119
-18.164394 40.024132 2.858506 0.622065
-18.225994 39.932838 1.139691 0.646906
-11.591304 49.766121 -0.000016 0.338521
-2.463626 63.294250 -0.000015 0.532570
1.455236 69.102394 -0.000010 0.527306
3.637825 72.337212 -0.000009 0.543847
5.031221 74.402367 -0.000007 0.503532
5.999681 75.837723 -0.000006 0.542275
6.713201 76.895226 -0.000005 0.568795
-18.674347 39.927761 15.233165 0.643503
-18.670868 39.932842 13.408807 0.644953
-18.164379 40.672325 11.448492 0.649088
-18.164391 40.672298 9.702691 0.646433
-18.164391 40.672298 7.973758 0.628016
-18.164387 40.672306 6.257798 0.654902
-18.164391 40.672302 4.551024 0.641794
-18.164402 40.672291 2.849734 0.624582
-18.670872 39.932835 1.135599 0.635203
-11.826348 49.925915 -0.000016 0.339590
-2.604451 63.389992 -0.000014 0.529442
1.354859 69.170631 -0.000010 0.532052
3.559979 72.390129 -0.000009 0.545205
4.967759 74.445503 -0.000007 0.524254
5.946217 75.874069 -0.000006 0.512993
6.667102 76.926567 -0.000005 0.520745
-19.003613 40.100258 15.244450 0.638819
-19.120007 39.932842 13.463902 0.665232
-18.164371 41.307400 11.353382 0.638254
-18.164379 41.307384 9.625154 0.625742
-18.164383 41.307384 7.913625 0.652369
-18.164383 41.307384 6.214937 0.647059
-18.164387 41.307373 4.525346 0.647013
-18.164394 41.307365 2.841182 0.670283
-19.120018 39.932823 1.131425 0.644495
-12.060277 50.087337 -0.000016 0.338064
-2.744608 63.486706 -0.000014 0.528618
1.254962 69.239563 -0.000011 0.541421
3.482507 72.443596 -0.000009 0.546044
4.904601 74.489090 -0.000007 0.571313
5.893010 75.910782 -0.000006 0.569741
6.621223 76.958221 -0.000005 0.547997
-19.330318 40.277515 15.255031 0.667262
-19.573540 39.932835 13.520097 0.640253
-18.175724 41.913757 11.264197 0.632029
-18.175732 41.913750 9.552448 0.640757
-18.175732 41.913750 7.857236 0.634318
-18.175743 41.913734 6.174749 0.649241
-18.175751 41.913719 4.501268 0.637018
-18.175751 41.913723 2.833161 0.667979
-18.355476 41.659023 1.161738 0.637171
-12.293073 50.250393 -0.000016 0.338354
-2.884085 63.584400 -0.000014 0.541787
1.155552 69.309196 -0.000010 0.539284
3.405407 72.497597 -0.000009 0.562646
4.841750 74.533112 -0.000007 0.524407
5.840057 75.947876 -0.000006 0.545968
6.575565 76.990204 -0.000006 0.526085
-19.658367 40.453922 15.266624 0.624018
-20.031548 39.932835 13.577411 0.651514
-18.616669 41.908512 11.311462 0.678431
-18.586220 41.951031 9.583220 0.783261
-18.616627 41.908569 7.887112 0.678431
-18.586220 41.951027 6.191757 0.748486
-18.616631 41.908569 4.514023 0.678431
-18.509285 42.058464 2.834393 0.725963
-20.031555 39.932823 1.122823 0.656703
-12.524671 50.415134 -0.000012 0.338735
-3.022878 63.683056 -0.000014 0.533883
1.056629 69.379517 -0.000010 0.542351
3.328690 72.552132 -0.000009 0.557076
4.779206 74.577576 -0.000007 0.548165
5.787366 75.985329 -0.000006 0.558831
6.530134 77.022499 -0.000005 0.536843
-19.983807 40.635075 15.277521 0.664042
-20.494167 39.932831 13.635871 0.617365
-19.058304 41.908531 11.358478 0.678431
-19.027409 41.951038 9.621510 0.750957
-19.058289 41.908550 7.916841 0.678431
-19.027409 41.951038 6.212922 0.759594
-19.058289 41.908550 4.526719 0.678431
-18.949390 42.058388 2.838608 0.722805
-20.519283 39.898273 1.117696 0.148867
-12.755158 50.581436 -0.000012 0.339345
-3.160972 63.782692 -0.000014 0.534615
0.958200 69.450531 -0.000010 0.541405
3.252355 72.607208 -0.000009 0.528069
4.716974 74.622467 -0.000007 0.542306
5.734940 76.023155 -0.000006 0.538491
6.484930 77.055115 -0.000005 0.534905
-20.310650 40.815357 15.289445 0.666697
-20.961506 39.932819 13.695498 0.639231
-19.504444 41.908543 11.406428 0.678431
-19.473083 41.951057 9.660559 0.731502
-19.504440 41.908543 7.947160 0.678431
-19.473103 41.951038 6.234511 0.699672
-19.504448 41.908531 4.539667 0.678431
-19.393993 42.058304 2.842906 0.688838
-20.986977 39.898289 1.113175 0.129320
-12.984488 50.749317 -0.000012 0.338354
-3.298375 63.883282 -0.000014 0.546181
0.860269 69.522224 -0.000010 0.506996
3.176404 72.662811 -0.000009 0.539117
4.655056 74.667801 -0.000007 0.531075
5.682776 76.061340 -0.000006 0.550515
6.439952 77.088043 -0.000005 0.536507
-20.635086 41.000008 15.300777 0.663111
-21.481979 39.868282 13.773724 0.678431
-19.955212 41.908539 11.455339 0.678431
-19.914440 41.963024 9.698177 0.744106
-19.955204 41.908554 7.978083 0.678431
-19.923409 41.951038 6.256528 0.749416
-19.955215 41.908539 4.552874 0.678431
-19.842392 42.059307 2.847268 0.688930
-21.459511 39.898308 1.108564 0.175479
-13.212594 50.918873 -0.000007 0.338521
-3.435067 63.984837 -0.000013 0.542473
0.762839 69.594604 -0.000010 0.552895
3.100845 72.718941 -0.000008 0.543984
4.593457 74.713562 -0.000007 0.506081
5.630881 76.099899 -0.000006 0.545724
6.395205 77.121284 -0.000005 0.529656
-21.082531 41.023716 15.363502 0.671748
-21.959820 39.868275 13.835845 0.678431
-20.410706 41.908546 11.505229 0.678431
-20.369335 41.963032 9.738792 0.798749
-20.410706 41.908546 8.009626 0.678431
-20.378448 41.951031 6.278987 0.755245
-20.410702 41.908554 4.566341 0.678431
-20.296333 42.059181 2.851742 0.692317
-21.910782 39.932865 1.104570 0.642008
-13.439544 51.089966 -0.000007 0.337926
-3.571047 64.087341 -0.000014 0.539254
0.665921 69.667664 -0.000010 0.540703
3.025680 72.775604 -0.000008 0.530938
4.532180 74.759750 -0.000007 0.516976
5.579257 76.138809 -0.000006 0.528374
6.350694 77.154839 -0.000005 0.491081
nan nan nan 0.000000
-22.419651 39.898266 13.891033 0.841550
-20.871059 41.908558 11.556112 0.678431
-20.871056 41.908562 9.790422 0.685054
-20.871063 41.908550 8.041798 0.678431
-20.838337 41.951038 6.301896 0.761578
-20.871071 41.908543 4.580082 0.678431
-20.755142 42.059032 2.856305 0.684382
-22.393009 39.932854 1.099777 0.660716
-13.665311 51.262615 -0.000008 0.339269
-3.706311 64.190788 -0.000014 0.542245
0.569511 69.741394 -0.000010 0.538766
2.950908 72.832779 -0.000008 0.541924
4.471227 74.806366 -0.000007 0.545510
5.527904 76.178085 -0.000006 0.540307
6.306417 77.188698 -0.000005 0.553750
nan nan nan 0.000000
-22.880417 39.932880 13.946134 0.676341
-21.336391 41.908558 11.608017 0.678431
-21.336388 41.908554 9.832737 0.678813
-21.336395 41.908550 8.074614 0.678431
-21.303192 41.951031 6.325262 0.754986
-21.336388 41.908554 4.594095 0.678431
-21.218903 42.058887 2.860958 0.700404
-22.880432 39.932858 1.094887 0.665400
-13.889815 51.436905 -0.000004 0.339422
-3.840848 64.295174 -0.000014 0.541741
0.473618 69.815796 -0.000010 0.529030
2.876541 72.890488 -0.000009 0.521813
4.410601 74.853409 -0.000007 0.541558
5.476828 76.217712 -0.000006 0.547646
6.262377 77.222870 -0.000005 0.545495
nan nan nan 0.000000
-23.373215 39.932854 14.011971 0.614572
-21.763649 41.963020 11.648316 0.773999
-21.785454 41.935520 9.870795 0.717510
-21.785458 41.935516 8.104131 0.696605
-21.773151 41.951035 6.349097 0.776471
-21.785469 41.935501 4.606700 0.729671
-21.687763 42.058739 2.865705 0.689982
-23.373211 39.932858 1.089900 0.632898
-14.113151 51.612694 -0.000004 0.338231
-3.974657 64.400497 -0.000014 0.529824
0.378248 69.890869 -0.000010 0.530999
2.802579 72.948708 -0.000008 0.554376
4.350304 74.900871 -0.000007 0.521019
5.426030 76.257698 -0.000006 0.504356
6.218575 77.257347 -0.000005 0.535271
nan nan nan 0.000000
-23.871510 39.932827 14.079129 0.619303
-22.238701 41.963028 11.702255 0.765896
-22.282532 41.908527 9.919934 0.678431
-22.282528 41.908531 8.142239 0.678431
-22.248356 41.951023 6.373411 0.718349
-22.282532 41.908527 4.622973 0.678431
-22.161850 42.058586 2.870549 0.678996
-23.871475 39.932865 1.084812 0.669291
-14.335246 51.790039 -0.000004 0.338582
-4.107721 64.506760 -0.000014 0.539040
0.283405 69.966606 -0.000010 0.542306
2.729024 73.007446 -0.000008 0.546761
4.290341 74.948753 -0.000006 0.532540
5.375512 76.298042 -0.000006 0.532052
6.175018 77.292130 -0.000005 0.475959
nan nan nan 0.000000
-24.375408 39.932816 14.147636 0.654994
-22.645588 42.053162 11.736110 0.691432
-22.719105 41.963047 9.954412 0.750271
-22.719101 41.963051 8.168978 0.754971
-22.719105 41.963047 6.396941 0.746914
-22.719109 41.963043 4.634392 0.755245
-22.641285 42.058434 2.875489 0.695033
-22.880573 41.765121 1.118317 0.678355
-14.556050 51.968994 -0.000001 0.338338
-4.240045 64.613937 -0.000014 0.548516
0.189093 70.042999 -0.000010 0.539208
2.655882 73.066696 -0.000008 0.520943
4.230711 74.997055 -0.000007 0.520882
5.325277 76.338730 -0.000006 0.531548
6.131703 77.327217 -0.000005 0.562203
nan nan nan 0.000000
-24.885071 39.932816 14.217517 0.638025
-23.125652 42.058971 11.790745 0.730999
-23.196751 41.973049 9.998246 0.657115
-23.196754 41.973038 8.202973 0.621180
-23.196762 41.973034 6.421172 0.640269
-23.196758 41.973038 4.648909 0.655283
-23.126232 42.058266 2.880529 0.713695
-24.885044 39.932858 1.074326 0.654307
-14.775638 52.149437 -0.000000 0.339071
-4.371610 64.722054 -0.000013 0.525643
0.095317 70.120056 -0.000010 0.533654
2.583154 73.126450 -0.000008 0.502571
4.171422 75.045769 -0.000006 0.531991
5.275327 76.379776 -0.000006 0.552468
6.088634 77.362602 -0.000005 0.553506
nan nan nan 0.000000
-25.400681 39.932796 14.288815 0.641733
-23.616440 42.058548 11.847980 0.694469
-23.742344 41.908543 10.057409 0.678431
-23.742348 41.908531 8.248857 0.678431
-23.706673 41.951038 6.449326 0.726009
-23.742355 41.908524 4.668505 0.678431
-23.616810 42.058105 2.885670 0.691493
-25.400627 39.932861 1.068925 0.670298
-14.993972 52.331390 -0.000001 0.338659
-4.502420 64.831070 -0.000013 0.545052
0.002079 70.197754 -0.000010 0.550927
2.510844 73.186714 -0.000008 0.546181
4.112474 75.094902 -0.000007 0.548745
5.225667 76.421165 -0.000005 0.478813
6.045798 77.398270 -0.000011 0.523873
nan nan nan 0.000000
-25.922356 39.932785 14.361556 0.652796
-24.112526 42.058704 11.906231 0.696818
-24.240349 41.908554 10.105100 0.678431
-24.240349 41.908558 8.285843 0.678431
-24.204212 41.951012 6.475664 0.732250
-24.240356 41.908550 4.684298 0.678431
-24.078320 42.098888 2.890037 0.694347
-25.922295 39.932858 1.063415 0.613535
-15.210973 52.514938 0.000004 0.338125
-4.632471 64.941010 -0.000013 0.535180
-0.090610 70.276115 -0.000010 0.535882
2.438959 73.247482 -0.000008 0.531746
4.053870 75.144440 -0.000007 0.570123
5.176294 76.462898 -0.000006 0.528115
6.003229 77.434258 -0.000010 0.524804
nan nan nan 0.000000
-26.450253 39.932785 14.435766 0.620508
-24.614834 42.058517 11.965747 0.689937
-24.744320 41.908550 10.153758 0.678431
-24.744316 41.908554 8.323580 0.678431
-24.707649 41.951019 6.502532 0.752605
-24.744312 41.908558 4.700412 0.678431
-24.586300 42.091568 2.895539 0.699016
-26.450184 39.932861 1.057792 0.658961
-15.426734 52.699928 0.000004 0.338308
-4.761746 65.051834 -0.000014 0.536049
-0.182749 70.355118 -0.000010 0.537774
2.367501 73.308746 -0.000008 0.528572
3.995615 75.194382 -0.000006 0.538354
5.127215 76.504974 -0.000006 0.561257
5.960912 77.470543 -0.000010 0.490883
nan nan nan 0.000000
-26.984558 39.932789 14.511487 0.627939
-25.122612 42.059059 12.026299 0.686366
-25.254425 41.908531 10.203410 0.678431
-25.254425 41.908535 8.362087 0.678431
-25.217220 41.951015 6.529949 0.761990
-25.254406 41.908558 4.716856 0.678431
-25.104935 42.079250 2.901258 0.692607
-26.984509 39.932850 1.052054 0.683757
-15.641202 52.886436 0.000005 0.336965
-4.890252 65.163574 -0.000014 0.533669
-0.274343 70.434753 -0.000010 0.541375
2.296469 73.370506 -0.000008 0.534478
3.937708 75.244736 -0.000006 0.551522
5.078432 76.547394 -0.000005 0.531228
5.918848 77.507118 -0.000011 0.543969
nan nan nan 0.000000
-27.421471 40.049858 14.554936 0.683970
-27.525391 39.932850 12.605638 0.631800
-25.770802 41.908516 10.254074 0.678431
-25.770798 41.908520 8.401379 0.678431
-25.733063 41.951012 6.557923 0.757900
-25.770760 41.908562 4.733633 0.678431
-25.637814 42.058262 2.907284 0.713756
-27.525379 39.932858 1.046200 0.618158
-15.854789 53.073948 -0.000027 0.546075
-5.017970 65.276207 -0.000013 0.538506
-0.365375 70.515030 -0.000010 0.510414
2.225868 73.432770 -0.000008 0.543801
3.880154 75.295494 -0.000006 0.574655
5.029943 76.590157 -0.000006 0.562280
5.877040 77.543983 -0.000010 0.568978
nan nan nan 0.000000
-27.766811 40.272839 14.568763 0.655512
-28.082039 39.922840 12.674517 0.748409
-26.293621 41.908508 10.305776 0.678431
-26.293617 41.908508 8.441475 0.678431
-26.255333 41.951015 6.586472 0.776150
-26.293560 41.908573 4.750754 0.678431
-26.239315 41.968800 2.914937 0.529534
-28.082039 39.922840 1.040006 0.747539
-16.066654 53.263405 -0.000027 0.540597
-5.144895 65.389732 -0.000013 0.544030
-0.455843 70.595940 -0.000010 0.560616
2.155709 73.495522 -0.000008 0.518425
3.822956 75.346649 -0.000006 0.544030
4.981755 76.633255 -0.000006 0.556954
5.835491 77.581146 -0.000010 0.518029
nan nan nan 0.000000
-28.110878 40.498543 14.582582 0.651896
-28.668968 39.887527 12.751025 0.678431
-26.823032 41.908504 10.358538 0.678431
-26.823025 41.908512 8.482391 0.678431
-26.784145 41.951077 6.615599 0.778378
-26.823036 41.908501 4.768232 0.678431
-26.773396 41.962845 2.920880 0.782010
-28.666363 39.890381 1.033188 0.730755
-16.277164 53.454357 -0.000027 0.542672
-5.271024 65.504135 -0.000013 0.551308
-0.545739 70.677483 -0.000010 0.512764
2.085990 73.558762 -0.000007 0.537575
3.766119 75.398201 -0.000006 0.539254
4.933873 76.676682 -0.000005 0.510124
5.794204 77.618599 -0.000010 0.506157
nan nan nan 0.000000
-28.540928 40.632778 14.624122 0.672267
-29.231243 39.887524 12.820287 0.678431
-27.331451 41.938515 10.406316 0.832563
-27.331467 41.938503 8.519451 0.826886
-27.308769 41.963005 6.644001 0.757229
-27.331409 41.938564 4.784053 0.828626
-27.314529 41.956791 2.926949 0.779156
-27.461231 41.798405 1.069519 0.680003
-16.486359 53.646767 -0.000027 0.539910
-5.396359 65.619415 -0.000013 0.550881
-0.635072 70.759644 -0.000010 0.546838
2.016707 73.622482 -0.000008 0.562722
3.709639 75.450150 -0.000006 0.545464
4.886289 76.720451 -0.000006 0.566674
5.753176 77.656334 -0.000011 0.552178
nan nan nan 0.000000
-29.102711 40.630714 14.707210 0.665721
-29.800819 39.887524 12.890980 0.678431
-29.800819 39.887527 10.878644 0.678431
-29.800831 39.887512 8.885759 0.733669
-29.800827 39.887516 6.907826 0.678431
-29.800823 39.887520 4.940486 0.678431
-29.676941 40.019398 2.976501 0.727657
-29.806664 39.881302 1.020399 0.750759
-16.694172 53.840652 -0.000025 0.537209
-5.520877 65.735565 -0.000013 0.529595
-0.723821 70.842438 -0.000009 0.531884
1.947878 73.686684 -0.000008 0.514595
3.653527 75.502495 -0.000006 0.547250
4.839017 76.764549 -0.000005 0.509346
5.712415 77.694351 -0.000010 0.540887
nan nan nan 0.000000
-30.338909 39.928482 15.000871 0.623270
-30.334789 39.932812 12.951761 0.652232
-30.334785 39.932812 10.928194 0.641550
-30.334785 39.932812 8.924187 0.654597
-30.334778 39.932819 6.935215 0.635889
-30.334778 39.932819 4.956894 0.626780
-30.253456 40.018192 2.982997 0.707805
-30.334789 39.932804 1.015072 0.651011
-16.900650 54.035965 -0.000025 0.538796
-5.644589 65.852585 -0.000013 0.530480
-0.811996 70.925842 -0.000010 0.528786
1.879497 73.751373 -0.000007 0.517037
3.597781 75.555229 -0.000006 0.510735
4.792049 76.808968 -0.000006 0.571405
5.671918 77.732658 -0.000011 0.520256
nan nan nan 0.000000
-30.924267 39.927376 15.088559 0.675364
-31.141129 39.702866 13.083521 0.755611
