# This PCD file was generated using the MATLABÂ® pcwrite function
# from Computer Vision ToolboxÂ®.
# .PCD v.7 - Point Cloud Data file format
VERSION .7
FIELDS x y z intensity
SIZE 4 4 4 4
TYPE F F F F
COUNT 1 1 1 1
WIDTH 1264
HEIGHT 1
VIEWPOINT 0 0 0 1 0 0 0
POINTS 1264
DATA ascii
nan nan nan 0.000000
nan nan nan 0.000000
nan nan nan 0.000000
nan nan nan 0.000000
nan nan nan 0.000000
nan nan nan 0.000000
nan nan nan 0.000000
nan nan nan 0.000000
nan nan nan 0.000000
89.122818 87.324219 -0.000047 0.536492
92.292702 71.315132 -0.000030 0.535561
93.653633 64.441917 -0.000023 0.551156
94.411598 60.613922 -0.000019 0.525154
94.895493 58.170082 -0.000016 0.543587
95.231812 56.471546 -0.000019 0.567636
95.479599 55.220123 -0.000017 0.547936
nan nan nan 0.000000
nan nan nan 0.000000
nan nan nan 0.000000
nan nan nan 0.000000
nan nan nan 0.000000
nan nan nan 0.000000
nan nan nan 0.000000
nan nan nan 0.000000
nan nan nan 0.000000
89.401825 87.378433 -0.000047 0.539528
92.459862 71.347626 -0.000030 0.530816
93.772774 64.465073 -0.000023 0.545998
94.503998 60.631882 -0.000019 0.582757
94.970818 58.184723 -0.000016 0.525078
95.295273 56.483879 -0.000019 0.528420
95.534317 55.230759 -0.000017 0.557900
nan nan nan 0.000000
nan nan nan 0.000000
nan nan nan 0.000000
nan nan nan 0.000000
nan nan nan 0.000000
nan nan nan 0.000000
nan nan nan 0.000000
nan nan nan 0.000000
nan nan nan 0.000000
89.681190 87.430710 -0.000046 0.544656
92.627243 71.378952 -0.000030 0.544671
93.892075 64.487404 -0.000023 0.536583
94.596519 60.649197 -0.000019 0.570306
95.046242 58.198841 -0.000016 0.542367
95.358818 56.495773 -0.000019 0.580468
95.589104 55.241013 -0.000017 0.516747
nan nan nan 0.000000
nan nan nan 0.000000
nan nan nan 0.000000
nan nan nan 0.000000
nan nan nan 0.000000
nan nan nan 0.000000
nan nan nan 0.000000
nan nan nan 0.000000
nan nan nan 0.000000
89.960922 87.481041 -0.000046 0.538140
92.794838 71.409096 -0.000030 0.552972
94.011528 64.508896 -0.000023 0.534218
94.689163 60.665867 -0.000019 0.537484
95.121765 58.212429 -0.000016 0.533837
95.422440 56.507217 -0.000018 0.562417
95.643967 55.250881 -0.000016 0.557977
nan nan nan 0.000000
nan nan nan 0.000000
nan nan nan 0.000000
nan nan nan 0.000000
nan nan nan 0.000000
nan nan nan 0.000000
nan nan nan 0.000000
nan nan nan 0.000000
nan nan nan 0.000000
90.240997 87.529419 -0.000046 0.541711
92.962639 71.438087 -0.000030 0.533623
94.131134 64.529556 -0.000023 0.535943
94.781914 60.681885 -0.000018 0.552010
95.197388 58.225491 -0.000016 0.542748
95.486145 56.518223 -0.000018 0.542184
95.698898 55.260368 -0.000016 0.541070
nan nan nan 0.000000
nan nan nan 0.000000
nan nan nan 0.000000
nan nan nan 0.000000
nan nan nan 0.000000
nan nan nan 0.000000
nan nan nan 0.000000
nan nan nan 0.000000
nan nan nan 0.000000
90.521400 87.575836 -0.000046 0.542184
93.130646 71.465904 -0.000030 0.535775
94.250877 64.549377 -0.000023 0.542260
94.874779 60.697262 -0.000018 0.539132
95.273094 58.238022 -0.000016 0.534752
95.549927 56.528782 -0.000018 0.572839
95.753891 55.269474 -0.000016 0.581292
nan nan nan 0.000000
nan nan nan 0.000000
nan nan nan 0.000000
nan nan nan 0.000000
nan nan nan 0.000000
nan nan nan 0.000000
nan nan nan 0.000000
nan nan nan 0.000000
nan nan nan 0.000000
90.802124 87.620308 -0.000047 0.538445
93.298836 71.492538 -0.000030 0.534737
94.370750 64.568367 -0.000023 0.549752
94.967751 60.711990 -0.000019 0.545571
95.348885 58.250031 -0.000016 0.554223
95.613777 56.538895 -0.000018 0.508919
95.808945 55.278194 -0.000015 0.508370
nan nan nan 0.000000
nan nan nan 0.000000
nan nan nan 0.000000
89.888924 95.750092 9.251680 0.541329
89.849876 96.014526 7.654729 0.653986
89.849876 96.014534 6.030411 0.497108
89.888924 95.750107 4.401657 0.600031
89.888924 95.750107 2.799980 0.634867
89.888924 95.750099 1.200019 0.590784
91.083145 87.662811 -0.000046 0.538064
93.467209 71.518005 -0.000030 0.537865
94.490761 64.586510 -0.000023 0.541360
95.060822 60.726063 -0.000019 0.548333
95.424759 58.261505 -0.000016 0.530953
95.677704 56.548561 -0.000018 0.546456
95.864059 55.286530 -0.000016 0.553384
94.539139 65.114395 6.483950 0.508705
94.539139 65.114395 5.866231 0.404288
94.539139 65.114388 5.257184 0.605005
94.539139 65.114395 4.655352 0.815930
94.539139 65.114395 4.059336 0.778515
94.529297 65.184395 3.473588 0.084627
94.529297 65.184395 2.882889 0.094118
94.529297 65.184395 2.294086 0.086275
94.529297 65.184395 1.705914 0.094118
94.529297 65.184395 1.117111 0.094118
94.529297 65.184395 0.526411 0.094118
94.610893 64.603821 -0.000023 0.542657
95.153992 60.739487 -0.000019 0.555138
95.500710 58.272449 -0.000016 0.499107
95.741692 56.557781 -0.000018 0.521889
95.919235 55.294479 -0.000015 0.515953
94.665215 65.114395 6.479664 0.606729
94.665215 65.114395 5.862535 0.470588
94.665215 65.114395 5.254071 0.419623
94.665215 65.114388 4.652813 0.381430
94.665215 65.114395 4.057368 0.540002
94.652542 65.209396 3.474248 0.678431
94.652542 65.209396 2.883284 0.678431
94.652542 65.209396 2.294218 0.678431
94.652542 65.209396 1.705782 0.678431
94.652542 65.209396 1.116716 0.678431
94.652542 65.209396 0.525751 0.678431
94.731140 64.620300 -0.000023 0.546548
95.247246 60.752262 -0.000019 0.525704
95.576736 58.282860 -0.000016 0.527794
95.805740 56.566555 -0.000018 0.548638
95.974464 55.302040 -0.000015 0.551812
94.791061 65.114395 6.475605 0.837507
94.791061 65.114395 5.859035 0.449088
94.791061 65.114388 5.251122 0.651667
94.791061 65.114395 4.650409 0.618051
94.791061 65.114395 4.055503 0.653239
94.779060 65.209396 3.472912 0.678431
94.779060 65.209396 2.882484 0.678431
94.779060 65.209396 2.293951 0.678431
94.779060 65.209396 1.706049 0.678431
94.779060 65.209396 1.117516 0.678431
94.779060 65.209396 0.527087 0.678431
94.851501 64.635933 -0.000023 0.534630
95.340591 60.764389 -0.000019 0.542809
95.652832 58.292747 -0.000016 0.540856
95.869850 56.574883 -0.000018 0.546746
96.029739 55.309219 -0.000015 0.553826
94.916679 65.114395 6.471770 0.787549
94.916679 65.114395 5.855729 0.542611
94.916679 65.114395 5.248337 0.713542
94.916679 65.114395 4.648139 0.692500
94.916679 65.114395 4.053742 0.644984
94.908333 65.184395 3.469586 0.094118
94.908333 65.184395 2.880490 0.150408
94.908333 65.184395 2.293287 0.150408
94.908333 65.184395 1.706713 0.150408
94.908333 65.184402 1.119509 0.150408
94.908333 65.184395 0.530414 0.151568
94.971970 64.650719 -0.000023 0.543008
95.434021 60.775860 -0.000019 0.544350
95.728996 58.302097 -0.000016 0.545098
95.934013 56.582756 -0.000017 0.507652
96.085068 55.316013 -0.000015 0.530678
95.020782 65.304382 6.516047 0.659449
95.020782 65.304382 5.893906 0.659449
95.020782 65.304390 5.280501 0.659449
95.020782 65.304390 4.674360 0.659449
95.042091 65.114395 4.052084 0.518257
95.031441 65.209396 3.470462 0.678431
95.031441 65.209396 2.881015 0.678431
95.031441 65.209396 2.293462 0.678431
95.031441 65.209396 1.706538 0.678431
95.031441 65.209396 1.118984 0.678431
95.031441 65.209396 0.529538 0.678431
95.092537 64.664673 -0.000023 0.549172
95.527527 60.786678 -0.000019 0.525597
95.805229 58.310921 -0.000016 0.524086
95.998238 56.590191 -0.000017 0.526421
96.140442 55.322422 -0.000015 0.534005
95.147339 65.304382 6.512624 0.678340
95.147339 65.304390 5.890954 0.678340
95.147339 65.304390 5.278014 0.678340
95.147339 65.304390 4.672334 0.678340
95.167313 65.114395 4.050528 0.729564
95.157326 65.209396 3.469347 0.678431
95.157326 65.209396 2.880347 0.678431
95.157326 65.209396 2.293239 0.678431
95.157326 65.209396 1.706760 0.678431
95.157326 65.209396 1.119652 0.678431
95.157326 65.209396 0.530653 0.678431
95.213203 64.677780 -0.000023 0.538705
95.621101 60.796844 -0.000019 0.535561
95.881516 58.319206 -0.000016 0.555886
96.062508 56.597168 -0.000017 0.553979
96.195854 55.328438 -0.000015 0.567971
95.273712 65.304390 6.509425 0.678431
95.273712 65.304390 5.888196 0.678431
95.273712 65.304390 5.275691 0.678431
95.273712 65.304390 4.670439 0.678431
95.292343 65.114395 4.049075 0.627008
95.283028 65.209396 3.468305 0.678431
95.283028 65.209389 2.879723 0.678431
95.283028 65.209389 2.293031 0.678431
95.283028 65.209389 1.706968 0.678431
95.283028 65.209389 1.120277 0.678431
95.283028 65.209396 0.531694 0.678431
95.333954 64.690041 -0.000023 0.542321
95.714752 60.806358 -0.000019 0.532372
95.957855 58.326962 -0.000016 0.537118
96.126823 56.603703 -0.000017 0.530388
96.251312 55.334072 -0.000015 0.522698
95.403473 65.265312 6.496622 0.249516
95.403473 65.265312 5.877157 0.242222
95.403473 65.265320 5.266391 0.272984
95.403473 65.265320 4.662857 0.165286
95.417206 65.114395 4.047723 0.698573
95.408562 65.209396 3.467337 0.647822
95.408562 65.209389 2.879143 0.647822
95.408562 65.209389 2.292838 0.647822
95.408562 65.209389 1.707162 0.651133
95.408562 65.209389 1.120857 0.651133
95.408562 65.209396 0.532663 0.651133
95.454788 64.701469 -0.000023 0.541466
95.808464 60.815216 -0.000019 0.543481
96.034256 58.334183 -0.000016 0.499245
96.191185 56.609787 -0.000017 0.542290
96.306808 55.339317 -0.000014 0.552575
95.541908 65.114395 6.455939 0.390204
95.541908 65.114395 5.842080 0.581384
95.541908 65.114395 5.236837 0.538750
95.541908 65.114395 4.638765 0.659922
95.541908 65.114388 4.046473 0.624872
95.533936 65.209396 3.466441 0.542107
95.533936 65.209396 2.878607 0.536538
95.533936 65.209396 2.292660 0.536538
95.533936 65.209389 1.707341 0.536538
95.533936 65.209389 1.121394 0.536538
95.533936 65.209396 0.533559 0.536538
95.575699 64.712051 -0.000023 0.532326
95.902237 60.823421 -0.000019 0.545968
96.110703 58.340870 -0.000016 0.569650
96.255592 56.615417 -0.000016 0.533486
96.362335 55.344177 -0.000015 0.550729
95.666466 65.114395 6.453438 0.456214
95.666466 65.114395 5.839922 0.758053
95.666466 65.114395 5.235021 0.617136
95.666466 65.114395 4.637283 0.834928
95.666466 65.114395 4.045322 0.675898
95.659157 65.209396 3.465617 0.678431
95.659157 65.209396 2.878113 0.678431
95.659157 65.209396 2.292495 0.678431
95.659157 65.209396 1.707505 0.678431
95.659157 65.209396 1.121887 0.678431
95.659157 65.209396 0.534382 0.678431
95.696678 64.721779 -0.000023 0.529946
95.996063 60.830967 -0.000019 0.543389
96.187187 58.347023 -0.000017 0.532708
96.320030 56.620605 -0.000016 0.546487
96.417900 55.348644 -0.000014 0.521675
95.790894 65.114395 6.451155 0.463584
95.790894 65.114395 5.837954 0.387732
95.790894 65.114395 5.233362 0.924880
95.790894 65.114395 4.635931 0.496620
95.790894 65.114395 4.044274 0.705989
95.785995 65.184395 3.462811 0.094118
95.785995 65.184395 2.876432 0.090806
95.785995 65.184395 2.291935 0.094118
95.785995 65.184395 1.708065 0.094118
95.785995 65.184402 1.123568 0.094118
95.785995 65.184395 0.537189 0.094118
95.817726 64.730675 -0.000023 0.541558
96.089935 60.837868 -0.000019 0.548989
96.263718 58.352646 -0.000017 0.535851
96.384506 56.625336 -0.000016 0.531579
96.473495 55.352730 -0.000014 0.517220
95.915192 65.114395 6.449091 0.416327
95.915192 65.114395 5.836175 0.512001
95.915192 65.114395 5.231863 0.498772
95.915192 65.114395 4.634709 0.552956
95.915192 65.114395 4.043327 0.500420
95.909218 65.209396 3.464187 0.678431
95.909218 65.209396 2.877256 0.678431
95.909218 65.209396 2.292210 0.678431
95.909218 65.209396 1.707790 0.678431
95.909218 65.209396 1.122744 0.678431
95.909218 65.209396 0.535813 0.678431
95.938828 64.738716 -0.000024 0.542718
96.183861 60.844101 -0.000019 0.539940
96.340286 58.357735 -0.000017 0.500969
96.449013 56.629620 -0.000016 0.520653
96.529114 55.356422 -0.000014 0.547845
96.028763 65.304390 6.494911 0.547982
96.028763 65.304390 5.875684 0.546319
96.028763 65.304390 5.265148 0.553979
96.028763 65.304390 4.661844 0.553979
96.039383 65.114395 4.042480 0.706996
96.034073 65.209396 3.463580 0.678431
96.034073 65.209396 2.876892 0.678431
96.034073 65.209396 2.292089 0.678431
96.034073 65.209396 1.707911 0.678431
96.034073 65.209396 1.123107 0.678431
96.034073 65.209396 0.536420 0.678431
96.059990 64.745911 -0.000023 0.546517
96.277824 60.849682 -0.000019 0.552041
96.416885 58.362282 -0.000016 0.559030
96.513542 56.633453 -0.000016 0.655543
96.584755 55.359726 -0.000014 0.501198
96.154190 65.304390 6.493269 0.678431
96.154190 65.304390 5.874266 0.678431
96.154190 65.304390 5.263954 0.678431
96.154190 65.304390 4.660871 0.678431
96.163483 65.114395 4.041732 0.778241
96.158836 65.209396 3.463044 0.678431
96.158836 65.209396 2.876572 0.678431
96.158836 65.209396 2.291982 0.678431
96.158836 65.209396 1.708018 0.678431
96.158836 65.209396 1.123428 0.678431
96.158836 65.209396 0.536955 0.678431
96.181198 64.752266 -0.000023 0.550607
96.371819 60.854607 -0.000019 0.517510
96.493523 58.366299 -0.000017 0.510674
96.578102 56.636837 -0.000016 0.528038
96.640427 55.362640 -0.000014 0.551034
96.279533 65.304390 6.491844 0.678431
96.279533 65.304390 5.873037 0.678431
96.279533 65.304390 5.262919 0.678431
96.279533 65.304390 4.660027 0.678431
96.287498 65.114395 4.041085 0.705089
96.284836 65.177841 3.459991 0.228916
96.284836 65.177841 2.874742 0.297612
96.284836 65.177841 2.291372 0.198260
96.284836 65.177841 1.708628 0.137346
96.284836 65.177841 1.125258 0.062745
96.284836 65.177841 0.540008 0.088136
96.302444 64.757774 -0.000023 0.539956
96.465851 60.858879 -0.000019 0.551812
96.570175 58.369781 -0.000017 0.538705
96.642685 56.639767 -0.000015 0.554849
96.696106 55.365173 -0.000014 0.522835
96.404800 65.304390 6.490639 0.563958
96.404800 65.304382 5.871998 0.556649
96.404800 65.304390 5.262044 0.556649
96.404800 65.304398 4.659314 0.556649
96.411438 65.114395 4.040538 0.684245
96.408119 65.209396 3.462188 0.678431
96.408119 65.209396 2.876059 0.678431
96.408119 65.209396 2.291811 0.678431
96.408119 65.209396 1.708189 0.678431
96.408119 65.209396 1.123941 0.678431
96.408119 65.209396 0.537811 0.678431
96.423729 64.762428 -0.000023 0.526879
96.559914 60.862495 -0.000019 0.534905
96.646858 58.372726 -0.000016 0.510170
96.707291 56.642246 -0.000015 0.545083
96.751808 55.367310 -0.000014 0.560830
96.535316 65.114395 6.442046 0.401038
96.535316 65.114395 5.830099 0.536858
96.535316 65.114395 5.226745 0.612772
96.535316 65.114395 4.630536 0.556542
96.535316 65.114395 4.040091 0.617853
96.532661 65.209396 3.461868 0.678431
96.532661 65.209396 2.875866 0.678431
96.532661 65.209396 2.291747 0.678431
96.532661 65.209396 1.708253 0.678431
96.532661 65.209396 1.124133 0.678431
96.532661 65.209396 0.538132 0.678431
96.545036 64.766235 -0.000023 0.540551
96.653999 60.865448 -0.000019 0.538964
96.723557 58.375137 -0.000017 0.535134
96.771904 56.644279 -0.000015 0.533547
96.807526 55.369061 -0.000013 0.521996
96.659142 65.114395 6.441287 0.617517
96.659142 65.114395 5.829445 0.741329
96.659142 65.114395 5.226193 0.784817
96.659142 65.114395 4.630088 0.838544
96.659142 65.114395 4.039742 0.519448
96.657150 65.209396 3.461618 0.678431
96.657150 65.209396 2.875717 0.678431
96.657150 65.209396 2.291698 0.678431
96.657150 65.209396 1.708303 0.678431
96.657150 65.209396 1.124283 0.678431
96.657150 65.209396 0.538381 0.678431
96.666374 64.769211 -0.000023 0.550301
96.748100 60.867748 -0.000019 0.542947
96.800270 58.377010 -0.000016 0.521035
96.836533 56.645859 -0.000015 0.553445
96.863251 55.370422 -0.000013 0.568658
96.782936 65.114395 6.440745 0.556695
96.782936 65.114395 5.828979 0.408408
96.782936 65.114395 5.225800 0.760693
96.782936 65.114395 4.629766 0.449470
96.782936 65.114395 4.039495 0.802274
96.781609 65.209396 3.461441 0.675456
96.781609 65.209396 2.875610 0.675029
96.781609 65.209396 2.291661 0.676402
96.781609 65.209396 1.708338 0.676402
96.781609 65.209396 1.124389 0.678431
96.781609 65.209396 0.538560 0.678431
96.787727 64.771324 -0.000023 0.546654
96.842216 60.869392 -0.000019 0.546181
96.876999 58.378349 -0.000017 0.514458
96.901169 56.646984 -0.000015 0.519219
96.918983 55.371391 -0.000013 0.552758
96.906708 65.114395 6.440421 0.546242
96.906708 65.114395 5.828698 0.543557
96.906708 65.114395 5.225564 0.792096
96.906708 65.114395 4.629575 0.477058
96.906708 65.114395 4.039344 0.647761
96.906044 65.209396 3.461334 0.502571
96.906044 65.209396 2.875546 0.502571
96.906044 65.209396 2.291640 0.493919
96.906044 65.209396 1.708360 0.493019
96.906044 65.209396 1.124453 0.502571
96.906044 65.209396 0.538666 0.502571
96.909096 64.772598 -0.000023 0.534951
96.936333 60.870377 -0.000019 0.523751
96.953728 58.379150 -0.000016 0.519615
96.965820 56.647659 -0.000014 0.534081
96.974724 55.371979 -0.000013 0.551507
97.030464 65.304390 6.487903 0.484657
97.030464 65.304390 5.869639 0.484657
97.030464 65.304398 5.260058 0.484657
97.030464 65.304390 4.657694 0.484657
97.030464 65.114395 4.039294 0.490623
97.030464 65.209396 3.461298 0.673609
97.030464 65.209396 2.875525 0.673609
97.030464 65.209396 2.291633 0.673609
97.030464 65.209396 1.708367 0.673609
97.030464 65.209396 1.124475 0.673609
97.030464 65.209396 0.538702 0.673609
97.030464 64.773018 -0.000023 0.539681
97.030464 60.870708 -0.000019 0.519936
97.030464 58.379421 -0.000017 0.523919
97.030464 56.647884 -0.000014 0.515633
97.030464 55.372169 -0.000012 0.525475
97.155548 65.304390 6.488013 0.678431
97.155548 65.304390 5.869735 0.678431
97.155548 65.304390 5.260137 0.678431
97.155548 65.304390 4.657759 0.678431
97.154221 65.114395 4.039344 0.572320
97.154884 65.209396 3.461334 0.678431
97.154884 65.209396 2.875546 0.678431
97.154884 65.209396 2.291640 0.678431
97.154884 65.209396 1.708360 0.678431
97.154884 65.209396 1.124454 0.678431
97.154884 65.209396 0.538666 0.678431
97.151840 64.772598 -0.000023 0.548775
97.124596 60.870377 -0.000019 0.532876
97.107201 58.379154 -0.000017 0.545098
97.095116 56.647659 -0.000014 0.550622
97.086205 55.371975 -0.000012 0.546654
97.280647 65.304390 6.488340 0.678431
97.280647 65.304390 5.870017 0.678431
97.280647 65.304390 5.260375 0.678431
97.280647 65.304390 4.657953 0.678431
97.277992 65.114395 4.039495 0.606683
97.279320 65.209396 3.461440 0.678431
97.279320 65.209396 2.875610 0.678431
97.279320 65.209396 2.291661 0.678431
97.279320 65.209396 1.708338 0.678431
97.279320 65.209396 1.124390 0.678431
97.279320 65.209396 0.538560 0.678431
97.273201 64.771324 -0.000024 0.531899
97.218719 60.869392 -0.000019 0.519203
97.183937 58.378349 -0.000017 0.553918
97.159760 56.646980 -0.000014 0.542672
97.141945 55.371391 -0.000012 0.548791
97.405769 65.304390 6.488888 0.678431
97.405769 65.304390 5.870489 0.678431
97.405769 65.304390 5.260773 0.678431
97.405769 65.304390 4.658278 0.678431
97.401787 65.114395 4.039742 0.689265
97.403252 65.184395 3.459568 0.079377
97.403252 65.184387 2.874489 0.074510
97.403252 65.184395 2.291288 0.086275
97.403252 65.184402 1.708712 0.086275
97.403252 65.184395 1.125511 0.082689
97.403252 65.184395 0.540431 0.086275
97.394554 64.769211 -0.000023 0.532616
97.312836 60.867748 -0.000019 0.535775
97.260658 58.377010 -0.000017 0.562066
97.224396 56.645851 -0.000014 0.534264
97.197678 55.370419 -0.000012 0.551324
97.525620 65.114395 6.442046 0.610132
97.525620 65.114395 5.830098 0.776471
97.525620 65.114395 5.226744 0.894438
97.525620 65.114395 4.630536 0.867308
97.525620 65.114395 4.040091 0.804471
97.528267 65.209396 3.461868 0.678431
97.528267 65.209396 2.875866 0.678431
97.528267 65.209396 2.291747 0.647059
97.528267 65.209396 1.708253 0.647059
97.528267 65.209396 1.124133 0.647059
97.528267 65.209396 0.538132 0.678431
97.515892 64.766243 -0.000023 0.528023
97.406929 60.865448 -0.000019 0.552575
97.337372 58.375137 -0.000017 0.523690
97.289024 56.644272 -0.000014 0.552239
97.253403 55.369057 -0.000012 0.543191
97.649498 65.114395 6.443020 0.417304
97.649498 65.114388 5.830938 0.759060
97.649498 65.114395 5.227452 0.724773
97.649498 65.114395 4.631113 0.832532
97.649498 65.114395 4.040538 0.753201
97.652817 65.209396 3.462188 0.678431
97.652817 65.209396 2.876059 0.678431
97.652817 65.209396 2.291811 0.678431
97.652817 65.209396 1.708189 0.678431
97.652817 65.209396 1.123941 0.678431
97.652817 65.209396 0.537811 0.678431
97.637207 64.762436 -0.000023 0.526345
97.501015 60.862495 -0.000019 0.524880
97.414070 58.372726 -0.000017 0.549386
97.353638 56.642239 -0.000013 0.570779
97.309120 55.367302 -0.000012 0.532845
97.773438 65.114395 6.444212 0.431205
97.773438 65.114395 5.831966 0.519783
97.773438 65.114395 5.228318 0.654200
97.773438 65.114395 4.631819 0.686412
97.773438 65.114395 4.041085 0.620844
97.777412 65.209396 3.462581 0.678431
97.777412 65.209396 2.876294 0.678431
97.777412 65.209396 2.291889 0.678431
97.777412 65.209396 1.708111 0.678431
97.777412 65.209396 1.123706 0.678431
97.777412 65.209396 0.537419 0.678431
97.758484 64.757774 -0.000023 0.533379
97.595078 60.858879 -0.000019 0.545174
97.490753 58.369781 -0.000017 0.556405
97.418243 56.639755 -0.000013 0.556985
97.364822 55.365162 -0.000011 0.500053
97.897446 65.114395 6.445621 0.511864
97.897446 65.114395 5.833181 0.769146
97.897446 65.114395 5.229341 0.741604
97.897446 65.114395 4.632654 0.609934
97.897446 65.114395 4.041732 0.631861
97.902092 65.209396 3.463044 0.678431
97.902092 65.209396 2.876571 0.678431
97.902092 65.209396 2.291982 0.678431
97.902092 65.209396 1.708018 0.678431
97.902092 65.209396 1.123428 0.678431
97.902092 65.209396 0.536955 0.678431
97.879738 64.752266 -0.000023 0.542046
97.689110 60.854610 -0.000019 0.529244
97.567406 58.366299 -0.000017 0.525444
97.482826 56.636826 -0.000013 0.525765
97.420502 55.362629 -0.000011 0.545983
98.029930 65.264397 6.484878 0.031373
98.029930 65.264397 5.867032 0.031373
98.029930 65.264389 5.257859 0.071168
98.029930 65.264389 4.655902 0.093431
98.021545 65.114395 4.042480 0.675486
98.026855 65.209396 3.463580 0.678431
98.026855 65.209396 2.876892 0.678431
98.026855 65.209396 2.292089 0.678431
98.026855 65.209396 1.707911 0.678431
98.026855 65.209396 1.123107 0.678431
98.026855 65.209396 0.536420 0.678431
98.000938 64.745911 -0.000023 0.560021
97.783104 60.849686 -0.000020 0.521050
97.644043 58.362282 -0.000017 0.559823
97.547386 56.633438 -0.000013 0.547524
97.476173 55.359715 -0.000011 0.520867
98.157692 65.304390 6.496777 0.678431
98.157692 65.304390 5.877292 0.678431
98.157692 65.304390 5.266503 0.678431
98.157692 65.304398 4.662949 0.678431
98.145737 65.114395 4.043327 0.510719
98.150139 65.184395 3.462132 0.079377
98.150139 65.184395 2.876025 0.074510
98.150139 65.184395 2.291800 0.094118
98.150139 65.184395 1.708200 0.094118
98.150139 65.184395 1.123974 0.094118
98.150139 65.184395 0.537866 0.094118
98.122101 64.738716 -0.000023 0.538369
97.877075 60.844101 -0.000019 0.533349
97.720642 58.357735 -0.000017 0.559518
97.611916 56.629604 -0.000013 0.538766
97.531815 55.356407 -0.000011 0.552651
98.283325 65.304390 6.498863 0.678431
98.283325 65.304390 5.879089 0.678431
98.283325 65.304390 5.268018 0.678431
98.283325 65.304390 4.664184 0.678431
98.270035 65.114395 4.044275 0.488579
98.276680 65.209396 3.464866 0.678431
98.276680 65.209396 2.877663 0.678431
98.276680 65.209396 2.292346 0.678431
98.276680 65.209396 1.707655 0.678431
98.276680 65.209396 1.122337 0.678431
98.276680 65.209396 0.535133 0.678431
98.243202 64.730675 -0.000024 0.540764
97.970993 60.837864 -0.000020 0.544625
97.797211 58.352650 -0.000017 0.523171
97.676422 56.625320 -0.000012 0.577401
97.587433 55.352715 -0.000011 0.532387
98.409081 65.304382 6.501169 0.678431
98.409081 65.304390 5.881079 0.678431
98.409081 65.304390 5.269693 0.678431
98.409081 65.304390 4.665550 0.678431
98.394463 65.114395 4.045322 0.711696
98.401772 65.209396 3.465617 0.678431
98.401772 65.209396 2.878113 0.678431
98.401772 65.209396 2.292495 0.678431
98.401772 65.209396 1.707505 0.678431
98.401772 65.209396 1.121887 0.678431
98.401772 65.209396 0.534382 0.678431
98.364250 64.721786 -0.000023 0.524880
98.064873 60.830967 -0.000019 0.558724
97.873741 58.347027 -0.000017 0.538186
97.740898 56.620586 -0.000012 0.519188
97.643028 55.348629 -0.000010 0.546502
98.530083 65.246140 6.489057 0.685176
98.530083 65.246140 5.870635 0.617060
98.530083 65.246140 5.260895 0.688243
98.530083 65.246140 4.658377 0.616648
98.519020 65.114388 4.046472 0.753246
98.524902 65.184395 3.464384 0.079377
98.524902 65.184395 2.877374 0.074510
98.524895 65.184395 2.292249 0.086275
98.524895 65.184395 1.707751 0.086275
98.524902 65.184395 1.122626 0.086275
98.524902 65.184395 0.535615 0.086275
98.485237 64.712051 -0.000023 0.529519
98.158699 60.823421 -0.000019 0.530159
97.950233 58.340874 -0.000017 0.528145
97.805336 56.615398 -0.000012 0.555489
97.698593 55.344158 -0.000010 0.533593
98.643723 65.114395 6.458662 0.389456
98.643723 65.114395 5.844426 0.553674
98.643723 65.114395 5.238815 0.611536
98.643723 65.114395 4.640377 0.659983
98.643723 65.114395 4.047723 0.595804
98.652367 65.209396 3.467337 0.678431
98.652367 65.209389 2.879143 0.678431
98.652367 65.209396 2.292838 0.666667
98.652367 65.209396 1.707162 0.666667
98.652367 65.209389 1.120857 0.666667
98.652367 65.209396 0.532663 0.666667
98.606148 64.701469 -0.000023 0.542092
98.252464 60.815216 -0.000019 0.540825
98.026672 58.334187 -0.000017 0.507622
97.869743 56.609764 -0.000012 0.564553
97.754120 55.339298 -0.000010 0.557580
98.768585 65.114395 6.461606 0.670268
98.768585 65.114395 5.846964 0.678187
98.768585 65.114395 5.240953 0.604929
98.768585 65.114395 4.642120 0.855467
98.768585 65.114395 4.049074 0.688731
98.777901 65.209396 3.468305 0.678431
98.777901 65.209396 2.879723 0.678431
98.777901 65.209396 2.293031 0.678431
98.777901 65.209396 1.706968 0.678431
98.777901 65.209396 1.120276 0.678431
98.777901 65.209396 0.531694 0.678431
98.726974 64.690048 -0.000023 0.543938
98.346176 60.806358 -0.000019 0.517205
98.103073 58.326965 -0.000017 0.554528
97.934105 56.603680 -0.000012 0.504128
97.809616 55.334053 -0.000010 0.508553
98.893616 65.114395 6.464771 0.780713
98.893616 65.114395 5.849693 0.420005
98.893616 65.114395 5.243253 0.887221
98.893616 65.114388 4.643994 0.514549
98.893616 65.114395 4.050528 0.687007
98.903603 65.209396 3.469347 0.678431
98.903603 65.209396 2.880347 0.678431
98.903603 65.209396 2.293239 0.678431
98.903603 65.209396 1.706760 0.678431
98.903603 65.209396 1.119652 0.678431
98.903603 65.209396 0.530653 0.678431
98.847733 64.677780 -0.000023 0.536980
98.439827 60.796844 -0.000020 0.521492
98.179413 58.319206 -0.000017 0.503532
97.998421 56.597145 -0.000012 0.524208
97.865074 55.328419 -0.000010 0.534615
99.018837 65.114395 6.468159 0.725719
99.018837 65.114395 5.852614 0.506950
99.018837 65.114395 5.245713 0.808698
99.018837 65.114395 4.646000 0.601053
99.018837 65.114395 4.052083 0.525780
99.029495 65.209396 3.470462 0.503029
99.029495 65.209396 2.881015 0.496010
99.029495 65.209396 2.293462 0.524086
99.029495 65.209396 1.706538 0.534600
99.029495 65.209396 1.118984 0.534600
99.029495 65.209396 0.529538 0.534600
98.968391 64.664673 -0.000023 0.537316
98.533401 60.786682 -0.000019 0.554910
98.255707 58.310921 -0.000017 0.539345
98.062691 56.590164 -0.000012 0.545815
97.920486 55.322399 -0.000010 0.507012
99.166901 65.304390 6.519698 0.678431
99.166901 65.304390 5.897055 0.678431
99.166901 65.304390 5.283153 0.678431
99.166901 65.304390 4.676522 0.678431
99.144249 65.114395 4.053742 0.730999
99.155579 65.209396 3.471650 0.678431
99.155579 65.209396 2.881727 0.678431
99.155579 65.209396 2.293699 0.678431
99.155579 65.209396 1.706301 0.678431
99.155579 65.209396 1.118272 0.678431
99.155579 65.209396 0.528349 0.678431
99.088959 64.650719 -0.000023 0.536736
98.626907 60.775860 -0.000019 0.523781
98.331932 58.302101 -0.000017 0.535363
98.126907 56.582729 -0.000011 0.530846
97.975861 55.315990 -0.000009 0.498817
99.293869 65.304382 6.523572 0.678431
99.293877 65.304390 5.900397 0.678431
99.293869 65.304390 5.285968 0.678431
99.293869 65.304390 4.678817 0.678431
99.269867 65.114395 4.055503 0.745052
99.281876 65.209396 3.472912 0.678431
99.281876 65.209396 2.882484 0.678431
99.281876 65.209396 2.293951 0.678431
99.281876 65.209396 1.706049 0.678431
99.281876 65.209396 1.117516 0.678431
99.281876 65.209396 0.527087 0.678431
99.209427 64.635933 -0.000023 0.535622
98.720337 60.764389 -0.000019 0.533501
98.408096 58.292751 -0.000017 0.529519
98.191078 56.574852 -0.000011 0.516335
98.031189 55.309196 -0.000009 0.538018
99.421066 65.304390 6.527677 0.678431
99.421066 65.304382 5.903933 0.678431
99.421066 65.304390 5.288949 0.678431
99.421066 65.304390 4.681248 0.678431
99.395714 65.114395 4.057368 0.646387
99.408394 65.209396 3.474248 0.678431
99.408394 65.209396 2.883284 0.678431
99.408394 65.209396 2.294218 0.678431
99.408394 65.209396 1.705782 0.678431
99.408394 65.209396 1.116716 0.678431
99.408394 65.209396 0.525751 0.678431
99.329788 64.620300 -0.000023 0.541665
98.813683 60.752266 -0.000019 0.559121
98.484192 58.282867 -0.000017 0.541680
98.255188 56.566521 -0.000011 0.551049
98.086464 55.302017 -0.000009 0.560204
99.542877 65.264389 6.521893 0.117418
99.542870 65.264389 5.898946 0.140734
99.542870 65.264389 5.284745 0.109911
99.542870 65.264389 4.677821 0.142611
99.521790 65.114395 4.059337 0.648020
99.535141 65.209396 3.475659 0.678431
99.535141 65.209396 2.884129 0.678431
99.535141 65.209396 2.294499 0.678431
99.535141 65.209396 1.705501 0.678431
99.535141 65.209396 1.115871 0.678431
99.535141 65.209396 0.524341 0.678431
99.450035 64.603828 -0.000023 0.538918
98.906937 60.739491 -0.000019 0.547539
98.560219 58.272453 -0.000017 0.526558
98.319237 56.557747 -0.000011 0.568338
98.141693 55.294449 -0.000008 0.530800
99.648117 65.114395 6.488463 0.799374
99.648117 65.114395 5.870122 0.439094
99.648117 65.114395 5.260463 0.613016
99.648117 65.114395 4.658024 0.537560
99.648117 65.114395 4.061409 0.619196
99.662148 65.209396 3.477144 0.543633
99.662148 65.209396 2.885019 0.543633
99.662148 65.209396 2.294795 0.543633
99.662148 65.209396 1.705204 0.543633
99.662148 65.209396 1.114981 0.543633
99.662148 65.209396 0.522856 0.543633
99.570168 64.586517 -0.000023 0.542031
99.000107 60.726067 -0.000020 0.547021
98.636169 58.261509 -0.000017 0.532860
98.383224 56.548531 -0.000010 0.583719
98.196861 55.286499 -0.000008 0.478462
99.774704 65.114395 6.493204 0.598779
99.774704 65.114395 5.874210 0.846357
99.774704 65.114395 5.263907 0.726802
99.774704 65.114395 4.660832 0.805814
99.774704 65.114395 4.063586 0.541985
99.789413 65.209396 3.478704 0.678431
99.789413 65.209396 2.885953 0.678431
99.789413 65.209396 2.295107 0.678431
99.789413 65.209396 1.704893 0.678431
99.789413 65.209396 1.114046 0.678431
99.789413 65.209396 0.521295 0.678431
99.690178 64.568375 -0.000023 0.551095
99.093178 60.711990 -0.000019 0.534066
98.712051 58.250031 -0.000017 0.576928
98.447144 56.538857 -0.000010 0.546471
98.251976 55.278160 -0.000008 0.533974
99.901566 65.114395 6.498175 0.467842
99.901566 65.114395 5.878496 0.625193
99.901566 65.114388 5.267517 0.586496
99.901566 65.114388 4.663776 0.430823
99.901566 65.114388 4.065869 0.802747
99.916954 65.209396 3.480341 0.678431
99.916954 65.209396 2.886934 0.678431
99.916954 65.209396 2.295434 0.678431
99.916954 65.209396 1.704566 0.678431
99.916954 65.209396 1.113066 0.678431
99.916954 65.209396 0.519659 0.678431
99.810051 64.549377 -0.000023 0.537118
99.186150 60.697266 -0.000019 0.515145
98.787842 58.238026 -0.000017 0.523156
98.510994 56.528744 -0.000010 0.540795
98.307030 55.269444 -0.000008 0.547066
100.028717 65.114388 6.503377 0.493874
100.028717 65.114395 5.882982 0.835355
100.028717 65.114388 5.271297 0.297810
100.028717 65.114388 4.666856 0.447974
100.028717 65.114388 4.068258 0.722301
100.044785 65.209396 3.482052 0.678431
100.044785 65.209396 2.887959 0.678431
100.044785 65.209396 2.295775 0.678431
100.044785 65.209396 1.704225 0.678431
100.044785 65.209396 1.112040 0.678431
100.044785 65.209396 0.517947 0.678431
99.929802 64.529556 -0.000023 0.537865
99.279015 60.681892 -0.000019 0.550698
98.863548 58.225494 -0.000017 0.544457
98.574776 56.518185 -0.000010 0.545159
98.362030 55.260334 -0.000008 0.519936
100.189667 65.304390 6.557137 0.678431
100.189667 65.304398 5.929337 0.678431
100.189667 65.304390 5.310349 0.678431
100.189667 65.304398 4.698694 0.678431
100.156166 65.114388 4.070754 0.454047
100.172920 65.209396 3.483840 0.493645
100.172920 65.209396 2.889031 0.455650
100.172920 65.209396 2.296132 0.455650
100.172920 65.209396 1.703868 0.455650
100.172920 65.209396 1.110968 0.651133
100.172920 65.209396 0.516159 0.630457
100.049400 64.508904 -0.000023 0.538170
99.371773 60.665871 -0.000020 0.550668
98.939163 58.212433 -0.000017 0.548837
98.638481 56.507179 -0.000010 0.535500
98.416954 55.250847 -0.000008 0.558358
100.318794 65.304390 6.562865 0.678431
100.318802 65.304390 5.934275 0.678431
100.318802 65.304390 5.314510 0.678431
100.318794 65.304390 4.702085 0.678431
100.283928 65.114388 4.073357 0.502266
100.301361 65.209396 3.485705 0.678431
100.301361 65.209396 2.890149 0.678431
100.301361 65.209396 2.296504 0.678431
100.301361 65.209396 1.703496 0.678431
100.301361 65.209396 1.109851 0.678431
100.301361 65.209389 0.514294 0.678431
100.168854 64.487404 -0.000023 0.537011
99.464409 60.649200 -0.000019 0.528725
99.014687 58.198845 -0.000017 0.571527
98.702103 56.495731 -0.000010 0.555184
98.471817 55.240978 -0.000008 0.578393
100.448257 65.304382 6.568829 0.678431
100.448265 65.304390 5.939418 0.678431
100.448265 65.304390 5.318843 0.678431
100.448265 65.304390 4.705618 0.678431
100.412018 65.114388 4.076067 0.590494
100.430138 65.209396 3.487648 0.678431
100.430138 65.209396 2.891313 0.678431
100.430138 65.209396 2.296892 0.678431
100.430138 65.209396 1.703108 0.678431
100.430138 65.209396 1.108687 0.678431
100.430138 65.209396 0.512351 0.678431
100.288155 64.465080 -0.000024 0.547387
99.556931 60.631886 -0.000019 0.520607
99.090111 58.184731 -0.000017 0.518914
98.765648 56.483837 -0.000009 0.557504
98.526604 55.230721 -0.000007 0.545846
100.570152 65.264389 6.564820 0.094118
100.570152 65.264389 5.935962 0.127077
100.570152 65.264397 5.315931 0.154589
100.570152 65.264397 4.703244 0.168750
100.540451 65.114395 4.078887 0.726024
100.555435 65.190079 3.488054 0.366415
100.555435 65.190079 2.891556 0.349676
100.555435 65.190079 2.296973 0.222797
100.555435 65.190079 1.703027 0.222156
100.555435 65.190079 1.108444 0.269154
100.555435 65.190079 0.511946 0.085451
100.407295 64.441925 -0.000023 0.539147
99.649338 60.613930 -0.000019 0.530388
99.165443 58.170086 -0.000017 0.552163
98.829109 56.471504 -0.000009 0.494347
98.581322 55.220085 -0.000007 0.545464
100.669235 65.114395 6.532896 0.497047
100.669235 65.114395 5.908434 0.574823
100.669235 65.114388 5.292739 0.419562
100.669235 65.114395 4.684338 0.530205
100.669235 65.114395 4.081815 0.674022
100.688736 65.209396 3.491767 0.678431
100.688736 65.209396 2.893781 0.678431
100.688736 65.209396 2.297714 0.678431
100.688736 65.209396 1.702286 0.678431
100.688736 65.209396 1.106220 0.678431
100.688736 65.209396 0.508233 0.678431
100.526276 64.417923 -0.000023 0.536904
99.741608 60.595318 -0.000019 0.543374
99.240662 58.154919 -0.000017 0.531197
98.892487 56.458721 -0.000009 0.545312
98.635963 55.209064 -0.000007 0.497063
100.798393 65.114395 6.539512 0.337362
100.798393 65.114395 5.914139 0.709804
100.798393 65.114395 5.297545 0.403479
100.798393 65.114395 4.688255 0.458000
100.798393 65.114388 4.084854 0.725093
100.818588 65.209396 3.493944 0.678431
100.818588 65.209396 2.895084 0.678431
100.818588 65.209396 2.298148 0.678431
100.818588 65.209396 1.701852 0.678431
100.818588 65.209389 1.104915 0.678431
100.818588 65.209396 0.506055 0.678431
100.645081 64.393105 -0.000023 0.529915
99.833748 60.576073 -0.000020 0.550759
99.315781 58.139229 -0.000017 0.523674
98.955765 56.445503 -0.000009 0.544472
98.690529 55.197666 -0.000007 0.544381
100.927940 65.114395 6.546369 0.599878
100.927940 65.114395 5.920051 0.864668
100.927940 65.114395 5.302526 0.798062
100.927940 65.114395 4.692317 0.374166
100.927940 65.114395 4.088003 0.406378
100.948822 65.209389 3.496200 0.678431
100.948822 65.209396 2.896437 0.678431
100.948822 65.209389 2.298598 0.678431
100.948822 65.209389 1.701401 0.678431
100.948822 65.209396 1.103563 0.678431
100.948822 65.209389 0.503799 0.678431
100.763718 64.367462 -0.000023 0.536812
99.925751 60.556179 -0.000019 0.527367
99.390785 58.123013 -0.000017 0.529122
99.018951 56.431839 -0.000008 0.549828
98.745010 55.185886 -0.000007 0.539452
101.057877 65.114395 6.553469 0.377539
101.057877 65.114395 5.926173 0.861067
101.057877 65.114395 5.307684 0.362341
101.057877 65.114395 4.696520 0.409857
101.057877 65.114395 4.091265 0.521691
101.570900 67.372475 3.680420 0.678431
101.570900 67.372482 3.006811 0.678431
101.570900 67.372475 2.335364 0.531060
101.570900 67.372475 1.664636 0.536736
101.570908 67.372482 0.993189 0.531060
101.570900 67.372482 0.319579 0.536736
100.882164 64.340981 -0.000023 0.522454
100.017609 60.535648 -0.000019 0.541115
99.465668 58.106270 -0.000017 0.554101
99.082047 56.417736 -0.000008 0.520165
98.799416 55.173725 -0.000006 0.537392
101.695580 67.277466 7.117341 0.448112
101.695580 67.277466 6.412364 0.545434
101.695572 67.277466 5.717286 0.899107
101.695572 67.277466 5.030440 0.721462
101.695572 67.277466 4.350232 0.887953
101.717857 67.372475 3.683130 0.678431
101.717857 67.372475 3.008435 0.678431
101.717857 67.372482 2.335905 0.678431
101.717857 67.372482 1.664095 0.678431
101.717857 67.372482 0.991565 0.678431
101.717857 67.372482 0.316869 0.678431
101.000427 64.313675 -0.000023 0.531212
100.109329 60.514473 -0.000019 0.518471
99.540443 58.089008 -0.000017 0.502022
99.145035 56.403191 -0.000008 0.542824
98.853729 55.161186 -0.000006 0.548028
101.842316 67.277466 7.125857 0.379034
101.842316 67.277473 6.419710 0.566949
101.842316 67.277473 5.723474 0.807355
101.842316 67.277466 5.035485 0.606256
101.842316 67.277466 4.354145 0.587625
101.865295 67.372475 3.685932 0.678431
101.865295 67.372475 3.010113 0.678431
101.865295 67.372475 2.336463 0.678431
101.865295 67.372482 1.663536 0.678431
101.865295 67.372482 0.989887 0.678431
101.865295 67.372482 0.314067 0.678431
101.118492 64.285553 -0.000023 0.535134
100.200897 60.492657 -0.000019 0.526925
99.615089 58.071224 -0.000017 0.565347
99.207924 56.388210 -0.000008 0.546304
98.907951 55.148266 -0.000005 0.538750
101.989548 67.277466 7.134655 0.413657
101.989548 67.277473 6.427294 0.448341
101.989548 67.277466 5.729865 0.730480
101.989548 67.277466 5.040694 0.682994
101.989548 67.277466 4.358185 0.559625
102.013237 67.372475 3.688826 0.666667
102.013237 67.372482 3.011846 0.666667
102.013237 67.372475 2.337041 0.666667
102.013237 67.372475 1.662959 0.666667
102.013237 67.372482 0.988153 0.666667
102.013237 67.372482 0.311173 0.678431
101.236359 64.256599 -0.000023 0.527489
100.292305 60.470203 -0.000019 0.531350
99.689613 58.052921 -0.000017 0.547051
99.270706 56.372787 -0.000008 0.542473
98.962082 55.134972 -0.000006 0.551720
102.137299 67.277466 7.143735 0.579538
102.137299 67.277473 6.435122 0.497261
102.137299 67.277466 5.736458 0.605661
102.137299 67.277466 5.046071 0.754482
102.137299 67.277466 4.362354 0.746365
102.161690 67.372467 3.691811 0.611032
102.161690 67.372467 3.013635 0.552087
102.161690 67.372475 2.337637 0.550179
102.161690 67.372475 1.662363 0.573343
102.161690 67.372467 0.986364 0.569055
102.161690 67.372467 0.308189 0.565667
101.354027 64.226830 -0.000023 0.547524
100.383560 60.447113 -0.000019 0.524163
99.764000 58.034096 -0.000017 0.536461
99.333382 56.356926 -0.000007 0.542000
99.016121 55.121296 -0.000005 0.532403
102.285576 67.277466 7.153097 0.719829
102.285576 67.277466 6.443196 0.627359
102.285576 67.277466 5.743259 0.458976
102.285576 67.277466 5.051615 0.732662
102.285576 67.277466 4.366654 0.608225
102.310677 67.372467 3.694891 0.678431
102.310677 67.372467 3.015480 0.678431
102.310677 67.372467 2.338252 0.678431
102.310677 67.372467 1.661748 0.678431
102.310677 67.372467 0.984520 0.678431
102.310677 67.372475 0.305108 0.678431
101.471481 64.196228 -0.000023 0.541192
100.474648 60.423386 -0.000020 0.532433
99.838264 58.014751 -0.000017 0.539269
99.395935 56.340630 -0.000007 0.514549
99.070061 55.107243 -0.000005 0.507012
102.475159 67.427475 7.201682 0.094118
102.486031 67.467484 6.494040 0.678431
102.486031 67.467484 5.786097 0.678431
102.486031 67.467484 5.086536 0.678431
102.434402 67.277466 4.371085 0.779751
102.453423 67.347466 3.695940 0.074083
102.453423 67.347466 3.016109 0.103456
102.453423 67.347466 2.338461 0.071168
102.453423 67.347466 1.661539 0.098405
102.453423 67.347466 0.983891 0.098405
102.453423 67.347466 0.304060 0.082002
101.588715 64.164818 -0.000022 0.533669
100.565575 60.399025 -0.000019 0.540093
99.912384 57.994892 -0.000017 0.539727
99.458382 56.323898 -0.000007 0.530922
99.123909 55.092815 -0.000005 0.531014
102.625679 67.427467 7.211693 0.094118
102.636848 67.467484 6.502693 0.678431
102.636848 67.467484 5.793384 0.678431
102.636848 67.467484 5.092477 0.678431
102.583794 67.277466 4.375650 0.791409
102.610321 67.372475 3.701333 0.678431
102.610321 67.372475 3.019340 0.678431
102.610321 67.372475 2.339537 0.678431
102.610321 67.372482 1.660462 0.678431
102.610321 67.372482 0.980659 0.678431
102.610321 67.372475 0.298666 0.678431
101.705727 64.132584 -0.000023 0.531167
100.656319 60.374023 -0.000019 0.535454
99.986366 57.974518 -0.000017 0.546319
99.520706 56.306728 -0.000006 0.545373
99.177643 55.078011 -0.000005 0.548409
102.776787 67.427483 7.222001 0.115618
102.788261 67.467484 6.511597 0.678431
102.788261 67.467484 5.800886 0.678431
102.788254 67.467484 5.098592 0.678431
102.733772 67.277466 4.380347 0.624323
102.761009 67.372467 3.704697 0.678431
102.761017 67.372467 3.021356 0.678431
102.761017 67.372467 2.340209 0.678431
102.761017 67.372475 1.659791 0.678431
102.761017 67.372475 0.978644 0.678431
102.761017 67.372475 0.295302 0.678431
101.822517 64.099541 -0.000023 0.532021
100.746895 60.348396 -0.000019 0.542489
100.060204 57.953621 -0.000017 0.518303
99.582916 56.289127 -0.000007 0.551156
99.231285 55.062836 -0.000005 0.520790
102.928497 67.427475 7.232604 0.145006
102.940277 67.467484 6.520756 0.678431
102.940277 67.467484 5.808603 0.678431
102.940277 67.467484 5.104884 0.678431
102.884354 67.277466 4.385180 0.585687
102.912308 67.372467 3.708158 0.678431
102.912308 67.372467 3.023429 0.678431
102.912308 67.372467 2.340899 0.678431
102.912308 67.372467 1.659100 0.678431
102.912308 67.372467 0.976570 0.678431
102.912315 67.372475 0.291841 0.678431
101.939072 64.065674 -0.000023 0.542992
100.837288 60.322140 -0.000019 0.525109
100.133888 57.932213 -0.000017 0.536629
99.644997 56.271088 -0.000006 0.538781
99.284813 55.047279 -0.000004 0.541634
103.080841 67.427490 7.243508 0.274342
103.080841 67.427483 6.521149 0.181613
103.080841 67.427475 5.808934 0.185779
103.080841 67.427483 5.105155 0.198291
103.035545 67.277466 4.390150 0.515435
103.064232 67.372467 3.711716 0.678431
103.064224 67.372467 3.025561 0.678431
103.064232 67.372467 2.341610 0.678431
103.064232 67.372467 1.658390 0.678431
103.064224 67.372467 0.974439 0.678431
103.064232 67.372475 0.288283 0.678431
102.055382 64.030998 -0.000023 0.530510
100.927490 60.295246 -0.000020 0.541421
100.207428 57.910290 -0.000017 0.529198
99.706947 56.252617 -0.000006 0.552178
99.338226 55.031357 -0.000004 0.519554
103.187386 67.277473 7.215376 0.543648
103.187386 67.277466 6.496893 0.516457
103.187386 67.277473 5.788499 0.473350
103.187386 67.277466 5.088495 0.361639
103.187386 67.277466 4.395257 0.585733
103.216797 67.372467 3.715374 0.654383
103.216797 67.372475 3.027753 0.654383
103.216797 67.372467 2.342340 0.656519
103.216797 67.372467 1.657660 0.654383
103.216797 67.372475 0.972247 0.654383
103.216797 67.372475 0.284625 0.654383
102.171455 63.995514 -0.000023 0.532876
101.017509 60.267723 -0.000019 0.546654
100.280815 57.887856 -0.000017 0.528969
99.768776 56.233719 -0.000006 0.551858
99.391533 55.015057 -0.000004 0.502953
103.339882 67.277473 7.226797 0.541939
103.339882 67.277473 6.506743 0.565194
103.339882 67.277473 5.796797 0.665721
103.339882 67.277473 5.095261 0.530159
103.339882 67.277466 4.400503 0.643427
103.370010 67.372467 3.719131 0.626963
103.370010 67.372467 3.030004 0.678431
103.370010 67.372467 2.343090 0.678431
103.370010 67.372467 1.656911 0.678431
103.370010 67.372467 0.969996 0.678431
103.370018 67.372467 0.280868 0.678431
102.287270 63.959221 -0.000023 0.538796
101.107330 60.239574 -0.000019 0.544732
100.354042 57.864906 -0.000017 0.529610
99.830460 56.214382 -0.000006 0.557519
99.444725 54.998386 -0.000003 0.542107
103.493050 67.277473 7.238529 0.406744
103.493050 67.277473 6.516856 0.554711
103.493050 67.277473 5.805318 0.763333
103.493050 67.277473 5.102205 0.639719
103.493050 67.277473 4.405890 0.458106
103.515793 67.347473 3.720834 0.074510
103.515793 67.347473 3.031024 0.086275
103.515800 67.347473 2.343429 0.074510
103.515800 67.347473 1.656571 0.074510
103.515793 67.347473 0.968976 0.094118
103.515793 67.347473 0.279165 0.094118
102.402832 63.922119 -0.000023 0.520424
101.196953 60.210800 -0.000019 0.533623
100.427101 57.841450 -0.000017 0.542367
99.892014 56.194618 -0.000005 0.552605
99.497795 54.981346 -0.000004 0.529473
103.646927 67.277481 7.250567 0.477272
103.646927 67.277473 6.527237 0.744213
103.646927 67.277481 5.814062 0.435447
103.646927 67.277473 5.109335 0.582971
103.646927 67.277473 4.411419 0.340429
103.678528 67.372475 3.726948 0.518410
103.678528 67.372475 3.034688 0.678431
103.678528 67.372475 2.344650 0.678431
103.678528 67.372475 1.655351 0.678431
103.678528 67.372475 0.965312 0.678431
103.678528 67.372482 0.273051 0.678431
102.518135 63.884209 -0.000023 0.525887
101.286369 60.181396 -0.000019 0.570596
100.500000 57.817478 -0.000017 0.538766
99.953430 56.174427 -0.000005 0.526802
99.550751 54.963936 -0.000003 0.527657
103.801506 67.277473 7.262917 0.494179
103.801506 67.277473 6.537886 0.549706
103.801506 67.277473 5.823034 0.776471
103.801506 67.277473 5.116649 0.629099
103.801506 67.277473 4.417091 0.703471
103.833847 67.372475 3.731011 0.518410
103.833847 67.372475 3.037121 0.678431
103.833847 67.372475 2.345461 0.678431
103.833847 67.372482 1.654540 0.678431
103.833847 67.372482 0.962878 0.678431
103.833847 67.372482 0.268988 0.678431
102.633163 63.845493 -0.000023 0.530068
101.375587 60.151375 -0.000019 0.509621
100.572731 57.793007 -0.000017 0.506874
100.014702 56.153805 -0.000005 0.521813
99.603584 54.946156 -0.000003 0.557656
103.956833 67.277481 7.275584 0.442283
103.956833 67.277481 6.548808 0.384634
103.956833 67.277481 5.832235 0.712886
103.956833 67.277481 5.124151 0.542687
103.956833 67.277481 4.422910 0.574868
103.981201 67.347466 3.733006 0.094118
103.981201 67.347466 3.038316 0.094118
103.981201 67.347466 2.345859 0.094118
103.981201 67.347466 1.654142 0.094118
103.981201 67.347466 0.961683 0.062745
103.981201 67.347466 0.266994 0.094118
102.747925 63.805981 -0.000023 0.540078
101.464584 60.120731 -0.000019 0.568627
100.645287 57.768021 -0.000017 0.541924
100.075829 56.132755 -0.000005 0.532967
99.656288 54.928009 -0.000004 0.550591
104.112907 67.277481 7.288570 0.621607
104.112907 67.277481 6.560006 0.684947
104.112907 67.277481 5.841670 0.772610
104.112907 67.277481 5.131842 0.827634
104.112907 67.277481 4.428874 0.499641
104.147476 67.374557 3.739630 0.388602
104.146729 67.372467 3.042176 0.678431
104.146729 67.372467 2.347144 0.678431
104.146729 67.372467 1.652856 0.678431
104.146729 67.372467 0.957824 0.678431
104.146736 67.372467 0.260551 0.678431
102.862404 63.765667 -0.000023 0.535073
101.553368 60.089466 -0.000019 0.538140
100.717667 57.742535 -0.000017 0.541268
100.136803 56.111282 -0.000005 0.535485
99.708862 54.909492 -0.000003 0.503929
104.269768 67.277481 7.301882 0.465797
104.269768 67.277481 6.571481 0.882994
104.269768 67.277481 5.851337 0.547860
104.269768 67.277481 5.139723 0.673625
104.269768 67.277481 4.434986 0.485359
104.301826 67.365578 3.743224 0.339467
104.304337 67.372467 3.044799 0.678431
104.304337 67.372467 2.348018 0.678431
104.304337 67.372467 1.651983 0.678431
104.304337 67.372467 0.955201 0.678431
104.304337 67.372467 0.256174 0.678431
102.976601 63.724548 -0.000023 0.536248
101.641937 60.057579 -0.000019 0.535027
100.789864 57.716537 -0.000017 0.524590
100.197632 56.089386 -0.000005 0.532708
99.761314 54.890610 -0.000003 0.536538
