# This PCD file was generated using the MATLABÂ® pcwrite function
# from Computer Vision ToolboxÂ®.
# .PCD v.7 - Point Cloud Data file format
VERSION .7
FIELDS x y z intensity
SIZE 4 4 4 4
TYPE F F F F
COUNT 1 1 1 1
WIDTH 1256
HEIGHT 1
VIEWPOINT 0 0 0 1 0 0 0
POINTS 1256
DATA ascii
39.422775 -21.095135 4.736583 0.678431
39.422775 -21.095135 2.911543 0.678431
39.702766 -20.822601 1.094851 0.561395
50.167534 -10.636705 0.000040 0.338582
61.860992 0.745136 -0.000026 0.536843
66.881882 5.632227 -0.000018 0.543709
69.678238 8.354064 -0.000014 0.527306
71.463470 10.091717 -0.000011 0.537499
72.704330 11.299511 0.000010 0.341665
73.618477 12.189301 0.000011 0.340505
39.702816 -20.287296 15.762156 0.535531
39.702789 -20.287319 13.866261 0.488655
39.702766 -20.287342 11.996979 0.531716
39.422779 -20.556087 10.207398 0.678431
39.422779 -20.556087 8.365180 0.678431
39.422779 -20.556087 6.536782 0.678431
39.422779 -20.556087 4.718178 0.678431
39.422783 -20.556084 2.905412 0.678431
39.702766 -20.287342 1.100939 0.382605
49.970016 -10.432350 0.000039 0.338491
61.742649 0.867580 -0.000026 0.532311
66.797531 5.719494 -0.000019 0.529091
69.612823 8.421742 -0.000014 0.554635
71.410133 10.146893 -0.000011 0.532296
72.659401 11.345994 0.000010 0.330968
73.579742 12.229380 0.000011 0.339117
39.702816 -19.759163 15.670882 0.676371
39.702770 -19.759205 13.787565 0.768688
39.702766 -19.759209 11.930676 0.673655
39.422794 -20.024208 10.152960 0.678431
39.422791 -20.024212 8.322962 0.678431
39.422794 -20.024212 6.506692 0.678431
39.422794 -20.024212 4.700148 0.678431
39.422802 -20.024204 2.899406 0.678431
39.702774 -19.759201 1.106902 0.559121
49.773918 -10.226629 0.000039 0.338750
61.625153 0.990839 -0.000026 0.537697
66.713791 5.807352 -0.000018 0.547982
69.547874 8.489878 -0.000014 0.552438
71.357193 10.202437 -0.000011 0.525734
72.614799 11.392794 0.000012 0.331395
73.541283 12.269730 0.000011 0.341100
39.702808 -19.237968 15.581472 0.516915
39.702759 -19.238018 13.710470 0.836912
39.702766 -19.238007 11.865725 0.652995
39.422813 -19.499310 10.099631 0.678431
39.422813 -19.499310 8.281603 0.678431
39.422810 -19.499313 6.477213 0.678431
39.422813 -19.499310 4.682487 0.678431
39.422810 -19.499313 2.893523 0.678431
39.702774 -19.238003 1.112743 0.643626
49.579243 -10.019564 0.000037 0.337499
61.508526 1.114920 -0.000026 0.540917
66.630669 5.895795 -0.000017 0.543038
69.483406 8.558466 -0.000014 0.534020
71.304626 10.258348 -0.000012 0.332891
72.570526 11.439904 0.000013 0.331579
73.503105 12.310347 0.000011 0.336828
39.702812 -18.723515 15.493872 0.670573
39.702740 -18.723579 13.634945 0.453590
39.702774 -18.723553 11.802089 0.579934
39.493935 -18.915764 10.033053 0.160784
39.493935 -18.915768 8.229967 0.139147
39.493931 -18.915768 6.440410 0.160784
39.493931 -18.915768 4.660436 0.160784
39.493931 -18.915768 2.886178 0.160784
39.702774 -18.723549 1.118466 0.443305
49.386032 -9.811131 0.000036 0.337575
61.392769 1.239811 -0.000026 0.539620
66.548164 5.984810 -0.000017 0.547082
69.419418 8.627501 -0.000014 0.540825
71.252464 10.314627 -0.000013 0.329580
72.526581 11.487318 0.000013 0.337957
73.465210 12.351227 0.000011 0.333059
39.702721 -18.215717 15.408076 0.635294
39.702721 -18.215717 13.560947 0.465446
39.702763 -18.215675 11.739746 0.802579
39.422718 -18.469841 9.996223 0.678431
39.422722 -18.469837 8.201405 0.678431
39.422726 -18.469833 6.420053 0.678431
39.422718 -18.469841 4.648239 0.678431
39.422718 -18.469841 2.882116 0.678431
39.702766 -18.215675 1.124072 0.514305
49.194267 -9.601360 0.000035 0.338277
61.277889 1.365511 -0.000026 0.536629
66.466278 6.074398 -0.000018 0.549462
69.355919 8.696982 -0.000014 0.551934
71.241417 10.408228 0.009994 1.000000
72.482971 11.535035 0.000013 0.341558
73.427605 12.392372 0.000011 0.337224
39.552818 -17.848389 15.374370 0.197101
39.472717 -17.920071 13.555102 0.678431
39.702774 -17.714188 11.678658 0.533898
39.521301 -17.876591 9.926448 0.160784
39.521301 -17.876595 8.147291 0.160784
39.521297 -17.876595 6.381484 0.160784
39.521294 -17.876598 4.625130 0.160784
39.521297 -17.876595 2.874418 0.160784
39.702770 -17.714191 1.129566 0.582498
49.003998 -9.390247 0.000034 0.338827
61.163887 1.492006 -0.000026 0.531533
66.385025 6.164560 -0.000018 0.547753
69.292900 8.766905 -0.000014 0.533150
71.190346 10.464981 0.010003 1.000000
72.439690 11.583056 0.000012 0.339513
73.390289 12.433779 0.000010 0.336095
39.472733 -17.421925 15.318405 0.678431
39.472733 -17.421925 13.483634 0.678431
39.702774 -17.218925 11.618794 0.544091
39.422722 -17.466053 9.896923 0.678431
39.422726 -17.466053 8.124393 0.678431
39.422722 -17.466053 6.365163 0.678431
39.422718 -17.466061 4.615355 0.678431
39.422718 -17.466061 2.871161 0.678431
39.702770 -17.218929 1.134950 0.576776
48.815186 -9.177814 0.000034 0.338552
61.050774 1.619297 -0.000026 0.540276
66.304398 6.255282 -0.000018 0.536217
69.230377 8.837265 -0.000014 0.542351
71.139664 10.522089 0.010013 1.000000
72.396744 11.631380 0.000012 0.327276
73.353264 12.475445 0.000011 0.338186
39.472736 -16.929882 15.237177 0.678431
39.472736 -16.929882 13.413593 0.666529
39.702774 -16.729733 11.560131 0.568612
39.422726 -16.973400 9.848763 0.678431
39.422729 -16.973396 8.087044 0.678431
39.422726 -16.973400 6.338542 0.678431
39.422726 -16.973400 4.599402 0.678431
39.422726 -16.973400 2.865850 0.678431
39.702774 -16.729729 1.140226 0.450980
48.627861 -8.964071 0.000033 0.338125
60.938545 1.747374 -0.000026 0.537896
66.224411 6.346569 -0.000018 0.536278
69.168343 8.908061 -0.000014 0.530388
71.047791 10.543358 -0.000010 0.336309
72.354134 11.679999 0.000011 0.326818
73.316528 12.517369 0.000011 0.338293
39.702728 -16.246487 15.081671 0.673457
39.702736 -16.246479 13.279509 0.605020
39.702778 -16.246445 11.502640 0.525490
39.422729 -16.486698 9.801564 0.678431
39.422726 -16.486702 8.050438 0.678431
39.422729 -16.486698 6.312451 0.678431
39.422726 -16.486702 4.583772 0.678431
39.422726 -16.486702 2.860641 0.678431
39.702774 -16.246449 1.145397 0.666850
48.442039 -8.749025 0.000032 0.337789
60.827217 1.876226 -0.000026 0.537606
66.145065 6.438409 -0.000018 0.525521
69.106804 8.979288 -0.000014 0.540230
70.997620 10.601421 -0.000010 0.336721
72.311867 11.728916 0.000010 0.336889
73.280083 12.559547 0.000011 0.339788
39.702751 -15.768932 15.004095 0.702358
39.702747 -15.768940 13.212624 0.526619
39.702763 -15.768925 11.446297 0.569497
39.422729 -16.005791 9.755304 0.678431
39.422729 -16.005791 8.014561 0.678431
39.422729 -16.005791 6.286880 0.678431
39.422733 -16.005791 4.568449 0.678431
39.422729 -16.005791 2.855538 0.678431
39.702770 -15.768917 1.150463 0.551659
48.257721 -8.532686 0.000031 0.338354
60.716789 2.005853 -0.000026 0.535927
66.066360 6.530804 -0.000018 0.530388
69.045761 9.050942 -0.000014 0.531609
70.947868 10.659845 -0.000007 0.338781
72.269943 11.778124 0.000009 0.333532
73.243935 12.601980 0.000011 0.338781
39.675392 -15.319820 14.936988 0.541497
39.675385 -15.319824 13.154765 0.580789
39.702774 -15.296982 11.391069 0.693553
39.422726 -15.530529 9.709963 0.678431
39.422726 -15.530529 7.979398 0.678431
39.422729 -15.530525 6.261816 0.678431
39.422726 -15.530533 4.553432 0.678431
39.422733 -15.530525 2.850536 0.678431
39.702778 -15.296982 1.155431 0.479744
48.074921 -8.315060 0.000030 0.338323
60.607269 2.136253 -0.000026 0.548760
65.988297 6.623744 -0.000018 0.555962
68.985222 9.123022 -0.000014 0.538384
70.898529 10.718616 -0.000005 0.339178
72.228363 11.827631 0.000010 0.333562
73.208084 12.644665 0.000011 0.337087
39.472740 -15.019657 14.928135 0.678431
39.472729 -15.019669 13.147130 0.678431
39.702782 -14.830524 11.336935 0.588388
39.422745 -15.060764 9.665519 0.678431
39.422741 -15.060768 7.944931 0.678431
39.422745 -15.060764 6.237251 0.678431
39.422745 -15.060764 4.538714 0.678431
39.422749 -15.060760 2.845634 0.678431
39.702778 -14.830524 1.160298 0.630610
47.893646 -8.096170 0.000029 0.338491
60.498665 2.267409 -0.000026 0.550973
65.910889 6.717226 -0.000018 0.558129
68.925194 9.195522 -0.000014 0.534005
70.849602 10.777728 -0.000002 0.334478
72.187134 11.877419 0.000009 0.335134
73.172539 12.687597 0.000011 0.332647
39.472767 -14.555813 14.854657 0.678431
39.472763 -14.555817 13.083770 0.678248
39.702778 -14.369381 11.283875 0.528801
39.422749 -14.596352 9.621954 0.678431
39.422749 -14.596355 7.911145 0.678431
39.422752 -14.596355 6.213169 0.678431
39.422752 -14.596355 4.524286 0.678431
39.422745 -14.596359 2.840828 0.678431
39.702778 -14.369381 1.165071 0.668208
47.713898 -7.876009 0.000028 0.338201
60.390976 2.399326 -0.000026 0.527596
65.834137 6.811253 -0.000018 0.543069
68.865669 9.268443 -0.000013 0.554971
70.801071 10.837172 -0.000003 0.338781
72.146248 11.927497 0.000008 0.335271
73.137291 12.730781 0.000011 0.339208
39.702721 -13.913477 14.708906 0.674479
39.702728 -13.913473 12.958096 0.428092
39.702782 -13.913427 11.231857 0.606210
39.422752 -14.137182 9.579251 0.678431
39.422756 -14.137180 7.878024 0.678431
39.422749 -14.137184 6.189563 0.678431
39.422752 -14.137182 4.510143 0.678431
39.422752 -14.137182 2.836116 0.678431
39.702782 -13.913429 1.169749 0.581567
47.535698 -7.654604 0.000027 0.338506
60.284214 2.531991 -0.000026 0.537224
65.758041 6.905805 -0.000018 0.523827
68.806656 9.341774 -0.000013 0.555764
70.752968 10.896961 -0.000000 0.338827
72.105713 11.977859 0.000007 0.330144
73.102341 12.774205 0.000010 0.333440
39.702744 -13.462576 14.638705 0.553841
39.702782 -13.462547 12.897557 0.552697
39.702782 -13.462547 11.180869 0.775982
39.422764 -13.683107 9.537388 0.678431
39.422756 -13.683111 7.845560 0.678431
39.422760 -13.683109 6.166423 0.678431
39.422752 -13.683117 4.496280 0.678431
39.422752 -13.683113 2.831499 0.678431
39.702774 -13.462551 1.174334 0.830716
47.359043 -7.431967 0.000026 0.337987
60.178375 2.665391 -0.000026 0.543282
65.682610 7.000888 -0.000018 0.527916
68.748154 9.415515 -0.000013 0.547234
70.705292 10.957085 0.000002 0.335561
72.065529 12.028502 0.000007 0.342123
73.067696 12.817873 0.000010 0.336202
39.702766 -13.016600 14.569881 0.741619
39.702785 -13.016584 12.838223 0.619303
39.702785 -13.016584 11.130882 0.604349
39.422768 -13.233997 9.496346 0.678431
39.422764 -13.233999 7.813729 0.678431
39.422760 -13.234001 6.143739 0.678431
39.422760 -13.234001 4.482689 0.678431
39.422752 -13.234005 2.826971 0.678431
39.702774 -13.016594 1.178829 0.419806
47.183941 -7.208099 0.000025 0.337987
60.073479 2.799535 -0.000026 0.542168
65.607841 7.096496 -0.000018 0.543374
68.690170 9.489662 -0.000013 0.544503
70.658028 11.017540 0.000004 0.332540
72.025703 12.079426 0.000006 0.338903
73.033356 12.861780 0.000010 0.341314
39.702785 -12.575434 14.502411 0.525460
39.702782 -12.575436 12.780055 0.437995
39.702778 -12.575438 11.081876 0.664103
39.422775 -12.789721 9.456112 0.679164
39.422779 -12.789719 7.782525 0.678431
39.422768 -12.789724 6.121497 0.678431
39.422771 -12.789722 4.469362 0.678431
39.422768 -12.789726 2.822533 0.678431
39.702782 -12.575436 1.183237 0.706447
47.010414 -6.983009 0.000024 0.338827
59.969513 2.934402 -0.000026 0.547189
65.533737 7.192622 -0.000018 0.531212
68.632698 9.564212 -0.000014 0.532174
70.611176 11.078315 0.000004 0.334768
71.986229 12.130625 0.000005 0.338537
72.999329 12.905930 0.000010 0.334798
39.253223 -12.478073 14.577327 0.541619
39.253223 -12.478073 12.844646 0.352132
39.253220 -12.478075 11.136292 0.595239
38.838409 -12.790955 9.525246 0.678431
38.838409 -12.790955 7.836140 0.678431
38.838413 -12.790953 6.159712 0.678431
38.838402 -12.790960 4.492259 0.678431
38.838406 -12.790956 2.830159 0.678431
39.253212 -12.478079 1.178342 0.682734
46.838482 -6.756702 0.000025 0.338308
59.866501 3.069994 -0.000026 0.530205
65.460320 7.289268 -0.000017 0.541527
68.575768 9.639170 -0.000012 0.338949
70.564766 11.139424 0.000007 0.339284
71.947128 12.182100 0.000005 0.339757
72.965599 12.950311 0.000009 0.337423
38.665642 -12.478079 14.695141 0.660334
38.665638 -12.478083 12.946230 0.551278
38.665638 -12.478085 11.221874 0.808881
38.244778 -12.790941 9.595730 0.678431
38.244781 -12.790937 7.890805 0.678431
38.244781 -12.790937 6.198672 0.678431
38.244781 -12.790936 4.515600 0.678431
38.244781 -12.790939 2.837935 0.678431
38.665642 -12.478079 1.170647 0.725246
46.668114 -6.529215 0.000024 0.337697
59.764431 3.206305 -0.000026 0.545357
65.387566 7.386422 -0.000018 0.537514
68.573502 9.754774 0.009998 1.000000
70.518784 11.200854 0.000009 0.333913
71.908371 12.233845 0.000004 0.329534
72.932190 12.994930 0.000010 0.341070
38.066936 -12.478071 14.815805 0.567300
38.066936 -12.478073 13.050271 0.718425
38.066933 -12.478075 11.309527 0.697856
37.639889 -12.790924 9.667926 0.678431
37.639896 -12.790918 7.946795 0.678431
37.639896 -12.790920 6.238578 0.678431
37.639896 -12.790920 4.539512 0.678431
37.639896 -12.790918 2.845898 0.678431
38.066933 -12.478075 1.162763 0.500221
46.499340 -6.300539 0.000023 0.338552
59.663315 3.343323 -0.000026 0.541115
65.315491 7.484078 -0.000018 0.536492
68.517914 9.830151 0.010002 1.000000
70.473213 11.262597 0.000009 0.336934
71.869987 12.285864 0.000004 0.334859
72.899086 13.039780 0.000009 0.338399
37.456715 -12.478065 14.939425 0.804517
37.456703 -12.478073 13.156863 0.641337
37.456699 -12.478077 11.399327 0.510521
37.182137 -12.676289 9.712837 0.160784
37.182129 -12.676292 7.981628 0.160784
37.182137 -12.676287 6.263407 0.160784
37.182129 -12.676292 4.554387 0.160784
37.182137 -12.676287 2.850854 0.160784
37.456699 -12.478075 1.154687 0.699153
46.332157 -6.070698 0.000022 0.338628
59.563156 3.481041 -0.000026 0.545007
65.244110 7.582239 -0.000018 0.535073
68.462837 9.905907 0.010005 1.000000
70.428093 11.324666 0.000011 0.334630
71.831955 12.338143 0.000003 0.327504
72.866302 13.084860 0.000009 0.335744
36.834568 -12.478065 15.066097 0.668070
36.834560 -12.478071 13.266086 0.539452
36.834557 -12.478073 11.491343 0.621958
36.394707 -12.790964 9.817690 0.678431
36.394711 -12.790962 8.062943 0.678431
36.394714 -12.790956 6.321363 0.678431
36.394756 -12.790928 4.589109 0.678431
36.394745 -12.790934 2.862420 0.678431
36.834545 -12.478081 1.146412 0.592615
46.166595 -5.839687 0.000021 0.338277
59.463978 3.619463 -0.000025 0.546044
65.173416 7.680895 -0.000017 0.538155
68.353241 9.942881 -0.000014 0.340917
70.383408 11.387048 0.000014 0.331350
71.794296 12.390690 0.000003 0.340169
72.833832 13.130166 0.000008 0.340627
35.833347 -12.735115 15.308104 0.497795
35.833340 -12.735121 13.474755 0.678431
36.200069 -12.478083 11.585651 0.423957
35.753635 -12.790987 9.895374 0.678431
35.753681 -12.790953 8.123184 0.678431
35.753704 -12.790937 6.364299 0.678431
35.753716 -12.790930 4.614835 0.678431
35.753712 -12.790932 2.870988 0.678431
36.200077 -12.478077 1.137930 0.694636
46.002640 -5.607540 0.000020 0.338552
59.365753 3.758565 -0.000025 0.548333
65.103409 7.780041 -0.000017 0.537026
68.298965 10.019783 -0.000012 0.335790
70.339149 11.449730 0.000014 0.331060
71.757004 12.443497 0.000002 0.335805
72.801682 13.175701 0.000008 0.330053
35.496578 -12.516914 15.346139 0.450584
35.496582 -12.516911 13.507544 0.660929
35.552814 -12.478079 11.682331 0.598001
35.099751 -12.790934 9.974991 0.678431
35.099751 -12.790934 8.184938 0.678431
35.099743 -12.790937 6.408317 0.678431
35.099743 -12.790937 4.641207 0.678431
35.099747 -12.790937 2.879774 0.678431
35.552822 -12.478077 1.129236 0.586526
45.840302 -5.374245 0.000019 0.338064
59.268505 3.898355 -0.000025 0.537469
65.034088 7.879676 -0.000017 0.543114
68.245216 10.097059 -0.000010 0.340200
70.295326 11.512723 0.000014 0.331930
71.720085 12.496565 0.000001 0.335668
72.769844 13.221457 0.000007 0.337423
34.892353 -12.478079 15.465483 0.635233
34.892372 -12.478065 13.610442 0.541939
34.892353 -12.478077 11.781456 0.663905
34.432472 -12.790922 10.056635 0.678431
34.432476 -12.790920 8.248255 0.678431
34.432472 -12.790922 6.453447 0.678431
34.432476 -12.790918 4.668246 0.678431
34.432468 -12.790926 2.888780 0.678431
34.892345 -12.478085 1.120321 0.561837
45.679626 -5.139811 0.000018 0.338827
59.172226 4.038813 -0.000025 0.534997
64.965469 7.979787 -0.000017 0.524086
68.192001 10.174702 -0.000010 0.336812
70.251930 11.576013 0.000012 0.343175
71.683533 12.549891 0.000001 0.334142
72.738327 13.267435 0.000007 0.336965
34.218185 -12.478075 15.605439 0.702754
33.834579 -12.735130 13.830859 0.678431
34.218185 -12.478073 11.883124 0.679164
33.790325 -12.764788 10.133411 0.352605
33.790337 -12.764778 8.307796 0.372610
33.790333 -12.764784 6.495885 0.264271
33.790333 -12.764780 4.693674 0.163302
33.790337 -12.764778 2.897250 0.160784
34.218182 -12.478077 1.111178 0.644602
45.520554 -4.904282 0.000017 0.338231
59.076942 4.179946 -0.000025 0.542916
64.897560 8.080382 -0.000017 0.553719
68.139343 10.252722 -0.000008 0.337362
70.208992 11.639610 0.000012 0.332799
71.647354 12.603467 0.000001 0.340307
72.707138 13.313631 0.000006 0.333822
33.529823 -12.478077 15.749015 0.588891
33.140488 -12.735056 13.955672 0.631891
33.529819 -12.478079 11.987419 0.521950
33.055782 -12.790966 10.226288 0.678431
33.055786 -12.790960 8.379827 0.678431
33.055786 -12.790960 6.547225 0.678431
33.055786 -12.790960 4.724433 0.678431
33.055798 -12.790955 2.907495 0.678431
33.529835 -12.478071 1.101799 0.530846
45.363174 -4.667624 0.000018 0.338430
58.982643 4.321739 -0.000025 0.550286
64.830345 8.181443 -0.000017 0.560922
68.087227 10.331106 -0.000006 0.334676
70.166496 11.703503 0.000011 0.330785
71.611557 12.657297 0.000001 0.338994
72.676270 13.360045 0.000006 0.339803
32.826748 -12.478077 15.896334 0.702663
32.826756 -12.478071 13.981944 0.637186
32.826736 -12.478083 12.094435 0.676722
32.345425 -12.790964 10.314433 0.678431
32.345425 -12.790964 8.448191 0.678431
32.345432 -12.790960 6.595947 0.678431
32.345428 -12.790962 4.753626 0.678431
32.345428 -12.790962 2.917220 0.678431
32.826744 -12.478079 1.092174 0.702419
45.207550 -4.429804 0.000023 0.338094
58.889339 4.464190 -0.000024 0.532815
64.763840 8.282973 -0.000017 0.535317
68.035652 10.409847 -0.000006 0.339010
70.124451 11.767691 0.000011 0.338338
71.576134 12.711374 0.000000 0.338720
72.645721 13.406672 0.000005 0.343725
32.108402 -12.478079 16.047537 0.744259
32.108414 -12.478069 14.112317 0.619486
32.108395 -12.478083 12.204271 0.485725
31.619633 -12.790976 10.404902 0.678431
31.619637 -12.790974 8.518353 0.678431
31.619652 -12.790964 6.645956 0.678431
31.619644 -12.790968 4.783588 0.678431
31.619652 -12.790964 2.927201 0.678431
32.108410 -12.478073 1.082297 0.761471
45.053772 -4.190790 0.000041 0.338308
58.797028 4.607284 -0.000025 0.546044
64.698044 8.384963 -0.000017 0.529335
67.984634 10.488953 -0.000004 0.335607
70.082848 11.832172 0.000010 0.336385
71.541084 12.765697 -0.000000 0.335256
72.615501 13.453512 0.000005 0.339651
31.374218 -12.478079 16.202770 0.399634
30.966522 -12.735079 14.350252 0.678431
31.374214 -12.478079 12.317032 0.550683
30.877903 -12.790941 10.497771 0.678431
30.877899 -12.790943 8.590376 0.678431
30.877895 -12.790945 6.697293 0.678431
30.877899 -12.790943 4.814345 0.678431
30.877907 -12.790943 2.937446 0.678431
31.374222 -12.478077 1.072155 0.586191
44.901646 -3.950724 0.000056 0.338201
58.705715 4.751020 -0.000025 0.547738
64.632965 8.487411 -0.000017 0.533944
67.934174 10.568411 -0.000002 0.336172
70.041702 11.896942 0.000010 0.332540
71.506424 12.820267 -0.000000 0.333913
72.585609 13.500562 0.000004 0.334691
30.623592 -12.478079 16.362175 0.574777
30.494247 -12.558359 14.416491 0.664714
30.623581 -12.478085 12.432828 0.677378
30.119415 -12.791002 10.593165 0.678431
30.119419 -12.791000 8.664357 0.678431
30.119415 -12.791002 6.750022 0.678431
30.119434 -12.790989 4.845937 0.678431
30.119427 -12.790997 2.947969 0.678431
30.623592 -12.478079 1.061742 0.454658
44.750984 -3.709738 0.000060 0.338064
58.615410 4.895390 -0.000024 0.533318
64.568604 8.590312 -0.000017 0.545647
67.884262 10.648212 -0.000002 0.338262
70.001007 11.961999 0.000010 0.342473
71.472137 12.875072 -0.000000 0.327611
72.556053 13.547819 0.000005 0.333806
29.855862 -12.478083 16.525925 0.509544
29.855953 -12.478027 14.524777 0.566842
29.855858 -12.478083 12.551773 0.607965
29.343815 -12.790960 10.691126 0.678431
29.343811 -12.790962 8.740331 0.678431
29.343803 -12.790966 6.804173 0.678431
29.343803 -12.790970 4.878382 0.678431
29.343807 -12.790964 2.958775 0.678431
29.855865 -12.478079 1.051044 0.749767
44.602032 -3.467688 0.000064 0.339529
58.526115 5.040390 -0.000025 0.536141
64.504959 8.693659 -0.000017 0.535225
67.834915 10.728372 0.000000 0.330587
69.960762 12.027338 0.000010 0.335943
71.438232 12.930121 -0.000000 0.334112
72.526817 13.595284 0.000004 0.339117
29.070435 -12.478075 16.694160 0.658289
28.643135 -12.735088 14.777556 0.678431
29.070415 -12.478086 12.673985 0.562875
28.837227 -12.618345 10.742112 0.160784
28.773163 -12.656879 8.788471 0.160784
28.773163 -12.656879 6.838485 0.160784
28.773163 -12.656879 4.898940 0.160784
28.773159 -12.656881 2.965624 0.160784
29.070438 -12.478071 1.040054 0.499290
44.628254 -3.120264 0.010014 1.000000
58.437840 5.186006 -0.000024 0.544747
64.442032 8.797444 -0.000017 0.522316
67.786125 10.808867 0.000002 0.331395
69.920982 12.092955 0.000010 0.338445
71.404724 12.985404 0.000000 0.333059
72.497925 13.642946 0.000004 0.345541
28.266525 -12.478075 16.867085 0.587076
27.993053 -12.639978 14.887600 0.644862
28.266518 -12.478085 12.799596 0.600748
28.266518 -12.478083 10.804145 0.622904
27.964500 -12.656879 8.868358 0.160784
27.964512 -12.656874 6.895423 0.160784
27.964504 -12.656878 4.933055 0.160784
27.964500 -12.656879 2.976986 0.160784
28.266525 -12.478077 1.028757 0.691890
44.307209 -2.981697 -0.000041 0.539422
58.350574 5.332234 -0.000025 0.537575
64.379837 8.901671 -0.000017 0.516503
67.737885 10.889698 0.000002 0.338659
69.881660 12.158850 0.000009 0.336385
71.371597 13.040918 -0.000000 0.333654
72.469360 13.690815 0.000004 0.334218
27.443420 -12.478077 17.044868 0.592523
27.443508 -12.478025 14.972232 0.722011
27.443516 -12.478022 12.928716 0.567330
27.443409 -12.478081 10.909429 0.602152
26.906307 -12.791012 8.981144 0.678431
26.906311 -12.791010 6.975811 0.678431
26.906307 -12.791012 4.981219 0.678431
26.906311 -12.791012 2.993030 0.678431
27.443428 -12.478071 1.017143 0.623697
44.163273 -2.736609 -0.000041 0.540108
58.264336 5.479073 -0.000024 0.536294
64.318375 9.006330 -0.000017 0.531243
67.690216 10.970863 0.000001 0.334539
69.842796 12.225019 0.000009 0.331548
71.338852 13.096663 -0.000001 0.331655
72.441132 13.738882 0.000004 0.339208
26.600365 -12.478081 17.227703 0.529747
26.152088 -12.735086 15.241502 0.678431
26.152096 -12.735083 13.155571 0.678431
26.600361 -12.478085 11.017700 0.759930
26.054596 -12.790981 9.065975 0.678431
26.054588 -12.790985 7.036277 0.678431
26.054592 -12.790979 5.017443 0.678431
26.054588 -12.790983 3.005097 0.678431
26.600376 -12.478073 1.005199 0.622431
44.021061 -2.490528 -0.000041 0.540368
58.179123 5.626506 -0.000025 0.534874
64.257645 9.111414 -0.000016 0.543877
67.643112 11.052356 0.000001 0.337392
69.804398 12.291454 0.000009 0.336110
71.306503 13.152636 -0.000000 0.335760
72.413231 13.787139 0.000003 0.343908
25.736500 -12.478090 17.415802 0.666850
25.491959 -12.616030 15.352725 0.539498
25.491966 -12.616026 13.249271 0.546838
25.736507 -12.478083 11.129089 0.667277
25.181839 -12.790960 9.153252 0.678431
25.181847 -12.790956 7.098481 0.675669
25.181831 -12.790964 5.054713 0.678431
25.181831 -12.790964 3.017512 0.678431
25.736519 -12.478077 0.992911 0.615625
43.880558 -2.243462 -0.000041 0.540459
58.094948 5.774536 -0.000024 0.541833
64.197639 9.216919 -0.000017 0.537545
67.596581 11.134182 0.000002 0.335592
69.766464 12.358158 0.000008 0.337102
71.274544 13.208831 -0.000000 0.339467
72.385674 13.835593 0.000003 0.336233
24.851059 -12.478067 17.609356 0.628962
24.851028 -12.478083 15.458985 0.671748
24.851059 -12.478067 13.338789 0.619135
24.851021 -12.478088 11.243719 0.703655
24.287109 -12.791008 9.243082 0.678431
24.287098 -12.791016 7.162509 0.678431
24.287098 -12.791014 5.093076 0.678431
24.287098 -12.791014 3.030289 0.678431
24.851048 -12.478071 0.980265 0.550851
43.741776 -1.995430 -0.000041 0.541405
58.011803 5.923144 -0.000024 0.537331
64.138382 9.322838 -0.000017 0.540307
67.550621 11.216325 0.000001 0.332769
69.728989 12.425123 0.000008 0.332509
71.242981 13.265249 -0.000001 0.335805
72.358459 13.884238 0.000003 0.346441
23.472130 -12.735073 17.943005 0.678431
23.942966 -12.478086 15.630806 0.643168
23.472122 -12.735077 13.581153 0.678431
23.942963 -12.478086 11.361726 0.661250
23.369671 -12.790997 9.335546 0.678431
23.369667 -12.791002 7.228413 0.678431
23.369659 -12.791002 5.132561 0.678431
23.369667 -12.790998 3.043442 0.678431
23.942982 -12.478075 0.967247 0.608530
43.604744 -1.746420 -0.000041 0.542153
57.929695 6.072330 -0.000024 0.558297
64.079941 9.429218 -0.000006 0.341039
67.505241 11.298790 0.000002 0.337011
69.691994 12.492352 0.000008 0.333608
71.211807 13.321886 -0.000001 0.343053
72.331581 13.933074 0.000003 0.340154
23.011532 -12.478012 18.013813 0.679149
23.011398 -12.478079 15.807747 0.720607
23.011532 -12.478012 13.632590 0.560433
23.011387 -12.478088 11.483252 0.641733
22.428478 -12.790983 9.430765 0.678431
22.428490 -12.790979 7.296280 0.678431
22.428482 -12.790983 5.173224 0.678431
22.428482 -12.790983 3.056986 0.678431
23.011398 -12.478083 0.953841 0.543389
43.469456 -1.496469 -0.000041 0.546426
57.848640 6.222086 -0.000024 0.534615
64.098724 9.577050 0.009990 1.000000
67.460442 11.381573 0.000003 0.328695
69.655464 12.559834 0.000008 0.342779
71.181038 13.378739 -0.000000 0.336416
72.305046 13.982093 0.000002 0.338003
22.055412 -12.478001 18.225225 0.436316
22.055264 -12.478077 15.990039 0.603754
22.055428 -12.477993 13.786157 0.530053
22.055252 -12.478085 11.608449 0.417105
21.716492 -12.656891 9.495819 0.160784
21.716503 -12.656885 7.342645 0.160784
21.716499 -12.656887 5.201005 0.160784
21.716492 -12.656891 3.066240 0.160784
22.055264 -12.478079 0.940029 0.602731
43.335892 -1.245584 -0.000041 0.540871
57.768623 6.372405 -0.000024 0.535561
64.041954 9.683640 0.009987 1.000000
67.416214 11.464663 0.000003 0.336507
69.619408 12.627570 0.000008 0.342748
71.150658 13.435806 -0.000001 0.343542
72.278854 14.031300 0.000002 0.339803
20.588455 -12.729780 18.580029 0.341970
21.073502 -12.478079 16.177904 0.482002
20.588467 -12.729776 14.043893 0.326329
21.073475 -12.478088 11.737478 0.673747
20.470493 -12.790998 9.629971 0.678431
20.470535 -12.790976 7.438262 0.678431
20.470554 -12.790966 5.258288 0.678431
20.470547 -12.790970 3.085320 0.678431
21.073494 -12.478079 0.925795 0.612177
43.204109 -0.993763 -0.000041 0.538201
57.689659 6.523276 -0.000024 0.548684
63.908920 9.750659 0.000003 0.337392
67.372566 11.548059 0.000003 0.342519
69.583824 12.695555 0.000007 0.340230
71.120682 13.493083 -0.000001 0.336416
72.253006 14.080685 0.000003 0.339483
20.064938 -12.478083 18.667793 0.713466
20.064930 -12.478086 16.371601 0.598123
20.064938 -12.478081 14.107646 0.687770
20.064922 -12.478086 11.870510 0.617014
19.451473 -12.791010 9.734214 0.678431
19.451466 -12.791018 7.512565 0.678431
19.451469 -12.791014 5.302808 0.678431
19.451462 -12.791018 3.100150 0.678431
20.064938 -12.478081 0.911119 0.536202
43.074100 -0.741016 -0.000040 0.540902
57.611755 6.674698 -0.000024 0.536690
63.853390 9.858582 0.000002 0.333562
67.329498 11.631760 0.000003 0.336507
69.548714 12.763788 0.000007 0.337591
71.091103 13.550569 -0.000001 0.336965
72.227509 14.130252 0.000003 0.344152
18.515778 -12.735083 19.043129 0.678431
19.028408 -12.478083 16.571377 0.398749
18.515759 -12.735094 14.380301 0.678431
19.028404 -12.478086 12.007718 0.631754
18.404346 -12.790949 9.841709 0.678431
18.404327 -12.790956 7.589183 0.678431
18.771786 -12.606735 5.328521 0.889799
18.404186 -12.791029 3.115442 0.678431
19.028412 -12.478081 0.895983 0.666468
42.945824 -0.487392 -0.000039 0.540215
57.534912 6.826661 -0.000024 0.536767
63.798615 9.966887 0.000002 0.334554
67.287025 11.715759 0.000004 0.339605
69.514084 12.832265 0.000007 0.337667
71.061928 13.608258 -0.000001 0.337972
72.202347 14.179994 0.000003 0.334508
17.962772 -12.477991 19.138515 0.506844
17.962589 -12.478079 16.777519 0.593088
17.962761 -12.477999 14.449586 0.465736
17.962578 -12.478086 12.149298 0.497932
17.599792 -12.656805 9.917728 0.148714
17.599781 -12.656813 7.643363 0.144137
18.284737 -12.319380 5.343666 0.887449
17.599792 -12.656809 3.126253 0.163180
17.962582 -12.478083 0.880365 0.507164
42.819340 -0.232862 -0.000039 0.543450
57.459126 6.979156 -0.000023 0.543282
63.744598 10.075580 0.000002 0.338857
67.245132 11.800052 0.000003 0.334920
69.479927 12.900984 0.000006 0.336614
71.033157 13.666151 -0.000001 0.343191
72.177544 14.229912 0.000003 0.339940
16.866096 -12.478109 19.385376 0.692668
16.866146 -12.478085 16.990318 0.461875
16.866085 -12.478115 14.628911 0.524956
16.866123 -12.478096 12.295447 0.477470
16.219631 -12.790989 10.067176 0.678431
16.219620 -12.790991 7.749883 0.678431
17.793224 -12.029390 5.359113 0.881849
16.219620 -12.790991 3.147511 0.678431
16.866150 -12.478085 0.864241 0.542763
42.694622 0.022528 -0.000039 0.536751
57.384407 7.132171 -0.000024 0.534234
63.691338 10.184636 0.000001 0.336568
67.203827 11.884630 0.000003 0.338659
69.446266 12.969939 0.000008 0.338186
71.004791 13.724243 -0.000001 0.335256
72.153084 14.280000 0.000003 0.331487
15.487392 -12.597017 19.709637 0.714885
15.737564 -12.478090 17.210091 0.679255
15.487377 -12.597025 14.864458 0.656657
15.737564 -12.478090 12.446388 0.545327
15.222351 -12.723022 10.167237 0.160784
15.222351 -12.723021 7.821198 0.160784
17.297127 -11.736677 5.374867 0.894530
15.222351 -12.723019 3.161746 0.160784
16.006939 -12.350027 0.852471 0.902342
42.571686 0.278790 -0.000040 0.542580
57.310753 7.285710 -0.000023 0.534295
63.638840 10.294069 0.000001 0.340322
67.163116 11.969501 0.000003 0.341268
69.413078 13.039127 0.000007 0.329335
70.976830 13.782532 -0.000001 0.343191
72.128967 14.330257 0.000001 0.342016
14.575539 -12.478014 19.903561 0.554467
14.575348 -12.478098 17.437170 0.648920
14.575539 -12.478012 15.005319 0.570825
14.575363 -12.478094 12.602345 0.603998
14.192474 -12.656853 10.271172 0.160784
14.192451 -12.656860 7.895282 0.160784
16.796299 -11.441212 5.390939 0.894621
14.192474 -12.656849 3.176528 0.160784
16.006931 -11.809740 0.856239 0.883818
42.450565 0.535913 -0.000040 0.541650
57.238178 7.439758 -0.000023 0.530816
63.587105 10.403860 -0.000000 0.336889
67.123001 12.054652 0.000002 0.338293
69.380371 13.108545 0.000007 0.336599
70.949272 13.841015 -0.000001 0.338308
72.105217 14.380683 0.000001 0.342123
13.377892 -12.478092 20.175837 0.555993
12.986160 -12.657658 17.764967 0.480095
12.986160 -12.657658 15.281514 0.480125
13.377899 -12.478086 12.763558 0.502708
12.730064 -12.775047 10.429572 0.172747
12.730072 -12.775049 8.008178 0.086534
16.290661 -11.142906 5.407331 0.895399
12.730057 -12.775053 3.199060 0.073579
16.006920 -11.272968 0.859928 0.886305
42.331226 0.793863 -0.000039 0.539101
57.166687 7.594310 -0.000023 0.544549
63.536140 10.514012 -0.000001 0.336477
67.083466 12.140076 0.000001 0.337377
69.348160 13.178192 0.000008 0.337469
70.922134 13.899688 -0.000001 0.326421
72.081810 14.431273 0.000002 0.342245
12.143356 -12.478094 20.457397 0.469841
12.143494 -12.478031 17.914631 0.475731
12.143486 -12.478033 15.407606 0.494560
12.143501 -12.478033 12.930270 0.485161
11.447807 -12.791073 10.564643 0.502251
11.447800 -12.791071 8.104450 0.469047
15.780109 -10.841661 5.424047 0.892164
11.447975 -12.790997 3.218270 0.153552
17.067188 -10.262518 0.882561 0.094118
42.213692 1.052650 -0.000039 0.544518
57.096268 7.749357 -0.000023 0.550927
63.485947 10.624519 -0.000001 0.339620
67.044533 12.225778 0.000000 0.329702
69.316422 13.248060 0.000008 0.339406
70.937645 13.977559 0.010004 1.000000
72.058762 14.482027 0.000001 0.343816
10.869926 -12.478096 20.748741 0.542718
10.490372 -12.645712 18.255487 0.338872
10.869965 -12.478085 15.619259 0.546807
10.490379 -12.645706 13.164371 0.280613
10.161476 -12.790949 10.699799 0.678431
10.161453 -12.790960 8.200785 0.678431
15.264496 -10.537453 5.441098 0.889174
10.161469 -12.790953 3.237500 0.678431
15.993061 -10.215715 0.866819 0.822003
42.097988 1.312250 -0.000039 0.539330
57.026936 7.904891 -0.000023 0.528710
63.436546 10.735381 0.000000 0.333227
67.006210 12.311750 0.000000 0.335988
69.285179 13.318146 0.000008 0.332204
70.911461 14.036313 0.010006 1.000000
72.036064 14.532939 0.000002 0.335515
9.555588 -12.478098 21.050371 0.566903
9.555664 -12.478069 18.425934 0.603128
9.555603 -12.478092 15.838375 0.571984
9.555679 -12.478064 13.281436 0.645228
9.211220 -12.627312 10.792412 0.584619
8.833496 -12.790974 8.300545 0.678431
14.743683 -10.230185 5.458488 0.887434
8.833504 -12.790970 3.257408 0.678431
38.110363 -0.105776 1.264713 0.490150
41.984081 1.572645 -0.000039 0.542519
56.958694 8.060905 -0.000023 0.534844
63.387897 10.846575 -0.000000 0.340902
66.968483 12.397985 -0.000001 0.334722
69.254425 13.388449 0.000008 0.343313
70.885689 14.095248 0.010007 1.000000
72.013725 14.584008 0.000002 0.331624
8.198189 -12.478111 21.362831 0.581201
7.983871 -12.569195 18.745659 0.683848
8.198212 -12.478092 16.065344 0.524971
7.983879 -12.569191 13.501024 0.667536
8.198212 -12.478102 10.892733 0.527367
7.777443 -12.656929 8.375784 0.160784
13.920105 -10.046192 5.492105 0.887907
7.777451 -12.656927 3.272423 0.160784
38.556324 0.424614 1.274842 0.484764
41.871983 1.833825 -0.000039 0.540276
56.891533 8.217388 -0.000023 0.543252
63.340080 10.958128 0.000005 0.336919
66.931366 12.484486 -0.000001 0.341543
69.224159 13.458963 0.000007 0.334951
70.817673 14.136232 -0.000001 0.325078
71.991745 14.635233 0.000002 0.342702
6.795479 -12.478092 21.686674 0.597604
6.795715 -12.477991 18.974535 0.479469
6.795502 -12.478083 16.300587 0.538369
6.795715 -12.477991 13.658222 0.636622
6.795479 -12.478094 11.041467 0.649149
6.044762 -12.790991 8.510997 0.678431
38.018963 0.535814 4.199240 0.475242
6.044754 -12.790995 3.299407 0.678431
36.521309 -0.088406 1.240892 0.477333
41.761738 2.095797 -0.000038 0.537728
56.825478 8.374344 -0.000022 0.542077
63.292976 11.069988 0.000003 0.337743
66.894844 12.571242 -0.000001 0.337499
69.194389 13.529690 0.000007 0.341894
70.792595 14.195819 -0.000001 0.338582
71.970123 14.686611 0.000003 0.336385
5.344955 -12.478096 22.022535 0.685008
5.345230 -12.477982 19.264120 0.627817
5.344986 -12.478086 16.544558 0.587564
5.345238 -12.477980 13.857108 0.685756
5.344963 -12.478090 11.195715 0.576349
4.579247 -12.790985 8.622072 0.678431
38.256943 0.970671 4.180284 0.482887
38.428062 1.040594 2.723217 0.468238
38.771496 1.180929 1.282854 0.483436
41.653305 2.358521 -0.000039 0.536538
56.760517 8.531752 -0.000022 0.554284
63.246727 11.182199 0.000009 0.341375
66.858932 12.658251 -0.000001 0.338827
69.165115 13.600621 0.000006 0.335241
70.767929 14.255576 -0.000002 0.334234
71.948860 14.738136 0.000003 0.335195
3.202240 -12.735125 22.544231 0.678264
3.202255 -12.735119 19.714008 0.674693
3.843994 -12.478100 16.797743 0.606241
3.202278 -12.735109 14.166092 0.678004
3.844002 -12.478094 11.355785 0.647318
3.062828 -12.790962 8.737336 0.678431
3.062828 -12.790962 6.036622 0.678431
38.509598 1.405621 2.719741 0.521309
38.551567 1.422428 1.281000 0.466697
41.546726 2.622003 -0.000038 0.547494
56.696655 8.689611 -0.000022 0.548562
63.201195 11.294708 0.000008 0.333639
66.823631 12.745508 -0.000001 0.344442
69.136337 13.671757 0.000006 0.326833
70.743683 14.315506 -0.000001 0.336706
71.927948 14.789809 0.000002 0.346120
2.289986 -12.478022 22.732920 0.570321
2.290009 -12.478018 19.876703 0.664073
2.289803 -12.478102 17.060631 0.659693
2.290031 -12.478008 14.277829 0.609293
4.010727 -11.802767 11.309321 0.635462
3.960190 -11.822592 8.639673 0.602502
37.571445 1.367323 4.204302 0.490822
38.156258 1.596815 2.723962 0.477409
38.256622 1.636200 1.277802 0.486702
41.441971 2.886211 -0.000038 0.541787
56.633888 8.847909 -0.000023 0.542794
63.156521 11.407557 0.000015 0.335653
66.788940 12.833010 -0.000002 0.337987
69.108055 13.743089 0.000006 0.336400
70.719856 14.375603 -0.000002 0.338308
71.907410 14.841628 0.000003 0.343526
0.480469 -12.554522 23.162369 0.663539
0.679283 -12.478098 20.200989 0.671534
0.679306 -12.478088 17.333788 0.672663
3.612579 -11.350565 14.034409 0.552712
4.321045 -11.078238 11.245867 0.665858
4.293098 -11.088980 8.592447 0.677485
37.490417 1.671768 4.202598 0.477409
37.539474 1.690624 2.732814 0.507317
37.131546 1.533821 1.260034 0.534813
41.339081 3.151158 -0.000037 0.540597
56.572239 9.006646 -0.000022 0.535149
63.112579 11.520693 0.000015 0.336355
66.754860 12.920753 -0.000002 0.339956
69.080254 13.814612 0.000002 0.335927
70.696449 14.435865 -0.000002 0.334493
71.887230 14.893589 0.000003 0.341024
-1.673744 -12.735170 23.682808 0.678798
2.918427 -11.006676 19.635990 0.615137
3.443924 -10.808884 16.755634 0.582010
3.819740 -10.667423 13.969659 0.598108
4.333511 -10.474041 11.219814 0.602182
4.307594 -10.483797 8.573696 0.571603
37.741962 2.100886 4.183552 0.493324
4.307579 -10.483801 3.311923 0.715770
38.305470 2.312991 1.282522 0.485634
41.238041 3.416808 -0.000038 0.536660
56.511700 9.165806 -0.000022 0.539178
63.069473 11.634148 0.000020 0.337163
66.721390 13.008727 -0.000002 0.337652
69.052971 13.886333 0.000002 0.336156
70.673470 14.496288 -0.000002 0.336858
71.867409 14.945688 0.000003 0.327413
-2.723885 -12.478060 23.906839 0.614664
2.765640 -10.455444 19.625362 0.555688
3.239937 -10.280689 16.756876 0.538140
3.607185 -10.145372 13.972178 0.576288
4.141037 -9.948675 11.219472 0.661891
4.130547 -9.952541 8.572098 0.658961
4.132057 -9.951988 5.937542 0.648493
4.133812 -9.951340 3.311547 0.634867
37.968266 2.514957 1.278504 0.474678
41.138847 3.683158 -0.000038 0.538064
56.452271 9.325388 -0.000022 0.543404
63.027115 11.747886 0.000020 0.336370
66.751724 13.120220 0.009987 1.000000
69.026184 13.958244 0.000002 0.339742
70.650909 14.556871 -0.000002 0.339117
71.847961 14.997927 0.000004 0.336873
-4.523811 -12.477982 24.330433 0.595941
-4.524124 -12.478096 21.254215 0.547784
-4.523834 -12.477991 18.221050 0.578866
3.083000 -9.735413 14.024406 0.568689
4.063545 -9.381886 11.205520 0.687587
3.778023 -9.484831 8.586123 0.654948
3.778389 -9.484697 5.946002 0.669917
3.779190 -9.484407 3.314381 0.674128
37.535595 2.686163 1.272812 0.501305
41.041508 3.950186 -0.000037 0.538964
56.394012 9.485396 -0.000017 0.337758
62.985550 11.861917 0.000020 0.335760
66.719658 13.208216 0.009987 1.000000
68.999901 14.030337 0.000001 0.328405
70.628769 14.617609 -0.000002 0.334295
71.828873 15.050297 0.000004 0.339376
-6.395462 -12.478106 24.772030 0.546380
-6.395424 -12.478098 21.634895 0.657740
-6.937744 -12.669359 18.646452 0.117037
-6.395424 -12.478096 15.485374 0.638834
3.235588 -9.081511 11.283627 0.556298
3.098579 -9.129827 8.628819 0.589502
3.101181 -9.128910 5.971469 0.613519
3.102936 -9.128292 3.322848 0.651759
3.244621 -9.078329 0.679611 0.659281
40.946056 4.217909 -0.000037 0.543206
56.451752 9.686329 0.009976 1.000000
62.944782 11.976236 0.000020 0.335180
66.624672 13.274031 -0.000005 0.338338
68.974129 14.102616 0.000001 0.337987
70.607048 14.678503 -0.000002 0.335729
71.810143 15.102800 0.000003 0.337072
-8.342293 -12.478107 25.232492 0.614038
-8.342300 -12.478111 22.031935 0.645930
-9.087425 -12.735060 19.019722 0.678431
-8.342270 -12.478098 15.758056 0.632303
-8.342285 -12.478102 12.669947 0.654841
1.482895 -9.089975 8.752832 0.535058
2.638138 -8.691599 5.985874 0.642267
2.638138 -8.691603 3.327674 0.646418
2.688362 -8.674280 0.673194 0.580819
40.852455 4.486276 -0.000037 0.536599
56.280731 9.806581 -0.000017 0.337270
62.904812 12.090837 0.000020 0.334752
66.593674 13.362908 -0.000005 0.342672
68.948853 14.175072 0.000000 0.336416
70.585762 14.739546 -0.000002 0.326131
71.791786 15.155433 0.000003 0.343771
-10.369560 -12.478102 25.713133 0.587976
-10.369286 -12.478012 22.446293 0.674632
-10.369270 -12.478003 19.225395 0.626734
-10.369553 -12.478100 16.042688 0.627634
-10.369560 -12.478106 12.890690 0.553246
1.495293 -8.479073 8.735708 0.573190
2.639587 -8.093391 5.976323 0.715267
2.639610 -8.093384 3.324495 0.717021
0.131523 -8.938730 0.632196 0.566049
40.760742 4.755287 -0.000037 0.546822
56.225784 9.967757 -0.000017 0.337621
62.865643 12.205709 0.000020 0.336828
66.563286 13.451996 -0.000007 0.332998
68.924088 14.247702 -0.000000 0.329366
70.564903 14.800734 -0.000002 0.324971
71.773804 15.208193 0.000004 0.345892
-12.482635 -12.478106 26.215300 0.740673
-12.482544 -12.478077 22.879324 0.624002
-12.482552 -12.478079 19.590208 0.548714
-12.482628 -12.478109 16.340069 0.559197
-12.482552 -12.478075 13.121309 0.591745
1.501572 -7.873217 8.719519 0.570108
2.641045 -7.497995 5.967010 0.621347
27.437302 0.667215 2.894196 0.475090
26.550953 0.375347 1.090535 0.452995
40.670906 5.024939 -0.000037 0.533791
56.171967 10.129316 -0.000017 0.338216
62.827286 12.320860 0.000020 0.335760
66.533539 13.541300 -0.000007 0.341466
68.899834 14.320503 -0.000001 0.332250
70.544464 14.862067 -0.000003 0.341207
71.756187 15.261078 0.000004 0.327382
nan nan nan 0.000000
nan nan nan 0.000000
nan nan nan 0.000000
-14.687218 -12.478113 16.651037 0.517403
-14.687073 -12.478062 13.362473 0.485176
1.507401 -7.270380 8.703765 0.537636
2.642479 -6.905369 5.957932 0.662501
27.536564 1.099855 2.890459 0.481743
26.817474 0.868616 1.097179 0.458534
40.582966 5.295208 -0.000036 0.542153
56.119278 10.291245 -0.000016 0.337728
62.789726 12.436272 0.000020 0.336660
66.504410 13.630806 -0.000007 0.337102
68.876083 14.393470 -0.000002 0.331670
70.524460 14.923541 -0.000002 0.334539
71.738937 15.314082 0.000004 0.340566
nan nan nan 0.000000
nan nan nan 0.000000
nan nan nan 0.000000
nan nan nan 0.000000
nan nan nan 0.000000
1.519035 -6.668491 8.687914 0.569100
2.643959 -6.315397 5.949085 0.598810
26.249512 1.094046 2.910561 0.479271
39.891918 5.376195 1.323422 0.475151
40.496906 5.566090 -0.000036 0.540993
56.067715 10.453539 -0.000016 0.338811
62.752911 12.551925 0.000012 0.338857
66.475906 13.720518 -0.000007 0.340597
68.852844 14.466604 -0.000002 0.334707
70.504883 14.985155 -0.000002 0.339834
71.722061 15.367208 0.000005 0.345174
nan nan nan 0.000000
nan nan nan 0.000000
nan nan nan 0.000000
nan nan nan 0.000000
nan nan nan 0.000000
1.524429 -6.071320 8.672989 0.534646
27.333069 1.832137 4.672052 0.510414
27.675011 1.936850 2.884197 0.468284
39.816994 5.655125 1.323602 0.475593
40.412735 5.837560 -0.000036 0.537072
56.017288 10.616188 -0.000015 0.338354
62.716965 12.667849 0.000012 0.336355
66.448029 13.810424 -0.000006 0.330892
68.830116 14.539897 -0.000003 0.338537
70.485741 15.046904 -0.000002 0.339239
71.705551 15.420450 0.000005 0.346334
nan nan nan 0.000000
nan nan nan 0.000000
nan nan nan 0.000000
nan nan nan 0.000000
nan nan nan 0.000000
1.535698 -5.474997 8.657949 0.556130
26.950535 2.114197 4.686029 0.491081
26.989594 2.125861 2.894037 0.490608
40.154957 6.057209 1.330800 0.479744
40.330452 6.109614 -0.000036 0.541772
55.967995 10.779187 -0.000016 0.339040
62.681831 12.784024 0.000012 0.335470
66.420784 13.900523 -0.000006 0.336645
68.807899 14.613347 -0.000003 0.337499
70.467026 15.108784 -0.000002 0.335271
71.689423 15.473806 0.000005 0.331212
nan nan nan 0.000000
nan nan nan 0.000000
nan nan nan 0.000000
nan nan nan 0.000000
nan nan nan 0.000000
1.540680 -4.883173 8.643835 0.532982
2.648262 -4.560839 5.923931 0.739544
40.854359 6.558089 2.655904 0.498085
40.271778 6.388542 1.334167 0.521523
40.250095 6.382233 -0.000036 0.537301
55.919846 10.942521 -0.000015 0.336873
62.647442 12.900419 0.000004 0.335973
66.394173 13.990812 -0.000005 0.333501
68.786194 14.686949 -0.000004 0.330480
70.448746 15.170792 -0.000002 0.317662
71.673653 15.527271 0.000005 0.346578
nan nan nan 0.000000
nan nan nan 0.000000
nan nan nan 0.000000
nan nan nan 0.000000
4.044098 -3.585573 11.003393 0.634592
4.001053 -3.597771 8.420837 0.608759
4.002121 -3.597471 5.846940 0.608011
40.789013 6.830417 2.655702 0.473136
27.346470 3.019894 1.115659 0.475395
40.171638 6.655411 -0.000036 0.541695
55.872833 11.106191 -0.000015 0.338796
62.613937 13.017075 0.000004 0.337896
66.368195 14.081284 -0.000004 0.334218
68.765007 14.760702 -0.000005 0.335088
70.430893 15.232928 -0.000002 0.330846
71.658272 15.580849 0.000006 0.341131
nan nan nan 0.000000
nan nan nan 0.000000
nan nan nan 0.000000
3.738609 -3.103081 13.633528 0.544869
4.326218 -2.940939 10.952161 0.721279
4.307594 -2.946074 8.382239 0.687343
40.093281 6.928630 4.000126 0.491234
39.781334 6.842552 2.671528 0.490181
39.089714 6.651706 1.316731 0.483406
40.095085 6.929127 -0.000035 0.540261
55.826973 11.270184 -0.000015 0.337194
62.581242 13.133957 0.000004 0.337453
66.342834 14.171932 -0.000004 0.334051
68.744331 14.834601 -0.000005 0.329046
70.413483 15.295186 -0.000002 0.340948
71.643257 15.634529 0.000006 0.341146
nan nan nan 0.000000
3.040260 -2.723642 19.062593 0.534554
3.532700 -2.591446 16.281952 0.572946
3.972710 -2.473328 13.575487 0.495460
4.376625 -2.364899 10.929159 0.693004
4.344749 -2.373461 8.366966 0.571588
39.571693 7.082912 4.022861 0.477852
40.261108 7.267980 2.662123 0.461311
40.272079 7.270924 1.338062 0.464836
40.020439 7.203374 -0.000035 0.537453
55.782249 11.434494 -0.000014 0.336080
62.549294 13.251049 -0.000005 0.335073
66.318123 14.262759 -0.000004 0.330694
68.724174 14.908642 -0.000006 0.342000
70.396500 15.357565 -0.000003 0.337118
71.628616 15.688315 0.000007 0.339178
nan nan nan 0.000000
2.880836 -2.195253 19.066673 0.519585
3.333069 -2.077234 16.293127 0.525414
3.755386 -1.967020 13.587432 0.592401
4.215271 -1.847002 10.931862 0.573587
4.235733 -1.841661 8.364450 0.568460
39.750851 7.426754 4.010029 0.469764
17.482666 1.615402 3.046131 0.483406
39.449249 7.348043 1.325368 0.500786
39.947735 7.478134 -0.000034 0.544640
55.738686 11.599113 -0.000014 0.338537
62.518238 13.368379 -0.000005 0.335561
66.294037 14.353753 -0.000003 0.335546
68.704552 14.982826 -0.000004 0.341939
70.379959 15.420060 -0.000002 0.343297
71.614357 15.742201 0.000007 0.336522
nan nan nan 0.000000
nan nan nan 0.000000
2.613403 -1.693935 16.402569 0.616892
3.308678 -1.517660 13.635000 0.540200
4.099091 -1.317274 10.929620 0.650339
3.936417 -1.358511 8.378349 0.562463
39.483803 7.653727 4.019957 0.492882
39.610256 7.685785 2.670703 0.470176
39.209831 7.584268 1.322537 0.527581
39.876915 7.753393 -0.000034 0.538094
55.696259 11.764032 -0.000014 0.337392
62.487999 13.485924 -0.000005 0.335836
66.270599 14.444918 -0.000001 0.336553
68.685425 15.057143 -0.000005 0.340185
70.363853 15.482670 -0.000002 0.335943
71.600471 15.796185 0.000007 0.339635
nan nan nan 0.000000
nan nan nan 0.000000
nan nan nan 0.000000
nan nan nan 0.000000
3.267494 -0.963877 11.012582 0.659052
3.263359 -0.964893 8.424068 0.661509
3.267662 -0.963837 5.848712 0.566583
39.823303 8.032896 2.665944 0.471672
39.517284 7.957582 1.328898 0.533700
39.808018 8.029132 -0.000035 0.548898
55.654995 11.929241 -0.000013 0.337987
62.458580 13.603674 -0.000005 0.340307
66.247795 14.536241 0.000000 0.338537
68.666824 15.131590 -0.000006 0.338399
70.348190 15.545390 -0.000002 0.349508
71.586960 15.850266 0.000008 0.343954
nan nan nan 0.000000
nan nan nan 0.000000
nan nan nan 0.000000
nan nan nan 0.000000
nan nan nan 0.000000
0.746048 -1.003492 8.625416 0.529717
0.884575 -0.970421 5.962567 0.592050
16.943817 2.863217 3.049736 0.481468
40.264488 8.430307 1.342604 0.487602
39.741074 8.305359 -0.000034 0.540810
55.614872 12.094734 -0.000013 0.337804
62.429993 13.721632 -0.000004 0.333425
66.225632 14.627724 0.000002 0.332738
68.648743 15.206165 -0.000006 0.335866
70.332954 15.608219 -0.000002 0.335119
71.573830 15.904438 0.000007 0.349889
nan nan nan 0.000000
nan nan nan 0.000000
nan nan nan 0.000000
nan nan nan 0.000000
nan nan nan 0.000000
0.100433 -0.573854 8.668887 0.551629
0.403702 -0.503689 5.980319 0.572519
9.774841 1.664341 3.168426 0.479683
18.365105 3.651716 0.975857 0.476616
39.676037 8.582040 -0.000034 0.545144
55.575916 12.260506 -0.000014 0.338643
62.402222 13.839785 -0.000004 0.339254
66.204109 14.719357 0.000004 0.343130
68.631195 15.280869 -0.000005 0.342748
