# This PCD file was generated using the MATLABÂ® pcwrite function
# from Computer Vision ToolboxÂ®.
# .PCD v.7 - Point Cloud Data file format
VERSION .7
FIELDS x y z intensity
SIZE 4 4 4 4
TYPE F F F F
COUNT 1 1 1 1
WIDTH 1250
HEIGHT 1
VIEWPOINT 0 0 0 1 0 0 0
POINTS 1250
DATA ascii
5.357074 70.873672 -0.000006 0.544305
4.717701 73.281479 -0.000007 0.554040
4.273314 74.954994 -0.000007 0.533501
3.945908 76.187965 -0.000007 0.532097
13.244216 39.936325 13.374454 0.637293
13.175144 40.203957 11.747787 0.659922
13.175142 40.203964 10.212221 0.640833
13.175144 40.203960 8.694843 0.618250
13.175142 40.203968 7.192129 0.635584
13.175146 40.203949 5.700691 0.647013
13.175143 40.203957 4.217240 0.656931
13.175142 40.203964 2.738552 0.626978
13.244215 39.936329 1.256925 0.644404
12.070088 44.485767 0.000004 0.541115
7.992033 60.287201 -0.000003 0.535225
6.241159 67.071396 -0.000005 0.541253
5.266015 70.849831 -0.000006 0.526146
4.643467 73.262039 -0.000006 0.545876
4.210773 74.938622 -0.000007 0.559243
3.891984 76.173851 -0.000007 0.546746
12.925204 39.905151 13.362324 0.721920
12.925205 39.905144 11.797026 0.742123
12.925203 39.905155 10.253700 0.749096
12.891260 40.040573 8.707951 0.721386
12.925202 39.905155 7.218354 0.732219
12.895874 40.022167 5.709494 0.710887
12.925202 39.905155 4.228439 0.742931
12.925207 39.905140 2.742283 0.742245
12.925205 39.905144 1.257717 0.740841
11.794636 44.415726 0.000005 0.540978
7.826999 60.245228 -0.000003 0.539391
6.123532 67.041473 -0.000005 0.557321
5.174790 70.826622 -0.000006 0.529610
4.569098 73.243126 -0.000007 0.554696
4.148120 74.922684 -0.000007 0.541711
3.837962 76.160110 -0.000007 0.560571
12.602737 39.891003 13.346398 0.678431
12.602736 39.891010 11.783292 0.727321
12.602740 39.890991 10.242138 0.678431
12.570985 40.021553 8.699300 0.686213
12.602739 39.890995 7.211044 0.678431
12.570918 40.021824 5.703133 0.712306
12.602737 39.891003 4.225316 0.678431
12.602737 39.891003 2.741242 0.678431
12.602737 39.891003 1.258758 0.678431
11.518718 44.347565 0.000004 0.541817
7.661680 60.204407 -0.000003 0.530343
6.005701 67.012375 -0.000005 0.555245
5.083407 70.804062 -0.000006 0.535637
4.494600 73.224731 -0.000006 0.504860
4.085358 74.907188 -0.000007 0.536217
3.783846 76.146744 -0.000007 0.558053
12.277829 39.890999 13.327438 0.678431
12.277825 39.891014 11.766942 0.743160
12.277830 39.890999 10.228363 0.678431
12.246922 40.022038 8.688030 0.715496
12.277829 39.891003 7.202333 0.678431
12.247044 40.021530 5.696970 0.721569
12.277829 39.891003 4.221598 0.678431
12.277829 39.891003 2.740003 0.678431
12.277829 39.891003 1.259996 0.678431
11.242320 44.281368 0.000004 0.542702
7.496080 60.164734 -0.000003 0.538003
5.887671 66.984100 -0.000005 0.518944
4.991869 70.782127 -0.000006 0.560693
4.419976 73.206848 -0.000006 0.543893
4.022489 74.892120 -0.000007 0.598596
3.729637 76.133759 -0.000007 0.524498
11.953985 39.890995 13.309096 0.678431
11.953977 39.891026 11.751122 0.763592
11.953985 39.890991 10.215037 0.678431
11.923944 40.022469 8.677134 0.696315
11.953984 39.890995 7.193909 0.678431
11.924232 40.021202 5.691009 0.690196
11.953984 39.890995 4.218001 0.678431
11.953985 39.890991 2.738806 0.678431
11.953985 39.890991 1.261194 0.678431
10.965466 44.217087 0.000004 0.542046
7.330205 60.126221 -0.000003 0.539803
5.769442 66.956650 -0.000005 0.535668
4.900178 70.760841 -0.000006 0.555764
4.345227 73.189499 -0.000007 0.519478
3.959514 74.877502 -0.000007 0.570871
3.675339 76.121155 -0.000007 0.502602
11.631178 39.890987 13.291359 0.678431
11.631172 39.891014 11.735831 0.751736
11.631177 39.890991 10.202153 0.678431
11.602284 40.021626 8.666788 0.685649
11.631177 39.890995 7.185764 0.678431
11.620365 39.939880 5.692050 0.746777
11.631177 39.890995 4.214522 0.678431
11.631177 39.890995 2.737647 0.678431
11.631177 39.890995 1.262354 0.678431
10.688174 44.154743 0.000004 0.540764
7.164069 60.088860 -0.000003 0.534020
5.651027 66.930023 -0.000005 0.545098
4.808343 70.740189 -0.000006 0.555169
4.270359 73.172661 -0.000007 0.543725
3.896441 74.863327 -0.000007 0.517861
3.620955 76.108925 -0.000007 0.535943
11.309362 39.890991 13.274226 0.678431
11.309358 39.891010 11.721058 0.729076
11.309362 39.890991 10.189708 0.678431
11.281374 40.021866 8.656638 0.720562
11.309362 39.890991 7.177896 0.678431
11.299482 39.937187 5.686672 0.745678
11.309363 39.890987 4.211163 0.678431
11.309362 39.890987 2.736526 0.678431
11.309362 39.890987 1.263472 0.678431
10.410453 44.094334 0.000004 0.538277
6.997672 60.052673 -0.000003 0.539559
5.532429 66.904228 -0.000005 0.544320
4.716364 70.720184 -0.000006 0.559472
4.195376 73.156357 -0.000006 0.563806
3.833270 74.849586 -0.000007 0.556710
3.566486 76.097076 -0.000007 0.543709
10.984784 39.909012 13.253083 0.129000
10.984731 39.909264 11.702778 0.738323
10.984777 39.909039 10.174345 0.122057
10.961417 40.022129 8.646835 0.721157
10.984778 39.909039 7.168183 0.123415
10.979502 39.934582 5.681484 0.744030
10.984776 39.909050 4.207013 0.121157
10.984787 39.908997 2.735146 0.117678
10.984774 39.909058 1.264855 0.122957
10.132317 44.035870 0.000004 0.539513
6.831028 60.017643 -0.000004 0.540139
5.413652 66.879265 -0.000005 0.550454
4.624249 70.700829 -0.000006 0.557092
4.120280 73.140572 -0.000006 0.556268
3.770004 74.836281 -0.000007 0.531136
3.511936 76.085609 -0.000007 0.526711
10.659545 39.936306 13.230180 0.634379
10.659545 39.936310 11.683085 0.652201
10.659546 39.936306 10.157713 0.663417
10.642392 40.022381 8.637388 0.692897
10.659542 39.936329 7.157664 0.630274
10.659542 39.936325 5.676126 0.645594
10.659539 39.936337 4.202522 0.633906
10.659544 39.936314 2.733649 0.665721
10.659548 39.936295 1.266349 0.634928
9.853782 43.979336 0.000004 0.543694
6.664146 59.983772 -0.000004 0.531151
5.294707 66.855125 -0.000005 0.544686
4.532001 70.682106 -0.000006 0.545785
4.045078 73.125305 -0.000006 0.564553
3.706648 74.823425 -0.000007 0.528283
3.457308 76.074524 -0.000007 0.539605
10.390751 39.676388 13.281145 0.678431
10.321545 40.036755 11.647778 0.645441
10.344672 39.916325 10.150279 0.828519
10.324398 40.021881 8.628401 0.696605
10.321168 40.038700 7.138631 0.639246
10.342093 39.929745 5.671658 0.746822
10.352352 39.876335 4.202517 0.729290
10.343706 39.921356 2.732897 0.678431
10.326531 40.010780 1.268593 0.677104
9.574862 43.924747 0.000004 0.543252
6.497031 59.951073 -0.000004 0.544244
5.175595 66.831818 -0.000005 0.518990
4.439624 70.664032 -0.000006 0.528542
3.969770 73.110573 -0.000006 0.563745
3.643203 74.811012 -0.000007 0.512734
3.402603 76.063820 -0.000007 0.538689
10.071012 39.676376 13.266318 0.678431
10.004304 40.037312 11.634972 0.639338
10.032210 39.886314 10.145117 0.695583
10.007141 40.021965 8.619675 0.703166
10.004145 40.038177 7.131937 0.640330
10.024611 39.927441 5.667023 0.716991
10.034056 39.876331 4.199620 0.737102
10.025734 39.921356 2.731934 0.678431
10.071012 39.676369 1.263988 0.678431
9.295557 43.872131 0.000003 0.538598
6.329689 59.919537 -0.000004 0.543481
5.056322 66.809341 -0.000005 0.551141
4.347123 70.646599 -0.000006 0.544656
3.894360 73.096367 -0.000006 0.538735
3.579672 74.799042 -0.000006 0.503716
3.347825 76.053497 -0.000007 0.533150
9.752097 39.676388 13.252073 0.678431
9.687863 40.038044 11.622628 0.648478
9.714814 39.886311 10.134821 0.704860
9.690704 40.022057 8.611293 0.732158
9.687942 40.037605 7.125517 0.670436
9.707899 39.925236 5.662570 0.760296
9.716583 39.876343 4.196839 0.752285
9.708588 39.921356 2.731009 0.678431
9.752100 39.676373 1.264919 0.678431
9.015898 43.821453 0.000003 0.537804
6.162133 59.889175 -0.000004 0.533822
4.936896 66.787704 -0.000005 0.553933
4.254503 70.629822 -0.000005 0.534783
3.818854 73.082680 -0.000006 0.535500
3.516061 74.787514 -0.000007 0.531670
3.292976 76.043564 -0.000007 0.494881
9.433974 39.676365 13.238418 0.678431
9.372256 40.038532 11.610840 0.667933
9.393082 39.916328 10.119404 0.833432
9.375051 40.022125 8.603256 0.710719
9.372406 40.037643 7.119288 0.677989
9.390919 39.929020 5.657809 0.759625
9.399894 39.876347 4.194172 0.741024
9.392223 39.921360 2.730120 0.678431
9.376944 40.011021 1.271367 0.675258
8.735889 43.772732 0.000004 0.540551
5.994366 59.859993 -0.000003 0.545525
4.817322 66.766891 -0.000005 0.560235
4.161767 70.613686 -0.000006 0.531960
3.743253 73.069527 -0.000006 0.537499
3.452369 74.776436 -0.000006 0.536553
3.238059 76.034004 -0.000007 0.520882
9.075779 39.926476 13.161854 0.740291
9.075777 39.926479 11.624173 0.732464
9.075778 39.926476 10.108082 0.735027
9.060154 40.022194 8.595558 0.697322
9.075779 39.926472 7.126287 0.732479
9.075778 39.926476 5.653763 0.754910
9.075779 39.926472 4.189123 0.752682
9.075776 39.926487 2.729186 0.762264
9.075778 39.926479 1.270814 0.741421
8.455550 43.725960 0.000003 0.543877
5.826402 59.831970 -0.000003 0.546212
4.697605 66.746918 -0.000005 0.546410
4.068923 70.598190 -0.000005 0.551217
3.667563 73.056900 -0.000006 0.543877
3.388602 74.765793 -0.000007 0.537514
3.183077 76.024834 -0.000007 0.499870
8.767167 39.886471 13.159564 0.678431
8.768725 39.876488 11.624379 0.751476
8.767167 39.886471 10.106416 0.678431
8.745997 40.022106 8.588224 0.691737
8.767167 39.886471 7.125235 0.678431
8.761701 39.921494 5.650107 0.739895
8.767166 39.886475 4.188673 0.678431
8.767166 39.886475 2.729037 0.678431
8.767166 39.886475 1.270963 0.678431
8.174891 43.681149 0.000003 0.537362
5.658248 59.805115 -0.000003 0.536187
4.577752 66.727783 -0.000005 0.537148
3.975971 70.583351 -0.000005 0.535378
3.591786 73.044807 -0.000006 0.538231
3.324763 74.755608 -0.000006 0.770794
3.128032 76.016045 -0.000007 0.539178
8.452710 39.886475 13.147686 0.678431
8.454198 39.876484 11.614141 0.741604
8.452713 39.886463 10.097793 0.678431
8.432517 40.022053 8.581221 0.694728
8.452712 39.886463 7.119781 0.678431
8.448029 39.917912 5.646518 0.761105
8.452710 39.886471 4.186343 0.678431
8.452710 39.886478 2.728260 0.678431
8.452710 39.886478 1.271740 0.678431
7.893925 43.638294 0.000003 0.540642
5.489909 59.779446 -0.000003 0.548653
4.457767 66.709488 -0.000005 0.540078
3.882919 70.569160 -0.000006 0.560189
3.515927 73.033234 -0.000006 0.548714
3.260853 74.745857 -0.000006 0.529290
3.072927 76.007637 -0.000007 0.514214
8.138909 39.886475 13.136381 0.678431
8.140326 39.876480 11.604389 0.745251
8.138911 39.886463 10.089576 0.678431
8.119689 40.022015 8.574551 0.721569
8.138910 39.886463 7.114587 0.678431
8.134939 39.914471 5.643105 0.740459
8.138909 39.886475 4.184126 0.678431
8.138908 39.886478 2.727521 0.678431
8.138908 39.886478 1.272478 0.678431
7.612669 43.597404 0.000003 0.545312
5.321395 59.754951 -0.000003 0.543572
4.337659 66.692032 -0.000005 0.547997
3.789771 70.555618 -0.000006 0.557214
3.439989 73.022194 -0.000006 0.553185
3.196879 74.736557 -0.000007 0.520485
3.017766 75.999619 -0.000007 0.545830
7.825727 39.886471 13.125639 0.678431
7.827074 39.876469 11.595125 0.737774
7.825727 39.886467 10.081772 0.678431
7.807478 40.021957 8.568218 0.708843
7.825727 39.886467 7.109654 0.678431
7.822395 39.911209 5.639860 0.734066
7.825727 39.886471 4.182020 0.678431
7.825727 39.886475 2.726820 0.678431
7.825727 39.886475 1.273180 0.678431
7.331130 43.558483 0.000004 0.539849
5.152713 59.731636 -0.000003 0.540902
4.217431 66.675407 -0.000005 0.537820
3.696528 70.542732 -0.000006 0.558587
3.363976 73.011688 -0.000006 0.511421
3.132839 74.727707 -0.000007 0.540734
2.962548 75.991989 -0.000007 0.553307
7.513130 39.886467 13.115458 0.678431
7.514403 39.876472 11.586343 0.730541
7.513130 39.886467 10.074376 0.678431
7.495846 40.021927 8.562211 0.693690
7.513130 39.886463 7.104979 0.678431
7.510368 39.908108 5.636786 0.735790
7.513128 39.886478 4.180022 0.678431
7.513130 39.886467 2.726156 0.678431
7.513130 39.886467 1.273845 0.678431
7.049324 43.521530 0.000003 0.536965
4.983870 59.709496 -0.000003 0.536583
4.097089 66.659630 -0.000005 0.532616
3.603198 70.530487 -0.000006 0.540261
3.287890 73.001709 -0.000006 0.531456
3.068739 74.719299 -0.000006 0.566476
2.907279 75.984741 -0.000007 0.513237
7.201092 39.886478 13.105834 0.678431
7.202297 39.876469 11.578048 0.742977
7.201092 39.886475 10.067386 0.678431
7.184711 40.022404 8.556458 0.690288
7.201093 39.886463 7.100559 0.678431
7.198838 39.905178 5.633879 0.765042
7.201092 39.886471 4.178136 0.678431
7.201093 39.886467 2.725526 0.678431
7.201093 39.886467 1.274473 0.678431
6.767272 43.486538 0.000003 0.544701
4.814880 59.688530 -0.000003 0.530419
3.976641 66.644684 -0.000004 0.546426
3.509785 70.518906 -0.000006 0.542931
3.211738 72.992264 -0.000006 0.528786
3.004583 74.711342 -0.000007 0.547326
2.851961 75.977882 -0.000007 0.514717
6.883924 39.936337 13.084200 0.652064
6.883924 39.936337 11.557216 0.631357
6.883925 39.936333 10.051673 0.637690
6.874177 40.022282 8.551127 0.708064
6.883925 39.936333 7.090623 0.621271
6.883924 39.936333 5.628343 0.626230
6.883925 39.936329 4.173892 0.626535
6.883926 39.936321 2.724113 0.638361
6.883927 39.936317 1.275886 0.631495
6.484983 43.453522 0.000003 0.544030
4.645748 59.668755 -0.000003 0.544305
3.856091 66.630592 -0.000005 0.554467
3.416295 70.507965 -0.000006 0.543236
3.135521 72.983353 -0.000006 0.538903
2.940373 74.703827 -0.000007 0.547997
2.796597 75.971405 -0.000007 0.553094
6.574283 39.926685 13.078130 0.756252
6.574315 39.926373 11.552049 0.755535
6.593015 39.750561 10.079489 0.672526
6.564128 40.022152 8.546121 0.734920
6.574317 39.926361 7.087872 0.743526
6.574317 39.926361 5.626383 0.755901
6.565292 40.011204 4.168526 0.643687
6.574253 39.926960 2.723712 0.739879
6.574254 39.926956 1.276287 0.739895
6.202469 43.422466 0.000003 0.537316
4.476480 59.650146 -0.000003 0.536522
3.735446 66.617325 -0.000005 0.541390
3.322729 70.497681 -0.000006 0.529046
3.059244 72.974960 -0.000006 0.568704
2.876112 74.696762 -0.000007 0.544366
2.741188 75.965317 -0.000007 0.499474
6.268013 39.886375 13.080326 0.678431
6.264041 39.926376 11.545192 0.767529
6.288869 39.676353 10.087259 0.678431
6.254540 40.022049 8.541441 0.723598
6.264042 39.926369 7.084219 0.727153
6.264043 39.926361 5.623779 0.761105
6.288869 39.676361 4.183500 0.678431
6.268014 39.886372 2.723859 0.678431
6.269009 39.876350 1.275975 0.755383
5.919745 43.393402 0.000003 0.539956
4.307090 59.632721 -0.000003 0.537179
3.614713 66.604912 -0.000005 0.533288
3.229095 70.488060 -0.000006 0.556252
2.982910 72.967117 -0.000006 0.525307
2.811803 74.690155 -0.000006 0.558679
2.685738 75.959618 -0.000006 0.531868
5.957884 39.886375 13.072920 0.678431
5.954194 39.926373 11.538813 0.749157
5.974726 39.703838 10.076832 0.770840
5.945377 40.021946 8.537082 0.692882
5.954194 39.926369 7.080822 0.754482
5.953176 39.937401 5.620448 0.798444
5.974725 39.703846 4.180685 0.786038
5.957885 39.886372 2.723376 0.678431
5.958809 39.876358 1.276459 0.715694
5.636827 43.366291 0.000003 0.544778
4.137580 59.616493 -0.000003 0.533272
3.493894 66.593346 -0.000004 0.539742
3.135395 70.479080 -0.000005 0.546761
2.906523 72.959801 -0.000006 0.533089
2.747449 74.683990 -0.000006 0.529168
2.630250 75.954300 -0.000007 0.550072
5.648152 39.886375 13.066061 0.678431
5.644744 39.926376 11.532905 0.725063
5.666051 39.676365 10.076847 0.678431
5.636608 40.021843 8.533049 0.684657
5.645370 39.919029 7.078523 0.753918
5.643933 39.935886 5.618331 0.784482
5.637503 40.011345 4.164173 0.644450
5.648153 39.886375 2.722928 0.678431
5.649007 39.876358 1.276907 0.749157
5.353721 43.341187 0.000003 0.539467
3.967959 59.601440 -0.000003 0.538338
3.372997 66.582611 -0.000005 0.554131
3.041634 70.470764 -0.000005 0.540032
2.830087 72.953018 -0.000006 0.532509
2.683053 74.678276 -0.000006 0.539895
2.574726 75.949371 -0.000006 0.553994
5.335665 39.926369 13.049702 0.750454
5.335664 39.926376 11.527470 0.733669
5.335665 39.926369 10.026611 0.764263
5.328207 40.021751 8.529337 0.696376
5.335665 39.926365 7.074780 0.733043
5.335666 39.926365 5.617050 0.741176
5.326956 40.037746 4.161639 0.654475
5.335665 39.926369 2.721859 0.747494
5.335665 39.926369 1.278141 0.746410
5.070451 43.318027 0.000003 0.539971
3.798239 59.587578 -0.000003 0.542641
3.252029 66.572723 -0.000005 0.531792
2.947819 70.463097 -0.000006 0.529076
2.753606 72.946762 -0.000006 0.554894
2.618620 74.673012 -0.000006 0.551980
2.519169 75.944832 -0.000007 0.504738
5.029764 39.886471 13.053963 0.678431
5.020359 40.018600 11.502534 0.714244
5.029764 39.886471 10.029705 0.678431
5.020141 40.021671 8.525945 0.715633
5.029763 39.886482 7.076733 0.678431
5.029763 39.886478 5.618443 0.678431
5.029764 39.886471 4.167963 0.678431
5.029763 39.886482 2.722138 0.678431
5.029763 39.886482 1.277862 0.678431
4.787027 43.296871 0.000003 0.548180
3.628428 59.574890 -0.000003 0.546227
3.130996 66.563690 -0.000005 0.538735
2.853952 70.456085 -0.000005 0.536522
2.677083 72.941055 -0.000006 0.515740
2.554152 74.668198 -0.000006 0.551110
2.463583 75.940681 -0.000007 0.537331
4.721049 39.886467 13.048742 0.678431
4.712583 40.018417 11.498086 0.721569
4.721049 39.886467 10.025914 0.678431
4.712378 40.021606 8.522872 0.718532
4.721048 39.886482 7.074336 0.678431
4.721048 39.886475 5.616735 0.678431
4.721049 39.886467 4.166939 0.678431
4.721048 39.886482 2.721797 0.678431
4.721048 39.886482 1.278204 0.678431
4.503461 43.277679 0.000003 0.539147
3.458532 59.563385 -0.000003 0.540291
3.009902 66.555489 -0.000005 0.541268
2.760038 70.449730 -0.000006 0.553124
2.600522 72.935867 -0.000006 0.544198
2.489652 74.663834 -0.000006 0.534188
2.407968 75.936920 -0.000007 0.553933
4.412608 39.886463 13.044065 0.678431
4.405059 40.018539 11.494039 0.688258
4.412608 39.886463 10.022516 0.678431
4.404826 40.022625 8.519959 0.698253
4.412607 39.886482 7.072188 0.678431
4.412607 39.886475 5.615202 0.678431
4.412608 39.886467 4.166020 0.678431
4.412607 39.886478 2.721490 0.678431
4.412607 39.886478 1.278509 0.678431
4.219766 43.260460 0.000003 0.541024
3.288557 59.553082 -0.000003 0.532479
2.888752 66.548141 -0.000005 0.546639
2.666082 70.444031 -0.000005 0.519432
2.523926 72.931221 -0.000006 0.494865
2.425122 74.659920 -0.000006 0.547951
2.352328 75.933540 -0.000007 0.522591
4.104417 39.886467 13.039927 0.678431
4.097774 40.018925 11.490400 0.695552
4.104417 39.886471 10.019510 0.678431
4.097593 40.022518 8.517534 0.686778
4.104417 39.886475 7.070290 0.678431
4.104416 39.886478 5.613849 0.678431
4.104417 39.886475 4.165208 0.678431
4.104417 39.886475 2.721221 0.678431
4.104417 39.886475 1.278779 0.678431
3.935961 43.245247 0.000003 0.542351
3.118517 59.543961 -0.000003 0.537606
2.767556 66.541641 -0.000005 0.548119
2.572089 70.438988 -0.000005 0.549371
2.447300 72.927116 -0.000006 0.519326
2.360567 74.656456 -0.000006 0.555779
2.296666 75.930557 -0.000007 0.546365
3.796437 39.886471 13.036335 0.678431
3.790693 40.019569 11.487169 0.707744
3.796437 39.886471 10.016898 0.678431
3.790570 40.022430 8.515425 0.706386
3.796437 39.886475 7.068637 0.678431
3.796437 39.886478 5.612672 0.678431
3.796437 39.886475 4.164504 0.678431
3.796437 39.886471 2.720986 0.678431
3.796437 39.886467 1.279014 0.678431
3.652054 43.231995 0.000003 0.541711
2.948416 59.536026 -0.000003 0.536812
2.646316 66.535988 -0.000005 0.539971
2.478062 70.434601 -0.000005 0.533059
2.370647 72.923538 -0.000006 0.540261
2.295989 74.653442 -0.000006 0.573114
2.240984 75.927963 -0.000006 0.530373
3.488646 39.886463 13.033278 0.678431
3.483800 40.020439 11.484353 0.706615
3.488646 39.886467 10.014680 0.678431
3.483732 40.022346 8.513632 0.725383
3.488646 39.886467 7.067235 0.678431
3.488646 39.886471 5.611673 0.678431
3.488646 39.886467 4.163905 0.678431
3.488645 39.886482 2.720786 0.678431
3.488645 39.886482 1.279214 0.678431
3.368062 43.220715 0.000003 0.538277
2.778264 59.529274 -0.000003 0.547692
2.525041 66.531174 -0.000005 0.537331
2.384008 70.430870 -0.000005 0.502708
2.293971 72.920494 -0.000006 0.557412
2.231391 74.650879 -0.000006 0.537820
2.185286 75.925751 -0.000007 0.527657
3.179840 39.926476 13.020737 0.731517
3.177067 40.021523 11.481956 0.728954
3.179839 39.926495 10.005567 0.749020
3.177045 40.022278 8.512156 0.724330
3.179840 39.926491 7.061474 0.748302
3.179840 39.926487 5.607567 0.745083
3.179840 39.926487 4.161445 0.768643
3.179840 39.926487 2.719967 0.732448
3.179840 39.926491 1.280033 0.746197
3.083998 43.211426 0.000002 0.539773
2.608068 59.523720 -0.000003 0.538994
2.403733 66.527214 -0.000005 0.548882
2.289929 70.427795 -0.000005 0.552270
2.217275 72.917992 -0.000006 0.518532
2.166778 74.648773 -0.000006 0.540139
2.129573 75.923927 -0.000006 0.545647
2.980814 35.050217 14.240500 0.649638
2.955647 36.184341 12.309215 0.645060
3.020658 33.254650 11.218412 0.697093
2.955649 36.184280 9.080442 0.659541
3.033909 32.657478 7.897005 0.769223
2.955476 36.192051 5.913202 0.708644
2.955650 36.184204 4.344949 0.652750
3.051696 31.855904 2.851936 0.810025
2.955649 36.184254 1.218909 0.651606
2.799876 43.204144 0.000003 0.549035
2.437839 59.519337 -0.000003 0.550088
2.282402 66.524101 -0.000005 0.544671
2.195832 70.425385 -0.000005 0.544030
2.140564 72.916023 -0.000006 0.529229
2.102151 74.647110 -0.000006 0.560250
2.073850 75.922501 -0.000006 0.504204
2.639691 35.045650 14.240046 0.664347
3.366263 -12.735107 22.874681 0.678431
3.205663 -2.173752 17.664368 0.552560
3.197193 -1.616760 14.687422 0.525277
3.185684 -0.859917 11.752545 0.596796
3.187125 -0.954659 8.958899 0.652171
3.187125 -0.954651 6.169370 0.635935
3.187125 -0.954651 3.388798 0.692561
3.187125 -0.954651 0.611203 0.640284
2.515710 43.198826 0.000002 0.540566
2.267582 59.516159 -0.000003 0.547570
2.161052 66.521828 -0.000005 0.542458
2.101719 70.423622 -0.000005 0.544045
2.063841 72.914589 -0.000006 0.555566
2.037514 74.645905 -0.000006 0.545403
2.018117 75.921455 -0.000006 0.522972
2.316579 32.852196 14.788495 0.681743
2.605883 -2.325356 20.624601 0.568627
2.602093 -1.864510 17.606817 0.567330
2.598387 -1.413948 14.656299 0.562631
2.591490 -0.575287 11.719006 0.647730
2.593845 -0.861595 8.950700 0.642588
2.593845 -0.861610 6.164456 0.676127
2.593845 -0.861603 3.387159 0.639765
2.575592 1.357903 0.649160 0.477668
2.231515 43.195492 0.000002 0.539620
2.097309 59.514156 -0.000003 0.542290
2.039689 66.520416 -0.000005 0.540185
2.007598 70.422523 -0.000005 0.535882
1.987110 72.913689 -0.000006 0.577401
1.972870 74.645142 -0.000006 0.567651
1.962379 75.920807 -0.000006 0.552178
1.960157 32.850826 14.788415 0.662669
2.016483 -12.478081 22.816769 0.663050
2.004020 -2.447861 17.712448 0.556848
2.003046 -1.664444 14.693040 0.548470
2.002121 -0.919861 11.758320 0.580438
2.002210 -0.991585 8.961128 0.668284
2.002210 -0.991577 6.170702 0.532937
1.998620 1.897964 3.341958 0.478813
2.001104 -0.101822 0.625318 0.486534
1.947304 43.194160 0.000003 0.543694
1.927026 59.513359 -0.000003 0.533745
1.918319 66.519836 -0.000005 0.536233
1.913470 70.422081 -0.000005 0.524071
1.910375 72.913330 -0.000005 0.522850
1.908223 74.644836 -0.000006 0.560479
1.906638 75.920540 -0.000006 0.521340
1.343602 -12.478050 26.143093 0.646052
1.342127 -12.735123 22.872608 0.678431
1.342127 -12.735115 19.584557 0.678431
1.343602 -12.478058 16.297314 0.570672
1.409057 -1.072151 11.775993 0.613184
1.406992 -1.432014 8.997353 0.683803
1.406992 -1.432037 6.192408 0.672374
1.424390 1.599724 3.346859 0.482353
1.406992 -1.432030 0.603529 0.647044
1.663092 43.194798 0.000002 0.538338
1.756742 59.513741 -0.000003 0.542718
1.796950 66.520103 -0.000005 0.541344
1.819343 70.422287 -0.000005 0.525032
1.833639 72.913498 -0.000005 0.549676
1.843576 74.644989 -0.000006 0.573175
1.850897 75.920662 -0.000006 0.541817
0.670655 -12.478058 26.144653 0.610971
0.667385 -12.735115 22.873955 0.649577
0.667385 -12.735130 19.585691 0.598978
0.670655 -12.478058 16.298235 0.579553
0.805134 -1.906425 11.872606 0.693950
0.798664 -2.415016 9.078410 0.651637
0.818766 -0.834778 6.163332 0.631067
0.839400 0.787308 3.360241 0.463523
0.841111 0.921806 0.641960 0.480949
1.378887 43.197422 0.000003 0.540566
1.586462 59.515312 -0.000003 0.533715
1.675582 66.521225 -0.000005 0.546029
1.725218 70.423157 -0.000005 0.538277
1.756906 72.914207 -0.000005 0.515465
1.778930 74.645584 -0.000006 0.548119
1.795156 75.921181 -0.000006 0.531304
-0.002403 -12.478058 26.147385 0.660380
-0.002403 -12.478058 22.820787 0.606226
-0.002403 -12.478088 19.540899 0.604868
-0.002403 -12.478065 16.299852 0.537575
-0.002403 -12.478058 13.090133 0.691051
0.225911 -0.890816 8.954210 0.564019
0.235557 -0.401237 6.142502 0.670466
0.235557 -0.401245 3.379847 0.689586
0.706326 23.490959 1.011197 0.480812
1.094710 43.202019 0.000002 0.537835
1.416199 59.518066 -0.000003 0.537728
1.554227 66.523193 -0.000005 0.551812
1.631102 70.424683 -0.000005 0.553613
1.680180 72.915451 -0.000005 0.531518
1.714290 74.646629 -0.000006 0.551949
1.739422 75.922081 -0.000006 0.513497
-0.675653 -12.478043 26.151297 0.527092
-0.675653 -12.478065 22.824165 0.581323
-0.675653 -12.478073 19.543743 0.658991
-0.675653 -12.478058 16.302168 0.538033
-0.675653 -12.478035 13.091924 0.567102
-0.363635 -0.787201 8.946836 0.636713
-0.351888 -0.347061 6.140512 0.573327
0.266630 22.827942 2.999817 0.496208
-0.351889 -0.347069 0.620815 0.625299
0.810570 43.208614 0.000002 0.544213
1.245958 59.522018 -0.000003 0.531670
1.432888 66.526009 -0.000005 0.553491
1.536998 70.426865 -0.000005 0.566461
1.603463 72.917229 -0.000005 0.534920
1.649659 74.648132 -0.000006 0.528222
1.683694 75.923378 -0.000006 0.522057
-1.349140 -12.478050 26.156385 0.574029
-1.357797 -12.735100 22.884098 0.678431
-1.357797 -12.735107 19.594231 0.678431
-1.349140 -12.478050 16.305180 0.632242
-1.357796 -12.735069 13.123849 0.678431
-0.978503 -1.472298 9.004507 0.495979
-0.948742 -0.588554 6.153253 0.702464
-0.948742 -0.588562 3.383428 0.728405
-0.150936 23.101654 1.004455 0.498802
0.526488 43.217186 0.000002 0.539635
1.075752 59.527153 -0.000003 0.539437
1.311574 66.529671 -0.000004 0.536599
1.442914 70.429710 -0.000005 0.537087
1.526763 72.919548 -0.000005 0.580758
1.585042 74.650078 -0.000005 0.563836
1.627979 75.925056 -0.000006 0.565362
-2.022959 -12.478058 26.162657 0.612558
-2.022958 -12.478050 22.833952 0.560388
-2.022959 -12.478073 19.551991 0.528893
-2.022959 -12.478058 16.308891 0.568750
-2.022959 -12.478058 13.097144 0.530724
-2.022959 -12.478058 9.909492 0.670741
-2.022959 -12.478058 6.738909 0.646891
-0.567284 23.316338 2.992288 0.481819
-0.589754 22.763809 0.998663 0.489082
0.242466 43.227726 0.000002 0.541314
0.905584 59.533489 -0.000003 0.538659
1.190285 66.534180 -0.000005 0.542626
1.348849 70.433205 -0.000005 0.541482
1.450079 72.922394 -0.000005 0.547417
1.520438 74.652481 -0.000005 0.542016
1.572275 75.927132 -0.000006 0.555749
-2.697151 -12.478043 26.170101 0.559396
-2.697152 -12.478050 22.840374 0.558053
-2.697152 -12.478065 19.557402 0.625635
-2.697151 -12.478043 16.313301 0.598581
-2.697152 -12.478058 13.100564 0.579141
-2.697152 -12.478058 9.911930 0.537972
-2.697152 -12.478065 6.740371 0.556237
-1.042843 22.230675 3.010379 0.474845
-1.048965 22.102234 0.987517 0.458381
-0.041471 43.240265 0.000002 0.537911
0.735464 59.541000 -0.000003 0.544930
1.069033 66.539536 -0.000005 0.543511
1.254813 70.437355 -0.000005 0.548028
1.373418 72.925781 -0.000005 0.520851
1.455853 74.655334 -0.000005 0.532067
1.516587 75.929588 -0.000006 0.536782
-3.371802 -12.478058 26.178745 0.652811
-3.385852 -12.735085 22.903421 0.647089
-3.385852 -12.735085 19.610508 0.640726
-3.371801 -12.478035 16.318419 0.603326
-3.385852 -12.735092 13.134143 0.590768
-3.385853 -12.735092 9.935863 0.601175
-3.371802 -12.478050 6.742064 0.568444
-1.421786 23.195831 2.994923 0.465400
-1.423338 23.167427 1.004612 0.474037
-0.325317 43.254799 0.000002 0.538872
0.565400 59.549702 -0.000003 0.545312
0.947819 66.545738 -0.000004 0.535271
1.160807 70.442169 -0.000005 0.529351
1.296781 72.929703 -0.000005 0.562097
1.391289 74.658638 -0.000005 0.550317
1.460918 75.932442 -0.000006 0.534188
-4.046954 -12.478043 26.188553 0.673564
-4.062806 -12.735092 22.911915 0.678431
-4.062806 -12.735100 19.617666 0.678431
-4.046954 -12.478050 16.324234 0.555810
-4.062806 -12.735092 13.138669 0.680766
-4.062806 -12.735100 9.939087 0.678431
-4.046954 -12.478043 6.743987 0.650858
-3.391896 -1.855560 3.406045 0.468986
-3.289090 -0.188454 0.621287 0.478889
-0.609049 43.271313 0.000002 0.542016
0.395403 59.559589 -0.000003 0.542458
0.826654 66.552788 -0.000004 0.534722
1.066838 70.447632 -0.000005 0.547906
1.220175 72.934158 -0.000005 0.538735
1.326751 74.662392 -0.000005 0.561212
1.405270 75.935677 -0.000006 0.551034
-4.722700 -12.478027 26.199560 0.521248
-4.722703 -12.478065 22.865784 0.694575
-4.722703 -12.478058 19.578802 0.651057
-4.722702 -12.478050 16.330753 0.514351
-4.722702 -12.478065 13.114099 0.660609
-4.722702 -12.478050 9.921572 0.498390
-4.722703 -12.478050 6.746147 0.675090
-3.815777 0.727364 3.364317 0.474998
-3.753374 1.635994 0.650585 0.480827
-0.892666 43.289783 0.000002 0.538369
0.225477 59.570663 -0.000003 0.534157
0.705539 66.560677 -0.000004 0.553399
0.972908 70.453751 -0.000005 0.537484
1.143601 72.939148 -0.000005 0.542214
1.262239 74.666595 -0.000005 0.542321
1.349646 75.939301 -0.000006 0.555352
-5.399089 -12.478043 26.211765 0.659724
-5.399092 -12.478073 22.876303 0.430991
-5.399091 -12.478065 19.587666 0.529412
-5.399090 -12.478050 16.337975 0.581552
-5.399092 -12.478073 13.119699 0.653925
-5.399090 -12.478058 9.925568 0.601801
-5.399092 -12.478073 6.748543 0.718853
-4.349033 1.393997 3.354067 0.473213
-4.594788 -1.852608 0.592656 0.637140
-1.176142 43.310249 0.000002 0.542687
0.055634 59.582924 -0.000003 0.540963
0.584482 66.569412 -0.000005 0.542290
0.879024 70.460526 -0.000005 0.512886
1.067064 72.944672 -0.000005 0.491295
1.197758 74.671249 -0.000005 0.503685
1.294048 75.943314 -0.000006 0.538109
-6.076199 -12.478027 26.225153 0.647257
-6.097462 -12.735085 22.943550 0.678431
-6.097463 -12.735100 19.644320 0.678431
-6.076201 -12.478065 16.345909 0.591379
-6.097462 -12.735085 13.155517 0.678431
-6.097463 -12.735100 9.951099 0.678431
-6.076200 -12.478058 6.751169 0.593439
-4.960602 1.008202 3.361150 0.476417
-4.908311 1.640335 0.649230 0.560784
-1.459472 43.332687 0.000002 0.539040
-0.114122 59.596371 -0.000003 0.551736
0.463489 66.578995 -0.000005 0.545830
0.785189 70.467964 -0.000005 0.545419
0.990567 72.950737 -0.000005 0.516442
1.133312 74.676353 -0.000005 0.552560
1.238480 75.947716 -0.000006 0.512688
-6.754086 -12.478020 26.239737 0.633417
-6.777161 -12.735107 22.956167 0.678431
-6.777160 -12.735100 19.654947 0.678431
-6.754089 -12.478058 16.354549 0.728786
-6.777160 -12.735100 13.162241 0.678431
-6.777162 -12.735115 9.955890 0.678431
-6.754088 -12.478043 6.754030 0.532662
-5.496023 1.538704 3.353253 0.491844
-5.559346 0.833183 0.635155 0.495079
-1.742637 43.357101 0.000001 0.542641
-0.283777 59.611008 -0.000003 0.543542
0.342567 66.589424 -0.000005 0.551308
0.691408 70.476051 -0.000005 0.536202
0.914114 72.957329 -0.000005 0.559197
1.068903 74.681908 -0.000005 0.530526
1.182944 75.952507 -0.000006 0.562310
-7.432823 -12.478027 26.255527 0.699672
-7.432827 -12.478065 22.914042 0.571664
-7.432827 -12.478065 19.619461 0.625772
-7.432825 -12.478043 16.363895 0.522988
-7.432826 -12.478058 13.139802 0.521538
-7.432826 -12.478058 9.939896 0.566964
-7.432825 -12.478043 6.757123 0.579919
-6.403893 -1.848190 3.409816 0.682078
-6.030731 2.006927 0.653563 0.492851
-2.025623 43.383499 0.000001 0.540490
-0.453327 59.626816 -0.000003 0.539178
0.221720 66.600700 -0.000004 0.540719
0.597687 70.484795 -0.000005 0.532372
0.837709 72.964455 -0.000005 0.525582
1.004534 74.687912 -0.000005 0.556741
1.127443 75.957680 -0.000005 0.536522
-8.112479 -12.478027 26.272526 0.498405
-8.112481 -12.478050 22.928688 0.670710
-8.112480 -12.478043 19.631802 0.568414
-8.112480 -12.478043 16.373959 0.621942
-8.112479 -12.478035 13.147604 0.686137
-8.112481 -12.478058 9.945458 0.458442
-8.112481 -12.478058 6.760457 0.607904
-7.008437 -1.846718 3.410779 0.620645
-7.008437 -1.846718 0.589219 0.640833
-2.308420 43.411858 0.000001 0.541833
-0.622762 59.643814 -0.000003 0.530556
0.100956 66.612816 -0.000004 0.548623
0.504028 70.494186 -0.000005 0.553399
0.761356 72.972115 -0.000005 0.516686
0.940209 74.694366 -0.000005 0.565927
1.071980 75.963249 -0.000005 0.579583
-8.793118 -12.478035 26.290728 0.532387
-8.821629 -12.735077 23.000237 0.678431
-8.821632 -12.735107 19.692083 0.678431
-8.793120 -12.478043 16.384743 0.585199
-8.821630 -12.735085 13.185715 0.678431
-8.821631 -12.735100 9.972622 0.678431
-8.793122 -12.478065 6.764027 0.721798
-7.613837 -1.845245 3.411812 0.647059
-7.613837 -1.845245 0.588186 0.662531
-2.591009 43.442207 0.000001 0.541268
-0.792075 59.661987 -0.000003 0.540413
-0.019722 66.625778 -0.000004 0.542611
0.410438 70.504242 -0.000005 0.553674
0.685059 72.980309 -0.000005 0.527672
0.875931 74.701271 -0.000005 0.562081
1.016556 75.969193 -0.000005 0.555062
nan nan nan 0.000000
-9.494599 -12.645706 22.997587 0.191577
-9.494599 -12.645706 19.689846 0.159243
-9.474821 -12.478065 16.396238 0.572519
-9.494598 -12.645699 13.184301 0.107073
-9.494600 -12.645714 9.971617 0.161334
-9.474820 -12.478065 6.767836 0.617655
-8.220156 -1.843750 3.412919 0.500465
-4.953062 25.847534 1.043362 0.479912
-2.873383 43.474514 0.000001 0.534020
-0.961256 59.681355 -0.000003 0.540398
-0.140306 66.639572 -0.000004 0.552590
0.316920 70.514938 -0.000005 0.554681
0.608820 72.989029 -0.000005 0.544076
0.811702 74.708618 -0.000005 0.561852
0.961176 75.975533 -0.000006 0.549187
nan nan nan 0.000000
-10.157633 -12.478058 22.978922 0.505562
-10.157633 -12.478050 19.674120 0.707027
-10.157630 -12.478035 16.408455 0.724010
-10.157635 -12.478073 13.174362 0.639429
-10.157633 -12.478050 9.964527 0.599771
-10.157634 -12.478065 6.771882 0.499809
-8.827445 -1.842270 3.414091 0.634821
-5.272695 26.580482 1.054638 0.483024
-3.155518 43.508812 0.000001 0.537484
-1.130296 59.701897 -0.000003 0.524208
-0.260789 66.654221 -0.000004 0.526802
0.223480 70.526299 -0.000005 0.529580
0.532645 72.998291 -0.000005 0.554788
0.747527 74.716415 -0.000005 0.538445
0.905842 75.982262 -0.000005 0.531579
nan nan nan 0.000000
-10.863807 -12.645699 23.034294 0.179980
-10.863806 -12.645691 19.720762 0.071458
-10.841650 -12.478065 16.421398 0.556497
-10.863808 -12.645706 13.203850 0.140658
-10.863811 -12.645721 9.985548 0.211429
-10.841648 -12.478050 6.776170 0.581537
-9.435786 -1.840790 3.415338 0.669978
-5.658803 26.737225 1.056376 0.462531
-3.437413 43.545059 0.000001 0.543542
-1.299192 59.723618 -0.000003 0.542168
-0.381170 66.669701 -0.000004 0.524971
0.130120 70.538307 -0.000005 0.542336
0.456535 73.008080 -0.000005 0.537316
0.683406 74.724663 -0.000005 0.555520
0.850555 75.989372 -0.000005 0.527565
nan nan nan 0.000000
-11.562734 -12.735123 23.073727 0.678431
-11.562730 -12.735100 19.753984 0.678431
-11.526930 -12.478043 16.435070 0.557076
-11.562729 -12.735092 13.224854 0.678431
-11.562730 -12.735100 10.000519 0.678431
-11.526931 -12.478050 6.780696 0.602792
-6.085234 26.593845 2.946888 0.484398
-6.001485 27.195179 1.063048 0.482353
-3.719048 43.583286 0.000001 0.541360
-1.467930 59.746521 -0.000003 0.537697
-0.501439 66.686020 -0.000004 0.544106
0.036846 70.550964 -0.000005 0.539132
0.380496 73.018402 -0.000005 0.557275
0.619345 74.733360 -0.000005 0.557504
0.795319 75.996864 -0.000005 0.524910
nan nan nan 0.000000
-12.213537 -12.478065 23.038643 0.741024
-12.213541 -12.478096 19.724434 0.537011
-12.213533 -12.478050 16.449472 0.572152
-12.213539 -12.478088 13.206172 0.550500
-12.213538 -12.478073 9.987200 0.609384
-12.213533 -12.478050 6.785468 0.715694
-6.515451 26.443924 2.950311 0.565957
-6.485204 26.650528 1.053106 0.564706
-4.000405 43.623466 0.000001 0.541039
-1.636504 59.770599 -0.000003 0.534508
-0.621590 66.703186 -0.000004 0.550530
-0.056335 70.564270 -0.000005 0.542260
0.304531 73.029251 -0.000005 0.551461
0.555347 74.742500 -0.000005 0.541299
0.740137 76.004745 -0.000005 0.554040
-5.869290 33.323986 14.818351 0.644144
-12.901553 -12.478065 23.060680 0.638224
-12.901555 -12.478065 19.742996 0.661082
-12.901551 -12.478035 16.464605 0.576059
-12.901551 -12.478050 13.217903 0.552819
-12.901552 -12.478058 9.995565 0.671016
-12.901552 -12.478050 6.790478 0.616709
-6.802186 27.247921 2.937995 0.482353
-6.716116 27.808498 1.071285 0.482353
-4.281480 43.665611 0.000001 0.541588
-1.804907 59.795849 -0.000003 0.549203
-0.741619 66.721184 -0.000004 0.541909
-0.149423 70.578232 -0.000005 0.549767
0.228644 73.040627 -0.000005 0.559136
0.491414 74.752090 -0.000005 0.538140
0.685012 76.013016 -0.000005 0.562387
-6.224178 33.367279 14.821432 0.657526
nan nan nan 0.000000
-13.632360 -12.735100 19.809841 0.678431
-13.591055 -12.478065 16.480482 0.607721
-13.632360 -12.735100 13.260167 0.678431
-13.632360 -12.735100 10.025685 0.678431
-13.591051 -12.478050 6.795733 0.482658
-7.195901 27.320087 2.937829 0.484565
-7.134810 27.700260 1.068472 0.477195
-4.562252 43.709728 0.000001 0.540597
-1.973132 59.822277 -0.000003 0.549920
-0.861521 66.740021 -0.000004 0.545159
-0.242412 70.592842 -0.000005 0.545174
0.152836 73.052544 -0.000005 0.535683
0.427549 74.762123 -0.000005 0.520104
0.629945 76.021667 -0.000005 0.548760
-6.215056 35.580196 14.274085 0.663172
-6.789786 32.156319 13.333013 0.637598
-6.704918 32.661915 11.454442 0.653712
-6.789735 32.156624 9.783540 0.658274
-6.789734 32.156631 8.036459 0.649409
-6.789769 32.156418 6.302506 0.628397
-6.789771 32.156406 4.577812 0.625910
-6.789700 32.156837 2.858651 0.623972
-6.789786 32.156319 1.141341 0.619440
-4.842704 43.755802 0.000001 0.534340
-2.141163 59.849876 -0.000003 0.547753
-0.981285 66.759697 -0.000004 0.537224
-0.335294 70.608101 -0.000004 0.556252
0.077117 73.064980 -0.000005 0.559121
0.363757 74.772606 -0.000005 0.507149
0.574941 76.030701 -0.000005 0.494957
-6.554101 35.627335 14.276800 0.681285
-6.854692 33.910122 12.962041 0.678431
-6.815785 34.132393 11.194138 0.793896
-6.854693 33.910122 9.528801 0.678431
-6.854693 33.910118 7.838901 0.678431
-6.800241 34.221195 6.135782 0.782971
-6.854694 33.910110 4.493435 0.678431
-6.800277 34.220989 2.825387 0.724575
-6.854693 33.910118 1.169449 0.678431
-5.122838 43.803825 0.000001 0.537774
-2.309002 59.878658 -0.000003 0.532784
-1.100912 66.780212 -0.000004 0.530083
-0.428071 70.624008 -0.000004 0.541772
0.001482 73.077950 -0.000005 0.550942
0.300037 74.783524 -0.000005 0.514305
0.520000 76.040123 -0.000005 0.537697
-6.786342 36.261398 14.130679 0.655909
-6.803573 36.166862 12.480283 0.627222
-6.804241 36.163193 10.830007 0.654551
-6.803573 36.166862 9.197927 0.615457
-6.803932 36.164890 7.582522 0.626459
-6.705480 36.705090 5.933920 0.691844
-6.803658 36.166397 4.383878 0.630381
-6.803301 36.168358 2.794025 0.643275
-6.794258 36.217972 1.206800 0.618296
-5.402623 43.853817 0.000001 0.543481
-2.476633 59.908607 -0.000003 0.544457
-1.220393 66.801552 -0.000004 0.534737
-0.520732 70.640564 -0.000005 0.536034
-0.074059 73.091446 -0.000005 0.509651
0.236397 74.794899 -0.000005 0.560311
0.465126 76.049927 -0.000005 0.531334
-6.854758 37.716423 13.775481 0.678431
-6.854758 37.716419 12.153263 0.678431
-6.854758 37.716423 10.553824 0.678431
-6.800241 38.004150 8.929888 0.780682
-6.854758 37.716423 7.408107 0.678431
-6.726425 38.393738 5.798104 0.734707
-6.854758 37.716419 4.309470 0.678431
-6.854759 37.716419 2.769274 0.678431
-6.854759 37.716419 1.230726 0.678431
-5.682050 43.905739 0.000000 0.540154
-2.644050 59.939720 -0.000003 0.543633
-1.339718 66.823730 -0.000004 0.545892
-0.613274 70.657761 -0.000004 0.533181
-0.149502 73.105461 -0.000005 0.552407
0.172838 74.806709 -0.000005 0.538491
0.410323 76.060112 -0.000005 0.521157
-6.790915 39.741302 13.274437 0.630747
-6.791007 39.740849 11.721348 0.661540
-6.791007 39.740845 10.189948 0.648005
-6.791007 39.740841 8.676683 0.648569
-6.791007 39.740845 7.178046 0.645685
-6.791007 39.740849 5.690655 0.653147
-6.791007 39.740845 4.211227 0.649302
-6.791071 39.740524 2.736554 0.626841
-6.790905 39.741364 1.263459 0.630152
-5.961112 43.959621 0.000000 0.540124
-2.811248 59.972000 -0.000004 0.530938
-1.458889 66.846741 -0.000004 0.549798
-0.705696 70.675606 -0.000004 0.559945
-0.224846 73.120010 -0.000005 0.546487
0.109363 74.818970 -0.000005 0.530602
0.355593 76.070679 -0.000005 0.538033
-7.072500 39.933071 13.241193 0.635828
-7.072503 39.933060 11.692587 0.654337
-7.072526 39.932945 10.165736 0.645472
-7.072555 39.932804 8.656967 0.669734
-7.072556 39.932800 7.162756 0.628199
-7.072555 39.932804 5.679755 0.671199
-7.072553 39.932812 4.204696 0.667109
-7.072552 39.932819 2.734374 0.662425
-7.072534 39.932907 1.265628 0.641505
-6.239791 44.015461 0.000001 0.542199
-2.978217 60.005455 -0.000003 0.534188
-1.577896 66.870583 -0.000004 0.533272
-0.797991 70.694099 -0.000004 0.524056
-0.300088 73.135086 -0.000005 0.542199
0.045974 74.831665 -0.000005 0.540948
0.300936 76.081635 -0.000005 0.541176
-7.392799 39.932652 13.257607 0.632441
-7.392801 39.932648 11.706736 0.619745
-7.392781 39.932739 10.177619 0.649027
-7.392770 39.932796 8.666626 0.651850
-7.392770 39.932796 7.170245 0.622065
-7.392767 39.932812 5.685094 0.652964
-7.392766 39.932816 4.207894 0.617151
-7.392768 39.932808 2.735438 0.649119
-7.392783 39.932735 1.264559 0.647654
-6.518069 44.073231 0.000001 0.540978
-3.144945 60.040070 -0.000003 0.538918
-1.696732 66.895256 -0.000004 0.535286
-0.890153 70.713234 -0.000005 0.534493
-0.375221 73.150688 -0.000005 0.552758
-0.017323 74.844810 -0.000005 0.510964
0.246359 76.092964 -0.000005 0.549371
-7.713921 39.932858 13.274458 0.612039
-7.713924 39.932846 11.721265 0.622156
-7.713929 39.932823 10.189882 0.622889
-7.713934 39.932800 8.676634 0.644480
-7.713935 39.932800 7.178009 0.630762
-7.713934 39.932804 5.690626 0.650172
-7.713930 39.932819 4.211208 0.642771
-7.713931 39.932816 2.736543 0.646967
-7.713929 39.932827 1.263457 0.626764
-6.795941 44.132950 0.000001 0.542412
-3.311430 60.075851 -0.000003 0.543755
-1.815394 66.920761 -0.000004 0.526390
-0.982181 70.733009 -0.000005 0.529870
-0.450245 73.166809 -0.000005 0.539818
-0.080529 74.858391 -0.000005 0.520485
0.191861 76.104675 -0.000005 0.506432
-8.036027 39.933041 13.291913 0.647593
-8.036030 39.933025 11.736317 0.646510
-8.036057 39.932903 10.202581 0.632349
-8.036082 39.932800 8.687002 0.646662
-8.036081 39.932804 7.186048 0.631388
-8.036080 39.932808 5.696355 0.633967
-8.036080 39.932808 4.214643 0.640391
-8.036077 39.932819 2.737686 0.652216
-8.036055 39.932919 1.262315 0.622827
-7.073391 44.194607 0.000001 0.543526
-3.477662 60.112789 -0.000003 0.552911
-1.933876 66.947083 -0.000004 0.548882
-1.074069 70.753426 -0.000005 0.553399
-0.525155 73.183456 -0.000005 0.540612
-0.143638 74.872414 -0.000005 0.534524
0.137446 76.116768 -0.000005 0.540368
-8.359254 39.932762 13.310098 0.629084
-8.359257 39.932747 11.751997 0.631067
-8.359246 39.932793 10.215759 0.656519
-8.359241 39.932819 8.697722 0.613886
-8.359243 39.932804 7.194366 0.628626
-8.359242 39.932812 5.702285 0.640162
-8.359243 39.932808 4.218195 0.630014
-8.359241 39.932823 2.738870 0.654322
-8.359250 39.932777 1.261129 0.628122
-7.350402 44.258194 0.000001 0.539590
-3.643632 60.150887 -0.000003 0.538079
-2.052170 66.974243 -0.000004 0.516487
-1.165811 70.774490 -0.000005 0.556359
-0.599945 73.200623 -0.000004 0.536812
-0.206648 74.886879 -0.000005 0.510140
0.083117 76.129234 -0.000005 0.536629
-8.683431 39.932922 13.328779 0.621302
-8.683430 39.932930 11.768100 0.627131
-8.683449 39.932850 10.229348 0.635218
-8.683457 39.932812 8.708811 0.650416
-8.683459 39.932804 7.202963 0.631434
-8.683459 39.932804 5.708413 0.623041
-8.683456 39.932819 4.221867 0.632517
-8.683457 39.932812 2.740093 0.631876
-8.683444 39.932873 1.259908 0.619043
-7.626960 44.323719 0.000001 0.537469
-3.809328 60.190155 -0.000003 0.540978
-2.170272 67.002220 -0.000004 0.533578
-1.257404 70.796188 -0.000005 0.543954
-0.674614 73.218315 -0.000005 0.563241
-0.269553 74.901787 -0.000005 0.524086
0.028877 76.142090 -0.000005 0.530098
-9.008780 39.932743 13.348164 0.656458
-9.008782 39.932732 11.784820 0.650034
-9.008765 39.932796 10.243406 0.646448
-9.008760 39.932816 8.720264 0.616495
-9.008764 39.932804 7.211846 0.625971
-9.008762 39.932812 5.714745 0.645777
-9.008761 39.932812 4.225659 0.653376
-9.008759 39.932823 2.741356 0.629648
-9.008778 39.932755 1.258642 0.660929
-7.903052 44.391163 0.000000 0.540688
-3.974746 60.230568 -0.000003 0.539208
-2.288173 67.031029 -0.000004 0.540703
-1.348841 70.818527 -0.000004 0.534463
-0.749156 73.236526 -0.000004 0.533043
-0.332354 74.917130 -0.000005 0.547372
-0.025272 76.155319 -0.000005 0.561852
-9.335186 39.932888 13.368087 0.626627
-9.335185 39.932888 11.801993 0.613794
-9.335200 39.932831 10.257901 0.632807
-9.335204 39.932816 8.732084 0.658335
-9.335206 39.932808 7.221013 0.634287
-9.335207 39.932808 5.721278 0.626245
-9.335205 39.932816 4.229573 0.623529
-9.335199 39.932831 2.742660 0.666072
-9.335190 39.932865 1.257340 0.630442
-8.178678 44.460533 0.000000 0.541558
-4.139883 60.272133 -0.000003 0.542733
-2.405874 67.060661 -0.000003 0.546838
-1.440123 70.841507 -0.000004 0.531624
-0.823574 73.255257 -0.000005 0.537789
-0.395047 74.932907 -0.000005 0.545220
-0.079329 76.168922 -0.000005 0.544091
-9.662813 39.932777 13.388702 0.639475
-9.662817 39.932762 11.819772 0.638560
-9.662800 39.932831 10.272853 0.647852
-9.662803 39.932819 8.744274 0.646693
-9.662807 39.932800 7.230467 0.636622
-9.662804 39.932812 5.728017 0.653544
-9.662804 39.932816 4.233611 0.635294
-9.662800 39.932827 2.744005 0.663111
-9.662819 39.932755 1.255994 0.638285
-8.453796 44.531853 0.000001 0.538766
-4.304723 60.314850 -0.000003 0.529381
-2.523365 67.091103 -0.000004 0.534920
-1.531241 70.865120 -0.000004 0.556283
-0.897855 73.274513 -0.000005 0.542519
-0.457627 74.949127 -0.000005 0.521904
-0.133287 76.182907 -0.000004 0.509667
-9.991592 39.932888 13.409891 0.650339
-9.991593 39.932884 11.838041 0.621225
-9.991610 39.932827 10.288268 0.636225
-9.991611 39.932819 8.756840 0.647196
-9.991614 39.932808 7.240211 0.632471
-9.991615 39.932804 5.734963 0.656077
-9.991614 39.932808 4.237773 0.628992
-9.991609 39.932831 2.745392 0.642206
-9.991596 39.932877 1.254609 0.650813
-8.728428 44.605049 0.000000 0.543206
-4.469262 60.358719 -0.000003 0.540764
-2.640640 67.122375 -0.000004 0.538720
-1.622193 70.889374 -0.000005 0.518624
-0.972002 73.294281 -0.000004 0.518837
-0.520094 74.965782 -0.000004 0.529671
-0.187148 76.197273 -0.000004 0.560372
-10.321661 39.932819 13.431765 0.632258
-10.321661 39.932819 11.856897 0.669764
-10.321659 39.932831 10.304144 0.627115
-10.321660 39.932819 8.769781 0.632654
-10.321665 39.932808 7.250249 0.629114
-10.321664 39.932812 5.742116 0.645869
-10.321666 39.932804 4.242060 0.633433
-10.321657 39.932835 2.746818 0.662196
-10.321668 39.932793 1.253180 0.635035
-9.002530 44.680183 0.000000 0.540124
-4.633488 60.403732 -0.000003 0.537560
-2.757692 67.154457 -0.000003 0.545693
-1.712972 70.914253 -0.000005 0.553872
-1.046007 73.314568 -0.000004 0.537087
-0.582441 74.982872 -0.000005 0.551904
-0.240907 76.212006 -0.000004 0.561898
-10.652975 39.932888 13.454246 0.641871
-10.652975 39.932884 11.876286 0.646143
-10.652992 39.932823 10.320487 0.618097
-10.652991 39.932827 8.783104 0.613596
-10.652998 39.932804 7.260583 0.621546
-10.652995 39.932816 5.749480 0.658717
-10.652997 39.932808 4.246471 0.656764
-10.652989 39.932835 2.748289 0.626581
-10.652969 39.932907 1.251712 0.629206
-9.276101 44.757233 0.000000 0.543740
-4.797397 60.449898 -0.000003 0.540688
-2.874519 67.187363 -0.000004 0.539086
-1.803575 70.939774 -0.000004 0.538598
-1.119870 73.335365 -0.000004 0.544884
-0.644668 75.000397 -0.000004 0.547707
-0.294562 76.227119 -0.000004 0.534096
-10.985638 39.932858 13.477400 0.666529
-10.985641 39.932846 11.896253 0.644434
-10.985643 39.932838 10.337300 0.607584
-10.985645 39.932831 8.796810 0.626444
-10.985654 39.932808 7.271213 0.640040
-10.985652 39.932812 5.757058 0.663951
-10.985655 39.932804 4.251012 0.643290
-10.985646 39.932831 2.749802 0.627359
-10.985645 39.932835 1.250199 0.632624
-9.549133 44.836170 -0.000000 0.539895
-4.960979 60.497200 -0.000003 0.538613
-2.991112 67.221077 -0.000004 0.538247
-1.893999 70.965919 -0.000004 0.534997
-1.193586 73.356682 -0.000005 0.526558
