# This PCD file was generated using the MATLAB® pcwrite function
# from Computer Vision Toolbox®.
# .PCD v.7 - Point Cloud Data file format
VERSION .7
FIELDS x y z intensity
SIZE 4 4 4 4
TYPE F F F F
COUNT 1 1 1 1
WIDTH 1272
HEIGHT 1
VIEWPOINT 0 0 0 1 0 0 0
POINTS 1272
DATA ascii
nan nan nan 0.000000
nan nan nan 0.000000
nan nan nan 0.000000
nan nan nan 0.000000
nan nan nan 0.000000
nan nan nan 0.000000
nan nan nan 0.000000
9.807453 1.110078 1.219962 0.491707
3.146965 3.120998 0.000011 0.541680
-12.475689 7.837754 0.000007 0.547707
-19.182850 9.862765 -0.000024 0.337407
-22.918638 10.990666 -0.000016 0.332906
-25.303606 11.710731 -0.000011 0.336645
-26.961241 12.211200 -0.000007 0.341512
-28.182507 12.579922 -0.000004 0.343038
nan nan nan 0.000000
nan nan nan 0.000000
nan nan nan 0.000000
nan nan nan 0.000000
nan nan nan 0.000000
nan nan nan 0.000000
9.736752 0.783593 4.343153 0.472709
9.191185 0.952474 2.771148 0.503853
8.870785 1.051655 1.234341 0.496635
3.063866 2.849198 0.000011 0.543099
-12.525478 7.674908 0.000007 0.527764
-19.218336 9.746695 -0.000024 0.334707
-22.946161 10.900649 -0.000016 0.334569
-25.326042 11.637345 -0.000011 0.347234
-26.980141 12.149375 -0.000007 0.339055
-28.198805 12.526614 -0.000004 0.326162
nan nan nan 0.000000
nan nan nan 0.000000
nan nan nan 0.000000
nan nan nan 0.000000
nan nan nan 0.000000
nan nan nan 0.000000
9.928696 0.373383 4.358178 0.486305
nan nan nan 0.000000
2.116798 2.851461 1.348613 0.527031
2.978867 2.577997 0.000011 0.546059
-12.576399 7.512418 0.000007 0.528618
-19.337675 9.657221 0.009998 1.000000
-22.974312 10.810829 -0.000016 0.336385
-25.348988 11.564121 -0.000011 0.335760
-26.999477 12.087687 -0.000007 0.333150
-28.215473 12.473425 -0.000004 0.338430
nan nan nan 0.000000
nan nan nan 0.000000
nan nan nan 0.000000
nan nan nan 0.000000
nan nan nan 0.000000
nan nan nan 0.000000
nan nan nan 0.000000
10.341602 -0.113140 2.794364 0.478401
1.707062 2.692392 1.354201 0.466667
2.891991 2.307385 0.000011 0.537987
-12.628452 7.350284 0.000007 0.535607
-19.374510 9.542211 0.009989 1.000000
-23.003086 10.721207 -0.000015 0.336782
-25.372448 11.491058 -0.000011 0.332113
-27.019241 12.026134 -0.000007 0.335042
-28.232513 12.420350 -0.000004 0.339971
nan nan nan 0.000000
nan nan nan 0.000000
nan nan nan 0.000000
nan nan nan 0.000000
nan nan nan 0.000000
nan nan nan 0.000000
nan nan nan 0.000000
nan nan nan 0.000000
1.653805 2.419744 1.353636 0.494087
2.803211 2.037387 0.000011 0.540093
-12.681637 7.188514 0.000007 0.537209
-19.329649 9.400013 -0.000024 0.335851
-23.032488 10.631784 -0.000015 0.334829
-25.396418 11.418160 -0.000010 0.343526
-27.039429 11.964718 -0.000007 0.334722
-28.249926 12.367396 -0.000004 0.338064
nan nan nan 0.000000
nan nan nan 0.000000
nan nan nan 0.000000
nan nan nan 0.000000
nan nan nan 0.000000
nan nan nan 0.000000
nan nan nan 0.000000
nan nan nan 0.000000
1.570076 2.156955 1.353563 0.474708
2.712563 1.768021 0.000011 0.538598
-12.735954 7.027126 0.000007 0.540078
-19.368599 9.285063 0.000005 0.543984
-23.062510 10.542573 -0.000015 0.333394
-25.420891 11.345432 -0.000010 0.333333
-27.060051 11.903447 -0.000007 0.335348
-28.267704 12.314566 -0.000004 0.345571
nan nan nan 0.000000
nan nan nan 0.000000
nan nan nan 0.000000
nan nan nan 0.000000
nan nan nan 0.000000
nan nan nan 0.000000
nan nan nan 0.000000
1.774281 1.793809 2.651532 0.466819
1.115040 2.023381 1.359892 0.454322
2.620029 1.499287 0.000011 0.545632
-12.791393 6.866117 0.000007 0.533425
-19.408112 9.170302 0.000005 0.532677
-23.093157 10.453571 -0.000015 0.337301
-25.445877 11.272876 -0.000010 0.337133
-27.081099 11.842320 -0.000007 0.343603
-28.285851 12.261860 -0.000005 0.335729
nan nan nan 0.000000
nan nan nan 0.000000
nan nan nan 0.000000
nan nan nan 0.000000
nan nan nan 0.000000
nan nan nan 0.000000
1.977070 1.426545 3.971381 0.474372
0.559696 1.931251 2.632038 0.466773
1.712662 1.520698 1.347935 0.514473
2.525635 1.231210 0.000011 0.537697
-12.847958 6.705503 0.000007 0.542855
-19.448427 9.055824 0.000005 0.531426
-23.124422 10.364788 -0.000015 0.338277
-25.471363 11.200497 -0.000011 0.335363
-27.102570 11.781343 -0.000007 0.335668
-28.304365 12.209284 -0.000004 0.336980
39.360279 -12.477964 22.041908 0.552026
39.360325 -12.477978 19.280897 0.720958
39.360317 -12.477976 16.558643 0.537636
39.360317 -12.477976 13.868630 0.595087
39.360310 -12.477976 11.204618 0.664561
nan nan nan 0.000000
0.822891 1.548504 3.916002 0.482063
2.403870 0.973075 2.665744 0.494209
0.717442 1.586885 1.363625 0.462501
2.429356 0.963799 0.000011 0.536812
-12.905636 6.545282 0.000007 0.549935
-19.489544 8.941629 0.000005 0.537911
-23.156307 10.276222 -0.000015 0.340154
-25.497360 11.128297 -0.000010 0.336812
-27.124470 11.720517 -0.000007 0.336660
-28.323250 12.156837 -0.000004 0.339712
37.757832 -12.477972 21.665199 0.598337
37.757854 -12.477982 18.956083 0.580621
37.757854 -12.477982 16.284996 0.553658
37.757854 -12.477982 13.645547 0.619013
37.757839 -12.477976 11.031606 0.609186
1.389114 1.047436 5.255670 0.475074
1.278442 1.088593 3.944808 0.477943
0.904587 1.227631 2.641279 0.496818
-0.045055 1.580798 1.375301 0.489113
1.476650 1.014881 0.044802 0.572427
-12.964437 6.385474 0.000007 0.539742
-19.531450 8.827724 0.000005 0.533776
-23.188810 10.187885 -0.000015 0.335515
-25.523857 11.056281 -0.000010 0.335332
-27.146793 11.659846 -0.000007 0.340902
-28.342497 12.104525 -0.000004 0.334493
36.214420 -12.477982 21.303314 0.575296
36.666279 -12.649630 18.748444 0.130907
36.214451 -12.477993 16.022120 0.587793
36.666264 -12.649622 13.502935 0.175723
36.214443 -12.477989 10.865403 0.654169
37.038593 -12.791058 8.391106 0.497459
1.035892 0.885091 3.937172 0.468315
1.523033 0.700044 2.653790 0.481819
1.574730 0.680406 1.345305 0.485344
2.231220 0.431027 0.000011 0.539925
-13.024351 6.226077 0.000007 0.541405
-19.574152 8.714114 0.000005 0.525261
-23.221931 10.099775 -0.000015 0.336324
-25.550858 10.984451 -0.000010 0.339651
-27.169538 11.599331 -0.000007 0.334508
-28.362110 12.052347 -0.000004 0.322789
34.726704 -12.477983 20.955404 0.652522
34.726887 -12.478052 18.344112 0.671931
34.726711 -12.477987 15.769395 0.624735
34.726864 -12.478046 13.225237 0.633448
34.508427 -12.393318 10.678684 0.156481
35.533794 -12.791035 8.275915 0.678431
1.033451 0.590771 3.942240 0.444190
0.278992 0.883406 2.633708 0.517372
0.532932 0.784908 1.361834 0.491173
-5.148178 2.988467 0.383486 0.463478
-13.085371 6.067101 0.000007 0.540383
-19.617649 8.600806 0.000005 0.549416
-23.255665 10.011899 -0.000015 0.334615
-25.578354 10.912811 -0.000010 0.332403
-27.192707 11.538978 -0.000007 0.334462
-28.382086 12.000307 -0.000004 0.333623
33.291576 -12.477980 20.620710 0.556039
33.941189 -12.735182 18.206379 0.672084
33.291599 -12.477991 15.526269 0.621897
33.941174 -12.735178 13.130644 0.678431
33.743176 -12.656784 10.607779 0.168917
33.743183 -12.656786 8.135199 0.163485
0.963955 0.321432 3.943890 0.489143
1.033440 0.293921 2.648724 0.486473
-4.508261 2.488036 1.448809 0.497307
-4.524214 2.494352 0.346088 0.472831
-13.147507 5.908557 0.000007 0.531807
-19.661936 8.487803 0.000005 0.546624
-23.290010 9.924259 -0.000015 0.339635
-25.606354 10.841365 -0.000010 0.337545
-27.216295 11.478786 -0.000007 0.337530
-28.402426 11.948408 -0.000004 0.339727
2.580631 -0.629679 12.375944 0.693416
2.586433 -0.632024 10.947882 0.601724
31.906406 -12.478062 15.292254 0.574166
31.906200 -12.477978 12.836203 0.597452
32.680874 -12.790966 10.500043 0.678431
32.680866 -12.790966 8.058408 0.678431
32.680859 -12.790964 5.629847 0.678431
1.429745 -0.164691 2.657531 0.495308
-4.565561 2.257569 1.448279 0.482414
1.920116 -0.362815 0.000012 0.543603
-13.210747 5.750451 0.000007 0.538125
-19.707005 8.375111 0.000005 0.532723
-23.324966 9.836863 -0.000015 0.334340
-25.634853 10.770117 -0.000010 0.338033
-27.240305 11.418762 -0.000006 0.340307
-28.423126 11.896653 -0.000004 0.338277
2.364761 -0.853495 12.347063 0.597177
2.393120 -0.865183 10.928253 0.601877
2.438755 -0.883992 9.530767 0.666056
2.437412 -0.883437 8.139088 0.575097
2.436966 -0.883255 6.761064 0.686183
2.437737 -0.883572 5.393517 0.686610
2.437759 -0.883582 4.033201 0.685939
2.437794 -0.883595 2.677250 0.656870
0.406246 -0.046252 1.358707 0.504540
-4.538332 1.991756 0.337482 0.453925
-13.275087 5.592789 0.000007 0.540825
-19.752871 8.262739 0.000006 0.534447
-23.360535 9.749711 -0.000015 0.338704
-25.663847 10.699068 -0.000010 0.336599
-27.264729 11.358905 -0.000007 0.341268
-28.444187 11.845042 -0.000004 0.337102
1.959877 -0.996114 12.267160 0.645899
1.963806 -0.997766 10.853655 0.681544
1.964252 -0.997952 9.459030 0.652811
1.963627 -0.997689 8.080716 0.591440
1.962814 -0.997348 6.715748 0.675517
1.961815 -0.996928 5.361062 0.616785
-4.995144 1.927507 3.643012 0.464317
-4.435949 1.692444 2.557205 0.490639
-4.396368 1.675806 1.442092 0.479774
-4.763916 1.830309 0.344666 0.472282
-13.340525 5.435583 0.000007 0.543175
-19.799509 8.150690 0.000006 0.543008
-23.458960 9.688980 0.010002 1.000000
-25.693336 10.628227 -0.000010 0.338811
-27.289576 11.299223 -0.000006 0.333913
-28.465609 11.793583 -0.000004 0.342580
1.457748 -1.092236 12.160789 0.655039
1.644123 -1.172115 10.804811 0.643534
1.678078 -1.186668 9.424515 0.681453
-0.251564 -0.359624 7.741262 0.760815
-0.253204 -0.358921 6.452384 0.669749
-0.254707 -0.358276 5.173302 0.575265
-4.640516 1.521485 3.666842 0.454063
-5.686491 1.969790 2.536596 0.454948
-5.200188 1.761360 1.454747 0.458900
-5.423004 1.856859 0.374981 0.496803
-13.407061 5.278831 0.000007 0.539620
-19.846931 8.038965 0.000005 0.532067
-23.495522 9.602753 0.009997 1.000000
-25.723320 10.557589 -0.000010 0.334020
-27.314835 11.239713 -0.000006 0.338048
-28.487389 11.742270 -0.000004 0.341268
1.216995 -1.296091 12.125725 0.667735
1.234814 -1.303875 10.734980 0.540978
1.413212 -1.381815 9.394384 0.625177
-0.684326 -0.465423 7.688581 0.612909
-0.684654 -0.465280 6.411689 0.706142
-0.685108 -0.465082 5.144393 0.621820
-5.023245 1.430205 3.651367 0.466194
-5.362238 1.578306 2.544009 0.465599
-5.032125 1.434084 1.450096 0.477531
-3.639885 0.825830 0.274469 0.470222
-13.474686 5.122549 0.000007 0.529259
-19.895130 7.927574 0.000005 0.527672
-23.470871 9.489777 -0.000015 0.338674
-25.753799 10.487164 -0.000009 0.342733
-27.340511 11.180382 -0.000006 0.338018
-28.509525 11.691113 -0.000004 0.327413
1.238712 -1.614677 12.162903 0.677943
1.233791 -1.612486 10.761677 0.616815
-0.410324 -0.880479 9.053984 0.588983
-0.967709 -0.632316 7.660110 0.569162
-0.941486 -0.643989 6.392953 0.550942
-4.880699 1.109861 4.777514 0.459449
-0.968487 -0.631968 3.874509 0.674296
-5.648315 1.451626 2.540562 0.482078
-4.738516 1.046557 1.443141 0.566110
-4.741150 1.047730 0.328370 0.565133
-13.543407 4.966748 0.000007 0.531319
-19.944113 7.816527 0.000005 0.532525
-23.508858 9.403654 -0.000014 0.336416
-25.784763 10.416954 -0.000010 0.341695
-27.366600 11.121232 -0.000006 0.339467
-28.532021 11.640111 -0.000004 0.343847
1.094612 -1.860340 12.155206 0.656779
1.097111 -1.861475 10.756793 0.764965
-0.772625 -1.013326 9.003762 0.568765
-1.161968 -0.836709 7.646254 0.725841
-1.182953 -0.827191 6.376255 0.316960
-4.999847 0.904230 4.775514 0.486061
-5.571846 1.163700 3.632071 0.499031
-5.067123 0.934748 2.552704 0.474952
-5.233984 1.010439 1.450294 0.488472
-1.166233 -0.834776 0.130268 0.571939
-13.613209 4.811426 0.000007 0.528939
-19.993864 7.705821 0.000005 0.551659
-23.547554 9.317847 0.000004 0.544228
-25.816221 10.346960 -0.000010 0.324544
-27.393099 11.062263 -0.000007 0.338155
-28.554871 11.589268 -0.000004 0.342107
1.010242 -2.133142 12.164437 0.665064
-0.409496 -1.477129 10.426375 0.454154
-0.868416 -1.265078 9.006984 0.480613
-1.294861 -1.068033 7.642615 0.642466
-1.295532 -1.067722 6.375998 0.599344
-5.237963 0.753937 4.762892 0.533913
-1.296333 -1.067353 3.868677 0.499336
-4.902895 0.599113 2.557435 0.460700
-5.448977 0.851438 1.452409 0.483146
-1.297997 -1.066586 0.131412 0.593118
-13.684097 4.656599 0.000007 0.549249
-20.044390 7.595468 0.000005 0.558190
-23.586740 9.232265 0.000005 0.568841
-25.848166 10.277189 -0.000009 0.337484
-27.420013 11.003485 -0.000006 0.338796
-28.578077 11.538586 -0.000004 0.339223
0.848106 -2.369932 12.152695 0.665064
0.956039 -2.420721 10.779800 0.615610
-0.973907 -1.512558 9.008620 0.530724
-1.397289 -1.313328 7.644223 0.727871
-1.397358 -1.313295 6.377322 0.675975
-1.397396 -1.313278 5.119933 0.710842
-4.919302 0.344006 3.678063 0.498970
-4.843470 0.308322 2.560327 0.515465
-5.607141 0.667678 1.453485 0.513436
-6.154032 0.925026 0.388974 0.489921
-13.756063 4.502270 0.000007 0.536202
-20.095686 7.485471 0.000006 0.538415
-23.626518 9.146955 0.000004 0.508522
-25.880596 10.207643 -0.000009 0.340948
-27.447334 10.944895 -0.000006 0.345068
-28.601635 11.488068 -0.000004 0.334585
0.717155 -2.620955 12.150036 0.632807
0.723499 -2.623995 10.753263 0.637583
-0.853390 -1.868475 9.056208 0.527962
-1.408714 -1.602409 7.661085 0.591669
-1.409416 -1.602072 6.390317 0.530724
-1.409946 -1.601818 5.129151 0.722560
-4.994492 0.115608 3.679540 0.489662
-5.291533 0.257928 2.554057 0.463554
-5.611349 0.411158 1.451746 0.492424
-6.074436 0.633031 0.379289 0.480964
-13.829100 4.348444 0.000007 0.536614
-20.147747 7.375834 0.000006 0.533639
-23.666897 9.061927 0.000005 0.542123
-25.913509 10.138324 -0.000010 0.330938
-27.475063 10.886496 -0.000006 0.333425
-28.625544 11.437714 -0.000004 0.334936
1.036777 -3.091591 12.273424 0.792828
1.035942 -3.091185 10.857934 0.635889
0.758476 -2.955854 9.406374 0.658137
-1.372650 -1.916435 7.686175 0.711833
-1.373669 -1.915937 6.409736 0.556863
-1.374695 -1.915438 5.142947 0.716457
-1.375778 -1.914909 3.883012 0.607797
-1.376961 -1.914333 2.627200 0.600229
-5.768131 0.227385 1.452747 0.462654
-6.211729 0.443742 0.381314 0.477760
-13.903215 4.195132 0.000007 0.543420
-20.200569 7.266558 0.000005 0.534997
-23.707867 8.977180 0.000005 0.550896
-25.946911 10.069238 -0.000009 0.340780
-27.503202 10.828291 -0.000006 0.339666
-28.649805 11.387527 -0.000003 0.342260
1.241558 -3.512909 12.366045 0.737804
1.225616 -3.504995 10.934151 0.658686
0.772343 -3.279987 9.434678 0.526864
-1.215069 -2.293428 7.731839 0.583093
-1.215054 -2.293438 6.445282 0.742535
-1.215027 -2.293449 5.168378 0.624765
-1.995483 -1.906027 3.855503 0.542611
-1.915207 -1.945877 2.619525 0.539590
-5.650560 -0.091631 1.448716 0.459648
-1.915184 -1.945889 0.140093 0.625025
-13.978401 4.042346 0.000007 0.545129
-20.254154 7.157658 0.000005 0.524773
-23.749424 8.892725 0.000005 0.546242
-25.980789 10.000385 -0.000009 0.336858
-27.531744 10.770286 -0.000006 0.336996
-28.674416 11.337513 -0.000003 0.334493
1.208229 -3.819752 12.392994 0.697215
1.218624 -3.825003 10.963748 0.601694
0.786610 -3.606777 9.463626 0.621088
-0.006332 -3.206232 7.952788 0.611444
-1.280075 -2.562819 6.452469 0.571038
-1.061813 -2.673071 5.193548 0.785687
-2.630680 -1.880579 3.827041 0.511620
-2.504307 -1.944414 2.610896 0.577722
-11.908358 2.805915 1.561511 0.487007
-12.103069 2.904271 0.694308 0.483207
-14.054647 3.890084 0.000007 0.530785
-20.308498 7.049133 0.000005 0.540505
-23.791573 8.808560 0.000005 0.533776
-26.015152 9.931772 -0.000009 0.334295
-27.560692 10.712481 -0.000006 0.339086
-28.699373 11.287670 -0.000004 0.328206
17.421669 -12.478006 16.996233 0.553948
17.421734 -12.478037 14.930335 0.547616
0.801266 -3.936274 9.493218 0.467277
0.009895 -3.529564 7.976707 0.637903
-1.280411 -2.866438 6.468291 0.599161
-1.062550 -2.978403 5.204861 0.673793
-3.316765 -1.819893 3.795656 0.530831
-11.704521 2.490828 2.443802 0.460563
-11.820925 2.550652 1.558339 0.466514
-3.077217 -1.943005 0.191113 0.672557
-14.131948 3.738357 0.000007 0.534737
-20.363598 6.940990 0.000005 0.525689
-23.834303 8.724691 0.000005 0.538582
-26.049988 9.863400 -0.000009 0.339849
-27.590040 10.654879 -0.000006 0.339773
-28.724680 11.238004 -0.000004 0.332067
16.519543 -12.478012 16.795610 0.656260
16.737938 -12.592188 14.810559 0.469062
0.816677 -4.268751 9.523547 0.463188
0.019249 -3.851864 7.999941 0.592584
-1.280750 -3.172241 6.484447 0.599023
-1.063293 -3.285925 5.216410 0.774365
-12.386898 2.633915 3.299361 0.494560
-3.634613 -1.941671 2.594423 0.627741
-11.824480 2.339890 1.556804 0.481987
-11.948671 2.404816 0.676345 0.507652
-14.210320 3.587177 0.000007 0.538613
-20.419456 6.833238 0.000006 0.557824
-23.877621 8.641123 0.000005 0.553750
-26.085304 9.795271 -0.000008 0.339345
-27.619793 10.597483 -0.000006 0.339345
-28.750334 11.188516 -0.000003 0.347494
15.641190 -12.478006 16.600986 0.554070
16.124733 -12.735111 14.707805 0.678431
0.831932 -4.603785 9.554438 0.576669
0.029057 -4.176888 8.023715 0.600839
-1.281075 -3.480280 6.500942 0.581827
-1.064072 -3.595661 5.228200 0.644221
-4.403515 -1.820047 3.748344 0.523964
-12.289928 2.373232 2.436204 0.470008
-13.580784 3.059593 1.587719 0.443565
-12.214558 2.333157 0.686258 0.461616
-14.289738 3.436550 0.000007 0.542702
-20.476063 6.725877 0.000006 0.523690
-23.921518 8.557859 0.000005 0.533120
-26.121090 9.727392 -0.000009 0.337621
-27.649944 10.540298 -0.000006 0.345037
-28.776331 11.139209 -0.000003 0.341207
14.785595 -12.478008 16.412111 0.449073
14.785698 -12.478064 14.426691 0.580591
0.847580 -4.941751 9.586007 0.441550
0.046158 -4.508425 8.049190 0.604959
-1.281399 -3.790615 6.517780 0.625467
-12.937593 2.511865 4.133532 0.465965
-12.291862 2.162720 3.314352 0.504707
-12.379204 2.209946 2.436180 0.479774
-13.580803 2.859648 1.586174 0.496773
-12.832691 2.455146 0.715853 0.457145
-14.370207 3.286476 0.000007 0.539254
-20.533413 6.618911 0.000005 0.538842
-23.966003 8.474905 0.000005 0.518410
-26.205742 9.685927 0.010000 1.000000
-27.680492 10.483322 -0.000006 0.343709
-28.802673 11.090083 -0.000003 0.340673
13.951836 -12.478014 16.228748 0.661875
14.256760 -12.645645 14.343717 0.322911
0.863609 -5.282700 9.618265 0.662440
0.056679 -4.839087 8.074039 0.534493
-1.281731 -4.103291 6.534966 0.601892
-1.197159 -4.149784 5.240211 0.386069
-12.970776 2.322817 3.281302 0.494377
-5.220751 -1.937798 2.571518 0.610971
-13.558208 2.645760 1.584174 0.483299
-13.994228 2.885464 0.776073 0.462150
-14.451723 3.136973 0.000007 0.538140
-20.591518 6.512354 0.000006 0.565332
-24.011059 8.392262 0.000005 0.517555
-26.242287 9.618891 0.010000 1.000000
-27.711441 10.426564 -0.000006 0.335225
-28.829353 11.041142 -0.000003 0.322835
13.138962 -12.478022 16.050661 0.776547
13.598885 -12.735064 14.228806 0.678431
0.856976 -5.613850 9.646419 0.661112
0.067665 -5.172718 8.099457 0.548577
-1.282043 -4.418390 6.552507 0.542840
-1.126579 -4.505278 5.259403 0.305379
-13.077303 2.173759 3.280276 0.486534
-13.399176 2.353647 2.420420 0.467994
-13.768187 2.559880 1.586497 0.456123
-12.121435 1.639542 0.665929 0.463249
-14.534275 2.988032 0.000007 0.540993
-20.650356 6.406196 0.000006 0.533669
-24.056694 8.309935 0.000005 0.537697
-26.279274 9.552094 0.009994 1.000000
-27.742783 10.370020 -0.000005 0.339361
-28.856379 10.992388 -0.000003 0.341741
12.346146 -12.478018 15.877645 0.702480
12.346283 -12.478096 13.965864 0.653559
0.877338 -5.962826 9.680819 0.640146
0.079105 -5.509367 8.125450 0.527184
-1.217178 -4.772976 6.579034 0.514427
-13.129189 1.993990 4.140378 0.489876
-12.628500 1.709559 3.310680 0.498543
-13.842255 2.399068 2.413738 0.489601
-14.037046 2.509726 1.589928 0.461250
-14.264168 2.638747 0.781736 0.477668
-14.617867 2.839678 0.000007 0.532296
-20.709938 6.300456 0.000006 0.538216
-24.102901 8.227929 0.000005 0.565408
-26.268961 9.458422 -0.000008 0.334585
-27.774519 10.313698 -0.000005 0.334630
-28.883743 10.943825 -0.000004 0.340566
11.572582 -12.478014 15.709500 0.418753
11.735535 -12.572094 13.861487 0.480034
0.898148 -6.315125 9.715963 0.606806
0.097385 -5.852802 8.153120 0.469337
-13.107122 1.770823 5.017946 0.483787
-13.300426 1.882427 4.132740 0.568017
-13.267199 1.863243 3.279700 0.487602
-13.531528 2.015854 2.421268 0.516793
-12.937878 1.673110 1.567516 0.564782
-12.932487 1.669997 0.701313 0.569802
-14.702496 2.691913 0.000007 0.540932
-20.770248 6.195132 0.000005 0.531243
-24.149679 8.146248 0.000005 0.561807
-26.307098 9.391834 -0.000008 0.337270
-27.806648 10.257599 -0.000005 0.338582
-28.911444 10.895454 -0.000003 0.333639
10.817516 -12.478022 15.546039 0.617044
11.255672 -12.735085 13.789621 0.678431
0.919415 -6.670837 9.751864 0.628107
0.109539 -6.195686 8.180265 0.605753
-1.169422 -5.445324 6.622466 0.578088
-11.537342 0.637500 4.309033 0.613184
-13.473909 1.773677 3.273136 0.475959
-13.035215 1.516298 2.432399 0.473396
-12.579058 1.248672 1.558947 0.567712
-14.011187 2.088895 0.757466 0.472007
-14.788151 2.544739 0.000007 0.535851
-20.831310 6.090239 0.000006 0.552224
-24.197029 8.064896 0.000004 0.527230
-26.345757 9.325547 0.000004 0.534920
-27.839165 10.201725 -0.000006 0.337026
-28.939486 10.847279 -0.000003 0.323919
10.080318 -12.478086 15.387100 0.370748
10.080307 -12.478081 13.542860 0.435798
0.941162 -7.030056 9.788544 0.606424
0.122158 -6.541830 8.208014 0.505928
-11.581623 0.435021 5.247082 0.593835
-11.922897 0.638462 4.281780 0.697353
-12.913889 1.229212 3.310432 0.500969
-13.172266 1.383238 2.431576 0.481865
-14.140549 1.960449 1.586870 0.495644
-13.473793 1.562983 0.721590 0.476417
-14.874834 2.398170 0.000007 0.540719
-20.893089 5.985770 0.000006 0.550301
-24.244942 7.983876 0.000004 0.550134
-26.384817 9.259497 0.000004 0.542519
-27.872074 10.146080 -0.000005 0.341054
-28.967861 10.799300 -0.000003 0.339101
9.360035 -12.478073 15.232444 0.583871
9.360031 -12.478071 13.409513 0.468910
-1.084484 -6.152647 9.390382 0.655909
-0.968575 -6.222841 8.044956 0.653040
-1.199596 -6.082930 6.657044 0.634089
-13.246107 1.212698 4.164530 0.490517
-13.667330 1.467799 3.272668 0.473610
-13.616564 1.437054 2.424891 0.485328
-12.816591 0.952573 1.559805 0.482353
-13.578264 1.413859 0.722216 0.471443
-14.962540 2.252207 0.000008 0.546883
-20.955601 5.881734 0.000006 0.525948
-24.293423 7.903191 0.000005 0.529381
-26.424339 9.193721 0.000004 0.552743
-27.905373 10.090666 -0.000005 0.341650
-28.996571 10.751520 -0.000003 0.342672
9.073925 -12.735056 15.204814 0.678431
2.654877 -8.786030 11.757957 0.648005
-1.294796 -6.356174 9.377012 0.693599
-1.224953 -6.399141 8.026121 0.597314
-1.200989 -6.413885 6.676744 0.580392
-13.453632 1.123993 4.153795 0.463691
-13.179541 0.955371 3.306238 0.469505
-13.479677 1.140017 2.429336 0.473991
-13.694845 1.272388 1.574799 0.473167
-12.558046 0.573026 0.657914 0.627329
-15.051258 2.106858 0.000007 0.530632
-21.018833 5.778136 0.000005 0.528649
-24.342464 7.822850 0.000005 0.530663
-26.464321 9.128223 0.000004 0.541207
-27.939054 10.035486 -0.000005 0.345830
-29.025614 10.703941 -0.000003 0.330968
7.968155 -12.478067 14.935486 0.672389
2.460491 -9.036497 11.750781 0.694011
-1.295597 -6.689428 9.408840 0.640040
-1.225761 -6.733068 8.052120 0.649058
-1.202473 -6.747622 6.696830 0.540795
-12.193516 0.120345 4.284975 0.621103
-13.551966 0.969199 3.290330 0.522576
-12.668953 0.417432 2.446842 0.499290
-13.720200 1.074324 1.573443 0.467170
-12.569357 0.355197 0.652747 0.562051
-15.140991 1.962133 0.000007 0.537835
-21.082794 5.674985 0.000006 0.535225
-24.392065 7.742849 0.000004 0.552514
-26.504757 9.063005 0.000004 0.532708
-27.973122 9.980541 -0.000005 0.339651
-29.054985 10.656566 -0.000003 0.349584
2.376865 -9.356712 13.333709 0.521233
1.998550 -9.116627 11.675577 0.540581
2.057003 -9.153723 10.163985 0.746410
0.182819 -7.964331 8.326253 0.652567
-1.040691 -7.187866 6.739569 0.625528
-12.187037 -0.114180 4.295671 0.709804
-12.559160 0.121977 3.353781 0.651606
-13.247913 0.559073 2.437590 0.513756
-13.800863 0.909986 1.573127 0.464546
-12.639614 0.173036 0.650899 0.519417
-15.231730 1.818042 0.000007 0.529122
-21.147467 5.572283 0.000006 0.529519
-24.442223 7.663199 0.000005 0.520058
-26.545647 8.998072 0.000004 0.544640
-28.007570 9.925838 -0.000005 0.333837
-29.084690 10.609399 -0.000003 0.347326
1.973763 -9.472725 13.264302 0.571466
1.725819 -9.312937 11.648796 0.630411
1.744671 -9.325087 10.132908 0.692470
0.197552 -8.328037 8.357162 0.521004
-1.012840 -7.547991 6.764589 0.535531
-12.179918 -0.351299 4.306638 0.545357
-12.559717 -0.106536 3.359807 0.607141
-12.559725 -0.106531 2.452945 0.585138
-13.782091 0.681231 1.570852 0.510857
-10.360939 -1.523552 0.511685 0.567880
-15.323477 1.674586 0.000007 0.554177
-21.212860 5.470035 0.000005 0.545769
-24.492939 7.583903 0.000005 0.546975
-26.586990 8.933427 0.000004 0.557610
-28.042404 9.871376 -0.000005 0.335271
-29.114723 10.562439 -0.000003 0.328374
1.576588 -9.588007 13.196590 0.517555
1.240250 -9.367914 11.567309 0.681712
1.458427 -9.510689 10.107619 0.607309
0.212749 -8.695536 8.388742 0.586969
-0.983883 -7.912481 6.790219 0.639735
-12.172621 -0.590778 4.317836 0.471534
-12.589275 -0.318128 3.364251 0.513924
-12.560286 -0.337098 2.454993 0.625299
-14.002239 0.606490 1.573207 0.437888
-10.746002 -1.524330 0.527530 0.632242
-15.416218 1.531772 0.000007 0.545144
-21.278961 5.368245 0.000006 0.545388
-24.544203 7.504959 0.000005 0.501808
-26.628780 8.869068 0.000004 0.537713
-28.077612 9.817158 -0.000005 0.334386
-29.145081 10.515690 -0.000003 0.336233
1.401310 -9.846212 13.195539 0.525979
1.250320 -9.745895 11.614065 0.754345
1.271732 -9.760122 10.104242 0.542412
0.228397 -9.066931 8.421007 0.552697
-0.957100 -8.279287 6.816020 0.459388
-12.164318 -0.833227 4.329346 0.466468
-12.586857 -0.552495 3.370688 0.302815
-12.560856 -0.569771 2.457080 0.712840
-12.560869 -0.569761 1.542920 0.763699
-11.123446 -1.524784 0.542998 0.517540
-15.509960 1.389611 0.000008 0.542596
-21.345776 5.266918 0.000006 0.532479
-24.596022 7.426377 0.000005 0.518578
-26.671024 8.805006 0.000004 0.530663
-28.113199 9.763186 -0.000005 0.339529
-29.175766 10.469152 -0.000003 0.340581
1.288792 -10.146687 13.213989 0.525780
1.017788 -9.963894 11.598522 0.553185
1.105106 -10.022789 10.105637 0.676951
0.244507 -9.442308 8.453968 0.540200
-11.259272 -1.682911 5.409009 0.968627
-12.154667 -1.078961 4.341213 0.580362
-12.594627 -0.782205 3.376648 0.519631
-12.561428 -0.804596 2.459211 0.765850
-12.561436 -0.804592 1.540790 0.631251
-11.492630 -1.525511 0.558049 0.742718
-15.604689 1.248109 0.000008 0.537911
-21.413296 5.166064 0.000006 0.530632
-24.648384 7.348159 0.000005 0.535836
-26.713711 8.741241 0.000004 0.543969
-28.149164 9.709466 -0.000004 0.328725
-29.206776 10.422833 -0.000002 0.341848
1.176579 -10.448643 13.233256 0.572015
0.900364 -10.259516 11.613436 0.523400
1.002686 -10.329576 10.121598 0.641688
0.261078 -9.821791 8.487642 0.518273
-11.599106 -1.700951 5.377840 0.612802
-12.146322 -1.326263 4.353177 0.634882
-12.562014 -1.041633 3.385137 0.575280
-12.562006 -1.041637 2.461383 0.585016
-12.562014 -1.041634 1.538617 0.764858
-11.854242 -1.526255 0.572722 0.563058
-15.700401 1.107266 0.000007 0.536843
-21.481514 5.065680 0.000006 0.527001
-24.701290 7.270305 0.000005 0.546517
-26.756845 8.677774 0.000004 0.545190
-28.223717 9.682161 0.009998 1.000000
-29.238108 10.376730 -0.000003 0.334676
1.054600 -10.745134 13.250278 0.618280
0.888416 -10.629635 11.656705 0.523018
0.932087 -10.659985 10.145164 0.728084
0.278114 -10.205463 8.522040 0.571389
-0.864120 -9.411589 6.898089 0.560433
-12.137037 -1.576706 4.365464 0.550454
-12.562593 -1.280937 3.391789 0.732021
-12.562595 -1.280935 2.463598 0.655451
-12.562593 -1.280937 1.536401 0.639841
-12.411552 -1.385914 0.599173 0.580667
-15.797094 0.967100 0.000007 0.542580
-21.550430 4.965772 0.000005 0.535897
-24.754740 7.192826 0.000004 0.536599
-26.800419 8.614611 0.000004 0.531106
-28.260241 9.629213 0.009998 1.000000
-29.269760 10.330848 -0.000002 0.344793
1.442375 -11.402399 13.424275 0.570489
0.732662 -10.901754 11.662860 0.749310
0.977280 -11.074310 10.195143 0.642390
0.295609 -10.593445 8.557176 0.512383
-10.328104 -3.099239 5.589717 0.815366
-12.129192 -1.828711 4.377844 0.480461
-12.563177 -1.522568 3.398575 0.701610
-12.563185 -1.522562 2.465858 0.629694
-12.563185 -1.522562 1.534142 0.743847
-12.589741 -1.503830 0.603022 0.465568
-15.894762 0.827607 0.000007 0.541588
-21.620045 4.866351 0.000005 0.534249
-24.808731 7.115721 0.000005 0.543343
-26.844433 8.551752 0.000004 0.545449
-28.297134 9.576519 0.009997 1.000000
-29.301731 10.285185 -0.000003 0.341451
2.397831 -12.478033 13.775440 0.599252
1.135174 -11.574059 11.817836 0.668788
1.170235 -11.599159 10.279084 0.674891
1.167332 -11.597082 8.748820 0.573587
-0.803978 -10.185760 6.955082 0.584619
-12.062109 -2.125731 4.396435 0.575799
-12.563780 -1.766569 3.405495 0.663050
-12.563818 -1.766542 2.468163 0.720058
-12.563826 -1.766537 1.531837 0.626001
-12.563850 -1.766518 0.594509 0.552834
-15.993412 0.688807 0.000007 0.545434
-21.690355 4.767419 0.000006 0.514641
-24.863258 7.038994 0.000005 0.538231
-26.888885 8.489202 0.000004 0.506920
-28.296741 9.497128 -0.000005 0.339940
-29.334024 10.239750 -0.000002 0.322362
1.839504 -12.478050 13.662011 0.599954
1.182640 -12.000809 11.880068 0.705318
2.085648 -12.656883 10.526759 0.160784
2.085648 -12.656885 8.951263 0.160784
-0.770153 -10.582024 6.984904 0.504097
-11.966663 -2.447279 4.418206 0.515297
-12.524517 -2.041975 3.414973 0.711452
-12.524473 -2.042007 2.471322 0.676890
-12.524458 -2.042019 1.528678 0.551690
-12.520926 -2.044584 0.584808 0.614359
-16.093014 0.550691 0.000007 0.535027
-21.761353 4.668980 0.000006 0.557885
-24.918320 6.962651 0.000005 0.553277
-26.933771 8.426963 0.000004 0.552590
-28.334560 9.444696 -0.000004 0.336583
-29.366631 10.194539 -0.000002 0.340902
1.632339 -12.729132 13.657282 0.302327
1.291733 -12.478016 11.959952 0.441657
1.716221 -12.790974 10.486923 0.678431
1.716217 -12.790972 8.918789 0.678431
1.716213 -12.790968 7.365808 0.678431
-11.849998 -2.789093 4.442478 0.609522
-12.435955 -2.357086 3.427627 0.714244
-12.435802 -2.357201 2.475539 0.783139
-12.435741 -2.357246 1.524459 0.684504
-12.434107 -2.358450 0.572259 0.566995
-16.193592 0.413281 0.000007 0.541085
-21.833035 4.571039 0.000006 0.529091
-24.973911 6.886694 0.000005 0.517296
-26.979095 8.365042 0.000005 0.530602
-28.372742 9.392528 -0.000004 0.333318
-29.399551 10.149557 -0.000002 0.327245
1.097923 -12.735088 13.550702 0.678431
0.754292 -12.478016 11.866764 0.567407
-14.057800 -1.397154 6.946594 0.548302
-13.988104 -1.449293 6.045519 0.544488
-13.988104 -1.449293 5.137468 0.763607
-13.988100 -1.449297 4.236232 0.634623
-13.988102 -1.449295 3.339820 0.612497
-13.988106 -1.449293 2.446287 0.780224
-13.988104 -1.449295 1.553712 0.533120
-13.988100 -1.449297 0.660179 0.544427
-16.295122 0.276577 0.000007 0.547021
-21.905396 4.473598 0.000005 0.552316
-25.030033 6.811126 0.000005 0.554635
-27.024843 8.303435 0.000004 0.556374
-28.411316 9.340651 0.000004 0.552361
-29.432785 10.104806 -0.000003 0.343328
0.226814 -12.478043 13.337688 0.595773
0.226780 -12.478016 11.775775 0.638392
-14.303013 -1.449299 6.916671 0.720790
-14.303011 -1.449301 6.008214 0.547814
-14.303015 -1.449299 5.108537 0.724041
-14.303011 -1.449303 4.215611 0.679255
-14.303015 -1.449299 3.327465 0.633249
-14.303013 -1.449301 2.442173 0.624949
-14.303011 -1.449301 1.557828 0.828626
-14.303013 -1.449301 0.672534 0.625940
-16.397600 0.140578 0.000007 0.531151
-21.978443 4.376670 0.000006 0.538888
-25.086681 6.735951 0.000005 0.542565
-27.071026 8.242153 0.000004 0.553765
-28.450224 9.289021 0.000004 0.510109
-29.466333 10.060289 -0.000002 0.335454
-0.291046 -12.478064 13.234641 0.516304
-14.720901 -1.365576 7.753333 0.546670
-14.612177 -1.449306 6.871982 0.625742
-16.276699 -0.167452 5.660143 0.324239
-14.612175 -1.449306 5.080283 0.682780
-14.612177 -1.449305 4.195472 0.725994
-14.612175 -1.449306 3.315400 0.765072
-14.612175 -1.449306 2.438154 0.654139
-14.612175 -1.449306 1.561847 0.653559
-14.612173 -1.449308 0.684600 0.655100
-16.501024 0.005303 0.000007 0.531258
-22.052160 4.280254 0.000006 0.538933
-25.143852 6.661178 0.000005 0.535332
-27.117634 8.181192 0.000004 0.546166
-28.489487 9.237663 0.000004 0.550927
-29.500191 10.016008 -0.000002 0.347082
-17.011267 0.187854 7.980748 0.838026
-17.011663 0.188165 7.156717 0.579110
-17.012506 0.188822 6.344188 0.604471
-17.014051 0.190029 5.541217 0.548501
-17.014048 0.190026 4.746363 0.604776
-17.014042 0.190022 3.957471 0.644907
-17.014837 0.190642 3.172754 0.726146
-17.015911 0.191482 2.390616 0.643122
-17.017008 0.192339 1.609406 0.638086
-17.018076 0.193172 0.827448 0.546365
-17.018936 0.193846 0.043038 0.681315
-22.126547 4.184349 0.000005 0.553170
-25.201542 6.586799 0.000005 0.518837
-27.164667 8.120560 0.000005 0.514885
-28.529110 9.186582 0.000004 0.556771
-29.534355 9.971964 -0.000002 0.337316
-17.376465 0.264612 7.896968 0.646220
-17.376554 0.264683 7.084564 0.579736
-17.376825 0.264896 6.283532 0.770001
-17.378059 0.265875 5.491826 0.672816
-17.378054 0.265868 4.708058 0.455482
-17.378054 0.265868 3.930169 0.511025
-17.378050 0.265867 3.156446 0.700984
-17.378050 0.265866 2.385207 0.582650
-17.378048 0.265865 1.614793 0.677913
-17.378357 0.266110 0.843573 0.706249
-17.378506 0.266228 0.069878 0.563302
-22.201603 4.088967 0.000005 0.547112
-25.259748 6.512826 0.000004 0.557473
-27.212120 8.060255 0.000004 0.540230
-28.569088 9.135777 0.000004 0.491432
-29.568825 9.928158 -0.000002 0.343145
-17.605289 0.237700 7.856379 0.701656
-17.605394 0.237784 7.049562 0.564996
-17.605663 0.238000 6.254044 0.556649
-17.605621 0.237967 5.468029 0.465278
-17.605625 0.237971 4.689600 0.621668
-17.605633 0.237976 3.917012 0.724880
-17.605637 0.237980 3.148562 0.697337
-17.605646 0.237987 2.382580 0.490440
-17.605993 0.238266 1.617427 0.654932
-17.606569 0.238730 0.851496 0.594125
-17.606781 0.238900 0.083108 0.772381
-22.277321 3.994112 0.000005 0.540932
-25.318478 6.439265 0.000005 0.513680
-27.259993 8.000283 0.000004 0.543206
-28.609421 9.085252 0.000004 0.508827
-29.603603 9.884595 -0.000002 0.322530
-17.810640 0.194561 7.823204 0.580194
-17.810831 0.194716 7.020934 0.557092
-17.811392 0.195174 6.229856 0.544030
-17.811882 0.195574 5.448209 0.608362
-17.811886 0.195577 4.674229 0.525399
-17.811888 0.195579 3.906057 0.572396
-17.812201 0.195834 3.141979 0.625238
-17.812775 0.196301 2.380375 0.485084
-17.813341 0.196763 1.619636 0.642451
-17.813911 0.197229 0.858129 0.651865
-17.814318 0.197560 0.094199 0.802029
-22.353703 3.899792 0.000005 0.535149
-25.377714 6.366117 0.000005 0.535790
-27.308285 7.940652 0.000005 0.524376
-28.650106 9.035013 0.000004 0.557183
-29.638683 9.841276 -0.000001 0.325902
-18.015259 0.153199 7.790174 0.636271
-18.015787 0.153635 6.992359 0.603800
-18.016260 0.154026 6.205803 0.597055
-18.016703 0.154392 5.428608 0.558129
-18.017042 0.154673 4.658978 0.554925
-18.017611 0.155143 3.895127 0.596780
-18.018166 0.155603 3.135415 0.765438
-18.018730 0.156070 2.378190 0.669749
-18.019281 0.156526 1.621823 0.573419
-21.794632 3.279769 1.105367 0.490654
-18.020494 0.157529 0.105179 0.767086
-22.430742 3.806005 0.000005 0.528695
-25.437458 6.293377 0.000005 0.548974
-27.356991 7.881352 0.000004 0.495781
-28.691139 8.985056 0.000004 0.544762
-29.674063 9.798203 -0.000002 0.337926
-18.176340 0.077702 7.771281 0.728939
-18.176826 0.078111 6.976079 0.738170
-18.177176 0.078403 6.192116 0.683009
-18.177567 0.078731 5.417459 0.653712
-18.178026 0.079118 4.650313 0.704677
-18.178476 0.079494 3.888963 0.440238
-18.178932 0.079876 3.131728 0.528588
-18.179392 0.080263 2.376963 0.698756
-18.179832 0.080632 1.623046 0.897246
-21.794371 3.113590 1.100132 0.499550
-18.180342 0.081060 0.111236 0.472618
-22.508432 3.712760 0.000005 0.516060
-25.497711 6.221062 0.000005 0.567926
-27.406109 7.822399 0.000004 0.536049
-28.732521 8.935390 0.000004 0.569680
-29.709743 9.755377 -0.000001 0.350286
-18.316147 -0.014533 7.759445 0.664118
-18.316637 -0.014115 6.965872 0.538720
-18.316767 -0.014006 6.183569 0.806378
-18.317034 -0.013777 5.410515 0.692592
-18.317486 -0.013393 4.644928 0.657008
-18.317934 -0.013011 3.885125 0.635782
-18.318382 -0.012630 3.129429 0.567712
-18.318600 -0.012445 2.376202 0.543725
-21.485165 2.682512 1.691840 0.487373
-18.318598 -0.012446 0.870585 0.652308
-18.319099 -0.012019 0.115000 0.537560
-22.586773 3.620056 0.000006 0.558816
-25.558468 6.149166 0.000005 0.540307
-27.455643 7.763789 0.000005 0.546105
-28.774246 8.886010 0.000004 0.464622
-29.776121 9.738672 0.009997 1.000000
-18.455772 -0.106061 7.747809 0.528511
-18.456051 -0.105822 6.955898 0.540917
-18.456181 -0.105710 6.175167 0.590845
-18.456318 -0.105591 5.403690 0.776837
-18.456772 -0.105199 4.639635 0.709789
-18.457165 -0.104861 3.881359 0.599649
-18.457165 -0.104858 3.127201 0.389273
-18.457165 -0.104859 2.375465 0.672892
-21.554609 2.568784 1.691492 0.497475
-22.434744 3.328496 1.130933 0.489921
-21.276077 2.328360 0.423977 0.420279
-22.670435 3.531939 0.000716 0.513497
-25.619720 6.077695 0.000004 0.535210
-27.505581 7.705525 0.000004 0.510826
-28.816320 8.836926 0.000004 0.574716
-29.812216 9.696560 0.009997 1.000000
-18.594967 -0.197113 7.736460 0.462837
-18.595041 -0.197047 6.946171 0.650843
-18.595083 -0.197009 6.166992 0.596674
-18.595190 -0.196917 5.397032 0.504707
-18.595333 -0.196792 4.634519 0.725124
-18.595335 -0.196790 3.877753 0.580392
-18.595337 -0.196788 3.125041 0.607477
-18.595331 -0.196792 2.374746 0.600641
-22.283863 3.032273 1.705474 0.501472
-18.595335 -0.196789 0.874959 0.490379
-21.390358 2.250067 0.426837 0.469001
-22.725067 3.418517 -0.003101 0.512032
-25.681477 6.006659 0.000004 0.560967
-27.555923 7.647614 0.000005 0.565972
-28.858732 8.788136 0.000004 0.541100
-29.848602 9.654701 0.009996 1.000000
-18.702265 -0.315652 7.735934 0.640146
-18.702374 -0.315556 6.945708 0.740673
-18.716799 -0.302748 6.163102 0.565255
-18.702545 -0.315402 5.396709 0.611276
-18.702854 -0.315128 4.634242 0.533516
-18.702860 -0.315122 3.877556 0.535088
-18.702858 -0.315125 3.124923 0.790906
-18.702858 -0.315125 2.374707 0.635691
-22.315655 2.892467 1.704351 0.534951
-22.733665 3.263594 1.139882 0.483177
-21.750206 2.390439 0.456581 0.465446
-22.825649 3.345263 0.000006 0.545449
-25.743725 5.936051 0.000005 0.530953
-27.606667 7.590049 0.000004 0.500343
-28.901485 8.739643 0.000004 0.505760
-29.885281 9.613096 0.009996 1.000000
-18.790701 -0.451141 7.742042 0.544884
-18.790998 -0.450873 6.950918 0.475944
-18.697260 -0.535275 6.193953 0.517647
-18.791279 -0.450622 5.400267 0.601923
-18.791683 -0.450256 4.636986 0.504143
-18.792089 -0.449891 3.879468 0.586114
-18.792175 -0.449814 3.126062 0.774258
-18.792175 -0.449814 2.375086 0.821546
-22.396172 2.795239 1.704273 0.544839
-22.707472 3.075537 1.132765 0.494347
-21.871883 2.323169 0.460343 0.487953
-22.906544 3.254782 0.000005 0.501732
-25.806465 5.865882 0.000005 0.546441
-27.657814 7.532845 0.000004 0.551461
-28.944574 8.691449 0.000004 0.497124
-29.922255 9.571756 0.009999 1.000000
-18.879728 -0.586566 7.748307 0.897353
-18.880194 -0.586141 6.956271 0.439460
-18.786724 -0.671491 6.198543 0.517647
-18.880625 -0.585748 5.403913 0.555917
-18.881052 -0.585357 4.639809 0.519219
-18.881477 -0.584969 3.881478 0.769909
-22.898338 3.082931 2.860045 0.524926
-18.882231 -0.584280 2.375473 0.714107
-22.645378 2.851946 1.707918 0.500282
-22.827496 3.018242 1.135242 0.515892
-21.949585 2.216600 0.459193 0.478660
-22.988073 3.164870 0.000006 0.540871
-25.869694 5.796151 0.000005 0.556573
-27.709362 7.475999 0.000004 0.543923
-28.988001 8.643558 0.000004 0.508827
-29.930042 9.503761 0.000003 0.333745
-18.969007 -0.722240 7.754849 0.669795
-18.969475 -0.721809 6.961911 0.594202
-18.988960 -0.703764 6.175430 0.576974
-18.970219 -0.721120 5.407722 0.802625
-18.970655 -0.720715 4.642761 0.474098
-18.971094 -0.720309 3.883580 0.863371
-22.886272 2.905188 2.866391 0.482689
-18.971958 -0.719508 2.375890 0.655161
-22.621878 2.660355 1.705512 0.533516
-23.305212 3.293130 1.161658 0.482383
-22.544510 2.588711 0.515753 0.512993
-23.070221 3.075526 0.000005 0.539895
-25.933407 5.726864 0.000005 0.553368
-27.761299 7.419513 0.000004 0.511467
-29.031759 8.595971 0.000004 0.507103
-29.967773 9.462730 0.000003 0.332219
-19.032959 -0.882214 7.770463 0.591379
-19.033361 -0.881837 6.975392 0.524926
-19.033865 -0.881363 6.191494 0.611811
-19.034302 -0.880952 5.416939 0.696315
-19.034475 -0.880792 4.649952 0.760937
-19.034979 -0.880319 3.888697 0.556802
-22.819262 2.673362 2.876566 0.459709
-22.351137 2.233765 2.302489 0.501854
-22.228149 2.118270 1.694751 0.490150
-22.798195 2.653578 1.122014 0.461540
-22.134506 2.030334 0.459942 0.508263
-23.153000 2.986763 0.000005 0.560098
-25.997599 5.658021 0.000005 0.529839
-27.813637 7.363394 0.000005 0.539376
-29.075850 8.548691 0.000004 0.523278
-30.005791 9.421965 0.000004 0.330663
-19.071882 -1.067227 7.795221 0.532647
-19.072037 -1.067080 6.996812 0.726223
-19.072489 -1.066650 6.209553 0.340383
-19.072906 -1.066254 5.431664 0.964721
-19.072905 -1.066255 4.661399 0.531472
-22.640316 2.330947 3.492988 0.491676
-22.919046 2.596376 2.875603 0.442741
-19.073677 -1.065519 2.378552 0.678218
-22.095379 1.812008 1.689729 0.475349
-23.325916 2.983834 1.151998 0.520119
-22.831545 2.513050 0.528664 0.505577
-23.236393 2.898582 0.000006 0.560281
-26.062273 5.589631 0.000005 0.518853
-27.866356 7.307638 0.000004 0.533318
-29.120266 8.501719 0.000004 0.542092
-30.044088 9.381464 0.000003 0.497185
-19.111109 -1.253883 7.820490 0.534325
-19.111156 -1.253838 7.018632 0.614588
-19.111382 -1.253620 6.227992 0.769268
-19.111320 -1.253679 5.446795 0.538048
-22.502285 2.020936 4.130832 0.527123
-19.111320 -1.253679 3.905277 0.626398
-23.095438 2.593739 2.869439 0.482124
-23.207066 2.701534 2.287066 0.484657
-23.335642 2.825701 1.715858 0.470970
-22.800026 2.308461 1.110386 0.517952
-23.043476 2.543560 0.542937 0.510369
-23.320396 2.810979 0.000005 0.519524
-26.127424 5.521694 0.000005 0.529458
-27.919470 7.252254 0.000004 0.506767
-29.165012 8.455060 0.000004 0.579217
-30.082670 9.341231 0.000003 0.512764
-19.150253 -1.442600 7.846416 0.588769
-19.150261 -1.442595 7.040998 0.851469
-19.150330 -1.442528 6.246875 0.830716
-19.150894 -1.441973 5.462059 0.845991
-22.983624 2.311312 4.067845 0.503502
-22.795338 2.126931 3.495465 0.474113
-23.308708 2.629661 2.860697 0.489372
-23.132603 2.457203 2.290728 0.506813
-23.734985 3.047102 1.723069 0.541634
-19.150896 -1.441971 0.853414 0.658381
-23.002033 2.329340 0.528255 0.509926
-23.405010 2.723966 0.000005 0.524590
-26.193045 5.454210 0.000004 0.559564
-27.972967 7.197240 0.000004 0.518898
-29.210081 8.408711 0.000004 0.550698
-30.121532 9.301270 0.000004 0.597757
-19.095844 -1.726273 7.906014 0.639582
-19.095999 -1.726116 7.092341 0.512016
-19.096380 -1.725737 6.290048 0.572259
-19.095490 -1.726624 5.497559 0.792401
-23.009581 2.160238 4.077922 0.497475
-22.491135 1.645400 3.540949 0.487327
-23.281811 2.430573 2.868505 0.526177
-23.273991 2.422810 2.289475 0.485832
-23.735039 2.880651 1.721157 0.494545
-19.097338 -1.724787 0.841784 0.559686
-23.061026 2.211326 0.524905 0.512886
-23.490234 2.637549 0.000006 0.586450
-26.259140 5.387191 0.000005 0.545419
-28.026850 7.142604 0.000004 0.531792
-29.255476 8.362682 0.000004 0.514214
-30.160671 9.261580 0.000003 0.507393
nan nan nan 0.000000
-63.047188 42.299385 10.343579 0.931228
-55.513962 34.713387 7.083930 0.721996
-55.737011 34.937996 6.191524 0.678431
-55.737007 34.937996 5.250701 0.678431
-55.314217 34.512245 4.267740 0.706950
-55.513966 34.713390 3.372624 0.718044
-56.226067 35.430481 2.473752 0.536263
-56.226067 35.430481 1.526248 0.473808
-56.226067 35.430481 0.577728 0.325841
-53.013123 32.195023 0.000029 0.546288
-48.076462 27.223780 -0.000017 0.336110
-45.326767 24.454819 -0.000012 0.335302
-43.571232 22.686989 0.000015 0.530282
-42.351162 21.458370 0.000013 0.570230
-41.452274 20.553185 0.000012 0.572335
nan nan nan 0.000000
-63.044319 42.681927 10.401974 0.926345
-55.511894 34.990067 7.119513 0.715358
-55.734924 35.217812 6.220861 0.678431
-55.734928 35.217819 5.273454 0.678431
-55.310791 34.784706 4.283450 0.666667
-55.511902 34.990067 3.382232 0.725017
-56.223919 35.717163 2.477068 0.520912
-56.223919 35.717163 1.522932 0.510689
-56.223923 35.717163 0.567774 0.451987
-52.891872 32.314587 0.000029 0.540597
-47.990044 27.309004 -0.000017 0.336950
-45.259743 24.520912 -0.000012 0.337804
-43.516594 22.740866 0.000015 0.523720
-42.305134 21.503763 0.000013 0.543908
-41.412582 20.592321 0.000012 0.672084
nan nan nan 0.000000
-63.041428 43.069893 10.461610 0.904997
-55.509804 35.270664 7.155850 0.719203
-55.732811 35.501595 6.250820 0.678431
-55.732811 35.501595 5.296689 0.678431
-55.308784 35.062500 4.299665 0.708843
-55.509804 35.270664 3.392042 0.726390
-55.975239 35.752636 2.474647 0.580392
-55.975239 35.752636 1.525353 0.464118
-55.975235 35.752632 0.575042 0.339986
-52.769798 32.433308 0.000029 0.542550
-47.903030 27.393618 -0.000017 0.340398
-45.192261 24.586536 -0.000012 0.345907
-43.461578 22.794363 0.000015 0.539940
-42.258785 21.548832 0.000013 0.479561
-41.372620 20.631182 0.000012 0.537911
nan nan nan 0.000000
-63.038483 43.463402 10.522512 0.911498
-55.507675 35.555275 7.192960 0.696452
-55.693596 35.750519 6.273445 0.668788
-55.693604 35.750519 5.314235 0.669062
-55.306648 35.344177 4.316213 0.697627
-55.507683 35.555286 3.402062 0.728206
-55.693604 35.750526 2.471432 0.574563
-55.693604 35.750526 1.528568 0.336187
-55.693604 35.750523 0.584693 0.407172
-52.646889 32.551163 0.000029 0.547555
-47.815430 27.477627 -0.000017 0.337545
-45.124321 24.651686 -0.000012 0.336721
-43.406197 22.847475 0.000015 0.539376
-42.212128 21.593578 0.000013 0.521492
-41.332390 20.669762 0.000012 0.569436
nan nan nan 0.000000
nan nan nan 0.000000
-55.505524 35.844048 7.230868 0.733883
-55.415741 35.748440 6.244902 0.704417
-55.415745 35.748444 5.292099 0.666667
-55.304520 35.630001 4.333122 0.673609
-55.505524 35.844048 3.412296 0.736080
-55.505524 35.844048 2.470430 0.708446
-55.505524 35.844048 1.529571 0.709804
-55.505524 35.844044 0.587703 0.729229
-52.523167 32.668159 0.000029 0.537774
-47.727249 27.561024 -0.000018 0.338079
-45.055931 24.716362 -0.000013 0.343053
-43.350441 22.900196 0.000016 0.533318
-42.165154 21.637997 0.000013 0.501396
-41.291889 20.708063 0.000012 0.536965
nan nan nan 0.000000
nan nan nan 0.000000
-55.503330 36.137062 7.269589 0.698482
-55.302345 35.920013 6.252044 0.655650
-55.302345 35.920021 5.297637 0.655161
-55.503326 36.137062 4.374647 0.702739
-55.503330 36.137062 3.422750 0.709804
-55.503338 36.137070 2.473912 0.733333
-55.503334 36.137070 1.526088 0.709804
-55.503334 36.137062 0.577249 0.721492
-52.398628 32.784294 0.000029 0.545617
-47.638481 27.643801 -0.000018 0.336049
-44.987091 24.780558 -0.000013 0.338674
-43.294319 22.952532 0.000015 0.547234
-42.117874 21.682085 0.000014 0.527916
-41.251122 20.746078 0.000012 0.532448
nan nan nan 0.000000
nan nan nan 0.000000
-55.501110 36.434471 7.309150 0.682033
-55.501106 36.434471 6.328174 0.710002
-55.501106 36.434464 5.356679 0.718379
-55.501106 36.434467 4.392473 0.758663
-55.501106 36.434471 3.433431 0.707164
-55.501114 36.434479 2.477469 0.718944
-55.501114 36.434479 1.522531 0.709804
-55.501114 36.434475 0.566567 0.720333
-52.273285 32.899551 0.000029 0.521141
-47.549141 27.725952 -0.000017 0.335836
-44.917805 24.844273 -0.000013 0.338613
-43.237835 23.004471 0.000015 0.492164
-42.070290 21.725845 0.000013 0.545373
-41.210091 20.783810 0.000012 0.568963
nan nan nan 0.000000
nan nan nan 0.000000
-55.498856 36.736389 7.349572 0.711376
-55.498852 36.736389 6.361127 0.717006
-55.498852 36.736389 5.382236 0.683528
-55.498856 36.736389 4.410690 0.697551
-55.498852 36.736389 3.444345 0.770748
-55.498856 36.736397 2.481105 0.697612
-55.498856 36.736397 1.518895 0.678431
-55.498856 36.736397 0.555654 0.738338
-52.147133 33.013931 0.000030 0.535866
-47.459229 27.807480 -0.000017 0.335271
-44.848072 24.907501 -0.000013 0.337057
-43.180992 23.056019 0.000015 0.561074
-42.022396 21.769268 0.000013 0.557961
-41.168797 20.821249 0.000013 0.529229
nan nan nan 0.000000
nan nan nan 0.000000
-55.496567 37.042965 7.390880 0.710140
-55.496559 37.042953 6.394801 0.727916
-55.496559 37.042957 5.408352 0.720439
-55.496559 37.042953 4.429303 0.709804
-55.496567 37.042961 3.455498 0.706630
-55.496571 37.042969 2.484820 0.725444
-55.496571 37.042969 1.515181 0.710170
