# This PCD file was generated using the MATLABÂ® pcwrite function
# from Computer Vision ToolboxÂ®.
# .PCD v.7 - Point Cloud Data file format
VERSION .7
FIELDS x y z intensity
SIZE 4 4 4 4
TYPE F F F F
COUNT 1 1 1 1
WIDTH 1304
HEIGHT 1
VIEWPOINT 0 0 0 1 0 0 0
POINTS 1304
DATA ascii
-25.729095 60.483658 0.000009 0.547738
-23.093472 66.975456 0.000005 0.541772
-21.625561 70.591057 0.000004 0.558389
-20.688425 72.899307 0.000003 0.543786
-20.037081 74.503632 0.000002 0.538125
-19.557199 75.685631 0.000001 0.508904
-34.432755 39.912884 13.704399 0.825757
-34.449326 39.872875 12.101329 0.743923
-34.532150 39.672894 10.549456 0.678431
-34.393265 40.008240 8.915924 0.474205
-34.432755 39.912880 7.375462 0.822828
-34.388973 40.018608 5.821978 0.737819
-34.393265 40.008244 4.290458 0.527031
-34.432755 39.912880 2.764630 0.825727
-34.449333 39.872860 1.234661 0.722866
-32.131126 45.470387 -0.000019 0.540673
-25.886646 60.548264 0.000009 0.529931
-23.205763 67.021507 0.000006 0.547326
-21.712650 70.626770 0.000004 0.555413
-20.759424 72.928421 0.000002 0.526589
-20.096895 74.528160 0.000002 0.556466
-19.608772 75.706779 0.000002 0.504204
-34.799545 39.882893 13.746780 0.678431
-34.803780 39.872871 12.130867 0.760220
-34.888237 39.672890 10.574453 0.678431
-34.746769 40.007847 8.936211 0.589578
-34.799553 39.882874 7.394927 0.678676
-34.742214 40.018631 5.833151 0.718517
-34.746773 40.007835 4.297178 0.481392
-34.782890 39.922325 2.766699 0.866972
-34.803787 39.872852 1.232423 0.735058
-32.392971 45.580929 0.000027 0.338476
-26.043751 60.613964 0.000008 0.556710
-23.317738 67.068336 0.000006 0.529213
-21.799492 70.663086 0.000004 0.557214
-20.830219 72.958031 0.000003 0.525429
-20.156538 74.553108 0.000002 0.526116
-19.660200 75.728287 0.000001 0.535958
-35.155998 39.882896 13.781806 0.678431
-35.160313 39.872875 12.161075 0.731823
-35.246437 39.672871 10.600026 0.678431
-35.246437 39.672867 9.010993 0.678431
-35.155998 39.882893 7.411011 0.678431
-35.097595 40.018524 5.844590 0.691997
-35.246437 39.672867 4.321945 0.678431
-35.143082 39.912891 2.769151 0.816999
-35.160324 39.872849 1.230134 0.749233
-32.654747 45.691616 -0.000015 0.338857
-26.200386 60.680763 0.000008 0.545937
-23.429382 67.115944 0.000005 0.532235
-21.886074 70.700012 0.000004 0.540520
-20.900805 72.988136 0.000003 0.559167
-20.216003 74.578468 0.000002 0.555459
-19.711473 75.750153 0.000001 0.505898
-35.501434 39.912884 13.809417 0.826978
-35.508633 39.896481 12.186393 0.732769
-35.584011 39.724743 10.615861 0.786068
-35.584011 39.724739 9.023901 0.790860
-35.501434 39.912888 7.423690 0.833387
-35.454922 40.018860 5.856248 0.700343
-35.584007 39.724751 4.326220 0.791928
-35.501442 39.912868 2.771492 0.816861
-35.508728 39.896263 1.228213 0.734508
-32.915451 45.804817 -0.000022 0.337881
-26.356548 60.748657 0.000008 0.528313
-23.540689 67.164330 0.000005 0.539666
-21.972397 70.737541 0.000004 0.566033
-20.971176 73.018730 0.000003 0.524651
-20.275291 74.604240 0.000002 0.542657
-19.762592 75.772377 0.000001 0.546349
-35.863750 39.908955 13.847081 0.122530
-35.863449 39.909626 12.214842 0.913771
-35.863548 39.909405 10.605743 0.117327
-35.863518 39.909477 9.015644 0.733959
-35.863651 39.909176 7.440961 0.115480
-35.814732 40.018559 5.868223 0.722805
-35.863556 39.909393 4.323490 0.139574
-35.863640 39.909206 2.773947 0.124895
-35.863655 39.909164 1.226053 0.121523
-33.174988 45.920654 0.000016 0.338216
-26.512238 60.817635 0.000008 0.541619
-23.651653 67.213509 0.000006 0.536278
-22.058456 70.775673 0.000004 0.546471
-21.041334 73.049820 0.000003 0.557534
-20.334396 74.630432 0.000001 0.517647
-19.813555 75.794960 0.000001 0.507820
-36.238422 39.883003 13.891623 0.678431
-36.238426 39.882996 12.253407 0.681865
-36.238434 39.882980 10.638194 0.678431
-36.242989 39.872982 9.043739 0.743374
-36.238426 39.882996 7.461447 0.678431
-36.176781 40.018288 5.880456 0.719478
-36.238434 39.882977 4.332250 0.678431
-36.238422 39.882999 2.776860 0.678431
-36.238422 39.882999 1.223139 0.678431
-33.433983 46.037685 0.000021 0.338323
-26.667437 60.887703 0.000008 0.536828
-23.762272 67.263443 0.000006 0.532708
-22.144247 70.814400 0.000003 0.559579
-21.111275 73.081390 0.000003 0.543481
-20.393318 74.657028 0.000002 0.499138
-19.864359 75.817894 0.000001 0.557473
-36.599941 39.891342 13.927557 0.136431
-36.603813 39.883007 12.286378 0.678431
-36.603825 39.882980 10.665974 0.678431
-36.608463 39.872982 9.066389 0.718303
-36.603821 39.882984 7.479011 0.678431
-36.540848 40.018661 5.892902 0.686488
-36.603821 39.882980 4.339748 0.678431
-36.603821 39.882984 2.779359 0.678431
-36.603821 39.882988 1.220641 0.678431
-33.692055 46.156761 0.000038 0.339315
-26.822147 60.958855 0.000009 0.531075
-23.872543 67.314156 0.000005 0.549233
-22.229767 70.853729 0.000004 0.520897
-21.180992 73.113449 0.000003 0.541070
-20.452053 74.684044 0.000002 0.480323
-19.915003 75.841187 0.000002 0.549523
-36.953171 39.921940 13.958149 0.736034
-36.971569 39.883003 12.320066 0.678431
-36.971581 39.882980 10.694355 0.678431
-36.976303 39.872990 9.089533 0.752453
-36.971581 39.882980 7.496956 0.678431
-36.907684 40.018177 5.905696 0.699260
-36.971581 39.882984 4.347412 0.678431
-36.971581 39.882980 2.781913 0.678431
-36.971581 39.882980 1.218088 0.678431
-33.949554 46.277046 0.000024 0.338735
-26.976357 61.031078 0.000009 0.532616
-23.982456 67.365631 0.000005 0.522423
-22.315006 70.893654 0.000004 0.500359
-21.250483 73.145996 0.000003 0.503075
-20.510597 74.711464 0.000002 0.524742
-19.965481 75.864830 0.000002 0.558328
-37.317703 39.933014 13.994951 0.647059
-37.341766 39.883007 12.354484 0.678431
-37.341774 39.882992 10.723347 0.678431
-37.346581 39.873005 9.113174 0.732143
-37.341785 39.882973 7.515288 0.678431
-37.276443 40.018761 5.918668 0.713069
-37.341782 39.882988 4.355241 0.678431
-37.341789 39.882969 2.784520 0.678431
-37.341789 39.882969 1.215480 0.678431
-34.206245 46.399071 0.000007 0.338262
-27.130058 61.104378 0.000008 0.541680
-24.092007 67.417877 0.000005 0.539223
-22.399969 70.934174 0.000004 0.552987
-21.319744 73.179031 0.000003 0.540215
-20.568951 74.739288 0.000002 0.555901
-20.015797 75.888824 0.000001 0.497078
-37.690002 39.932926 14.035698 0.616861
-37.705688 39.900898 12.385334 0.732204
-37.705780 39.900711 10.749375 0.736355
-37.705776 39.900723 9.132746 0.729488
-37.705711 39.900856 7.531725 0.740841
-37.648300 40.018059 5.932036 0.708995
-37.705788 39.900700 4.362267 0.759808
-37.705708 39.900860 2.786858 0.768246
-37.705711 39.900856 1.213142 0.752392
-34.461906 46.523212 0.000008 0.339178
-27.283241 61.178749 0.000008 0.529168
-24.201187 67.470886 0.000006 0.560662
-22.484644 70.975281 0.000004 0.531609
-21.388775 73.212540 0.000003 0.507973
-20.627106 74.767525 0.000002 0.539345
-20.065941 75.913162 0.000001 0.514061
nan nan nan 0.000000
nan nan nan 0.000000
nan nan nan 0.000000
nan nan nan 0.000000
nan nan nan 0.000000
-55.711151 4.534935 9.196554 0.482811
-55.711155 4.534935 6.311759 0.540948
-55.711151 4.534935 3.436228 0.569131
-55.711151 4.534935 0.563774 0.524178
-34.716862 46.648815 -0.000010 0.339330
-27.435905 61.254189 0.000008 0.550713
-24.309998 67.524658 0.000005 0.532479
-22.569029 71.016983 0.000004 0.542336
-21.457569 73.246544 0.000003 0.538705
-20.685062 74.796165 0.000002 0.561883
-20.115913 75.937859 0.000001 0.588464
nan nan nan 0.000000
nan nan nan 0.000000
nan nan nan 0.000000
nan nan nan 0.000000
nan nan nan 0.000000
-55.711147 5.889389 9.097336 0.601419
-55.711143 5.889397 6.252311 0.553384
-55.711136 5.889412 3.416425 0.523491
-55.711136 5.889412 0.583575 0.517906
-34.971016 46.776047 -0.000035 0.337835
-27.588036 61.330692 0.000008 0.537972
-24.418430 67.579185 0.000005 0.528740
-22.653124 71.059273 0.000004 0.541878
-21.526127 73.281013 0.000003 0.504112
-20.742819 74.825211 0.000002 0.527687
-20.165712 75.962906 0.000001 0.536065
nan nan nan 0.000000
nan nan nan 0.000000
nan nan nan 0.000000
nan nan nan 0.000000
-58.127594 2.524643 12.428896 0.439780
-55.711128 7.207100 9.001145 0.551308
-55.711128 7.207108 6.194682 0.573449
-55.711121 7.207115 3.397227 0.520150
-55.711121 7.207115 0.602771 0.561852
-35.223930 46.905720 -0.000023 0.337850
-27.739630 61.408257 0.000009 0.535760
-24.526480 67.634468 0.000005 0.531487
-22.736919 71.102150 0.000004 0.521370
-21.594440 73.315964 0.000003 0.530846
-20.800371 74.854660 0.000002 0.555505
-20.215336 75.988297 0.000002 0.547555
nan nan nan 0.000000
nan nan nan 0.000000
nan nan nan 0.000000
nan nan nan 0.000000
-56.525288 6.938629 11.893364 0.439445
-56.326115 7.318054 9.016358 0.543160
-56.326107 7.318062 6.203794 0.514534
-56.326107 7.318062 3.400265 0.508736
-56.326103 7.318069 0.599735 0.553277
-35.475529 47.037922 0.000031 0.338460
-27.890676 61.486877 0.000009 0.533913
-24.634138 67.690506 0.000006 0.539467
-22.820415 71.145607 0.000004 0.540810
-21.662506 73.351395 0.000003 0.559091
-20.857716 74.884506 0.000002 0.536919
-20.264780 76.014030 0.000002 0.541863
nan nan nan 0.000000
nan nan nan 0.000000
nan nan nan 0.000000
nan nan nan 0.000000
-57.238380 6.877747 11.937933 0.415824
-57.003311 7.318062 9.042339 0.870298
-57.003307 7.318062 6.219361 0.845838
-57.003307 7.318062 3.405449 0.937255
-57.003307 7.318062 0.594551 0.564599
-35.726601 47.171112 0.000043 0.339529
-28.041176 61.566551 0.000008 0.544488
-24.741405 67.747292 0.000005 0.530251
-22.903608 71.189644 0.000004 0.544396
-21.730326 73.387299 0.000003 0.523842
-20.914852 74.914749 0.000002 0.560342
-20.314045 76.040115 0.000002 0.569207
nan nan nan 0.000000
nan nan nan 0.000000
nan nan nan 0.000000
nan nan nan 0.000000
-57.923870 6.879089 11.975182 0.310597
-57.685551 7.318069 9.068855 0.764218
-57.685551 7.318069 6.235249 0.771496
-57.685551 7.318077 3.410740 0.652079
-57.685547 7.318085 0.589259 0.516228
-35.976852 47.305820 0.000042 0.338491
-28.191111 61.647270 0.000008 0.528725
-24.848276 67.804825 0.000005 0.552224
-22.986485 71.234268 0.000003 0.554345
-21.797890 73.423676 0.000003 0.514717
-20.971773 74.945396 0.000002 0.508080
-20.363125 76.066536 0.000002 0.602731
nan nan nan 0.000000
nan nan nan 0.000000
nan nan nan 0.000000
nan nan nan 0.000000
-58.945354 6.281136 12.091949 0.406577
-58.373009 7.318069 9.095924 0.840269
-58.373005 7.318077 6.251464 0.786450
-58.373005 7.318069 3.416142 0.823240
-58.373005 7.318069 0.583858 0.520348
-36.226379 47.441887 0.000020 0.338949
-28.340485 61.729034 0.000008 0.543145
-24.954739 67.863106 0.000005 0.522957
-23.069054 71.279465 0.000004 0.547143
-21.865202 73.460518 0.000003 0.516762
-21.028481 74.976440 0.000002 0.550011
-20.412022 76.093300 0.000001 0.564141
nan nan nan 0.000000
nan nan nan 0.000000
nan nan nan 0.000000
nan nan nan 0.000000
-59.696575 6.193855 12.142747 0.352499
-59.065781 7.318077 9.123546 0.543038
-59.065777 7.318085 6.268016 0.531548
-59.065769 7.318092 3.421655 0.568124
-59.065769 7.318092 0.578345 0.513130
-36.475174 47.579296 -0.000025 0.339223
-28.489277 61.811844 0.000008 0.536507
-25.060791 67.922127 0.000005 0.551827
-23.151300 71.325241 0.000004 0.548028
-21.932253 73.497841 0.000003 0.563760
-21.084970 75.007881 0.000002 0.509117
-20.460728 76.120407 0.000002 0.520623
nan nan nan 0.000000
nan nan nan 0.000000
nan nan nan 0.000000
nan nan nan 0.000000
-60.408440 6.188103 12.183645 0.316243
-59.763988 7.318085 9.151735 0.678431
-59.763985 7.318092 6.284904 0.774273
-59.764000 7.318077 3.427281 0.678431
-59.764000 7.318077 0.572719 0.594064
-36.722504 47.719326 -0.000021 0.338704
-28.637491 61.895683 0.000008 0.548333
-25.166431 67.981888 0.000005 0.539971
-23.233227 71.371590 0.000004 0.534691
-21.999044 73.535622 0.000003 0.534951
-21.141237 75.039711 0.000002 0.527581
-20.509245 76.147850 0.000002 0.590814
nan nan nan 0.000000
nan nan nan 0.000000
nan nan nan 0.000000
nan nan nan 0.000000
-60.775928 6.786446 12.145042 0.424613
-60.467796 7.318085 9.180498 0.678431
-60.467793 7.318085 6.302137 0.794446
-60.467796 7.318077 3.433022 0.647059
-60.467796 7.318077 0.566977 0.513344
-36.968925 47.860947 -0.000024 0.337942
-28.785114 61.980568 0.000008 0.537530
-25.271650 68.042381 0.000005 0.534752
-23.314831 71.418503 0.000004 0.571313
-22.065567 73.573868 0.000003 0.570977
-21.197285 75.071930 0.000002 0.511360
-20.557570 76.175636 0.000002 0.561028
nan nan nan 0.000000
nan nan nan 0.000000
nan nan nan 0.000000
nan nan nan 0.000000
-61.999218 5.922585 12.301843 0.407080
-61.177307 7.318085 9.209848 0.678431
-61.177307 7.318092 6.319722 0.800488
-61.177311 7.318085 3.438878 0.678431
-61.177311 7.318085 0.561120 0.557763
-37.214363 48.004261 -0.000027 0.338521
-28.932137 62.066475 0.000008 0.534798
-25.376446 68.103607 0.000005 0.564492
-23.396103 71.465988 0.000004 0.548821
-22.131824 73.612579 0.000003 0.558907
-21.253101 75.104546 0.000002 0.560601
-20.605700 76.203758 0.000001 0.556863
nan nan nan 0.000000
nan nan nan 0.000000
nan nan nan 0.000000
nan nan nan 0.000000
-63.200943 5.131889 12.450640 0.454078
-61.892685 7.318108 9.239790 0.518669
-61.892677 7.318115 6.337662 0.592721
-61.892685 7.318108 3.444856 0.579400
-61.892677 7.318115 0.555146 0.572534
-37.458702 48.149452 -0.000022 0.338476
-29.078566 62.153400 0.000008 0.549065
-25.480808 68.165573 0.000005 0.501518
-23.477043 71.514038 0.000004 0.546227
-22.197807 73.651756 0.000003 0.527596
-21.308689 75.137550 0.000002 0.528695
-20.653629 76.232216 0.000002 0.539910
nan nan nan 0.000000
nan nan nan 0.000000
nan nan nan 0.000000
nan nan nan 0.000000
nan nan nan 0.000000
-62.614044 7.318115 9.270340 0.790387
-62.614048 7.318115 6.355966 0.904875
-62.614040 7.318123 3.450953 0.876371
-62.614040 7.318123 0.549049 0.493080
-37.702110 48.296177 -0.000025 0.338140
-29.224379 62.241348 0.000008 0.533028
-25.584734 68.228256 0.000005 0.544488
-23.557642 71.562660 0.000004 0.555047
-22.263515 73.691391 0.000003 0.552285
-21.364048 75.170937 0.000002 0.539498
-20.701359 76.261002 0.000002 0.509453
nan nan nan 0.000000
nan nan nan 0.000000
nan nan nan 0.000000
nan nan nan 0.000000
nan nan nan 0.000000
-63.341579 7.318123 9.301506 0.654902
-63.341583 7.318123 6.374640 0.666621
-63.341583 7.318123 3.457171 0.686595
-63.341579 7.318130 0.542828 0.586801
-37.944489 48.444618 -0.000029 0.337774
-29.369579 62.330307 0.000007 0.536919
-25.688225 68.291672 0.000005 0.536980
-23.637903 71.611832 0.000004 0.544656
-22.328945 73.731483 0.000003 0.505684
-21.419170 75.204712 0.000002 0.534539
-20.748890 76.290131 0.000002 0.557351
nan nan nan 0.000000
nan nan nan 0.000000
nan nan nan 0.000000
nan nan nan 0.000000
nan nan nan 0.000000
-64.075417 7.318115 9.333299 0.675425
-64.075409 7.318123 6.393687 0.678431
-64.075409 7.318130 3.463517 0.721325
-64.075409 7.318130 0.536483 0.464393
-38.185745 48.594879 -0.000024 0.338872
-29.514153 62.420284 0.000008 0.536019
-25.791271 68.355797 0.000005 0.529747
-23.717819 71.661568 0.000004 0.543938
-22.394096 73.772026 0.000003 0.534661
-21.474056 75.238876 0.000002 0.577096
-20.796215 76.319580 0.000002 0.560967
nan nan nan 0.000000
nan nan nan 0.000000
nan nan nan 0.000000
nan nan nan 0.000000
nan nan nan 0.000000
-64.815704 7.318123 9.365732 0.519692
-64.815697 7.318130 6.413120 0.584466
-64.815704 7.318123 3.469989 0.537713
-64.815704 7.318123 0.530011 0.595087
-38.426041 48.746666 -0.000027 0.337636
-29.658092 62.511269 0.000008 0.542733
-25.893866 68.420647 0.000005 0.529259
-23.797384 71.711868 0.000004 0.533150
-22.458961 73.813026 0.000003 0.561303
-21.528706 75.273415 0.000002 0.514794
-20.843334 76.349365 0.000002 0.561212
nan nan nan 0.000000
nan nan nan 0.000000
nan nan nan 0.000000
nan nan nan 0.000000
nan nan nan 0.000000
nan nan nan 0.000000
nan nan nan 0.000000
nan nan nan 0.000000
nan nan nan 0.000000
-38.554398 49.071514 0.009996 1.000000
-29.801388 62.603260 0.000008 0.545342
-25.996002 68.486206 0.000005 0.542840
-23.876595 71.762711 0.000004 0.546975
-22.523535 73.854477 0.000003 0.560250
-21.583105 75.308334 0.000002 0.534874
-20.890240 76.379478 0.000002 0.572045
nan nan nan 0.000000
nan nan nan 0.000000
nan nan nan 0.000000
nan nan nan 0.000000
nan nan nan 0.000000
nan nan nan 0.000000
nan nan nan 0.000000
nan nan nan 0.000000
nan nan nan 0.000000
-38.791187 49.226131 0.010007 1.000000
-29.944050 62.696243 0.000008 0.543420
-26.097683 68.552483 0.000005 0.549004
-23.955452 71.814110 0.000004 0.525383
-22.587822 73.896378 0.000003 0.534127
-21.637268 75.343636 0.000002 0.520302
-20.936939 76.409912 0.000002 0.563119
nan nan nan 0.000000
nan nan nan 0.000000
nan nan nan 0.000000
nan nan nan 0.000000
nan nan nan 0.000000
nan nan nan 0.000000
nan nan nan 0.000000
nan nan nan 0.000000
nan nan nan 0.000000
-39.140266 49.212357 -0.000022 0.337926
-30.086048 62.790215 0.000008 0.548241
-26.198893 68.619469 0.000005 0.536736
-24.033945 71.866058 0.000004 0.536065
-22.651812 73.938728 0.000003 0.509712
-21.691175 75.379318 0.000002 0.551507
-20.983423 76.440674 0.000002 0.510002
nan nan nan 0.000000
nan nan nan 0.000000
nan nan nan 0.000000
nan nan nan 0.000000
nan nan nan 0.000000
nan nan nan 0.000000
nan nan nan 0.000000
nan nan nan 0.000000
nan nan nan 0.000000
-39.376225 49.370808 -0.000025 0.338155
-30.227394 62.885185 0.000008 0.529763
-26.299637 68.687157 0.000005 0.575967
-24.112076 71.918556 0.000004 0.551232
-22.715506 73.981529 0.000003 0.581903
-21.744839 75.415367 0.000002 0.548882
-21.029692 76.471764 0.000002 0.527825
nan nan nan 0.000000
nan nan nan 0.000000
nan nan nan 0.000000
nan nan nan 0.000000
nan nan nan 0.000000
-58.542717 21.981918 8.078999 0.650919
-58.542706 21.981922 5.642182 0.664683
-58.542706 21.981926 3.213193 0.647105
-58.542706 21.981926 0.786806 0.671031
-39.611034 49.530949 -0.000026 0.339193
-30.368076 62.981140 0.000007 0.534783
-26.399906 68.755547 0.000005 0.502312
-24.189842 71.971588 0.000004 0.539086
-22.778900 74.024765 0.000003 0.500221
-21.798246 75.451797 0.000002 0.516365
-21.075741 76.503174 0.000002 0.586007
nan nan nan 0.000000
nan nan nan 0.000000
nan nan nan 0.000000
nan nan nan 0.000000
-59.055683 22.151196 10.546515 0.720623
-58.542721 22.886597 8.018011 0.665522
-58.542725 22.886589 5.605642 0.652903
-58.542717 22.886593 3.201022 0.654154
-58.542717 22.886593 0.798977 0.649165
-39.844696 49.692757 -0.000025 0.338201
-30.508072 63.078079 0.000008 0.543053
-26.499693 68.824631 0.000005 0.546105
-24.267229 72.025169 0.000003 0.544472
-22.841990 74.068451 0.000003 0.537270
-21.851395 75.488602 0.000002 0.527855
-21.121571 76.534904 0.000002 0.529641
nan nan nan 0.000000
nan nan nan 0.000000
nan nan nan 0.000000
nan nan nan 0.000000
-58.990551 23.140812 10.449057 0.746914
-58.542728 23.773361 7.958520 0.656809
-58.542728 23.773365 5.569999 0.659144
-58.542736 23.773354 3.189151 0.646983
-58.542736 23.773354 0.810849 0.695857
-40.077232 49.856190 -0.000024 0.337881
-30.647398 63.175987 0.000008 0.531350
-26.598995 68.894417 0.000005 0.522972
-24.344242 72.079292 0.000004 0.527169
-22.904778 74.112564 0.000003 0.556741
-21.904289 75.525772 0.000002 0.575463
-21.167177 76.566956 0.000002 0.570016
nan nan nan 0.000000
nan nan nan 0.000000
nan nan nan 0.000000
nan nan nan 0.000000
-58.927197 24.107704 10.354264 0.632486
-58.542736 24.642799 7.900480 0.664836
-58.542736 24.642799 5.535224 0.663890
-58.542744 24.642788 3.177567 0.650538
-58.542744 24.642788 0.822433 0.659159
-40.308601 50.021255 -0.000022 0.338491
-30.786037 63.274857 0.000008 0.533272
-26.697809 68.964890 0.000005 0.546807
-24.420876 72.133949 0.000004 0.522667
-22.967251 74.157120 0.000003 0.551553
-21.956923 75.563309 0.000002 0.524025
-21.212559 76.599319 0.000002 0.552666
nan nan nan 0.000000
nan nan nan 0.000000
nan nan nan 0.000000
nan nan nan 0.000000
-58.865566 25.052761 10.262034 0.699336
-58.542740 25.495522 7.843840 0.673136
-58.542740 25.495525 5.501291 0.665385
-58.542744 25.495518 3.166264 0.666621
-58.542740 25.495522 0.833737 0.663600
-40.538841 50.187897 -0.000022 0.337606
-30.923981 63.374695 0.000008 0.545281
-26.796129 69.036057 0.000005 0.530800
-24.497128 72.189140 0.000004 0.562127
-23.029411 74.202118 0.000003 0.560433
-22.009293 75.601212 0.000002 0.562188
-21.257715 76.632004 0.000002 0.549432
nan nan nan 0.000000
nan nan nan 0.000000
nan nan nan 0.000000
nan nan nan 0.000000
-58.805595 25.976780 10.172276 0.721004
-58.542740 26.332058 7.788556 0.635294
-58.542736 26.332062 5.468166 0.655039
-58.542747 26.332050 3.155231 0.648920
-58.542747 26.332050 0.844769 0.671687
-40.767891 50.356171 -0.000020 0.339330
-31.061228 63.475494 0.000007 0.540047
-26.893951 69.107895 0.000005 0.527626
-24.572992 72.244858 0.000004 0.511910
-23.091259 74.247543 0.000003 0.538140
-22.061398 75.639481 0.000002 0.489723
-21.302641 76.665001 0.000002 0.560311
nan nan nan 0.000000
nan nan nan 0.000000
nan nan nan 0.000000
nan nan nan 0.000000
-58.747204 26.880615 10.084893 0.618585
-58.542755 27.152950 7.734586 0.621088
-58.542740 27.152966 5.435831 0.670985
-58.542744 27.152954 3.144460 0.667216
-58.542740 27.152962 0.855541 0.664393
-40.995781 50.526020 -0.000020 0.336858
-31.197767 63.577255 0.000007 0.544015
-26.991268 69.180428 0.000005 0.533715
-24.648468 72.301109 0.000004 0.549126
-23.152784 74.293396 0.000003 0.569879
-22.113232 75.678116 0.000002 0.545403
-21.347336 76.698311 0.000002 0.549920
nan nan nan 0.000000
nan nan nan 0.000000
nan nan nan 0.000000
nan nan nan 0.000000
-58.892918 27.499004 10.038261 0.669718
-55.534901 31.907532 7.274872 0.704982
-55.729431 31.652145 5.176169 0.194049
-58.669044 27.792908 3.137353 0.705074
-58.669041 27.792915 0.862647 0.712291
-41.222450 50.697475 -0.000018 0.338354
-31.333584 63.679966 0.000007 0.544564
-27.088070 69.253639 0.000005 0.535683
-24.723541 72.357880 0.000004 0.544228
-23.213993 74.339676 0.000003 0.518791
-22.164797 75.717102 0.000002 0.531685
-21.391796 76.731934 0.000002 0.556756
nan nan nan 0.000000
nan nan nan 0.000000
nan nan nan 0.000000
nan nan nan 0.000000
-59.554710 27.440384 10.089956 0.765927
-55.529354 32.649185 7.226349 0.722026
-55.788219 32.314217 5.152122 0.678431
-59.359566 27.692898 3.145529 0.741176
-59.282303 27.792877 0.856538 0.163882
-41.447937 50.870495 -0.000018 0.337240
-31.468685 63.783623 0.000007 0.533028
-27.184368 69.327515 0.000005 0.548150
-24.798222 72.415176 0.000004 0.543023
-23.274876 74.386391 0.000003 0.505791
-22.216085 75.756462 0.000002 0.525750
-21.436020 76.765862 0.000002 0.524392
nan nan nan 0.000000
nan nan nan 0.000000
nan nan nan 0.000000
nan nan nan 0.000000
-60.225517 27.380470 10.142796 0.622263
-55.523926 33.377323 7.178960 0.699245
-55.731281 33.112839 5.119444 0.181979
-56.248302 32.453373 3.052784 0.598917
-56.248302 32.453373 0.947215 0.644297
-41.672207 51.045090 -0.000016 0.336965
-31.603062 63.888214 0.000007 0.533211
-27.280144 69.402069 0.000005 0.529274
-24.872503 72.472992 0.000003 0.556878
-23.335428 74.433525 0.000002 0.539330
-22.267101 75.796165 0.000002 0.549508
-21.480007 76.800102 0.000002 0.598886
nan nan nan 0.000000
nan nan nan 0.000000
nan nan nan 0.000000
nan nan nan 0.000000
-60.905613 27.319229 10.196815 0.708400
-55.518581 34.092422 7.132671 0.711254
-55.745476 33.807152 5.093105 0.678431
-56.162071 33.283348 3.041252 0.661692
-56.162071 33.283348 0.958749 0.699321
-41.895256 51.221245 -0.000016 0.337819
-31.736706 63.993744 0.000007 0.525490
-27.375397 69.477287 0.000005 0.527901
-24.946373 72.531334 0.000004 0.556619
-23.395649 74.481079 0.000003 0.532525
-22.317837 75.836235 0.000002 0.526909
-21.523754 76.834648 0.000001 0.533257
-6.378888 95.694786 6.058878 0.744747
-6.444041 95.614037 5.477307 0.716793
-6.493654 95.552544 4.915152 0.246067
-6.493653 95.552544 4.376517 0.213596
-6.493656 95.552536 3.843088 0.168170
-6.444042 95.614037 3.320140 0.722393
-6.378883 95.694794 2.796049 0.739300
-6.493662 95.552528 2.262169 0.200702
-6.444041 95.614037 1.736538 0.719036
-6.444039 95.614037 1.209048 0.709804
-6.378884 95.694794 0.671351 0.721569
-6.378885 95.694794 0.135885 0.712474
-8.087473 93.577072 -0.000003 0.528191
-9.651781 91.638184 -0.000002 0.540841
-10.739038 90.290581 -0.000001 0.538094
-11.540073 89.297737 -0.000001 0.535164
-6.232233 95.695374 6.082158 0.737392
-6.232236 95.695366 5.519790 0.722026
-6.348656 95.553116 4.931871 0.362676
-6.348657 95.553116 4.390147 0.203922
-6.348656 95.553116 3.853659 0.144839
-6.298329 95.614609 3.327711 0.739544
-6.232234 95.695374 2.800615 0.752102
-6.348665 95.553101 2.263673 0.209384
-6.298328 95.614609 1.735027 0.724651
-6.298329 95.614609 1.204512 0.721569
-6.232233 95.695374 0.663731 0.730434
-6.232232 95.695374 0.125194 0.711543
-8.014422 93.517715 -0.000003 0.513436
-9.592228 91.589790 -0.000002 0.519097
-10.688864 90.249817 -0.000001 0.493034
-11.496815 89.262581 -0.000000 0.534005
-6.083882 95.695953 6.105906 0.746426
-6.083883 95.695953 5.540267 0.712520
-6.201977 95.553696 4.948928 0.509056
-6.201979 95.553688 4.404052 0.194614
-6.201978 95.553688 3.864443 0.158831
-6.150929 95.615189 3.335435 0.733211
-6.083883 95.695953 2.805272 0.737469
-6.201986 95.553680 2.265206 0.215518
-6.150928 95.615189 1.733485 0.733333
-6.150927 95.615189 1.199884 0.733333
-6.083882 95.695953 0.655958 0.735012
-6.083881 95.695953 0.114287 0.739986
-7.941787 93.457848 -0.000003 0.538354
-9.533014 91.540985 -0.000002 0.520195
-10.638977 90.208694 -0.000001 0.558083
-11.453801 89.227127 -0.000000 0.559884
-5.933788 95.696548 6.130135 0.733333
-5.933792 95.696541 5.561157 0.733013
-6.001796 95.615776 4.980957 0.723964
-6.053576 95.554276 4.418238 0.198322
-6.053578 95.554276 3.875444 0.176013
-6.001797 95.615776 3.343315 0.739437
-5.933789 95.696548 2.810024 0.731777
-6.053587 95.554268 2.266771 0.216632
-6.001796 95.615776 1.731913 0.732921
-6.001797 95.615776 1.195163 0.723171
-5.933791 95.696541 0.648027 0.735332
-5.933788 95.696548 0.103160 0.737408
-7.869571 93.397469 -0.000003 0.548470
-9.474142 91.491768 -0.000002 0.555016
-10.589380 90.167229 -0.000001 0.519829
-11.411036 89.191376 -0.000001 0.529229
-5.781904 95.697144 6.154854 0.724437
-5.781906 95.697144 5.582472 0.733333
-5.850885 95.616371 4.998799 0.726848
-5.903406 95.554871 4.432712 0.192157
-5.903406 95.554871 3.886669 0.167987
-5.850883 95.616371 3.351356 0.726116
-5.781905 95.697144 2.814872 0.734646
-5.903416 95.554855 2.268368 0.224933
-5.850883 95.616371 1.730308 0.722026
-5.850884 95.616371 1.190346 0.721569
-5.781902 95.697144 0.639934 0.734066
-5.781905 95.697144 0.091807 0.733333
-7.797778 93.336594 -0.000003 0.555688
-9.415617 91.442139 -0.000002 0.568902
-10.540071 90.125420 -0.000001 0.498238
-11.368521 89.155319 -0.000001 0.486427
-5.628188 95.697746 6.180076 0.715175
-5.628186 95.697746 5.604219 0.724147
-5.698149 95.616974 5.017004 0.741176
-5.751421 95.555466 4.447480 0.183047
-5.751418 95.555473 3.898123 0.165103
-5.698149 95.616974 3.359559 0.739467
-5.622117 95.704758 2.820274 0.726543
-5.751431 95.555458 2.269997 0.220310
-5.698151 95.616974 1.728671 0.721569
-5.698151 95.616974 1.185431 0.721660
-5.628185 95.697754 0.631678 0.733333
-5.628184 95.697754 0.080223 0.732509
-7.726415 93.275215 -0.000003 0.510475
-9.357435 91.392105 -0.000002 0.546426
-10.491058 90.083267 -0.000001 0.572763
-11.326259 89.118973 -0.000001 0.536065
-5.472581 95.698364 6.205813 0.733333
-5.472581 95.698364 5.626411 0.722255
-5.543539 95.617584 5.035580 0.736309
-5.597570 95.556076 4.462549 0.196796
-5.597569 95.556076 3.909809 0.160739
-5.543538 95.617584 3.367930 0.737316
-5.534284 95.628120 2.820273 0.723247
-5.597578 95.556061 2.271659 0.219165
-5.543540 95.617584 1.727000 0.721111
-5.543541 95.617577 1.180415 0.715129
-5.472579 95.698364 0.623253 0.738964
-5.472579 95.698364 0.068403 0.733333
-7.655478 93.213348 -0.000003 0.537636
-9.299608 91.341660 -0.000002 0.496864
-10.442339 90.040771 -0.000002 0.526284
-11.284251 89.082336 -0.000001 0.558373
-5.315039 95.698982 6.232076 0.715221
-5.315040 95.698982 5.649056 0.722988
-5.387008 95.618202 5.054535 0.721569
-5.441804 95.556686 4.477927 0.193210
-5.441806 95.556686 3.921735 0.180713
-5.387006 95.618202 3.376473 0.721569
-5.387006 95.618202 2.824702 0.721614
-5.441813 95.556679 2.273356 0.217487
-5.387006 95.618202 1.725296 0.728084
-5.387006 95.618202 1.175297 0.734707
-5.315038 95.698982 0.614656 0.725750
-5.315038 95.698982 0.056341 0.733333
-7.584974 93.150978 -0.000004 0.527337
-9.242130 91.290817 -0.000003 0.539422
-10.393918 89.997940 -0.000002 0.513390
-11.242500 89.045403 -0.000001 0.499840
-5.155512 95.699608 6.258878 0.721569
-5.155510 95.699615 5.672166 0.731914
-5.228498 95.618828 5.073881 0.712703
-5.284075 95.557312 4.493620 0.234333
-5.284075 95.557312 3.933906 0.213870
-5.228499 95.618828 3.385190 0.729229
-5.228498 95.618820 2.829925 0.733242
-5.284082 95.557304 2.275088 0.215686
-5.228499 95.618820 1.723556 0.727932
-5.228498 95.618820 1.170075 0.723644
-5.155509 95.699615 0.605882 0.721569
-5.155509 95.699615 0.044032 0.721569
-7.514909 93.088120 -0.000004 0.540963
-9.185013 91.239578 -0.000003 0.531441
-10.345798 89.954765 -0.000002 0.549004
-11.201010 89.008179 -0.000001 0.622782
-4.993941 95.700249 6.286233 0.730617
-4.993941 95.700249 5.695751 0.721569
-5.067962 95.619461 5.093623 0.722988
-5.087561 95.598068 4.517709 0.566690
-5.087560 95.598068 3.952589 0.572076
-5.067961 95.619461 3.394086 0.693507
-5.067961 95.619461 2.835256 0.736278
-5.124333 95.557930 2.276854 0.215305
-5.067962 95.619461 1.721780 0.698039
-5.067961 95.619461 1.164744 0.719219
-4.993937 95.700249 0.596928 0.722164
-4.993936 95.700256 0.031468 0.733104
-7.445285 93.024780 -0.000004 0.542702
-9.128254 91.187935 -0.000002 0.544411
-10.297979 89.911263 -0.000002 0.590463
-11.159779 88.970665 -0.000001 0.554788
-4.830272 95.700897 6.314153 0.733333
-4.830272 95.700897 5.719825 0.726574
-4.905345 95.620094 5.113774 0.728511
-4.962521 95.558563 4.525980 0.192157
-4.962523 95.558556 3.959002 0.291814
-4.905341 95.620102 3.403167 0.741176
-4.905343 95.620102 2.840697 0.739406
-4.962512 95.558571 2.278657 0.183062
-4.905345 95.620094 1.719968 0.704112
-4.905343 95.620102 1.159303 0.720790
-4.830270 95.700897 0.587789 0.772152
-4.830272 95.700897 0.018646 0.722347
-7.376106 92.960945 -0.000004 0.547112
-9.071856 91.135895 -0.000003 0.531502
-10.250465 89.867424 -0.000002 0.545495
-11.118811 88.932861 -0.000001 0.583886
-4.664451 95.701546 6.342650 0.731075
-4.664452 95.701546 5.744398 0.736492
-4.740584 95.620743 5.134343 0.733288
-4.798572 95.559204 4.542665 0.184985
-4.798573 95.559204 3.971943 0.160784
-4.740582 95.620750 3.412436 0.739620
-4.740583 95.620743 2.846250 0.736675
-4.760736 95.599358 2.281401 0.605020
-4.740585 95.620743 1.718118 0.721202
-4.740583 95.620743 1.153750 0.724834
-4.664449 95.701546 0.578460 0.744595
-4.664449 95.701546 0.005557 0.741634
-7.307373 92.896629 -0.000004 0.542473
-9.015823 91.083466 -0.000002 0.521431
-10.203259 89.823250 -0.000002 0.528374
-11.078108 88.894783 -0.000001 0.514351
-4.496407 95.702217 6.371747 0.743603
-4.496415 95.702209 5.769482 0.740841
-4.573621 95.621407 5.155342 0.730938
-4.632430 95.559860 4.559700 0.179934
-4.632435 95.559860 3.985153 0.175952
-4.573622 95.621407 3.421899 0.733333
-4.573624 95.621407 2.851919 0.732830
-4.632430 95.559860 2.282377 0.160784
-4.573626 95.621407 1.716230 0.735073
-4.573626 95.621407 1.148081 0.716243
-4.496413 95.702209 0.568937 0.733333
-4.496415 95.702209 -0.007803 0.737591
-7.239092 92.831841 -0.000004 0.485985
-8.960156 91.030655 -0.000003 0.530449
-10.156363 89.778755 -0.000002 0.545937
-11.037672 88.856415 -0.000001 0.571145
-4.326097 95.702888 6.401447 0.733333
-4.326106 95.702881 5.795091 0.733333
-4.368048 95.659592 5.186285 0.733333
-4.464041 95.560524 4.577089 0.182925
-4.464045 95.560524 3.998640 0.178470
-4.368046 95.659592 3.435843 0.735943
-4.368043 95.659599 2.860274 0.739681
-4.464041 95.560524 2.284296 0.180392
-4.368046 95.659599 1.713447 0.740200
-4.368045 95.659599 1.139726 0.709804
-4.326106 95.702881 0.559215 0.739803
-4.455782 95.569054 -0.000006 0.519051
-7.171262 92.766579 -0.000004 0.564477
-8.904861 90.977448 -0.000003 0.561135
-10.109777 89.733932 -0.000002 0.536233
-10.997505 88.817764 -0.000001 0.526360
-4.153449 95.703568 6.431770 0.734462
-4.153460 95.703560 5.821237 0.722805
-4.232880 95.622726 5.198660 0.721569
-4.293344 95.561195 4.594844 0.192157
-4.293346 95.561195 4.012409 0.170809
-4.232880 95.622726 3.441419 0.731548
-4.232879 95.622734 2.863615 0.741680
-4.293337 95.561203 2.286254 0.163729
-4.232880 95.622734 1.712334 0.738842
-4.232879 95.622726 1.136385 0.709804
-4.153455 95.703568 0.549288 0.733333
-4.368911 95.484291 -0.000006 0.538155
-7.103892 92.700844 -0.000004 0.551812
-8.849939 90.923851 -0.000003 0.541665
-10.063508 89.688782 -0.000002 0.478538
-10.957610 88.778839 -0.000001 0.535180
-3.978398 95.704254 6.462734 0.739925
-3.978407 95.704247 5.847935 0.718441
-4.058949 95.623413 5.221008 0.719875
-4.120265 95.561874 4.612975 0.211551
-4.120266 95.561874 4.026470 0.177249
-4.058950 95.623413 3.451490 0.720928
-4.058949 95.623413 2.869649 0.739635
-4.120259 95.561882 2.288254 0.173007
-4.058948 95.623421 1.710324 0.750866
-4.058950 95.623413 1.130351 0.709804
-3.978403 95.704254 0.539152 0.735866
-4.282638 95.398918 -0.000006 0.556405
-7.036983 92.634636 -0.000004 0.558541
-8.795393 90.869881 -0.000003 0.555123
-10.017553 89.643311 -0.000002 0.509606
-10.917986 88.739632 -0.000001 0.525490
-3.800871 95.704956 6.494355 0.744198
-3.800873 95.704956 5.875202 0.711223
-3.882561 95.624107 5.243831 0.726711
-3.944742 95.562569 4.631488 0.207874
-3.944743 95.562569 4.040829 0.200061
-3.882560 95.624115 3.461774 0.733333
-3.882561 95.624115 2.875810 0.740017
-3.944735 95.562576 2.290297 0.160784
-3.882560 95.624115 1.708272 0.733333
-3.882562 95.624107 1.124189 0.724605
-3.800879 95.704948 0.528802 0.733333
-4.196958 95.312958 -0.000006 0.519478
-6.970534 92.567963 -0.000004 0.552819
-8.741222 90.815529 -0.000003 0.536553
-9.971918 89.597519 -0.000002 0.544701
-10.878636 88.700150 -0.000001 0.548272
-3.620807 95.705666 6.526649 0.733333
-3.620807 95.705666 5.903047 0.709804
-3.703650 95.624809 5.267138 0.740353
-3.766709 95.563271 4.650396 0.192157
-3.766708 95.563271 4.055492 0.192157
-3.703650 95.624809 3.472278 0.738781
-3.703648 95.624817 2.882104 0.734981
-3.766699 95.563278 2.292383 0.139742
-3.703650 95.624817 1.706175 0.741176
-3.703649 95.624817 1.117896 0.709804
-3.620812 95.705658 0.518231 0.732189
-4.111879 95.226395 -0.000006 0.540108
-6.904555 92.500832 -0.000004 0.527123
-8.687433 90.760803 -0.000003 0.645350
-9.926600 89.551414 -0.000002 0.547066
-10.839563 88.660393 -0.000001 0.532174
-3.438123 95.706390 6.559633 0.739620
-3.438122 95.706390 5.931489 0.728283
-3.522137 95.625526 5.290946 0.718578
-3.586092 95.563980 4.669708 0.203006
-3.586087 95.563980 4.070471 0.198917
-3.522135 95.625534 3.483006 0.716197
-3.522136 95.625534 2.888531 0.747433
-3.586075 95.563995 2.294514 0.174914
-3.522136 95.625534 1.704034 0.727352
-3.522136 95.625534 1.111468 0.709804
-3.438129 95.706383 0.507433 0.716976
-4.027418 95.139236 -0.000006 0.541451
-6.839048 92.433243 -0.000004 0.529931
-8.634029 90.705696 -0.000003 0.524071
-9.881611 89.504990 -0.000002 0.536217
-10.800770 88.620361 -0.000001 0.583886
-3.300019 95.662254 6.577004 0.724422
-3.252748 95.707115 5.960541 0.725978
-3.337953 95.626251 5.315265 0.689387
-3.402805 95.564705 4.689438 0.202823
-3.402804 95.564705 4.085771 0.192157
-3.337949 95.626251 3.493966 0.733333
-3.337949 95.626251 2.895097 0.733333
-3.402791 95.564713 2.296690 0.166293
-3.337949 95.626251 1.701847 0.715541
-3.337951 95.626251 1.104902 0.720745
-3.252755 95.707108 0.496403 0.732158
-3.943558 95.051491 -0.000006 0.534844
-6.774011 92.365189 -0.000004 0.534203
-8.581013 90.650223 -0.000003 0.513054
-9.836944 89.458252 -0.000002 0.517357
-10.762257 88.580063 -0.000001 0.518257
-3.151009 95.626999 6.598110 0.734478
-3.064605 95.707863 5.990223 0.752941
-3.151016 95.626991 5.340110 0.733333
-3.216785 95.565437 4.709593 0.235294
-3.216787 95.565437 4.101402 0.180392
-3.151011 95.626991 3.505162 0.719692
-3.151011 95.626991 2.901806 0.734340
-3.216767 95.565453 2.298913 0.169284
-3.151011 95.626991 1.699613 0.730678
-3.151012 95.626991 1.098194 0.720195
-3.064612 95.707855 0.485135 0.718074
-3.860312 94.963165 -0.000006 0.553643
-6.709452 92.296692 -0.000004 0.515572
-8.528379 90.594383 -0.000003 0.530724
-9.792603 89.411209 -0.000002 0.552941
-10.724025 88.539505 -0.000002 0.512413
-2.961239 95.627739 6.633056 0.724605
-2.873608 95.708611 6.020551 0.733333
-2.961243 95.627739 5.365497 0.697002
-3.027946 95.566177 4.730186 0.245502
-3.027944 95.566177 4.117374 0.178744
-2.961240 95.627739 3.516602 0.733425
-2.961241 95.627739 2.908659 0.721386
-3.027924 95.566200 2.301186 0.188159
-2.961241 95.627739 1.697330 0.724010
-2.961243 95.627739 1.091340 0.733333
-2.873615 95.708611 0.473621 0.725109
-3.777685 94.874260 -0.000006 0.538201
-6.645370 92.227745 -0.000004 0.547692
-8.476141 90.538170 -0.000003 0.535546
-9.748594 89.363853 -0.000002 0.538003
-10.686077 88.498672 -0.000002 0.466529
-2.768556 95.628502 6.668767 0.709804
-2.679682 95.709373 6.051541 0.734249
-2.768559 95.628494 5.391437 0.735256
-2.836206 95.566933 4.751231 0.275929
-2.836211 95.566933 4.133694 0.215686
-2.768559 95.628494 3.528291 0.718853
-2.768558 95.628494 2.915663 0.718029
-2.792044 95.607124 2.304483 0.704570
-2.768557 95.628502 1.694997 0.735027
-2.768559 95.628494 1.084336 0.721065
-2.679693 95.709366 0.461856 0.720974
-3.695683 94.784782 -0.000006 0.521828
-6.581775 92.158348 -0.000005 0.539025
-8.424294 90.481598 -0.000004 0.545647
-9.704916 89.316193 -0.000002 0.529274
-10.648417 88.457573 -0.000001 0.533852
-2.572864 95.629272 6.705266 0.709804
-2.482728 95.710152 6.083214 0.733333
-2.572867 95.629272 5.417951 0.736126
-2.641474 95.567703 4.772739 0.239933
-2.641474 95.567703 4.150375 0.206729
-2.572870 95.629265 3.540238 0.741176
-2.572867 95.629272 2.922822 0.721569
-2.641450 95.567726 2.305880 0.173892
-2.572866 95.629272 1.692613 0.715129
-2.572867 95.629272 1.077178 0.709804
-2.482738 95.710144 0.449831 0.731685
-3.614308 94.694733 -0.000006 0.523140
-6.518664 92.088509 -0.000005 0.520699
-8.372847 90.424660 -0.000003 0.567254
-9.661570 89.268227 -0.000003 0.560189
-10.611044 88.416222 -0.000001 0.499550
-2.374083 95.630051 6.742571 0.709804
-2.282663 95.710945 6.115589 0.733822
-2.374088 95.630051 5.445049 0.717891
-2.443670 95.568481 4.794723 0.259510
-2.443671 95.568481 4.167424 0.226764
-2.374086 95.630051 3.552450 0.723644
-2.374086 95.630051 2.930138 0.738811
-2.443644 95.568504 2.308305 0.149203
-2.374086 95.630051 1.690176 0.751492
-2.374086 95.630051 1.069862 0.721569
-2.282676 95.710930 0.437541 0.740353
-3.533561 94.604118 -0.000007 0.593881
-6.456043 92.018234 -0.000005 0.567483
-8.321795 90.367371 -0.000003 0.534127
-9.618561 89.219963 -0.000002 0.550500
-10.573959 88.374603 -0.000002 0.531014
-2.172111 95.630852 6.780708 0.709804
-2.079391 95.711746 6.148683 0.718669
-2.172116 95.630844 5.472753 0.715175
-2.242695 95.569267 4.817195 0.223529
-2.242691 95.569275 4.184853 0.223529
-2.172118 95.630844 3.564934 0.735302
-2.172115 95.630844 2.937618 0.733288
-2.242664 95.569298 2.310784 0.152605
-2.172119 95.630844 1.687684 0.733333
-2.172118 95.630844 1.062382 0.733333
-2.079404 95.711731 0.424977 0.731792
-3.453449 94.512939 -0.000007 0.550118
-6.393912 91.947525 -0.000005 0.551843
-8.271145 90.309731 -0.000003 0.541863
-9.575891 89.171394 -0.000003 0.551064
-10.537168 88.332726 -0.000002 0.603677
-1.966859 95.631653 6.819699 0.709804
-1.872815 95.712555 6.182520 0.710262
-1.872814 95.712555 5.523649 0.728374
-1.992445 95.609650 4.849174 0.664210
-1.992443 95.609650 4.209653 0.638575
-1.966861 95.631653 3.577698 0.739498
-1.966861 95.631653 2.945265 0.708156
-2.038418 95.570099 2.313319 0.174899
-1.966862 95.631653 1.685137 0.720790
-1.966863 95.631653 1.054734 0.716335
-1.872824 95.712547 0.412131 0.740200
-3.373977 94.421204 -0.000007 0.536858
-6.332279 91.876381 -0.000005 0.530327
-8.220899 90.251724 -0.000004 0.544884
-9.533561 89.122536 -0.000002 0.541833
-10.500668 88.290596 -0.000002 0.485542
-1.758219 95.632477 6.859572 0.732967
-1.662825 95.713387 6.217122 0.721752
-1.662827 95.713387 5.552800 0.731502
-1.830808 95.570908 4.863673 0.223529
-1.830810 95.570908 4.220898 0.223529
-1.758223 95.632477 3.590749 0.728069
-1.758223 95.632477 2.953085 0.708247
-1.830802 95.570915 2.315911 0.145495
-1.758223 95.632477 1.682532 0.735225
-1.758223 95.632477 1.046915 0.736095
-1.662841 95.713371 0.398995 0.722713
-3.295148 94.328918 -0.000007 0.527016
-6.271146 91.804810 -0.000005 0.538705
-8.171059 90.193382 -0.000004 0.559533
-9.491571 89.073380 -0.000003 0.501503
-10.464465 88.248215 -0.000002 0.538750
-1.546087 95.633316 6.900350 0.703273
-1.449327 95.714226 6.252509 0.713756
-1.449326 95.714226 5.582614 0.734432
-1.619719 95.571739 4.887703 0.249500
-1.619717 95.571739 4.239534 0.231495
-1.546089 95.633316 3.604098 0.720745
-1.546091 95.633308 2.961083 0.717983
-1.619710 95.571747 2.318561 0.131746
-1.546091 95.633308 1.679868 0.725612
-1.546092 95.633308 1.038917 0.717113
-1.449337 95.714218 0.385560 0.728557
-3.216963 94.236084 -0.000007 0.543770
-6.210509 91.732811 -0.000005 0.539590
-8.121628 90.134689 -0.000004 0.550683
-9.449928 89.023933 -0.000003 0.537911
-10.428556 88.205574 -0.000002 0.479850
-1.330355 95.634163 6.942061 0.721569
-1.232202 95.715080 6.288706 0.733013
-1.232201 95.715088 5.613109 0.723552
-1.405046 95.572586 4.912282 0.303929
-1.405046 95.572586 4.258596 0.247013
-1.232218 95.715073 3.628182 0.721569
-1.330359 95.634163 2.969263 0.708247
-1.405038 95.572594 2.321273 0.148608
-1.330357 95.634163 1.677143 0.711040
-1.330359 95.634163 1.030736 0.721569
-1.232217 95.715073 0.371818 0.731777
-3.139431 94.142708 -0.000007 0.531029
-6.150378 91.660393 -0.000005 0.529900
-8.072609 90.075645 -0.000004 0.574960
-9.408630 88.974190 -0.000003 0.545998
-10.392948 88.162689 -0.000002 0.530129
-1.110910 95.635025 6.984733 0.712016
-1.011339 95.715958 6.325737 0.727123
-1.011341 95.715950 5.644305 0.714488
-1.186679 95.573441 4.937428 0.375235
-1.186681 95.573441 4.278097 0.245411
-1.011355 95.715942 3.642240 0.720653
-1.110910 95.635025 2.977633 0.721569
-1.186672 95.573448 2.324047 0.144976
-1.110914 95.635025 1.674356 0.713802
-1.110912 95.635025 1.022367 0.699413
-1.011353 95.715942 0.357759 0.733333
-3.062549 94.048790 -0.000007 0.534859
-6.090755 91.587555 -0.000005 0.535943
-8.024002 90.016273 -0.000004 0.560906
-9.367681 88.924171 -0.000003 0.564157
-10.357641 88.119560 -0.000002 0.568521
-0.964503 95.574310 7.003721 0.247105
-0.786620 95.716835 6.363627 0.723217
-0.786622 95.716835 5.676228 0.730800
-0.887629 95.635902 4.977768 0.725429
-0.964494 95.574318 4.298053 0.233829
-0.857082 95.660378 3.649223 0.727062
-0.887627 95.635902 2.986196 0.719173
-0.964483 95.574326 2.326886 0.131044
-0.887630 95.635902 1.671503 0.738842
-0.786629 95.716827 1.007446 0.740536
-0.786631 95.716827 0.343374 0.730480
-2.986328 93.954338 -0.000007 0.541741
-6.031640 91.514305 -0.000005 0.524636
-7.975811 89.956551 -0.000004 0.517067
-9.327080 88.873856 -0.000003 0.528084
-10.322634 88.076180 -0.000002 0.497795
-0.738379 95.575203 7.048187 0.155825
-0.557914 95.717743 6.402405 0.735866
-0.557916 95.717743 5.708896 0.730480
-0.660390 95.636795 5.004230 0.728099
-0.738371 95.575203 4.318473 0.223529
-0.738373 95.575203 3.652492 0.192157
-0.660392 95.636795 2.994960 0.733333
-0.557926 95.717728 2.333553 0.721569
-0.660392 95.636795 1.668584 0.735882
-0.557924 95.717728 0.998625 0.726757
-0.557926 95.717728 0.328653 0.748348
-2.910766 93.859360 -0.000007 0.548898
-5.973040 91.440643 -0.000005 0.535546
-7.928040 89.896500 -0.000004 0.540932
-9.286833 88.823265 -0.000003 0.560342
-10.287931 88.032555 -0.000002 0.581781
-0.508190 95.576111 7.093699 0.236393
-0.325098 95.718658 6.442096 0.732448
-0.325096 95.718658 5.742334 0.727504
-0.429064 95.637711 5.031315 0.727504
-0.508186 95.576111 4.339375 0.240208
-0.508188 95.576111 3.667391 0.192157
-0.429070 95.637711 3.003930 0.727596
-0.325111 95.718643 2.336560 0.752941
-0.429066 95.637711 1.665596 0.725017
-0.325113 95.718643 0.989598 0.744823
-0.325111 95.718643 0.313585 0.745205
-2.835869 93.763855 -0.000007 0.540658
-5.914956 91.366570 -0.000005 0.546731
-7.880686 89.836121 -0.000004 0.525368
-9.246942 88.772392 -0.000003 0.554879
-10.253535 87.988693 -0.000002 0.546136
-0.273794 95.577034 7.140295 0.199878
-0.088030 95.719589 6.482730 0.722393
-0.088032 95.719589 5.776567 0.721569
-0.155582 95.667747 5.066137 0.709804
-0.273796 95.577034 4.360775 0.233692
-0.273804 95.577026 3.682642 0.243992
-0.155584 95.667747 3.015462 0.733333
-0.088045 95.719582 2.339639 0.739422
-0.155586 95.667747 1.661754 0.721569
-0.088045 95.719582 0.980355 0.735698
-0.088047 95.719582 0.298158 0.733333
-2.761643 93.667816 -0.000007 0.549279
-5.857389 91.292099 -0.000005 0.544579
-7.833757 89.775406 -0.000004 0.541436
-9.207403 88.721245 -0.000003 0.506828
-10.219444 87.944588 -0.000002 0.542855
-0.010473 95.596573 7.195727 0.431708
0.153419 95.720543 6.524336 0.737804
0.153419 95.720543 5.811619 0.721569
0.046408 95.639603 5.087440 0.709804
-0.035080 95.577965 4.382684 0.205249
-0.035076 95.577965 3.698259 0.192157
0.046410 95.639603 3.022518 0.712383
0.153406 95.720535 2.342791 0.730846
0.046412 95.639603 1.659404 0.721706
0.153406 95.720535 0.970891 0.719692
0.153408 95.720535 0.282362 0.759060
-2.688090 93.571281 -0.000007 0.524636
-5.800344 91.217224 -0.000005 0.560983
-7.787251 89.714371 -0.000004 0.539513
-9.168224 88.669823 -0.000003 0.512154
-10.185661 87.900253 -0.000002 0.541726
0.208141 95.578926 7.236862 0.180392
0.399412 95.721512 6.566946 0.733333
0.399410 95.721512 5.847516 0.737392
0.290829 95.640564 5.116518 0.709804
0.208138 95.578926 4.405125 0.230976
0.208136 95.578918 3.714252 0.167681
0.290829 95.640564 3.032148 0.698039
0.399397 95.721504 2.346020 0.741985
0.290829 95.640564 1.656196 0.721340
0.399399 95.721504 0.961199 0.736156
0.399399 95.721497 0.266186 0.733333
-2.615208 93.474228 -0.000007 0.526375
-5.743820 91.141960 -0.000006 0.536873
-7.741175 89.653000 -0.000004 0.555688
-9.129405 88.618126 -0.000003 0.538277
-10.152191 87.855675 -0.000002 0.560693
0.455994 95.579903 7.286913 0.180392
0.539906 95.641548 6.581064 0.734676
0.650091 95.722504 5.884289 0.733333
0.539902 95.641548 5.146304 0.709804
0.455980 95.579895 4.428110 0.230579
0.455978 95.579895 3.730636 0.179858
0.539898 95.641548 3.042013 0.713344
0.650076 95.722488 2.349327 0.733333
0.539902 95.641548 1.652911 0.730526
0.650072 95.722488 0.951271 0.752941
0.650074 95.722488 0.249615 0.743145
-2.543002 93.376663 -0.000008 0.545434
-5.687828 91.066292 -0.000005 0.539437
-7.695525 89.591324 -0.000004 0.644327
-9.090948 88.566162 -0.000003 0.546181
-10.119031 87.810875 -0.000003 0.551644
0.708637 95.580894 7.338191 0.203922
0.793797 95.642548 6.625496 0.716106
0.905621 95.723503 5.921963 0.729793
0.793797 95.642548 5.176820 0.709804
0.708626 95.580887 4.451660 0.193713
0.708626 95.580887 3.747421 0.180941
0.793797 95.642548 3.052120 0.727306
0.905605 95.723495 2.352714 0.721569
0.793795 95.642548 1.649544 0.722484
0.905607 95.723495 0.941099 0.730526
0.905605 95.723495 0.232638 0.749645
-2.471490 93.278603 -0.000008 0.520500
-5.632364 90.990242 -0.000005 0.525292
-7.650308 89.529320 -0.000004 0.554009
-9.052855 88.513931 -0.000003 0.558465
-10.086184 87.765839 -0.000003 0.543114
0.966249 95.581917 7.390740 0.179995
1.052673 95.643570 6.671029 0.711925
1.166168 95.724533 5.960569 0.736614
1.052675 95.643570 5.208093 0.709804
0.966228 95.581902 4.475793 0.240055
0.966230 95.581902 3.764622 0.212482
1.052675 95.643570 3.062476 0.739055
1.166149 95.724518 2.356187 0.726436
1.052673 95.643570 1.646094 0.733639
1.166151 95.724525 0.930676 0.750179
1.166153 95.724525 0.215240 0.737011
-2.400658 93.180046 -0.000008 0.539178
-5.577431 90.913803 -0.000006 0.509773
-7.605527 89.467010 -0.000004 0.572335
-9.015127 88.461433 -0.000003 0.540322
-10.053657 87.720566 -0.000002 0.536141
1.228996 95.582954 7.444602 0.160784
1.316721 95.644615 6.717701 0.698039
