# This PCD file was generated using the MATLABÂ® pcwrite function
# from Computer Vision ToolboxÂ®.
# .PCD v.7 - Point Cloud Data file format
VERSION .7
FIELDS x y z intensity
SIZE 4 4 4 4
TYPE F F F F
COUNT 1 1 1 1
WIDTH 1248
HEIGHT 1
VIEWPOINT 0 0 0 1 0 0 0
POINTS 1248
DATA ascii
-55.202644 -86.567451 8.997620 0.604685
-55.240883 -86.431839 7.443156 0.609613
-55.240883 -86.431839 5.879610 0.644800
-55.202637 -86.567459 4.317513 0.622705
-55.202641 -86.567459 2.771953 0.663005
-55.204842 -86.559654 1.227914 0.642710
-53.448456 -92.788422 0.000018 0.540520
-49.019531 -108.494987 0.000010 0.534508
-47.118019 -115.238434 0.000007 0.542885
-46.058975 -118.994194 0.000005 0.525353
-45.382862 -121.391922 0.000004 0.524865
-44.912941 -123.058441 0.000003 0.522194
-44.566719 -124.286263 0.000003 0.544274
nan nan nan 0.000000
nan nan nan 0.000000
nan nan nan 0.000000
-54.861130 -86.567459 8.984040 0.601251
-54.925789 -86.331863 7.444520 0.730053
-54.925789 -86.331848 5.880583 0.678431
-54.861130 -86.567451 4.313018 0.661860
-54.861126 -86.567459 2.770455 0.623987
-54.925789 -86.331863 1.225546 0.678431
-53.174648 -92.712234 0.000018 0.540566
-48.855476 -108.449348 0.000010 0.542748
-47.001091 -115.205902 0.000007 0.534539
-45.968288 -118.968964 0.000005 0.541192
-45.308933 -121.371361 0.000004 0.545556
-44.850658 -123.041115 0.000003 0.533318
-44.513020 -124.271317 0.000003 0.534813
nan nan nan 0.000000
nan nan nan 0.000000
nan nan nan 0.000000
-54.520924 -86.567444 8.970856 0.559930
-54.583817 -86.331856 7.434239 0.709926
-54.583820 -86.331848 5.873257 0.678431
-54.520920 -86.567451 4.308650 0.647547
-54.520920 -86.567451 2.769000 0.668742
-54.583817 -86.331848 1.227009 0.677607
-52.900307 -92.637978 0.000018 0.534936
-48.691113 -108.404846 0.000010 0.537118
-46.883938 -115.174187 0.000007 0.551034
-45.877434 -118.944366 0.000005 0.553643
-45.234863 -121.351311 0.000004 0.530922
-44.788254 -123.024223 0.000003 0.527367
-44.459213 -124.256752 0.000003 0.511894
nan nan nan 0.000000
nan nan nan 0.000000
nan nan nan 0.000000
-54.181980 -86.567444 8.958055 0.525505
-54.217167 -86.431854 7.412378 0.678431
-54.243122 -86.331841 5.866147 0.678431
-54.181984 -86.567444 4.304413 0.502678
-54.181984 -86.567444 2.767589 0.632822
-54.243122 -86.331833 1.228428 0.679164
-52.625458 -92.565620 0.000018 0.537713
-48.526436 -108.361504 0.000010 0.542519
-46.766563 -115.143288 0.000006 0.532845
-45.786404 -118.920403 0.000005 0.563836
-45.160656 -121.331772 0.000004 0.530877
-44.725739 -123.007767 0.000003 0.509819
-44.405308 -124.242561 0.000002 0.539849
nan nan nan 0.000000
nan nan nan 0.000000
nan nan nan 0.000000
-53.844269 -86.567451 8.945642 0.581308
-53.878448 -86.431854 7.402723 0.678431
-53.903656 -86.331848 5.859249 0.678431
-53.844273 -86.567444 4.300301 0.618387
-53.844273 -86.567436 2.766219 0.587549
-53.903656 -86.331833 1.229804 0.678431
-52.350113 -92.495193 0.000018 0.543465
-48.361465 -108.319305 0.000010 0.538415
-46.648979 -115.113220 0.000007 0.535866
-45.695213 -118.897079 0.000005 0.538460
-45.086315 -121.312759 0.000004 0.531472
-44.663105 -122.991745 0.000003 0.520241
-44.351307 -124.228752 0.000002 0.522927
nan nan nan 0.000000
nan nan nan 0.000000
nan nan nan 0.000000
-53.507740 -86.567444 8.933609 0.542809
-53.540913 -86.431854 7.393362 0.662882
-53.565384 -86.331833 5.852563 0.693385
-53.507744 -86.567436 4.296318 0.630076
-53.507744 -86.567429 2.764892 0.640757
-53.540916 -86.431824 1.232823 0.638025
-52.074280 -92.426697 0.000018 0.539712
-48.196198 -108.278267 0.000010 0.536019
-46.531189 -115.083954 0.000006 0.533715
-45.603863 -118.874390 0.000005 0.527794
-45.011841 -121.294266 0.000004 0.557809
-44.600365 -122.976166 0.000003 0.560174
-44.297207 -124.215317 0.000003 0.563958
nan nan nan 0.000000
nan nan nan 0.000000
nan nan nan 0.000000
-53.172356 -86.567444 8.921957 0.596887
-53.204533 -86.431831 7.384301 0.662013
-53.228252 -86.331848 5.846087 0.678431
-53.172359 -86.567436 4.292457 0.629969
-53.172356 -86.567444 2.763608 0.622324
-53.172356 -86.567444 1.236393 0.616846
-51.797970 -92.360123 0.000018 0.538598
-48.030651 -108.238373 0.000010 0.540322
-46.413193 -115.055527 0.000006 0.535485
-45.512352 -118.852341 0.000005 0.526665
-44.937241 -121.276291 0.000004 0.555611
-44.537514 -122.961021 0.000003 0.543572
-44.243015 -124.202255 0.000002 0.524086
nan nan nan 0.000000
nan nan nan 0.000000
nan nan nan 0.000000
-52.838089 -86.567436 8.910681 0.491020
-52.869267 -86.431824 7.375528 0.661402
-52.892250 -86.331863 5.839820 0.678431
-52.838089 -86.567444 4.288723 0.557351
-52.838089 -86.567444 2.762362 0.554070
-52.838089 -86.567444 1.237638 0.599069
-51.521210 -92.295471 0.000018 0.543770
-47.864834 -108.199638 0.000010 0.534768
-46.295006 -115.027924 0.000006 0.543572
-45.420692 -118.830933 0.000005 0.532723
-44.862514 -121.258835 0.000003 0.554086
-44.474564 -122.946320 0.000003 0.544747
-44.188736 -124.189575 0.000003 0.531960
nan nan nan 0.000000
nan nan nan 0.000000
nan nan nan 0.000000
-52.504883 -86.567451 8.899771 0.534890
-52.535069 -86.431831 7.367043 0.687495
-52.557320 -86.331848 5.833760 0.678431
-52.504883 -86.567444 4.285110 0.582696
-52.504883 -86.567444 2.761158 0.584405
-52.504883 -86.567444 1.238841 0.642817
-51.244003 -92.232758 0.000018 0.539971
-47.698746 -108.162064 0.000010 0.539132
-46.176628 -115.001144 0.000006 0.546578
-45.328884 -118.810165 0.000005 0.539757
-44.787670 -121.241898 0.000004 0.555093
-44.411507 -122.932053 0.000003 0.552712
-44.134369 -124.177277 0.000002 0.540185
nan nan nan 0.000000
nan nan nan 0.000000
nan nan nan 0.000000
-52.172714 -86.567444 8.889236 0.623346
-52.172714 -86.567451 7.342889 0.647059
-52.223427 -86.331848 5.827905 0.678431
-52.172714 -86.567444 4.281619 0.597574
-52.172714 -86.567459 2.759996 0.617685
-52.172714 -86.567459 1.240004 0.659419
-50.966362 -92.171982 0.000018 0.538964
-47.532398 -108.125648 0.000010 0.548074
-46.058064 -114.975189 0.000006 0.530297
-45.236931 -118.790031 0.000005 0.535134
-44.712708 -121.225494 0.000004 0.542947
-44.348354 -122.918228 0.000003 0.520745
-44.079914 -124.165359 0.000003 0.525277
nan nan nan 0.000000
nan nan nan 0.000000
nan nan nan 0.000000
-51.841553 -86.567444 8.879067 0.660075
-51.869751 -86.431839 7.350937 0.678431
-51.890541 -86.331848 5.822257 0.678431
-51.841545 -86.567459 4.278252 0.569055
-51.841545 -86.567459 2.758875 0.644038
-51.841545 -86.567459 1.241125 0.623529
-50.688309 -92.113159 0.000018 0.539117
-47.365807 -108.090393 0.000010 0.533730
-45.939323 -114.950058 0.000006 0.556542
-45.144844 -118.770554 0.000005 0.550744
-44.637634 -121.209610 0.000004 0.541939
-44.285107 -122.904846 0.000003 0.518883
-44.025383 -124.153816 0.000002 0.558663
nan nan nan 0.000000
nan nan nan 0.000000
nan nan nan 0.000000
-51.511333 -86.567444 8.869263 0.636728
-51.538544 -86.431854 7.343310 0.637995
-51.538544 -86.431847 5.808445 0.666224
-51.511330 -86.567459 4.275004 0.557595
-51.511330 -86.567459 2.757793 0.605509
-51.558613 -86.331848 1.238275 0.676036
-50.409843 -92.056259 0.000018 0.543893
-47.198963 -108.056313 0.000010 0.547433
-45.820404 -114.925766 0.000006 0.546044
-45.052620 -118.751709 0.000005 0.556985
-44.562454 -121.194244 0.000004 0.542412
-44.221767 -122.891907 0.000003 0.537362
-43.970764 -124.142662 0.000002 0.550347
nan nan nan 0.000000
nan nan nan 0.000000
nan nan nan 0.000000
-51.182049 -86.567444 8.859820 0.685039
-51.182045 -86.567444 7.320075 0.547860
-51.227615 -86.331856 5.811560 0.678431
-51.182045 -86.567459 4.271877 0.547860
-51.182045 -86.567451 2.756751 0.555703
-51.227615 -86.331848 1.239321 0.676722
-50.130989 -92.001312 0.000018 0.539956
-47.031891 -108.023392 0.000010 0.538079
-45.701324 -114.902298 0.000006 0.529900
-44.960266 -118.733505 0.000004 0.534829
-44.487164 -121.179413 0.000004 0.531640
-44.158340 -122.879410 0.000003 0.527260
-43.916077 -124.131889 0.000002 0.511467
nan nan nan 0.000000
nan nan nan 0.000000
nan nan nan 0.000000
-50.853653 -86.567444 8.850735 0.543160
-50.853653 -86.567444 7.313031 0.643397
-50.897518 -86.331848 5.806513 0.678431
-50.853653 -86.567444 4.268869 0.561898
-50.853653 -86.567444 2.755750 0.530358
-50.897522 -86.331848 1.240328 0.678065
-49.851768 -91.948311 0.000018 0.541299
-46.864597 -107.991638 0.000010 0.545113
-45.582085 -114.879669 0.000006 0.544030
-44.867790 -118.715958 0.000005 0.529427
-44.411774 -121.165100 0.000004 0.572610
-44.094826 -122.867348 0.000003 0.528771
-43.861313 -124.121490 0.000002 0.531792
nan nan nan 0.000000
nan nan nan 0.000000
nan nan nan 0.000000
-50.526108 -86.567444 8.842007 0.558114
-50.526108 -86.567459 7.306260 0.618723
-50.568275 -86.331848 5.801665 0.678431
-50.526108 -86.567444 4.265980 0.575967
-50.526108 -86.567451 2.754786 0.557610
-50.568275 -86.331856 1.241296 0.678431
-49.572174 -91.897270 0.000018 0.539910
-46.697079 -107.961052 0.000010 0.535485
-45.462688 -114.857864 0.000006 0.538796
-44.775192 -118.699051 0.000005 0.524697
-44.336288 -121.151321 0.000004 0.538170
-44.031231 -122.855743 0.000003 0.537987
-43.806477 -124.111481 0.000003 0.549416
nan nan nan 0.000000
nan nan nan 0.000000
nan nan nan 0.000000
-50.199379 -86.567444 8.833635 0.592874
-50.199375 -86.567459 7.299767 0.562188
-50.239849 -86.331848 5.797012 0.678431
-50.199375 -86.567444 4.263206 0.556527
-50.199375 -86.567444 2.753863 0.569238
-50.239849 -86.331848 1.242225 0.678431
-49.292233 -91.848175 0.000018 0.540246
-46.529354 -107.931633 0.000010 0.540261
-45.343143 -114.836899 0.000006 0.538994
-44.682480 -118.682785 0.000004 0.520150
-44.260704 -121.138062 0.000003 0.507668
-43.967552 -122.844566 0.000003 0.552392
-43.751575 -124.101845 0.000002 0.555703
nan nan nan 0.000000
nan nan nan 0.000000
nan nan nan 0.000000
-49.873436 -86.567444 8.825618 0.562875
-49.873436 -86.567459 7.293548 0.634806
-49.912216 -86.331848 5.792558 0.709804
-49.873436 -86.567444 4.260550 0.579355
-49.873436 -86.567444 2.752978 0.562661
-49.895756 -86.431847 1.244772 0.678431
-49.011963 -91.801025 0.000019 0.543252
-46.361431 -107.903389 0.000010 0.536645
-45.223454 -114.816772 0.000006 0.531991
-44.589657 -118.667175 0.000004 0.528054
-44.185032 -121.125336 0.000003 0.546288
-43.903801 -122.833847 0.000003 0.536583
-43.696606 -124.092606 0.000002 0.574670
nan nan nan 0.000000
nan nan nan 0.000000
nan nan nan 0.000000
-49.548241 -86.567444 8.817947 0.591959
-49.548237 -86.567459 7.287601 0.623606
-49.548237 -86.567444 5.768740 0.670527
-49.548241 -86.567444 4.258010 0.566125
-49.548233 -86.567459 2.752132 0.573358
-49.585331 -86.331848 1.243965 0.672175
-48.731361 -91.755844 0.000018 0.541604
-46.193310 -107.876328 0.000010 0.538964
-45.103626 -114.797478 0.000006 0.536828
-44.496727 -118.652214 0.000004 0.543236
-44.109272 -121.113136 0.000003 0.540612
-43.839977 -122.823570 0.000003 0.536599
-43.641571 -124.083740 0.000002 0.507332
nan nan nan 0.000000
nan nan nan 0.000000
nan nan nan 0.000000
-49.223755 -86.567444 8.810629 0.604013
-49.223751 -86.567444 7.281926 0.552117
-49.223751 -86.567444 5.764693 0.673320
-49.223751 -86.567444 4.255587 0.559564
-49.223751 -86.567444 2.751324 0.570779
-49.259163 -86.331841 1.244776 0.700008
-48.450451 -91.712631 0.000019 0.543023
-46.025005 -107.850426 0.000010 0.541588
-44.983665 -114.779015 0.000006 0.547311
-44.403694 -118.637894 0.000004 0.505165
-44.033428 -121.101463 0.000003 0.527657
-43.776081 -122.813736 0.000003 0.541970
-43.586479 -124.075264 0.000002 0.537835
nan nan nan 0.000000
nan nan nan 0.000000
nan nan nan 0.000000
-48.899948 -86.567451 8.803652 0.617700
-48.899948 -86.567444 7.276517 0.400366
-48.899948 -86.567444 5.760839 0.620829
-48.899948 -86.567444 4.253278 0.528801
-48.899948 -86.567459 2.750556 0.494514
-48.933678 -86.331848 1.245549 0.675547
-48.169250 -91.671364 0.000018 0.538796
-45.856525 -107.825699 0.000010 0.537346
-44.863583 -114.761398 0.000006 0.540444
-44.310562 -118.624229 0.000004 0.546441
-43.957504 -121.090324 0.000003 0.536950
-43.712116 -122.804352 0.000003 0.553033
-43.531326 -124.067169 0.000002 0.555123
nan nan nan 0.000000
nan nan nan 0.000000
nan nan nan 0.000000
-48.576797 -86.567444 8.797027 0.604166
-48.576797 -86.567444 7.271377 0.487663
-48.576794 -86.567451 5.757174 0.651499
-48.576794 -86.567444 4.251082 0.555886
-48.576794 -86.567444 2.749825 0.558114
-48.608849 -86.331848 1.246284 0.676219
-47.887768 -91.632072 0.000019 0.540856
-45.687874 -107.802170 0.000011 0.536477
-44.743378 -114.744614 0.000006 0.550271
-44.217339 -118.611214 0.000004 0.541405
-43.881504 -121.079712 0.000003 0.544671
-43.648090 -122.795418 0.000003 0.534554
-43.476120 -124.059464 0.000002 0.503380
nan nan nan 0.000000
nan nan nan 0.000000
nan nan nan 0.000000
-48.254253 -86.567459 8.790742 0.634089
-48.254257 -86.567444 7.266504 0.588983
-48.254253 -86.567459 5.753702 0.624430
-48.254253 -86.567451 4.249001 0.546319
-48.254253 -86.567451 2.749131 0.552117
-48.284634 -86.331848 1.246981 0.708339
-47.606018 -91.594742 0.000018 0.540520
-45.519070 -107.779800 0.000010 0.545647
-44.623058 -114.728676 0.000006 0.533425
-44.124027 -118.598854 0.000004 0.548913
-43.805435 -121.069641 0.000004 0.543221
-43.584003 -122.786919 0.000002 0.537591
-43.420860 -124.052147 0.000002 0.548516
nan nan nan 0.000000
nan nan nan 0.000000
nan nan nan 0.000000
-47.932285 -86.567451 8.784800 0.625086
-47.932289 -86.567444 7.261895 0.559640
-47.948811 -86.431839 5.761619 0.678431
-47.932289 -86.567444 4.247032 0.579065
-47.932285 -86.567451 2.748476 0.538781
-47.948811 -86.431847 1.249289 0.642145
-47.324013 -91.559372 0.000018 0.541985
-45.350105 -107.758614 0.000011 0.542565
-44.502628 -114.713577 0.000006 0.539788
-44.030628 -118.587143 0.000004 0.558419
-43.729294 -121.060089 0.000003 0.517601
-43.519855 -122.778877 0.000002 0.559106
-43.365551 -124.045204 0.000002 0.546868
nan nan nan 0.000000
nan nan nan 0.000000
nan nan nan 0.000000
-47.610874 -86.567459 8.779198 0.600549
-47.610878 -86.567451 7.257549 0.586725
-47.637917 -86.331841 5.766767 0.678431
-47.610874 -86.567459 4.245176 0.628565
-47.610878 -86.567451 2.747858 0.576211
-47.637917 -86.331841 1.248261 0.709804
-47.041767 -91.525993 0.000019 0.539788
-45.181000 -107.738602 0.000011 0.549783
-44.382099 -114.699310 0.000006 0.548089
-43.937153 -118.576080 0.000004 0.541924
-43.653091 -121.051071 0.000003 0.518975
-43.455658 -122.771286 0.000002 0.568048
-43.310196 -124.038658 0.000002 0.522484
nan nan nan 0.000000
nan nan nan 0.000000
nan nan nan 0.000000
-47.289974 -86.567444 8.773937 0.622431
-47.289974 -86.567444 7.253469 0.609674
-47.315350 -86.331833 5.763843 0.678431
-47.289974 -86.567444 4.243434 0.644862
-47.289970 -86.567444 2.747278 0.602625
-47.315350 -86.331833 1.248845 0.678126
-46.759300 -91.494553 0.000019 0.537621
-45.011761 -107.719780 0.000010 0.550408
-44.261471 -114.685898 0.000006 0.537667
-43.843601 -118.565674 0.000004 0.539055
-43.576824 -121.042587 0.000003 0.494057
-43.391403 -122.764137 0.000003 0.535973
-43.254795 -124.032494 0.000002 0.494942
nan nan nan 0.000000
nan nan nan 0.000000
nan nan nan 0.000000
-46.969559 -86.567444 8.769011 0.604044
-46.969559 -86.567444 7.249650 0.533913
-46.993271 -86.331848 5.761106 0.678431
-46.969555 -86.567444 4.241803 0.658122
-46.969559 -86.567444 2.746733 0.559274
-46.993271 -86.331848 1.249391 0.678386
-46.476616 -91.465103 0.000019 0.541039
-44.842392 -107.702133 0.000011 0.541741
-44.140755 -114.673317 0.000006 0.546715
-43.749981 -118.555923 0.000004 0.542138
-43.500504 -121.034637 0.000003 0.509285
-43.327106 -122.757439 0.000002 0.519142
-43.199356 -124.026718 0.000002 0.570993
nan nan nan 0.000000
nan nan nan 0.000000
nan nan nan 0.000000
-46.649590 -86.567459 8.764421 0.593393
-46.649590 -86.567444 7.246092 0.537224
-46.671638 -86.331856 5.758554 0.678431
-46.649590 -86.567444 4.240284 0.616739
-46.649590 -86.567444 2.746228 0.573175
-46.671642 -86.331833 1.249900 0.678431
-46.193733 -91.437637 0.000019 0.541375
-44.672905 -107.685677 0.000010 0.540719
-44.019955 -114.661583 0.000005 0.531823
-43.656292 -118.546822 0.000004 0.547997
-43.424126 -121.027214 0.000003 0.519417
-43.262760 -122.751190 0.000002 0.528099
-43.143875 -124.021332 0.000002 0.541176
nan nan nan 0.000000
nan nan nan 0.000000
nan nan nan 0.000000
-46.330040 -86.567444 8.760168 0.574563
-46.330040 -86.567444 7.242794 0.590417
-46.350437 -86.331848 5.756193 0.678431
-46.330040 -86.567444 4.238875 0.605188
-46.330040 -86.567444 2.745759 0.622232
-46.350433 -86.331848 1.250372 0.669383
-45.910671 -91.412125 0.000018 0.540948
-44.503307 -107.670395 0.000010 0.536522
-43.899075 -114.650696 0.000005 0.557153
-43.562546 -118.538376 0.000004 0.556283
-43.347698 -121.020332 0.000003 0.498833
-43.198376 -122.745384 0.000002 0.569085
-43.088356 -124.016327 0.000002 0.567529
nan nan nan 0.000000
nan nan nan 0.000000
nan nan nan 0.000000
-46.010876 -86.567451 8.756250 0.641917
-46.010876 -86.567451 7.239754 0.522377
-46.029613 -86.331848 5.754016 0.667521
-46.010876 -86.567451 4.237577 0.589456
-46.010876 -86.567451 2.745327 0.593088
-46.029613 -86.331848 1.250805 0.658701
-45.627430 -91.388618 0.000018 0.538308
-44.333607 -107.656303 0.000010 0.541619
-43.778118 -114.640648 0.000005 0.532753
-43.468739 -118.530586 0.000004 0.562814
-43.271225 -121.013985 0.000003 0.556649
-43.133949 -122.740036 0.000003 0.542138
-43.032806 -124.011719 0.000002 0.553796
nan nan nan 0.000000
nan nan nan 0.000000
nan nan nan 0.000000
-45.692070 -86.567444 8.752667 0.582544
-45.692070 -86.567444 7.236975 0.560388
-45.709152 -86.331848 5.752024 0.678431
-45.692070 -86.567444 4.236391 0.585840
-45.692070 -86.567444 2.744932 0.567208
-45.709152 -86.331848 1.251203 0.673701
-45.344040 -91.367065 0.000018 0.540368
-44.163815 -107.643394 0.000011 0.530663
-43.657101 -114.631454 0.000006 0.544457
-43.374882 -118.523453 0.000004 0.520455
-43.194714 -121.008163 0.000003 0.564202
-43.069485 -122.735138 0.000002 0.516747
-42.977226 -124.007492 0.000002 0.545205
nan nan nan 0.000000
nan nan nan 0.000000
nan nan nan 0.000000
-45.373573 -86.567459 8.749413 0.630076
-45.373573 -86.567451 7.234452 0.536461
-45.389008 -86.331856 5.750216 0.678431
-45.373573 -86.567451 4.235312 0.614023
-45.373573 -86.567451 2.744572 0.566827
-45.389004 -86.331848 1.251564 0.678431
-45.060497 -91.347504 0.000018 0.539361
-43.993931 -107.631676 0.000010 0.526421
-43.536015 -114.623093 0.000006 0.536446
-43.280975 -118.516975 0.000004 0.546044
-43.118156 -121.002884 0.000003 0.522255
-43.004990 -122.730682 0.000002 0.527138
-42.921616 -124.003654 0.000002 0.566308
nan nan nan 0.000000
nan nan nan 0.000000
nan nan nan 0.000000
-45.055386 -86.567459 8.746493 0.593561
-45.055386 -86.567444 7.232188 0.650919
-45.069164 -86.331848 5.748594 0.678431
-45.055386 -86.567451 4.234347 0.618647
-45.055382 -86.567459 2.744251 0.591485
-45.069164 -86.331848 1.251888 0.678431
-44.776833 -91.329926 0.000019 0.536873
-43.823975 -107.621140 0.000010 0.534249
-43.414879 -114.615585 0.000005 0.547997
-43.187031 -118.511154 0.000004 0.534295
-43.041569 -120.998138 0.000003 0.567758
-42.940468 -122.726685 0.000003 0.544991
-42.865982 -124.000206 0.000002 0.542290
nan nan nan 0.000000
nan nan nan 0.000000
nan nan nan 0.000000
-44.737446 -86.567459 8.743902 0.562585
-44.737446 -86.567451 7.230179 0.561730
-44.749580 -86.331848 5.747155 0.678431
-44.737450 -86.567444 4.233489 0.588907
-44.737446 -86.567444 2.743964 0.585412
-44.749577 -86.331848 1.252175 0.678431
-44.493050 -91.314316 0.000018 0.541314
-43.653950 -107.611786 0.000010 0.527169
-43.293690 -114.608917 0.000005 0.539925
-43.093044 -118.505981 0.000004 0.528740
-42.964951 -120.993919 0.000003 0.513832
-42.875916 -122.723137 0.000003 0.565957
-42.810322 -123.997147 0.000002 0.535088
nan nan nan 0.000000
nan nan nan 0.000000
nan nan nan 0.000000
-44.419731 -86.567451 8.741646 0.597284
-44.419731 -86.567444 7.228428 0.571237
-44.430214 -86.331848 5.745900 0.678431
-44.419735 -86.567444 4.232741 0.617014
-44.419735 -86.567444 2.743716 0.579019
-44.430214 -86.331848 1.252426 0.674846
-44.209156 -91.300697 0.000018 0.541344
-43.483856 -107.603622 0.000010 0.538460
-43.172455 -114.603104 0.000005 0.554314
-42.999023 -118.501472 0.000004 0.544945
-42.888298 -120.990242 0.000003 0.553445
-42.811344 -122.720039 0.000002 0.513207
-42.754646 -123.994476 0.000002 0.509285
nan nan nan 0.000000
nan nan nan 0.000000
nan nan nan 0.000000
-44.102226 -86.567451 8.739716 0.576944
-44.102226 -86.567444 7.226932 0.602029
-44.111057 -86.331848 5.744829 0.678431
-44.102226 -86.567444 4.232100 0.652445
-44.102226 -86.567444 2.743503 0.574243
-44.102226 -86.567444 1.256498 0.672724
-43.925186 -91.289047 0.000018 0.540230
-43.313717 -107.596649 0.000010 0.538567
-43.051189 -114.598129 0.000005 0.534661
-42.904976 -118.497612 0.000004 0.548318
-42.811630 -120.987099 0.000003 0.537667
-42.746750 -122.717392 0.000002 0.526146
-42.698952 -123.992188 0.000002 0.515923
nan nan nan 0.000000
nan nan nan 0.000000
nan nan nan 0.000000
-43.784878 -86.567459 8.738115 0.589944
-43.784878 -86.567444 7.225692 0.557885
-43.792065 -86.331848 5.743940 0.678431
-43.784874 -86.567451 4.231571 0.581857
-43.784878 -86.567459 2.743327 0.566110
-43.784878 -86.567459 1.256674 0.635111
-43.641132 -91.279388 0.000018 0.538033
-43.143528 -107.590858 0.000011 0.540017
-42.929886 -114.594009 0.000005 0.542916
-42.810898 -118.494415 0.000004 0.545495
-42.734936 -120.984497 0.000003 0.525307
-42.682140 -122.715195 0.000002 0.559136
-42.643242 -123.990295 0.000001 0.585107
nan nan nan 0.000000
-43.645264 -79.016792 13.440182 0.587427
-43.645264 -79.016769 11.638018 0.656916
-43.467670 -86.567444 8.736847 0.577066
-43.467670 -86.567444 7.224706 0.627375
-43.473213 -86.331848 5.743234 0.678431
-43.467670 -86.567444 4.231151 0.550500
-43.467670 -86.567444 2.743186 0.492134
-43.467670 -86.567451 1.256814 0.661158
-43.357025 -91.271698 0.000018 0.538811
-42.973309 -107.586266 0.000010 0.534066
-42.808563 -114.590729 0.000005 0.539437
-42.716808 -118.491867 0.000004 0.556680
-42.658230 -120.982422 0.000003 0.538994
-42.617516 -122.713448 0.000002 0.531945
-42.587521 -123.988785 0.000001 0.564660
nan nan nan 0.000000
-43.275421 -79.016777 13.438585 0.614054
-43.277664 -78.881218 11.661338 0.678431
-43.150562 -86.567451 8.735904 0.532586
-43.150566 -86.567444 7.223976 0.613809
-43.154461 -86.331848 5.742710 0.678431
-43.150562 -86.567451 4.230838 0.557092
-43.150562 -86.567444 2.743083 0.544549
-43.150562 -86.567444 1.256918 0.580850
-43.072868 -91.266022 0.000018 0.539498
-42.803055 -107.582855 0.000010 0.549050
-42.687214 -114.588303 0.000005 0.536782
-42.622696 -118.489983 0.000004 0.536522
-42.581509 -120.980881 0.000003 0.559609
-42.552879 -122.712151 0.000002 0.509743
-42.531788 -123.987671 0.000002 0.515679
nan nan nan 0.000000
-42.905670 -79.016785 13.437541 0.562295
-42.906967 -78.881210 11.660459 0.657115
-42.833534 -86.567444 8.735291 0.494469
-42.833534 -86.567444 7.223499 0.572854
-42.835785 -86.331848 5.742370 0.678431
-42.833534 -86.567444 4.230636 0.546471
-42.833538 -86.567444 2.743014 0.517601
-42.833534 -86.567451 1.256986 0.612634
-42.788681 -91.262321 0.000018 0.535653
-42.632790 -107.580627 0.000010 0.556374
-42.565857 -114.586716 0.000005 0.552285
-42.528580 -118.488762 0.000004 0.540581
-42.504780 -120.979889 0.000003 0.537560
-42.488239 -122.711311 0.000002 0.531014
-42.476051 -123.986946 0.000002 0.554055
nan nan nan 0.000000
-42.535965 -79.016785 13.437058 0.537438
-42.536312 -78.881210 11.660048 0.647059
-42.516544 -86.567459 8.735004 0.483253
-42.516544 -86.567444 7.223278 0.658671
-42.517151 -86.331848 5.742210 0.669703
-42.516544 -86.567459 4.230542 0.513573
-42.516544 -86.567444 2.742984 0.525093
-42.516544 -86.567444 1.257017 0.598535
-42.504475 -91.260590 0.000018 0.541421
-42.462505 -107.579597 0.000010 0.542885
-42.444489 -114.585976 0.000005 0.538277
-42.434452 -118.488190 0.000004 0.544594
-42.428043 -120.979416 0.000003 0.523796
-42.423592 -122.710915 0.000002 0.522744
-42.420311 -123.986610 0.000002 0.580224
nan nan nan 0.000000
-42.166271 -79.016785 13.437131 0.487343
-42.165672 -78.881210 11.660111 0.662486
-42.199570 -86.567444 8.735048 0.533761
-42.199570 -86.567444 7.223310 0.613947
-42.198528 -86.331856 5.742235 0.680339
-42.199570 -86.567444 4.230555 0.520684
-42.199566 -86.567444 2.742987 0.519203
-42.199566 -86.567444 1.257012 0.617304
-42.220264 -91.260857 0.000018 0.540093
-42.292221 -107.579758 0.000010 0.536843
-42.323116 -114.586090 0.000005 0.534188
-42.340324 -118.488274 0.000004 0.550103
-42.351307 -120.979485 0.000003 0.533410
-42.358944 -122.710976 0.000002 0.552285
-42.364571 -123.986656 0.000002 0.559136
nan nan nan 0.000000
-41.796555 -79.016785 13.437762 0.583978
-41.795010 -78.881218 11.660644 0.654337
-41.882568 -86.567444 8.735420 0.589334
-41.882565 -86.567444 7.223599 0.622827
-41.879883 -86.331848 5.742442 0.678431
-41.882568 -86.567451 4.230678 0.578668
-41.882568 -86.567444 2.743029 0.595544
-41.882568 -86.567444 1.256971 0.618433
-41.936058 -91.263123 0.000018 0.542016
-42.121944 -107.581100 0.000010 0.535897
-42.201748 -114.587051 0.000005 0.544289
-42.246197 -118.489021 0.000004 0.540566
-42.274574 -120.980095 0.000003 0.538582
-42.294296 -122.711487 0.000002 0.545892
-42.308830 -123.987099 0.000001 0.561440
nan nan nan 0.000000
-41.426785 -79.016785 13.438951 0.567697
-41.424294 -78.881210 11.661649 0.654902
-41.565521 -86.567459 8.736120 0.613825
-41.565521 -86.567451 7.224142 0.674601
-41.561192 -86.331848 5.742830 0.678431
-41.565521 -86.567444 4.230911 0.660212
-41.565525 -86.567444 2.743105 0.568276
-41.565525 -86.567444 1.256894 0.631647
-41.651878 -91.267334 0.000019 0.537789
-41.951679 -107.583641 0.000010 0.543069
-42.080395 -114.588852 0.000005 0.546288
-42.152081 -118.490417 0.000004 0.528847
-42.197849 -120.981232 0.000003 0.528450
-42.229656 -122.712448 0.000002 0.531685
-42.253094 -123.987930 0.000002 0.521233
nan nan nan 0.000000
-41.056915 -79.016785 13.440698 0.594491
-41.053474 -78.881210 11.663122 0.667094
-41.248390 -86.567444 8.737148 0.573632
-41.248390 -86.567444 7.224940 0.549996
-41.242416 -86.331848 5.743402 0.678431
-41.248390 -86.567444 4.231252 0.650248
-41.248390 -86.567459 2.743219 0.578851
-41.248390 -86.567459 1.256781 0.651789
-41.367729 -91.273544 0.000018 0.537301
-41.781433 -107.587357 0.000010 0.548699
-41.959049 -114.591507 0.000005 0.529992
-42.057976 -118.492477 0.000004 0.521691
-42.121128 -120.982910 0.000003 0.528847
-42.165024 -122.713860 0.000001 0.523171
-42.197365 -123.989151 0.000002 0.554665
nan nan nan 0.000000
-40.686920 -79.016785 13.443002 0.613108
-40.682533 -78.881195 11.665074 0.703212
-40.931156 -86.567444 8.738504 0.625742
-40.931152 -86.567459 7.225991 0.686366
-40.923534 -86.331848 5.744156 0.678431
-40.931152 -86.567444 4.231701 0.668559
-40.931152 -86.567444 2.743368 0.641672
-40.931152 -86.567444 1.256631 0.616464
-41.083641 -91.281746 0.000019 0.541405
-41.611221 -107.592270 0.000010 0.525322
-41.837730 -114.595009 0.000005 0.532891
-41.963886 -118.495186 0.000003 0.539467
-42.044426 -120.985123 0.000003 0.546288
-42.100407 -122.715729 0.000002 0.552575
-42.141647 -123.990753 0.000002 0.577142
nan nan nan 0.000000
-40.316750 -79.016785 13.445865 0.575982
-40.316746 -79.016792 11.642801 0.594461
-40.613762 -86.567459 8.740191 0.624170
-40.613762 -86.567444 7.227300 0.552224
-40.596886 -86.138481 5.760959 0.597925
-40.613762 -86.567451 4.232259 0.595529
-40.604496 -86.331848 2.747414 0.680522
-40.604496 -86.331848 1.252587 0.678431
-40.799606 -91.291916 0.000018 0.532891
-41.441044 -107.598366 0.000010 0.525154
-41.716438 -114.599358 0.000005 0.520516
-41.869816 -118.498558 0.000003 0.519280
-41.967739 -120.987869 0.000002 0.544030
-42.035797 -122.718040 0.000002 0.546349
-42.085941 -123.992752 0.000001 0.573922
nan nan nan 0.000000
-39.946373 -79.016769 13.449291 0.546075
-39.946377 -79.016785 11.645685 0.538827
-40.296204 -86.567459 8.742208 0.635523
-40.296200 -86.567451 7.228863 0.587915
-40.285286 -86.331833 5.746214 0.678431
-40.296204 -86.567444 4.232927 0.573404
-40.285286 -86.331848 2.747637 0.678431
-40.285286 -86.331841 1.252363 0.678431
-40.515656 -91.304092 0.000018 0.540124
-41.270912 -107.605652 0.000010 0.538674
-41.595177 -114.604546 0.000005 0.524208
-41.775776 -118.502586 0.000003 0.524681
-41.891071 -120.991158 0.000003 0.527489
-41.971207 -122.720810 0.000002 0.520027
-42.030247 -123.995132 0.000001 0.529610
nan nan nan 0.000000
-39.575768 -79.016785 13.453273 0.510781
-39.575768 -79.016785 11.649040 0.617746
-39.978436 -86.567459 8.744555 0.672862
-39.978439 -86.567451 7.230683 0.552270
-39.965874 -86.331841 5.747516 0.678431
-39.978439 -86.567451 4.233704 0.600626
-39.965874 -86.331848 2.747896 0.678431
-39.965874 -86.331848 1.252104 0.678431
-40.231792 -91.318214 0.000018 0.544747
-41.100842 -107.614128 0.000010 0.537484
-41.473957 -114.610596 0.000005 0.545953
-41.681763 -118.507271 0.000003 0.522637
-41.814434 -120.994980 0.000003 0.548730
-41.906643 -122.724022 0.000002 0.532082
-41.974575 -123.997910 0.000001 0.527901
nan nan nan 0.000000
-39.204880 -79.016777 13.457817 0.618891
-39.204876 -79.016785 11.652869 0.558907
-39.660435 -86.567459 8.747229 0.575357
-39.660431 -86.567451 7.232759 0.562188
-39.646217 -86.331848 5.749002 0.678431
-39.660431 -86.567451 4.234590 0.616785
-39.646217 -86.331848 2.748193 0.678431
-39.646217 -86.331848 1.251806 0.678431
-39.948036 -91.334335 0.000018 0.543999
-40.930828 -107.623787 0.000010 0.544137
-41.352783 -114.617470 0.000005 0.537041
-41.587788 -118.512611 0.000003 0.543160
-41.737820 -120.999329 0.000003 0.512001
-41.842098 -122.727692 0.000001 0.522316
-41.918922 -124.001076 0.000001 0.536568
nan nan nan 0.000000
-38.833683 -79.016769 13.462928 0.652750
-38.833683 -79.016785 11.657173 0.588632
-39.342167 -86.567459 8.750237 0.612940
-39.342167 -86.567451 7.235092 0.612696
-39.326302 -86.331848 5.750674 0.678431
-39.342167 -86.567451 4.235586 0.611139
-39.326302 -86.331848 2.748528 0.678431
-39.326302 -86.331848 1.251472 0.678431
-39.664402 -91.352463 0.000018 0.537820
-40.760895 -107.634644 0.000010 0.539788
-41.231659 -114.625206 0.000005 0.551934
-41.493851 -118.518608 0.000003 0.538491
-41.661240 -121.004219 0.000003 0.535592
-41.777580 -122.731812 0.000001 0.544335
-41.863297 -124.004623 0.000002 0.524529
nan nan nan 0.000000
-38.462135 -79.016769 13.468600 0.658701
-38.452057 -78.881210 11.686690 0.678431
-39.023602 -86.567444 8.753579 0.629038
-39.023602 -86.567444 7.237682 0.535988
-39.006081 -86.331848 5.752529 0.678431
-39.023598 -86.567444 4.236691 0.622339
-39.006081 -86.331848 2.748898 0.678431
-39.006081 -86.331848 1.251102 0.678431
-39.380901 -91.372543 0.000018 0.537575
-40.591034 -107.646683 0.000010 0.540093
-41.110592 -114.633789 0.000005 0.540993
-41.399960 -118.525261 0.000003 0.533059
-41.584698 -121.009644 0.000003 0.526894
-41.713097 -122.736382 0.000002 0.548241
-41.807693 -124.008560 0.000001 0.552346
nan nan nan 0.000000
-38.090202 -79.016762 13.474836 0.627741
-38.079170 -78.881218 11.691956 0.626856
-38.704700 -86.567444 8.757250 0.607584
-38.704700 -86.567444 7.240530 0.562249
-38.693665 -86.431854 5.746344 0.647120
-38.704700 -86.567451 4.237907 0.621378
-38.685524 -86.331848 2.749304 0.678431
-38.685524 -86.331841 1.250695 0.678431
-39.097546 -91.394608 0.000018 0.541680
-40.421265 -107.659897 0.000010 0.526497
-40.989590 -114.643211 0.000005 0.540017
-41.306114 -118.532570 0.000003 0.579034
-41.508190 -121.015602 0.000002 0.544427
-41.648643 -122.741394 0.000002 0.538857
-41.752121 -124.012894 0.000001 0.527779
nan nan nan 0.000000
-37.717842 -79.016769 13.481639 0.577325
-37.697014 -78.781204 11.715969 0.670710
-38.385433 -86.567459 8.761256 0.579232
-38.385433 -86.567451 7.243637 0.493797
-38.385433 -86.567459 5.737403 0.620233
-38.385433 -86.567459 4.239234 0.575067
-38.364601 -86.331833 2.749749 0.678431
-38.364601 -86.331833 1.250250 0.678431
-38.814350 -91.418640 0.000018 0.540215
-40.251587 -107.674294 0.000010 0.550927
-40.868652 -114.653473 0.000005 0.544656
-41.212322 -118.540535 0.000004 0.547524
-41.431728 -121.022095 0.000003 0.551659
-41.584225 -122.746872 0.000002 0.532464
-41.696579 -124.017609 0.000001 0.566476
nan nan nan 0.000000
-37.345028 -79.016769 13.489009 0.679805
-37.322540 -78.781197 11.722208 0.677287
-38.065777 -86.567451 8.765598 0.605936
-38.065781 -86.567459 7.247002 0.583902
-38.065777 -86.567459 5.739802 0.586740
-38.065777 -86.567444 4.240674 0.651606
-38.043289 -86.331848 2.750230 0.678431
-38.043289 -86.331848 1.249770 0.678431
-38.531330 -91.444649 0.000017 0.537026
-40.082020 -107.689896 0.000010 0.546166
-40.747791 -114.664581 0.000005 0.542351
-41.118591 -118.549149 0.000003 0.564492
-41.355316 -121.029114 0.000003 0.521859
-41.519848 -122.752785 0.000002 0.564019
-41.641071 -124.022705 0.000001 0.564126
nan nan nan 0.000000
-36.971710 -79.016769 13.496953 0.557275
-36.947563 -78.781204 11.728930 0.678431
-37.745693 -86.567459 8.770273 0.623590
-37.745689 -86.567451 7.250629 0.556207
-37.745693 -86.567459 5.742387 0.596414
-37.745693 -86.567444 4.242222 0.605356
-37.721542 -86.331848 2.750750 0.678431
-37.721542 -86.331848 1.249251 0.678431
-38.248501 -91.472664 0.000018 0.540948
-39.912563 -107.706665 0.000010 0.540764
-40.627010 -114.676537 0.000005 0.542046
-41.024921 -118.558426 0.000004 0.540337
-41.278954 -121.036674 0.000003 0.539574
-41.455517 -122.759155 0.000002 0.535210
-41.585598 -124.028198 0.000001 0.572473
nan nan nan 0.000000
-36.597862 -79.016762 13.505469 0.615259
-36.572056 -78.781181 11.736136 0.678431
-37.425156 -86.567451 8.775286 0.577218
-37.425156 -86.567459 7.254517 0.524804
-37.425152 -86.567459 5.745159 0.675288
-37.425152 -86.567459 4.243882 0.677791
-37.399338 -86.331848 2.751305 0.678431
-37.399338 -86.331848 1.248695 0.678431
-37.965874 -91.502625 0.000018 0.546166
-39.743229 -107.724609 0.000010 0.534234
-40.506313 -114.689331 0.000005 0.535866
-40.931316 -118.568344 0.000003 0.539544
-41.202644 -121.044762 0.000002 0.560571
-41.391228 -122.765968 0.000002 0.552468
-41.530167 -124.034081 0.000001 0.568460
nan nan nan 0.000000
-36.223442 -79.016777 13.514550 0.579232
-36.207634 -78.881218 11.725499 0.708354
-37.104118 -86.567451 8.780641 0.649042
-37.104118 -86.567459 7.258667 0.549706
-37.104118 -86.567459 5.748116 0.604364
-37.104118 -86.567459 4.245655 0.552331
-37.088299 -86.431847 2.750250 0.668132
-37.088299 -86.431839 1.249749 0.647059
-37.683456 -91.534561 0.000018 0.536721
-39.574020 -107.743752 0.000010 0.541695
-40.385712 -114.702980 0.000005 0.548104
-40.837784 -118.578926 0.000003 0.515862
-41.126396 -121.053391 0.000003 0.530785
-41.326988 -122.773239 0.000002 0.495109
-41.474777 -124.040344 0.000001 0.522713
nan nan nan 0.000000
-35.848419 -79.016769 13.524219 0.520073
-35.819275 -78.781212 11.752001 0.678431
-36.782570 -86.567459 8.786331 0.625956
-36.782566 -86.567459 7.263082 0.460258
-36.782570 -86.567451 5.751264 0.567132
-36.782570 -86.567459 4.247540 0.564660
-36.782570 -86.567459 2.748645 0.519265
-36.782570 -86.567459 1.251355 0.649607
-37.401279 -91.568481 0.000018 0.541115
-39.404957 -107.764069 0.000010 0.541466
-40.265213 -114.717461 0.000005 0.541924
-40.744331 -118.590157 0.000003 0.525887
-41.050209 -121.062546 0.000002 0.547967
-41.262806 -122.780952 0.000002 0.536110
-41.419437 -124.046997 0.000001 0.523064
nan nan nan 0.000000
-35.472736 -79.016769 13.534462 0.594873
-35.441925 -78.781204 11.760672 0.678431
-36.460453 -86.567451 8.792363 0.586465
-36.460457 -86.567459 7.267760 0.472786
-36.460453 -86.567459 5.754598 0.663493
-36.460453 -86.567459 4.249537 0.531594
-36.460453 -86.567451 2.749311 0.562829
-36.460453 -86.567451 1.250690 0.638972
-37.119339 -91.604370 0.000018 0.542916
-39.236034 -107.785568 0.000010 0.526497
-40.144810 -114.732773 0.000004 0.544717
-40.650955 -118.602043 0.000003 0.543877
-40.974087 -121.072235 0.000002 0.549325
-41.198673 -122.789108 0.000002 0.548241
-41.364140 -124.054031 0.000001 0.501778
nan nan nan 0.000000
-35.096378 -79.016777 13.545286 0.561776
-35.063889 -78.781212 11.769831 0.708583
-36.137760 -86.567459 8.798737 0.607263
-36.137760 -86.567459 7.272704 0.631525
-36.137756 -86.567459 5.758121 0.619638
-36.137760 -86.567459 4.251647 0.657832
-36.137756 -86.567459 2.750013 0.588586
-36.137756 -86.567459 1.249987 0.659907
-36.837666 -91.642212 0.000018 0.541070
-39.067268 -107.808250 0.000010 0.546105
-40.024525 -114.748947 0.000005 0.541848
-40.557667 -118.614571 0.000003 0.576318
-40.898033 -121.082451 0.000002 0.536858
-41.134602 -122.797722 0.000002 0.541680
-41.308895 -124.061455 0.000001 0.528222
nan nan nan 0.000000
-34.719276 -79.016769 13.556695 0.596796
-34.685108 -78.781204 11.779483 0.678431
-35.814426 -86.567451 8.805455 0.622950
-35.814430 -86.567459 7.277913 0.603586
-35.814426 -86.567444 5.761834 0.665293
-35.814426 -86.567451 4.253873 0.590280
-35.814430 -86.567459 2.750755 0.575235
-35.814430 -86.567459 1.249245 0.671229
-36.556244 -91.682014 0.000018 0.539818
-38.898659 -107.832092 0.000010 0.540597
-39.904346 -114.765945 0.000005 0.544060
-40.464466 -118.627762 0.000003 0.532357
-40.822052 -121.093201 0.000002 0.517510
-41.070591 -122.806778 0.000002 0.537392
-41.253700 -124.069260 0.000001 0.527443
nan nan nan 0.000000
-34.341415 -79.016769 13.568693 0.608698
-34.305573 -78.781204 11.789634 0.678431
-34.305573 -78.781204 9.980796 0.678431
-34.341415 -79.016785 8.162027 0.544579
-34.341419 -79.016777 6.391986 0.608698
-34.341419 -79.016769 4.631425 0.587076
-34.278530 -78.603516 2.883354 0.292103
-34.278530 -78.603516 1.116645 0.301961
-36.275120 -91.723785 0.000017 0.546929
-38.730225 -107.857117 0.000010 0.537804
-39.784294 -114.783783 0.000004 0.553201
-40.371361 -118.641594 0.000003 0.562310
-40.746151 -121.104477 0.000002 0.510536
-41.006645 -122.816277 0.000002 0.513100
-41.198566 -124.077454 0.000001 0.495705
nan nan nan 0.000000
-33.962761 -79.016769 13.581277 0.573831
-33.925232 -78.781212 11.800286 0.678431
-33.925228 -78.781204 9.989479 0.678431
-33.962765 -79.016769 8.168732 0.621805
-33.962761 -79.016777 6.396766 0.595682
-33.962761 -79.016769 4.634288 0.578836
-33.897171 -78.605072 2.884291 0.300404
-33.897171 -78.605072 1.115710 0.302129
-35.994293 -91.767532 0.000018 0.541527
-38.561970 -107.883331 0.000010 0.539040
-39.664368 -114.802452 0.000004 0.526879
-40.278355 -118.656082 0.000003 0.537865
-40.670330 -121.116287 0.000002 0.520378
-40.942768 -122.826225 0.000001 0.508263
-41.143490 -124.086029 0.000000 0.554849
nan nan nan 0.000000
-33.583260 -79.016785 13.594455 0.590295
-33.544037 -78.781219 11.811435 0.687465
-33.544037 -78.781212 9.998571 0.678431
-33.560684 -78.881203 8.191563 0.647639
-33.544037 -78.781219 6.421350 0.688640
-33.583260 -79.016785 4.637286 0.508019
-33.514969 -78.606606 2.885272 0.570672
-33.514969 -78.606606 1.114729 0.561502
-35.713776 -91.813232 0.000017 0.540612
-38.393898 -107.910706 0.000010 0.528222
-39.544579 -114.821976 0.000005 0.551400
-40.185452 -118.671219 0.000003 0.523156
-40.594593 -121.128632 0.000002 0.544564
-40.878960 -122.836624 0.000001 0.528313
-41.088470 -124.094994 0.000001 0.517968
nan nan nan 0.000000
-33.202873 -79.016777 13.608231 0.592157
-33.161964 -78.781219 11.823093 0.688731
-33.161964 -78.781204 10.008075 0.678431
-33.179329 -78.881210 8.198919 0.675120
-33.161964 -78.781204 6.426603 0.688548
-33.202873 -79.016777 4.640418 0.643442
-33.131920 -78.608208 2.886296 0.318608
-33.131920 -78.608208 1.113703 0.320378
-35.433594 -91.860870 0.000017 0.538628
-38.226028 -107.939262 0.000010 0.525689
-39.424927 -114.842331 0.000004 0.529076
-40.092655 -118.686996 0.000003 0.542245
-40.518944 -121.141495 0.000002 0.561654
-40.815228 -122.847458 0.000001 0.521431
-41.033520 -124.104340 0.000001 0.536919
nan nan nan 0.000000
-32.821556 -79.016769 13.622607 0.606485
-32.778950 -78.781212 11.835259 0.688548
-32.778950 -78.781204 10.017992 0.678431
-32.797039 -78.881210 8.206596 0.702296
-32.778954 -78.781212 6.432086 0.688365
-32.821564 -79.016785 4.643687 0.657420
-32.879261 -79.335800 2.875295 0.872724
-32.879265 -79.335800 1.124706 0.849607
-35.153740 -91.910492 0.000017 0.537194
-38.058357 -107.968987 0.000010 0.539513
-39.305416 -114.863510 0.000005 0.543206
-39.999969 -118.703430 0.000003 0.526650
-40.443382 -121.154884 0.000002 0.560021
-40.751572 -122.858742 0.000001 0.548730
-40.978634 -124.114075 0.000001 0.521187
nan nan nan 0.000000
-32.439285 -79.016777 13.637585 0.603922
-32.394974 -78.781219 11.847933 0.686839
-32.394978 -78.781204 10.028326 0.678431
-32.413784 -78.881210 8.214595 0.698528
-32.394978 -78.781219 6.437797 0.688075
-32.439285 -79.016777 4.647095 0.612161
-32.532478 -79.512222 2.873486 0.678431
-32.532478 -79.512222 1.126515 0.678431
-34.874245 -91.962051 0.000017 0.539818
-37.890896 -107.999878 0.000010 0.543648
-39.186062 -114.885529 0.000004 0.543633
-39.907406 -118.720505 0.000003 0.531777
-40.367920 -121.168808 0.000002 0.537316
-40.688000 -122.870476 0.000002 0.545083
-40.923817 -124.124184 0.000001 0.580636
nan nan nan 0.000000
-32.056004 -79.016777 13.653171 0.631296
-32.009995 -78.781212 11.861122 0.684321
-32.009987 -78.781204 10.039079 0.678431
-32.029522 -78.881210 8.222916 0.672557
-32.009987 -78.781212 6.443740 0.687984
-32.056000 -79.016769 4.650640 0.570657
-32.153461 -79.515717 2.874597 0.678431
-32.153461 -79.515717 1.125403 0.678431
-34.595108 -92.015564 0.000017 0.538949
-37.723656 -108.031944 0.000010 0.538445
-39.066860 -114.908386 0.000004 0.542763
-39.814960 -118.738228 0.000003 0.531533
-40.292557 -121.183258 0.000002 0.521126
-40.624504 -122.882645 0.000001 0.502220
-40.869072 -124.134674 0.000001 0.526452
nan nan nan 0.000000
-31.671682 -79.016769 13.669367 0.635904
-31.623959 -78.781212 11.874830 0.678874
-31.623955 -78.781189 10.050254 0.678431
-31.644218 -78.881210 8.231567 0.671809
-31.623959 -78.781204 6.449916 0.678431
-31.671684 -79.016785 4.654324 0.625956
-31.773476 -79.519226 2.875754 0.678431
-31.773476 -79.519226 1.124246 0.678431
-34.316364 -92.071014 0.000017 0.544259
-37.556648 -108.065170 0.000010 0.546548
-38.947823 -114.932068 0.000005 0.535195
-39.722641 -118.756592 0.000003 0.536065
-40.217297 -121.198227 0.000002 0.535195
-40.561100 -122.895256 0.000001 0.567361
-40.814400 -124.145554 0.000001 0.566033
nan nan nan 0.000000
-31.286266 -79.016769 13.686182 0.551965
-31.236832 -78.781212 11.889059 0.678431
-31.236828 -78.781204 10.061851 0.678431
-31.257813 -78.881210 8.240547 0.646738
-31.236824 -78.781204 6.456328 0.702449
-31.286268 -79.016777 4.658149 0.624048
-31.392452 -79.522736 2.876958 0.678431
-31.392452 -79.522736 1.123043 0.678431
-34.038010 -92.128433 0.000017 0.537514
-37.389874 -108.099564 0.000010 0.535927
-38.828953 -114.956581 0.000004 0.544427
-39.630455 -118.775604 0.000003 0.515023
-40.142143 -121.213730 0.000002 0.519814
-40.497787 -122.908318 0.000001 0.531640
-40.759808 -124.156815 0.000001 0.513603
nan nan nan 0.000000
-30.899723 -79.016769 13.703615 0.565744
-30.848560 -78.781204 11.903811 0.678431
-30.848564 -78.781212 10.073875 0.678431
-30.847061 -78.774277 8.262444 0.595712
-30.848560 -78.781204 6.462978 0.702205
-30.899721 -79.016777 4.662114 0.578058
-31.010365 -79.526268 2.878206 0.662470
-31.010365 -79.526268 1.121794 0.724514
-33.760063 -92.187775 0.000017 0.541604
-37.223339 -108.135117 0.000009 0.535927
-38.710258 -114.981918 0.000004 0.527047
-39.538399 -118.795258 0.000003 0.560449
-40.067097 -121.229752 0.000002 0.559442
-40.434563 -122.921814 0.000001 0.518425
-40.705296 -124.168449 0.000000 0.595972
nan nan nan 0.000000
-30.511997 -79.016762 13.721674 0.607797
-30.459118 -78.781212 11.919089 0.678431
-30.459118 -78.781219 10.086331 0.678431
-30.481567 -78.881210 8.259497 0.675349
-30.459114 -78.781204 6.469861 0.678431
-30.511999 -79.016785 4.666221 0.605570
-30.607548 -79.442398 2.880967 0.700984
-30.607548 -79.442398 1.119032 0.678431
-33.482529 -92.249054 0.000017 0.541558
-37.057064 -108.171837 0.000010 0.546685
-38.591743 -115.008095 0.000004 0.558160
-39.446487 -118.815559 0.000003 0.554757
-39.992165 -121.246300 0.000002 0.581704
-40.371437 -122.935760 0.000001 0.524025
-40.650864 -124.180473 0.000001 0.497459
nan nan nan 0.000000
-30.123066 -79.016785 13.740354 0.554452
-30.068455 -78.781219 11.934902 0.678431
-30.068455 -78.781219 10.099221 0.678431
-30.105457 -78.940826 8.262437 0.582803
-30.068443 -78.781189 6.476989 0.678431
-30.123062 -79.016785 4.670471 0.609094
-30.222561 -79.445946 2.882313 0.700496
-30.222561 -79.445946 1.117687 0.678431
-33.205444 -92.312294 0.000017 0.543297
-36.891045 -108.209717 0.000010 0.531106
-38.473415 -115.035095 0.000004 0.528481
-39.354717 -118.836494 0.000003 0.540658
-39.917355 -121.263367 0.000002 0.530953
-40.308411 -122.950134 0.000002 0.529671
-40.596519 -124.192871 0.000001 0.459281
nan nan nan 0.000000
-29.732862 -79.016769 13.759678 0.570626
-29.676514 -78.781204 11.951251 0.678431
-29.676516 -78.781219 10.112551 0.678431
-29.732862 -79.016769 8.263757 0.614054
-29.676508 -78.781189 6.484356 0.685191
-29.732864 -79.016785 4.674866 0.659846
-29.836372 -79.449493 2.883705 0.699504
-29.836372 -79.449493 1.116295 0.678431
-32.928799 -92.377441 0.000017 0.537209
-36.725292 -108.248756 0.000010 0.543404
-38.355278 -115.062920 0.000004 0.532448
-39.263092 -118.858070 0.000003 0.539254
-39.842663 -121.280960 0.000002 0.523644
-40.245483 -122.964958 0.000001 0.590585
-40.542263 -124.205650 0.000001 0.526833
nan nan nan 0.000000
-29.341366 -79.016785 13.779634 0.430259
-29.283276 -78.781219 11.968140 0.678431
-29.283276 -78.781219 10.126319 0.678431
-29.341360 -79.016769 8.274388 0.687556
-29.283266 -78.781189 6.491966 0.678431
-29.341366 -79.016785 4.679405 0.564782
-29.448948 -79.453064 2.885144 0.699138
-29.448948 -79.453064 1.114856 0.678431
-32.652615 -92.444511 0.000017 0.536797
-36.559822 -108.288948 0.000010 0.552880
-38.237331 -115.091560 0.000004 0.539315
-39.171627 -118.880287 0.000003 0.537591
-39.768093 -121.299072 0.000002 0.543893
-40.182659 -122.980217 0.000001 0.551186
-40.488094 -124.218811 0.000001 0.515724
nan nan nan 0.000000
-28.948509 -79.016785 13.800237 0.436866
-28.948503 -79.016754 11.941354 0.595026
-28.948502 -79.016769 10.104481 0.570550
-28.948505 -79.016769 8.285362 0.584955
-28.888672 -78.781227 6.499822 0.699504
-28.948509 -79.016792 4.684091 0.582620
-29.078365 -79.527992 2.885427 0.806836
-29.078363 -79.527985 1.114573 0.806836
-32.376904 -92.513519 0.000017 0.539956
-36.394630 -108.330292 0.000010 0.540902
-38.119595 -115.121033 0.000004 0.522683
-39.080315 -118.903145 0.000003 0.546792
-39.693653 -121.317703 0.000002 0.577096
-40.119946 -122.995911 0.000001 0.544305
-40.434021 -124.232346 0.000000 0.587106
nan nan nan 0.000000
-28.554256 -79.016785 13.821487 0.411490
-28.554251 -79.016762 11.959259 0.608057
-28.554251 -79.016769 10.119078 0.613169
-28.554253 -79.016769 8.296682 0.601968
-28.492664 -78.781219 6.507925 0.677821
-28.554255 -79.016785 4.688927 0.614130
-28.688850 -79.531570 2.886961 0.678431
-28.688850 -79.531570 1.113039 0.678431
-32.101685 -92.584442 0.000017 0.543191
-36.229736 -108.372795 0.000010 0.541115
-38.002064 -115.151321 0.000004 0.570108
-38.989166 -118.926636 0.000003 0.525231
-39.619347 -121.336853 0.000002 0.550042
-40.057343 -123.012047 0.000001 0.460929
-40.380043 -124.246254 0.000001 0.588327
nan nan nan 0.000000
-28.158566 -79.016785 13.843395 0.426032
-28.158562 -79.016769 11.977714 0.567498
-28.158566 -79.016785 10.134120 0.555642
-28.158562 -79.016769 8.308350 0.611765
-28.095211 -78.781219 6.516280 0.678431
-28.158566 -79.016785 4.693909 0.602090
-28.297976 -79.535172 2.888544 0.678431
-28.297977 -79.535172 1.111456 0.678431
-31.826965 -92.657288 0.000016 0.544747
-36.065140 -108.416435 0.000010 0.541176
-37.884750 -115.182434 0.000004 0.532967
-38.898182 -118.950768 0.000003 0.536492
-39.545174 -121.356522 0.000002 0.526482
-39.994858 -123.028618 0.000001 0.532311
-40.326164 -124.260544 0.000001 0.526955
nan nan nan 0.000000
-27.761381 -79.016785 13.865965 0.431739
-27.761383 -79.016785 11.996720 0.541588
