# This PCD file was generated using the MATLABÂ® pcwrite function
# from Computer Vision ToolboxÂ®.
# .PCD v.7 - Point Cloud Data file format
VERSION .7
FIELDS x y z intensity
SIZE 4 4 4 4
TYPE F F F F
COUNT 1 1 1 1
WIDTH 1181
HEIGHT 1
VIEWPOINT 0 0 0 1 0 0 0
POINTS 1181
DATA ascii
nan nan nan 0.000000
nan nan nan 0.000000
nan nan nan 0.000000
159.145813 121.768661 0.000000 0.540856
159.082687 138.087814 -0.000002 0.545678
159.055603 145.094254 -0.000003 0.555108
159.040497 148.996475 -0.000003 0.515496
159.030869 151.487701 -0.000004 0.516625
159.024170 153.219208 -0.000004 0.529107
159.019241 154.494888 -0.000003 0.484199
158.864838 122.809799 11.936739 0.657572
158.864838 122.809799 10.567830 0.590478
158.864838 122.809799 9.218145 0.697261
158.864838 122.809792 7.884442 0.590814
158.864838 122.809814 6.563628 0.639002
158.864838 122.809799 5.252728 0.591730
158.864838 122.809799 3.948846 0.463600
158.864838 122.809799 2.649152 0.737804
158.864838 122.809799 1.350849 0.666987
158.864838 122.809799 0.051153 0.709804
158.912415 138.087753 -0.000002 0.543969
158.934219 145.094208 -0.000003 0.544167
158.946381 148.996429 -0.000003 0.559655
158.954132 151.487671 -0.000004 0.530190
158.959518 153.219177 -0.000004 0.585168
158.963501 154.494873 -0.000004 0.505760
158.587875 122.809799 11.937196 0.626139
158.587875 122.809799 10.568226 0.601480
158.587875 122.809799 9.218477 0.552972
158.587875 122.809799 7.884714 0.666606
158.587875 122.809807 6.563839 0.671824
158.587875 122.809799 5.252877 0.558175
158.587875 122.809807 3.948936 0.552605
158.587875 122.809799 2.649181 0.732601
158.587875 122.809799 1.350818 0.677012
158.587875 122.809799 0.051064 0.706462
158.742126 138.088882 -0.000002 0.530953
158.812851 145.095001 -0.000003 0.550622
158.852249 148.997055 -0.000003 0.531167
158.877396 151.488174 -0.000003 0.526909
158.894882 153.219604 -0.000003 0.537423
158.907761 154.495239 -0.000003 0.600656
158.310883 122.809799 11.938141 0.593866
158.310883 122.809799 10.569037 0.407507
158.310883 122.809799 9.219160 0.570260
158.310883 122.809799 7.885273 0.527138
158.310883 122.809807 6.564272 0.646876
158.310883 122.809799 5.253186 0.534127
158.310883 122.809799 3.949121 0.464347
158.310883 122.809799 2.649243 0.671107
158.310883 122.809799 1.350757 0.649058
158.310883 122.809799 0.050879 0.623285
158.571854 138.091202 -0.000002 0.549172
158.691498 145.096649 -0.000003 0.529320
158.758133 148.998337 -0.000003 0.525216
158.800674 151.489227 -0.000003 0.558145
158.830231 153.220474 -0.000004 0.544518
158.852020 154.496002 -0.000004 0.489982
158.033813 122.809792 11.939569 0.513313
158.033813 122.809799 10.570269 0.468925
158.033813 122.809799 9.220198 0.506600
158.033813 122.809784 7.886117 0.467750
158.033813 122.809799 6.564929 0.628992
158.033813 122.809799 5.253653 0.471397
158.033813 122.809807 3.949400 0.497459
158.033813 122.809799 2.649337 0.627939
158.033813 122.809799 1.350663 0.720226
158.033813 122.809807 0.050599 0.654902
158.401611 138.094696 -0.000002 0.527062
158.570145 145.099152 -0.000002 0.531334
158.664017 149.000275 -0.000003 0.544106
158.723953 151.490799 -0.000004 0.539239
158.765594 153.221817 -0.000003 0.515923
158.796295 154.497147 -0.000004 0.511849
157.756668 122.809784 11.941483 0.499504
157.756668 122.809799 10.571918 0.492393
157.756668 122.809792 9.221588 0.671260
157.756668 122.809799 7.887249 0.535622
157.756668 122.809799 6.565806 0.618784
157.756653 122.809814 5.254279 0.554650
157.756668 122.809799 3.949777 0.591333
157.756668 122.809799 2.649461 0.729015
157.756668 122.809799 1.350538 0.726711
157.756668 122.809799 0.050223 0.756085
158.231384 138.099396 -0.000002 0.543221
158.448822 145.102493 -0.000003 0.529534
158.569931 149.002869 -0.000003 0.550927
158.647247 151.492905 -0.000004 0.543023
158.700974 153.223587 -0.000004 0.574487
158.740570 154.498672 -0.000004 0.521996
157.479385 122.809784 11.943879 0.612039
157.479385 122.809807 10.573984 0.677241
157.479385 122.809792 9.223330 0.577432
157.479385 122.809799 7.888669 0.422522
157.479385 122.809799 6.566908 0.618799
157.479385 122.809799 5.255065 0.677150
157.479385 122.809799 3.950246 0.531838
157.479385 122.809799 2.649618 0.680766
157.479385 122.809799 1.350382 0.682933
157.479385 122.809799 0.049753 0.644419
158.061203 138.105270 -0.000002 0.545281
158.327530 145.106689 -0.000002 0.531197
158.475861 149.006119 -0.000002 0.562127
158.570557 151.495560 -0.000003 0.509544
158.636368 153.225830 -0.000003 0.527123
158.684860 154.500610 -0.000003 0.496147
157.201965 122.809799 11.946761 0.604410
157.201965 122.809799 10.576470 0.634180
157.201965 122.809799 9.225424 0.707088
157.201965 122.809799 7.890377 0.456184
157.201965 122.809799 6.568232 0.614069
157.201965 122.809799 5.256009 0.639841
157.201965 122.809807 3.950812 0.608423
157.201965 122.809799 2.649807 0.677012
157.201965 122.809799 1.350194 0.601267
157.201965 122.809807 0.049188 0.671077
157.891068 138.112335 -0.000001 0.542870
158.206253 145.111725 -0.000002 0.550210
158.381805 149.010025 -0.000003 0.526390
158.493881 151.498749 -0.000003 0.510582
158.571777 153.228500 -0.000003 0.528695
158.629166 154.502914 -0.000003 0.534874
156.924362 122.809792 11.950133 0.666880
156.924362 122.809799 10.579380 0.512200
156.924362 122.809799 9.227871 0.676753
156.924362 122.809799 7.892373 0.652583
156.924362 122.809799 6.569780 0.622461
156.924362 122.809799 5.257113 0.580270
156.924362 122.809807 3.951473 0.458915
156.924362 122.809799 2.650026 0.708705
156.924362 122.809799 1.349973 0.730556
156.924362 122.809799 0.048526 0.700420
157.720978 138.120590 -0.000001 0.554192
158.085037 145.117615 -0.000002 0.537331
158.287796 149.014587 -0.000003 0.552880
158.417236 151.502472 -0.000003 0.546349
158.507202 153.231644 -0.000003 0.526818
158.573486 154.505615 -0.000004 0.585672
156.646561 122.809799 11.953989 0.677928
156.646561 122.809799 10.582706 0.622339
156.646561 122.809799 9.230675 0.689433
156.646561 122.809799 7.894658 0.612650
156.646561 122.809792 6.571553 0.551980
156.646561 122.809799 5.258376 0.672663
156.646561 122.809799 3.952229 0.438926
156.646561 122.809799 2.650279 0.746685
156.646561 122.809799 1.349721 0.664912
156.646561 122.809799 0.047770 0.767941
157.550949 138.130035 -0.000001 0.528054
157.963852 145.124344 -0.000002 0.536934
158.193802 149.019806 -0.000002 0.532052
158.340622 151.506714 -0.000003 0.548775
158.442657 153.235229 -0.000003 0.561379
158.517838 154.508713 -0.000003 0.537636
156.359573 122.674271 11.992358 0.650095
156.359573 122.674271 10.615788 0.611765
156.368530 122.809799 9.233830 0.625177
156.368530 122.809792 7.897233 0.546059
156.368530 122.809807 6.573548 0.512169
156.368530 122.809807 5.259798 0.643946
156.368530 122.809807 3.953082 0.561654
156.368530 122.809807 2.650562 0.698711
156.368530 122.809807 1.349438 0.710658
156.368530 122.809807 0.046918 0.653803
157.380997 138.140671 -0.000001 0.541787
157.842712 145.131912 -0.000002 0.525490
158.099869 149.025681 -0.000003 0.551217
158.264023 151.511505 -0.000003 0.594537
158.378128 153.239258 -0.000003 0.507042
158.462204 154.512192 -0.000003 0.542473
156.073074 122.574753 12.022205 0.678431
156.073074 122.574760 10.641521 0.678431
156.090240 122.809799 9.237346 0.644129
156.090240 122.809799 7.900096 0.437644
156.090240 122.809814 6.575769 0.584344
156.090240 122.809807 5.261381 0.648585
156.090240 122.809814 3.954031 0.468940
156.090240 122.809814 2.650878 0.741176
156.090240 122.809814 1.349122 0.667765
156.090240 122.809814 0.045970 0.703670
157.211121 138.152481 -0.000001 0.527474
157.721634 145.140335 -0.000002 0.547753
158.005966 149.032211 -0.000003 0.545403
158.187485 151.516830 -0.000003 0.550637
158.313644 153.243744 -0.000004 0.543206
158.406586 154.516052 -0.000003 0.578729
155.792892 122.575241 12.027441 0.678431
155.792892 122.575249 10.646037 0.678431
155.811676 122.809792 9.241217 0.707591
155.811676 122.809799 7.903251 0.530907
155.811676 122.809807 6.578216 0.680369
155.811676 122.809814 5.263124 0.627237
155.811676 122.809799 3.955075 0.565438
155.811676 122.809807 2.651226 0.740688
155.811676 122.809807 1.348774 0.698039
155.811676 122.809799 0.044924 0.724575
157.041336 138.165482 -0.000001 0.537209
157.600616 145.149597 -0.000002 0.562310
157.912109 149.039398 -0.000003 0.547280
158.110962 151.522690 -0.000003 0.544244
158.249176 153.248688 -0.000003 0.543267
158.351013 154.520309 -0.000003 0.532097
155.512405 122.575729 12.033169 0.678431
155.512405 122.575745 10.650976 0.678431
155.532791 122.809792 9.245443 0.635386
155.532791 122.809792 7.906697 0.539651
155.532791 122.809799 6.580889 0.601740
155.532791 122.809814 5.265028 0.632654
155.532791 122.809807 3.956216 0.671000
155.532791 122.809799 2.651606 0.705882
155.532791 122.809799 1.348393 0.668757
155.532791 122.809799 0.043783 0.708324
156.871643 138.179672 -0.000001 0.546242
157.479675 145.159714 -0.000002 0.544030
157.818298 149.047241 -0.000003 0.532753
158.034500 151.529083 -0.000003 0.511727
158.184753 153.254059 -0.000003 0.528664
158.295471 154.524948 -0.000003 0.550912
155.231583 122.576225 12.039395 0.678431
155.231583 122.576218 10.656348 0.678431
155.253571 122.809799 9.250027 0.590829
155.253571 122.809799 7.910435 0.541924
155.253571 122.809799 6.583788 0.621332
155.253571 122.809807 5.267096 0.671946
155.253571 122.809799 3.957455 0.470253
155.253571 122.809807 2.652019 0.695094
155.253571 122.809807 1.347981 0.672450
155.253571 122.809799 0.042545 0.681865
156.702057 138.195038 -0.000001 0.548135
157.358795 145.170670 -0.000002 0.537606
157.724564 149.055725 -0.000002 0.539284
157.958069 151.536011 -0.000003 0.570764
158.120377 153.259903 -0.000003 0.538720
158.239944 154.529984 -0.000003 0.547631
154.950394 122.576714 12.046122 0.678431
154.950394 122.576714 10.662145 0.678431
154.973984 122.809792 9.254973 0.492897
154.973984 122.809792 7.914467 0.526833
154.973984 122.809799 6.586915 0.624887
154.973984 122.809807 5.269324 0.563729
154.973984 122.809807 3.958789 0.629679
154.973984 122.809799 2.652464 0.689708
154.973984 122.809799 1.347536 0.743603
154.973984 122.809799 0.041210 0.696651
156.532578 138.211594 -0.000000 0.551202
157.237991 145.182465 -0.000002 0.533898
157.630875 149.064880 -0.000002 0.535042
157.881699 151.543472 -0.000003 0.536980
158.056030 153.266190 -0.000003 0.585962
158.184479 154.535400 -0.000003 0.510658
154.679642 122.677216 12.028148 0.649882
154.679642 122.677216 10.646647 0.654902
154.694000 122.809799 9.260281 0.506493
154.694000 122.809799 7.918794 0.550439
154.694000 122.809807 6.590269 0.643458
154.694000 122.809799 5.271715 0.495964
154.694000 122.809799 3.960223 0.671321
154.694000 122.809799 2.652940 0.745449
154.694000 122.809799 1.347059 0.735027
154.694000 122.809799 0.039777 0.751568
156.363220 138.229340 -0.000000 0.529488
157.117279 145.195114 -0.000002 0.530709
157.537262 149.074692 -0.000002 0.542443
157.805389 151.551468 -0.000003 0.536080
157.991730 153.272919 -0.000003 0.530221
158.129028 154.541214 -0.000003 0.546639
154.386826 122.577744 12.061059 0.678431
154.386826 122.577744 10.675024 0.678431
154.413589 122.809799 9.265947 0.548104
154.413589 122.809799 7.923412 0.616129
154.413589 122.809807 6.593853 0.597208
154.413589 122.809807 5.274270 0.665751
154.413589 122.809799 3.961753 0.506905
154.413589 122.809799 2.653451 0.698650
154.413589 122.809799 1.346549 0.647059
154.413589 122.809799 0.038246 0.660288
156.193985 138.248245 -0.000001 0.538094
156.996658 145.208603 -0.000001 0.547539
157.443710 149.085144 -0.000002 0.558846
157.729126 151.559982 -0.000003 0.525399
157.927490 153.280106 -0.000003 0.521126
158.073639 154.547394 -0.000003 0.544228
154.104385 122.578239 12.069285 0.678431
154.104385 122.578247 10.682117 0.678431
154.132736 122.809799 9.271978 0.548653
154.132736 122.809784 7.928331 0.575631
154.132736 122.809799 6.597666 0.583215
154.132736 122.809799 5.276988 0.660197
154.132736 122.809799 3.963382 0.626154
154.132736 122.809807 2.653993 0.709728
154.132736 122.809799 1.346007 0.709804
154.132736 122.809799 0.036618 0.690318
156.024887 138.268341 -0.000001 0.535775
156.876144 145.222916 -0.000002 0.547204
157.350250 149.096252 -0.000002 0.532296
157.652924 151.569046 -0.000002 0.559426
157.863297 153.287735 -0.000003 0.563470
158.018280 154.553986 -0.000003 0.551507
153.821472 122.578735 12.078019 0.678431
153.821472 122.578735 10.689646 0.678431
153.851395 122.809799 9.278377 0.602304
153.851395 122.809784 7.933547 0.638178
153.851395 122.809799 6.601713 0.611246
153.851395 122.809799 5.279870 0.654002
153.851395 122.809799 3.965108 0.707469
153.851395 122.809799 2.654569 0.741176
153.851395 122.809799 1.345431 0.735012
153.851395 122.809799 0.034891 0.737743
155.855942 138.289627 -0.000000 0.537575
156.755722 145.238098 -0.000001 0.536339
157.256851 149.108017 -0.000002 0.522744
157.576782 151.578644 -0.000002 0.540734
157.799149 153.295807 -0.000003 0.524254
157.962982 154.560944 -0.000003 0.549172
153.538055 122.579224 12.087259 0.678431
153.538055 122.579231 10.697616 0.678431
153.569550 122.809799 9.285139 0.611902
153.569550 122.809792 7.939060 0.605951
153.569550 122.809799 6.605987 0.596872
153.569550 122.809799 5.282917 0.663325
153.569550 122.809799 3.966935 0.569497
153.569550 122.809814 2.655177 0.741176
153.569550 122.809814 1.344824 0.666667
153.569550 122.809799 0.033064 0.735012
155.687134 138.312088 -0.000000 0.539208
156.635406 145.254089 -0.000001 0.531807
157.163544 149.120422 -0.000002 0.544198
157.500717 151.588760 -0.000002 0.549859
157.735062 153.304337 -0.000003 0.538399
157.907730 154.568298 -0.000003 0.507469
153.254089 122.579727 12.097006 0.678431
153.254089 122.579735 10.706019 0.678431
153.287155 122.809799 9.292270 0.614969
153.287155 122.809799 7.944873 0.559106
153.287155 122.809799 6.610496 0.575799
153.287155 122.809799 5.286134 0.679042
153.287155 122.809799 3.968860 0.626474
153.287155 122.809792 2.655819 0.741176
153.287155 122.809792 1.344182 0.693523
153.287155 122.809799 0.031139 0.709316
155.518509 138.335724 0.000000 0.548943
156.515213 145.270935 -0.000002 0.534524
157.070328 149.133499 -0.000002 0.523507
157.424728 151.599411 -0.000003 0.535744
157.671051 153.313309 -0.000003 0.573632
157.852524 154.576035 -0.000003 0.493202
152.969574 122.580269 12.107258 0.709804
152.969574 122.580261 10.714862 0.678431
153.004211 122.809799 9.299773 0.539818
153.004196 122.809784 7.950991 0.463416
153.004196 122.809799 6.615240 0.555413
153.004196 122.809799 5.289513 0.622400
153.004196 122.809799 3.970886 0.488350
153.004196 122.809799 2.656493 0.626535
153.004196 122.809799 1.343507 0.666239
153.004196 122.809799 0.029113 0.637812
155.350037 138.360535 0.000000 0.544076
156.395142 145.288635 -0.000001 0.532570
156.977203 149.147217 -0.000002 0.549630
157.348816 151.610596 -0.000002 0.539010
157.607086 153.322723 -0.000003 0.547372
157.797379 154.584167 -0.000003 0.542535
152.684464 122.580765 12.118033 0.678431
152.684464 122.580765 10.724153 0.678431
152.720657 122.809807 9.307646 0.653956
152.720657 122.809799 7.957409 0.549645
152.720657 122.809799 6.620218 0.621134
152.720657 122.809792 5.293062 0.676280
152.720657 122.809799 3.973011 0.675685
152.720657 122.809799 2.657200 0.625986
152.720657 122.809799 1.342799 0.719463
152.720657 122.809799 0.026988 0.674022
155.181747 138.386520 0.000000 0.541527
156.275192 145.307159 -0.000001 0.517784
156.884186 149.161575 -0.000002 0.550790
157.272980 151.622299 -0.000002 0.536690
157.543198 153.332596 -0.000003 0.557626
157.742279 154.592667 -0.000003 0.560479
152.398727 122.581253 12.129330 0.678431
152.398727 122.581253 10.733891 0.678431
152.436478 122.809807 9.315893 0.622293
152.436478 122.809784 7.964134 0.616297
152.436478 122.809799 6.625432 0.630671
152.436478 122.809792 5.296779 0.541360
152.436478 122.809799 3.975238 0.677104
152.436478 122.809792 2.657943 0.680018
152.436478 122.809792 1.342057 0.694484
152.436478 122.809799 0.024760 0.678431
155.013641 138.413696 0.000000 0.532799
156.155380 145.326508 -0.000001 0.535775
156.791260 149.176590 -0.000002 0.535348
157.197220 151.634537 -0.000002 0.545190
157.479370 153.342911 -0.000003 0.511879
157.687256 154.601563 -0.000003 0.582788
152.112335 122.581757 12.141143 0.678431
152.112335 122.581741 10.744079 0.678431
152.151642 122.809799 9.324520 0.544442
152.151642 122.809784 7.971164 0.532891
152.151642 122.809792 6.630886 0.612589
152.151642 122.809784 5.300666 0.527962
152.151642 122.809784 3.977568 0.698558
152.151642 122.809799 2.658719 0.615839
152.151642 122.809799 1.341282 0.652461
152.151642 122.809784 0.022432 0.677470
154.845734 138.442032 0.000000 0.542245
156.035690 145.346695 -0.000002 0.526131
156.698441 149.192261 -0.000002 0.525032
157.121552 151.647308 -0.000002 0.529213
157.415634 153.353668 -0.000003 0.533806
157.632294 154.610825 -0.000003 0.591287
151.825272 122.582260 12.153479 0.678431
151.825272 122.582245 10.754715 0.677455
151.866119 122.809792 9.333523 0.528618
151.866119 122.809784 7.978503 0.559884
151.866119 122.809799 6.636577 0.564080
151.866119 122.809784 5.304722 0.517861
151.866119 122.809792 3.979998 0.659571
151.866119 122.809799 2.659527 0.629969
151.866119 122.809799 1.340472 0.615885
151.866119 122.809792 0.020002 0.684306
154.678024 138.471542 0.000000 0.535470
155.916153 145.367737 -0.000001 0.540505
156.605743 149.208572 -0.000002 0.523339
157.045975 151.660599 -0.000002 0.539300
157.351959 153.364868 -0.000002 0.528145
157.577393 154.620483 -0.000003 0.560678
151.556152 122.682716 12.140871 0.671321
151.556152 122.682709 10.743844 0.651072
151.579895 122.809799 9.342902 0.520928
151.579895 122.809792 7.986151 0.646342
151.579895 122.809799 6.642509 0.619745
151.579895 122.809792 5.308949 0.548470
151.579895 122.809799 3.982530 0.556588
151.579895 122.809799 2.660372 0.738308
151.579895 122.809799 1.339628 0.741924
151.579895 122.809799 0.017469 0.741985
154.510529 138.502213 0.000000 0.549706
155.796783 145.389603 -0.000001 0.542199
156.513153 149.225525 -0.000002 0.530907
156.970505 151.674438 -0.000002 0.539635
157.288376 153.376511 -0.000003 0.529641
157.522568 154.630539 -0.000003 0.534646
151.292908 122.809799 12.121931 0.580789
151.292908 122.809799 10.727512 0.606867
151.292908 122.809799 9.352671 0.571969
151.292908 122.809792 7.994113 0.623850
151.292908 122.809799 6.648684 0.535622
151.292908 122.809792 5.313351 0.597833
151.292908 122.809799 3.985167 0.703792
151.292908 122.809799 2.661250 0.741176
151.292908 122.809799 1.338750 0.666667
151.292908 122.809799 0.014832 0.743053
154.343246 138.534058 0.000000 0.529931
155.677551 145.412308 -0.000001 0.541634
156.420685 149.243118 -0.000002 0.540780
156.895111 151.688782 -0.000003 0.540688
157.224869 153.388611 -0.000003 0.539132
157.467804 154.640961 -0.000003 0.518563
151.005142 122.809814 12.135902 0.578744
151.005142 122.809807 10.739560 0.578485
151.005142 122.809807 9.362820 0.611414
151.005142 122.809799 8.002388 0.643107
151.005142 122.809799 6.655101 0.600305
151.005142 122.809799 5.317925 0.584405
151.005142 122.809799 3.987907 0.664927
151.005142 122.809799 2.662164 0.741176
151.005142 122.809799 1.337837 0.681910
151.005142 122.809799 0.012091 0.741176
154.176178 138.567062 0.000001 0.542489
155.558472 145.435837 -0.000001 0.529488
156.328339 149.261383 -0.000001 0.551293
156.819839 151.703659 -0.000002 0.508843
157.161438 153.401138 -0.000003 0.533303
157.413116 154.651764 -0.000003 0.507698
150.716568 122.809799 12.150413 0.516396
150.716568 122.809799 10.752069 0.627222
150.716568 122.809807 9.373360 0.641978
150.716568 122.809799 8.010977 0.566629
150.716568 122.809799 6.661764 0.631189
150.716568 122.809799 5.322674 0.502892
150.716568 122.809799 3.990754 0.530632
150.716568 122.809799 2.663111 0.704952
150.716568 122.809799 1.336889 0.657420
150.716568 122.809799 0.009246 0.729534
154.009369 138.601242 0.000000 0.535561
155.439575 145.460190 -0.000001 0.542031
156.236130 149.280273 -0.000001 0.504341
156.744659 151.719055 -0.000002 0.535973
157.098114 153.414108 -0.000002 0.504250
157.358521 154.662949 -0.000003 0.596643
150.427155 122.809814 12.165455 0.581476
150.427155 122.809814 10.765039 0.616220
150.427155 122.809799 9.384288 0.648157
150.427155 122.809807 8.019886 0.617838
150.427155 122.809814 6.668673 0.568597
150.427155 122.809799 5.327598 0.489860
150.427155 122.809807 3.993704 0.528908
150.427155 122.809799 2.664093 0.705333
150.427155 122.809799 1.335907 0.686763
150.400146 122.684624 0.000004 0.536736
153.842789 138.636597 0.000000 0.547005
155.320847 145.485382 -0.000000 0.541970
156.144043 149.299805 -0.000001 0.538689
156.669601 151.734985 -0.000002 0.543053
157.034866 153.427536 -0.000003 0.539101
157.303986 154.674515 -0.000003 0.534051
150.136871 122.809814 12.181046 0.614511
150.136871 122.809814 10.778482 0.583520
150.136871 122.809807 9.395611 0.530785
150.136871 122.809814 8.029116 0.628153
150.136871 122.809814 6.675831 0.596170
150.136871 122.809799 5.332701 0.646387
150.136871 122.809814 3.996761 0.677501
150.136871 122.809799 2.665112 0.720104
150.136871 122.809799 1.334888 0.649134
150.136871 122.809814 0.003239 0.735546
153.676453 138.673096 0.000001 0.541421
155.202301 145.511398 -0.000001 0.540444
156.052109 149.319977 -0.000001 0.534752
156.594635 151.751434 -0.000002 0.518639
156.971725 153.441391 -0.000002 0.556161
157.249542 154.686462 -0.000003 0.585199
149.845688 122.809814 12.197175 0.567788
149.845673 122.809799 10.792393 0.594415
149.845688 122.809807 9.407330 0.617990
149.845688 122.809814 8.038671 0.554330
149.845688 122.809814 6.683240 0.635126
149.845673 122.809799 5.337982 0.601770
149.845673 122.809799 3.999926 0.612970
149.845688 122.809799 2.666166 0.698726
149.845688 122.809799 1.333835 0.775967
149.845673 122.809799 0.000074 0.698817
153.510391 138.710770 0.000001 0.532219
155.083939 145.538239 -0.000001 0.553979
155.960312 149.340805 -0.000002 0.542916
156.519806 151.768417 -0.000002 0.488289
156.908676 153.455688 -0.000002 0.542123
157.195175 154.698807 -0.000003 0.500023
149.553558 122.809830 12.213857 0.516762
149.553558 122.809814 10.806774 0.641337
149.553558 122.809814 9.419447 0.527871
149.511932 122.634804 8.075235 0.659693
149.553558 122.809814 6.690902 0.561608
149.511932 122.634811 5.358191 0.638148
149.553558 122.809814 4.003197 0.509163
149.553558 122.809814 2.667255 0.708522
149.553558 122.809814 1.332745 0.674388
149.568634 122.873199 0.000004 0.536614
153.344589 138.749588 0.000001 0.549233
154.965759 145.565918 -0.000001 0.538979
155.868668 149.362259 -0.000001 0.522499
156.445099 151.785904 -0.000002 0.532784
156.845734 153.470428 -0.000002 0.588373
157.140900 154.711502 -0.000002 0.567315
149.260452 122.809822 12.231093 0.622324
149.260452 122.809814 10.821637 0.545556
149.260452 122.809814 9.431967 0.606699
149.193008 122.534821 8.100758 0.678431
149.260452 122.809822 6.698817 0.630915
149.217529 122.634811 5.363859 0.677028
149.260452 122.809814 4.006577 0.501427
149.260452 122.809814 2.668381 0.608774
149.260452 122.809814 1.331618 0.648737
149.292358 122.939941 0.000004 0.538308
153.179062 138.789551 0.000001 0.528679
154.847778 145.594406 -0.000001 0.519615
155.777161 149.384369 -0.000001 0.564385
156.370499 151.803925 -0.000002 0.526299
156.782883 153.485611 -0.000002 0.534203
157.086716 154.724594 -0.000002 0.565881
148.966339 122.809814 12.248891 0.626963
148.966339 122.809814 10.836982 0.598810
148.966339 122.809814 9.444895 0.596780
148.896866 122.534821 8.111370 0.678431
148.966339 122.809822 6.706991 0.645167
148.922134 122.634811 5.369709 0.660288
148.966339 122.809814 4.010067 0.602075
148.966339 122.809814 2.669543 0.660319
148.966339 122.809814 1.330456 0.647562
148.966339 122.809814 -0.010067 0.693507
153.013824 138.830704 0.000001 0.538445
154.730011 145.623734 -0.000000 0.545495
155.685822 149.407104 -0.000001 0.557626
156.296036 151.822449 -0.000002 0.529335
156.720154 153.501221 -0.000002 0.530053
157.032623 154.738068 -0.000002 0.538674
148.671204 122.809822 12.267248 0.677592
148.671204 122.809814 10.852811 0.682689
148.671204 122.809814 9.458229 0.609155
148.599670 122.534821 8.122318 0.678431
148.671204 122.809814 6.715423 0.595117
148.625687 122.634811 5.375746 0.675380
148.671188 122.809807 4.013668 0.588693
148.671204 122.809814 2.670743 0.728740
148.671204 122.809814 1.329257 0.773388
148.741257 123.079178 0.000005 0.540658
152.848877 138.872986 0.000001 0.537835
154.612442 145.653870 -0.000000 0.551080
155.594650 149.430466 -0.000002 0.503960
156.221710 151.841507 -0.000002 0.521324
156.657532 153.517273 -0.000002 0.565591
156.978638 154.751907 -0.000002 0.521447
148.374969 122.809814 12.286179 0.522240
148.374969 122.809814 10.869132 0.665843
148.374969 122.809814 9.471978 0.554162
148.301407 122.534821 8.133602 0.678431
148.374969 122.809822 6.724115 0.516670
148.301392 122.534805 5.390457 0.670802
148.374985 122.809814 4.017380 0.517617
148.374969 122.809814 2.671980 0.716609
148.374969 122.809814 1.328020 0.665476
148.466431 123.151672 0.000005 0.537667
152.684219 138.916428 0.000001 0.540124
154.495087 145.684830 -0.000000 0.550729
155.503632 149.454483 -0.000001 0.557229
156.147507 151.861084 -0.000002 0.492195
156.595016 153.533768 -0.000002 0.526589
156.924728 154.766129 -0.000002 0.490013
148.077652 122.809814 12.305678 0.604959
148.077637 122.809807 10.885945 0.546593
148.077652 122.809814 9.486142 0.569848
148.002014 122.534813 8.145231 0.666407
148.077652 122.809822 6.733071 0.585718
148.029510 122.634804 5.388381 0.677928
148.077637 122.809814 4.021205 0.607004
148.077637 122.809807 2.673253 0.684062
148.077637 122.809807 1.326746 0.692912
148.192139 123.226089 0.000005 0.544823
152.519882 138.960999 0.000001 0.543938
154.377945 145.716614 -0.000000 0.553048
155.412781 149.479126 -0.000001 0.540642
156.073441 151.881180 -0.000002 0.542199
156.532639 153.550690 -0.000002 0.590127
156.870941 154.780716 -0.000003 0.579950
147.779175 122.809814 12.325753 0.668544
147.779175 122.809814 10.903256 0.516701
147.779175 122.809814 9.500730 0.568612
147.701477 122.534821 8.157203 0.668681
147.779175 122.809814 6.742291 0.547265
147.701477 122.534821 5.403502 0.671733
147.779175 122.809799 4.025143 0.652445
147.779175 122.809814 2.674565 0.543679
147.779175 122.809814 1.325435 0.647059
147.918365 123.302414 0.000005 0.538033
152.355850 139.006744 0.000001 0.534142
154.261032 145.749207 -0.000000 0.527382
155.322113 149.504410 -0.000001 0.545190
155.999527 151.901779 -0.000002 0.531273
156.470352 153.568054 -0.000002 0.528466
156.817245 154.795685 -0.000003 0.578134
147.479523 122.809814 12.346417 0.597711
147.479523 122.809807 10.921074 0.518502
147.479523 122.809807 9.515738 0.481743
147.428741 122.634796 8.154082 0.643717
147.479523 122.809814 6.751781 0.536645
147.428741 122.634811 5.401775 0.647059
147.479523 122.809814 4.029195 0.501091
147.479523 122.809807 2.675915 0.651499
147.479523 122.809807 1.324085 0.719234
147.645126 123.380661 0.000005 0.542535
152.192139 139.053619 0.000001 0.550454
154.144348 145.782623 -0.000000 0.542901
155.231628 149.530319 -0.000001 0.526314
155.925766 151.922913 -0.000001 0.530373
156.408203 153.585846 -0.000002 0.519402
156.763657 154.811035 -0.000003 0.544320
147.178650 122.809814 12.367670 0.563012
147.178650 122.809799 10.939399 0.602579
147.178650 122.809807 9.531178 0.599954
147.126541 122.634796 8.166723 0.658625
147.178650 122.809814 6.761542 0.675181
147.096786 122.534813 5.417316 0.668589
147.178650 122.809822 4.033362 0.563180
147.178650 122.809814 2.677304 0.679347
147.178650 122.809814 1.322697 0.688960
147.372452 123.460808 0.000006 0.536706
152.028763 139.101639 0.000001 0.550103
154.027908 145.816849 -0.000000 0.537850
155.141312 149.556870 -0.000001 0.566751
155.852142 151.944550 -0.000002 0.532387
156.346176 153.604080 -0.000002 0.542901
156.710175 154.826752 -0.000003 0.576944
146.876526 122.809807 12.389517 0.606989
146.876526 122.809807 10.958234 0.516457
146.876526 122.809807 9.547047 0.611765
146.823090 122.634804 8.179714 0.661204
146.876526 122.809814 6.771574 0.672358
146.792572 122.534813 5.424519 0.673976
146.876526 122.809814 4.037647 0.593973
146.876526 122.809814 2.678730 0.667170
146.876526 122.809814 1.321269 0.660319
147.100342 123.542862 0.000006 0.540551
151.865738 139.150787 0.000001 0.528191
153.911697 145.851883 0.000000 0.527047
155.051193 149.584030 -0.000001 0.531518
155.778671 151.966705 -0.000002 0.544778
156.284286 153.622742 -0.000002 0.554772
156.656799 154.842834 -0.000002 0.514015
146.573120 122.809814 12.411963 0.529061
146.573105 122.809799 10.977591 0.500114
146.573105 122.809799 9.563352 0.526101
146.518341 122.634796 8.193068 0.653742
146.573120 122.809822 6.781884 0.550729
146.487045 122.534821 5.431916 0.676738
146.573120 122.809814 4.042048 0.663310
146.573120 122.809814 2.680197 0.658579
146.573120 122.809814 1.319803 0.685420
146.828812 123.626816 0.000006 0.538994
151.703049 139.201080 0.000001 0.546014
153.795746 145.887726 0.000001 0.550484
154.961273 149.611832 -0.000001 0.530785
155.705353 151.989365 -0.000001 0.537392
156.222519 153.641830 -0.000002 0.528740
156.603546 154.859299 -0.000002 0.514336
146.268372 122.809814 12.435018 0.573785
146.268372 122.809799 10.997468 0.616388
146.268372 122.809799 9.580101 0.576089
146.212250 122.634804 8.206779 0.639155
146.268372 122.809814 6.792472 0.580926
146.180191 122.534821 5.439516 0.673472
146.268372 122.809814 4.046571 0.655009
146.268372 122.809814 2.681702 0.685267
146.268372 122.809814 1.318297 0.749935
146.557861 123.712639 0.000006 0.544854
151.540710 139.252518 0.000002 0.544457
153.680038 145.924377 0.000000 0.551171
154.871536 149.640274 -0.000001 0.548775
155.632202 152.012543 -0.000001 0.547265
156.160889 153.661362 -0.000002 0.539147
156.550415 154.876144 -0.000002 0.528420
145.962265 122.809807 12.458686 0.581537
145.962265 122.809799 11.017874 0.612131
145.962265 122.809799 9.597291 0.582483
145.904800 122.634811 8.220856 0.631693
145.962265 122.809814 6.803341 0.542565
145.871964 122.534813 5.447317 0.676829
145.962265 122.809814 4.051212 0.594171
145.962265 122.809814 2.683249 0.703670
145.962265 122.809814 1.316751 0.653681
146.287521 123.800369 0.000006 0.538201
151.378738 139.305084 0.000002 0.541024
153.564590 145.961853 0.000000 0.546624
154.781998 149.669312 -0.000001 0.546197
155.559204 152.036224 -0.000001 0.548180
156.099396 153.681320 -0.000002 0.516365
156.497391 154.893341 -0.000002 0.519905
145.654739 122.809814 12.482967 0.591424
145.654739 122.809807 11.038814 0.547219
145.597412 122.639259 9.647671 0.670497
145.595917 122.634796 8.235302 0.643977
145.654739 122.809822 6.814494 0.484932
145.562317 122.534821 5.455321 0.694606
145.654739 122.809814 4.055975 0.572305
145.654755 122.809814 2.684835 0.667338
145.654755 122.809822 1.315164 0.694728
146.017807 123.889984 0.000006 0.539376
151.217148 139.358765 0.000002 0.534981
153.449417 146.000122 0.000001 0.533822
154.692673 149.699005 -0.000000 0.535744
155.486389 152.060425 -0.000001 0.526223
156.038055 153.701691 -0.000002 0.555215
156.444489 154.910919 -0.000002 0.537148
145.345779 122.809814 12.507884 0.645396
145.345779 122.809799 11.060297 0.572351
145.287552 122.640511 9.665605 0.668635
145.285599 122.634804 8.250120 0.643610
145.345779 122.809814 6.825938 0.621912
145.285599 122.634811 5.454862 0.654994
145.345779 122.809814 4.060863 0.647349
145.345779 122.809814 2.686464 0.733333
145.345779 122.809814 1.313537 0.727871
145.748718 123.981461 0.000006 0.542779
151.055923 139.413589 0.000002 0.534981
153.334503 146.039185 0.000000 0.562799
154.603561 149.729294 -0.000000 0.576883
155.413742 152.085129 -0.000001 0.529030
155.976852 153.722504 -0.000002 0.526802
156.391724 154.928864 -0.000002 0.523827
145.035324 122.809814 12.533429 0.562020
145.035324 122.809807 11.082322 0.604227
144.976227 122.641769 9.683998 0.650004
144.973770 122.634804 8.265315 0.656596
145.035339 122.809814 6.837671 0.649638
144.938599 122.534805 5.471955 0.678431
145.035339 122.809814 4.065872 0.647517
145.035324 122.809814 2.688132 0.660624
145.035324 122.809814 1.311868 0.661952
145.480286 124.074829 0.000006 0.538918
150.895081 139.469528 0.000002 0.543175
153.219864 146.079056 0.000000 0.541970
154.514648 149.760223 -0.000001 0.543572
155.341263 152.110336 -0.000001 0.575341
155.915787 153.743744 -0.000002 0.534981
156.339066 154.947174 -0.000002 0.560082
144.723358 122.809814 12.559618 0.613413
144.723343 122.809799 11.104902 0.526314
144.663391 122.643066 9.702852 0.665812
144.702515 122.751846 8.262442 0.600183
144.723358 122.809814 6.849697 0.624491
144.624451 122.534790 5.480588 0.678431
144.723358 122.809814 4.071008 0.581903
144.723358 122.809814 2.689844 0.699596
144.723358 122.809814 1.310157 0.690532
145.212494 124.170074 0.000006 0.538140
150.734650 139.526596 0.000002 0.548226
153.105515 146.119736 0.000001 0.542092
154.425964 149.791763 -0.000001 0.547829
155.268967 152.136047 -0.000001 0.528084
155.854874 153.765411 -0.000002 0.551980
156.286545 154.965851 -0.000002 0.576150
144.409805 122.809807 12.586452 0.583093
144.409805 122.809807 11.128040 0.580285
144.348999 122.644363 9.722175 0.638193
144.409790 122.809799 8.269197 0.575509
144.409805 122.809814 6.862021 0.622415
144.308731 122.534790 5.489433 0.678431
144.409805 122.809814 4.076271 0.528862
144.409805 122.809814 2.691596 0.750713
144.409805 122.809814 1.308404 0.757198
144.945389 124.267197 0.000006 0.541650
150.574615 139.584778 0.000002 0.552758
152.991440 146.161194 0.000000 0.552605
154.337509 149.823929 -0.000000 0.537346
155.196838 152.162262 -0.000001 0.521675
155.794113 153.787491 -0.000002 0.550179
156.234161 154.984894 -0.000002 0.502693
144.094635 122.809814 12.613939 0.520134
144.094635 122.809814 11.151741 0.529229
143.995529 122.545807 9.761379 0.705547
144.094635 122.809814 8.285475 0.559274
144.094650 122.809814 6.874646 0.612055
143.991394 122.534798 5.498494 0.678431
144.094635 122.809814 4.081662 0.580194
144.094635 122.809814 2.693393 0.709010
144.094635 122.809814 1.306608 0.721752
144.678970 124.366165 0.000006 0.543343
150.414978 139.644073 0.000003 0.544976
152.877670 146.203461 0.000000 0.548257
154.249268 149.856705 -0.000000 0.553109
155.124908 152.188980 -0.000001 0.535302
155.733521 153.810013 -0.000001 0.547707
156.181915 155.004303 -0.000002 0.518074
143.777832 122.809814 12.642094 0.591485
143.777817 122.809807 11.176017 0.584070
143.677078 122.547073 9.781723 0.678431
143.777817 122.809807 8.302147 0.583871
143.777832 122.809814 6.887577 0.543160
143.672379 122.534798 5.507773 0.678431
143.777832 122.809814 4.087183 0.587137
143.777817 122.809814 2.695232 0.657237
143.777817 122.809814 1.304769 0.635065
144.413239 124.466995 0.000006 0.541772
150.255768 139.704483 0.000002 0.543603
152.764191 146.246521 0.000001 0.532677
154.161255 149.890091 -0.000000 0.545937
155.053162 152.216202 -0.000001 0.541772
155.673080 153.832947 -0.000001 0.524208
156.129791 155.024078 -0.000002 0.573281
143.459305 122.809814 12.670918 0.569360
143.459305 122.809814 11.200869 0.541344
143.356964 122.548401 9.802540 0.678431
143.459305 122.809814 8.319217 0.577127
143.459305 122.809814 6.900815 0.600046
143.351654 122.534805 5.517272 0.678431
143.459305 122.809814 4.092836 0.569207
143.459305 122.809814 2.697115 0.710857
143.459305 122.809814 1.302886 0.761547
144.148224 124.569687 0.000007 0.541421
150.096985 139.765991 0.000002 0.538384
152.651016 146.290359 0.000000 0.539910
154.073486 149.924103 -0.000000 0.541817
154.981613 152.243927 -0.000001 0.563745
155.612793 153.856293 -0.000002 0.520562
156.077820 155.044220 -0.000001 0.557290
143.139038 122.809807 12.700421 0.623224
143.139038 122.809807 11.226307 0.576547
143.035126 122.549713 9.823855 0.678431
143.139038 122.809799 8.336688 0.591928
143.139038 122.809814 6.914365 0.653086
143.069107 122.634796 5.518168 0.650141
143.139038 122.809814 4.098624 0.618189
143.139038 122.809814 2.699041 0.772931
143.139038 122.809814 1.300958 0.662257
143.883926 124.674202 0.000007 0.547601
149.938629 139.828613 0.000003 0.534844
152.538162 146.335007 0.000001 0.540703
153.985962 149.958725 0.000000 0.537682
154.910248 152.272156 -0.000001 0.525475
155.552673 153.880081 -0.000001 0.527779
156.025986 155.064728 -0.000002 0.552712
142.816986 122.809807 12.730614 0.597787
142.816986 122.809807 11.252342 0.600534
142.711487 122.551025 9.845671 0.678431
142.816986 122.809814 8.354568 0.569207
142.816986 122.809814 6.928231 0.644190
142.704880 122.534821 5.536948 0.678431
142.816986 122.809807 4.104547 0.597742
142.816986 122.809807 2.701015 0.698589
142.816986 122.809814 1.298986 0.698360
143.620377 124.780586 0.000007 0.540276
149.780731 139.892365 0.000003 0.548089
152.425613 146.380432 0.000001 0.544381
153.898666 149.993958 -0.000000 0.541375
154.839096 152.300873 -0.000001 0.532021
155.492722 153.904266 -0.000001 0.552895
155.974289 155.085587 -0.000002 0.559640
142.493088 122.809814 12.761504 0.588968
142.493088 122.809814 11.278973 0.604517
142.493073 122.809799 9.817263 0.590036
142.493088 122.809807 8.372860 0.595193
142.493088 122.809814 6.942418 0.564187
142.378738 122.534813 5.547130 0.678431
142.493088 122.809807 4.110603 0.633524
142.493088 122.809814 2.703032 0.561700
142.493088 122.809807 1.296968 0.711238
143.357559 124.888786 0.000007 0.541833
149.623276 139.957199 0.000003 0.553079
152.313385 146.426636 0.000001 0.542062
153.811630 150.029785 -0.000000 0.558877
154.768143 152.330093 -0.000001 0.534630
155.432953 153.928879 -0.000001 0.540017
155.922745 155.106812 -0.000002 0.545724
142.167297 122.809814 12.793097 0.613886
142.167297 122.809814 11.306216 0.625956
142.167297 122.809799 9.840216 0.674479
142.167297 122.809807 8.391571 0.607080
142.167297 122.809807 6.956929 0.612222
142.050690 122.534805 5.557545 0.678431
142.167297 122.809814 4.116800 0.638224
142.167297 122.809814 2.705097 0.638682
142.167297 122.809814 1.294904 0.668132
143.095505 124.998817 0.000007 0.537667
149.466263 140.023132 0.000003 0.533059
152.201477 146.473633 0.000001 0.534874
153.724838 150.066223 -0.000000 0.546578
154.697388 152.359802 -0.000001 0.542214
155.373337 153.953918 -0.000001 0.556954
155.871353 155.128387 -0.000002 0.514977
141.839584 122.809814 12.825405 0.562768
141.839584 122.809814 11.334075 0.601114
141.839584 122.809799 9.863684 0.645945
141.839584 122.809814 8.410703 0.618463
141.839584 122.809822 6.971766 0.638056
141.720703 122.534805 5.568194 0.678431
141.839584 122.809807 4.123137 0.639506
141.839584 122.809814 2.707207 0.773526
141.839584 122.809814 1.292793 0.776333
142.834229 125.110687 0.000008 0.544076
149.309723 140.090149 0.000003 0.533013
152.089905 146.521408 0.000001 0.536614
153.638306 150.103271 -0.000000 0.562829
154.626846 152.389999 -0.000001 0.529976
155.313904 153.979355 -0.000001 0.565408
155.820114 155.150330 -0.000002 0.557931
141.509888 122.809814 12.858439 0.644221
141.509888 122.809814 11.362559 0.556039
141.509888 122.809799 9.887682 0.551537
141.509888 122.809814 8.430264 0.507668
141.509888 122.809814 6.986939 0.654307
141.388718 122.534790 5.579084 0.678431
141.509888 122.809807 4.129616 0.551156
141.509888 122.809814 2.709366 0.657572
141.509888 122.809814 1.290635 0.625132
142.573746 125.224380 0.000008 0.544503
149.153656 140.158264 0.000003 0.536217
151.978668 146.569946 0.000001 0.536431
153.552048 150.140930 0.000000 0.531792
154.556519 152.420700 -0.000001 0.506722
155.254654 154.005219 -0.000002 0.551293
155.769028 155.172623 -0.000002 0.526131
141.178162 122.809814 12.892211 0.546792
141.178162 122.809822 11.391674 0.558480
141.178146 122.809799 9.912212 0.650858
141.178146 122.809814 8.450264 0.554620
141.178162 122.809814 7.002449 0.574258
141.099579 122.634796 5.581226 0.647547
141.178162 122.809814 4.136239 0.569207
141.178146 122.809814 2.711571 0.723644
141.178162 122.809814 1.288429 0.750271
142.314072 125.339897 0.000008 0.544808
148.998062 140.227463 0.000003 0.542855
151.867767 146.619278 0.000001 0.565835
153.466034 150.179184 0.000000 0.534981
154.486404 152.451874 -0.000001 0.561273
155.195587 154.031494 -0.000001 0.477607
155.718094 155.195282 -0.000001 0.520699
140.844330 122.809814 12.926725 0.625803
140.844330 122.809822 11.421432 0.570840
140.844330 122.809799 9.937283 0.614893
140.844330 122.809814 8.470703 0.620233
140.844330 122.809807 7.018300 0.558938
140.718536 122.534775 5.601593 0.679057
140.844330 122.809807 4.143008 0.590051
140.844330 122.809807 2.713825 0.806683
140.844330 122.809814 1.286174 0.668589
142.055191 125.457199 0.000008 0.535607
148.842972 140.297760 0.000004 0.549493
151.757217 146.669373 0.000001 0.533944
153.380310 150.218033 0.000000 0.544457
154.416504 152.483551 -0.000000 0.551980
155.136703 154.058182 -0.000001 0.551431
155.667313 155.218292 -0.000001 0.563241
140.508377 122.809814 12.961993 0.554681
140.508377 122.809814 11.451845 0.491844
140.508362 122.809799 9.962902 0.568933
140.508377 122.809799 8.491590 0.571725
140.508377 122.809814 7.034497 0.552926
140.380249 122.534790 5.613216 0.678431
140.508377 122.809799 4.149926 0.564508
140.508377 122.809814 2.716130 0.714336
140.508377 122.809814 1.283870 0.692851
141.797150 125.576324 0.000008 0.539666
148.688354 140.369125 0.000003 0.537896
151.647018 146.720245 0.000002 0.522362
153.294846 150.257492 0.000000 0.541314
154.346832 152.515717 -0.000000 0.544839
155.078018 154.085266 -0.000001 0.550378
155.616714 155.241653 -0.000001 0.557656
140.170227 122.809814 12.998031 0.598566
140.170227 122.809814 11.482918 0.661418
140.170212 122.809814 9.989077 0.549279
140.170227 122.809814 8.512930 0.589929
140.170212 122.809807 7.051048 0.639750
140.039764 122.534805 5.625095 0.678431
140.170212 122.809807 4.156993 0.562036
140.170212 122.809799 2.718484 0.662776
140.170212 122.809807 1.281516 0.667353
141.539948 125.697258 0.000009 0.540978
148.534256 140.441574 0.000004 0.534417
151.537186 146.771881 0.000001 0.537041
153.209656 150.297531 0.000000 0.542138
154.277390 152.548370 -0.000000 0.545220
155.019501 154.112778 -0.000001 0.509010
155.566269 155.265366 -0.000001 0.539834
139.829834 122.809814 13.034842 0.620325
139.829834 122.809814 11.514658 0.596216
139.829819 122.809807 10.015821 0.581674
139.829819 122.809807 8.534731 0.626993
139.829819 122.809807 7.067956 0.595514
139.697006 122.534805 5.637228 0.678431
139.829819 122.809799 4.164212 0.631830
139.829819 122.809807 2.720889 0.660945
139.829819 122.809814 1.279111 0.665019
141.283585 125.819946 0.000008 0.538231
148.380661 140.515091 0.000004 0.551812
151.427704 146.824280 0.000002 0.526574
153.124756 150.338165 0.000000 0.535134
154.208176 152.581497 -0.000000 0.572366
154.961197 154.140686 -0.000001 0.522225
155.515991 155.289429 -0.000001 0.511498
139.487122 122.809814 13.072444 0.565698
139.487122 122.809814 11.547079 0.689021
139.487122 122.809807 10.043134 0.536355
139.487122 122.809814 8.556995 0.568322
139.487122 122.809814 7.085223 0.553979
139.351929 122.534813 5.649621 0.678431
139.487122 122.809807 4.171588 0.678492
139.487122 122.809807 2.723345 0.720928
139.487122 122.809814 1.276654 0.693935
141.028091 125.944458 0.000009 0.538247
148.227585 140.589691 0.000004 0.540703
151.318604 146.877441 0.000002 0.538811
153.040131 150.379395 0.000000 0.531548
154.139191 152.615112 -0.000000 0.540963
154.903076 154.169006 -0.000001 0.559091
155.465881 155.313843 -0.000001 0.523171
139.142059 122.809807 13.110850 0.647669
139.142059 122.809830 11.580189 0.638560
139.142044 122.809799 10.071033 0.623529
139.142059 122.809799 8.579741 0.581064
139.142059 122.809807 7.102861 0.571908
139.004486 122.534828 5.662277 0.666209
139.142059 122.809814 4.179120 0.656992
139.142059 122.809814 2.725854 0.791684
139.142059 122.809814 1.274146 0.776089
140.773468 126.070740 0.000009 0.540444
148.075027 140.665344 0.000004 0.540963
151.209869 146.931366 0.000001 0.541207
152.955811 150.421219 0.000000 0.530144
154.070450 152.649200 -0.000000 0.553918
154.845154 154.197723 -0.000001 0.551186
155.415939 155.338608 -0.000001 0.541878
138.794571 122.809814 13.150064 0.603876
138.705490 122.634827 11.656416 0.659785
138.654602 122.534836 10.155660 0.678431
138.794571 122.809814 8.602961 0.506065
138.794571 122.809807 7.120873 0.572442
138.794571 122.809814 5.649903 0.545098
138.794571 122.809799 4.186811 0.657282
138.794571 122.809807 2.728417 0.676875
138.794571 122.809814 1.271584 0.667170
140.519745 126.198792 0.000009 0.538384
147.923004 140.742050 0.000003 0.562509
151.101517 146.986053 0.000001 0.533242
152.871780 150.463638 0.000000 0.544656
154.001938 152.683777 -0.000000 0.569024
154.787445 154.226852 -0.000001 0.495369
155.366165 155.363724 -0.000001 0.519783
138.444611 122.809814 13.190104 0.604471
138.302216 122.534843 11.715408 0.678431
138.302216 122.534836 10.184947 0.678431
138.444611 122.809814 8.626674 0.662593
138.444611 122.809814 7.139262 0.621775
138.444611 122.809814 5.663009 0.552972
138.444611 122.809807 4.194664 0.594888
138.444611 122.809807 2.731031 0.673472
138.444611 122.809814 1.268968 0.665583
140.266907 126.328606 0.000009 0.540322
147.771515 140.819839 0.000003 0.535836
150.993546 147.041489 0.000002 0.544640
152.788040 150.506622 0.000001 0.554665
153.933670 152.718826 -0.000000 0.554208
154.729935 154.256378 -0.000001 0.537652
155.316589 155.389191 -0.000001 0.544274
138.092117 122.809814 13.230982 0.575677
137.947266 122.534836 11.750901 0.678431
137.947266 122.534836 10.214848 0.678431
138.092117 122.809814 8.650881 0.505364
138.092117 122.809814 7.158036 0.558709
138.092117 122.809814 5.676391 0.583062
138.092102 122.809799 4.202681 0.589029
138.092102 122.809807 2.733702 0.750042
138.092117 122.809814 1.266298 0.767056
140.014984 126.460190 0.000009 0.539208
147.620575 140.898682 0.000004 0.545357
150.885956 147.097687 0.000001 0.538918
152.704605 150.550201 0.000000 0.540429
153.865662 152.754349 -0.000000 0.532052
154.672638 154.286316 -0.000001 0.541955
155.267181 155.414993 -0.000001 0.536324
137.737015 122.809830 13.272708 0.701213
137.589706 122.534836 11.787131 0.678431
137.589691 122.534821 10.245373 0.678431
137.737015 122.809807 8.675594 0.644709
137.737015 122.809814 7.177199 0.576074
137.737015 122.809814 5.690049 0.645243
137.737015 122.809807 4.210865 0.574121
137.737000 122.809799 2.736428 0.806683
137.737000 122.809799 1.263571 0.691066
139.763977 126.593521 0.000009 0.543069
147.470200 140.978561 0.000004 0.542519
150.778778 147.154617 0.000002 0.529152
152.621490 150.594376 0.000001 0.549630
153.797897 152.790344 -0.000000 0.538033
154.615540 154.316650 -0.000001 0.550439
155.217957 155.441147 -0.000001 0.502174
137.379242 122.809814 13.315304 0.641718
137.229462 122.534836 11.824115 0.712139
137.229446 122.534805 10.276530 0.678431
137.379242 122.809814 8.700815 0.661448
137.379242 122.809814 7.196762 0.562448
137.379242 122.809814 5.703994 0.563607
137.379242 122.809807 4.219219 0.652003
137.379242 122.809807 2.739211 0.698253
137.379242 122.809807 1.260789 0.666316
139.513916 126.728592 0.000009 0.540948
147.320374 141.059494 0.000004 0.529671
150.671997 147.212311 0.000002 0.543923
152.538666 150.639099 0.000001 0.559823
153.730377 152.826813 -0.000000 0.513893
154.558670 154.347366 -0.000001 0.534997
155.168900 155.467636 -0.000001 0.534035
137.018753 122.809814 13.358777 0.637415
136.866440 122.534805 11.861867 0.678431
136.866425 122.534775 10.308333 0.678431
137.018738 122.809814 8.726561 0.561959
137.018738 122.809814 7.216728 0.667399
137.018738 122.809814 5.718224 0.534600
137.018738 122.809814 4.227743 0.610239
137.018738 122.809814 2.742051 0.713085
137.018738 122.809814 1.257948 0.723827
139.264816 126.865433 0.000009 0.540780
147.171127 141.141479 0.000004 0.535363
150.565613 147.270737 0.000002 0.546883
152.456161 150.684418 0.000001 0.536721
153.663116 152.863770 0.000000 0.512398
154.501999 154.378494 -0.000000 0.498543
155.120056 155.494476 -0.000001 0.511223
136.655441 122.809814 13.403146 0.624887
136.500610 122.534790 11.900385 0.678431
136.500610 122.534775 10.340785 0.678431
