# This PCD file was generated using the MATLABÂ® pcwrite function
# from Computer Vision ToolboxÂ®.
# .PCD v.7 - Point Cloud Data file format
VERSION .7
FIELDS x y z intensity
SIZE 4 4 4 4
TYPE F F F F
COUNT 1 1 1 1
WIDTH 1190
HEIGHT 1
VIEWPOINT 0 0 0 1 0 0 0
POINTS 1190
DATA ascii
-15.204725 -40.374840 -0.000012 0.539528
-14.836778 -42.066822 -0.000010 0.547601
-14.565691 -43.313400 -0.000009 0.550973
-16.808500 -32.370689 6.797912 0.542077
-16.814217 -32.343491 6.142943 0.656565
-16.862534 -32.113586 5.533053 0.678431
-16.862534 -32.113590 4.880248 0.678431
-16.862534 -32.113586 4.233753 0.678431
-16.808500 -32.370689 3.570565 0.504524
-16.808500 -32.370689 2.940992 0.499275
-16.808498 -32.370693 2.313440 0.439109
-16.808498 -32.370693 1.686560 0.501167
-16.808498 -32.370693 1.059008 0.544472
-16.808498 -32.370693 0.429434 0.484596
-16.444664 -34.101887 -0.000020 0.541756
-15.642070 -37.920776 -0.000015 0.508370
-15.129685 -40.358791 -0.000012 0.539910
-14.773558 -42.053307 -0.000010 0.513787
-14.511181 -43.301746 -0.000008 0.558160
-16.672054 -32.370686 6.791000 0.648844
-16.683067 -32.316414 6.142941 0.513024
-16.724216 -32.113590 5.527963 0.678431
-16.724216 -32.113590 4.876098 0.678431
-16.724216 -32.113586 4.230534 0.678431
-16.672052 -32.370697 3.568303 0.733333
-16.672054 -32.370689 2.939636 0.774380
-16.672052 -32.370697 2.312988 0.730388
-16.672052 -32.370697 1.687012 0.628214
-16.672054 -32.370697 1.060364 0.733974
-16.672052 -32.370697 0.431697 0.709041
-16.325800 -34.077339 -0.000020 0.529763
-15.549887 -37.901733 -0.000015 0.540444
-15.054534 -40.343273 -0.000012 0.543130
-14.710246 -42.040234 -0.000010 0.557519
-14.456591 -43.290474 -0.000008 0.539834
-16.535995 -32.370689 6.784339 0.375982
-16.551739 -32.290211 6.142949 0.614572
-16.586290 -32.113594 5.523058 0.678431
-16.586290 -32.113590 4.872100 0.678431
-16.586292 -32.113590 4.227433 0.678431
-16.535995 -32.370689 3.566123 0.647059
-16.535995 -32.370693 2.938330 0.784314
-16.535995 -32.370693 2.312553 0.647059
-16.535994 -32.370697 1.687447 0.703426
-16.535995 -32.370693 1.061670 0.635966
-16.535995 -32.370693 0.433877 0.777417
-16.206770 -34.053619 -0.000020 0.541070
-15.457574 -37.883339 -0.000015 0.555276
-14.979278 -40.328278 -0.000012 0.561166
-14.646845 -42.027599 -0.000010 0.528923
-14.401924 -43.279579 -0.000008 0.542809
-16.400307 -32.370689 6.777931 0.386984
-16.420221 -32.264969 6.142947 0.698116
-16.448740 -32.113590 5.518338 0.678431
-16.448740 -32.113586 4.868253 0.678431
-16.448740 -32.113586 4.224449 0.678431
-16.400305 -32.370693 3.564025 0.500359
-16.400305 -32.370697 2.937073 0.549020
-16.400305 -32.370689 2.312135 0.537301
-16.400305 -32.370693 1.687865 0.537255
-16.400305 -32.370697 1.062927 0.480140
-16.400305 -32.370693 0.435975 0.549020
-16.087574 -34.030731 -0.000020 0.549432
-15.365132 -37.865589 -0.000015 0.550256
-14.903916 -40.313812 -0.000012 0.546639
-14.583356 -42.015411 -0.000010 0.560662
-14.347181 -43.269070 -0.000009 0.525948
-16.264975 -32.370689 6.771771 0.681971
-16.288544 -32.240593 6.142956 0.509621
-16.311552 -32.113586 5.513803 0.678431
-16.311552 -32.113590 4.864555 0.678431
-16.311554 -32.113586 4.221582 0.678431
-16.264975 -32.370689 3.562009 0.434379
-16.264975 -32.370689 2.935865 0.455497
-16.264973 -32.370693 2.311732 0.431373
-16.264973 -32.370693 1.688268 0.338720
-16.264975 -32.370689 1.064135 0.440146
-16.264975 -32.370693 0.437991 0.417578
-15.968223 -34.008678 -0.000020 0.539300
-15.272572 -37.848484 -0.000016 0.568353
-14.828459 -40.299866 -0.000012 0.508461
-14.519785 -42.003662 -0.000010 0.508217
-14.292368 -43.258938 -0.000009 0.517159
-16.129984 -32.370689 6.765858 0.664302
-16.156687 -32.217194 6.142952 0.630732
-16.174711 -32.113586 5.509450 0.678431
-16.174711 -32.113586 4.861006 0.678431
-16.174711 -32.113586 4.218829 0.678431
-16.129984 -32.370697 3.560073 0.844205
-16.129984 -32.370693 2.934705 0.573816
-16.129984 -32.370689 2.311346 0.870588
-16.129982 -32.370693 1.688654 0.570397
-16.129984 -32.370693 1.065294 0.833539
-16.129984 -32.370697 0.439926 0.574685
-15.848721 -33.987457 -0.000020 0.532845
-15.179892 -37.832024 -0.000016 0.546197
-14.752904 -40.286449 -0.000012 0.546181
-14.456132 -41.992355 -0.000010 0.563546
-14.237484 -43.249195 -0.000008 0.546914
-15.995320 -32.370686 6.760195 0.886793
-16.023289 -32.202991 6.141138 0.160784
-16.038200 -32.113586 5.505279 0.678431
-16.038200 -32.113586 4.857606 0.678431
-16.038200 -32.113586 4.216192 0.678431
-15.995319 -32.370693 3.558218 0.464637
-15.995318 -32.370697 2.933595 0.784314
-15.995319 -32.370693 2.310976 0.462287
-15.995318 -32.370697 1.689024 0.727016
-15.995318 -32.370697 1.066405 0.464149
-15.995319 -32.370697 0.441781 0.784314
-15.729070 -33.967075 -0.000021 0.540703
-15.087099 -37.816216 -0.000016 0.554955
-14.677257 -40.273560 -0.000013 0.545312
-14.392401 -41.981499 -0.000010 0.548486
-14.182533 -43.239830 -0.000009 0.555581
-15.860971 -32.370686 6.754774 0.712428
-15.887737 -32.202995 6.136422 0.160784
-15.902007 -32.113590 5.501287 0.593500
-15.902008 -32.113590 4.854351 0.611032
-15.902008 -32.113586 4.213669 0.628550
-15.860970 -32.370693 3.556445 0.449393
-15.860970 -32.370689 2.932532 0.735515
-15.860970 -32.370689 2.310622 0.451881
-15.860970 -32.370693 1.689378 0.709972
-15.860970 -32.370689 1.067468 0.460349
-15.860970 -32.370693 0.443555 0.610391
-15.609283 -33.947525 -0.000021 0.521965
-14.994200 -37.801056 -0.000016 0.548608
-14.601522 -40.261200 -0.000013 0.581994
-14.328597 -41.971085 -0.000010 0.545129
-14.127520 -43.230854 -0.000009 0.509560
-15.726920 -32.370689 6.749597 0.672114
-15.726919 -32.370689 6.095281 0.745449
-15.726919 -32.370689 5.450153 0.441825
-15.726919 -32.370689 4.812666 0.807843
-15.726919 -32.370689 4.181339 0.702159
-15.726920 -32.370689 3.554750 0.807843
-15.726919 -32.370693 2.931516 0.602823
-15.726919 -32.370689 2.310283 0.807843
-15.726919 -32.370689 1.689716 0.517647
-15.726919 -32.370693 1.068484 0.800900
-15.726920 -32.370689 0.445249 0.501213
-15.489363 -33.928810 -0.000021 0.549737
-14.901196 -37.786545 -0.000016 0.530465
-14.525703 -40.249371 -0.000013 0.550118
-14.264722 -41.961121 -0.000010 0.537957
-14.072444 -43.222260 -0.000009 0.558633
-15.593155 -32.370686 6.744662 0.836851
-15.593154 -32.370689 6.091027 0.265339
-15.593154 -32.370689 5.446569 0.472923
-15.593154 -32.370689 4.809743 0.784558
-15.593154 -32.370689 4.179073 0.477745
-15.593154 -32.370689 3.553135 0.816419
-15.593154 -32.370693 2.930548 0.470771
-15.593154 -32.370689 2.309961 0.804623
-15.593154 -32.370689 1.690039 0.474739
-15.593154 -32.370693 1.069451 0.773327
-15.593154 -32.370689 0.446864 0.477943
-15.369312 -33.910938 -0.000021 0.548119
-14.808092 -37.772682 -0.000016 0.533593
-14.449802 -40.238068 -0.000013 0.566278
-14.200779 -41.951599 -0.000010 0.529259
-14.017309 -43.214050 -0.000009 0.555001
-15.459661 -32.370689 6.739968 0.898924
-15.459661 -32.370689 6.086979 0.404013
-15.459661 -32.370689 5.443159 0.455634
-15.459661 -32.370689 4.806965 0.568475
-15.459661 -32.370689 4.176917 0.494865
-15.459661 -32.370689 3.551598 0.548455
-15.459661 -32.370689 2.929628 0.467948
-15.459661 -32.370689 2.309654 0.565484
-15.459661 -32.370689 1.690345 0.455314
-15.459660 -32.370689 1.070372 0.568475
-15.459660 -32.370693 0.448401 0.463142
-15.249144 -33.893898 -0.000021 0.534295
-14.714896 -37.759472 -0.000016 0.553017
-14.373827 -40.227295 -0.000013 0.590600
-14.136770 -41.942524 -0.000010 0.528206
-13.962119 -43.206223 -0.000009 0.559167
-15.326425 -32.370686 6.735515 0.512154
-15.326425 -32.370689 6.083140 0.691432
-15.326425 -32.370689 5.439924 0.568139
-15.326424 -32.370689 4.804326 0.846494
-15.326424 -32.370689 4.174871 0.590112
-15.326424 -32.370689 3.550140 0.862501
-15.326424 -32.370689 2.928754 0.589670
-15.326424 -32.370689 2.309364 0.876783
-15.326424 -32.370689 1.690636 0.577752
-15.326424 -32.370689 1.071246 0.598291
-15.326424 -32.370693 0.449859 0.545708
-15.128857 -33.877701 -0.000021 0.530999
-14.621610 -37.746906 -0.000016 0.560616
-14.297777 -40.217056 -0.000013 0.563806
-14.072701 -41.933899 -0.000010 0.548791
-13.906876 -43.198784 -0.000009 0.576654
-15.193430 -32.370682 6.731301 0.792905
-15.193430 -32.370689 6.079506 0.694835
-15.193430 -32.370689 5.436862 0.575555
-15.193430 -32.370689 4.801830 0.879484
-15.193430 -32.370689 4.172935 0.571099
-15.193430 -32.370689 3.548760 0.854353
-15.193430 -32.370689 2.927927 0.578012
-15.193430 -32.370689 2.309088 0.841337
-15.193430 -32.370689 1.690912 0.543496
-15.193430 -32.370689 1.072072 0.674006
-15.193430 -32.370689 0.451239 0.551522
-15.008459 -33.862343 -0.000021 0.558968
-14.528236 -37.735001 -0.000016 0.511360
-14.221657 -40.207348 -0.000013 0.562463
-14.008572 -41.925720 -0.000010 0.568399
-13.851582 -43.191734 -0.000009 0.513893
-15.060668 -32.370682 6.727324 0.805295
-15.060667 -32.370689 6.076076 0.516518
-15.060668 -32.370689 5.433973 0.597650
-15.060668 -32.370689 4.799476 0.616754
-15.060668 -32.370689 4.171110 0.617609
-15.060667 -32.370689 3.547459 0.610376
-15.060667 -32.370689 2.927148 0.612222
-15.060667 -32.370689 2.308829 0.591546
-15.060667 -32.370689 1.691171 0.514122
-15.060667 -32.370689 1.072852 0.532448
-15.060667 -32.370689 0.452541 0.477012
-14.887959 -33.847832 -0.000021 0.539223
-14.434784 -37.723743 -0.000016 0.534188
-14.145471 -40.198170 -0.000013 0.555062
-13.944388 -41.917984 -0.000010 0.518471
-13.796240 -43.185066 -0.000009 0.535286
-14.928122 -32.370682 6.723584 0.772946
-14.928121 -32.370689 6.072850 0.666163
-14.928121 -32.370689 5.431256 0.761334
-14.928121 -32.370689 4.797261 0.661006
-14.928121 -32.370689 4.169392 0.758892
-14.928121 -32.370689 3.546234 0.623117
-14.928121 -32.370689 2.926414 0.736675
-14.928121 -32.370689 2.308584 0.660929
-14.928121 -32.370689 1.691416 0.774075
-14.928121 -32.370689 1.073586 0.566018
-14.928121 -32.370689 0.453765 0.630045
-14.767359 -33.834152 -0.000021 0.531365
-14.341253 -37.713139 -0.000016 0.528862
-14.069222 -40.189526 -0.000013 0.537148
-13.880151 -41.910706 -0.000010 0.552728
-13.740852 -43.178787 -0.000009 0.544503
-14.795777 -32.370689 6.720077 0.512093
-14.795777 -32.370689 6.069829 0.661814
-14.795777 -32.370689 5.428710 0.783917
-14.795777 -32.370689 4.795185 0.655558
-14.795777 -32.370686 4.167782 0.695064
-14.795777 -32.370693 3.545087 0.632105
-14.795777 -32.370689 2.925726 0.700969
-14.795777 -32.370689 2.308355 0.655558
-14.795777 -32.370689 1.691645 0.727947
-14.795776 -32.370693 1.074273 0.532250
-14.795776 -32.370693 0.454913 0.388205
-14.646667 -33.821323 -0.000021 0.532570
-14.247652 -37.703186 -0.000016 0.542107
-13.992916 -40.181412 -0.000013 0.543099
-13.815866 -41.903870 -0.000011 0.558709
-13.685423 -43.172894 -0.000009 0.559686
-14.663625 -32.370686 6.716808 0.545129
-14.663624 -32.370689 6.067009 0.616251
-14.663625 -32.370686 5.426335 0.510750
-14.663625 -32.370689 4.793248 0.576349
-14.663625 -32.370682 4.166281 0.510750
-14.663624 -32.370689 3.544017 0.582284
-14.663624 -32.370693 2.925085 0.510796
-14.663624 -32.370689 2.308142 0.632502
-14.663624 -32.370689 1.691858 0.485359
-14.663624 -32.370693 1.074914 0.534295
-14.663624 -32.370693 0.455983 0.447288
-14.525889 -33.809334 -0.000021 0.546792
-14.153984 -37.693886 -0.000016 0.552438
-13.916554 -40.173836 -0.000013 0.532830
-13.751534 -41.897484 -0.000010 0.553704
-13.629953 -43.167385 -0.000009 0.536507
-14.531647 -32.370689 6.713771 0.668849
-14.531647 -32.370689 6.064392 0.488060
-14.531647 -32.370689 5.424129 0.649500
-14.531647 -32.370689 4.791451 0.473350
-14.531648 -32.370689 4.164886 0.638041
-14.531647 -32.370689 3.543023 0.469734
-14.531647 -32.370689 2.924489 0.639551
-14.531647 -32.370689 2.307943 0.458274
-14.531647 -32.370693 1.692057 0.439750
-14.531647 -32.370689 1.075510 0.483513
-14.531647 -32.370689 0.456977 0.370932
-14.405030 -33.798187 -0.000021 0.538170
-14.060253 -37.685242 -0.000016 0.547860
-13.840143 -40.166782 -0.000013 0.519677
-13.687159 -41.891548 -0.000010 0.540825
-13.574447 -43.162270 -0.000009 0.538888
-14.399834 -32.370686 6.710970 0.497353
-14.413529 -32.202988 6.098317 0.160784
-14.420831 -32.113586 5.469031 0.397086
-14.420831 -32.113583 4.828056 0.480293
-14.420831 -32.113586 4.193274 0.426688
-14.399834 -32.370689 3.542105 0.835203
-14.399834 -32.370689 2.923940 0.452445
-14.399834 -32.370693 2.307760 0.819898
-14.399834 -32.370693 1.692240 0.601480
-14.399834 -32.370689 1.076059 0.629252
-14.399834 -32.370689 0.457894 0.524147
-14.284096 -33.787888 -0.000021 0.543297
-13.966464 -37.677250 -0.000016 0.536492
-13.763683 -40.160271 -0.000013 0.551659
-13.622744 -41.886055 -0.000011 0.489006
-13.518907 -43.157539 -0.000009 0.549264
-14.268169 -32.370689 6.708400 0.435508
-14.280688 -32.202988 6.096081 0.160784
-14.287361 -32.113586 5.467139 0.666667
-14.287361 -32.113586 4.826513 0.678431
-14.287361 -32.113586 4.192079 0.678431
-14.268169 -32.370689 3.541265 0.448936
-14.268169 -32.370689 2.923437 0.755154
-14.268169 -32.370689 2.307592 0.462470
-14.268169 -32.370689 1.692408 0.747127
-14.268169 -32.370689 1.076563 0.457084
-14.268170 -32.370689 0.458735 0.447242
-14.163093 -33.778427 -0.000021 0.536324
-13.872621 -37.669922 -0.000016 0.534401
-13.687180 -40.154289 -0.000013 0.518380
-13.558292 -41.881020 -0.000011 0.542275
-13.463333 -43.153194 -0.000009 0.547417
-14.136642 -32.370682 6.706063 0.437171
-14.147984 -32.202984 6.094048 0.160784
-14.154029 -32.113586 5.465418 0.678431
-14.154029 -32.113586 4.825109 0.678431
-14.154029 -32.113586 4.190990 0.678431
-14.136642 -32.370689 3.540499 0.418570
-14.136642 -32.370693 2.922978 0.740688
-14.136642 -32.370689 2.307440 0.424002
-14.136642 -32.370689 1.692560 0.744488
-14.136642 -32.370693 1.077022 0.447532
-14.136642 -32.370689 0.459500 0.447379
-14.042025 -33.769814 -0.000021 0.540993
-13.778728 -37.663239 -0.000016 0.533639
-13.610636 -40.148846 -0.000013 0.498482
-13.493806 -41.876434 -0.000011 0.584253
-13.407731 -43.149239 -0.000009 0.541711
-14.005240 -32.370682 6.703957 0.517647
-14.015406 -32.202988 6.092216 0.146319
-14.020824 -32.113586 5.463866 0.678431
-14.020824 -32.113586 4.823844 0.678431
-14.020824 -32.113586 4.190009 0.678431
-14.005239 -32.370689 3.539810 0.814801
-14.005239 -32.370689 2.922565 0.702922
-14.005239 -32.370689 2.307302 0.804791
-14.005239 -32.370689 1.692698 0.538125
-14.005239 -32.370689 1.077435 0.689586
-14.005239 -32.370689 0.460189 0.431281
-13.920901 -33.762047 -0.000021 0.542763
-13.684792 -37.657215 -0.000016 0.531975
-13.534057 -40.143936 -0.000013 0.542855
-13.429291 -41.872295 -0.000011 0.556497
-13.352103 -43.145672 -0.000009 0.545876
-13.873950 -32.370682 6.702082 0.473701
-13.882940 -32.202988 6.090584 0.160784
-13.887733 -32.113586 5.462486 0.678431
-13.887733 -32.113586 4.822720 0.678431
-13.887733 -32.113586 4.189137 0.678431
-13.873950 -32.370689 3.539196 0.829664
-13.873950 -32.370689 2.922197 0.469230
-13.873949 -32.370689 2.307179 0.803006
-13.873949 -32.370689 1.692820 0.454292
-13.873950 -32.370689 1.077802 0.673152
-13.873950 -32.370689 0.460803 0.410117
-13.799726 -33.755135 -0.000021 0.547982
-13.590816 -37.651848 -0.000016 0.548180
-13.457445 -40.139561 -0.000013 0.522301
-13.364747 -41.868610 -0.000011 0.529473
-13.296453 -43.142494 -0.000009 0.521813
-13.742756 -32.370678 6.700438 0.457908
-13.750573 -32.202988 6.089152 0.160784
-13.754741 -32.113586 5.461274 0.678431
-13.754740 -32.113586 4.821732 0.678431
-13.754740 -32.113586 4.188371 0.678431
-13.742756 -32.370689 3.538658 0.527184
-13.742756 -32.370689 2.921875 0.511650
-13.742756 -32.370689 2.307072 0.563836
-13.742756 -32.370689 1.692928 0.458640
-13.742756 -32.370689 1.078125 0.553933
-13.742756 -32.370689 0.461342 0.488365
-13.678507 -33.749054 -0.000021 0.541772
-13.496805 -37.647137 -0.000016 0.528191
-13.380805 -40.135719 -0.000013 0.522072
-13.300180 -41.865372 -0.000011 0.574975
-13.240780 -43.139702 -0.000010 0.555596
-13.611650 -32.370682 6.699022 0.517800
-13.618294 -32.202988 6.087921 0.160784
-13.621836 -32.113590 5.460232 0.678431
-13.621836 -32.113586 4.820883 0.678431
-13.621836 -32.113590 4.187712 0.678431
-13.611650 -32.370689 3.538195 0.852110
-13.611650 -32.370689 2.921597 0.557092
-13.611650 -32.370689 2.306979 0.847791
-13.611650 -32.370689 1.693020 0.594369
-13.611650 -32.370693 1.078403 0.787243
-13.611650 -32.370689 0.461805 0.468162
-13.557247 -33.743828 -0.000021 0.551110
-13.402764 -37.643082 -0.000016 0.533715
-13.304140 -40.132416 -0.000013 0.527550
-13.235592 -41.862591 -0.000011 0.543130
-13.185090 -43.137302 -0.000009 0.554925
-13.480615 -32.370682 6.697838 0.591745
-13.486087 -32.202988 6.086890 0.160784
-13.489003 -32.113586 5.459360 0.678431
-13.489003 -32.113590 4.820171 0.678431
-13.489003 -32.113590 4.187160 0.678431
-13.480615 -32.370689 3.537807 0.904875
-13.480615 -32.370689 2.921364 0.578836
-13.480615 -32.370689 2.306902 0.849561
-13.480615 -32.370689 1.693098 0.543313
-13.480615 -32.370689 1.078635 0.776013
-13.480615 -32.370689 0.462193 0.788815
-13.435954 -33.739449 -0.000021 0.546822
-13.308696 -37.639683 -0.000016 0.535088
-13.227453 -40.129642 -0.000013 0.534417
-13.170986 -41.860256 -0.000011 0.551217
-13.129384 -43.135288 -0.000009 0.507362
-13.349638 -32.370686 6.696881 0.536965
-13.353938 -32.202988 6.086060 0.160784
-13.353676 -32.213219 5.440522 0.160784
-13.353676 -32.213219 4.804814 0.179706
-13.353676 -32.213219 4.175251 0.170382
-13.349639 -32.370689 3.537494 0.420264
-13.349638 -32.370689 2.921177 0.606958
-13.349638 -32.370689 2.306840 0.457252
-13.349638 -32.370689 1.693160 0.524742
-13.349638 -32.370689 1.078822 0.530770
-13.349639 -32.370689 0.462505 0.714107
-13.314633 -33.735909 -0.000021 0.534630
-13.214606 -37.636944 -0.000016 0.541833
-13.150748 -40.127411 -0.000013 0.555261
-13.106365 -41.858372 -0.000011 0.531716
-13.073665 -43.133667 -0.000009 0.517601
-13.218710 -32.370682 6.696155 0.772152
-13.218710 -32.370689 6.049202 0.672587
-13.218710 -32.370693 5.411332 0.765072
-13.218710 -32.370689 4.781018 0.612924
-13.218710 -32.370689 4.156796 0.726650
-13.218710 -32.370689 3.537256 0.564736
-13.218710 -32.370689 2.921035 0.750072
-13.218710 -32.370689 2.306792 0.674754
-13.218710 -32.370689 1.693208 0.780865
-13.218710 -32.370689 1.078965 0.675624
-13.218710 -32.370689 0.462743 0.760281
-13.193291 -33.733215 -0.000022 0.534508
-13.120501 -37.634857 -0.000017 0.516381
-13.074031 -40.125710 -0.000013 0.535271
-13.041733 -41.856941 -0.000011 0.533028
-13.017937 -43.132431 -0.000010 0.531716
-13.087817 -32.370682 6.695660 0.724376
-13.087816 -32.370689 6.048774 0.631251
-13.087817 -32.370689 5.410972 0.860609
-13.087817 -32.370689 4.780724 0.603738
-13.087816 -32.370689 4.156567 0.815641
-13.087816 -32.370689 3.537093 0.554711
-13.087817 -32.370689 2.920938 0.883619
-13.087817 -32.370689 2.306760 0.647059
-13.087817 -32.370689 1.693240 0.759945
-13.087817 -32.370689 1.079062 0.397894
-13.087816 -32.370689 0.462906 0.561929
-13.071933 -33.731377 -0.000022 0.541466
-13.026383 -37.633430 -0.000016 0.541772
-12.997303 -40.124546 -0.000014 0.544640
-12.977092 -41.855961 -0.000011 0.558038
-12.962201 -43.131584 -0.000010 0.535119
-12.956944 -32.370682 6.695391 0.519448
-12.956944 -32.370689 6.048542 0.546746
-12.956944 -32.370689 5.410776 0.568933
-12.956944 -32.370689 4.780564 0.513497
-12.956944 -32.370689 4.156444 0.607904
-12.956944 -32.370689 3.537006 0.505821
-12.956944 -32.370689 2.920885 0.539284
-12.956944 -32.370689 2.306743 0.541711
-12.956944 -32.370689 1.693258 0.533745
-12.956944 -32.370689 1.079115 0.456367
-12.956944 -32.370689 0.462994 0.661997
-12.950565 -33.730385 -0.000021 0.541146
-12.932258 -37.632656 -0.000017 0.540093
-12.920569 -40.123917 -0.000014 0.555566
-12.912446 -41.855434 -0.000011 0.529992
-12.906461 -43.131130 -0.000010 0.515541
-12.826078 -32.370682 6.695351 0.296193
-12.826078 -32.370689 6.048509 0.428183
-12.826078 -32.370689 5.410748 0.690990
-12.826078 -32.370689 4.780541 0.515389
-12.826078 -32.370686 4.156426 0.704143
-12.826078 -32.370689 3.536992 0.476097
-12.826078 -32.370689 2.920877 0.656886
-12.826078 -32.370689 2.306740 0.419669
-12.826078 -32.370689 1.693260 0.332403
-12.826078 -32.370689 1.079123 0.462715
-12.826078 -32.370689 0.463007 0.633051
-12.829192 -33.730240 -0.000022 0.537270
-12.838128 -37.632545 -0.000016 0.524681
-12.843833 -40.123825 -0.000014 0.566690
-12.847797 -41.855354 -0.000011 0.543008
-12.850718 -43.131062 -0.000010 0.553307
-12.695211 -32.370682 6.695540 0.568795
-12.695211 -32.370686 6.048673 0.872023
-12.695211 -32.370689 5.410885 0.561395
-12.695211 -32.370689 4.780654 0.785550
-12.695211 -32.370689 4.156513 0.494453
-12.695211 -32.370693 3.537055 0.877668
-12.695211 -32.370689 2.920914 0.578653
-12.695211 -32.370689 2.306752 0.865568
-12.695211 -32.370689 1.693248 0.574899
-12.695211 -32.370689 1.079085 0.567636
-12.695211 -32.370693 0.462945 0.779553
-12.707823 -33.730942 -0.000021 0.543770
-12.744001 -37.633091 -0.000017 0.553155
-12.767097 -40.124271 -0.000013 0.545480
-12.783151 -41.855728 -0.000011 0.541848
-12.794978 -43.131386 -0.000010 0.526497
-12.564324 -32.370682 6.695961 0.560830
-12.564324 -32.370686 6.049034 0.450492
-12.564324 -32.370686 5.411190 0.736126
-12.564325 -32.370689 4.780902 0.452384
-12.564324 -32.370686 4.156705 0.824475
-12.564325 -32.370689 3.537191 0.440314
-12.564325 -32.370689 2.920996 0.728420
-12.564324 -32.370682 2.306780 0.458091
-12.564324 -32.370682 1.693220 0.799832
-12.564325 -32.370689 1.079003 0.412680
-12.564325 -32.370689 0.462807 0.673701
-12.586459 -33.732491 -0.000022 0.539452
-12.649879 -37.634293 -0.000016 0.542412
-12.690367 -40.125248 -0.000014 0.526467
-12.718508 -41.856552 -0.000011 0.535821
-12.739241 -43.132099 -0.000010 0.515557
-12.433410 -32.370682 6.696607 0.748623
-12.433410 -32.370682 6.049591 0.449256
-12.433410 -32.370686 5.411660 0.805951
-12.433410 -32.370689 4.781284 0.468696
-12.433410 -32.370689 4.157002 0.807843
-12.433410 -32.370686 3.537404 0.454414
-12.433410 -32.370686 2.921124 0.805371
-12.433410 -32.370686 2.306822 0.456641
-12.433410 -32.370686 1.693178 0.736568
-12.433410 -32.370686 1.078876 0.413443
-12.433410 -32.370686 0.462595 0.615183
-12.465111 -33.734886 -0.000022 0.543862
-12.555769 -37.636150 -0.000017 0.541939
-12.613646 -40.126762 -0.000014 0.555505
-12.653872 -41.857830 -0.000011 0.524361
-12.683509 -43.133194 -0.000010 0.534646
-12.302451 -32.370682 6.697484 0.503655
-12.302451 -32.370686 6.050347 0.468376
-12.302451 -32.370682 5.412297 0.511620
-12.302451 -32.370686 4.781804 0.596460
-12.302451 -32.370686 4.157405 0.517693
-12.302451 -32.370686 3.537691 0.512596
-12.302451 -32.370686 2.921295 0.511925
-12.302451 -32.370682 2.306879 0.483253
-12.302451 -32.370682 1.693121 0.500877
-12.302451 -32.370689 1.078705 0.585046
-12.302451 -32.370689 0.462308 0.493019
-12.343781 -33.738129 -0.000022 0.532296
-12.461673 -37.638664 -0.000016 0.556924
-12.536936 -40.128815 -0.000013 0.557366
-12.589247 -41.859558 -0.000011 0.528450
-12.627787 -43.134686 -0.000010 0.544656
-12.171438 -32.370682 6.698590 0.494392
-12.171438 -32.370682 6.051301 0.803342
-12.171438 -32.370682 5.413101 0.459876
-12.171438 -32.370682 4.782459 0.792325
-12.171438 -32.370682 4.157913 0.462043
-12.171438 -32.370689 3.538053 0.845670
-12.171438 -32.370686 2.921512 0.457786
-12.171438 -32.370682 2.306951 0.778027
-12.171438 -32.370682 1.693048 0.495964
-12.171438 -32.370689 1.078488 0.272404
-12.171438 -32.370689 0.461947 0.544060
-12.222478 -33.742218 -0.000022 0.539208
-12.367598 -37.641838 -0.000016 0.550256
-12.460243 -40.131397 -0.000014 0.500847
-12.524635 -41.861736 -0.000011 0.555856
-12.572076 -43.136566 -0.000010 0.543420
-12.040357 -32.370682 6.699925 0.459678
-12.040357 -32.370686 6.052453 0.613748
-12.040357 -32.370686 5.414070 0.404700
-12.040357 -32.370689 4.783250 0.607691
-12.040357 -32.370689 4.158526 0.367117
-12.040357 -32.370689 3.538490 0.598337
-12.040357 -32.370689 2.921774 0.391546
-12.040357 -32.370686 2.307039 0.600458
-12.040357 -32.370686 1.692961 0.456916
-12.040357 -32.370689 1.078226 0.330541
-12.040357 -32.370689 0.461509 0.639765
-12.101206 -33.747154 -0.000022 0.549432
-12.273545 -37.645664 -0.000017 0.534142
-12.383570 -40.134521 -0.000014 0.535683
-12.460040 -41.864365 -0.000011 0.510201
-12.516379 -43.138832 -0.000010 0.568414
-11.909195 -32.370682 6.701490 0.583871
-11.900608 -32.202984 6.090069 0.160784
-11.896030 -32.113586 5.462049 0.553063
-11.896030 -32.113594 4.822363 0.598230
-11.896030 -32.113586 4.188861 0.580697
-11.909195 -32.370689 3.539003 0.890120
-11.909195 -32.370689 2.922081 0.538415
-11.909195 -32.370689 2.307140 0.834287
-11.909195 -32.370689 1.692859 0.597620
-11.909195 -32.370689 1.077919 0.492271
-11.909195 -32.370689 0.460997 0.606638
-11.979972 -33.752941 -0.000022 0.551354
-12.179523 -37.650150 -0.000016 0.527718
-12.306920 -40.138176 -0.000014 0.525658
-12.395465 -41.867443 -0.000011 0.546105
-12.460701 -43.141487 -0.000010 0.568994
-11.777939 -32.370682 6.703287 0.559625
-11.768179 -32.202988 6.091631 0.151415
-11.762975 -32.113590 5.463371 0.678431
-11.762976 -32.113594 4.823442 0.678431
-11.762975 -32.113594 4.189696 0.678431
-11.777940 -32.370689 3.539591 0.902571
-11.777940 -32.370686 2.922433 0.573480
-11.777940 -32.370689 2.307258 0.862928
-11.777940 -32.370686 1.692742 0.557443
-11.777940 -32.370686 1.077566 0.438819
-11.777940 -32.370689 0.460409 0.665644
-11.858781 -33.759567 -0.000021 0.538567
-12.085536 -37.655293 -0.000017 0.545663
-12.230298 -40.142368 -0.000014 0.548608
-12.330914 -41.870975 -0.000011 0.521508
-12.405043 -43.144531 -0.000010 0.541543
-11.646578 -32.370682 6.705313 0.385290
-11.635642 -32.202988 6.093394 0.152972
-11.629812 -32.113590 5.464865 0.678431
-11.629812 -32.113590 4.824658 0.678431
-11.629812 -32.113590 4.190640 0.678431
-11.646578 -32.370689 3.540254 0.411582
-11.646578 -32.370689 2.922831 0.576196
-11.646578 -32.370689 2.307390 0.441154
-11.646578 -32.370689 1.692610 0.540597
-11.646578 -32.370689 1.077169 0.473182
-11.646578 -32.370689 0.459746 0.353185
-11.737640 -33.767044 -0.000022 0.531594
-11.991586 -37.661087 -0.000017 0.535714
-12.153708 -40.147095 -0.000014 0.573297
-12.266389 -41.874958 -0.000011 0.536568
-12.349406 -43.147964 -0.000010 0.541588
-11.515094 -32.370674 6.707572 0.549081
-11.502982 -32.202988 6.095358 0.154269
-11.496525 -32.113586 5.466527 0.678431
-11.496525 -32.113586 4.826015 0.678431
-11.496525 -32.113586 4.191691 0.678431
-11.515095 -32.370686 3.540993 0.655024
-11.515095 -32.370686 2.923273 0.783948
-11.515095 -32.370689 2.307538 0.684337
-11.515095 -32.370689 1.692462 0.783429
-11.515095 -32.370686 1.076726 0.380804
-11.515095 -32.370686 0.459006 0.554528
-11.616552 -33.775368 -0.000021 0.539086
-11.897677 -37.667542 -0.000017 0.555489
-12.077151 -40.152355 -0.000014 0.533028
-12.201892 -41.879391 -0.000011 0.535805
-12.293795 -43.151787 -0.000010 0.539361
-11.383480 -32.370682 6.710061 0.521492
-11.370190 -32.202988 6.097525 0.155581
-11.363106 -32.113586 5.468360 0.678431
-11.363106 -32.113594 4.827508 0.678431
-11.363106 -32.113594 4.192851 0.678431
-11.383480 -32.370689 3.541808 0.627359
-11.383480 -32.370686 2.923762 0.855344
-11.383480 -32.370686 2.307700 0.647059
-11.383480 -32.370686 1.692299 0.776318
-11.383480 -32.370686 1.076238 0.409049
-11.383480 -32.370689 0.458192 0.488991
-11.495527 -33.784531 -0.000022 0.543679
-11.803818 -37.674652 -0.000017 0.545846
-12.000634 -40.158150 -0.000014 0.541238
-12.137428 -41.884270 -0.000011 0.516136
-12.238213 -43.155998 -0.000010 0.508171
-11.251719 -32.370682 6.712784 0.367132
-11.237249 -32.202988 6.099894 0.160784
-11.229537 -32.113594 5.470365 0.678431
-11.229537 -32.113590 4.829144 0.678431
-11.229537 -32.113590 4.194118 0.678431
-11.251719 -32.370686 3.542699 0.546227
-11.251719 -32.370682 2.924296 0.531777
-11.251719 -32.370682 2.307879 0.548714
-11.251719 -32.370682 1.692121 0.530465
-11.251719 -32.370682 1.075704 0.399558
-11.251719 -32.370682 0.457300 0.375357
-11.374567 -33.794540 -0.000022 0.527871
-11.710009 -37.682415 -0.000017 0.526085
-11.924158 -40.164478 -0.000014 0.537301
-12.073000 -41.889603 -0.000011 0.536309
-12.182660 -43.160595 -0.000010 0.551904
-11.119801 -32.370682 6.715739 0.373526
-11.104152 -32.202988 6.102464 0.160784
-11.095810 -32.113586 5.472541 0.678431
-11.095810 -32.113590 4.830916 0.678431
-11.095810 -32.113590 4.195494 0.678431
-11.119802 -32.370686 3.543667 0.441733
-11.119801 -32.370686 2.924875 0.599115
-11.119802 -32.370686 2.308071 0.426596
-11.119802 -32.370686 1.691928 0.377508
-11.119801 -32.370686 1.075124 0.414847
-11.119802 -32.370686 0.456333 0.324910
-11.253683 -33.805397 -0.000022 0.527352
-11.616259 -37.690834 -0.000017 0.538323
-11.847731 -40.171341 -0.000014 0.524620
-12.008612 -41.895386 -0.000011 0.560723
-12.127142 -43.165581 -0.000010 0.531380
-10.987708 -32.370682 6.718928 0.650950
-10.970878 -32.202988 6.105238 0.160784
-10.961905 -32.113586 5.474890 0.678431
-10.961905 -32.113590 4.832831 0.678431
-10.961905 -32.113586 4.196979 0.678431
-10.987709 -32.370682 3.544711 0.875502
-10.987709 -32.370682 2.925501 0.576516
-10.987709 -32.370682 2.308280 0.860533
-10.987709 -32.370682 1.691720 0.573693
-10.987709 -32.370682 1.074499 0.526268
-10.987709 -32.370682 0.455288 0.560006
-11.132875 -33.817093 -0.000022 0.535775
-11.522567 -37.699905 -0.000017 0.542794
-11.771351 -40.178738 -0.000014 0.549310
-11.944264 -41.901619 -0.000011 0.544076
-12.071659 -43.170952 -0.000010 0.540581
-10.855432 -32.370674 6.722353 0.597253
-10.837419 -32.202988 6.108216 0.160784
-10.837419 -32.202988 5.461051 0.160784
-10.837419 -32.202988 4.821549 0.144121
-10.837418 -32.202984 4.188230 0.160784
-10.855433 -32.370689 3.545831 0.447120
-10.855433 -32.370682 2.926173 0.721508
-10.855433 -32.370682 2.308504 0.461738
-10.855433 -32.370682 1.691496 0.783780
-10.855433 -32.370682 1.073827 0.430304
-10.855433 -32.370682 0.454168 0.468849
-11.012153 -33.829636 -0.000022 0.553658
-11.428942 -37.709633 -0.000017 0.523308
-11.695024 -40.186668 -0.000014 0.549737
-11.879962 -41.908298 -0.000011 0.544579
-12.016215 -43.176712 -0.000010 0.513771
-10.722956 -32.370682 6.726012 0.775876
-10.722956 -32.370678 6.074946 0.464607
-10.722956 -32.370682 5.433020 0.748440
-10.722956 -32.370678 4.798699 0.437263
-10.722956 -32.370682 4.170506 0.771130
-10.722956 -32.370682 3.547029 0.439689
-10.722956 -32.370686 2.926890 0.768505
-10.722956 -32.370682 2.308743 0.458244
-10.722956 -32.370682 1.691257 0.738842
-10.722956 -32.370686 1.073109 0.437644
-10.722956 -32.370682 0.452970 0.504280
-10.891520 -33.843021 -0.000022 0.537850
-11.335386 -37.720016 -0.000017 0.538888
-11.618755 -40.195129 -0.000014 0.538094
-11.815708 -41.915428 -0.000011 0.540002
-11.960813 -43.182861 -0.000010 0.549035
-10.590269 -32.370682 6.729906 0.619089
-10.590270 -32.370682 6.078305 0.548287
-10.590270 -32.370682 5.435850 0.523201
-10.590270 -32.370682 4.801006 0.676310
-10.590270 -32.370682 4.172297 0.565667
-10.590270 -32.370686 3.548304 0.677287
-10.590270 -32.370682 2.927654 0.565927
-10.590270 -32.370682 2.308997 0.676036
-10.590270 -32.370682 1.691003 0.520928
-10.590270 -32.370682 1.072345 0.556649
-10.590270 -32.370686 0.451695 0.464317
-10.770986 -33.857246 -0.000022 0.530358
-11.241907 -37.731049 -0.000017 0.519310
-11.542549 -40.204124 -0.000014 0.506889
-11.751506 -41.923004 -0.000011 0.567864
-11.905456 -43.189392 -0.000010 0.556664
-10.457355 -32.370674 6.734041 0.934035
-10.457355 -32.370682 6.081868 0.498253
-10.457356 -32.370682 5.438852 0.491966
-10.457356 -32.370682 4.803453 0.818143
-10.457356 -32.370682 4.174195 0.473686
-10.457356 -32.370682 3.549657 0.818143
-10.457356 -32.370682 2.928465 0.473686
-10.457356 -32.370682 2.309267 0.767514
-10.457356 -32.370682 1.690732 0.491966
-10.457356 -32.370682 1.071535 0.498253
-10.457356 -32.370682 0.450342 0.437232
-10.650551 -33.872314 -0.000022 0.571206
-11.148505 -37.742729 -0.000017 0.534874
-11.466405 -40.213650 -0.000014 0.551568
-11.687357 -41.931030 -0.000011 0.536202
-11.850143 -43.196312 -0.000010 0.527047
-10.324204 -32.370678 6.738412 0.932570
-10.324204 -32.370682 6.085637 0.404089
-10.324205 -32.370686 5.442027 0.439750
-10.324205 -32.370682 4.806041 0.569238
-10.324204 -32.370682 4.176202 0.472557
-10.324205 -32.370686 3.551088 0.531350
-10.324205 -32.370682 2.929323 0.470970
-10.324205 -32.370682 2.309553 0.567208
-10.324205 -32.370682 1.690447 0.442084
-10.324205 -32.370682 1.070677 0.480537
-10.324205 -32.370686 0.448911 0.486625
-10.530226 -33.888222 -0.000022 0.554391
-11.055188 -37.755070 -0.000017 0.543359
-11.390330 -40.223705 -0.000014 0.545159
-11.623266 -41.939503 -0.000011 0.535286
-11.794883 -43.203617 -0.000010 0.548348
-10.190799 -32.370678 6.743022 0.680522
-10.190800 -32.370682 6.089612 0.528099
-10.190800 -32.370686 5.445376 0.595041
-10.190800 -32.370682 4.808772 0.827893
-10.190800 -32.370682 4.178320 0.562158
-10.190800 -32.370682 3.552598 0.849500
-10.190800 -32.370682 2.930227 0.559762
-10.190801 -32.370686 2.309854 0.837400
-10.190801 -32.370686 1.690146 0.592966
-10.190800 -32.370682 1.069773 0.664057
-10.190800 -32.370682 0.447402 0.543557
-10.410013 -33.904968 -0.000022 0.533104
-10.961960 -37.768059 -0.000017 0.544686
-11.314327 -40.234299 -0.000014 0.530449
-11.559237 -41.948421 -0.000011 0.537041
-11.739674 -43.211311 -0.000010 0.560815
-10.057128 -32.370678 6.747873 0.793957
-10.057129 -32.370686 6.093795 0.668376
-10.057129 -32.370682 5.448901 0.540078
-10.057129 -32.370682 4.811646 0.850462
-10.057129 -32.370682 4.180549 0.576867
-10.057129 -32.370682 3.554186 0.841596
-10.057129 -32.370682 2.931179 0.546532
-10.057129 -32.370682 2.310171 0.870207
-10.057129 -32.370682 1.689829 0.550790
-10.057129 -32.370682 1.068821 0.865736
-10.057129 -32.370682 0.445813 0.572457
-10.289922 -33.922554 -0.000022 0.553429
-10.868823 -37.781693 -0.000017 0.532616
-11.238400 -40.245415 -0.000014 0.513207
-11.495270 -41.957790 -0.000011 0.543999
-11.684519 -43.219387 -0.000010 0.526390
-9.923178 -32.370678 6.752967 0.787915
-9.923179 -32.370682 6.098186 0.766354
-9.923179 -32.370686 5.452600 0.489952
-9.923179 -32.370686 4.814661 0.478553
-9.923178 -32.370682 4.182887 0.602335
-9.923179 -32.370682 3.555853 0.438911
-9.923179 -32.370682 2.932177 0.538277
-9.923179 -32.370682 2.310504 0.446204
-9.923179 -32.370682 1.689496 0.559380
-9.923179 -32.370682 1.067822 0.441962
-9.923179 -32.370682 0.444146 0.386496
-10.169956 -33.940979 -0.000022 0.546166
-10.775785 -37.795986 -0.000017 0.534844
-11.162553 -40.257065 -0.000014 0.545739
-11.431371 -41.967602 -0.000012 0.504997
-11.629423 -43.227852 -0.000010 0.518227
-9.788933 -32.370682 6.758304 0.802792
-9.788934 -32.370686 6.102787 0.385473
-9.788934 -32.370689 5.456477 0.611612
-9.788934 -32.370682 4.817822 0.675853
-9.788933 -32.370682 4.185338 0.773465
-9.788933 -32.370682 3.557600 0.664424
-9.788934 -32.370682 2.933223 0.794186
-9.788934 -32.370686 2.310852 0.673518
-9.788934 -32.370686 1.689147 0.803754
-9.788934 -32.370682 1.066776 0.669886
-9.788933 -32.370682 0.442399 0.616159
-10.050123 -33.960247 -0.000021 0.535195
-10.682849 -37.810921 -0.000017 0.536934
-11.086789 -40.269241 -0.000014 0.533852
-11.367542 -41.977863 -0.000011 0.526040
-11.574388 -43.236694 -0.000010 0.507439
-9.654379 -32.370678 6.763885 0.704280
-9.654381 -32.370689 6.107598 0.737850
-9.654381 -32.370689 5.460530 0.534005
-9.654381 -32.370689 4.821126 0.629007
-9.654380 -32.370682 4.187901 0.741604
-9.654380 -32.370682 3.559427 0.639261
-9.654380 -32.370682 2.934318 0.767025
-9.654380 -32.370682 2.311217 0.645426
-9.654380 -32.370682 1.688783 0.783932
-9.654380 -32.370682 1.065681 0.647059
-9.654380 -32.370682 0.440572 0.784756
-9.930426 -33.980339 -0.000021 0.535119
-10.590019 -37.826508 -0.000017 0.537682
-11.011112 -40.281948 -0.000014 0.527886
-11.303786 -41.988567 -0.000011 0.551781
-11.519415 -43.245926 -0.000010 0.556191
-9.519503 -32.370674 6.769712 0.727291
-9.494827 -32.232586 6.142922 0.583307
-9.489539 -32.202991 5.495760 0.273243
-9.489538 -32.202991 4.849845 0.160784
-9.489539 -32.202991 4.210174 0.265934
-9.519503 -32.370682 3.561335 0.584146
-9.519503 -32.370682 2.935461 0.504387
-9.519503 -32.370678 2.311598 0.598566
-9.519503 -32.370678 1.688402 0.513909
-9.519503 -32.370682 1.064538 0.606729
-9.519503 -32.370682 0.438665 0.519097
-9.810871 -34.001270 -0.000022 0.546227
-10.497300 -37.842743 -0.000017 0.542962
-10.935525 -40.295181 -0.000014 0.541207
-11.240107 -41.999718 -0.000012 0.516014
-11.464508 -43.255539 -0.000010 0.531548
-9.384292 -32.370678 6.775785 0.662608
-9.363081 -32.256584 6.142928 0.576593
-9.336498 -32.113586 5.516758 0.678431
-9.336498 -32.113590 4.866964 0.678431
-9.336497 -32.113586 4.223451 0.678431
-9.384293 -32.370682 3.563323 0.465644
-9.384293 -32.370682 2.936652 0.406195
-9.384293 -32.370682 2.311994 0.451682
-9.384293 -32.370682 1.688005 0.455634
-9.384293 -32.370682 1.063347 0.448096
-9.384293 -32.370682 0.436677 0.525353
-9.691469 -34.023041 -0.000021 0.548638
-10.404699 -37.859623 -0.000017 0.535210
-10.860034 -40.308945 -0.000014 0.542412
-11.176507 -42.011311 -0.000011 0.549081
-11.409670 -43.265533 -0.000010 0.514076
-9.248726 -32.370674 6.782109 0.606897
-9.231488 -32.281425 6.142949 0.519448
-9.199074 -32.113594 5.521413 0.678431
-9.199074 -32.113590 4.870759 0.678431
-9.199074 -32.113586 4.226393 0.678431
-9.248727 -32.370682 3.565392 0.743175
-9.248727 -32.370682 2.937893 0.586191
-9.248726 -32.370674 2.312407 0.802838
-9.248726 -32.370674 1.687592 0.576425
-9.248727 -32.370682 1.062107 0.818235
-9.248727 -32.370682 0.434607 0.529732
-9.572218 -34.045639 -0.000022 0.533639
-10.312216 -37.877151 -0.000017 0.534249
-10.784638 -40.323231 -0.000014 0.535836
-11.112989 -42.023346 -0.000012 0.561013
-11.354902 -43.275913 -0.000010 0.551568
-9.112795 -32.370678 6.788682 0.504601
-9.100084 -32.307251 6.142954 0.477256
-9.061278 -32.113590 5.526254 0.678431
-9.061277 -32.113586 4.874706 0.678431
-9.061277 -32.113586 4.229454 0.678431
-9.112796 -32.370682 3.567544 0.471031
-9.112796 -32.370682 2.939182 0.739315
-9.112796 -32.370682 2.312837 0.464485
-9.112796 -32.370682 1.687163 0.774884
-9.112796 -32.370682 1.060818 0.461616
-9.112796 -32.370682 0.432455 0.772335
-9.453129 -34.069069 -0.000022 0.540169
-10.219856 -37.895321 -0.000017 0.550774
-10.709345 -40.338047 -0.000014 0.536416
-11.049557 -42.035828 -0.000011 0.545144
-11.300209 -43.286678 -0.000010 0.515221
-8.976484 -32.370674 6.795509 0.317525
-8.968870 -32.334007 6.142957 0.486625
-8.923098 -32.113590 5.531280 0.678431
-8.923098 -32.113586 4.878803 0.678431
-8.923098 -32.113586 4.232632 0.678431
-8.976486 -32.370682 3.569778 0.435035
-8.976485 -32.370682 2.940521 0.707225
-8.976485 -32.370682 2.313283 0.426322
-8.976485 -32.370682 1.686717 0.761807
-8.976485 -32.370682 1.059479 0.416876
-8.976486 -32.370682 0.430221 0.772473
-9.334208 -34.093330 -0.000022 0.532708
-10.127629 -37.914139 -0.000017 0.533761
-10.634158 -40.353386 -0.000014 0.559777
-10.986215 -42.048752 -0.000012 0.552483
-11.245593 -43.297821 -0.000010 0.540200
-8.839777 -32.370678 6.802588 0.486961
-8.837843 -32.361679 6.142960 0.449699
-8.784515 -32.113590 5.536493 0.678431
-8.784516 -32.113594 4.883052 0.678431
-8.784516 -32.113594 4.235927 0.678431
-8.839778 -32.370682 3.572096 0.738811
-8.839778 -32.370682 2.941909 0.499199
-8.839778 -32.370682 2.313745 0.792691
-8.839778 -32.370682 1.686255 0.630381
-8.839778 -32.370682 1.058091 0.802121
-8.839777 -32.370678 0.427903 0.719860
-9.215457 -34.118423 -0.000022 0.535439
-10.035532 -37.933598 -0.000017 0.522560
-10.559079 -40.369251 -0.000014 0.531441
-10.922962 -42.062119 -0.000012 0.516030
-11.191054 -43.309341 -0.000010 0.552071
-8.702658 -32.370674 6.809921 0.447791
-8.702658 -32.370674 6.147297 0.498451
-8.645515 -32.113590 5.541895 0.678431
-8.645515 -32.113590 4.887455 0.678431
-8.645515 -32.113590 4.239342 0.678431
-8.702658 -32.370682 3.574497 0.721508
-8.702658 -32.370682 2.943347 0.447333
-8.702658 -32.370682 2.314224 0.747890
-8.702658 -32.370682 1.685776 0.427710
-8.702658 -32.370682 1.056652 0.780240
-8.702658 -32.370682 0.425503 0.409293
-9.096883 -34.144341 -0.000022 0.532677
-9.943575 -37.953701 -0.000017 0.532586
-10.484112 -40.385639 -0.000014 0.566506
-10.859805 -42.075928 -0.000011 0.518212
-11.136599 -43.321247 -0.000010 0.549996
-8.565115 -32.370674 6.817515 0.638926
-8.565115 -32.370674 6.153843 0.489479
-8.506088 -32.113594 5.547485 0.678431
-8.506088 -32.113594 4.892014 0.678431
-8.506087 -32.113590 4.242877 0.678431
-8.565115 -32.370678 3.576983 0.521660
-8.565116 -32.370682 2.944837 0.417395
-8.565116 -32.370682 2.314721 0.535073
-8.565116 -32.370682 1.685279 0.435096
-8.565116 -32.370682 1.055163 0.560403
-8.565115 -32.370678 0.423017 0.437995
-8.978498 -34.171093 -0.000022 0.527749
-9.851761 -37.974445 -0.000016 0.529244
-10.409264 -40.402554 -0.000014 0.523888
-10.796747 -42.090172 -0.000011 0.543603
-11.082227 -43.333530 -0.000010 0.513802
-8.427126 -32.370674 6.825368 0.637552
-8.427126 -32.370674 6.160614 0.524575
-8.370000 -32.129601 5.550274 0.345525
-8.370000 -32.129601 4.894287 0.375799
-8.370000 -32.129601 4.244640 0.315312
-8.427128 -32.370682 3.579553 0.699748
-8.427128 -32.370682 2.946376 0.563973
-8.427128 -32.370682 2.315233 0.823224
-8.427128 -32.370682 1.684767 0.596201
-8.427128 -32.370682 1.053623 0.844633
-8.427128 -32.370682 0.420447 0.607355
-8.860298 -34.198673 -0.000022 0.540169
-9.760092 -37.995831 -0.000017 0.555611
-10.334532 -40.419987 -0.000014 0.541329
-10.733788 -42.104858 -0.000011 0.524971
-11.027942 -43.346199 -0.000010 0.561944
-8.288683 -32.370674 6.833483 0.679332
-8.288683 -32.370674 6.167611 0.352911
-8.273600 -32.308945 5.522651 0.541024
-8.273598 -32.308941 4.871769 0.609903
-8.273598 -32.308941 4.227176 0.586526
-8.288684 -32.370682 3.582209 0.720302
-8.288684 -32.370682 2.947968 0.496162
-8.288684 -32.370682 2.315763 0.812024
-8.288684 -32.370682 1.684236 0.573632
-8.288684 -32.370682 1.052032 0.819883
-8.288684 -32.370682 0.417790 0.600702
-8.742292 -34.227062 -0.000022 0.535943
-9.668575 -38.017853 -0.000017 0.562432
-10.259925 -40.437939 -0.000014 0.519905
-10.670935 -42.119987 -0.000011 0.510735
-10.973747 -43.359238 -0.000010 0.536858
-8.149769 -32.370678 6.841859 0.622446
-8.149769 -32.370682 6.174833 0.469490
-8.149773 -32.370693 5.517170 0.703609
-8.149771 -32.370689 4.867301 0.724117
-8.149771 -32.370689 4.223712 0.687709
-8.149770 -32.370682 3.584951 0.475181
-8.149769 -32.370682 2.949611 0.543465
-8.149770 -32.370682 2.316311 0.707332
-8.149770 -32.370682 1.683689 0.668421
-8.149769 -32.370682 1.050389 0.734966
-8.149770 -32.370682 0.415048 0.743374
-8.624493 -34.256287 -0.000022 0.537453
-9.577216 -38.040516 -0.000017 0.537926
-10.185447 -40.456413 -0.000014 0.566232
-10.608189 -42.135548 -0.000012 0.571206
-10.919645 -43.372658 -0.000010 0.532967
-8.010363 -32.370674 6.850502 0.790234
-8.010363 -32.370678 6.182287 0.469261
-8.010367 -32.370697 5.523449 0.791379
-8.010366 -32.370689 4.872418 0.490455
-8.010365 -32.370686 4.227681 0.757839
-8.010363 -32.370678 3.587781 0.476585
-8.010363 -32.370674 2.951307 0.605158
-8.010363 -32.370682 2.316875 0.638117
-8.010363 -32.370682 1.683124 0.757702
-8.010363 -32.370674 1.048693 0.632166
-8.010363 -32.370678 0.412218 0.823362
-8.506897 -34.286331 -0.000022 0.529473
-9.486017 -38.063816 -0.000017 0.538338
-10.111097 -40.475407 -0.000014 0.544411
-10.545552 -42.151554 -0.000011 0.566003
-10.865637 -43.386456 -0.000010 0.593668
-7.870450 -32.370678 6.859413 0.605798
-7.870450 -32.370674 6.189971 0.546548
-7.870454 -32.370689 5.529923 0.511879
-7.870454 -32.370689 4.877696 0.776471
-7.870454 -32.370693 4.231773 0.750011
-7.870450 -32.370678 3.590698 0.656672
-7.870451 -32.370682 2.953054 0.613474
-7.870451 -32.370682 2.317458 0.506371
-7.870451 -32.370682 1.682542 0.536858
-7.870451 -32.370682 1.046945 0.581353
-7.870450 -32.370678 0.409301 0.597131
-8.389513 -34.317192 -0.000022 0.552453
-9.394979 -38.087749 -0.000017 0.533837
-10.036883 -40.494923 -0.000014 0.520027
-10.483028 -42.167992 -0.000012 0.534096
-10.811727 -43.400631 -0.000010 0.550820
-7.730018 -32.370674 6.868598 0.435660
-7.730019 -32.370674 6.197888 0.709804
-7.730023 -32.370693 5.536592 0.391485
-7.730022 -32.370689 4.883135 0.748180
-7.730022 -32.370689 4.235991 0.733135
-7.730021 -32.370682 3.593704 0.660761
-7.730020 -32.370678 2.954855 0.479271
-7.730019 -32.370678 2.318058 0.514031
-7.730019 -32.370678 1.681942 0.352163
-7.730020 -32.370678 1.045145 0.513619
-7.730021 -32.370682 0.406296 0.575280
-8.272351 -34.348877 -0.000021 0.545907
-9.304117 -38.112324 -0.000017 0.535683
-9.962809 -40.514954 -0.000014 0.531502
-10.420622 -42.184868 -0.000011 0.533394
-10.757918 -43.415180 -0.000010 0.515557
-7.589046 -32.370674 6.878053 0.651576
-7.589046 -32.370674 6.206040 0.852491
-7.589051 -32.370693 5.543462 0.498527
-7.589050 -32.370689 4.888733 0.698878
-7.589051 -32.370693 4.240333 0.814176
-7.589047 -32.370682 3.596799 0.741741
-7.589048 -32.370682 2.956709 0.663325
-7.589047 -32.370682 2.318675 0.823468
-7.589047 -32.370682 1.681325 0.583688
-7.589048 -32.370682 1.043290 0.877974
-7.589047 -32.370682 0.403200 0.533242
-8.155410 -34.381374 -0.000022 0.537148
-9.213424 -38.137527 -0.000017 0.518883
-9.888873 -40.535500 -0.000014 0.534722
-10.358334 -42.202175 -0.000012 0.555871
-10.704211 -43.430107 -0.000010 0.549371
-7.447517 -32.370674 6.887783 0.755581
-7.447518 -32.370674 6.214430 0.757137
-7.447523 -32.370693 5.550529 0.737285
-7.447522 -32.370689 4.894497 0.489281
-7.447523 -32.370693 4.244802 0.438758
-7.447519 -32.370682 3.599984 0.568902
-7.447518 -32.370678 2.958618 0.340581
-7.447519 -32.370682 2.319311 0.489387
-7.447519 -32.370682 1.680689 0.752132
-7.447518 -32.370678 1.041382 0.391058
-7.447519 -32.370682 0.400015 0.800015
-8.038697 -34.414688 -0.000022 0.543542
-9.122910 -38.163361 -0.000017 0.536141
-9.815083 -40.556561 -0.000014 0.534630
-10.296168 -42.219921 -0.000011 0.528969
-10.650609 -43.445408 -0.000010 0.530404
-7.305418 -32.370674 6.897791 0.724666
-7.305418 -32.370674 6.223061 0.779599
-7.305423 -32.370693 5.557800 0.725978
-7.305423 -32.370693 4.900422 0.620829
-7.305424 -32.370697 4.249399 0.861570
-7.305418 -32.370682 3.603261 0.404700
-7.305418 -32.370682 2.960581 0.605295
-7.305418 -32.370682 2.319965 0.465110
-7.305418 -32.370682 1.680035 0.800427
-7.305418 -32.370682 1.039419 0.406806
-7.305418 -32.370682 0.396739 0.803647
-7.922223 -34.448818 -0.000022 0.545953
-9.032578 -38.189827 -0.000017 0.540658
-9.741442 -40.578140 -0.000014 0.546105
-10.234128 -42.238098 -0.000012 0.565774
-10.597116 -43.461079 -0.000010 0.528893
-7.162728 -32.370674 6.908082 0.773800
-7.162729 -32.370674 6.231933 0.793225
-7.162734 -32.370697 5.565274 0.257939
-7.162734 -32.370693 4.906516 0.559548
-7.162734 -32.370689 4.254124 0.633433
-7.162733 -32.370689 3.606627 0.800626
-7.162730 -32.370682 2.962599 0.501625
-7.162729 -32.370678 2.320637 0.355154
-7.162729 -32.370678 1.679363 0.483070
-7.162730 -32.370682 1.037401 0.392340
-7.162730 -32.370682 0.393371 0.508186
-7.805989 -34.483757 -0.000022 0.540597
-8.942434 -38.216927 -0.000017 0.535317
-9.667955 -40.600231 -0.000013 0.555016
-10.172217 -42.256714 -0.000011 0.561669
-10.543734 -43.477127 -0.000010 0.487144
-7.019431 -32.370674 6.918654 0.619211
-7.019432 -32.370674 6.241050 0.312001
-6.967100 -32.202980 5.604923 0.160784
-6.967101 -32.202980 4.938839 0.160784
-6.967102 -32.202980 4.279191 0.160784
-6.967101 -32.202980 3.624495 0.103746
-7.019433 -32.370678 2.964673 0.663645
-7.019433 -32.370678 2.321328 0.745678
-7.019433 -32.370678 1.678672 0.490745
-7.019433 -32.370682 1.035327 0.840436
-7.019433 -32.370674 0.389910 0.381506
-7.690003 -34.519512 -0.000022 0.527520
-8.852483 -38.244656 -0.000017 0.545495
-9.594625 -40.622837 -0.000013 0.518624
-10.110437 -42.275753 -0.000012 0.552590
-10.490466 -43.493546 -0.000010 0.568002
-6.875505 -32.370674 6.929514 0.531670
-6.875506 -32.370674 6.250413 0.448798
-6.793303 -32.113586 5.629960 0.678431
