# This PCD file was generated using the MATLABÂ® pcwrite function
# from Computer Vision ToolboxÂ®.
# .PCD v.7 - Point Cloud Data file format
VERSION .7
FIELDS x y z intensity
SIZE 4 4 4 4
TYPE F F F F
COUNT 1 1 1 1
WIDTH 1209
HEIGHT 1
VIEWPOINT 0 0 0 1 0 0 0
POINTS 1209
DATA ascii
353.904480 72.990028 0.000005 0.533946
349.204559 78.186325 0.000005 0.521569
346.586975 81.080399 0.000007 0.552083
344.915924 82.927963 -0.000005 0.541176
343.754517 84.212029 -0.000034 0.532721
342.898773 85.158165 -0.000031 0.519240
374.714844 49.400402 15.989071 0.678431
374.622253 49.504230 14.031857 0.415931
374.622253 49.504242 12.136479 0.428431
374.622253 49.504238 10.263556 0.396446
374.714844 49.400414 8.424736 0.674387
374.622253 49.504234 6.567825 0.406618
374.622253 49.504238 4.736776 0.433578
374.622253 49.504238 2.911608 0.417279
374.622253 49.504238 1.088392 0.420098
364.639435 60.697517 0.000037 0.536029
353.777802 72.876190 0.000000 0.547181
349.114319 78.105194 0.000000 0.528922
346.516968 81.017479 0.000002 0.552083
344.858826 82.876671 -0.000009 0.536397
343.706421 84.168846 -0.000030 0.571569
342.857300 85.120911 -0.000036 0.509069
374.198944 49.396664 15.904094 0.678431
374.104340 49.504238 13.957695 0.409191
374.104340 49.504238 12.074005 0.416912
374.104340 49.504242 10.212622 0.436274
374.198914 49.396683 8.385708 0.674387
374.104340 49.504238 6.539670 0.413725
374.104340 49.504238 4.719907 0.417892
374.104340 49.504238 2.905988 0.379167
374.104340 49.504238 1.094012 0.358333
364.427216 60.508484 -0.000003 0.532475
353.650299 72.763359 0.000006 0.539583
349.023407 78.024765 0.000006 0.556495
346.446503 80.955078 0.000003 0.504044
344.801331 82.825859 0.000005 0.523284
343.657990 84.126007 -0.000024 0.531005
342.815521 85.083992 -0.000023 0.541299
373.689301 49.392883 15.820839 0.678431
373.592743 49.504238 13.885019 0.401593
373.592743 49.504238 12.012775 0.366299
373.592743 49.504238 10.162708 0.410417
373.689301 49.392879 8.347475 0.678431
373.592743 49.504238 6.512080 0.412500
373.592743 49.504250 4.703375 0.400980
373.592743 49.504242 2.900483 0.414706
373.592743 49.504242 1.099518 0.375613
364.212952 60.321739 0.000010 0.539951
353.521912 72.651459 0.000018 0.530392
348.931946 77.944984 0.000013 0.548407
346.375519 80.893227 0.000015 0.525858
344.743469 82.775436 0.000018 0.523407
343.609283 84.083504 -0.000018 0.516544
342.773499 85.047371 -0.000009 0.525368
373.185669 49.389225 15.739219 0.674387
373.083069 49.509224 13.812375 0.467402
373.087311 49.504242 11.952770 0.395833
373.087311 49.504238 10.113789 0.420221
373.185669 49.389229 8.309988 0.678431
373.185638 49.389233 6.497446 0.564338
373.087311 49.504238 4.687176 0.404902
373.087311 49.504246 2.895086 0.395221
373.087311 49.504242 1.104914 0.434681
363.997864 60.135971 -0.000010 0.538848
353.392975 72.540268 0.000009 0.533701
348.840057 77.865662 -0.000006 0.533946
346.304291 80.831718 -0.000003 0.515931
344.685425 82.725266 -0.000007 0.539216
343.560303 84.041298 -0.000027 0.541789
342.731323 85.010925 -0.000033 0.550980
372.687866 49.385609 15.659219 0.678431
372.687866 49.385612 13.777492 0.678431
372.587891 49.504234 11.893958 0.389951
372.587891 49.504238 10.065844 0.420221
372.687866 49.385612 8.273247 0.678431
372.687866 49.385612 6.471257 0.664828
372.587891 49.504238 4.671297 0.399755
372.587891 49.504242 2.889795 0.405760
372.587891 49.504242 1.110204 0.391054
363.780914 59.952362 0.000011 0.535662
353.263000 72.430252 0.000029 0.537255
348.747437 77.787254 0.000015 0.538480
346.232391 80.770950 0.000026 0.536029
344.626862 82.675697 0.000014 0.514216
343.510956 83.999527 -0.000006 0.546691
342.688751 84.974937 -0.000004 0.542892
372.195984 49.381889 15.580849 0.678431
372.195984 49.381897 13.709921 0.678431
372.094299 49.504234 11.836316 0.378309
372.094299 49.504238 10.018850 0.366544
372.195984 49.381889 8.237253 0.678431
372.195984 49.381889 6.445605 0.678431
372.094299 49.504242 4.655734 0.362990
372.094299 49.504242 2.884613 0.375858
372.094299 49.504246 1.115388 0.388603
363.563202 59.769653 -0.000008 0.535784
353.132538 72.320778 0.000010 0.537377
348.654419 77.709282 0.000004 0.519608
346.160309 80.710442 0.000007 0.513113
344.568054 82.626350 -0.000006 0.500000
343.461426 83.957993 -0.000017 0.522426
342.646057 84.939110 -0.000023 0.543015
371.606415 49.504234 15.463219 0.430760
371.709564 49.378334 13.643649 0.678431
371.606415 49.504242 11.779811 0.400980
371.606415 49.504238 9.972788 0.403309
371.709564 49.378338 8.201954 0.678431
371.709564 49.378338 6.420444 0.678431
371.606415 49.504242 4.640478 0.407108
371.606415 49.504234 2.879532 0.369118
371.606415 49.504234 1.120469 0.423039
363.343719 59.589100 0.000013 0.534559
353.001038 72.212601 0.000031 0.542402
348.560699 77.632179 0.000025 0.545956
346.087616 80.650642 0.000028 0.563480
344.508881 82.577538 0.000001 0.567402
343.411499 83.916924 0.000004 0.515809
342.603027 84.903671 -0.000008 0.540686
371.124084 49.504238 15.386974 0.419118
371.228607 49.374809 13.578686 0.678431
371.124084 49.504242 11.724426 0.395466
371.124084 49.504238 9.927638 0.397059
371.124084 49.504234 8.148214 0.397672
371.228607 49.374805 6.395782 0.678431
371.124084 49.504242 4.625525 0.399265
371.124054 49.504242 2.874549 0.392279
371.124054 49.504242 1.125451 0.386887
363.123505 59.409420 -0.000007 0.536887
352.869110 72.104958 0.000012 0.537255
348.466644 77.555458 0.000006 0.529412
346.014709 80.591103 0.000002 0.499265
344.449432 82.529030 -0.000020 0.524755
343.361389 83.876045 -0.000020 0.529167
342.559814 84.868446 -0.000026 0.560662
370.647156 49.504238 15.312229 0.386275
370.752960 49.371315 13.515006 0.678431
370.647156 49.504238 11.670133 0.407966
370.647156 49.504242 9.883375 0.336152
370.647156 49.504234 8.113886 0.409436
370.752960 49.371311 6.371607 0.678431
370.647156 49.504242 4.610865 0.415196
370.647156 49.504242 2.869666 0.410907
370.647156 49.504242 1.130333 0.387990
362.901489 59.231945 0.000014 0.533333
352.736084 71.998619 0.000033 0.528799
348.371857 77.479668 0.000027 0.551348
345.941193 80.532326 0.000024 0.514828
344.389496 82.481087 -0.000004 0.563113
343.310913 83.835663 -0.000000 0.551593
342.516296 84.833656 0.000003 0.542892
370.175476 49.504234 15.238962 0.443382
370.282379 49.368019 13.452533 0.678431
370.175476 49.504234 11.616911 0.413725
370.175476 49.504238 9.839986 0.436274
370.175476 49.504234 8.080236 0.391912
370.282379 49.368027 6.347888 0.678431
370.175476 49.504242 4.596495 0.396936
370.175476 49.504242 2.864880 0.399877
370.175476 49.504242 1.135119 0.424877
362.678680 59.055534 0.000005 0.539583
352.602692 71.892776 0.000007 0.534191
348.276794 77.404228 0.000002 0.511765
345.867432 80.473854 0.000004 0.538480
344.329346 82.433418 -0.000022 0.512745
343.260254 83.795517 -0.000018 0.553554
342.472626 84.799011 -0.000021 0.529044
369.708954 49.504238 15.167131 0.397794
369.817017 49.364571 13.391337 0.678431
369.708954 49.504234 11.564733 0.408946
369.708954 49.504234 9.797451 0.406985
369.708954 49.504234 8.047247 0.412132
369.817017 49.364578 6.324655 0.678431
369.708954 49.504234 4.582407 0.418873
369.708954 49.504238 2.860188 0.402206
369.708954 49.504238 1.139812 0.397304
362.454193 58.881187 0.000026 0.534926
352.468231 71.788315 0.000029 0.543873
348.180939 77.329765 0.000023 0.554289
345.793060 80.416153 0.000034 0.540196
344.268738 82.386345 -0.000001 0.543627
343.209198 83.755882 0.000011 0.549142
342.428589 84.764816 0.000000 0.521446
369.247437 49.504234 15.096714 0.408578
369.356567 49.361153 13.331345 0.678431
369.247437 49.504238 11.513577 0.407353
369.247437 49.504238 9.755747 0.440441
369.247437 49.504234 8.014906 0.412990
369.356537 49.361160 6.301879 0.678431
369.247437 49.504234 4.568598 0.406005
369.247437 49.504234 2.855588 0.430637
369.247437 49.504234 1.144412 0.387868
362.229065 58.707733 0.000007 0.541422
352.333344 71.684395 0.000010 0.541667
348.084778 77.255692 0.000003 0.533456
345.718475 80.358719 0.000016 0.564093
344.207916 82.339561 -0.000010 0.547917
343.157959 83.716438 -0.000006 0.520343
342.384399 84.730835 -0.000009 0.511029
368.790833 49.504234 15.027675 0.410172
368.859375 49.413040 13.257590 0.325613
368.790833 49.504234 11.463428 0.417034
368.790833 49.504234 9.714865 0.418260
368.790833 49.504234 7.983199 0.417525
368.859375 49.413044 6.273880 0.330147
368.790833 49.504238 4.555057 0.421446
368.790833 49.504238 2.851077 0.417279
368.790833 49.504238 1.148922 0.413358
362.002411 58.536263 0.000012 0.537010
352.197540 71.581657 0.000014 0.531618
347.987976 77.182472 0.000008 0.543627
345.643402 80.301933 0.000021 0.520711
344.146729 82.293259 -0.000006 0.531618
343.106445 83.677406 -0.000008 0.555147
342.339966 84.697197 -0.000005 0.517647
368.338989 49.504242 14.959985 0.402574
368.449829 49.354572 13.214816 0.678431
368.338989 49.504238 11.414260 0.410784
368.338989 49.504234 9.674782 0.395588
368.338989 49.504238 7.952111 0.413480
368.449829 49.354576 6.257640 0.678431
368.338989 49.504238 4.541782 0.376226
368.338989 49.504234 2.846655 0.408456
368.338989 49.504234 1.153345 0.380147
361.774536 58.366386 0.000017 0.539093
352.061005 71.479881 0.000019 0.533333
347.890625 77.109993 0.000023 0.533824
345.567993 80.245628 0.000020 0.543260
344.085236 82.247368 -0.000007 0.542034
343.054596 83.638763 -0.000004 0.518137
342.295288 84.663857 -0.000006 0.515441
367.891785 49.504234 14.893625 0.406005
367.918365 49.467827 13.127107 0.502206
367.891785 49.504242 11.366053 0.436274
367.891785 49.504230 9.635484 0.379412
367.891785 49.504234 7.921634 0.403186
367.918365 49.467834 6.224342 0.477819
367.891785 49.504238 4.528767 0.417525
367.891785 49.504242 2.842320 0.408701
367.891785 49.504242 1.157680 0.381250
361.545776 58.197716 -0.000000 0.534559
351.923981 71.378807 0.000000 0.522426
347.792938 77.037964 0.000004 0.537745
345.492249 80.189766 0.000000 0.524142
344.023468 82.201828 -0.000026 0.533701
343.002563 83.600426 -0.000013 0.540074
342.250397 84.630783 -0.000024 0.541912
367.449097 49.504230 14.828564 0.375000
367.561432 49.348087 13.102816 0.678431
367.561432 49.348087 11.353793 0.650858
367.449097 49.504238 9.596951 0.430270
367.449097 49.504234 7.891753 0.437868
367.561432 49.348091 6.215119 0.678431
367.449097 49.504242 4.516006 0.418137
367.449097 49.504238 2.838070 0.407598
367.449097 49.504238 1.161931 0.419485
361.315399 58.031300 0.000021 0.528309
351.786011 71.278992 0.000011 0.540074
347.694580 76.966888 0.000026 0.540564
345.415924 80.134644 0.000021 0.530392
343.961273 82.156891 -0.000004 0.532353
342.950104 83.562576 0.000009 0.550245
342.205200 84.598167 0.000006 0.560907
367.010864 49.504230 14.764773 0.411029
367.010864 49.504234 13.006269 0.395098
367.123932 49.344742 11.308026 0.678431
367.010864 49.504238 9.559174 0.395711
367.010864 49.504238 7.862455 0.406127
367.123932 49.344746 6.194497 0.678431
367.010864 49.504234 4.503495 0.397059
367.010864 49.504246 2.833901 0.420221
367.010864 49.504250 1.166098 0.368015
361.084290 57.865822 0.000001 0.540196
351.647552 71.179848 -0.000009 0.527083
347.595886 76.896233 0.000007 0.544363
345.339417 80.079849 0.000003 0.536887
343.898865 82.112259 -0.000014 0.561152
342.897552 83.524940 -0.000009 0.506495
342.159882 84.565720 -0.000012 0.509926
366.576965 49.504223 14.702231 0.382353
366.576965 49.504227 12.952343 0.406373
366.687775 49.345543 11.262240 0.678431
366.576965 49.504230 9.522139 0.424265
366.576935 49.504238 7.833732 0.389461
366.687775 49.345547 6.173863 0.678431
366.576935 49.504246 4.491227 0.407598
366.576935 49.504238 2.829816 0.415319
366.576935 49.504238 1.170184 0.415196
360.851532 57.702785 0.000031 0.535539
351.508087 71.082161 0.000021 0.535294
347.496490 76.826607 0.000036 0.548162
345.262268 80.025894 0.000041 0.528922
343.835999 82.068237 0.000014 0.531618
342.844635 83.487823 0.000012 0.504779
342.114227 84.533737 0.000016 0.532966
366.147217 49.504234 14.640907 0.410172
366.147217 49.504230 12.899468 0.419240
366.255341 49.347084 11.217187 0.678431
366.147217 49.504234 9.485826 0.397426
366.147217 49.504230 7.805569 0.406250
366.255341 49.347092 6.153561 0.678431
366.147217 49.504238 4.479202 0.422672
366.147217 49.504242 2.825809 0.405760
366.147217 49.504242 1.174189 0.404534
360.618164 57.540546 0.000012 0.536397
351.368256 70.984962 0.000002 0.546569
347.396973 76.757111 -0.000013 0.534926
345.184967 79.972176 0.000023 0.530025
343.772980 82.024437 -0.000003 0.552451
342.791565 83.450928 -0.000005 0.570221
342.068481 84.501900 -0.000010 0.519730
365.721619 49.504238 14.580787 0.415319
365.721619 49.504238 12.847629 0.431863
365.826904 49.348873 11.172956 0.678431
365.721619 49.504238 9.450221 0.418137
365.721619 49.504238 7.777956 0.388971
365.826904 49.348877 6.133630 0.678431
365.721619 49.504242 4.467410 0.391789
365.721619 49.504242 2.821883 0.428676
365.721619 49.504242 1.178117 0.430025
360.383392 57.380337 0.000016 0.535294
351.227600 70.888969 0.000006 0.525245
347.296722 76.688683 -0.000009 0.530147
345.107239 79.919113 0.000026 0.549632
343.709625 81.981148 -0.000006 0.530392
342.738129 83.414520 0.000008 0.505760
342.022430 84.470482 -0.000004 0.569730
365.300018 49.504230 14.521840 0.423162
365.300018 49.504230 12.796804 0.404902
365.402679 49.350422 11.129639 0.678431
365.300018 49.504234 9.415314 0.375245
365.300018 49.504230 7.750885 0.415196
365.402710 49.350422 6.114110 0.678431
365.300018 49.504230 4.455850 0.379044
365.300018 49.504238 2.818031 0.372794
365.300018 49.504246 1.181968 0.347549
360.147858 57.221313 -0.000008 0.532475
351.086273 70.793991 0.000012 0.525490
347.195984 76.620995 -0.000003 0.537745
345.029114 79.866577 0.000026 0.555882
343.645966 81.938347 0.000000 0.530392
342.684479 83.378456 0.000014 0.538971
341.976135 84.439415 0.000011 0.523652
364.882324 49.504238 14.464052 0.386887
364.882324 49.504238 12.746977 0.414583
364.906250 49.467827 11.061936 0.505760
364.882324 49.504238 9.381092 0.419240
364.882324 49.504234 7.724344 0.405515
364.906250 49.467827 6.083600 0.480760
364.882324 49.504234 4.444517 0.396936
364.882324 49.504234 2.814258 0.392402
364.882324 49.504234 1.185743 0.377083
359.910919 57.064308 -0.000008 0.538848
350.944458 70.699745 -0.000006 0.535049
347.094879 76.553810 -0.000022 0.549877
344.950745 79.814476 0.000008 0.550123
343.582031 81.895882 -0.000017 0.535539
342.630615 83.342690 -0.000002 0.551103
341.929718 84.408569 -0.000008 0.532721
364.468475 49.504234 14.407393 0.366912
364.468475 49.504234 12.698124 0.395098
364.566071 49.353493 11.045530 0.678431
364.468475 49.504234 9.347540 0.411152
364.468475 49.504234 7.698324 0.396691
364.566071 49.353500 6.076207 0.678431
364.468445 49.504238 4.433404 0.411152
364.468445 49.504242 2.810555 0.397304
364.468445 49.504242 1.189445 0.418137
359.672913 56.908989 -0.000008 0.532353
350.801819 70.606682 -0.000006 0.536765
346.993225 76.487526 -0.000016 0.551471
344.871887 79.763062 0.000013 0.543260
343.517731 81.853966 -0.000012 0.495221
342.576477 83.307350 -0.000005 0.539706
341.883026 84.378098 -0.000007 0.514828
364.058289 49.504234 14.351851 0.395956
364.058319 49.504234 12.650231 0.384191
364.153473 49.355026 11.004704 0.678431
364.058289 49.504238 9.314647 0.387868
364.058289 49.504238 7.672812 0.387010
364.153442 49.355030 6.057810 0.678431
364.058319 49.504234 4.422510 0.384436
364.058289 49.504234 2.806928 0.358088
364.058289 49.504234 1.193073 0.402083
359.433807 56.755310 -0.000008 0.536274
350.658569 70.514656 -0.000003 0.532843
346.891083 76.422005 -0.000002 0.543873
344.792694 79.712189 0.000016 0.523284
343.453156 81.812538 0.000002 0.522181
342.522095 83.272408 -0.000002 0.519363
341.836151 84.347984 -0.000003 0.528309
363.651794 49.504238 14.297394 0.405024
363.651794 49.504230 12.603281 0.414706
363.744537 49.356560 10.964676 0.678431
363.651794 49.504234 9.282402 0.404779
363.651794 49.504238 7.647803 0.388113
363.744537 49.356567 6.039773 0.678431
363.651794 49.504242 4.411830 0.406495
363.651794 49.504246 2.803370 0.405147
363.651794 49.504246 1.196630 0.402819
359.193634 56.603333 -0.000008 0.532966
350.514740 70.423477 -0.000014 0.536029
346.788544 76.357018 -0.000013 0.536029
344.713196 79.661797 0.000005 0.534681
343.388336 81.771461 -0.000009 0.560049
342.467499 83.237801 -0.000011 0.551716
341.789032 84.318130 -0.000015 0.554044
363.248840 49.504242 14.244012 0.368015
363.248840 49.504234 12.557252 0.364338
363.339203 49.358093 10.925434 0.678431
363.248840 49.504238 9.250789 0.360172
363.248840 49.504242 7.623288 0.386275
363.339203 49.358093 6.022090 0.678431
363.248840 49.504234 4.401361 0.385539
363.248840 49.504234 2.799883 0.371078
363.248840 49.504238 1.200118 0.365074
358.952423 56.453030 -0.000008 0.537990
350.370087 70.333626 0.000007 0.551103
346.685455 76.292984 0.000008 0.542892
344.633270 79.612053 0.000013 0.537500
343.323151 81.730972 0.000012 0.542402
342.412537 83.203728 0.000019 0.557721
341.741669 84.288757 0.000016 0.537745
362.849335 49.504234 14.191688 0.391299
362.849335 49.504230 12.512134 0.379902
362.871521 49.467827 10.863915 0.511642
362.849335 49.504238 9.219799 0.395956
362.849335 49.504242 7.599255 0.434681
362.871521 49.467831 5.994367 0.489461
362.849335 49.504234 4.391098 0.385907
362.849335 49.504234 2.796464 0.410662
362.849335 49.504234 1.203537 0.388358
358.710175 56.304401 -0.000008 0.532843
350.225006 70.244476 -0.000004 0.534191
346.582031 76.229439 -0.000003 0.538848
344.553070 79.562767 0.000001 0.557966
343.257782 81.690758 -0.000006 0.537745
342.357452 83.169884 0.000007 0.525735
341.694183 84.259575 0.000005 0.527451
362.453217 49.504234 14.140395 0.420711
362.453217 49.504234 12.467905 0.413725
362.538971 49.361126 10.849255 0.674142
362.453217 49.504238 9.189425 0.390196
362.453217 49.504238 7.575698 0.406373
362.538971 49.361137 5.987759 0.674265
362.453217 49.504238 4.381037 0.402328
362.453217 49.504234 2.793113 0.394975
362.453217 49.504234 1.206888 0.406495
358.466858 56.157482 -0.000007 0.537990
350.079254 70.156433 -0.000005 0.543015
346.478119 76.166687 -0.000004 0.532230
344.472534 79.514107 0.000001 0.519730
343.192108 81.651085 -0.000007 0.538113
342.302124 83.136459 0.000008 0.524020
341.646484 84.230751 0.000004 0.552206
362.060425 49.504230 14.090115 0.417525
362.060425 49.504234 12.424553 0.445221
362.143921 49.362648 10.812287 0.678431
362.060425 49.504238 9.159650 0.424265
362.060425 49.504230 7.552608 0.384804
362.143921 49.362644 5.971100 0.674265
362.060425 49.504234 4.371179 0.441054
362.060425 49.504234 2.789828 0.429044
362.060425 49.504234 1.210171 0.398897
358.222534 56.012264 -0.000007 0.537990
349.932831 70.069534 0.000006 0.533824
346.373749 76.104752 0.000006 0.557721
344.391571 79.466064 0.000011 0.546936
343.126129 81.611923 0.000004 0.507108
342.246552 83.103432 0.000010 0.561275
341.598572 84.202278 0.000007 0.544976
361.670837 49.504238 14.040834 0.392770
361.670837 49.504234 12.382066 0.405270
361.752106 49.364155 10.776052 0.678431
361.670837 49.504238 9.130469 0.412990
361.670837 49.504234 7.529976 0.419363
361.752106 49.364155 5.954772 0.674265
361.670837 49.504230 4.361514 0.403064
361.670837 49.504242 2.786610 0.403186
361.670837 49.504242 1.213391 0.399877
357.977234 55.868736 -0.000008 0.540196
349.785950 69.983353 -0.000013 0.531863
346.269135 76.043274 -0.000019 0.537377
344.310486 79.418266 -0.000035 0.524387
343.059937 81.573097 -0.000015 0.549265
342.190826 83.070717 -0.000008 0.520098
341.550476 84.174065 -0.000012 0.519118
361.284363 49.504234 13.992542 0.393750
361.284363 49.504230 12.340422 0.426348
361.363525 49.365650 10.740539 0.678431
361.284363 49.504230 9.101870 0.396814
361.284363 49.504238 7.507795 0.434069
361.363525 49.365654 5.938767 0.678431
361.284363 49.504234 4.352041 0.386152
361.284363 49.504238 2.783454 0.404657
361.284363 49.504238 1.216546 0.409559
357.730896 55.726952 -0.000007 0.531373
349.638275 69.898598 0.000006 0.532843
346.163910 75.982773 -0.000011 0.542034
344.228882 79.371346 -0.000028 0.525613
342.993469 81.534775 -0.000022 0.549265
342.134766 83.038490 -0.000001 0.538480
341.502136 84.146278 -0.000004 0.549020
360.901001 49.504227 13.945213 0.440441
360.901001 49.504234 12.299613 0.393873
360.921448 49.467831 10.684717 0.503799
360.901001 49.504234 9.073841 0.425613
360.901001 49.504230 7.486059 0.417647
360.921448 49.467827 5.913613 0.504657
360.901001 49.504234 4.342759 0.417034
360.901001 49.504238 2.780363 0.407108
360.901001 49.504238 1.219638 0.388725
357.483612 55.586857 -0.000007 0.532721
349.490051 69.814690 0.000008 0.519853
346.058289 75.922966 -0.000010 0.535784
344.146942 79.324974 -0.000026 0.538971
342.926666 81.496964 -0.000020 0.539706
342.078491 83.006638 0.000001 0.588113
341.453644 84.118851 0.000009 0.560417
360.520599 49.504234 13.898831 0.401225
360.520599 49.504234 12.259622 0.413725
360.595642 49.368458 10.671655 0.678431
360.520599 49.504238 9.046373 0.407476
360.520599 49.504238 7.464756 0.389461
360.595642 49.368465 5.907726 0.678431
360.520599 49.504234 4.333662 0.401225
360.520599 49.504238 2.777332 0.423652
360.520599 49.504234 1.222668 0.432966
357.235352 55.448505 -0.000007 0.537255
349.341248 69.731888 0.000016 0.541054
345.952240 75.863953 -0.000002 0.541422
344.064728 79.279190 -0.000018 0.544608
342.859619 81.459648 -0.000012 0.531127
342.022003 82.975250 0.000020 0.539216
341.404938 84.091743 0.000016 0.552574
360.143127 49.504230 13.853385 0.433701
360.143127 49.504230 12.220439 0.391299
360.216156 49.369934 10.638229 0.678431
360.143127 49.504238 9.019461 0.407843
360.143127 49.504227 7.443886 0.393627
360.216156 49.369946 5.892663 0.678431
360.143127 49.504234 4.324749 0.417034
360.143127 49.504230 2.774364 0.404902
360.143127 49.504234 1.225637 0.409069
356.986145 55.311886 -0.000008 0.536029
349.192017 69.649918 0.000005 0.539461
345.845856 75.805519 -0.000014 0.547549
343.982208 79.233894 -0.000028 0.535417
342.792358 81.422707 -0.000023 0.517157
341.965332 82.944130 0.000009 0.550123
341.356079 84.064911 0.000005 0.575245
359.775177 49.491806 13.812389 0.469240
359.768555 49.504234 12.182045 0.401348
359.768555 49.504238 10.578071 0.397549
359.768555 49.504242 8.993093 0.404902
359.768555 49.504238 7.423436 0.401471
359.801208 49.443169 5.871232 0.327451
359.768555 49.504238 4.316016 0.435417
359.768555 49.504234 2.771454 0.409191
359.768555 49.504234 1.228546 0.390809
356.735931 55.177052 -0.000007 0.534436
349.042114 69.569130 0.000007 0.535784
345.738983 75.747948 -0.000012 0.526348
343.899323 79.189240 -0.000026 0.535172
342.724823 81.386307 -0.000021 0.498162
341.908417 82.913460 0.000012 0.568627
341.307007 84.038445 -0.000001 0.507230
359.484283 49.337627 13.812386 0.454289
359.396698 49.504234 12.144431 0.403186
359.396698 49.504230 10.546385 0.384314
359.396698 49.504230 8.967262 0.377206
359.396698 49.504234 7.403401 0.419363
359.465820 49.372726 5.863458 0.678431
359.396698 49.504234 4.307461 0.384926
359.396698 49.504234 2.768604 0.405515
359.396698 49.504234 1.231395 0.409069
356.484863 55.043884 -0.000009 0.535539
348.891602 69.489464 0.000015 0.527083
345.631744 75.691154 -0.000003 0.541912
343.816101 79.145256 -0.000008 0.534681
342.657013 81.350365 -0.000020 0.523652
341.851288 82.883217 0.000019 0.477941
341.257751 84.012360 0.000007 0.522672
359.094818 49.374184 13.759173 0.678431
359.027618 49.504223 12.107590 0.394730
359.027618 49.504227 10.515344 0.383088
359.027618 49.504230 8.941957 0.406250
359.027618 49.504230 7.383777 0.400490
359.094818 49.374184 5.849289 0.678431
359.027618 49.504234 4.299081 0.411275
359.027618 49.504234 2.765813 0.396078
359.027618 49.504234 1.234187 0.399510
356.232788 54.912533 -0.000008 0.534681
348.740662 69.410637 0.000005 0.525245
345.524109 75.635063 -0.000003 0.520098
343.732697 79.101692 -0.000019 0.569608
342.588989 81.314842 -0.000032 0.556005
341.794037 82.853157 -0.000024 0.548897
341.208344 83.986565 -0.000004 0.540319
358.726563 49.375484 13.716823 0.678431
358.661163 49.504230 12.071498 0.377206
358.661163 49.504230 10.484937 0.375980
358.661163 49.504230 8.917170 0.390196
358.661163 49.504234 7.364552 0.388971
358.726563 49.375484 5.835428 0.678431
358.661163 49.504230 4.290872 0.406863
358.661163 49.504234 2.763078 0.408701
358.661163 49.504234 1.236922 0.403676
355.979828 54.782948 -0.000008 0.537745
348.589081 69.333084 0.000013 0.529657
345.416046 75.579788 0.000005 0.530515
343.648865 79.058815 -0.000010 0.543505
342.520660 81.279907 -0.000022 0.541667
341.736481 82.823715 -0.000016 0.519363
341.158691 83.961174 0.000003 0.558333
358.360870 49.376926 13.675299 0.678431
358.297302 49.504230 12.036152 0.415441
358.297302 49.504227 10.455163 0.433088
358.360840 49.376934 8.914000 0.678431
358.297302 49.504227 7.345728 0.384559
358.360840 49.376934 5.821835 0.678431
358.297302 49.504230 4.282831 0.421691
358.297302 49.504238 2.760401 0.437010
358.297302 49.504234 1.239599 0.391176
355.726013 54.655106 -0.000009 0.537745
348.436981 69.256508 0.000014 0.560172
345.307648 75.525208 0.000007 0.539461
343.564789 79.016495 -0.000009 0.544118
342.452118 81.245392 -0.000021 0.546446
341.678772 82.794640 -0.000015 0.557721
341.108887 83.936142 0.000016 0.547672
357.997803 49.378227 13.634670 0.678431
357.935974 49.504227 12.001541 0.394975
357.935974 49.504234 10.426002 0.406250
357.997803 49.378227 8.889940 0.678431
357.935974 49.504230 7.327290 0.381740
357.997803 49.378231 5.808536 0.678431
357.935974 49.504234 4.274959 0.407966
357.935974 49.504230 2.757777 0.387132
357.935974 49.504234 1.242222 0.429044
355.471252 54.529053 -0.000009 0.534926
348.284393 69.180878 0.000003 0.535539
345.198914 75.471291 -0.000005 0.534559
343.480469 78.974678 -0.000019 0.543015
342.383392 81.211304 -0.000032 0.544976
341.620850 82.765923 -0.000026 0.502696
341.058960 83.911385 0.000006 0.536029
357.637146 49.379650 13.594851 0.678431
357.577118 49.504230 11.967649 0.400490
357.577118 49.504223 10.397452 0.394975
357.637146 49.379654 8.866360 0.678431
357.577118 49.504227 7.309238 0.407598
357.637146 49.379658 5.795500 0.678431
357.577118 49.504227 4.267251 0.407476
357.577118 49.504230 2.755210 0.405392
357.577118 49.504230 1.244790 0.405392
355.215637 54.404781 -0.000009 0.536274
348.131226 69.106514 0.000012 0.533211
345.089722 75.418289 0.000004 0.540564
343.395782 78.933571 -0.000011 0.545956
342.314301 81.177841 -0.000014 0.548652
341.562622 82.737740 -0.000007 0.543627
341.008820 83.887039 0.000014 0.539216
357.279022 49.380939 13.555898 0.678431
357.220673 49.504234 11.934471 0.403064
357.220673 49.504230 10.369497 0.392525
357.278992 49.380951 8.843291 0.678431
357.220673 49.504227 7.291568 0.396814
357.278992 49.380951 5.782750 0.678431
357.220673 49.504230 4.259705 0.431985
357.220673 49.504230 2.752697 0.449510
357.220673 49.504230 1.247304 0.406495
354.959198 54.282288 -0.000009 0.535662
347.977661 69.032913 -0.000007 0.547917
344.980225 75.365906 -0.000007 0.549632
343.310913 78.892899 -0.000029 0.524510
342.245087 81.144722 -0.000024 0.543505
341.504333 82.709831 -0.000017 0.505515
340.958527 83.862976 0.000003 0.522917
356.883484 49.467827 13.494120 0.506373
356.866547 49.504230 11.901994 0.427574
356.866547 49.504230 10.342136 0.375613
356.883484 49.467831 8.806708 0.467647
356.866547 49.504230 7.274269 0.417892
356.883484 49.467827 5.762527 0.504044
356.866547 49.504230 4.252317 0.398284
356.866547 49.504234 2.750235 0.402451
356.866547 49.504234 1.249764 0.392157
354.701843 54.161613 -0.000008 0.534069
347.823364 68.960831 0.000013 0.537990
344.870270 75.314514 0.000013 0.538358
343.225616 78.853050 -0.000009 0.535662
342.175598 81.112236 -0.000004 0.523652
341.445770 82.682457 0.000003 0.530392
340.908112 83.839264 -0.000010 0.532843
356.569763 49.383636 13.480403 0.678431
356.514740 49.504234 11.870208 0.424632
356.514740 49.504230 10.315358 0.399755
356.569763 49.383640 8.798584 0.678431
356.514740 49.504227 7.257338 0.373529
356.569763 49.383644 5.758036 0.678431
356.514740 49.504227 4.245086 0.378064
356.514740 49.504234 2.747828 0.364338
356.514740 49.504234 1.252173 0.348284
354.443695 54.042721 -0.000008 0.538113
347.668762 68.889481 0.000002 0.537132
344.760071 75.263664 0.000003 0.527083
343.140167 78.813606 -0.000019 0.535294
342.105896 81.080086 -0.000014 0.546446
341.387054 82.655373 -0.000007 0.532353
340.857483 83.815910 -0.000020 0.535907
356.218597 49.384914 13.443871 0.678431
356.165161 49.504234 11.839103 0.414338
356.165161 49.504230 10.289153 0.441422
356.218597 49.384922 8.776953 0.678431
356.165161 49.504227 7.240769 0.397426
356.218597 49.384926 5.746078 0.678431
356.165161 49.504230 4.238011 0.426225
356.165161 49.504227 2.745470 0.411275
356.165161 49.504227 1.254529 0.427328
354.184723 53.925629 -0.000008 0.536642
347.513641 68.819199 -0.000009 0.532598
344.649506 75.213570 -0.000009 0.536274
343.054413 78.774765 -0.000030 0.530760
342.036011 81.048424 -0.000024 0.537868
341.328186 82.628700 -0.000018 0.527574
340.806702 83.792908 -0.000030 0.501348
355.833740 49.467834 13.385789 0.503064
355.817749 49.504230 11.808671 0.404534
355.817749 49.504230 10.263515 0.432721
355.833740 49.467834 8.742556 0.482843
355.817749 49.504230 7.224559 0.401348
355.833740 49.467827 5.727067 0.481495
355.817749 49.504234 4.231089 0.407353
355.817749 49.504227 2.743165 0.421691
355.817749 49.504230 1.256835 0.385417
353.924957 53.810333 -0.000009 0.531863
347.357971 68.750244 0.000001 0.545711
344.538574 75.164360 -0.000007 0.539093
342.968353 78.736641 -0.000021 0.517279
341.965851 81.017342 -0.000015 0.516544
341.269073 82.602478 -0.000018 0.530637
340.755737 83.770332 -0.000021 0.529657
355.522766 49.387581 13.373124 0.678431
355.472473 49.504230 11.778901 0.394853
355.472443 49.504238 10.238432 0.382353
355.522766 49.387581 8.735054 0.678431
355.472443 49.504238 7.208701 0.405882
355.522766 49.387581 5.722919 0.661887
355.472473 49.504230 4.224316 0.389706
355.472443 49.504238 2.740909 0.394118
355.472443 49.504238 1.259090 0.419608
353.664368 53.696884 -0.000009 0.535049
347.201813 68.682335 0.000008 0.537868
344.427277 75.115952 -0.000001 0.537255
342.882019 78.699112 -0.000014 0.549510
341.895508 80.986702 -0.000017 0.549755
341.209808 82.576698 -0.000011 0.559804
340.704651 83.748077 -0.000021 0.499142
355.178070 49.388836 13.338921 0.678431
355.129242 49.504230 11.749784 0.388725
355.129242 49.504230 10.213904 0.419363
355.178070 49.388840 8.714800 0.678431
355.129242 49.504234 7.193194 0.412868
355.178070 49.388847 5.711722 0.608456
355.129242 49.504234 4.217694 0.389583
355.129242 49.504227 2.738704 0.363235
355.129242 49.504230 1.261296 0.406863
353.402985 53.585247 -0.000009 0.534926
347.045258 68.615334 -0.000003 0.534191
344.315674 75.068192 -0.000012 0.539706
342.795502 78.662064 -0.000025 0.545098
341.824951 80.956505 -0.000027 0.551225
341.150360 82.551262 -0.000022 0.502941
340.653381 83.726151 -0.000031 0.575123
354.803162 49.467819 13.284391 0.504044
354.788055 49.504227 11.721315 0.396569
354.788055 49.504227 10.189919 0.425613
354.803162 49.467819 8.682508 0.488480
354.788055 49.504230 7.178029 0.394240
354.788055 49.504230 5.690641 0.378554
354.788055 49.504234 4.211218 0.404779
354.788055 49.504234 2.736546 0.412990
354.788055 49.504234 1.263453 0.404412
353.140839 53.475437 -0.000009 0.540074
346.888153 68.549652 0.000007 0.542770
344.203735 75.021370 -0.000002 0.538358
342.708649 78.625763 -0.000015 0.547059
341.754150 80.926903 -0.000019 0.562868
341.090729 82.526329 -0.000011 0.554779
340.601959 83.704651 -0.000022 0.517770
354.494690 49.391464 13.272726 0.678431
354.448853 49.504230 11.693480 0.360417
354.448853 49.504230 10.166471 0.415686
354.494690 49.391464 8.675602 0.678431
354.448853 49.504230 7.163203 0.416054
354.448853 49.504234 5.680074 0.397181
354.448853 49.504230 4.204887 0.391667
354.448853 49.504227 2.734437 0.360049
354.448853 49.504227 1.265563 0.396814
352.877930 53.367474 -0.000008 0.535172
346.730713 68.484764 -0.000010 0.532966
344.091522 74.975121 -0.000020 0.566299
342.621613 78.589890 -0.000032 0.515441
341.683197 80.897667 -0.000035 0.541422
341.030914 82.501694 -0.000028 0.510662
340.550415 83.683411 -0.000037 0.488971
354.156006 49.392719 13.240750 0.678431
354.111572 49.504230 11.666275 0.399877
354.111572 49.504230 10.143549 0.419975
354.156006 49.392719 8.656666 0.678431
354.111572 49.504238 7.148712 0.426471
354.111572 49.504234 5.669746 0.405760
354.111572 49.504234 4.198699 0.390686
354.111572 49.504234 2.732377 0.408211
354.111572 49.504234 1.267623 0.398284
352.614258 53.261322 -0.000009 0.541054
346.572632 68.421463 0.000016 0.536520
343.978851 74.930008 0.000006 0.530392
342.534210 78.554977 0.000006 0.544608
341.611938 80.869141 -0.000009 0.563113
340.970947 82.477661 -0.000003 0.569608
340.498688 83.662682 -0.000013 0.543505
353.790344 49.467827 13.189639 0.492647
353.776154 49.504230 11.639691 0.395466
353.776154 49.504227 10.121155 0.399877
353.790344 49.467823 8.626398 0.476225
353.776154 49.504227 7.134552 0.424755
353.776154 49.504230 5.659652 0.404167
353.776154 49.504230 4.192651 0.382598
353.776154 49.504230 2.730361 0.409436
353.776154 49.504230 1.269638 0.402328
352.349884 53.157032 -0.000008 0.536397
346.414276 68.358856 0.000005 0.535539
343.865936 74.885399 -0.000003 0.536642
342.446655 78.520370 -0.000005 0.531495
341.540588 80.840927 -0.000019 0.521078
340.910797 82.453896 -0.000012 0.522917
340.446838 83.642189 -0.000023 0.570956
353.484222 49.395206 13.178970 0.678431
353.442566 49.504227 11.613720 0.414706
353.442566 49.504223 10.099273 0.392647
353.484222 49.395214 8.620077 0.678431
353.442566 49.504230 7.120717 0.420221
353.442566 49.504227 5.649794 0.394240
353.442566 49.504238 4.186744 0.444363
353.442566 49.504238 2.728394 0.383211
353.442566 49.504238 1.271606 0.358456
352.084808 53.054577 -0.000008 0.537500
346.255463 68.297356 -0.000005 0.534559
343.752777 74.841553 -0.000014 0.546936
342.358887 78.486382 -0.000015 0.539338
341.469025 80.813217 -0.000030 0.520711
340.850525 82.430588 -0.000012 0.554412
340.394867 83.622032 -0.000041 0.519853
353.151093 49.396454 13.149140 0.678431
353.110718 49.504230 11.588353 0.406127
353.110718 49.504223 10.077904 0.412990
353.151093 49.396458 8.602413 0.678431
353.110718 49.504230 7.107208 0.429657
353.110718 49.504234 5.640163 0.445221
353.110718 49.504230 4.180975 0.421078
353.110718 49.504234 2.726472 0.423652
353.110718 49.504238 1.273528 0.394975
351.818970 52.953983 -0.000008 0.532475
346.096161 68.237206 0.000004 0.544363
343.639252 74.798683 -0.000004 0.543137
342.270844 78.453133 -0.000005 0.548774
341.397278 80.786102 -0.000020 0.535907
340.790039 82.407753 -0.000003 0.488725
340.342712 83.602341 -0.000030 0.560539
352.793976 49.467827 13.101299 0.482108
352.780640 49.504234 11.563584 0.391789
352.780640 49.504234 10.057035 0.406740
352.793976 49.467831 8.574083 0.476961
352.780640 49.504230 7.094016 0.439216
352.780640 49.504230 5.630761 0.402696
352.780640 49.504230 4.175341 0.398652
352.780640 49.504234 2.724597 0.412623
352.780640 49.504234 1.275404 0.400613
351.552460 52.855247 -0.000009 0.537132
345.936523 68.177933 -0.000006 0.540319
343.525452 74.756432 -0.000014 0.537623
342.182587 78.420364 -0.000015 0.521936
341.325317 80.759453 -0.000018 0.520221
340.729431 82.385254 -0.000013 0.508824
340.290466 83.582939 -0.000040 0.543627
352.489960 49.398994 13.091553 0.678431
352.452240 49.504230 11.539411 0.398775
352.452240 49.504219 10.036671 0.392402
352.489960 49.398991 8.568311 0.678431
352.452240 49.504227 7.081137 0.440564
352.452240 49.504230 5.621582 0.405515
352.452240 49.504230 4.169843 0.391789
352.452240 49.504227 2.722764 0.407108
352.452240 49.504227 1.277235 0.407843
351.285248 52.758369 -0.000009 0.532598
345.776428 68.119942 -0.000001 0.540074
343.411346 74.715096 -0.000010 0.534681
342.094086 78.388306 -0.000010 0.563848
341.253143 80.733315 -0.000014 0.531005
340.668640 82.363235 -0.000009 0.519485
340.238037 83.563950 -0.000036 0.537990
352.125458 49.504230 13.036189 0.417892
352.125458 49.504230 11.515819 0.417402
352.125458 49.504230 10.016796 0.398775
352.161957 49.400211 8.551877 0.678431
352.125458 49.504230 7.068573 0.414093
352.125458 49.504223 5.612627 0.429412
352.125458 49.504230 4.164475 0.386275
352.125458 49.504227 2.720976 0.401348
352.125458 49.504227 1.279023 0.405024
351.017365 52.663368 -0.000009 0.536152
345.615875 68.063148 0.000009 0.534314
343.296936 74.674606 0.000000 0.525245
342.005341 78.356911 0.000000 0.535662
341.180817 80.707726 -0.000004 0.539951
340.607697 82.341667 0.000002 0.535662
340.185486 83.545357 -0.000026 0.524142
351.800262 49.504219 13.009501 0.367034
351.800262 49.504227 11.492804 0.400245
351.800262 49.504227 9.997406 0.371446
351.812775 49.467823 8.525427 0.504167
351.800262 49.504227 7.056314 0.384314
351.800262 49.504227 5.603889 0.413725
351.800262 49.504227 4.159241 0.416054
351.800262 49.504223 2.719234 0.413480
351.800262 49.504223 1.280766 0.437868
350.748840 52.570236 -0.000008 0.534191
345.455078 68.007210 -0.000001 0.532353
343.182251 74.634750 -0.000010 0.521569
341.916412 78.325996 -0.000010 0.513971
341.108337 80.682526 -0.000015 0.511520
340.546600 82.320442 -0.000008 0.530025
340.132843 83.527054 -0.000037 0.537132
351.476654 49.504227 12.983470 0.408456
351.476654 49.504227 11.470362 0.406005
351.476654 49.504230 9.978498 0.427083
351.510712 49.402649 8.520199 0.678431
351.476654 49.504234 7.044359 0.404902
351.476654 49.504230 5.595368 0.392157
351.476654 49.504223 4.154136 0.399755
351.476654 49.504230 2.717532 0.401961
351.476654 49.504230 1.282467 0.446078
350.479706 52.478970 -0.000009 0.535294
345.293823 67.952423 -0.000011 0.536520
343.067352 74.595688 -0.000021 0.550490
341.827301 78.295715 -0.000020 0.536029
341.035645 80.657837 -0.000024 0.556740
340.485413 82.299629 -0.000019 0.541667
340.080078 83.509117 -0.000045 0.559804
351.154572 49.504227 12.958099 0.393750
351.154572 49.504234 11.448483 0.411397
351.154572 49.504230 9.960070 0.391912
351.187439 49.403866 8.504948 0.678431
351.154572 49.504234 7.032708 0.395343
351.154572 49.504230 5.587064 0.390931
351.154572 49.504230 4.149160 0.396078
351.154572 49.504230 2.715875 0.389338
351.154572 49.504234 1.284124 0.409069
350.209900 52.389568 -0.000010 0.538113
345.132080 67.899139 0.000011 0.545221
342.952118 74.557617 -0.000010 0.549755
341.737946 78.266182 -0.000010 0.545956
340.962799 80.633751 -0.000014 0.518137
340.424011 82.279358 -0.000008 0.537132
340.027161 83.491631 -0.000036 0.532843
350.833923 49.504227 12.933374 0.395956
350.833923 49.504234 11.427167 0.384191
350.833923 49.504234 9.942109 0.392402
350.845551 49.467819 8.480310 0.498529
350.833923 49.504230 7.021353 0.405882
350.833923 49.504234 5.578970 0.405147
350.833923 49.504234 4.144311 0.391422
350.833923 49.504227 2.714260 0.401716
350.833923 49.504227 1.285740 0.402328
349.939484 52.302097 -0.000010 0.537868
344.970062 67.846764 0.000015 0.538358
342.836609 74.520378 0.000004 0.542402
341.648376 78.237228 -0.000006 0.539093
340.889771 80.610153 -0.000011 0.561887
340.362518 82.259468 -0.000005 0.531250
339.974091 83.474525 -0.000021 0.558578
350.514709 49.504230 12.909291 0.428799
350.514709 49.504223 11.406406 0.417770
350.514709 49.504227 9.924617 0.402083
350.545288 49.406273 8.475601 0.678431
350.514709 49.504230 7.010294 0.399142
350.514709 49.504230 5.571088 0.433088
350.514709 49.504227 4.139589 0.385294
350.514709 49.504227 2.712687 0.405760
350.514709 49.504227 1.287313 0.380637
349.668457 52.216492 -0.000010 0.531618
344.807648 67.795601 0.000025 0.532230
342.720856 74.483910 0.000015 0.530637
341.558594 78.208946 0.000005 0.559436
340.816589 80.587097 0.000000 0.545466
340.300842 82.240044 0.000005 0.504167
339.920929 83.457779 -0.000010 0.553922
350.196899 49.504215 12.885850 0.412990
350.196899 49.504230 11.386189 0.434069
350.196899 49.504230 9.907584 0.403064
350.226349 49.407467 8.461498 0.678431
350.196899 49.504227 6.999524 0.383456
350.196899 49.504230 5.563412 0.429289
350.196899 49.504223 4.134991 0.403431
350.196899 49.504227 2.711155 0.403064
350.196899 49.504234 1.288845 0.402206
349.396851 52.132786 -0.000009 0.530025
344.644958 67.745323 0.000015 0.535907
342.604858 74.448082 0.000005 0.533211
341.468658 78.181168 -0.000005 0.547549
340.743256 80.564438 -0.000010 0.541544
340.239105 82.220917 -0.000014 0.570588
339.867676 83.441330 -0.000020 0.536642
349.880432 49.504227 12.863031 0.405392
349.885284 49.487877 11.370197 0.425123
349.880432 49.504227 9.891010 0.371569
349.908783 49.408661 8.447769 0.678431
349.880432 49.504219 6.989047 0.364216
349.880432 49.504227 5.555943 0.397181
349.880432 49.504227 4.130516 0.440319
349.880432 49.504227 2.709665 0.406863
349.880432 49.504223 1.290336 0.402941
349.124664 52.050968 -0.000010 0.540809
344.481903 67.696190 0.000005 0.541054
342.488647 74.413063 -0.000005 0.541422
341.378540 78.154007 -0.000015 0.550613
340.669830 80.542305 -0.000019 0.528431
340.177216 82.202263 -0.000024 0.550613
339.814270 83.425247 -0.000029 0.566054
349.565247 49.504227 12.840834 0.428431
349.592529 49.409859 11.368593 0.553064
349.565247 49.504227 9.874887 0.396201
349.592529 49.409851 8.434412 0.674020
349.565247 49.504227 6.978853 0.410049
349.565247 49.504219 5.548677 0.399265
349.565247 49.504227 4.126162 0.385907
349.565247 49.504223 2.708214 0.401961
349.565247 49.504223 1.291785 0.401471
348.851898 51.971058 -0.000010 0.536887
344.318451 67.648445 0.000016 0.535294
342.372162 74.379028 0.000005 0.531127
341.288208 78.127548 -0.000013 0.530760
340.596130 80.520782 -0.000008 0.537132
340.115143 82.184135 -0.000013 0.549387
339.760773 83.409615 -0.000018 0.512132
349.251343 49.504215 12.819259 0.409191
349.277588 49.411037 11.349683 0.676716
349.251343 49.504223 9.859214 0.404902
349.277588 49.411034 8.421423 0.673897
349.251343 49.504227 6.968944 0.430515
349.251343 49.504234 5.541614 0.405515
349.251343 49.504227 4.121929 0.430147
349.251343 49.504227 2.706805 0.418627
349.251343 49.504227 1.293195 0.390441
348.578613 51.893066 -0.000010 0.529534
344.154694 67.601753 0.000018 0.539583
342.255463 74.345741 0.000007 0.545588
341.197662 78.101730 -0.000011 0.520466
340.522369 80.499741 -0.000007 0.538113
340.052979 82.166405 -0.000011 0.565686
339.707153 83.394333 -0.000016 0.530392
348.938690 49.504223 12.798293 0.427696
348.963898 49.412216 11.331299 0.678431
348.938690 49.504230 9.843981 0.393995
348.963898 49.412220 8.408796 0.673529
348.938690 49.504234 6.959311 0.396814
348.938690 49.504230 5.534751 0.389951
348.938690 49.504234 4.117818 0.408946
348.938690 49.504234 2.705435 0.399265
348.938690 49.504234 1.294565 0.405760
348.304749 51.817001 -0.000009 0.538603
343.990662 67.556046 0.000008 0.534436
342.138550 74.313164 -0.000003 0.540196
341.107025 78.076469 -0.000021 0.552083
340.448456 80.479149 -0.000016 0.534314
339.990692 82.149055 -0.000021 0.535784
339.653473 83.379372 -0.000026 0.517524
348.627228 49.504230 12.777927 0.401103
348.651428 49.413391 11.313439 0.678431
348.627228 49.504223 9.829193 0.423775
348.651428 49.413391 8.396530 0.678431
348.627228 49.504227 6.949961 0.423775
348.627228 49.504234 5.528086 0.449020
348.627228 49.504230 4.113825 0.415686
348.627228 49.504234 2.704105 0.403186
348.627228 49.504234 1.295895 0.391667
348.030396 51.742825 -0.000008 0.539338
343.826233 67.511734 0.000020 0.528431
342.021332 74.281578 0.000009 0.550245
341.016144 78.051971 -0.000010 0.534559
340.374329 80.459175 -0.000006 0.557108
339.928284 82.132225 -0.000010 0.532353
339.599640 83.364861 -0.000016 0.536520
348.316895 49.504219 12.758169 0.436152
348.340149 49.414570 11.296102 0.678431
348.316895 49.504223 9.814837 0.420711
348.340149 49.414566 8.384623 0.678431
348.316895 49.504230 6.940886 0.396814
348.316895 49.504234 5.521617 0.448897
348.316895 49.504227 4.109949 0.419730
348.316895 49.504227 2.702814 0.430392
348.316895 49.504227 1.297186 0.408824
347.755524 51.670547 -0.000009 0.533211
343.661591 67.468315 0.000009 0.538848
341.903992 74.250641 -0.000001 0.529657
340.925110 78.027985 -0.000019 0.544730
340.300140 80.439621 -0.000015 0.648897
339.865784 82.115753 -0.000020 0.557353
339.545776 83.350655 -0.000024 0.518995
348.007751 49.504219 12.739001 0.433333
348.029999 49.415730 11.279281 0.678431
348.007721 49.504227 9.800913 0.391299
348.029999 49.415730 8.373069 0.678431
348.007751 49.504219 6.932084 0.370221
348.007751 49.504227 5.515344 0.348039
348.007751 49.504227 4.106189 0.439461
348.007721 49.504230 2.701561 0.399265
348.007721 49.504230 1.298438 0.385784
347.480133 51.600224 -0.000009 0.531005
343.496613 67.426056 0.000000 0.531005
341.786407 74.220520 -0.000011 0.536152
340.833893 78.004623 -0.000029 0.555515
340.225800 80.420570 -0.000025 0.566176
339.803162 82.099716 -0.000029 0.548407
339.491730 83.336823 -0.000034 0.552083
347.699615 49.504223 12.720423 0.399265
347.708527 49.467831 11.251646 0.457598
347.699615 49.504223 9.787419 0.402328
347.708527 49.467834 8.354090 0.458824
347.699615 49.504223 6.923551 0.397426
347.699615 49.504223 5.509262 0.399877
347.699615 49.504227 4.102547 0.415074
347.699615 49.504223 2.700349 0.361275
347.699615 49.504223 1.299652 0.392892
347.204285 51.531807 -0.000009 0.535417
343.331299 67.385338 0.000022 0.547059
341.668549 74.191483 0.000011 0.544608
340.742523 77.982109 -0.000007 0.535049
340.151276 80.402222 -0.000002 0.550613
339.740356 82.084244 -0.000008 0.550980
339.437622 83.323486 -0.000012 0.502328
347.392548 49.504227 12.702430 0.430760
347.412964 49.418056 11.247166 0.678431
347.392548 49.504230 9.774347 0.400490
347.412964 49.418060 8.351013 0.678431
347.392548 49.504223 6.915288 0.406618
347.392548 49.504223 5.503373 0.400613
347.392548 49.504227 4.099017 0.417402
347.392548 49.504227 2.699172 0.406250
347.392548 49.504227 1.300827 0.419730
346.927948 51.465317 -0.000009 0.534436
343.165771 67.345383 0.000012 0.542034
341.550568 74.163017 0.000001 0.530147
340.651031 77.960022 -0.000016 0.561275
340.076691 80.384216 -0.000012 0.560539
339.677551 82.069077 -0.000018 0.522917
339.383453 83.310410 -0.000021 0.537255
347.086517 49.504223 12.685019 0.357108
347.106018 49.419216 11.231864 0.678431
347.086517 49.504227 9.761702 0.396569
347.106018 49.419212 8.340506 0.678431
347.086517 49.504223 6.907290 0.411029
347.086517 49.504227 5.497673 0.406863
347.086517 49.504227 4.095601 0.383333
347.086517 49.504227 2.698035 0.408456
347.086517 49.504230 1.301965 0.388725
346.651154 51.400753 -0.000010 0.534191
342.999908 67.306854 0.000024 0.546078
341.432343 74.135544 0.000013 0.532108
340.559326 77.938728 -0.000005 0.534681
340.001953 80.366852 -0.000000 0.517402
339.614563 82.054443 -0.000006 0.523897
339.329132 83.297791 -0.000011 0.520343
346.781464 49.504223 12.668182 0.429289
346.789551 49.467823 11.206561 0.502328
346.781464 49.504223 9.749473 0.396814
346.789551 49.467827 8.323126 0.480637
346.781464 49.504223 6.899558 0.407966
346.781464 49.504223 5.492163 0.409314
346.781464 49.504230 4.092300 0.399632
346.781464 49.504227 2.696935 0.381005
346.781464 49.504227 1.303065 0.417770
346.373932 51.338146 -0.000009 0.539338
342.833801 67.269272 0.000019 0.527083
341.313965 74.108765 0.000008 0.531127
340.467529 77.917953 -0.000010 0.544363
339.927094 80.349922 -0.000005 0.547917
339.551514 82.040176 -0.000011 0.542279
339.274780 83.285492 -0.000015 0.520588
346.477325 49.504227 12.651917 0.389706
346.495117 49.421516 11.202756 0.678431
346.477325 49.504227 9.737656 0.404657
346.495117 49.421513 8.320514 0.678431
346.477325 49.504223 6.892087 0.365319
346.477325 49.504227 5.486837 0.395221
346.477325 49.504223 4.089109 0.412745
346.477325 49.504223 2.695873 0.377206
346.477325 49.504223 1.304127 0.402819
346.096283 51.277473 -0.000009 0.533088
342.667480 67.232796 0.000010 0.538971
341.195435 74.082764 -0.000002 0.532721
340.375580 77.897797 -0.000019 0.533211
339.852142 80.333481 -0.000015 0.503922
339.488342 82.026337 -0.000020 0.549877
339.220337 83.273552 -0.000024 0.534559
346.174133 49.504227 12.636219 0.402819
346.191040 49.422661 11.188940 0.678431
346.174133 49.504223 9.726252 0.404412
