# This PCD file was generated using the MATLABÂ® pcwrite function
# from Computer Vision ToolboxÂ®.
# .PCD v.7 - Point Cloud Data file format
VERSION .7
FIELDS x y z intensity
SIZE 4 4 4 4
TYPE F F F F
COUNT 1 1 1 1
WIDTH 1327
HEIGHT 1
VIEWPOINT 0 0 0 1 0 0 0
POINTS 1327
DATA ascii
nan nan nan nan
331.667664 103.879059 -0.000020 -0.000020
342.048737 116.472054 0.000043 0.000043
346.505432 121.878372 0.000059 0.000059
348.987183 124.888893 -0.000024 -0.000024
350.571960 126.811333 0.000005 0.000005
351.673431 128.147507 0.000035 0.000035
352.484802 129.131775 0.000013 0.000013
nan nan nan nan
nan nan nan nan
nan nan nan nan
nan nan nan nan
nan nan nan nan
nan nan nan nan
nan nan nan nan
nan nan nan nan
nan nan nan nan
331.448975 104.060608 -0.000020 -0.000020
341.917786 116.580887 0.000049 0.000049
346.412079 121.955910 0.000060 0.000060
348.914825 124.949097 -0.000009 -0.000009
350.512970 126.860420 0.000021 0.000021
351.623718 128.188812 0.000037 0.000037
352.441956 129.167389 0.000017 0.000017
nan nan nan nan
nan nan nan nan
nan nan nan nan
nan nan nan nan
nan nan nan nan
nan nan nan nan
nan nan nan nan
nan nan nan nan
nan nan nan nan
331.231567 104.243690 -0.000020 -0.000020
341.787476 116.690536 0.000046 0.000046
346.319244 122.034088 0.000061 0.000061
348.842834 125.009743 -0.000006 -0.000006
350.454285 126.909851 0.000022 0.000022
351.574280 128.230484 0.000047 0.000047
352.399323 129.203323 0.000029 0.000029
nan nan nan nan
nan nan nan nan
nan nan nan nan
nan nan nan nan
nan nan nan nan
nan nan nan nan
nan nan nan nan
nan nan nan nan
nan nan nan nan
331.015472 104.428268 -0.000020 -0.000020
341.658051 116.801170 0.000051 0.000051
346.227051 122.113022 0.000077 0.000077
348.771271 125.070885 -0.000005 -0.000005
350.395935 126.959702 0.000025 0.000025
351.525116 128.272476 0.000051 0.000051
352.356934 129.239532 0.000030 0.000030
nan nan nan nan
nan nan nan nan
nan nan nan nan
nan nan nan nan
nan nan nan nan
nan nan nan nan
nan nan nan nan
nan nan nan nan
nan nan nan nan
330.800659 104.614380 -0.000019 -0.000019
341.529388 116.912712 0.000056 0.000056
346.135345 122.192520 0.000082 0.000082
348.700195 125.132591 0.000010 0.000010
350.337982 127.010002 0.000040 0.000040
351.476288 128.314850 0.000065 0.000065
352.314850 129.276093 0.000045 0.000045
nan nan nan nan
nan nan nan nan
nan nan nan nan
nan nan nan nan
nan nan nan nan
nan nan nan nan
nan nan nan nan
nan nan nan nan
nan nan nan nan
330.587128 104.801941 -0.000020 -0.000020
341.401581 117.025246 0.000072 0.000072
346.044189 122.272636 0.000085 0.000085
348.629486 125.194748 0.000016 0.000016
350.280334 127.060661 0.000042 0.000042
351.427612 128.357391 0.000024 0.000024
352.273010 129.312912 0.000058 0.000058
nan nan nan nan
nan nan nan nan
nan nan nan nan
nan nan nan nan
nan nan nan nan
nan nan nan nan
nan nan nan nan
nan nan nan nan
nan nan nan nan
330.374908 104.991005 -0.000021 -0.000021
341.274109 117.138145 0.000031 0.000031
345.953308 122.353111 0.000043 0.000043
348.559082 125.257210 -0.000015 -0.000015
350.222931 127.111580 0.000010 0.000010
351.379272 128.400299 -0.000006 -0.000006
352.231293 129.349869 0.000018 0.000018
nan nan nan nan
nan nan nan nan
nan nan nan nan
nan nan nan nan
nan nan nan nan
nan nan nan nan
nan nan nan nan
nan nan nan nan
nan nan nan nan
330.164032 105.181549 -0.000022 -0.000022
341.147797 117.252335 0.000033 0.000033
345.863068 122.434258 0.000010 0.000010
348.489258 125.320343 -0.000010 -0.000010
350.166016 127.163033 0.000013 0.000013
351.331329 128.443680 0.000009 0.000009
352.189972 129.387299 0.000034 0.000034
nan nan nan nan
nan nan nan nan
nan nan nan nan
nan nan nan nan
nan nan nan nan
nan nan nan nan
nan nan nan nan
nan nan nan nan
nan nan nan nan
329.954468 105.373573 -0.000021 -0.000021
341.022339 117.367470 0.000044 0.000044
345.773438 122.516106 -0.000014 -0.000014
348.419922 125.383980 -0.000000 -0.000000
350.109528 127.214958 0.000034 0.000034
351.283691 128.487381 0.000015 0.000015
352.148804 129.424866 0.000005 0.000005
nan nan nan nan
nan nan nan nan
nan nan nan nan
nan nan nan nan
nan nan nan nan
nan nan nan nan
nan nan nan nan
nan nan nan nan
nan nan nan nan
329.746277 105.567078 -0.000019 -0.000019
340.897644 117.483429 0.000049 0.000049
345.684570 122.598763 -0.000009 -0.000009
348.351044 125.448143 0.000015 0.000015
350.053345 127.267220 0.000040 0.000040
351.236389 128.531433 0.000030 0.000030
352.108002 129.462845 0.000021 0.000021
nan nan nan nan
nan nan nan nan
nan nan nan nan
nan nan nan nan
nan nan nan nan
nan nan nan nan
nan nan nan nan
nan nan nan nan
nan nan nan nan
329.539459 105.762009 -0.000018 -0.000018
340.773895 117.600403 0.000070 0.000070
345.596313 122.682060 -0.000001 -0.000001
348.282562 125.512733 0.000024 0.000024
349.997559 127.319923 0.000060 0.000060
351.189362 128.575790 0.000038 0.000038
352.067474 129.501099 0.000027 0.000027
nan nan nan nan
nan nan nan nan
nan nan nan nan
nan nan nan nan
nan nan nan nan
nan nan nan nan
nan nan nan nan
nan nan nan nan
nan nan nan nan
329.335083 105.959511 0.000059 0.000059
340.650818 117.718086 0.000075 0.000075
345.508575 122.765938 0.000005 0.000005
348.214600 125.577835 0.000038 0.000038
349.942108 127.372948 0.000062 0.000062
351.142670 128.620499 0.000052 0.000052
352.027191 129.539642 0.000039 0.000039
nan nan nan nan
nan nan nan nan
nan nan nan nan
nan nan nan nan
nan nan nan nan
nan nan nan nan
nan nan nan nan
nan nan nan nan
nan nan nan nan
329.129822 106.156120 -0.000022 -0.000022
340.528320 117.836372 0.000050 0.000050
345.421265 122.850258 -0.000020 -0.000020
348.146820 125.643181 0.000005 0.000005
349.886902 127.426247 0.000035 0.000035
351.096161 128.665405 0.000028 0.000028
351.987091 129.578369 0.000016 0.000016
nan nan nan nan
nan nan nan nan
nan nan nan nan
nan nan nan nan
nan nan nan nan
nan nan nan nan
nan nan nan nan
nan nan nan nan
nan nan nan nan
328.927887 106.356125 0.000033 0.000033
340.406982 117.955803 0.000060 0.000060
345.334778 122.935371 -0.000011 -0.000011
348.079773 125.709244 0.000025 0.000025
349.832031 127.479904 0.000003 0.000003
351.049988 128.710632 0.000002 0.000002
351.947388 129.617477 0.000035 0.000035
nan nan nan nan
nan nan nan nan
nan nan nan nan
nan nan nan nan
nan nan nan nan
nan nan nan nan
nan nan nan nan
nan nan nan nan
nan nan nan nan
328.725830 106.555984 -0.000020 -0.000020
340.286438 118.076103 0.000071 0.000071
345.248871 123.021126 0.000001 0.000001
348.013184 125.775734 0.000034 0.000034
349.777740 127.534149 0.000023 0.000023
351.004211 128.756302 0.000010 0.000010
351.907837 129.656769 0.000010 0.000010
nan nan nan 0.000000
388.818176 166.005920 11.464117 0.348407
386.547913 163.774963 9.394079 0.340931
385.818176 163.057861 7.876104 0.827206
385.818176 163.057861 6.557163 0.757843
385.818176 163.057861 5.248119 0.748162
385.818176 163.057861 3.946085 0.776348
385.818176 163.057861 2.648232 0.839216
385.818176 163.057861 1.351768 0.763113
385.818176 163.057861 0.053915 0.868015
374.960449 152.388214 0.000072 0.541667
369.963379 147.477676 0.000046 0.532108
367.180176 144.742706 0.000036 0.520588
365.403168 142.996490 0.000069 0.570956
364.168335 141.783020 0.000033 0.528186
363.258392 140.888870 0.000044 0.589216
nan nan nan 0.000000
388.713043 165.478027 11.368236 0.338358
386.414612 163.250732 9.310099 0.409559
385.818176 162.672760 7.836209 0.836765
385.846680 162.700378 6.530788 0.814828
385.846680 162.700378 5.229321 0.839216
385.846680 162.700378 3.934822 0.833211
385.846680 162.700378 2.644480 0.839216
385.846680 162.700378 1.355520 0.765686
385.846680 162.700378 0.065178 0.546201
375.079468 152.266449 0.000060 0.527328
370.048218 147.390900 0.000034 0.527328
367.245911 144.675354 0.000033 0.524510
365.456787 142.941574 0.000067 0.553676
364.213501 141.736786 0.000027 0.508456
363.297302 140.848938 0.000058 0.530025
nan nan nan 0.000000
388.538452 164.892349 11.253356 0.351838
386.811859 163.242401 9.361129 0.334559
386.173584 162.632477 7.870055 0.859191
386.244629 162.700378 6.563777 0.770343
386.244629 162.700378 5.252834 0.768382
386.244629 162.700378 3.948909 0.882721
386.244629 162.700378 2.649172 0.839216
386.244629 162.700378 1.350827 0.808578
386.244629 162.700378 0.051091 0.565319
375.197662 152.143860 0.000046 0.528676
370.132660 147.303741 -0.000015 0.522549
367.311157 144.607513 0.000039 0.531127
365.510162 142.886475 0.000019 0.535417
364.258423 141.690292 -0.000003 0.543260
363.336029 140.808868 0.000025 0.489951
nan nan nan 0.000000
389.018555 164.933792 11.334737 0.362745
387.287628 163.302673 9.431477 0.377206
386.606628 162.660950 7.919556 0.851961
386.819519 162.861572 6.624517 0.580392
386.763306 162.808578 5.289790 0.580392
386.648468 162.700378 3.963300 0.705760
386.819519 162.861572 2.657812 0.580392
386.763306 162.808578 1.343452 0.581127
386.648468 162.700378 0.036700 0.549020
375.314789 152.020294 0.000054 0.537990
370.215881 147.215378 0.000040 0.539216
367.375793 144.539063 0.000072 0.543137
365.562805 142.830627 0.000071 0.560662
364.302765 141.643234 0.000049 0.532108
363.374298 140.768326 0.000064 0.486765
nan nan nan 0.000000
389.550385 165.016083 11.430748 0.331618
387.727814 163.322495 9.492426 0.810539
387.015900 162.660934 7.963882 0.863848
387.231781 162.861572 6.659147 0.580392
387.174774 162.808578 5.314425 0.580392
387.058350 162.700378 3.978002 0.814951
387.231781 162.861588 2.662739 0.580392
387.174774 162.808578 1.338536 0.589706
387.058350 162.700378 0.021997 0.561275
375.431152 151.895950 0.000055 0.541667
370.298798 147.126755 0.000039 0.537868
367.440277 144.470505 0.000037 0.549142
365.615173 142.774567 0.000079 0.490931
364.347046 141.596130 0.000016 0.550245
363.412415 140.727676 0.000047 0.546691
nan nan nan 0.000000
390.093872 165.100632 11.529397 0.319363
387.727814 162.932587 9.444312 0.819608
387.431366 162.660950 8.009178 0.857476
387.650330 162.861588 6.694531 0.580392
387.592499 162.808578 5.339597 0.580392
387.474396 162.700378 3.993024 0.808946
387.650330 162.861588 2.667772 0.580392
387.592499 162.808578 1.333512 0.583456
387.474396 162.700378 0.006975 0.619363
375.546692 151.770844 0.000051 0.532843
370.380737 147.037231 0.000094 0.528064
367.504120 144.401337 0.000035 0.527328
365.667389 142.718307 0.000043 0.549387
364.390869 141.548630 0.000012 0.561397
363.450226 140.686707 0.000046 0.582966
nan nan nan 0.000000
390.607910 165.149963 11.618689 0.386765
388.075470 162.861771 9.482431 0.580392
387.853241 162.660950 8.055460 0.849387
388.075256 162.861588 6.730690 0.572304
388.016602 162.808578 5.365317 0.580392
387.896851 162.700378 4.008374 0.817402
388.075256 162.861588 2.672914 0.572059
388.016602 162.808578 1.328379 0.611887
387.769684 162.585464 0.000045 0.534069
375.661377 151.644974 0.000040 0.534926
370.462524 146.947556 0.000081 0.543260
367.567444 144.331696 0.000041 0.532843
365.719055 142.661591 0.000031 0.543260
364.434357 141.500793 0.000023 0.525000
363.487701 140.645447 0.000057 0.564706
nan nan nan 0.000000
nan nan nan 0.000000
388.507050 162.861771 9.540878 0.580392
388.281647 162.660934 8.102761 0.851593
388.325897 162.700378 6.739766 0.702696
388.325897 162.700363 5.378269 0.832353
388.325897 162.700378 4.024063 0.812745
388.325897 162.700363 2.674206 0.719853
388.325897 162.700363 1.325794 0.902206
387.959686 162.374084 0.000032 0.541176
375.775177 151.518341 0.000027 0.514583
370.543823 146.857437 0.000044 0.515931
367.630341 144.261673 0.000032 0.536397
365.770294 142.604477 0.000028 0.568627
364.477692 141.452820 -0.000026 0.517647
363.525055 140.604065 0.000018 0.563971
nan nan nan 0.000000
nan nan nan 0.000000
388.887512 162.810883 9.586594 0.837623
388.716797 162.660950 8.151109 0.849877
388.761688 162.700363 6.777316 0.820098
388.761688 162.700363 5.405032 0.796569
388.761688 162.700363 4.040098 0.781863
388.761688 162.700363 2.679548 0.643260
388.761688 162.700363 1.320453 0.832721
388.148010 162.161224 0.000033 0.537745
375.887817 151.390625 0.000050 0.541667
370.624176 146.766464 0.000054 0.526471
367.692932 144.191345 -0.000006 0.523529
365.821106 142.546967 0.000037 0.579902
364.520294 141.404160 0.000049 0.540809
363.562073 140.562378 -0.000006 0.524142
nan nan nan 0.000000
nan nan nan 0.000000
389.390839 162.861786 9.661695 0.580392
389.158997 162.660950 8.200537 0.858824
389.390594 162.861572 6.844028 0.580392
389.329407 162.808578 5.445945 0.580392
389.204498 162.700363 4.056490 0.681740
389.390594 162.861572 2.689036 0.580392
389.329407 162.808578 1.312288 0.509069
388.334259 161.946564 0.000069 0.541912
375.999451 151.262024 0.000085 0.539216
370.703705 146.674805 0.000090 0.531863
367.754517 144.120178 0.000049 0.552328
365.871521 142.489105 0.000048 0.548407
364.562592 141.355331 0.000093 0.555147
363.598602 140.520279 0.000032 0.557966
nan nan nan 0.000000
nan nan nan 0.000000
389.783875 162.810883 9.709877 0.836029
389.608307 162.660934 8.251066 0.849387
389.843262 162.861588 6.883505 0.580392
389.753540 162.784958 5.471045 0.237500
389.654480 162.700363 4.073251 0.651961
389.843262 162.861588 2.694652 0.580392
389.749573 162.781586 1.307363 0.229167
388.520172 161.731613 0.000031 0.538358
376.110840 151.133209 0.000048 0.539216
370.783051 146.582947 0.000065 0.528309
367.815857 144.048798 0.000050 0.544118
365.921539 142.430908 0.000058 0.546814
364.604858 141.306381 0.000068 0.530515
363.634857 140.477951 0.000059 0.594853
nan nan nan 0.000000
nan nan nan 0.000000
390.303589 162.861786 9.787989 0.580392
390.065063 162.660934 8.302740 0.855147
390.255829 162.821579 6.916730 0.232966
390.212341 162.784958 5.499738 0.245221
390.111877 162.700363 4.090388 0.825735
390.303345 162.861588 2.700394 0.580392
390.208344 162.781586 1.301638 0.241544
388.704193 161.514999 0.000019 0.536887
376.221069 151.003448 0.000034 0.553186
370.861603 146.490433 0.000054 0.549020
367.877014 143.977234 0.000001 0.546078
365.971100 142.372345 0.000066 0.535049
364.646698 141.257095 0.000065 0.567402
363.671082 140.435577 0.000009 0.546324
nan nan nan 0.000000
nan nan nan 0.000000
390.710083 162.810883 9.838789 0.853431
390.529449 162.660950 8.355588 0.863113
390.616394 162.733124 6.942023 0.851348
390.616394 162.733124 5.522429 0.839583
390.576965 162.700363 4.107917 0.797549
390.616394 162.733124 2.702976 0.848774
390.616394 162.733124 1.297024 0.828186
388.886475 161.296951 0.000021 0.534926
376.330292 150.872803 0.000036 0.530882
370.939392 146.397278 0.000063 0.511029
367.937286 143.904907 0.000025 0.546936
366.020477 142.313599 0.000030 0.524632
364.688110 141.207458 0.000075 0.540686
363.706757 140.392746 0.000033 0.542770
nan nan nan 0.000000
nan nan nan 0.000000
391.247101 162.861786 9.920083 0.580392
390.982727 162.645416 8.406006 0.867770
391.049896 162.700378 6.978110 0.804779
391.049896 162.700378 5.548149 0.801838
391.049896 162.700378 4.125845 0.680025
391.049896 162.700378 2.708110 0.737377
391.049896 162.700378 1.291891 0.696201
389.067261 161.077621 0.000021 0.536887
376.438477 150.741318 0.000046 0.533456
371.016571 146.303604 0.000064 0.503676
367.997131 143.832291 0.000024 0.550613
366.069275 142.254395 0.000034 0.531740
364.729309 141.157654 0.000054 0.497794
363.742188 140.349716 0.000040 0.539828
nan nan nan 0.000000
nan nan nan 0.000000
391.723877 162.856018 9.986746 0.854289
391.405853 162.599426 8.450415 0.858456
391.571564 162.733124 7.027058 0.849510
391.665070 162.808578 5.592891 0.580392
391.531006 162.700378 4.144187 0.845098
391.530975 162.700363 2.714217 0.278431
391.530975 162.700363 1.285782 0.275490
389.246704 160.857224 0.000008 0.537745
376.546021 150.609268 0.000035 0.536765
371.093140 146.209442 0.000063 0.542892
368.056519 143.759262 0.000020 0.553431
366.117645 142.194809 0.000042 0.552206
364.770111 141.107498 0.000048 0.488848
363.777466 140.306580 -0.000009 0.466176
nan nan nan 0.000000
nan nan nan 0.000000
nan nan nan 0.000000
391.868317 162.579376 8.502096 0.622549
392.061615 162.733124 7.071056 0.809436
392.156494 162.808578 5.624337 0.580392
392.020447 162.700378 4.162954 0.775735
387.303925 158.948761 2.621850 0.484314
392.185730 162.831818 1.276075 0.493260
389.424011 160.635117 0.000032 0.536520
376.652466 150.476364 0.000036 0.533701
371.168976 146.114700 0.000064 0.520956
368.115234 143.685699 0.000043 0.549632
366.165802 142.135056 0.000001 0.525858
364.810577 141.057114 0.000024 0.522672
363.812103 140.262878 0.000069 0.590441
nan nan nan 0.000000
nan nan nan 0.000000
nan nan nan 0.000000
392.247040 162.487442 8.537725 0.857230
392.507141 162.691391 7.108304 0.673529
392.656586 162.808594 5.656518 0.580392
386.916199 158.307617 3.832414 0.479657
387.107269 158.457428 2.614342 0.485539
392.697601 162.840729 1.269411 0.277941
389.600128 160.412048 0.000034 0.534559
376.757751 150.342545 0.000061 0.534191
371.244385 146.019592 0.000038 0.523407
368.173584 143.611832 0.000045 0.523529
366.213287 142.074799 0.000016 0.540441
364.850647 141.006348 0.000035 0.483456
363.846680 140.219177 0.000054 0.575245
nan nan nan 0.000000
nan nan nan 0.000000
nan nan nan 0.000000
387.092529 158.114807 7.535953 0.493995
387.600525 158.507416 6.367221 0.488603
386.430084 157.602814 4.991445 0.457353
387.310028 158.282883 3.846935 0.508701
387.432831 158.377792 2.617744 0.493505
393.025665 162.700348 1.266586 0.280760
389.774902 160.187912 0.000022 0.543260
376.862488 150.208282 0.000046 0.530882
371.319031 145.923889 0.000027 0.531005
368.231354 143.537521 0.000055 0.540319
366.260468 142.014282 0.000003 0.544363
364.890350 140.955338 0.000031 0.542279
363.880951 140.175201 0.000051 0.533701
nan nan nan 0.000000
nan nan nan 0.000000
nan nan nan 0.000000
387.147858 157.829422 7.516695 0.478676
387.642548 158.206253 6.349966 0.484191
386.700562 157.488678 5.003345 0.480147
387.377258 158.004181 3.841220 0.490074
386.677338 157.470993 2.598904 0.487255
393.542023 162.700378 1.259882 0.837623
389.947906 159.962433 0.000024 0.533088
376.966125 150.073181 0.000050 0.558701
371.392822 145.827545 0.000036 0.529902
368.288635 143.462830 0.000057 0.532721
366.307098 141.953308 0.000029 0.555637
364.929688 140.904053 0.000036 0.546446
363.914856 140.130966 0.000054 0.562623
nan nan nan 0.000000
nan nan nan 0.000000
386.960236 157.363892 8.688722 0.494118
387.255951 157.585907 7.507693 0.470343
387.955292 158.110962 6.372047 0.494730
386.934723 157.344727 5.011537 0.463725
386.886932 157.308838 3.801403 0.468260
386.942871 157.350845 2.601184 0.461275
397.194672 165.047958 1.189036 0.506863
390.119293 159.735718 0.000025 0.536397
377.069214 149.937637 0.000011 0.542525
371.466034 145.730743 0.000039 0.518015
368.345337 143.387711 0.000068 0.518750
366.353546 141.892242 -0.000012 0.528554
364.968781 140.852554 0.000012 0.561029
363.948608 140.086609 0.000019 0.524387
nan nan nan 0.000000
387.521576 157.460007 10.049030 0.448407
387.416809 157.382477 8.757351 0.478064
nan nan nan 0.000000
387.935791 157.766479 6.346566 0.496569
387.054230 157.114182 5.008097 0.444730
387.176178 157.204391 3.809729 0.476348
386.838104 156.954239 2.595930 0.467279
387.768860 157.642960 1.385123 0.647181
387.751984 157.630463 0.155081 0.686397
377.170959 149.801102 0.000013 0.543505
371.538544 145.633408 0.000041 0.534681
368.401733 143.312347 0.000044 0.551348
366.399384 141.830704 -0.000009 0.523162
365.007355 140.800690 0.000021 0.550858
363.981842 140.041855 0.000041 0.439828
nan nan nan 0.000000
387.705505 157.272110 10.057017 0.458578
387.468628 157.099380 8.734455 0.472549
387.566620 157.170822 7.508113 0.461397
388.244812 157.665375 6.368334 0.457475
387.173462 156.884140 5.004808 0.485907
386.840393 156.641266 3.780056 0.487010
386.894897 156.681015 2.594033 0.491176
387.908752 157.420303 1.385434 0.650368
387.874390 157.395264 0.157075 0.534436
377.271759 149.663849 0.000015 0.540809
371.610229 145.535477 0.000066 0.540441
368.457428 143.236465 0.000045 0.561642
366.444702 141.768799 0.000014 0.514706
365.045563 140.748535 0.000044 0.519853
364.014801 139.996902 0.000051 0.528922
nan nan nan 0.000000
nan nan nan 0.000000
387.684479 156.936325 8.748877 0.474020
387.542480 156.834274 7.475940 0.474632
387.773315 157.000168 6.279523 0.473775
387.485809 156.793549 5.021201 0.489951
387.122345 156.532410 3.788142 0.475980
388.124298 157.252350 2.615811 0.469363
399.623383 165.515106 1.152478 0.477451
390.623810 159.048401 0.000039 0.534069
377.371338 149.525726 0.000040 0.525000
371.681366 145.437149 0.000069 0.521078
368.512573 143.160172 0.000057 0.547794
366.489685 141.706604 0.000024 0.552206
365.083618 140.696274 0.000005 0.507598
364.047577 139.951797 0.000030 0.518137
nan nan nan 0.000000
nan nan nan 0.000000
387.878571 156.756454 8.758619 0.473775
387.950714 156.807526 7.522935 0.465441
387.928131 156.791534 6.280084 0.477206
387.917175 156.783798 5.049531 0.486887
387.537903 156.515259 3.804272 0.484926
388.455322 157.164825 2.619389 0.500735
nan nan nan 0.000000
390.788818 158.816971 0.000042 0.532843
377.470215 149.387070 0.000043 0.534436
371.752136 145.338516 0.000031 0.547059
368.567230 143.083542 0.000059 0.533701
366.534241 141.644135 0.000026 0.536765
365.121155 140.643631 0.000011 0.559681
364.079895 139.906387 0.000043 0.539461
nan nan nan 0.000000
nan nan nan 0.000000
nan nan nan 0.000000
nan nan nan 0.000000
387.868744 156.433426 6.250807 0.494118
387.642120 156.275330 5.007103 0.490074
387.576965 156.229874 3.797780 0.483701
388.463348 156.848206 2.616517 0.472794
nan nan nan 0.000000
390.952209 158.584427 0.000045 0.534681
377.568115 149.247742 0.000045 0.534314
371.821930 145.239227 0.000031 0.514216
368.621277 143.006500 0.000070 0.547917
366.578217 141.581268 0.000050 0.561520
365.158264 140.590698 0.000023 0.511642
364.111847 139.860733 0.000064 0.531495
nan nan nan 0.000000
nan nan nan 0.000000
nan nan nan 0.000000
nan nan nan 0.000000
388.527863 156.573410 6.322313 0.490809
388.309723 156.423477 5.059025 0.470711
387.751770 156.040039 3.799533 0.493995
nan nan nan 0.000000
nan nan nan 0.000000
391.113953 158.350739 0.000047 0.531495
377.664948 149.107681 0.000056 0.550368
371.890961 145.139420 0.000034 0.534314
368.674866 142.929092 0.000073 0.553186
366.621796 141.518097 0.000076 0.539828
365.194977 140.537491 0.000044 0.605637
364.143707 139.815002 0.000024 0.583088
nan nan nan 0.000000
nan nan nan 0.000000
nan nan nan 0.000000
nan nan nan 0.000000
nan nan nan 0.000000
388.624634 156.322159 5.075675 0.473039
nan nan nan 0.000000
nan nan nan 0.000000
nan nan nan 0.000000
391.274506 158.116241 0.000022 0.530637
377.760864 148.966980 0.000058 0.547917
371.959290 145.039108 0.000045 0.529779
368.728027 142.851440 0.000049 0.548407
366.665039 141.454712 0.000076 0.556740
365.231537 140.484192 0.000006 0.486029
364.175079 139.768921 0.000035 0.533333
nan nan nan 0.000000
nan nan nan 0.000000
nan nan nan 0.000000
nan nan nan 0.000000
nan nan nan 0.000000
nan nan nan 0.000000
nan nan nan 0.000000
nan nan nan 0.000000
nan nan nan 0.000000
391.433014 157.880325 0.000023 0.540809
377.855774 148.825623 0.000062 0.539093
372.026978 144.938354 0.000047 0.554534
368.780518 142.773300 0.000049 0.504289
366.707764 141.390976 0.000089 0.540074
365.267578 140.430511 0.000012 0.538725
364.206085 139.722595 0.000062 0.518995
nan nan nan 0.000000
nan nan nan 0.000000
nan nan nan 0.000000
nan nan nan 0.000000
nan nan nan 0.000000
nan nan nan 0.000000
nan nan nan 0.000000
nan nan nan 0.000000
nan nan nan 0.000000
391.589844 157.643311 0.000025 0.531127
377.949768 148.683624 0.000063 0.531373
372.093781 144.837036 0.000073 0.550613
368.832397 142.694763 0.000062 0.532966
366.750244 141.327072 0.000064 0.538848
365.303192 140.376526 0.000037 0.553186
364.236847 139.676132 0.000062 0.509191
nan nan nan 0.000000
nan nan nan 0.000000
386.328888 153.901398 8.233763 0.639951
386.327972 153.900818 7.081790 0.669240
386.324341 153.898453 5.940640 0.676103
386.327759 153.900681 4.809029 0.669976
386.327271 153.900360 3.682978 0.618995
386.327179 153.900299 2.560590 0.688603
386.325714 153.899368 1.439438 0.627083
386.326172 153.899643 0.317087 0.661642
378.043182 148.541260 0.000021 0.537132
372.160004 144.735352 0.000076 0.532721
368.883789 142.615906 0.000064 0.533333
366.792145 141.262772 0.000067 0.543873
365.338470 140.322372 0.000043 0.571324
364.267395 139.629501 0.000028 0.516912
nan nan nan 0.000000
nan nan nan 0.000000
386.327881 153.617172 8.205671 0.626593
386.328522 153.617569 7.059156 0.622426
386.325867 153.615906 5.923228 0.658211
386.325623 153.615738 4.796257 0.681618
386.326324 153.616180 3.675395 0.662745
386.326965 153.616592 2.558079 0.695956
386.325836 153.615891 1.441943 0.590931
386.326263 153.616135 0.324607 0.678186
378.135132 148.397934 0.000024 0.528554
372.225586 144.633194 0.000079 0.531863
368.934753 142.536789 0.000040 0.565196
366.833527 141.198181 0.000077 0.532353
365.373352 140.267960 0.000049 0.526593
364.297424 139.582550 0.000051 0.509069
nan nan nan 0.000000
nan nan nan 0.000000
386.327057 153.335587 8.178169 0.685784
386.329163 153.336899 7.036989 0.624142
386.327454 153.335846 5.906169 0.647794
386.327728 153.336029 4.784148 0.646691
386.325348 153.334518 3.667961 0.645711
386.326752 153.335388 2.555617 0.682476
386.325989 153.334930 1.444397 0.649755
386.326324 153.335144 0.331981 0.656127
378.226654 148.254318 -0.000026 0.542647
372.291077 144.531036 -0.000012 0.541912
368.985352 142.457382 -0.000008 0.543382
366.874756 141.133453 0.000030 0.535662
365.407959 140.213333 0.000037 0.491176
364.327515 139.535614 -0.000036 0.554657
nan nan nan 0.000000
nan nan nan 0.000000
386.326416 153.056580 8.151242 0.687868
386.323425 153.054749 7.014154 0.614951
386.323853 153.055008 5.888740 0.646936
386.325684 153.056137 4.771878 0.656005
386.327606 153.057327 3.660860 0.662132
386.326538 153.056671 2.553204 0.654412
386.326080 153.056396 1.446805 0.647917
386.326141 153.056412 0.339225 0.615319
378.316437 148.109634 -0.000007 0.548284
372.355103 144.427933 0.000004 0.547672
369.034973 142.377411 0.000009 0.552696
366.915344 141.068329 0.000022 0.561275
365.441986 140.158401 0.000060 0.536520
364.356903 139.488251 -0.000017 0.584436
nan nan nan 0.000000
386.777039 153.054367 9.384171 0.631985
386.325928 152.780090 8.124880 0.655760
386.324310 152.779099 6.992899 0.670833
386.325592 152.779877 5.872373 0.693505
386.327881 152.781265 4.760256 0.662255
386.326691 152.780563 3.653717 0.625000
386.326324 152.780334 2.550839 0.699020
386.326233 152.780273 1.449164 0.666299
386.326233 152.780273 0.346310 0.645588
378.405151 147.964264 0.000019 0.542647
372.418518 144.324432 0.000006 0.547181
369.084106 142.297119 0.000020 0.512377
366.955444 141.002914 0.000021 0.552941
365.475769 140.103271 0.000065 0.544976
364.386017 139.440704 -0.000008 0.581250
nan nan nan 0.000000
386.753662 152.762207 9.347256 0.609559
386.325623 152.506027 8.099074 0.633211
386.325287 152.505829 6.972086 0.691912
386.327393 152.507095 5.856342 0.650000
386.325928 152.506195 4.748466 0.662745
386.325806 152.506134 3.646716 0.606495
386.326111 152.506317 2.548519 0.692279
386.326355 152.506454 1.451477 0.624632
386.326294 152.506439 0.353254 0.656005
378.492889 147.818344 0.000039 0.530882
372.480865 144.220291 0.000051 0.526348
369.132660 142.216461 0.000036 0.544853
366.994965 140.937119 0.000050 0.545343
365.509277 140.047974 0.000041 0.562010
364.414673 139.392883 0.000034 0.544976
nan nan nan 0.000000
386.720673 152.467163 9.308592 0.676225
386.325439 152.234344 8.073811 0.672059
386.326355 152.234879 6.951703 0.615809
386.324005 152.233475 5.839936 0.657353
386.328156 152.235947 4.737312 0.654657
386.324921 152.234039 3.639854 0.594118
386.325928 152.234619 2.546246 0.696936
386.326447 152.234940 1.453743 0.625613
386.326385 152.234909 0.360062 0.692524
378.579803 147.671906 0.000040 0.531127
372.542816 144.115921 0.000052 0.551716
369.180542 142.135437 0.000065 0.533333
367.034088 140.871124 0.000054 0.530637
365.542175 139.992340 0.000066 0.552328
364.443268 139.345032 -0.000006 0.551593
nan nan nan 0.000000
386.697937 152.180908 9.273159 0.637868
386.325470 151.964981 8.049082 0.682843
386.327515 151.966187 6.931745 0.657966
386.325928 151.965256 5.824560 0.638848
386.326294 151.965469 4.725990 0.632475
386.327240 151.966019 3.633309 0.641422
386.325714 151.965134 2.544019 0.694730
386.326569 151.965637 1.455965 0.649510
386.326172 151.965393 0.366751 0.658456
378.665710 147.524887 0.000042 0.527328
372.604004 144.011124 0.000056 0.532353
369.227997 142.054153 0.000067 0.509681
367.072754 140.804840 0.000063 0.500858
365.574738 139.936493 0.000070 0.571936
364.471375 139.296890 -0.000003 0.580637
nan nan nan 0.000000
386.675507 151.897461 9.238447 0.737500
386.325592 151.697876 8.024878 0.667525
386.328796 151.699707 6.912203 0.653431
386.327911 151.699188 5.809500 0.638848
386.324463 151.697220 4.714895 0.666054
386.326416 151.698349 3.626719 0.661642
386.325531 151.697845 2.541837 0.652328
386.326660 151.698502 1.458143 0.655882
386.326233 151.698257 0.373290 0.650980
378.750549 147.377243 0.000045 0.531495
372.664856 143.906097 0.000012 0.527328
369.275146 141.972702 0.000027 0.523897
367.111023 140.738327 0.000067 0.540196
365.606964 139.880447 0.000077 0.540931
364.498840 139.248413 0.000083 0.514461
nan nan nan 0.000000
386.653412 151.616760 9.204435 0.246936
386.325897 151.432968 8.001192 0.629902
386.323822 151.431808 6.891994 0.654044
386.324738 151.432327 5.794066 0.640931
386.326782 151.433487 4.704415 0.614216
386.325562 151.432800 3.620261 0.638848
386.325317 151.432663 2.539696 0.698039
386.326782 151.433472 1.460276 0.666667
386.326324 151.433212 0.379697 0.655270
378.834686 147.229187 0.000020 0.536029
372.724457 143.800369 0.000032 0.523652
369.321411 141.890717 0.000045 0.527941
367.148834 140.671555 0.000059 0.507598
365.638702 139.824142 0.000095 0.532721
364.526215 139.199844 0.000110 0.559191
nan nan nan 0.000000
386.631592 151.338730 9.171119 0.216054
386.326324 151.170212 7.978007 0.648775
386.325287 151.169647 6.873271 0.643627
386.326843 151.170502 5.779628 0.684069
386.325043 151.169495 4.693761 0.641299
386.324799 151.169357 3.613932 0.644608
386.327332 151.170761 2.537641 0.608211
386.325623 151.169830 1.462391 0.639461
386.326416 151.170258 0.385976 0.684559
378.917999 147.080688 -0.000031 0.534191
372.783875 143.694550 -0.000018 0.533088
369.367462 141.808640 -0.000005 0.550245
367.186401 140.604645 0.000009 0.511029
365.670471 139.767822 0.000021 0.544118
364.553497 139.151230 0.000062 0.536887
387.579224 151.589478 10.555242 0.658578
386.610077 151.063278 9.138474 0.413235
386.326904 150.909531 7.955323 0.681005
386.326843 150.909500 6.854944 0.606985
386.323822 150.907852 5.764813 0.702083
386.327454 150.909836 4.683711 0.667157
386.327148 150.909668 3.607906 0.713113
386.327148 150.909668 2.535586 0.654167
386.325745 150.908890 1.464440 0.582230
386.326172 150.909134 0.392147 0.634559
378.999573 146.931213 -0.000011 0.538603
372.842010 143.588013 0.000000 0.550245
369.412506 141.725983 0.000021 0.537010
367.223083 140.537262 0.000036 0.560539
365.701447 139.711060 0.000039 0.542034
364.580292 139.102371 0.000051 0.543260
387.552948 151.305130 10.515677 0.649265
386.588837 150.790375 9.106491 0.692034
386.327606 150.650879 7.933124 0.645956
386.328491 150.651352 6.837005 0.696936
386.326050 150.650055 5.750978 0.633088
386.325775 150.649902 4.673486 0.655760
386.326385 150.650238 3.601831 0.685907
386.326996 150.650558 2.533574 0.645221
386.325867 150.649948 1.466447 0.658578
386.326263 150.650162 0.398175 0.626961
379.080292 146.781281 -0.000010 0.525490
372.899323 143.481033 0.000028 0.541054
369.457092 141.643097 0.000026 0.541544
367.259491 140.469681 0.000039 0.538113
365.732025 139.654129 0.000051 0.518505
364.606689 139.053284 0.000058 0.562868
387.522858 151.021271 10.475744 0.313235
386.556976 150.514175 9.072491 0.570711
386.328461 150.394226 7.911406 0.673162
386.323975 150.391876 6.818400 0.667279
386.328308 150.394150 5.737432 0.675490
386.328247 150.394119 4.663851 0.679044
386.325623 150.392746 3.595880 0.678309
386.326813 150.393356 2.531602 0.631618
386.325928 150.392899 1.468414 0.640809
386.326355 150.393097 0.404082 0.615686
379.159668 146.630615 0.000018 0.536520
372.956116 143.373749 0.000031 0.521446
369.501160 141.559891 0.000027 0.528309
367.295258 140.401810 0.000065 0.527941
365.762207 139.596970 0.000063 0.518505
364.632721 139.003983 0.000068 0.507721
387.497589 150.742401 10.437874 0.238235
386.536102 150.246170 9.041768 0.677451
386.329407 150.139496 7.890159 0.681740
386.325806 150.137619 6.801227 0.628064
386.325500 150.137451 5.723510 0.656495
386.326630 150.138046 4.654038 0.656373
386.324921 150.137146 3.590051 0.674755
386.326660 150.138062 2.529670 0.597917
386.326050 150.137741 1.470340 0.668015
386.326416 150.137939 0.409865 0.630637
379.237305 146.479065 0.000110 0.528799
373.011444 143.265747 0.000120 0.532843
369.543945 141.476074 0.000138 0.546691
367.330261 140.333527 0.000151 0.557598
365.791748 139.539459 0.000143 0.527696
364.658173 138.954391 0.000155 0.518382
387.472839 150.466141 10.400834 0.403064
386.515533 149.980499 9.011672 0.709191
386.323151 149.882889 7.867872 0.674510
386.327698 149.885208 6.784422 0.685294
386.327820 149.885269 5.710536 0.661274
386.325073 149.883865 4.644430 0.690319
386.327301 149.885010 3.584513 0.649387
386.326477 149.884567 2.527779 0.630147
386.326141 149.884399 1.472228 0.615686
386.326141 149.884399 0.415551 0.633578
379.315399 146.327759 0.000060 0.538603
373.067078 143.157852 0.000078 0.537377
369.587128 141.392441 0.000088 0.540564
367.365479 140.265335 0.000101 0.532475
365.821503 139.482056 0.000074 0.511765
364.683716 138.904861 0.000108 0.534926
387.448608 150.192444 10.364606 0.500980
386.495117 149.717072 8.982176 0.705392
386.324371 149.631943 7.847558 0.600735
386.323517 149.631500 6.766953 0.670956
386.325165 149.632324 5.697185 0.632353
386.327606 149.633560 4.635395 0.652574
386.326599 149.633057 3.578920 0.659314
386.326324 149.632904 2.525926 0.650858
386.326233 149.632874 1.474076 0.582475
386.326233 149.632858 0.421100 0.672672
379.391693 146.175522 0.000080 0.528431
373.121429 143.049377 0.000097 0.544363
369.629303 141.308289 0.000107 0.526226
367.400055 140.196838 0.000076 0.545221
365.850464 139.424286 0.000088 0.543627
364.708801 138.855072 0.000102 0.541422
387.424835 149.921204 10.329167 0.577941
386.474976 149.455887 8.953276 0.725613
386.325745 149.382782 7.827692 0.674142
386.325592 149.382690 6.750880 0.674387
386.327606 149.383698 5.684767 0.622304
386.326111 149.382965 4.626181 0.655392
386.325928 149.382874 3.573445 0.647426
386.326141 149.382980 2.524111 0.626103
386.326324 149.383072 1.475886 0.666054
386.326294 149.383057 0.426534 0.653064
379.467133 146.022858 0.000082 0.534804
373.175201 142.940552 0.000100 0.538603
369.671234 141.224014 0.000065 0.534314
367.434021 140.128052 0.000080 0.544118
365.879089 139.366302 0.000097 0.521569
364.733459 138.805099 0.000106 0.517034
387.401550 149.652374 10.294507 0.609069
386.466431 149.202347 8.927703 0.598407
386.327209 149.135345 7.808268 0.678799
386.327728 149.135590 6.735156 0.663848
386.325043 149.134293 5.671968 0.604902
386.324646 149.134109 4.617160 0.639216
386.325256 149.134384 3.568083 0.622672
386.325989 149.134750 2.522334 0.618137
386.326416 149.134964 1.477657 0.625123
386.326385 149.134933 0.431855 0.658456
379.541290 145.869583 0.000102 0.539338
373.228058 142.831314 0.000120 0.526593
369.712250 141.139282 0.000087 0.570588
367.467407 140.058960 0.000106 0.545588
365.907227 139.308105 0.000117 0.469976
364.757751 138.754913 0.000131 0.526226
387.373016 149.383179 10.259025 0.546936
386.446777 148.945358 8.899971 0.612132
386.328796 148.889603 7.789279 0.614706
386.323822 148.887238 6.718771 0.642770
386.327606 148.889038 5.660089 0.630147
386.327301 148.888885 4.608699 0.644608
386.327698 148.889069 3.563003 0.633211
386.325836 148.888199 2.520595 0.612623
386.326508 148.888519 1.479392 0.655515
386.326080 148.888321 0.437084 0.682108
379.614471 145.715836 0.000112 0.538113
373.280640 142.721909 0.000077 0.523775
369.752747 141.054337 0.000088 0.553431
367.500427 139.989700 0.000108 0.530882
365.935059 139.249756 0.000120 0.544118
364.781830 138.704651 0.000107 0.533333
387.350403 149.118927 10.225826 0.406740
386.427277 148.690430 8.872807 0.239828
386.323242 148.642120 7.769259 0.699877
386.326141 148.643463 6.703744 0.658088
386.325165 148.643036 5.647827 0.655147
386.325897 148.643356 4.600056 0.692892
386.327057 148.643906 3.557865 0.731127
386.325684 148.643265 2.518893 0.697059
386.326599 148.643692 1.481091 0.642647
386.326172 148.643494 0.442182 0.671078
379.687103 145.561813 0.000077 0.540809
373.332367 142.612137 0.000043 0.537500
369.792725 140.969116 0.000082 0.547304
367.533142 139.920288 0.000074 0.544976
365.962494 139.191238 0.000113 0.518995
364.805573 138.654221 0.000074 0.570956
388.210266 149.258835 10.436150 0.414338
386.407959 148.437500 8.846189 0.219608
386.325043 148.399689 7.751127 0.639951
386.328491 148.401276 6.689051 0.680270
386.327820 148.400970 5.636470 0.700980
386.324524 148.399460 4.591597 0.683578
386.326447 148.400345 3.552838 0.676103
386.325531 148.399933 2.517227 0.662377
386.326691 148.400452 1.482752 0.636152
386.326263 148.400253 0.447172 0.732721
379.758240 145.407104 0.000079 0.529044
373.383087 142.501877 0.000044 0.530392
369.832062 140.883591 0.000081 0.541176
367.565063 139.850510 0.000102 0.534314
365.989532 139.132492 0.000112 0.549142
364.828857 138.603561 0.000083 0.595833
389.961273 149.784515 10.890084 0.446078
386.388824 148.186508 8.820114 0.534436
386.326965 148.158829 7.733413 0.638235
386.324829 148.157883 6.673700 0.696936
386.325470 148.158173 5.624731 0.658456
386.327209 148.158951 4.583684 0.666176
386.325806 148.158310 3.547918 0.665319
386.325378 148.158142 2.515596 0.659069
386.326752 148.158737 1.484379 0.600123
386.326324 148.158539 0.452055 0.683333
379.828064 145.251816 0.000099 0.534926
373.432861 142.391174 0.000064 0.545221
369.870636 140.797760 0.000101 0.524142
367.596558 139.780533 0.000122 0.522672
366.016235 139.073624 0.000089 0.539216
364.851685 138.552719 0.000106 0.530760
392.048615 150.430145 11.433621 0.576838
386.369812 147.937408 8.794565 0.632721
386.329010 147.919495 7.716108 0.638726
386.327362 147.918777 6.659675 0.658456
386.328217 147.919144 5.613878 0.651226
386.325928 147.918137 4.575586 0.635662
386.325226 147.917831 3.543105 0.671078
386.325256 147.917847 2.514001 0.665441
386.326843 147.918549 1.485970 0.653064
386.326385 147.918350 0.456832 0.667525
379.896820 145.096039 0.000118 0.532108
373.481689 142.280060 0.000109 0.538725
369.908630 140.711639 0.000130 0.517034
367.627747 139.710434 0.000097 0.538603
366.042297 139.014481 0.000111 0.535784
364.874176 138.501740 0.000128 0.557721
392.182251 150.201431 11.441475 0.504657
386.350983 147.690170 8.769543 0.572672
386.323944 147.678513 7.697780 0.653922
386.323883 147.678497 6.644989 0.649142
386.326019 147.679413 5.602647 0.670711
386.324646 147.678818 4.567667 0.646936
386.327698 147.680145 3.538561 0.649632
386.327271 147.679962 2.512480 0.640686
386.325653 147.679260 1.487550 0.678799
386.326080 147.679443 0.461527 0.664828
379.965302 144.940125 0.000068 0.544118
373.530487 142.168930 0.000059 0.544240
369.946472 140.625458 0.000079 0.538358
367.658630 139.640182 0.000045 0.520343
366.068176 138.955246 0.000086 0.535539
364.896576 138.450699 0.000083 0.541667
nan nan nan 0.000000
386.332275 147.444733 8.745026 0.559436
386.326202 147.442154 7.681286 0.593382
386.326569 147.442322 6.631608 0.532966
386.323822 147.441162 5.591663 0.673284
386.327423 147.442688 4.560279 0.643137
386.327148 147.442566 3.533956 0.691544
386.327148 147.442566 2.510954 0.668382
386.325714 147.441956 1.489072 0.674265
386.326141 147.442139 0.466097 0.671569
380.031372 144.783188 0.000135 0.537623
373.577942 142.057236 0.000078 0.541912
369.983276 140.538834 0.000096 0.528064
367.688629 139.569565 0.000065 0.546078
366.093475 138.895752 0.000104 0.544976
364.918488 138.399429 0.000073 0.526348
nan nan nan 0.000000
386.143127 147.130386 8.681140 0.647059
386.511230 147.282852 7.701158 0.643382
386.511200 147.282852 6.647748 0.648652
386.511230 147.282852 5.604524 0.677206
386.511200 147.282852 4.569125 0.672304
386.511200 147.282852 3.539271 0.667770
386.511230 147.282852 2.512723 0.634436
386.511230 147.282852 1.487276 0.626593
386.511200 147.282852 0.460729 0.725858
380.097046 144.626083 0.000137 0.525123
373.624786 141.945267 0.000079 0.531495
370.019592 140.451981 0.000098 0.553309
367.718109 139.498718 0.000093 0.548284
366.118408 138.836105 0.000105 0.546691
364.940002 138.348022 0.000073 0.564951
nan nan nan 0.000000
386.557953 147.065750 8.758733 0.637990
387.092651 147.282852 7.799039 0.712255
387.092651 147.282852 6.727547 0.666054
387.092651 147.282852 5.666409 0.635784
387.092651 147.282852 4.613234 0.672181
387.092651 147.282852 3.565697 0.655025
387.092651 147.282852 2.521526 0.663480
387.092651 147.282852 1.478474 0.629534
387.092651 147.282852 0.434302 0.651226
380.161438 144.468460 0.000157 0.539951
373.670685 141.832916 0.000098 0.531863
370.055450 140.364975 0.000073 0.540809
367.747131 139.427689 0.000111 0.528922
366.143066 138.776352 0.000080 0.539461
364.961060 138.296402 0.000094 0.563113
nan nan nan 0.000000
387.183990 147.079742 8.885319 0.591912
387.465637 147.191833 7.855835 0.630024
388.180176 147.476166 6.887919 0.709069
387.694397 147.282852 5.730641 0.676961
388.054504 147.426163 4.690795 0.921936
387.694397 147.282852 3.593128 0.657966
388.152069 147.464966 2.538723 0.663480
388.180176 147.476151 1.460782 0.851838
387.565216 147.231445 0.413703 0.619976
380.225311 144.310623 0.000124 0.539338
373.715546 141.720154 0.000146 0.525000
370.090759 140.277710 0.000041 0.515809
367.775940 139.356552 0.000077 0.514461
366.167297 138.716415 0.000047 0.519485
364.981934 138.244720 0.000070 0.536274
nan nan nan 0.000000
387.760773 147.065735 9.000116 0.643015
387.760773 147.065735 7.897388 0.629289
388.641968 147.409302 6.948021 0.905882
388.317688 147.282867 5.797354 0.635539
388.618042 147.399963 4.733001 0.918260
388.317688 147.282852 3.621616 0.664093
388.627045 147.403473 2.545587 0.934559
388.627045 147.403473 1.454413 0.922794
388.317688 147.282852 0.378383 0.667034
380.287689 144.152191 0.000126 0.536274
373.760010 141.607224 0.000147 0.547549
370.125244 140.190125 0.000043 0.545343
367.804260 139.285248 0.000037 0.549020
366.190948 138.656265 0.000056 0.495221
365.002380 138.192871 0.000071 0.509314
nan nan nan 0.000000
388.395081 147.065750 9.127932 0.595956
388.395050 147.065735 8.005063 0.617525
388.963654 147.282867 6.985790 0.653186
388.963654 147.282867 5.866687 0.677206
388.963654 147.282867 4.755983 0.642524
388.963654 147.282867 3.651224 0.649142
388.963654 147.282867 2.550014 0.690564
388.963654 147.282867 1.449985 0.649020
388.963654 147.282867 0.348774 0.660662
380.348785 143.993256 0.000145 0.534804
373.803589 141.493942 0.000166 0.531250
370.158875 140.102219 0.000087 0.518995
367.831757 139.213608 0.000055 0.535662
366.214172 138.595917 0.000074 0.535662
365.022278 138.140793 0.000114 0.533456
nan nan nan 0.000000
nan nan nan 0.000000
389.052979 147.065735 8.117049 0.625245
390.150757 147.476151 7.160644 0.744240
389.633728 147.282867 5.938794 0.668627
390.284485 147.526169 4.864346 0.681740
389.633698 147.282867 3.682017 0.675858
390.284485 147.526169 2.571642 0.672794
390.016998 147.426147 1.433032 0.914216
389.633728 147.282867 0.317982 0.659681
380.408722 143.833893 0.000165 0.534559
373.846313 141.380356 0.000185 0.544240
370.191986 140.014114 0.000107 0.527451
367.858795 139.141800 0.000075 0.540441
366.236908 138.535416 0.000092 0.579534
365.041901 138.088623 0.000135 0.558578
nan nan nan 0.000000
nan nan nan 0.000000
389.735931 147.065735 8.233602 0.636887
390.544403 147.361588 7.209518 0.915441
390.329285 147.282867 6.013843 0.652328
390.801147 147.455536 4.902067 0.798407
390.329285 147.282867 3.714066 0.674877
390.810120 147.458832 2.579326 0.937132
390.720856 147.426147 1.422229 0.839216
390.329254 147.282867 0.285935 0.642770
380.468079 143.674286 0.000139 0.537623
373.888702 141.266647 0.000152 0.532475
370.224884 139.925919 0.000074 0.525123
367.885620 139.069885 0.000041 0.540564
366.259369 138.474792 0.000090 0.506250
365.061523 138.036453 0.000058 0.535049
nan nan nan 0.000000
nan nan nan 0.000000
390.445435 147.065735 8.354996 0.634314
391.051880 147.282867 7.276326 0.656863
391.051880 147.282867 6.092009 0.684436
391.051880 147.282852 4.916582 0.662868
391.051880 147.282867 3.747446 0.689093
391.051880 147.282852 2.582067 0.658211
391.051880 147.282852 1.417934 0.687868
391.051849 147.282852 0.252555 0.613235
380.526062 143.514191 0.000139 0.543627
373.930176 141.152588 0.000129 0.532353
370.256897 139.837418 0.000074 0.557353
367.911560 138.997681 0.000069 0.538358
366.281342 138.414017 0.000089 0.549877
365.080475 137.984055 0.000058 0.546446
nan nan nan 0.000000
nan nan nan 0.000000
391.183197 147.065735 8.481533 0.609314
391.803284 147.282883 7.381391 0.608456
391.803253 147.282867 6.173491 0.679902
392.497986 147.526154 5.035014 0.678431
391.658783 147.232269 3.774722 0.635172
392.355255 147.476166 2.603227 0.678431
392.412354 147.496170 1.395783 0.678431
392.355255 147.476166 0.189025 0.002206
380.582642 143.353592 0.000159 0.541544
373.970520 141.038132 0.000149 0.528431
370.288177 139.748642 0.000093 0.543995
367.937103 138.925308 0.000087 0.539583
366.302856 138.353043 0.000107 0.546691
365.099030 137.931473 0.000077 0.569485
nan nan nan 0.000000
nan nan nan 0.000000
391.950958 147.065735 8.613541 0.627206
392.585175 147.282867 7.490990 0.655270
392.585175 147.282867 6.258490 0.645833
393.004089 147.426285 5.071548 0.936765
392.437408 147.232285 3.810867 0.637990
392.997223 147.423950 2.612875 0.818750
392.997223 147.423950 1.387126 0.937132
392.997223 147.423950 0.160061 0.919608
380.638153 143.192627 0.000180 0.546936
374.010071 140.923401 0.000168 0.548162
370.318359 139.659485 0.000191 0.546569
367.962067 138.852783 0.000108 0.546936
366.324097 138.291992 0.000086 0.520098
365.117188 137.878784 0.000101 0.541789
nan nan nan 0.000000
nan nan nan 0.000000
392.307617 146.917511 8.666372 0.406863
393.399628 147.282867 7.605427 0.685172
393.399597 147.282867 6.347242 0.643382
393.399597 147.282867 5.098497 0.656740
393.399597 147.282867 3.856439 0.671814
393.399597 147.282852 2.618372 0.667770
393.399597 147.282852 1.381629 0.663113
393.399567 147.282852 0.143561 0.593750
380.693115 143.031479 0.000146 0.541544
374.049255 140.808533 0.000135 0.547672
370.348785 139.570404 0.000156 0.509436
367.986816 138.780136 0.000083 0.554289
366.345001 138.230804 0.000051 0.531495
365.135132 137.826019 0.000075 0.555882
nan nan nan 0.000000
nan nan nan 0.000000
393.584473 147.065735 8.895418 0.634191
394.248810 147.282867 7.725024 0.634191
394.248810 147.282867 6.439995 0.636887
394.248810 147.282867 5.164607 0.644118
394.248810 147.282867 3.896049 0.652328
394.248810 147.282867 2.631566 0.669608
394.248810 147.282867 1.368435 0.640931
394.248810 147.282867 0.103950 0.665809
380.746582 142.869812 0.000146 0.544485
374.087372 140.693298 0.000135 0.535539
370.378296 139.481033 0.000159 0.554902
368.010895 138.707291 0.000083 0.525980
366.365295 138.169418 0.000049 0.553186
365.152649 137.773102 0.000073 0.576838
nan nan nan 0.000000
nan nan nan 0.000000
394.454712 147.065750 9.046104 0.646936
nan nan nan 0.000000
nan nan nan 0.000000
398.156494 148.247116 5.493812 0.510907
397.978699 148.190369 4.084122 0.515686
397.368530 147.995651 2.683730 0.518015
nan nan nan 0.000000
396.347839 147.669907 -0.000023 0.536765
380.798676 142.707703 0.000165 0.527696
374.124481 140.577759 0.000155 0.526593
370.407104 139.391434 0.000178 0.553064
368.034393 138.634232 0.000101 0.526103
366.384949 138.107849 0.000097 0.541667
365.169617 137.720001 0.000118 0.535049
nan nan nan 0.000000
nan nan nan 0.000000
nan nan nan 0.000000
nan nan nan 0.000000
nan nan nan 0.000000
nan nan nan 0.000000
399.521301 148.360626 4.158913 0.515074
