# This PCD file was generated using the MATLABÂ® pcwrite function
# from Computer Vision ToolboxÂ®.
# .PCD v.7 - Point Cloud Data file format
VERSION .7
FIELDS x y z intensity
SIZE 4 4 4 4
TYPE F F F F
COUNT 1 1 1 1
WIDTH 1208
HEIGHT 1
VIEWPOINT 0 0 0 1 0 0 0
POINTS 1208
DATA ascii
350.878448 86.342049 -0.000022 0.532230
350.114502 87.363762 -0.000013 0.553799
377.970856 49.467815 15.781046 0.485539
377.944000 49.504238 13.872767 0.402941
377.944000 49.504246 12.002453 0.402451
377.944031 49.504230 10.154294 0.432966
377.970856 49.467819 8.329199 0.458946
377.944031 49.504230 6.507430 0.405637
377.944000 49.504234 4.700591 0.395711
377.944000 49.504234 2.899554 0.403186
377.944000 49.504234 1.100447 0.432108
369.483978 60.984791 0.000006 0.536765
359.803040 74.122116 -0.000014 0.546446
355.646606 79.762520 -0.000026 0.538235
353.331696 82.903938 -0.000037 0.539706
351.853699 84.909584 -0.000020 0.556250
350.826569 86.303474 -0.000031 0.554167
350.069763 87.330505 -0.000023 0.540564
377.530151 49.421032 15.725327 0.675000
377.469727 49.504234 13.812288 0.408211
377.469727 49.504238 11.951503 0.418015
377.469727 49.504234 10.112757 0.392402
377.530151 49.421036 8.303610 0.678431
377.530151 49.421040 6.492898 0.510172
377.469727 49.504242 4.686833 0.429657
377.469727 49.504242 2.894970 0.417525
377.469727 49.504242 1.105029 0.407230
369.254517 60.817066 0.000011 0.537255
359.665558 74.021629 -0.000009 0.540196
355.548615 79.690903 -0.000021 0.534191
353.255676 82.848389 -0.000031 0.540809
351.791748 84.864304 -0.000014 0.567034
350.774384 86.265327 -0.000026 0.487010
350.024719 87.297630 -0.000009 0.550980
377.026276 49.467834 15.642011 0.470221
377.026276 49.467827 13.762659 0.473284
377.000214 49.504234 11.901546 0.392892
377.000214 49.504234 10.072029 0.392647
377.026276 49.467834 8.265345 0.444240
377.026276 49.467842 6.465625 0.452696
377.000214 49.504238 4.673345 0.404902
377.000214 49.504250 2.890478 0.407843
377.000214 49.504242 1.109522 0.399632
369.023743 60.651134 0.000027 0.538725
359.527313 73.922211 0.000007 0.536642
355.450104 79.620033 -0.000005 0.531985
353.179291 82.793434 -0.000016 0.535172
351.729462 84.819496 0.000000 0.559804
350.721893 86.227570 -0.000013 0.523897
349.979462 87.265083 0.000005 0.537377
376.598877 49.414223 15.590959 0.678431
376.598877 49.414234 13.718637 0.678431
376.535400 49.504230 11.852568 0.417402
376.535400 49.504238 10.032101 0.386029
376.598877 49.414230 8.241898 0.678431
376.598877 49.414227 6.448913 0.676838
376.535400 49.504242 4.660121 0.397917
376.535400 49.504238 2.886073 0.406740
376.535400 49.504238 1.113926 0.445833
368.792236 60.486305 0.000013 0.535539
359.388580 73.823448 -0.000008 0.531740
355.351196 79.549652 -0.000019 0.541054
353.102570 82.738846 -0.000030 0.546569
351.666962 84.774994 -0.000014 0.545956
350.669220 86.190086 -0.000027 0.532843
349.934052 87.232765 -0.000008 0.595711
376.139984 49.410835 15.525751 0.678064
376.139984 49.410831 13.662415 0.678431
376.075104 49.504238 11.804544 0.389706
376.075104 49.504238 9.992950 0.414951
376.139984 49.410835 8.211949 0.672549
376.139984 49.410835 6.427569 0.678431
376.075104 49.504242 4.647155 0.410662
376.075104 49.504238 2.881755 0.399510
376.075104 49.504234 1.118245 0.414461
368.559204 60.323589 0.000028 0.534436
359.248993 73.725960 0.000007 0.542279
355.251678 79.480186 -0.000001 0.523897
353.025421 82.684952 -0.000015 0.547059
351.604065 84.731064 0.000001 0.549387
350.616180 86.153107 -0.000003 0.535049
349.888367 87.200844 0.000005 0.525980
375.619263 49.504230 15.432448 0.410907
375.685455 49.407509 13.607280 0.678431
375.619263 49.504234 11.757462 0.409681
375.619263 49.504238 9.954566 0.399265
375.619263 49.504234 8.169098 0.429657
375.685455 49.407513 6.406636 0.678431
375.619263 49.504227 4.634443 0.404412
375.619263 49.504227 2.877520 0.400735
375.619263 49.504227 1.122479 0.384436
368.325317 60.162117 0.000019 0.537010
359.108826 73.629204 -0.000002 0.534559
355.151794 79.411217 -0.000011 0.540686
352.947968 82.631477 -0.000025 0.520098
351.540894 84.687477 -0.000005 0.524142
350.562988 86.116371 -0.000012 0.554412
349.842499 87.169182 -0.000001 0.551103
375.167755 49.504230 15.368903 0.416789
375.235168 49.404232 13.553218 0.678431
375.167755 49.504234 11.711301 0.400980
375.167755 49.504230 9.916937 0.426225
375.167755 49.504234 8.139915 0.387010
375.235168 49.404236 6.386113 0.678431
375.167755 49.504234 4.621981 0.441544
375.167755 49.504234 2.873370 0.406495
375.167755 49.504234 1.126630 0.400245
368.090332 60.002266 0.000010 0.537623
358.968018 73.533432 -0.000011 0.537132
355.051453 79.342957 -0.000020 0.525123
352.870117 82.578537 -0.000033 0.545588
351.477448 84.644325 -0.000013 0.545711
350.509521 86.080017 -0.000019 0.556740
349.796387 87.137833 -0.000010 0.567402
374.720520 49.504227 15.306601 0.397426
374.789063 49.400993 13.500217 0.678431
374.720520 49.504234 11.666042 0.439338
374.720520 49.504230 9.880041 0.412868
374.720520 49.504230 8.111300 0.400613
374.789063 49.400993 6.365992 0.678431
374.720490 49.504238 4.609761 0.447549
374.720490 49.504238 2.869298 0.427206
374.720520 49.504230 1.130701 0.374142
367.853943 59.844482 0.000025 0.535539
358.826385 73.438904 0.000005 0.532108
354.950500 79.275581 -0.000004 0.533088
352.791840 82.526268 -0.000018 0.524755
351.413605 84.601707 0.000001 0.560049
350.455750 86.044121 -0.000005 0.516176
349.750031 87.106880 0.000005 0.505270
374.277374 49.504234 15.245512 0.396691
374.347015 49.397686 13.448279 0.678431
374.277374 49.504238 11.621672 0.412745
374.277374 49.504230 9.843867 0.388971
374.277344 49.504242 8.083244 0.382966
374.347015 49.397690 6.346274 0.678431
374.277344 49.504242 4.597780 0.398162
374.277374 49.504234 2.865308 0.417770
374.277374 49.504238 1.134692 0.363480
367.616577 59.688152 0.000030 0.536029
358.684204 73.345238 0.000009 0.528064
354.849121 79.208824 0.000001 0.541544
352.713226 82.474495 -0.000014 0.534926
351.349548 84.559502 0.000006 0.549877
350.401764 86.008568 -0.000000 0.528676
349.703461 87.076225 0.000010 0.549510
373.838226 49.504238 15.185627 0.397304
373.891724 49.421219 13.390474 0.316789
373.838257 49.504230 11.578170 0.398162
373.838226 49.504234 9.808403 0.390196
373.838226 49.504238 8.055742 0.402819
373.891724 49.421223 6.324329 0.320343
373.838257 49.504234 4.586036 0.415441
373.838257 49.504234 2.861397 0.410662
373.838257 49.504234 1.138603 0.408456
367.378265 59.533264 0.000021 0.536029
358.541443 73.252441 0.000000 0.541667
354.747375 79.142693 -0.000007 0.522917
352.634277 82.423256 -0.000013 0.527451
351.285187 84.517685 -0.000003 0.527574
350.347565 85.973343 -0.000009 0.567770
349.656738 87.045853 0.000002 0.560662
373.403076 49.504230 15.126920 0.403799
373.474670 49.391331 13.347404 0.678554
373.403076 49.504230 11.535524 0.388235
373.403076 49.504223 9.773638 0.388235
373.403076 49.504230 8.028779 0.407598
373.474670 49.391338 6.307974 0.678431
373.403076 49.504230 4.574520 0.404044
373.403046 49.504242 2.857560 0.421201
373.403046 49.504242 1.142440 0.401348
367.138977 59.379940 0.000006 0.538603
358.398041 73.160568 -0.000015 0.541176
354.645172 79.077202 -0.000023 0.560784
352.554993 82.372467 -0.000028 0.525858
351.220581 84.476295 -0.000017 0.523162
350.293152 85.938469 -0.000023 0.515441
349.609802 87.015778 -0.000012 0.532230
372.971710 49.504234 15.069366 0.392647
372.994446 49.467815 13.278174 0.457966
372.971710 49.504230 11.493714 0.362377
372.971710 49.504234 9.739553 0.374755
372.971710 49.504238 8.002344 0.394485
372.994446 49.467819 6.281693 0.436274
372.971710 49.504230 4.563233 0.385417
372.971680 49.504246 2.853800 0.378922
372.971680 49.504246 1.146199 0.422672
366.898254 59.228806 0.000021 0.535662
358.253845 73.070015 0.000000 0.536520
354.542389 79.012665 -0.000008 0.540196
352.475281 82.322418 -0.000013 0.529779
351.155609 84.435478 -0.000004 0.565441
350.238373 85.904083 -0.000008 0.524265
349.562653 86.986069 -0.000019 0.537255
372.544098 49.504223 15.012948 0.404534
372.617340 49.385101 13.250458 0.678431
372.544098 49.504230 11.452729 0.409436
372.544098 49.504230 9.706142 0.396446
372.544098 49.504234 7.976434 0.416912
372.617340 49.385109 6.271172 0.678431
372.544098 49.504230 4.552169 0.412745
372.544098 49.504234 2.850115 0.404779
372.544098 49.504238 1.149885 0.394853
366.656769 59.078945 0.000013 0.541544
358.109161 72.980240 -0.000008 0.543995
354.439270 78.948677 -0.000016 0.527574
352.395294 82.272797 -0.000020 0.546078
351.090393 84.395020 -0.000012 0.529412
350.183441 85.870010 -0.000015 0.565319
349.515289 86.956673 -0.000026 0.538358
372.120148 49.504234 14.957637 0.399632
372.194214 49.381882 13.203453 0.678431
372.120148 49.504234 11.412553 0.379289
372.120148 49.504234 9.673389 0.429167
372.120148 49.504234 7.951034 0.431250
372.194214 49.381882 6.253327 0.678431
372.120148 49.504242 4.541320 0.383333
372.120148 49.504234 2.846503 0.368750
372.120148 49.504234 1.153498 0.385539
366.414001 58.931190 0.000028 0.536274
357.963654 72.891708 0.000007 0.544608
354.335571 78.885567 -0.000001 0.538603
352.314880 82.223854 -0.000006 0.521324
351.024902 84.355034 -0.000017 0.535049
350.128235 85.836395 -0.000000 0.538848
349.467651 86.927696 -0.000013 0.536887
371.699799 49.504230 14.903426 0.428431
371.774506 49.378822 13.157351 0.678431
371.691315 49.518394 11.370173 0.428799
371.699799 49.504223 9.641285 0.397304
371.699799 49.504238 7.926134 0.445711
371.774475 49.378826 6.235823 0.678431
371.699799 49.504234 4.530689 0.402819
371.699799 49.504234 2.842960 0.400858
371.699799 49.504234 1.157039 0.406740
366.170441 58.784725 0.000020 0.535049
357.817749 72.803947 -0.000001 0.547304
354.231567 78.823021 -0.000009 0.533333
352.234222 82.175346 -0.000015 0.522672
350.959137 84.315491 -0.000025 0.524265
350.072845 85.803085 -0.000007 0.544853
349.419891 86.898972 -0.000020 0.530760
371.282867 49.504234 14.850289 0.402328
371.358185 49.375797 13.112161 0.678431
371.358185 49.375797 11.361668 0.634559
371.282867 49.504238 9.609818 0.405637
371.282867 49.504230 7.901732 0.435049
371.358185 49.375793 6.218669 0.678431
371.282867 49.504227 4.520267 0.400000
371.282867 49.504230 2.839488 0.400858
371.282867 49.504230 1.160511 0.403676
365.925690 58.640236 0.000027 0.539216
357.671112 72.717377 0.000005 0.545833
354.127045 78.761322 -0.000003 0.544363
352.153198 82.127487 -0.000008 0.549142
350.893066 84.276466 -0.000019 0.524020
350.017151 85.770210 -0.000001 0.560294
349.371887 86.870628 -0.000014 0.559314
370.869385 49.504230 14.798209 0.431127
370.869385 49.504234 13.035097 0.441912
370.890381 49.467827 11.304391 0.464706
370.869385 49.504227 9.578977 0.424877
370.869385 49.504234 7.877811 0.429167
370.890381 49.467827 6.192859 0.429657
370.869385 49.504230 4.510053 0.441176
370.869385 49.504234 2.836087 0.430025
370.869385 49.504234 1.163913 0.408211
365.680084 58.497189 0.000019 0.536765
357.523956 72.631660 -0.000003 0.537132
354.022156 78.700233 -0.000010 0.532721
352.071838 82.080116 -0.000015 0.519240
350.826752 84.237854 -0.000026 0.552451
349.961273 85.737671 -0.000009 0.534314
349.323730 86.842575 -0.000022 0.560049
370.459198 49.504238 14.747167 0.424265
370.459198 49.504230 12.991088 0.439338
370.535522 49.369808 11.287793 0.678431
370.459198 49.504230 9.548754 0.415441
370.459198 49.504238 7.854370 0.429534
370.535522 49.369808 6.185379 0.678431
370.459198 49.504238 4.500041 0.396936
370.459198 49.504234 2.832751 0.402574
370.459198 49.504234 1.167248 0.429534
365.433502 58.355865 0.000011 0.537990
357.376221 72.546989 -0.000010 0.535539
353.916870 78.639885 -0.000017 0.538480
351.990173 82.033318 -0.000021 0.539216
350.760162 84.199699 -0.000032 0.519485
349.905182 85.705536 -0.000015 0.549387
349.275360 86.814865 -0.000027 0.555760
370.052246 49.504227 14.697151 0.403922
370.052246 49.504227 12.947962 0.396078
370.129028 49.366848 11.251967 0.678431
370.052246 49.504230 9.519132 0.404412
370.052246 49.504234 7.831399 0.438603
370.129028 49.366844 6.169234 0.678431
370.052246 49.504230 4.490232 0.396446
370.052246 49.504230 2.829484 0.401961
370.052246 49.504230 1.170515 0.426716
365.185730 58.216656 0.000026 0.530392
357.227692 72.463692 0.000014 0.528186
353.811035 78.580429 -0.000003 0.543873
351.908112 81.987213 -0.000007 0.551716
350.693268 84.162109 -0.000019 0.548652
349.848816 85.673866 -0.000001 0.517770
349.226746 86.787560 -0.000014 0.531740
369.648499 49.504230 14.648134 0.405147
369.648499 49.504227 12.905701 0.417647
369.725586 49.363899 11.216864 0.678431
369.648499 49.504234 9.490105 0.403309
369.648499 49.504227 7.808889 0.423652
369.725586 49.363907 6.153415 0.678431
369.648499 49.504234 4.480618 0.394730
369.648499 49.504230 2.826282 0.397304
369.648499 49.504234 1.173718 0.406618
364.937164 58.078808 0.000019 0.533824
357.078766 72.381104 0.000008 0.526226
353.704895 78.521576 -0.000008 0.570711
351.825775 81.941551 -0.000014 0.514216
350.626160 84.124893 -0.000026 0.528186
349.792297 85.642509 -0.000009 0.523652
349.178009 86.760521 -0.000020 0.545466
369.247803 49.504227 14.600109 0.393260
369.247803 49.504223 12.864293 0.427696
369.325195 49.360977 11.182470 0.678431
369.247803 49.504227 9.461666 0.432721
369.247772 49.504230 7.786834 0.420221
369.325195 49.360985 6.137917 0.678431
369.247803 49.504223 4.471202 0.402819
369.247772 49.504234 2.823145 0.426961
369.247772 49.504238 1.176855 0.384804
364.687561 57.942909 0.000024 0.534559
356.929230 72.299683 0.000013 0.533946
353.598297 78.463539 -0.000003 0.527696
351.743103 81.896538 -0.000009 0.543382
350.558746 84.088203 -0.000020 0.534436
349.735535 85.611595 -0.000004 0.530760
349.129059 86.733871 -0.000014 0.550735
368.850098 49.504227 14.553059 0.407230
368.850098 49.504234 12.823721 0.398652
368.869446 49.467834 11.126163 0.477696
368.850098 49.504227 9.433802 0.409681
368.850098 49.504234 7.765221 0.399510
368.869446 49.467834 6.112543 0.460784
368.850098 49.504230 4.461973 0.427819
368.850098 49.504230 2.820072 0.417647
368.850098 49.504230 1.179928 0.384191
364.437439 57.807961 -0.000015 0.536397
356.779175 72.219170 0.000006 0.536397
353.491364 78.406158 -0.000010 0.541054
351.660187 81.852051 -0.000015 0.535172
350.491150 84.051918 -0.000027 0.535172
349.678558 85.581039 -0.000009 0.560049
349.079956 86.707520 -0.000021 0.548039
368.455353 49.504227 14.506966 0.377083
368.455383 49.504223 12.783978 0.448284
368.533234 49.355202 11.115774 0.678431
368.455353 49.504227 9.406504 0.387623
368.455353 49.504227 7.744052 0.400000
368.533234 49.355206 6.107862 0.678431
368.455383 49.504227 4.452933 0.405760
368.455383 49.504227 2.817061 0.408456
368.455383 49.504227 1.182940 0.400368
364.186005 57.675468 -0.000015 0.538848
356.628571 72.139709 -0.000001 0.527451
353.384003 78.349525 -0.000016 0.538480
351.576935 81.808121 -0.000022 0.541422
350.423279 84.016113 -0.000033 0.535049
349.621368 85.550873 -0.000015 0.501225
349.030609 86.681503 -0.000028 0.557230
368.063477 49.504234 14.461809 0.410907
368.063477 49.504230 12.745043 0.400123
368.141510 49.352345 11.083449 0.678431
368.063507 49.504230 9.379766 0.393750
368.063507 49.504227 7.723317 0.402083
368.141510 49.352345 6.093294 0.678431
368.063507 49.504227 4.444077 0.375613
368.063507 49.504230 2.814110 0.390686
368.063477 49.504234 1.185889 0.402941
363.933624 57.544716 -0.000015 0.533211
356.477264 72.061531 0.000013 0.535907
353.276184 78.293800 -0.000003 0.543382
351.493286 81.764915 -0.000007 0.523284
350.355072 83.980881 -0.000019 0.559069
349.563934 85.521194 -0.000002 0.548897
348.981110 86.655914 -0.000015 0.551471
367.674438 49.504227 14.417587 0.389583
367.674438 49.504227 12.706915 0.416054
367.752533 49.349506 11.051792 0.678431
367.674438 49.504227 9.353578 0.401961
367.674438 49.504227 7.703007 0.407108
367.752533 49.349510 6.079029 0.678431
367.674438 49.504227 4.435402 0.407108
367.674438 49.504234 2.811222 0.398407
367.674438 49.504234 1.188778 0.428799
363.680359 57.415760 -0.000015 0.538725
356.325592 71.984200 0.000007 0.529412
353.168060 78.238678 -0.000009 0.527206
351.409424 81.722160 -0.000013 0.519485
350.286713 83.946037 -0.000026 0.527328
349.506348 85.491821 -0.000009 0.524755
348.931458 86.630600 -0.000021 0.535784
367.288086 49.504223 14.374280 0.435539
367.288086 49.504230 12.669570 0.408946
367.366241 49.346684 11.020794 0.678431
367.288086 49.504234 9.327929 0.383701
367.288086 49.504230 7.683113 0.430515
367.366241 49.346699 6.065059 0.678431
367.288086 49.504234 4.426909 0.403554
367.288086 49.504238 2.808392 0.440196
367.288086 49.504238 1.191608 0.370221
363.426208 57.288563 -0.000015 0.535539
356.173279 71.908028 0.000010 0.542034
353.059509 78.184387 -0.000005 0.536887
351.325226 81.680061 -0.000009 0.542647
350.218109 83.911713 -0.000022 0.519118
349.448517 85.462914 -0.000005 0.506863
348.881592 86.605659 -0.000017 0.575980
366.904419 49.504230 14.331864 0.437377
366.904419 49.504230 12.632999 0.388603
366.922180 49.467819 10.965357 0.493627
366.904419 49.504227 9.302812 0.388725
366.904419 49.504230 7.663635 0.407476
366.922180 49.467831 6.040078 0.474510
366.904419 49.504230 4.418591 0.396078
366.904419 49.504234 2.805621 0.414093
366.904419 49.504234 1.194379 0.377941
363.171143 57.163116 -0.000015 0.538235
356.020477 71.832817 0.000005 0.543505
352.950623 78.130775 -0.000012 0.554534
351.240784 81.638489 -0.000015 0.535539
350.149261 83.877815 -0.000028 0.548407
349.390533 85.434357 -0.000010 0.534559
348.831573 86.581047 -0.000022 0.522917
366.523346 49.504227 14.290341 0.427328
366.523346 49.504223 12.597197 0.412255
366.599213 49.345783 10.959787 0.678431
366.523346 49.504230 9.278221 0.415564
366.523346 49.504223 7.644566 0.407843
366.599213 49.345787 6.037569 0.678431
366.523346 49.504230 4.410447 0.427206
366.523346 49.504227 2.802909 0.418015
366.523346 49.504227 1.197091 0.409681
362.915222 57.039474 -0.000015 0.530760
355.867096 71.758888 0.000018 0.536887
352.841248 78.078079 0.000001 0.538603
351.156006 81.597618 -0.000002 0.545221
350.080139 83.844505 -0.000014 0.551961
349.332275 85.406281 0.000002 0.560662
348.781372 86.556839 -0.000009 0.515564
366.144806 49.504230 14.249690 0.414093
366.144806 49.504227 12.562147 0.438480
366.218658 49.347218 10.929866 0.678431
366.144806 49.504227 9.254148 0.404902
366.144806 49.504227 7.625896 0.385662
366.218658 49.347221 6.024085 0.678431
366.144806 49.504227 4.402474 0.448652
366.144806 49.504223 2.800252 0.409804
366.144806 49.504227 1.199747 0.401103
362.658447 56.917622 -0.000015 0.536765
355.713287 71.685814 0.000012 0.529167
352.731628 78.026009 -0.000004 0.539706
351.070953 81.557228 -0.000007 0.533701
350.010834 83.811569 -0.000021 0.544976
349.273895 85.378540 -0.000004 0.538480
348.731018 86.532921 -0.000015 0.527696
365.768768 49.504227 14.209901 0.419730
365.768768 49.504223 12.527841 0.448775
365.839966 49.350056 10.900290 0.337990
365.768768 49.504234 9.230587 0.389461
365.768768 49.504230 7.607621 0.406250
365.839966 49.350056 6.010758 0.339461
365.768768 49.504230 4.394671 0.436887
365.768768 49.504230 2.797654 0.403554
365.768768 49.504230 1.202347 0.436642
362.400848 56.797577 -0.000015 0.534681
355.558960 71.613823 0.000007 0.524265
352.621674 77.974686 -0.000010 0.546569
350.985687 81.517441 -0.000012 0.546569
349.941284 83.779129 -0.000026 0.529779
349.215302 85.351219 -0.000009 0.545343
348.680511 86.509361 -0.000020 0.549877
365.395142 49.504227 14.170962 0.406373
365.395142 49.504227 12.494263 0.434804
365.465027 49.350056 10.871904 0.678431
365.395142 49.504230 9.207527 0.373284
365.395142 49.504230 7.589738 0.408824
365.465027 49.350056 5.997967 0.678431
365.395142 49.504230 4.387033 0.422304
365.395142 49.504230 2.795109 0.384069
365.395142 49.504230 1.204890 0.375245
362.142395 56.679325 -0.000015 0.537990
355.404053 71.543121 0.000020 0.542034
352.511230 77.924294 0.000003 0.535662
350.900024 81.478355 0.000000 0.524877
349.871460 83.747269 -0.000013 0.535539
349.156494 85.324371 0.000003 0.538358
348.629791 86.486214 -0.000007 0.542892
365.023865 49.504230 14.132857 0.411765
365.023865 49.504215 12.461411 0.430882
365.091827 49.351467 10.843849 0.674387
365.023865 49.504215 9.184965 0.411152
365.023865 49.504223 7.572237 0.410294
365.091827 49.351467 5.985324 0.674387
365.023865 49.504223 4.379560 0.449387
365.023865 49.504227 2.792621 0.420833
365.023865 49.504230 1.207380 0.407230
361.883118 56.562885 -0.000015 0.535907
355.248810 71.473175 0.000004 0.528799
352.400574 77.874428 -0.000013 0.532353
350.814240 81.439690 -0.000016 0.546569
349.801483 83.715752 -0.000029 0.530147
349.097534 85.297829 -0.000011 0.574142
348.578979 86.463310 -0.000024 0.498039
364.654877 49.504223 14.095581 0.401838
364.654877 49.504230 12.429264 0.405760
364.720886 49.353085 10.816357 0.677328
364.654877 49.504230 9.162888 0.384681
364.654877 49.504234 7.555116 0.404044
364.720886 49.353088 5.972935 0.674387
364.654877 49.504227 4.372250 0.406127
364.654877 49.504230 2.790185 0.404779
364.654877 49.504230 1.209815 0.384926
361.623047 56.448254 -0.000015 0.534559
355.092926 71.404640 0.000017 0.530882
352.289459 77.825592 0.000000 0.536765
350.728058 81.401802 -0.000003 0.529902
349.731262 83.684860 -0.000015 0.527574
349.038361 85.271797 0.000001 0.525000
348.527954 86.440880 -0.000011 0.486520
364.288147 49.504230 14.059117 0.398407
364.288147 49.504227 12.397826 0.383088
364.352295 49.354477 10.789502 0.678431
364.288147 49.504223 9.141295 0.412132
364.288147 49.504230 7.538370 0.410907
364.352295 49.354473 5.960834 0.674387
364.288147 49.504223 4.365097 0.415686
364.288147 49.504234 2.787803 0.389951
364.288147 49.504238 1.212197 0.421691
361.362183 56.335449 -0.000014 0.534069
354.936615 71.337059 0.000018 0.531985
352.178070 77.777428 0.000001 0.543015
350.641632 81.364449 -0.000002 0.528309
349.660828 83.654411 -0.000014 0.559314
348.979034 85.246140 0.000001 0.562010
348.476776 86.418755 -0.000011 0.581250
363.923584 49.504234 14.023456 0.397549
363.923615 49.504227 12.367079 0.408456
363.938873 49.467819 10.741140 0.503799
363.923615 49.504227 9.120176 0.402696
363.923615 49.504230 7.521994 0.438603
363.938873 49.467827 5.939040 0.499387
363.923615 49.504230 4.358104 0.398284
363.923615 49.504223 2.785473 0.364828
363.923615 49.504223 1.214526 0.403186
361.100525 56.224442 -0.000015 0.539828
354.779907 71.270500 0.000013 0.529044
352.066376 77.729988 -0.000003 0.536397
350.555023 81.327660 -0.000006 0.532475
349.590179 83.624420 -0.000019 0.517279
348.919525 85.220871 -0.000003 0.560417
348.425476 86.396965 -0.000015 0.503676
363.561188 49.504227 13.988590 0.406618
363.561188 49.504219 12.337018 0.401838
363.621765 49.357212 10.737560 0.678431
363.561188 49.504230 9.099528 0.444975
363.561188 49.504230 7.505979 0.418382
363.621765 49.357212 5.937426 0.678431
363.561188 49.504227 4.351267 0.405515
363.561188 49.504227 2.783196 0.407966
363.561188 49.504227 1.216805 0.404167
360.838104 56.115280 -0.000015 0.540931
354.622681 71.205048 0.000008 0.549142
351.954285 77.683334 -0.000008 0.532108
350.468109 81.291481 -0.000011 0.530392
349.519318 83.594925 -0.000024 0.524510
348.859833 85.196022 -0.000007 0.545833
348.373993 86.375542 -0.000019 0.518995
363.200867 49.504230 13.954506 0.397672
363.200867 49.504227 12.307629 0.396691
363.259674 49.358566 10.712452 0.678431
363.200867 49.504227 9.079344 0.410049
363.200867 49.504227 7.490327 0.436397
363.259674 49.358574 5.926111 0.678431
363.200867 49.504234 4.344581 0.368627
363.200867 49.504234 2.780968 0.377083
363.200867 49.504234 1.219031 0.371814
360.574951 56.007961 -0.000014 0.533578
354.464966 71.140877 0.000021 0.543260
351.841888 77.637596 0.000004 0.532843
350.380951 81.256020 0.000002 0.558211
349.448242 83.566002 -0.000012 0.517157
348.799957 85.171669 0.000004 0.520466
348.322388 86.354538 -0.000008 0.537500
362.842529 49.504227 13.921194 0.392279
362.842529 49.504223 12.278904 0.410417
362.856934 49.467819 10.666796 0.469363
362.842529 49.504230 9.059616 0.428799
362.842529 49.504230 7.475027 0.439828
362.856934 49.467827 5.905537 0.452206
362.842529 49.504234 4.338048 0.379167
362.842529 49.504230 2.778793 0.406863
362.842529 49.504234 1.221207 0.388603
360.311035 55.902451 -0.000015 0.536887
354.306854 71.077644 0.000017 0.532721
351.729218 77.592522 -0.000000 0.537623
350.293518 81.221046 -0.000002 0.547426
349.377014 83.537506 -0.000015 0.544118
348.739960 85.147652 -0.000001 0.525000
348.270630 86.333839 -0.000012 0.553064
362.486176 49.504227 13.888644 0.400735
362.486176 49.504227 12.250836 0.410049
362.541595 49.361248 10.663929 0.678431
362.486176 49.504227 9.040340 0.397059
362.486176 49.504230 7.460077 0.447672
362.541595 49.361259 5.904244 0.678431
362.486176 49.504230 4.331664 0.411887
362.486176 49.504227 2.776666 0.399510
362.486176 49.504227 1.223334 0.409069
360.046387 55.798820 -0.000014 0.536274
354.148315 71.015541 0.000016 0.534069
351.616180 77.548248 -0.000001 0.536520
350.205902 81.186722 -0.000003 0.540809
349.305542 83.509521 -0.000015 0.546936
348.679749 85.124077 -0.000001 0.553431
348.218719 86.313499 -0.000013 0.541299
362.131775 49.504219 13.856853 0.404412
362.131775 49.504215 12.223427 0.421691
362.185547 49.362587 10.640495 0.678431
362.131775 49.504234 9.021513 0.400245
362.131775 49.504227 7.445475 0.376838
362.185547 49.362595 5.893685 0.678431
362.131775 49.504227 4.325428 0.436152
362.131775 49.504227 2.774589 0.430392
362.131775 49.504227 1.225411 0.400858
359.781006 55.697037 -0.000015 0.532966
353.989319 70.954506 0.000012 0.536029
351.502869 77.504753 -0.000005 0.530147
350.118011 81.152992 -0.000007 0.520466
349.233917 83.482018 -0.000020 0.530515
348.619385 85.100899 -0.000005 0.544853
348.166687 86.293526 -0.000017 0.574877
361.779236 49.504223 13.825798 0.391544
361.779236 49.504227 12.196651 0.338358
361.779236 49.504230 10.590375 0.394975
361.779236 49.504227 9.003126 0.383211
361.779236 49.504234 7.431216 0.392892
361.831390 49.363930 5.883372 0.678431
361.779236 49.504223 4.319338 0.404044
361.779236 49.504230 2.772561 0.400368
361.779236 49.504234 1.227439 0.398652
359.514954 55.597099 -0.000015 0.537132
353.829926 70.894592 0.000009 0.545466
351.389252 77.462044 -0.000009 0.532966
350.029907 81.119865 -0.000011 0.524877
349.162079 83.455017 -0.000023 0.527941
348.558899 85.078156 -0.000009 0.525368
348.114502 86.273911 -0.000020 0.528431
361.451599 49.440784 13.812391 0.447426
361.428497 49.504227 12.170510 0.393750
361.428497 49.504223 10.568354 0.397181
361.428497 49.504227 8.985172 0.404289
361.428497 49.504230 7.417292 0.440809
361.479065 49.365234 5.873302 0.678431
361.428497 49.504230 4.313392 0.397917
361.428497 49.504227 2.770580 0.412745
361.428497 49.504230 1.229419 0.393505
359.248199 55.499008 -0.000015 0.537132
353.670044 70.835960 0.000020 0.538603
351.275299 77.420258 0.000003 0.528064
349.941528 81.087456 0.000001 0.526103
349.090057 83.428596 -0.000011 0.537010
348.498199 85.055893 0.000002 0.549020
348.062164 86.254715 -0.000009 0.533211
361.128571 49.366547 13.802501 0.564583
361.079590 49.504227 12.145000 0.394363
361.079590 49.504227 10.546861 0.447917
361.079590 49.504227 8.967649 0.401961
361.079590 49.504234 7.403702 0.406373
361.128571 49.366547 5.863473 0.678431
361.079590 49.504230 4.307590 0.385172
361.079590 49.504227 2.768648 0.405392
361.079590 49.504230 1.231353 0.415074
358.980743 55.402798 -0.000015 0.539093
353.509827 70.778275 0.000017 0.530147
351.161102 77.379143 -0.000000 0.533088
349.852966 81.055580 -0.000001 0.526838
349.017822 83.402603 -0.000015 0.537745
348.437378 85.033997 -0.000001 0.553309
348.009735 86.235832 -0.000013 0.511520
360.779816 49.367840 13.773196 0.678431
360.732361 49.504234 12.120105 0.381985
360.732361 49.504230 10.525887 0.410907
360.732361 49.504219 8.950555 0.406373
360.732361 49.504223 7.390443 0.401103
360.779816 49.367844 5.853880 0.678431
360.732361 49.504223 4.301929 0.411275
360.732361 49.504238 2.766761 0.404534
360.732361 49.504223 1.233238 0.382108
358.712646 55.308453 -0.000015 0.532598
353.349213 70.721725 0.000015 0.546936
351.046631 77.338837 -0.000002 0.522917
349.764191 81.024315 -0.000004 0.538113
348.945465 83.377121 -0.000017 0.522917
348.376373 85.012520 -0.000003 0.513603
347.957123 86.217323 -0.000015 0.548652
360.432800 49.369141 13.744604 0.678431
360.386841 49.504227 12.095827 0.402574
360.386841 49.504227 10.505433 0.408824
360.386841 49.504223 8.933880 0.406985
360.386841 49.504238 7.377512 0.404902
360.432800 49.369141 5.844522 0.678431
360.386841 49.504227 4.296406 0.430025
360.386841 49.504227 2.764922 0.405515
360.386841 49.504227 1.235078 0.436029
358.443878 55.215988 -0.000015 0.540564
353.188202 70.666298 0.000012 0.538603
350.931885 77.299324 -0.000006 0.526593
349.675171 80.993675 -0.000007 0.546446
348.872894 83.352135 -0.000020 0.545098
348.315247 84.991486 -0.000005 0.522549
347.904449 86.199173 -0.000017 0.492525
360.087402 49.370430 13.716725 0.678431
360.042938 49.504234 12.072149 0.393015
360.042938 49.504234 10.485489 0.412990
360.065002 49.437881 8.927990 0.324755
360.042938 49.504230 7.364902 0.440686
360.087402 49.370430 5.835396 0.678431
360.042938 49.504234 4.291019 0.437868
360.042938 49.504234 2.763128 0.400000
360.042938 49.504234 1.236872 0.416422
358.174500 55.125397 -0.000015 0.531005
353.026764 70.612144 0.000023 0.539706
350.816803 77.260727 0.000005 0.528799
349.585938 80.963745 0.000005 0.543382
348.800140 83.327728 -0.000010 0.504289
348.253937 84.970924 0.000006 0.581005
347.851593 86.181450 -0.000008 0.535662
359.743652 49.371712 13.689548 0.678431
359.700653 49.504234 12.049074 0.400735
359.700653 49.504227 10.466051 0.403554
359.743652 49.371719 8.922438 0.462623
359.700653 49.504230 7.352612 0.389828
359.743652 49.371712 5.826499 0.678431
359.700653 49.504234 4.285771 0.426103
359.700653 49.504230 2.761379 0.404779
359.700653 49.504230 1.238620 0.398162
357.904480 55.036682 -0.000015 0.536029
352.864990 70.558975 0.000020 0.539951
350.701508 77.222832 0.000004 0.538358
349.496521 80.934349 0.000002 0.543382
348.727234 83.303772 -0.000012 0.520466
348.192566 84.950737 0.000003 0.576348
347.798645 86.164040 -0.000009 0.507966
359.401520 49.372993 13.663058 0.678431
359.359924 49.504234 12.026593 0.405270
359.359924 49.504223 10.447109 0.411520
359.401489 49.372990 8.906754 0.676593
359.359894 49.504234 7.340635 0.398162
359.401520 49.372990 5.817828 0.678431
359.359924 49.504223 4.280657 0.393137
359.359924 49.504227 2.759676 0.403922
359.359924 49.504227 1.240324 0.402328
357.633850 54.949867 -0.000015 0.534559
352.702911 70.506767 0.000005 0.539828
350.585938 77.185738 0.000001 0.539093
349.406891 80.905586 0.000000 0.530270
348.654205 83.280319 -0.000014 0.555147
348.130981 84.930977 0.000001 0.524632
347.745544 86.147011 -0.000011 0.511642
359.060852 49.374256 13.637259 0.678431
359.020660 49.504227 12.004701 0.377451
359.020660 49.504215 10.428666 0.391054
359.060852 49.374249 8.891474 0.678431
359.020660 49.504227 7.328974 0.396569
359.060883 49.374245 5.809384 0.678431
359.020660 49.504227 4.275678 0.409436
359.020660 49.504227 2.758018 0.398039
359.020660 49.504227 1.241982 0.397304
357.362640 54.864922 -0.000015 0.536397
352.540405 70.455841 0.000001 0.542279
350.470123 77.149437 -0.000003 0.548897
349.317047 80.877434 -0.000004 0.534314
348.580963 83.257362 -0.000018 0.554289
348.069305 84.911652 -0.000003 0.526226
347.692352 86.130333 -0.000015 0.540686
358.721710 49.375511 13.612140 0.678431
358.682892 49.504227 11.983389 0.410417
358.682892 49.504227 10.410710 0.371324
358.721710 49.375519 8.876598 0.678431
358.682892 49.504227 7.317623 0.381863
358.721710 49.375511 5.801161 0.678431
358.682892 49.504234 4.270829 0.406005
358.682892 49.504227 2.756402 0.410539
358.682892 49.504230 1.243597 0.394730
357.090790 54.781906 -0.000015 0.534804
352.377563 70.406059 -0.000002 0.536520
350.354034 77.113960 -0.000005 0.554534
349.227051 80.849922 -0.000006 0.535907
348.507568 83.234947 -0.000020 0.543505
348.007477 84.892754 -0.000004 0.561887
347.639038 86.114044 -0.000016 0.516176
358.383972 49.376759 13.587692 0.678431
358.346527 49.504227 11.962651 0.381618
358.346527 49.504227 10.393236 0.457230
358.383972 49.376762 8.862119 0.678431
358.346527 49.504227 7.306574 0.420588
358.384003 49.376778 5.793155 0.678431
358.346527 49.504227 4.266113 0.407966
358.346527 49.504227 2.754831 0.429534
358.346527 49.504227 1.245168 0.406863
356.818390 54.700768 -0.000015 0.538113
352.214355 70.357567 0.000008 0.537010
350.237701 77.079399 0.000005 0.544976
349.136810 80.823112 0.000004 0.542279
348.434021 83.213089 -0.000009 0.533333
347.945526 84.874344 0.000005 0.546569
347.585632 86.098175 -0.000006 0.533333
358.047699 49.378017 13.563906 0.678431
358.011505 49.504227 11.942481 0.424142
358.011505 49.504227 10.376245 0.400000
358.047699 49.378021 8.848034 0.678431
358.011505 49.504230 7.295833 0.384804
358.047699 49.378021 5.785371 0.678431
358.011505 49.504230 4.261525 0.391667
358.011505 49.504230 2.753304 0.403309
358.011505 49.504234 1.246697 0.385049
356.545441 54.621536 -0.000015 0.535172
352.050812 70.310081 0.000007 0.536029
350.121155 77.045547 0.000004 0.535907
349.046417 80.796867 0.000003 0.520956
348.360321 83.191689 -0.000011 0.540196
347.883423 84.856308 0.000003 0.505392
347.532104 86.082626 -0.000008 0.516912
357.712708 49.379379 13.540751 0.678431
357.677887 49.504223 11.922877 0.393137
357.677887 49.504223 10.359729 0.429044
357.712708 49.379383 8.834322 0.678431
357.677887 49.504230 7.285390 0.436152
357.712708 49.379383 5.777791 0.678431
357.677887 49.504227 4.257067 0.414216
357.677887 49.504227 2.751818 0.400980
357.677887 49.504230 1.248182 0.401593
356.271942 54.544224 -0.000014 0.537377
351.886932 70.263870 0.000016 0.540441
350.004333 77.012611 0.000014 0.545711
348.955841 80.771324 0.000014 0.536520
348.286438 83.170937 0.000012 0.554044
347.821198 84.838760 0.000012 0.524020
347.478455 86.067497 0.000002 0.556740
357.379089 49.380604 13.518282 0.678431
357.345520 49.504219 11.903833 0.413358
357.345520 49.504219 10.343683 0.413848
357.379089 49.380611 8.821014 0.678431
357.345520 49.504223 7.275245 0.400123
357.379089 49.380623 5.770434 0.678431
357.345520 49.504230 4.252733 0.440564
357.345520 49.504230 2.750374 0.437745
357.345520 49.504234 1.249625 0.407843
355.997925 54.468803 -0.000015 0.534191
351.722778 70.218483 -0.000001 0.537868
349.887329 76.980270 -0.000003 0.549877
348.865112 80.746239 -0.000003 0.519853
348.212494 83.150490 -0.000005 0.529902
347.758881 84.821541 -0.000004 0.584559
347.424713 86.052643 -0.000014 0.552696
357.046722 49.381840 13.496452 0.678431
357.014435 49.504223 11.885341 0.414216
357.014435 49.504223 10.328106 0.400245
357.046722 49.381840 8.808090 0.678431
357.014435 49.504223 7.265397 0.404902
357.046722 49.381840 5.763290 0.678431
357.014435 49.504227 4.248527 0.435049
357.014435 49.504227 2.748973 0.403554
357.014435 49.504227 1.251027 0.414093
355.723358 54.395313 -0.000015 0.538971
351.558289 70.174431 -0.000002 0.532475
349.770111 76.948875 -0.000005 0.552206
348.774170 80.721893 -0.000005 0.527819
348.138367 83.130630 -0.000006 0.527696
347.696442 84.804825 -0.000002 0.558333
347.370880 86.038269 -0.000004 0.526838
356.715637 49.383064 13.475270 0.678431
356.684570 49.504223 11.867396 0.406373
356.684570 49.504223 10.312988 0.406618
356.715637 49.383060 8.795547 0.678431
356.684570 49.504227 7.255839 0.394485
356.715607 49.383072 5.756357 0.678431
356.684570 49.504227 4.244446 0.424632
356.684570 49.504227 2.747615 0.402574
356.684570 49.504234 1.252385 0.382108
355.448303 54.323742 -0.000015 0.539461
351.393494 70.131660 0.000007 0.537868
349.652649 76.918381 0.000005 0.529779
348.683075 80.698242 0.000005 0.534314
348.064087 83.111366 0.000003 0.550980
347.633850 84.788582 0.000006 0.543015
347.316895 86.024269 0.000005 0.517034
356.385742 49.384277 13.454725 0.678431
356.355865 49.504223 11.849997 0.393137
356.355865 49.504230 10.298329 0.400490
356.385742 49.384277 8.783377 0.678431
356.355865 49.504227 7.246572 0.400490
356.385742 49.384277 5.749631 0.671446
356.355865 49.504223 4.240489 0.412623
356.355865 49.504219 2.746296 0.428431
356.355865 49.504219 1.253704 0.368627
355.172760 54.254082 -0.000015 0.531250
351.228394 70.089920 0.000006 0.521324
349.534973 76.888634 0.000004 0.530392
348.591827 80.675079 -0.000010 0.547426
347.989685 83.092545 0.000002 0.551838
347.571198 84.772736 0.000006 0.563480
347.262878 86.010612 0.000005 0.530760
356.056976 49.385593 13.434779 0.678431
356.028320 49.504215 11.833139 0.408456
356.028320 49.504219 10.284128 0.392402
356.056946 49.385605 8.771566 0.678431
356.028320 49.504223 7.237592 0.393015
356.028320 49.504219 5.733095 0.403064
356.028320 49.504234 4.236654 0.400858
356.028320 49.504227 2.745018 0.417770
356.028320 49.504234 1.254981 0.394975
354.896729 54.186356 -0.000014 0.536274
351.062988 70.049316 0.000005 0.542157
349.417084 76.859703 0.000003 0.529289
348.500427 80.652641 -0.000011 0.552819
347.915161 83.074249 0.000000 0.538603
347.508423 84.757324 0.000004 0.525490
347.208710 85.997322 0.000003 0.576593
355.729370 49.386791 13.415488 0.678431
355.701843 49.504227 11.816813 0.416299
355.701843 49.504223 10.270375 0.430147
355.729370 49.386799 8.760141 0.678431
355.701843 49.504227 7.228898 0.397304
355.729370 49.386806 5.736786 0.678431
355.701843 49.504230 4.232941 0.386029
355.701843 49.504219 2.743783 0.407966
355.701843 49.504219 1.256217 0.391789
354.620270 54.120544 -0.000015 0.538848
350.897339 70.009872 0.000003 0.532108
349.299011 76.831596 0.000002 0.531618
348.408844 80.630852 -0.000011 0.556250
347.840515 83.056480 -0.000000 0.525613
347.445526 84.742355 0.000004 0.519730
347.154510 85.984413 0.000002 0.536397
355.402863 49.388000 13.396811 0.678431
355.376465 49.504223 11.801023 0.416054
355.376465 49.504219 10.257072 0.407843
355.402863 49.388000 8.749082 0.678431
355.376465 49.504215 7.220485 0.416422
355.402863 49.388000 5.730675 0.678431
355.376465 49.504227 4.229350 0.401838
355.376465 49.504223 2.742585 0.399877
355.376465 49.504223 1.257414 0.413603
354.343292 54.056679 -0.000015 0.535539
350.731415 69.971725 0.000013 0.536397
349.180756 76.804398 0.000011 0.542034
348.317139 80.609756 -0.000002 0.554167
347.765747 83.039284 0.000008 0.530760
347.382507 84.727875 0.000013 0.526348
347.100189 85.971916 0.000011 0.532598
355.077362 49.389194 13.378753 0.678431
355.052094 49.504223 11.785757 0.404534
355.052094 49.504219 10.244209 0.402941
355.077362 49.389198 8.738388 0.678431
355.052094 49.504223 7.212353 0.400000
355.077393 49.389206 5.724762 0.643750
355.052094 49.504223 4.225876 0.383211
355.052094 49.504219 2.741429 0.386152
355.052094 49.504223 1.258571 0.401103
354.065918 53.994743 -0.000015 0.538235
350.565277 69.934410 -0.000004 0.538113
349.062317 76.777809 -0.000006 0.532721
348.225281 80.589134 -0.000019 0.548162
347.690857 83.022484 -0.000006 0.544730
347.319427 84.713707 -0.000004 0.540319
347.045776 85.959709 -0.000004 0.558701
354.752899 49.390472 13.361285 0.678431
354.728760 49.504223 11.771015 0.416422
354.728760 49.504223 10.231790 0.427574
354.752899 49.390476 8.728045 0.678431
354.728760 49.504227 7.204500 0.389583
354.728760 49.504223 5.709511 0.401593
354.728760 49.504230 4.222523 0.391422
354.728760 49.504223 2.740311 0.413358
354.728760 49.504223 1.259688 0.395221
353.788116 53.934742 -0.000015 0.537255
350.398773 69.898567 0.000004 0.538235
348.943665 76.752281 0.000005 0.532475
348.133270 80.569328 -0.000010 0.544608
347.615845 83.006332 0.000002 0.527328
347.256256 84.700035 -0.000009 0.536397
346.991272 85.947983 0.000005 0.511029
354.429413 49.391659 13.344444 0.678431
354.406342 49.504223 11.756789 0.380270
354.406342 49.504219 10.219807 0.418505
354.429443 49.391666 8.718069 0.678431
354.406342 49.504219 7.196926 0.423529
354.406342 49.504219 5.704109 0.400490
354.406342 49.504227 4.219287 0.399877
354.406342 49.504227 2.739234 0.372549
354.406342 49.504227 1.260766 0.382108
353.509857 53.876690 -0.000014 0.538113
350.232086 69.863785 0.000004 0.536397
348.824860 76.727486 0.000005 0.534191
348.041107 80.550095 -0.000010 0.515931
347.540741 82.990662 0.000002 0.551716
347.192963 84.686829 -0.000009 0.535907
346.936737 85.936592 0.000005 0.539461
354.106873 49.392845 13.328199 0.678431
354.084869 49.504219 11.743080 0.407353
354.084839 49.504230 10.208255 0.394608
354.106873 49.392849 8.708452 0.678431
354.084839 49.504230 7.189623 0.431373
354.084869 49.504215 5.698905 0.396324
354.084839 49.504227 4.216170 0.405760
354.084839 49.504227 2.738194 0.410907
354.084839 49.504230 1.261804 0.398284
353.231262 53.820583 -0.000014 0.534191
350.065125 69.830261 0.000013 0.541422
348.705841 76.703598 0.000014 0.524755
347.948822 80.531563 -0.000002 0.547304
347.465515 82.975548 0.000011 0.521936
347.129578 84.674103 -0.000000 0.520956
346.882080 85.925621 0.000012 0.558211
353.771179 49.467815 13.293738 0.453676
353.764282 49.504215 11.729885 0.407353
353.764282 49.504219 10.197139 0.418995
353.771179 49.467819 8.688044 0.427328
353.764252 49.504230 7.182594 0.422794
353.764282 49.504219 5.693896 0.399510
353.764252 49.504230 4.213168 0.399632
353.764282 49.504227 2.737196 0.375490
353.764252 49.504234 1.262804 0.408701
352.952240 53.766415 -0.000014 0.538971
349.898010 69.797684 0.000002 0.539216
348.586700 76.680382 0.000004 0.532475
347.856445 80.513557 -0.000012 0.541789
347.390167 82.960869 0.000001 0.557598
347.066132 84.661736 -0.000011 0.548897
346.827393 85.914902 -0.000011 0.550245
353.464478 49.395271 13.297487 0.674020
353.444519 49.504211 11.717200 0.390564
353.444519 49.504219 10.186451 0.396569
353.464478 49.395271 8.690264 0.678431
353.444519 49.504230 7.175835 0.408088
353.444519 49.504219 5.689078 0.403922
353.444519 49.504219 4.210283 0.444240
353.444519 49.504234 2.736234 0.384436
353.444519 49.504234 1.263766 0.352696
352.672882 53.714195 -0.000015 0.537010
349.730591 69.766541 0.000014 0.542157
348.467377 76.658150 0.000012 0.527574
347.763885 80.496384 0.000006 0.516789
347.314728 82.946815 0.000008 0.559436
347.002594 84.649895 -0.000003 0.503064
346.772583 85.904686 -0.000004 0.527206
353.144562 49.396523 13.283005 0.674020
353.125580 49.504219 11.705018 0.421324
353.125610 49.504219 10.176188 0.429167
353.144531 49.396526 8.681688 0.678431
353.125610 49.504227 7.169348 0.431127
353.125610 49.504223 5.684454 0.450245
353.125610 49.504223 4.207511 0.422917
353.125610 49.504227 2.735311 0.433211
353.125610 49.504227 1.264688 0.390196
352.393127 53.663933 -0.000015 0.534191
349.562988 69.736427 0.000014 0.532598
348.347931 76.636696 0.000013 0.541789
347.671234 80.479744 0.000007 0.525368
347.239227 82.933273 0.000012 0.554779
346.938934 84.638512 0.000007 0.537010
346.717712 85.894836 -0.000003 0.495833
352.813568 49.467823 13.251314 0.498897
352.807434 49.504223 11.693335 0.400490
352.807434 49.504219 10.166348 0.423897
352.813568 49.467823 8.662921 0.482475
352.807434 49.504227 7.163127 0.451348
352.807434 49.504215 5.680020 0.384804
352.807434 49.504227 4.204854 0.410049
352.807434 49.504227 2.734427 0.401348
352.807434 49.504230 1.265573 0.446446
352.113037 53.615612 -0.000015 0.538480
349.395142 69.707581 0.000022 0.539461
348.228333 76.616127 0.000021 0.524877
347.578461 80.463799 0.000015 0.511029
347.163574 82.920265 0.000020 0.554167
346.875214 84.627556 0.000015 0.557843
346.662781 85.885384 0.000004 0.514338
352.507080 49.398922 13.255820 0.678431
352.490051 49.504215 11.682157 0.404657
352.490051 49.504223 10.156927 0.404412
352.507080 49.398922 8.665588 0.678431
352.490021 49.504230 7.157170 0.438848
352.490051 49.504227 5.675776 0.401348
352.490021 49.504230 4.202311 0.379412
352.490051 49.504227 2.733579 0.401471
352.490051 49.504227 1.266421 0.410662
351.832642 53.569275 -0.000014 0.531618
349.227173 69.679688 0.000013 0.540686
348.108612 76.596252 0.000012 0.539093
347.485596 80.448380 0.000005 0.536642
347.087891 82.907700 0.000010 0.567279
346.811462 84.616966 0.000006 0.541667
346.607788 85.876266 -0.000002 0.547059
352.189453 49.400082 13.243107 0.678431
352.173370 49.504223 11.671473 0.405147
352.173370 49.504223 10.147927 0.405637
352.189453 49.400085 8.658060 0.678431
352.173370 49.504223 7.151480 0.420588
352.173370 49.504227 5.671719 0.398039
352.173370 49.504223 4.199882 0.382843
352.173370 49.504230 2.732770 0.405882
352.173370 49.504230 1.267230 0.412990
351.551910 53.524860 -0.000015 0.530760
349.058960 69.653191 0.000021 0.529902
347.988708 76.577362 0.000019 0.544853
347.392639 80.433731 0.000013 0.538480
347.012085 82.895760 0.000018 0.526103
346.747589 84.606903 0.000013 0.477083
346.552734 85.867592 0.000005 0.526471
351.862732 49.467827 13.214108 0.494975
351.857361 49.504227 11.661280 0.406985
351.857361 49.504219 10.139343 0.416299
351.862732 49.467812 8.640889 0.496201
351.857361 49.504219 7.146052 0.404044
351.857361 49.504227 5.667850 0.331005
351.857361 49.504219 4.197563 0.392402
351.857361 49.504227 2.731997 0.445466
351.857361 49.504215 1.268002 0.431495
351.270874 53.482422 -0.000015 0.534681
348.890625 69.627563 0.000003 0.529902
347.868713 76.558968 -0.000012 0.544363
347.299591 80.419571 -0.000004 0.541176
346.936218 82.884209 0.000002 0.545956
346.683685 84.597198 0.000001 0.576348
346.497620 85.859207 -0.000010 0.535784
351.556305 49.402451 13.219387 0.678431
351.542023 49.504219 11.651586 0.383578
351.542023 49.504219 10.131173 0.409804
351.556305 49.402458 8.644012 0.678431
351.542023 49.504223 7.140887 0.406250
351.542023 49.504230 5.664167 0.404657
351.542023 49.504227 4.195357 0.389828
351.542023 49.504223 2.731263 0.411887
351.542023 49.504223 1.268737 0.432475
350.989563 53.441956 -0.000015 0.537745
348.722076 69.603401 0.000010 0.533946
347.748596 76.541756 -0.000005 0.533211
347.206390 80.406235 0.000007 0.537010
346.860291 82.873238 -0.000005 0.521078
346.619659 84.588020 0.000007 0.540441
346.442444 85.851295 -0.000004 0.549632
351.240662 49.403652 13.208377 0.678431
351.227295 49.504219 11.642375 0.383578
351.227295 49.504219 10.123414 0.420466
351.240692 49.403664 8.637491 0.678431
351.227295 49.504219 7.135981 0.400245
351.227295 49.504219 5.660672 0.412377
351.227295 49.504227 4.193263 0.402696
351.227264 49.504227 2.730566 0.408456
351.227295 49.504223 1.269435 0.437500
350.707947 53.403439 -0.000015 0.532966
348.553345 69.580223 0.000002 0.539706
347.628357 76.525238 -0.000013 0.547426
347.113159 80.393417 -0.000002 0.530637
346.784241 82.862801 -0.000014 0.526961
346.555634 84.579216 -0.000002 0.521446
346.387207 85.843727 -0.000009 0.584681
350.925659 49.404854 13.197935 0.678431
350.913147 49.504223 11.633651 0.432843
350.913147 49.504227 10.116065 0.400490
350.925659 49.404861 8.631308 0.678431
350.913147 49.504227 7.131334 0.403064
350.913147 49.504227 5.657360 0.427451
350.913147 49.504219 4.191278 0.424265
350.913147 49.504227 2.729905 0.423407
350.913147 49.504227 1.270095 0.406495
350.426086 53.366913 -0.000015 0.537010
348.384460 69.558418 0.000009 0.541544
347.507996 76.509689 -0.000006 0.534681
347.019806 80.381363 0.000005 0.528922
346.708130 82.852966 -0.000007 0.547059
346.491516 84.570938 0.000004 0.513848
346.331940 85.836586 -0.000002 0.527451
350.611237 49.405998 13.188069 0.678431
350.599548 49.504219 11.625413 0.379412
350.599548 49.504223 10.109125 0.401471
350.611267 49.406017 8.625465 0.678431
350.599548 49.504219 7.126947 0.390931
350.599548 49.504223 5.654232 0.409559
350.599548 49.504223 4.189404 0.394118
350.599548 49.504223 2.729281 0.402941
350.599548 49.504223 1.270720 0.406863
350.144012 53.332329 -0.000015 0.537255
348.215454 69.537727 0.000010 0.532475
347.387512 76.494942 -0.000005 0.545343
346.926361 80.369919 0.000006 0.521078
346.631989 82.843643 -0.000005 0.569730
346.427368 84.563019 -0.000008 0.551103
346.276611 85.829811 -0.000001 0.515074
350.297363 49.407200 13.178752 0.678431
350.286499 49.504223 11.617655 0.412010
350.286499 49.504223 10.102589 0.409069
350.297333 49.407207 8.619949 0.678431
350.286499 49.504223 7.122815 0.394730
350.286499 49.504227 5.651287 0.397794
