# This PCD file was generated using the MATLABÂ® pcwrite function
# from Computer Vision ToolboxÂ®.
# .PCD v.7 - Point Cloud Data file format
VERSION .7
FIELDS x y z intensity
SIZE 4 4 4 4
TYPE F F F F
COUNT 1 1 1 1
WIDTH 1304
HEIGHT 1
VIEWPOINT 0 0 0 1 0 0 0
POINTS 1304
DATA ascii
308.628845 96.818810 0.000026 0.000026
310.672577 95.394455 0.000006 0.000006
312.093140 94.404411 0.000012 0.000012
313.139679 93.675034 -0.000000 -0.000000
nan nan nan nan
nan nan nan nan
nan nan nan nan
nan nan nan nan
nan nan nan nan
242.625641 143.622162 9.740009 9.740009
247.274414 140.333801 6.357623 6.357623
250.011795 138.397476 3.396635 3.396635
250.011780 138.397491 0.603365 0.603365
286.454681 112.619217 0.000051 0.000051
299.777283 103.195358 0.000036 0.000036
305.497253 99.149246 0.000039 0.000039
308.682983 96.895805 0.000037 0.000037
310.716736 95.457207 0.000023 0.000023
312.130341 94.457268 0.000030 0.000030
313.171783 93.720612 0.000017 0.000017
nan nan nan nan
nan nan nan nan
nan nan nan nan
nan nan nan nan
nan nan nan nan
242.565796 144.476334 9.784648 9.784648
247.274399 141.096100 6.379358 6.379358
250.011780 139.130966 3.403601 3.403601
250.011780 139.130966 0.596399 0.596399
286.619324 112.850899 0.000032 0.000032
299.875885 103.334152 0.000018 0.000018
305.567596 99.248184 0.000021 0.000021
308.737427 96.972588 0.000005 0.000005
310.761230 95.519730 0.000013 0.000013
312.167755 94.510002 -0.000001 -0.000001
313.204102 93.766029 0.000007 0.000007
nan nan nan nan
nan nan nan nan
nan nan nan nan
nan nan nan nan
nan nan nan nan
242.504700 145.340881 9.830251 9.830251
247.083328 142.005264 6.413136 6.413136
250.011795 139.871826 3.410706 3.410706
250.011795 139.871826 0.589294 0.589294
286.786041 113.081070 0.000042 0.000042
299.975800 103.472061 0.000028 0.000028
305.638763 99.346481 0.000030 0.000030
308.792664 97.048813 0.000016 0.000016
310.806244 95.581886 0.000022 0.000022
312.205688 94.562355 0.000009 0.000009
313.236786 93.811172 0.000016 0.000016
nan nan nan nan
nan nan nan nan
nan nan nan nan
nan nan nan nan
nan nan nan nan
242.442291 146.216125 9.876837 9.876837
247.050247 142.809616 6.437826 6.437826
249.284805 141.157715 3.432747 3.432747
250.103241 140.552673 0.583908 0.583908
286.954224 113.310158 0.000045 0.000045
300.076660 103.609268 0.000039 0.000039
305.710602 99.444313 0.000033 0.000033
308.848358 97.124687 0.000018 0.000018
310.851654 95.643738 0.000025 0.000025
312.243927 94.614471 0.000011 0.000011
313.269745 93.856140 0.000005 0.000005
nan nan nan nan
nan nan nan nan
nan nan nan nan
nan nan nan nan
nan nan nan nan
242.378510 147.102310 9.924431 9.924431
247.016479 143.623306 6.463033 6.463033
249.339981 141.880432 3.439085 3.439085
250.099854 141.310425 0.576458 0.576458
287.123810 113.538239 0.000034 0.000034
300.178253 103.745918 0.000028 0.000028
305.782898 99.541786 0.000008 0.000008
308.904510 97.200218 0.000008 0.000008
310.897369 95.705360 0.000000 0.000000
312.282532 94.666328 0.000008 0.000008
313.303009 93.900856 0.000001 0.000001
nan nan nan nan
nan nan nan nan
nan nan nan nan
nan nan nan nan
nan nan nan nan
nan nan nan nan
246.982010 144.446564 6.488765 6.488765
250.099838 142.073639 3.431072 3.431072
250.011780 142.140671 0.567119 0.567119
287.295319 113.764862 0.000045 0.000045
300.281006 103.881714 0.000037 0.000037
305.856140 99.638565 0.000019 0.000019
308.961334 97.275261 0.000025 0.000025
310.943665 95.766548 0.000010 0.000010
312.321564 94.717865 0.000024 0.000024
313.336639 93.945313 0.000012 0.000012
nan nan nan nan
nan nan nan nan
nan nan nan nan
nan nan nan nan
nan nan nan nan
nan nan nan nan
246.946823 145.279648 6.515038 6.515038
250.011795 142.912979 3.440572 3.440572
250.011795 142.912979 0.559429 0.559429
287.467957 113.990631 0.000028 0.000028
300.384491 104.016922 0.000027 0.000027
305.929871 99.734985 0.000000 0.000000
309.018555 97.349991 0.000015 0.000015
310.990326 95.827484 0.000000 0.000000
312.360748 94.769272 -0.000013 -0.000013
313.370544 93.989555 0.000006 0.000006
nan nan nan nan
nan nan nan nan
nan nan nan nan
nan nan nan nan
nan nan nan nan
nan nan nan nan
246.910858 146.122879 6.541866 6.541866
250.011795 143.693695 3.448413 3.448413
250.011795 143.693695 0.551585 0.551585
287.642609 114.214851 0.000038 0.000038
300.489136 104.151276 0.000037 0.000037
306.004486 99.830696 0.000017 0.000017
309.076416 97.424255 0.000025 0.000025
311.037476 95.888023 0.000011 0.000011
312.400482 94.820274 -0.000001 -0.000001
313.404785 94.033539 0.000015 0.000015
nan nan nan nan
nan nan nan nan
nan nan nan nan
nan nan nan nan
nan nan nan nan
nan nan nan nan
246.874161 146.976440 6.569252 6.569252
250.011780 144.483002 3.456416 3.456416
250.011795 144.482986 0.543585 0.543585
287.818817 114.437843 0.000048 0.000048
300.594727 104.284874 0.000048 0.000048
306.079742 99.925926 0.000027 0.000027
309.134796 97.498100 0.000036 0.000036
311.085052 95.948235 0.000021 0.000021
312.440613 94.870987 0.000013 0.000013
313.439362 94.077255 0.000032 0.000032
nan nan nan nan
nan nan nan nan
nan nan nan nan
nan nan nan nan
nan nan nan nan
nan nan nan nan
246.836700 147.840698 6.597224 6.597224
250.099838 145.210114 3.462724 3.462724
250.011795 145.281082 0.535425 0.535425
287.996155 114.659958 0.000031 0.000031
300.700958 104.417946 0.000031 0.000031
306.155457 100.020775 0.000011 0.000011
309.193512 97.571663 0.000019 0.000019
311.132965 96.008171 0.000010 0.000010
312.480957 94.921494 0.000002 0.000002
313.474121 94.120842 0.000003 0.000003
nan nan nan nan
nan nan nan nan
nan nan nan nan
nan nan nan nan
nan nan nan nan
nan nan nan nan
246.798431 148.715897 6.625784 6.625784
248.797897 147.080841 3.498559 3.498559
249.809341 146.253769 0.522819 0.522819
288.175537 114.880371 0.000048 0.000048
300.808380 104.550056 0.000042 0.000042
306.232025 100.114937 0.000021 0.000021
309.252808 97.644745 0.000015 0.000015
311.181396 96.067680 0.000028 0.000028
312.521759 94.971634 0.000015 0.000015
313.509308 94.164078 0.000018 0.000018
nan nan nan nan
nan nan nan nan
nan nan nan nan
nan nan nan nan
nan nan nan nan
nan nan nan nan
246.759354 149.602371 6.654952 6.654952
249.995422 146.918213 3.481743 3.481743
250.011765 146.904648 0.518606 0.518606
288.356049 115.099915 0.000037 0.000037
300.916534 104.681587 0.000030 0.000030
306.309174 100.208656 0.000016 0.000016
309.312622 97.717438 0.000010 0.000010
311.230042 96.127029 -0.000003 -0.000003
312.562805 95.021561 0.000009 0.000009
313.544708 94.207130 0.000008 0.000008
nan nan nan nan
nan nan nan nan
nan nan nan nan
nan nan nan nan
nan nan nan nan
nan nan nan nan
246.719437 150.500412 6.684742 6.684742
250.011765 147.730545 3.490058 3.490058
250.011780 147.730545 0.509942 0.509942
288.538330 115.317955 0.000042 0.000042
301.025604 104.812363 0.000019 0.000019
306.386993 100.301773 0.000021 0.000021
309.372986 97.789650 0.000015 0.000015
311.279266 96.185905 0.000002 0.000002
312.604218 95.071205 -0.000001 -0.000001
313.580414 94.249931 0.000000 0.000000
nan nan nan nan
nan nan nan nan
nan nan nan nan
nan nan nan nan
nan nan nan nan
nan nan nan nan
246.678665 151.410355 6.715166 6.715166
250.011765 148.566238 3.498898 3.498898
250.011765 148.566223 0.501101 0.501101
288.722229 115.534668 0.000052 0.000052
301.135803 104.942192 0.000029 0.000029
306.465607 100.394264 0.000040 0.000040
309.433899 97.861412 0.000027 0.000027
311.328949 96.244385 0.000018 0.000018
312.646088 95.120468 0.000018 0.000018
313.616486 94.292419 0.000014 0.000014
nan nan nan nan
nan nan nan nan
nan nan nan nan
nan nan nan nan
nan nan nan nan
nan nan nan nan
246.637024 152.332550 6.746246 6.746246
250.011780 149.411911 3.507917 3.507917
250.011795 149.411911 0.492081 0.492081
288.907288 115.750366 0.000041 0.000041
301.246643 105.071449 0.000017 0.000017
306.544617 100.486389 0.000028 0.000028
309.495239 97.932823 0.000022 0.000022
311.378906 96.302612 0.000011 0.000011
312.688202 95.169525 0.000011 0.000011
313.652802 94.334724 0.000006 0.000006
nan nan nan nan
nan nan nan nan
nan nan nan nan
nan nan nan nan
nan nan nan nan
nan nan nan nan
246.594467 153.267303 6.777994 6.777994
250.099838 150.190582 3.515203 3.515203
250.011780 150.267883 0.482878 0.482878
289.094208 115.964462 0.000053 0.000053
301.358673 105.199707 0.000029 0.000029
306.624298 100.577942 0.000017 0.000017
309.557098 98.003754 0.000028 0.000028
311.429382 96.360420 0.000021 0.000021
312.730713 95.218216 0.000024 0.000024
313.689453 94.376717 0.000018 0.000018
nan nan nan nan
nan nan nan nan
nan nan nan nan
nan nan nan nan
nan nan nan nan
nan nan nan nan
246.551025 154.215027 6.810429 6.810429
248.807831 152.206131 3.552890 3.552890
250.099823 151.056030 0.475415 0.475415
289.282257 116.177567 0.000041 0.000041
301.471313 105.327400 0.000017 0.000017
306.704590 100.668953 0.000005 0.000005
309.619293 98.074402 -0.000000 -0.000000
311.480072 96.418030 -0.000008 -0.000008
312.773407 95.266747 -0.000006 -0.000006
313.726288 94.418556 -0.000010 -0.000010
nan nan nan nan
nan nan nan nan
nan nan nan nan
nan nan nan nan
nan nan nan nan
nan nan nan nan
246.506622 155.176041 6.843566 6.843566
249.970291 152.049225 3.537011 3.537011
250.011765 152.011780 0.463904 0.463904
289.472107 116.389061 0.000050 0.000050
301.585083 105.454086 0.000030 0.000030
306.785736 100.759232 0.000021 0.000021
309.682190 98.144440 0.000012 0.000012
311.531372 96.475113 0.000007 0.000007
312.816620 95.314842 0.000008 0.000008
313.763519 94.460022 0.000002 0.000002
nan nan nan nan
nan nan nan nan
nan nan nan nan
nan nan nan nan
nan nan nan nan
nan nan nan nan
246.461243 156.150787 6.877430 6.877430
250.011795 152.900269 3.545878 3.545878
250.011795 152.900269 0.454124 0.454124
289.663452 116.599213 0.000061 0.000061
301.699738 105.580002 0.000040 0.000040
306.867462 100.848953 0.000036 0.000036
309.745575 98.214043 0.000023 0.000023
311.583038 96.531837 0.000020 0.000020
312.860168 95.362633 0.000024 0.000024
313.801086 94.501213 0.000022 0.000022
nan nan nan nan
nan nan nan nan
nan nan nan nan
nan nan nan nan
nan nan nan nan
nan nan nan nan
nan nan nan nan
250.011780 153.800201 3.555859 3.555859
250.011795 153.800186 0.444141 0.444141
289.855927 116.808319 0.000050 0.000050
301.815033 105.705315 0.000026 0.000026
306.949615 100.938263 0.000022 0.000022
309.809326 98.283279 0.000015 0.000015
311.634979 96.588310 0.000005 0.000005
312.903961 95.410187 0.000013 0.000013
313.838837 94.542229 0.000012 0.000012
nan nan nan nan
nan nan nan nan
nan nan nan nan
nan nan nan nan
nan nan nan nan
nan nan nan nan
nan nan nan nan
250.011780 154.711868 3.566049 3.566049
250.011795 154.711853 0.433953 0.433953
290.050171 117.015770 0.000061 0.000061
301.931458 105.829575 0.000041 0.000041
307.032623 101.026840 0.000036 0.000036
309.873688 98.351974 0.000029 0.000029
311.687469 96.644302 0.000023 0.000023
312.948181 95.457367 0.000028 0.000028
313.876923 94.582962 0.000007 0.000007
nan nan nan nan
nan nan nan nan
nan nan nan nan
nan nan nan nan
nan nan nan nan
nan nan nan nan
nan nan nan nan
nan nan nan nan
250.011795 155.635559 0.423554 0.423554
290.245514 117.222198 0.000048 0.000048
302.048523 105.953247 0.000029 0.000029
307.116058 101.114983 0.000024 0.000024
309.938293 98.420418 -0.000001 -0.000001
311.740173 96.700073 0.000001 0.000001
312.992554 95.504364 0.000000 0.000000
313.915222 94.623421 0.000003 0.000003
nan nan nan nan
nan nan nan nan
nan nan nan nan
nan nan nan nan
nan nan nan nan
nan nan nan nan
nan nan nan nan
nan nan nan nan
nan nan nan nan
290.442688 117.426918 0.000059 0.000059
302.166473 106.076065 0.000022 0.000022
307.200134 101.202515 0.000017 0.000017
310.003601 98.488220 0.000010 0.000010
311.793396 96.755333 0.000016 0.000016
313.037384 95.550934 0.000013 0.000013
313.953918 94.663567 0.000016 0.000016
nan nan nan nan
nan nan nan nan
nan nan nan nan
nan nan nan nan
nan nan nan nan
nan nan nan nan
nan nan nan nan
nan nan nan nan
nan nan nan nan
290.640656 117.630844 0.000029 0.000029
302.285217 106.198097 0.000009 0.000009
307.284790 101.289467 0.000010 0.000010
310.069275 98.555664 0.000001 0.000001
311.846954 96.810303 0.000009 0.000009
313.082489 95.597229 0.000010 0.000010
313.992767 94.703529 -0.000002 -0.000002
nan nan nan nan
nan nan nan nan
nan nan nan nan
nan nan nan nan
nan nan nan nan
nan nan nan nan
nan nan nan nan
nan nan nan nan
nan nan nan nan
290.840607 117.832779 0.000040 0.000040
302.405029 106.319099 0.000020 0.000020
307.370209 101.375702 0.000021 0.000021
310.135498 98.622528 0.000016 0.000016
311.900970 96.864807 0.000023 0.000023
313.127930 95.643211 0.000005 0.000005
314.032013 94.743111 0.000017 0.000017
359.047363 49.374252 16.009125 0.678431
358.918610 49.504223 14.039685 0.369363
358.918610 49.504219 12.143079 0.405392
358.918610 49.504215 10.268936 0.412990
359.047363 49.374249 8.433949 0.678431
358.918610 49.504219 6.570799 0.419608
358.918610 49.504215 4.738558 0.390809
358.918610 49.504219 2.912201 0.410662
358.918610 49.504223 1.087799 0.404289
348.339355 60.185162 -0.000015 0.542647
336.854736 71.780212 0.000032 0.537745
331.924347 76.757980 0.000013 0.549265
329.178284 79.530441 0.000014 0.520221
327.425171 81.300430 0.000017 0.531250
326.206665 82.530624 0.000019 0.515686
325.308960 83.436974 0.000016 0.568137
358.499512 49.376343 15.912525 0.678431
358.374603 49.504223 13.957295 0.440931
358.374603 49.504223 12.073668 0.395956
358.374603 49.504223 10.212350 0.407476
358.499512 49.376350 8.389582 0.673774
358.374603 49.504223 6.539519 0.404167
358.374603 49.504223 4.719818 0.393995
358.374603 49.504223 2.905958 0.410294
358.374603 49.504223 1.094042 0.390931
348.136749 59.985855 -0.000015 0.534314
336.733368 71.660782 0.000030 0.537255
331.837830 76.672859 0.000010 0.505392
329.111176 79.464455 0.000017 0.559314
327.370422 81.246628 0.000020 0.531863
326.160583 82.485306 0.000022 0.559436
325.269196 83.397903 0.000024 0.514828
357.873047 49.467823 15.786819 0.500490
357.837982 49.504219 13.876601 0.391667
357.837982 49.504219 12.005685 0.400858
357.837982 49.504223 10.156926 0.449877
357.873047 49.467823 8.331850 0.490931
357.837982 49.504215 6.508885 0.371078
357.837982 49.504223 4.701462 0.407843
357.837982 49.504223 2.899844 0.408211
357.837982 49.504223 1.100156 0.413848
347.932709 59.787975 -0.000015 0.536887
336.611145 71.542206 0.000028 0.551593
331.750702 76.588371 0.000012 0.533088
329.043579 79.398926 0.000019 0.509559
327.315338 81.193207 0.000022 0.518015
326.114227 82.440239 0.000004 0.550000
325.229187 83.359100 0.000025 0.485294
357.426147 49.380390 15.725269 0.673162
357.355774 49.454453 13.812384 0.512745
357.308502 49.504223 11.939092 0.389706
357.308502 49.504223 10.102637 0.421814
357.426147 49.380390 8.303581 0.678431
357.366882 49.442795 6.485822 0.313358
357.308502 49.504219 4.683483 0.427574
357.308502 49.504223 2.893855 0.402206
357.308502 49.504223 1.106145 0.371814
347.727356 59.591522 -0.000015 0.534804
336.488068 71.424538 0.000031 0.542034
331.662872 76.504631 0.000036 0.531740
328.975586 79.333862 0.000017 0.525123
327.259888 81.140182 0.000024 0.534191
326.067505 82.395569 0.000008 0.532475
325.188965 83.320518 0.000006 0.563235
356.820129 49.467815 15.605180 0.514828
356.820129 49.467812 13.730902 0.499755
356.786011 49.504219 11.873861 0.405760
356.786011 49.504219 10.049459 0.388603
356.820129 49.467819 8.248428 0.460049
356.820129 49.467815 6.453569 0.490686
356.786011 49.504219 4.665871 0.428309
356.786011 49.504219 2.887990 0.364461
356.786011 49.504219 1.112011 0.373529
347.520599 59.396507 -0.000015 0.532843
336.364136 71.307739 0.000035 0.531863
331.574524 76.421387 0.000040 0.511520
328.907074 79.269318 0.000027 0.550980
327.204041 81.087570 0.000034 0.518873
326.020447 82.351234 0.000015 0.560662
325.148346 83.282310 0.000019 0.593873
356.381073 49.384312 15.545598 0.678431
356.381073 49.384308 13.679526 0.678431
356.270325 49.504227 11.809952 0.429902
356.270325 49.504223 9.997362 0.435172
356.381073 49.384308 8.221064 0.678431
356.381073 49.384308 6.434065 0.678431
356.270325 49.504219 4.648616 0.440809
356.270325 49.504223 2.882242 0.419853
356.270325 49.504223 1.117758 0.398284
347.312500 59.202934 -0.000015 0.536274
336.239655 71.191559 0.000012 0.537745
331.485809 76.338593 0.000020 0.543995
328.838257 79.205101 0.000004 0.536887
327.147919 81.035217 0.000010 0.537990
325.973083 82.307205 0.000017 0.564338
325.107544 83.244347 0.000018 0.496691
355.761230 49.504219 15.418516 0.411397
355.794403 49.467823 13.580585 0.486520
355.761230 49.504215 11.747341 0.400368
355.761230 49.504223 9.946316 0.381863
355.794403 49.467823 8.168364 0.480515
355.794403 49.467819 6.396502 0.487010
355.761230 49.504223 4.631710 0.401225
355.761230 49.504219 2.876610 0.396814
355.761230 49.504219 1.123390 0.406863
347.103058 59.010807 -0.000017 0.532598
336.114105 71.076492 0.000016 0.548039
331.396301 76.256592 0.000025 0.542770
328.768829 79.141510 0.000010 0.537990
327.091370 80.983360 0.000014 0.534926
325.925415 82.263535 0.000024 0.552451
325.066498 83.206635 0.000006 0.536274
355.258575 49.504215 15.334061 0.411887
355.362762 49.388199 13.530811 0.678431
355.258575 49.504223 11.685989 0.382598
355.258575 49.504219 9.896301 0.369608
355.258575 49.504215 8.123913 0.342647
355.362762 49.388203 6.377606 0.678431
355.258575 49.504223 4.615147 0.434436
355.258545 49.504227 2.871093 0.357353
355.258545 49.504227 1.128907 0.407598
346.892212 58.820168 -0.000016 0.543750
335.987823 70.962265 0.000014 0.539093
331.306305 76.175186 0.000026 0.545588
328.699036 79.078362 0.000010 0.562990
327.034424 80.931908 0.000019 0.550735
325.877502 82.220184 0.000026 0.594608
325.025146 83.169258 0.000012 0.516667
354.762177 49.504219 15.251301 0.408088
354.794403 49.467827 13.436272 0.498407
354.762177 49.504219 11.625875 0.376838
354.762177 49.504211 9.847296 0.397426
354.762177 49.504223 8.085904 0.423039
354.794403 49.467827 6.341714 0.480392
354.762177 49.504219 4.598916 0.403676
354.762177 49.504219 2.865687 0.409804
354.762177 49.504219 1.134314 0.404779
346.680115 58.630997 -0.000016 0.536274
335.860657 70.848999 0.000023 0.544485
331.215637 76.094460 0.000034 0.515564
328.628754 79.015770 0.000020 0.538113
326.977142 80.880875 0.000027 0.548162
325.829224 82.177185 0.000035 0.507353
324.983521 83.132187 0.000022 0.560294
354.271881 49.504215 15.170204 0.440441
354.369934 49.391888 13.388055 0.678431
354.271851 49.504227 11.566961 0.358701
354.271881 49.504219 9.799269 0.385417
354.271881 49.504219 8.048658 0.402083
354.369965 49.391880 6.323410 0.678431
354.271881 49.504223 4.583010 0.384804
354.271881 49.504219 2.860388 0.372794
354.271881 49.504219 1.139611 0.397304
346.466675 58.443317 -0.000016 0.539583
335.732788 70.736595 0.000027 0.546078
331.124481 76.014351 0.000040 0.527696
328.558014 78.953651 0.000028 0.513603
326.919495 80.830223 0.000034 0.549877
325.780640 82.134529 0.000044 0.579534
324.941650 83.095406 0.000029 0.508088
353.787537 49.504219 15.090724 0.406618
353.818878 49.467827 13.297688 0.505515
353.787537 49.504219 11.509230 0.388235
353.787537 49.504219 9.752203 0.405270
353.787537 49.504219 8.012155 0.398162
353.818848 49.467831 6.289102 0.471324
353.787537 49.504219 4.567423 0.380882
353.787537 49.504219 2.855196 0.413358
353.787537 49.504219 1.144803 0.414338
346.251923 58.257160 -0.000015 0.540074
335.604034 70.625153 0.000039 0.536642
331.032715 75.934914 0.000051 0.532598
328.486877 78.892021 0.000033 0.528922
326.861572 80.779915 0.000023 0.540931
325.731812 82.092133 0.000030 0.535662
324.899567 83.058838 0.000014 0.571446
353.308960 49.504215 15.012831 0.400368
353.401245 49.395531 13.250946 0.678431
353.308960 49.504211 11.452648 0.360049
353.308960 49.504219 9.706072 0.405515
353.308960 49.504215 7.976382 0.438848
353.401245 49.395531 6.271357 0.678431
353.308960 49.504223 4.552145 0.447672
353.308960 49.504223 2.850107 0.430637
353.308960 49.504223 1.149892 0.408088
346.035889 58.072468 -0.000015 0.537623
335.474762 70.514275 0.000014 0.531985
330.940582 75.855896 0.000027 0.545343
328.415527 78.830620 -0.000012 0.526471
326.803284 80.729958 0.000001 0.542034
325.682739 82.050049 0.000009 0.563235
324.857239 83.022568 -0.000002 0.540931
352.836029 49.504219 14.936484 0.398284
352.866516 49.467823 13.164575 0.501225
352.836029 49.504219 11.397188 0.400490
352.836029 49.504223 9.660862 0.412500
352.836029 49.504219 7.941317 0.408088
352.866486 49.467831 6.238566 0.474755
352.836029 49.504219 4.537173 0.434926
352.836029 49.504223 2.845119 0.405392
352.836029 49.504227 1.154881 0.412255
345.818573 57.889301 -0.000015 0.533333
335.344543 70.404579 0.000019 0.540196
330.847900 75.777565 0.000010 0.525123
328.343506 78.770020 -0.000001 0.542525
326.744568 80.680542 0.000010 0.519240
325.633301 82.008423 0.000021 0.524632
324.814606 82.986664 0.000005 0.580760
352.368591 49.504211 14.861656 0.412500
352.455353 49.399071 13.119244 0.678431
352.464264 49.388256 11.370186 0.483456
352.368591 49.504219 9.616547 0.403554
352.368591 49.504223 7.906950 0.401593
352.455353 49.399078 6.221357 0.678431
352.368591 49.504215 4.522496 0.387377
352.368591 49.504223 2.840232 0.398652
352.368591 49.504223 1.159769 0.444853
345.599976 57.707634 -0.000016 0.535172
335.213470 70.295883 0.000033 0.530882
330.754486 75.700058 0.000021 0.539706
328.271088 78.709908 0.000008 0.561029
326.685516 80.631546 0.000020 0.498407
325.583527 81.967163 0.000035 0.504779
324.771637 82.951157 0.000040 0.560907
351.906494 49.504219 14.788297 0.402206
351.906494 49.504223 13.026555 0.388971
351.990601 49.400860 11.313789 0.678431
351.906525 49.504215 9.573111 0.421936
351.906494 49.504219 7.873261 0.382353
351.990601 49.400864 6.197093 0.678431
351.906525 49.504219 4.508110 0.401838
351.906494 49.504223 2.835439 0.331985
351.906494 49.504219 1.164560 0.425245
345.380157 57.527512 -0.000017 0.535662
335.081696 70.188019 0.000039 0.546569
330.660553 75.623199 0.000029 0.526593
328.198090 78.650452 0.000045 0.537500
326.626129 80.582970 0.000032 0.541667
325.533569 81.926125 0.000017 0.577574
324.728546 82.915794 0.000028 0.496201
351.449646 49.504215 14.716397 0.416054
351.449646 49.504219 12.964558 0.406863
351.531158 49.402580 11.261019 0.678431
351.449646 49.504223 9.530529 0.437377
351.449646 49.504219 7.840238 0.395588
351.531189 49.402573 6.173315 0.678431
351.449646 49.504223 4.494008 0.388971
351.449646 49.504223 2.830742 0.399020
351.449646 49.504223 1.169258 0.431985
345.159058 57.348869 -0.000021 0.537868
334.949188 70.081078 0.000044 0.532230
330.566101 75.546982 0.000034 0.532475
328.124847 78.591347 0.000052 0.536274
326.566498 80.534676 0.000014 0.535907
325.483215 81.885559 0.000030 0.551225
324.685150 82.880798 0.000038 0.562010
350.997894 49.504215 14.645912 0.407966
350.997864 49.504215 12.903781 0.369608
351.076874 49.404274 11.209292 0.678431
350.997864 49.504219 9.488787 0.424142
350.997864 49.504219 7.807867 0.409314
351.076904 49.404274 6.150004 0.678431
350.997864 49.504219 4.480183 0.418873
350.997864 49.504223 2.826138 0.429779
350.997864 49.504223 1.173862 0.394118
344.936737 57.171841 -0.000021 0.534681
334.816254 69.974632 0.000004 0.543260
330.471191 75.471336 0.000028 0.543505
328.051270 78.532639 0.000037 0.506740
326.506500 80.486824 0.000002 0.556740
325.432709 81.845245 0.000018 0.574265
324.641571 82.846069 0.000033 0.555392
350.551086 49.504211 14.576814 0.376471
350.551056 49.504223 12.844200 0.423652
350.627625 49.405972 11.158580 0.678431
350.551056 49.504219 9.447867 0.396936
350.551056 49.504219 7.776131 0.375735
350.627625 49.405975 6.127151 0.678431
350.551056 49.504219 4.466632 0.396201
350.551056 49.504223 2.821623 0.390809
350.551056 49.504223 1.178376 0.405270
344.713135 56.996361 -0.000021 0.537500
334.682281 69.869545 0.000008 0.536642
330.375702 75.396439 0.000033 0.550735
327.977173 78.474609 0.000052 0.531740
326.446136 80.439468 0.000007 0.517647
325.381836 81.805359 0.000026 0.562990
324.597687 82.811676 0.000041 0.548407
350.109070 49.504219 14.509067 0.410784
350.109100 49.504215 12.785791 0.404534
350.183258 49.407654 11.108864 0.678431
350.109070 49.504219 9.407751 0.396201
350.109070 49.504219 7.745019 0.404044
350.183258 49.407646 6.104748 0.678431
350.109070 49.504223 4.453344 0.395466
350.109070 49.504219 2.817198 0.426225
350.109070 49.504219 1.182802 0.420098
344.488342 56.822453 -0.000021 0.534436
334.547485 69.765465 0.000020 0.532843
330.279633 75.322281 0.000047 0.533456
327.902679 78.417068 0.000063 0.541544
326.385376 80.392609 0.000028 0.561642
325.330658 81.765854 0.000038 0.537868
324.553558 82.777611 0.000054 0.561765
349.671814 49.504219 14.442655 0.438726
349.671814 49.504219 12.728523 0.415686
349.743652 49.409317 11.060123 0.678431
349.671814 49.504215 9.368423 0.385294
349.671814 49.504215 7.714518 0.397059
349.743652 49.409317 6.082784 0.678431
349.671814 49.504219 4.440320 0.410784
349.671814 49.504223 2.812860 0.434681
349.671814 49.504223 1.187141 0.413113
344.262329 56.650116 -0.000021 0.542034
334.412201 69.662086 0.000007 0.533701
330.183197 75.248535 0.000025 0.517770
327.828003 78.359749 0.000017 0.553799
326.324402 80.345993 0.000007 0.551103
325.279297 81.726601 0.000026 0.553922
324.509369 82.743675 0.000011 0.531618
349.239136 49.504215 14.377543 0.439216
349.239136 49.504219 12.672385 0.401593
349.308746 49.410934 11.012344 0.678431
349.239136 49.504219 9.329863 0.391176
349.239136 49.504215 7.684613 0.409069
349.308746 49.410931 6.061254 0.678431
349.239136 49.504219 4.427550 0.399387
349.239136 49.504219 2.808605 0.387868
349.239136 49.504219 1.191394 0.398775
344.035126 56.479362 -0.000021 0.538971
334.276001 69.559891 0.000019 0.540196
330.086121 75.175705 0.000038 0.520588
327.752716 78.303291 0.000033 0.532230
326.263031 80.299942 0.000021 0.507108
325.227631 81.687721 0.000013 0.509191
324.464752 82.710251 0.000029 0.513603
348.810974 49.504211 14.313705 0.425490
348.810944 49.504223 12.617340 0.407353
348.837708 49.467831 10.953013 0.510662
348.810974 49.504219 9.292059 0.413971
348.810974 49.504215 7.655295 0.402328
348.837708 49.467827 6.034517 0.488480
348.810974 49.504219 4.415029 0.425735
348.810944 49.504219 2.804435 0.385172
348.810944 49.504219 1.195565 0.412500
343.806732 56.310184 -0.000022 0.538725
334.139252 69.458374 0.000002 0.544608
329.988647 75.103371 0.000024 0.517770
327.677124 78.247162 0.000016 0.553431
326.201324 80.254341 0.000035 0.521814
325.175720 81.649193 -0.000001 0.579779
324.419983 82.677025 0.000017 0.534314
348.387146 49.504211 14.251119 0.437377
348.387146 49.504219 12.563376 0.431373
348.452393 49.414158 10.919567 0.678431
348.387146 49.504219 9.254995 0.353064
348.387146 49.504223 7.626550 0.419608
348.452393 49.414154 6.019446 0.678431
348.387146 49.504223 4.402754 0.435662
348.387146 49.504223 2.800346 0.423039
348.387146 49.504223 1.199654 0.426103
343.577148 56.142635 -0.000021 0.537377
334.001617 69.358131 0.000016 0.543260
329.890564 75.031906 0.000036 0.566667
327.601013 78.191795 0.000038 0.536642
326.139343 80.209076 0.000030 0.508456
325.123474 81.611160 0.000020 0.512500
324.374908 82.644211 0.000031 0.547549
347.967621 49.504215 14.189754 0.440441
347.967621 49.504223 12.510466 0.389951
348.030762 49.415745 10.874537 0.678431
347.967621 49.504215 9.218657 0.376348
347.967621 49.504211 7.598370 0.396201
348.030762 49.415741 5.999153 0.678431
347.967590 49.504227 4.390719 0.430882
347.967621 49.504211 2.796337 0.396201
347.967621 49.504211 1.203663 0.373284
343.346436 55.976677 -0.000021 0.528186
333.863281 69.258820 0.000029 0.536887
329.792053 74.960991 0.000030 0.538480
327.524567 78.136909 0.000051 0.522917
326.076996 80.164322 0.000041 0.561765
325.070923 81.573456 0.000032 0.530025
324.329681 82.611641 0.000026 0.542279
347.552216 49.504219 14.129589 0.379167
347.552216 49.504215 12.458591 0.360294
347.613342 49.417313 10.830387 0.678431
347.552216 49.504219 9.183028 0.419363
347.552216 49.504223 7.570737 0.437255
347.613342 49.417313 5.979256 0.673774
347.552216 49.504223 4.378920 0.441054
347.552216 49.504219 2.792407 0.436520
347.552216 49.504219 1.207593 0.424020
343.114532 55.812336 -0.000021 0.542157
333.724487 69.160187 0.000011 0.542034
329.693146 74.890694 0.000013 0.520343
327.447815 78.082397 0.000036 0.529412
326.014465 80.119888 0.000027 0.560049
325.018219 81.536018 0.000017 0.544240
324.284271 82.579361 0.000010 0.521814
347.140900 49.504215 14.070601 0.407108
347.140900 49.504215 12.407729 0.419363
347.200043 49.418869 10.787099 0.678431
347.140900 49.504219 9.148094 0.370588
347.140900 49.504219 7.543646 0.400368
347.200043 49.418865 5.959749 0.678431
347.140900 49.504211 4.367352 0.404902
347.140900 49.504219 2.788553 0.403431
347.140900 49.504219 1.211446 0.415074
342.881500 55.649609 -0.000021 0.539828
333.584778 69.062836 0.000026 0.534436
329.593567 74.821289 0.000025 0.543015
327.370575 78.028580 0.000048 0.520466
325.951508 80.076027 0.000042 0.558578
324.965271 81.498947 0.000001 0.550613
324.238495 82.547493 0.000024 0.532721
346.733551 49.504223 14.012766 0.400735
346.733551 49.504215 12.357863 0.372426
346.758362 49.467823 10.734211 0.495343
346.733551 49.504219 9.113847 0.405760
346.733551 49.504219 7.517084 0.400000
346.758362 49.467831 5.935916 0.477819
346.733551 49.504223 4.356009 0.403431
346.733551 49.504219 2.784775 0.401471
346.733551 49.504219 1.215225 0.412623
342.647339 55.488544 -0.000020 0.530392
333.444580 68.966148 0.000008 0.538848
329.493622 74.752396 0.000010 0.540686
327.293213 77.974983 0.000004 0.512500
325.888336 80.032448 0.000023 0.558946
324.912018 81.462288 -0.000003 0.511152
324.192596 82.515884 0.000017 0.567157
346.330048 49.504208 13.956069 0.406863
346.330048 49.504211 12.308971 0.419608
346.385376 49.421932 10.703047 0.678431
346.330048 49.504215 9.080270 0.390686
346.330048 49.504215 7.491043 0.437745
346.385376 49.421928 5.921874 0.678431
346.330048 49.504211 4.344888 0.407598
346.330048 49.504223 2.781071 0.403799
346.330048 49.504223 1.218929 0.399142
342.412048 55.329086 -0.000020 0.538725
333.303528 68.870743 0.000021 0.539951
329.393097 74.684395 0.000022 0.535662
327.215271 77.922241 0.000015 0.523652
325.824738 79.989525 0.000050 0.574387
324.858490 81.426064 0.000009 0.529902
324.146515 82.484558 0.000004 0.555025
345.930328 49.504219 13.900475 0.413848
345.930328 49.504219 12.261038 0.405515
345.983826 49.423447 10.662250 0.678431
345.930328 49.504223 9.047348 0.435294
345.930328 49.504223 7.465511 0.419608
345.983826 49.423450 5.903488 0.678431
345.930328 49.504227 4.333984 0.416422
345.930328 49.504223 2.777438 0.402696
345.930328 49.504227 1.222561 0.388235
342.175690 55.171272 -0.000021 0.531618
333.162018 68.776016 0.000003 0.545221
329.292267 74.616898 0.000008 0.520588
327.136963 77.869949 0.000011 0.565074
325.761047 79.946701 0.000004 0.546936
324.804657 81.390244 0.000027 0.551225
324.100159 82.453560 -0.000013 0.579657
345.694946 49.257961 13.919626 0.399020
345.694946 49.257957 12.277553 0.394118
345.774963 49.135357 10.685171 0.678431
345.694946 49.257957 9.058688 0.413848
345.694946 49.257961 7.474308 0.428431
345.774963 49.135353 5.913819 0.678431
345.694946 49.257957 4.337741 0.379534
345.694946 49.257957 2.778691 0.399510
345.694946 49.257957 1.221309 0.415931
341.938202 55.015133 -0.000021 0.537990
333.019592 68.682709 0.000027 0.549020
329.190796 74.550301 0.000020 0.544608
327.058289 77.818306 0.000023 0.572059
325.696899 79.904602 0.000018 0.551961
324.750610 81.354774 0.000041 0.508333
324.053558 82.422981 0.000002 0.540319
345.694946 48.643463 14.048828 0.398529
345.694977 48.643463 12.388953 0.395343
345.774963 48.518970 10.779312 0.678431
345.694946 48.643463 9.135201 0.395466
345.694977 48.643463 7.533645 0.441422
345.774963 48.518967 5.956241 0.678431
345.694946 48.643467 4.363081 0.400490
345.694946 48.643467 2.787131 0.401961
345.694946 48.643467 1.212870 0.389583
341.699615 54.860653 -0.000020 0.528922
332.876678 68.590141 0.000026 0.541054
329.088898 74.484329 0.000019 0.545833
326.979279 77.767151 0.000024 0.552328
325.632507 79.862892 0.000017 0.524510
324.696320 81.319641 0.000042 0.491544
324.006775 82.392715 0.000011 0.513480
345.694977 48.015465 14.181459 0.410172
345.694977 48.015472 12.503311 0.430147
345.774963 47.889038 10.875955 0.678431
345.694977 48.015461 9.213745 0.427941
345.694977 48.015469 7.594560 0.401593
345.774963 47.889038 5.999790 0.678431
345.694977 48.015469 4.389092 0.405392
345.694977 48.015469 2.795796 0.410539
345.694977 48.015469 1.204204 0.402083
341.459991 54.707825 -0.000021 0.537500
332.733032 68.498718 0.000039 0.515196
328.986450 74.419266 0.000045 0.540931
326.899872 77.716614 0.000037 0.533946
325.567749 79.821701 0.000031 0.526471
324.641846 81.284859 0.000036 0.553554
323.959717 82.362793 0.000026 0.549265
345.694977 47.373455 14.317652 0.376348
345.694977 47.373463 12.620743 0.394730
345.720581 47.332344 10.956476 0.459191
345.694977 47.373451 9.294396 0.414706
345.694977 47.373463 7.657106 0.423284
345.720581 47.332355 6.036075 0.424877
345.694977 47.373459 4.415804 0.400980
345.694977 47.373463 2.804693 0.400490
345.694977 47.373463 1.195308 0.417525
341.219299 54.556683 -0.000021 0.535294
332.588898 68.408043 0.000028 0.544363
328.883698 74.354622 0.000032 0.543382
326.820190 77.666489 0.000026 0.539951
325.502747 79.780899 0.000033 0.492034
324.587097 81.250450 0.000027 0.583211
323.912537 82.333115 0.000015 0.511029
345.694977 46.716900 14.457536 0.402451
345.694977 46.716900 12.741360 0.399510
345.774963 46.586487 11.077113 0.678431
345.694977 46.716904 9.377234 0.381127
345.694977 46.716900 7.721352 0.379412
345.774963 46.586479 6.090442 0.678431
345.694977 46.716915 4.443238 0.429902
345.694977 46.716908 2.813832 0.437010
345.694977 46.716908 1.186169 0.428922
340.977539 54.407230 -0.000021 0.535907
332.444153 68.318314 0.000010 0.523284
328.780426 74.290909 0.000046 0.528799
326.740082 77.617081 0.000040 0.554779
325.437439 79.740601 0.000044 0.547059
324.532104 81.216507 0.000041 0.525245
323.865112 82.303848 0.000029 0.573529
345.694977 46.045227 14.601256 0.384069
345.694946 46.045231 12.865280 0.393995
345.774994 45.912746 11.181836 0.678431
345.694977 46.045227 9.462345 0.418505
345.694977 46.045227 7.787359 0.422181
345.774994 45.912743 6.137631 0.678431
345.694946 46.045238 4.471425 0.395221
345.694946 46.045235 2.823220 0.393137
345.694946 46.045235 1.176780 0.408701
340.734772 54.259457 -0.000021 0.535784
332.298767 68.229652 -0.000002 0.530760
328.676941 74.227486 0.000003 0.534804
326.659698 77.568077 0.000028 0.536887
325.371948 79.700661 0.000033 0.525613
324.476898 81.182838 0.000027 0.561887
323.817474 82.274887 0.000034 0.587010
345.694977 45.357849 14.748958 0.399265
345.694977 45.357849 12.992634 0.399142
345.774963 45.223259 11.289457 0.678431
345.694977 45.357853 9.549812 0.408701
345.694977 45.357853 7.855194 0.388480
345.774963 45.223255 6.186128 0.678431
345.694977 45.357853 4.500393 0.401716
345.694977 45.357849 2.832869 0.404902
345.694977 45.357849 1.167130 0.403186
340.490967 54.113388 -0.000021 0.538848
332.152618 68.142281 0.000011 0.544608
328.572754 74.165207 0.000016 0.516299
326.578979 77.519669 0.000023 0.522917
325.306061 79.661293 0.000049 0.523039
324.421387 81.149727 0.000054 0.561275
323.769623 82.246284 0.000047 0.567157
345.694977 44.654118 14.900804 0.425980
345.774994 44.517361 13.157779 0.678431
345.694977 44.654121 11.371268 0.403431
345.694946 44.654125 9.639731 0.412377
345.694946 44.654121 7.924931 0.383701
345.774994 44.517357 6.235987 0.674142
345.694946 44.654125 4.530173 0.420466
345.694946 44.654129 2.842790 0.435539
345.694946 44.654129 1.157211 0.411520
340.246124 53.969040 -0.000020 0.538603
332.006012 68.055641 -0.000003 0.532966
328.468292 74.103455 0.000003 0.525613
326.497925 77.471786 0.000010 0.547917
325.240082 79.622116 0.000005 0.552696
324.365753 81.116852 0.000044 0.567770
323.721619 82.217941 0.000038 0.474387
345.694977 43.933399 15.056952 0.348529
345.774963 43.794430 13.292828 0.678431
345.694977 43.933407 11.484695 0.407353
345.694977 43.933388 9.732203 0.405392
345.694977 43.933399 7.996644 0.395466
345.774963 43.794426 6.287258 0.678431
345.694977 43.933407 4.560800 0.400490
345.694977 43.933399 2.852991 0.401593
345.694977 43.933399 1.147010 0.404167
340.000305 53.826378 -0.000021 0.540441
331.858856 67.969963 -0.000023 0.539093
328.363373 74.042404 -0.000016 0.525368
326.416595 77.424438 -0.000008 0.539093
325.173767 79.583504 -0.000015 0.545833
324.309845 81.084335 0.000027 0.520711
323.673462 82.189911 0.000020 0.535417
345.694977 43.194981 15.217576 0.398652
345.774994 43.053726 13.431751 0.678431
345.694977 43.194973 11.601377 0.405147
345.694977 43.194977 9.827322 0.421078
345.694977 43.194977 8.070415 0.397426
345.774994 43.053730 6.339999 0.678431
345.694977 43.194977 4.592302 0.416667
345.694977 43.194981 2.863482 0.424020
345.694977 43.194984 1.136517 0.414216
339.753510 53.685444 -0.000021 0.532966
331.710876 67.885750 -0.000002 0.532353
328.257904 73.982376 0.000004 0.538971
326.334778 77.377884 0.000013 0.529289
325.107025 79.545624 0.000022 0.514338
324.253662 81.052353 0.000045 0.514216
323.625000 82.162376 0.000051 0.500613
345.694946 42.438129 15.382861 0.360662
345.720581 42.392181 13.550570 0.478922
345.694946 42.438129 11.721439 0.386520
345.694946 42.438129 9.925203 0.417279
345.694946 42.438129 8.146325 0.394363
345.720581 42.392181 6.385107 0.460294
345.694946 42.438126 4.624718 0.426838
345.694946 42.438137 2.874282 0.411642
345.694946 42.438137 1.125718 0.429167
339.505707 53.546246 -0.000021 0.531618
331.562378 67.802353 -0.000002 0.532966
328.152069 73.922935 0.000005 0.539583
326.252716 77.331779 0.000013 0.523775
325.040161 79.508034 0.000021 0.538848
324.197388 81.020569 0.000015 0.525000
323.576385 82.135086 0.000054 0.575735
345.774963 41.516098 15.594700 0.678431
345.774963 41.516098 13.721864 0.678431
345.694977 41.662056 11.845038 0.362990
345.694977 41.662064 10.025961 0.378186
345.774963 41.516109 8.243615 0.678431
345.774963 41.516102 6.450138 0.678431
345.694977 41.662064 4.658087 0.409926
345.694977 41.662067 2.885396 0.404534
345.694977 41.662067 1.114604 0.418750
339.256927 53.408764 -0.000021 0.537010
331.413422 67.719841 -0.000015 0.532475
328.045929 73.864120 -0.000009 0.540564
326.170380 77.286171 0.000000 0.527819
324.973022 79.470871 0.000009 0.528186
324.140808 80.989235 0.000000 0.547181
323.527710 82.107964 0.000008 0.504534
345.774994 40.717564 15.770440 0.678431
345.694977 40.865967 13.836984 0.403676
345.694977 40.865974 11.972305 0.413113
345.694977 40.865978 10.129715 0.395466
345.774994 40.717567 8.324327 0.678431
345.694977 40.865971 6.493844 0.433211
345.694977 40.865974 4.692449 0.399877
345.694977 40.865974 2.896843 0.404534
345.694977 40.865974 1.103158 0.395221
339.007202 53.273048 -0.000021 0.535784
331.263733 67.638664 -0.000001 0.531863
327.939209 73.806282 0.000006 0.538725
326.087646 77.241310 0.000014 0.528799
324.905548 79.434288 0.000023 0.537745
324.083954 80.958496 0.000032 0.561152
323.478668 82.081398 0.000022 0.578554
345.774963 39.898075 15.951474 0.678799
345.694977 40.048988 13.992597 0.386152
345.694977 40.048988 12.103409 0.408333
345.694977 40.048992 10.236592 0.408211
345.774963 39.898079 8.407471 0.678431
345.694946 40.049000 6.552921 0.445221
345.694977 40.048992 4.727846 0.385662
345.694977 40.048996 2.908633 0.401838
345.694977 40.049000 1.091367 0.412132
338.756531 53.139053 -0.000020 0.532721
331.113281 67.558937 0.000049 0.558211
327.832245 73.748955 -0.000008 0.520343
326.004669 77.196846 0.000000 0.528554
324.837921 79.398048 0.000009 0.525123
324.026978 80.927963 0.000019 0.550000
323.429535 82.055077 0.000011 0.580760
345.774963 39.056713 16.138027 0.678431
345.694977 39.210217 14.152954 0.422059
345.694977 39.210213 12.238504 0.436642
345.694977 39.210224 10.346726 0.441544
345.774963 39.056713 8.493149 0.678431
345.694977 39.210220 6.613799 0.437010
345.694977 39.210209 4.764322 0.422549
345.694977 39.210220 2.920782 0.399510
345.694977 39.210217 1.079217 0.381618
338.504974 53.006817 -0.000021 0.538235
330.962402 67.479942 0.000071 0.528309
327.724701 73.692650 0.000013 0.514828
325.921234 77.153290 0.000038 0.535417
324.769928 79.362450 0.000029 0.509681
323.969696 80.897957 0.000036 0.515441
323.380127 82.029274 0.000048 0.500858
345.694977 38.348637 16.286400 0.409681
345.694977 38.348633 14.318277 0.416789
345.694977 38.348625 12.377783 0.395221
345.694977 38.348640 10.460269 0.439216
345.774963 38.192493 8.581474 0.678431
345.694977 38.348633 6.676563 0.410294
345.694977 38.348637 4.801926 0.390809
345.694977 38.348637 2.933309 0.403554
345.694977 38.348640 1.066692 0.411887
338.252472 52.876350 -0.000021 0.534069
330.811127 67.401802 0.000072 0.527696
327.616821 73.637077 0.000031 0.542525
325.837585 77.110100 0.000041 0.540074
324.701752 79.327232 0.000031 0.513726
323.912262 80.868309 0.000043 0.526838
323.330597 82.003693 0.000050 0.504167
345.694977 37.463272 16.484133 0.422059
345.694977 37.463264 14.488770 0.408946
345.694977 37.463272 12.521416 0.412132
345.722656 37.408253 10.586502 0.424387
345.722656 37.408257 8.659190 0.398039
345.694977 37.463264 6.741289 0.405882
345.694977 37.463264 4.840706 0.395466
345.694977 37.463268 2.946227 0.410784
345.694977 37.463268 1.053775 0.405147
337.999084 52.747646 -0.000021 0.536274
330.659760 67.323799 -0.000010 0.535049
327.508667 73.582001 0.000017 0.538603
325.753693 77.067383 0.000026 0.544485
324.633331 79.292496 0.000035 0.542402
323.854675 80.838982 0.000029 0.546569
323.280945 81.978401 0.000037 0.574632
353.989441 19.789545 21.373064 0.431127
354.000549 19.767069 18.709602 0.438480
354.000549 19.767061 16.077345 0.470343
354.000549 19.767069 13.476264 0.470343
354.000549 19.767076 10.900319 0.470343
354.000549 19.767069 8.343704 0.455637
354.000549 19.767084 5.800780 0.434926
353.989441 19.789545 3.265611 0.419240
353.989441 19.789553 0.734389 0.407966
337.744751 52.620705 -0.000021 0.539951
330.507416 67.247742 -0.000010 0.542034
327.400116 73.527687 0.000003 0.514583
325.669525 77.025269 0.000013 0.550735
324.564697 79.258171 0.000023 0.535662
323.796906 80.809967 -0.000005 0.520343
323.231079 81.953468 0.000026 0.531373
353.389069 19.789543 21.306843 0.399632
353.427979 19.709536 18.666304 0.431005
353.427948 19.709536 16.040865 0.678431
353.427979 19.709528 13.446525 0.678431
353.427948 19.709551 10.877254 0.679779
353.427948 19.709553 8.327267 0.678431
353.427948 19.709543 5.790930 0.678431
353.389038 19.789551 3.261284 0.392770
353.389038 19.789558 0.738714 0.390441
337.489594 52.495552 -0.000021 0.538480
330.354492 67.172760 -0.000010 0.524020
327.291077 73.474403 0.000024 0.539951
325.584961 76.983940 0.000033 0.552328
324.495850 79.224312 0.000008 0.506005
323.738800 80.781586 0.000017 0.525368
323.181061 81.928871 0.000010 0.561275
352.792755 19.789543 21.242010 0.431127
352.830963 19.709538 18.610334 0.678431
352.830963 19.709538 15.993714 0.678431
352.830963 19.709553 13.408082 0.678431
352.830963 19.709538 10.847446 0.677328
352.830963 19.709545 8.306017 0.678431
352.830963 19.709545 5.778200 0.651471
352.792755 19.789543 3.257049 0.404534
352.792755 19.789543 0.742950 0.415931
337.233551 52.372177 -0.000021 0.536397
330.201080 67.098846 -0.000010 0.553186
327.181915 73.421318 -0.000027 0.591054
325.500214 76.942986 0.000017 0.538235
324.426758 79.190910 -0.000009 0.544363
323.680573 80.753464 0.000000 0.553431
323.130859 81.904686 0.000013 0.538603
352.200409 19.789539 21.178541 0.413358
352.237946 19.709534 18.555548 0.678431
352.237946 19.709534 15.947556 0.678431
352.237946 19.709541 13.370457 0.678922
352.237946 19.709549 10.818259 0.677328
352.237946 19.709526 8.285219 0.678431
352.237946 19.709534 5.765738 0.651593
352.200409 19.789539 3.252904 0.412868
352.200409 19.789547 0.747096 0.407966
336.976654 52.250622 -0.000021 0.538358
330.047180 67.026016 -0.000009 0.541544
327.072205 73.369431 -0.000024 0.519730
325.415222 76.902534 -0.000014 0.542279
324.357391 79.158112 -0.000004 0.550858
323.622162 80.725830 0.000005 0.565809
323.080444 81.880859 0.000017 0.576961
351.648804 19.709524 21.138483 0.628309
351.648804 19.709539 18.501921 0.678431
351.648804 19.709539 15.902375 0.678431
351.648804 19.709539 13.333623 0.677696
351.648804 19.709539 10.789699 0.678431
351.648804 19.709547 8.264858 0.678431
351.648804 19.709517 5.753542 0.651716
351.611938 19.789551 3.248846 0.396446
351.611938 19.789551 0.751154 0.401961
336.718903 52.130821 -0.000021 0.532353
329.892761 66.954231 -0.000010 0.529902
326.962036 73.318443 -0.000003 0.520588
325.329834 76.862984 0.000005 0.525858
324.287750 79.125877 0.000016 0.542647
323.563477 80.698669 0.000027 0.543873
323.029877 81.857437 0.000037 0.522181
351.063416 19.709526 21.077616 0.678431
351.063416 19.709534 18.449436 0.678431
351.063416 19.709534 15.858162 0.678431
351.063416 19.709534 13.297580 0.677696
351.063416 19.709526 10.761745 0.678431
351.063416 19.709526 8.244935 0.678431
351.063416 19.709534 5.741604 0.651838
351.027252 19.789553 3.244872 0.369608
351.027252 19.789553 0.755126 0.358456
336.460327 52.012848 -0.000021 0.538725
329.737823 66.883545 -0.000011 0.540564
326.851685 73.267944 -0.000018 0.533333
325.244202 76.823814 -0.000010 0.526593
324.217957 79.093956 0.000002 0.540074
323.504700 80.671776 0.000012 0.563725
322.979187 81.834251 0.000024 0.528554
350.481750 19.709538 21.018051 0.678431
350.481750 19.709530 18.398085 0.678431
350.481750 19.709538 15.814898 0.680270
350.481750 19.709538 13.262311 0.678309
350.481750 19.709530 10.734389 0.678431
350.481750 19.709530 8.225439 0.678431
350.481750 19.709530 5.729924 0.651961
350.446228 19.789539 3.240987 0.396569
350.446228 19.789547 0.759014 0.387868
336.200928 51.896675 -0.000021 0.536274
329.582428 66.813942 -0.000010 0.540564
326.740753 73.218658 0.000023 0.524265
325.158264 76.785408 0.000000 0.534191
324.147919 79.062637 0.000013 0.541667
323.445740 80.645309 0.000002 0.508088
322.928345 81.811424 0.000012 0.534191
349.878571 19.767080 20.944069 0.480882
349.878571 19.767073 18.334295 0.480760
349.878571 19.767073 15.761155 0.515931
349.878571 19.767073 13.218499 0.515931
349.878571 19.767080 10.700411 0.515931
349.878571 19.767080 8.201221 0.480760
349.868805 19.789539 5.714209 0.439093
349.868805 19.789547 3.237185 0.406250
349.868805 19.789547 0.762815 0.384069
335.940735 51.782322 -0.000020 0.531618
329.426514 66.745415 -0.000011 0.531985
326.629700 73.169693 0.000007 0.551838
325.072174 76.747429 -0.000016 0.525613
324.077698 79.031685 -0.000003 0.580024
323.386536 80.619316 0.000006 0.525613
322.877319 81.788940 -0.000002 0.562623
349.329041 19.709541 20.902798 0.678431
349.329041 19.709526 18.298710 0.678431
349.329041 19.709549 15.731177 0.677574
349.329041 19.709541 13.194057 0.678431
349.329041 19.709534 10.681458 0.678431
349.329041 19.709534 8.187710 0.528064
349.294861 19.789549 5.703044 0.404167
349.294861 19.789549 3.233468 0.395466
349.294861 19.789557 0.766534 0.404534
335.679749 51.669777 -0.000020 0.532230
329.270142 66.677994 -0.000010 0.535294
326.518127 73.121986 0.000050 0.535662
324.985596 76.710434 0.000028 0.540319
324.007141 79.001503 0.000037 0.525245
323.327057 80.593895 0.000048 0.576716
322.826050 81.767082 0.000056 0.537377
348.757874 19.709547 20.847063 0.678431
348.757874 19.709532 18.250654 0.678431
348.757874 19.709539 15.690694 0.678431
348.757874 19.709547 13.161049 0.678431
348.757874 19.709532 10.655861 0.677451
348.757874 19.709539 8.169468 0.528799
348.724335 19.789545 5.692126 0.393260
348.724335 19.789537 3.229828 0.400000
348.724335 19.789537 0.770170 0.394240
335.417969 51.559067 -0.000020 0.536029
329.113342 66.611664 -0.000010 0.536029
326.406403 73.074577 0.000034 0.550000
324.898956 76.673668 0.000012 0.551348
323.936523 78.971527 0.000021 0.551961
323.267548 80.568649 0.000033 0.540196
322.774719 81.745316 0.000041 0.548407
348.190002 19.709541 20.792574 0.678431
348.190002 19.709534 18.203669 0.679779
348.190002 19.709534 15.651108 0.678431
348.190033 19.709526 13.128785 0.678431
