# This PCD file was generated using the MATLABÂ® pcwrite function
# from Computer Vision ToolboxÂ®.
# .PCD v.7 - Point Cloud Data file format
VERSION .7
FIELDS x y z intensity
SIZE 4 4 4 4
TYPE F F F F
COUNT 1 1 1 1
WIDTH 1281
HEIGHT 1
VIEWPOINT 0 0 0 1 0 0 0
POINTS 1281
DATA ascii
266.788849 91.463104 2.203863 0.506373
273.007355 48.492733 1.085648 0.722917
270.835358 63.501389 -0.000007 0.534559
268.498016 79.652657 0.000006 0.541544
267.494537 86.586784 -0.000005 0.535784
266.935608 90.448891 0.000007 0.545466
266.578827 92.914482 0.000015 0.526103
266.330811 94.628075 0.000004 0.541544
266.148102 95.890663 0.000015 0.528309
266.664581 91.728172 5.050489 0.499265
266.816162 90.626602 4.870406 0.512255
266.588684 92.279839 4.114581 0.511275
266.683319 91.592003 3.826860 0.506985
266.795013 90.780296 3.511065 0.522794
266.667023 91.710533 3.000018 0.501961
266.642609 91.887802 2.590363 0.521201
273.007355 45.631054 2.960720 0.718627
273.007355 45.631054 1.039280 0.731373
270.553925 63.461712 -0.000004 0.538235
268.329376 79.628883 0.000009 0.526471
267.374359 86.569893 0.000003 0.544118
266.842407 90.435745 0.000010 0.521078
266.502838 92.903778 0.000018 0.506127
266.266815 94.619080 0.000012 0.550735
266.092896 95.882881 0.000016 0.515564
266.582977 91.696472 5.055643 0.513848
266.557404 91.892326 4.592033 0.509681
266.512756 92.234596 4.120905 0.506985
266.507263 92.276527 3.722752 0.507108
266.621399 91.401962 3.437528 0.515074
266.606598 91.515450 3.015214 0.514951
266.569519 91.799614 2.594179 0.508333
273.007324 42.463379 3.012096 0.726961
273.065430 42.018204 0.980556 0.727941
270.272278 63.423672 -0.000018 0.531005
268.160614 79.606087 -0.000005 0.543873
267.254059 86.553642 -0.000011 0.532353
266.749146 90.423149 -0.000004 0.519363
266.426788 92.893433 -0.000009 0.526103
266.202728 94.610420 -0.000003 0.538603
266.037689 95.875443 0.000007 0.563848
266.500580 91.668922 5.059891 0.548774
266.475677 91.870804 4.594419 0.501593
266.451416 92.067154 4.149724 0.505515
266.428040 92.256790 3.724175 0.509436
266.619080 90.708595 3.516626 0.508088
266.480927 91.828217 2.988475 0.517524
266.491882 91.739288 2.596639 0.501103
266.466156 91.947861 2.195299 0.515564
273.065430 38.466885 0.922905 0.717525
269.990295 63.387947 -0.000015 0.536520
267.991699 79.584679 -0.000003 0.527819
267.133667 86.538376 -0.000009 0.535294
266.655731 90.411331 0.000001 0.531740
266.350647 92.883781 -0.000006 0.537745
266.138611 94.602303 0.000002 0.574877
265.982361 95.868431 0.000009 0.520588
266.417938 91.641304 5.064297 0.505882
266.393982 91.847069 4.597412 0.511275
266.353394 92.195992 4.124325 0.547672
266.348663 92.236969 3.725693 0.508824
266.527435 90.699738 3.516384 0.512990
266.360382 92.135994 2.962242 0.498529
266.405334 91.749290 2.595645 0.573284
266.486664 91.050209 2.209923 0.504779
273.065460 34.489594 0.858283 0.731740
269.708099 63.354221 -0.000011 0.538848
267.822601 79.564476 0.000002 0.529044
267.013153 86.523979 -0.000003 0.525980
266.562286 90.400146 0.000003 0.532721
266.274475 92.874680 -0.000001 0.519363
266.074402 94.594635 0.000006 0.507475
265.927032 95.861809 0.000014 0.538848
266.342529 91.545097 5.086126 0.510417
266.312286 91.821999 4.600814 0.512623
266.290375 92.022522 4.154406 0.504044
266.269470 92.213768 3.727796 0.511152
266.383484 91.170128 3.460753 0.506127
266.343109 91.539673 3.010671 0.507721
266.346741 91.506401 2.607180 0.505270
266.297028 91.961517 2.194757 0.515074
273.065430 30.004347 0.785350 0.733211
269.425659 63.322441 -0.000007 0.533701
267.653412 79.545448 0.000007 0.527819
266.892517 86.510422 0.000001 0.538971
266.468750 90.389626 0.000008 0.562010
266.198212 92.866096 0.000002 0.525368
266.010162 94.587410 0.000011 0.490074
265.871643 95.855583 0.000019 0.540196
266.250854 91.596176 5.070987 0.514706
266.306335 91.053040 4.765841 0.505882
266.209839 91.997475 4.157396 0.514216
266.190430 92.187485 3.730441 0.505882
266.293549 91.178421 3.458717 0.512377
266.215027 91.946930 2.976359 0.505515
266.233673 91.764282 2.593997 0.492770
266.212555 91.970810 2.194460 0.509314
273.065430 24.906715 0.702393 0.712990
269.143005 63.292660 -0.000002 0.537010
267.484039 79.527603 0.000011 0.531495
266.771820 86.497696 0.000005 0.526471
266.375153 90.379677 -0.000001 0.537500
266.121918 92.858055 0.000006 0.523407
265.945892 94.580627 0.000015 0.517402
265.816193 95.849739 0.000023 0.552941
266.168854 91.554214 5.079433 0.511275
266.063629 92.660492 4.415190 0.511029
266.116333 92.106354 4.136012 0.506373
266.110565 92.167160 3.732278 0.551471
266.204193 91.182594 3.457231 0.496936
266.139832 91.859383 2.982897 0.513235
266.145264 91.802315 2.591711 0.505637
266.128357 91.980171 2.194173 0.501225
273.065430 19.061476 0.607205 0.712623
268.860199 63.264423 -0.000018 0.536887
267.314636 79.510681 -0.000005 0.543015
266.651062 86.485626 -0.000012 0.531005
266.281464 90.370316 -0.000018 0.547672
266.045532 92.850418 -0.000013 0.534681
265.881531 94.574196 -0.000004 0.552083
265.760712 95.844215 0.000008 0.550858
266.085541 91.522011 5.085561 0.505882
266.152039 90.767143 4.824156 0.509314
266.035858 92.086098 4.138344 0.502328
266.098572 91.374290 3.849236 0.505270
266.115021 91.187241 3.455762 0.503431
266.063690 91.770088 2.989619 0.506985
266.062469 91.783836 2.592244 0.511520
266.277466 89.343452 2.237362 0.505760
nan nan nan 0.000000
268.577148 63.238583 -0.000014 0.537868
267.145050 79.495193 -0.000001 0.527328
266.530182 86.474602 -0.000007 0.530025
266.187744 90.361771 -0.000012 0.549142
265.969116 92.843452 -0.000006 0.546078
265.817169 94.568268 -0.000011 0.556495
265.705231 95.839081 -0.000004 0.511520
266.049225 90.905899 5.238573 0.524632
266.016418 91.310135 4.704828 0.492892
265.969055 91.894844 4.171996 0.524265
266.013794 91.342552 3.852868 0.516789
266.021118 91.252144 3.447411 0.499387
265.989319 91.644760 2.999345 0.505882
265.977234 91.793633 2.591412 0.505637
271.389252 25.030872 3.293080 0.112868
nan nan nan 0.000000
268.293945 63.214691 -0.000011 0.531618
266.975342 79.480888 0.000002 0.529412
266.409241 86.464394 -0.000004 0.540441
266.093964 90.353844 -0.000010 0.557476
265.892639 92.836998 -0.000004 0.527819
265.752777 94.562828 -0.000009 0.530270
265.649689 95.834343 -0.000013 0.535539
265.917328 91.464592 5.096494 0.505637
265.933411 91.247269 4.716980 0.508088
265.880798 91.957848 4.159325 0.505760
265.947021 91.063599 3.893357 0.507108
265.872894 92.064987 3.352862 0.518627
265.908539 91.583237 3.003862 0.581495
265.872314 92.072472 2.577356 0.507108
nan nan nan 0.000000
nan nan nan 0.000000
268.010559 63.192810 -0.000006 0.534314
266.805573 79.467796 0.000008 0.539338
266.288208 86.455078 0.000002 0.550490
266.000092 90.346611 -0.000005 0.523039
265.816132 92.831131 0.000008 0.539951
265.688293 94.557846 -0.000004 0.564093
265.594116 95.829979 -0.000026 0.529902
265.980499 89.231476 5.655592 0.506250
265.759369 92.530769 4.437810 0.506250
265.867249 90.921089 4.347331 0.510294
265.766815 92.419861 3.690791 0.505147
265.796021 91.983894 3.361546 0.507843
265.806396 91.829155 2.983158 0.543505
265.795502 91.991356 2.581065 0.513235
nan nan nan 0.000000
nan nan nan 0.000000
267.727051 63.172909 -0.000002 0.543260
266.635712 79.455872 0.000013 0.540196
266.167145 86.446548 0.000005 0.534681
265.906219 90.340019 0.000000 0.531495
265.739594 92.825768 0.000014 0.534436
265.623810 94.553337 0.000002 0.495221
265.538483 95.826332 0.000043 0.520833
nan nan nan 0.000000
265.758942 91.222885 4.719712 0.515441
265.685730 92.442680 4.068931 0.515564
265.687592 92.411438 3.691294 0.512132
265.718201 91.901497 3.370439 0.518995
265.754486 91.296860 3.026447 0.511275
265.698273 92.233551 2.568888 0.524510
nan nan nan 0.000000
nan nan nan 0.000000
267.443451 63.154549 -0.000019 0.533456
266.465759 79.444862 -0.000004 0.543260
266.046051 86.438728 -0.000010 0.539461
265.812286 90.333939 -0.000016 0.547794
265.663025 92.820801 -0.000005 0.516667
265.559296 94.549149 -0.000017 0.546078
265.482880 95.822746 0.000029 0.518995
265.602020 92.521957 4.827148 0.509314
265.605011 92.465805 4.449818 0.495956
265.706512 90.550453 4.412899 0.528309
265.691315 90.837563 3.924416 0.514461
265.647125 91.671135 3.396436 0.510172
265.639130 91.821869 2.982934 0.517524
265.612976 92.315247 2.564645 0.503554
nan nan nan 0.000000
nan nan nan 0.000000
267.159668 63.138607 -0.000014 0.534681
266.295746 79.435310 0.000000 0.530270
265.924866 86.431900 -0.000008 0.526838
265.718292 90.328651 -0.000013 0.527328
265.586395 92.816505 0.000002 0.562132
265.494751 94.545525 -0.000011 0.550123
265.427216 95.819542 0.000013 0.545466
265.497314 93.083473 4.685369 0.505882
265.527252 92.432785 4.456109 0.505882
265.529846 92.376465 4.079460 0.506250
265.542114 92.109566 3.734869 0.516667
265.621002 90.395088 3.542906 0.515564
265.580994 91.264862 3.028314 0.504167
nan nan nan 0.000000
nan nan nan 0.000000
nan nan nan 0.000000
266.875793 63.124626 -0.000010 0.536642
266.125702 79.426933 0.000004 0.536274
265.803650 86.425941 -0.000003 0.530392
265.624268 90.324020 -0.000010 0.513603
265.509766 92.812714 0.000003 0.536152
265.430176 94.542336 -0.000010 0.537500
265.371552 95.816727 -0.000001 0.561887
265.425293 93.009544 4.703104 0.501471
265.449585 92.386810 4.465320 0.510294
265.451294 92.343140 4.084910 0.505882
265.453491 92.286667 3.708063 0.502574
265.470612 91.848633 3.375104 0.508946
265.457611 92.181633 2.952781 0.506618
265.501801 91.048683 2.626552 0.517157
nan nan nan 0.000000
nan nan nan 0.000000
266.583893 63.316006 0.009993 1.000000
265.955536 79.419579 -0.000006 0.530637
265.682373 86.420822 0.000002 0.538358
265.530243 90.320061 -0.000004 0.516299
265.433105 92.809494 0.000010 0.543382
265.365570 94.539619 -0.000004 0.553431
265.315857 95.814308 -0.000015 0.561029
265.368652 92.424438 4.849072 0.510907
265.370514 92.366364 4.469126 0.507353
265.372345 92.309586 4.090503 0.509191
265.374146 92.252991 3.712638 0.493750
265.356323 92.809113 3.264212 0.503676
265.374023 92.256775 2.946380 0.519363
265.376465 92.180901 2.570745 0.505882
nan nan nan 0.000000
nan nan nan 0.000000
266.307800 63.102325 -0.000017 0.332475
265.785370 79.413315 -0.000024 0.543750
265.561066 86.416565 0.000007 0.529412
265.436188 90.316605 -0.000021 0.548774
265.356415 92.806656 -0.000010 0.534804
265.300995 94.537231 -0.000022 0.563235
265.260162 95.812302 -0.000022 0.550613
265.278290 92.860168 4.739325 0.511275
265.291504 92.332939 4.475856 0.507598
265.270233 93.182770 3.931153 0.565564
265.294373 92.219131 3.717321 0.521324
265.315491 91.375801 3.428902 0.504534
265.291382 92.338097 2.939522 0.506863
265.296417 92.137428 2.572768 0.505882
265.295288 92.182358 2.190051 0.516544
nan nan nan 0.000000
266.023682 63.094215 -0.000017 0.332353
265.615173 79.408524 -0.000020 0.530515
265.439758 86.413139 0.000011 0.533946
265.342072 90.313950 -0.000017 0.550735
265.279724 92.804504 -0.000005 0.528431
265.236359 94.535423 -0.000017 0.542770
265.204437 95.810989 0.000049 0.517524
265.203339 92.783333 4.758162 0.512990
265.212067 92.300095 4.482578 0.550490
265.197601 93.101303 3.945690 0.511397
265.214142 92.185089 3.722113 0.506985
265.220276 91.845322 3.374663 0.503922
265.232483 91.169487 3.035216 0.511397
265.215759 92.094971 2.574768 0.505760
265.214966 92.138985 2.190732 0.507230
nan nan nan 0.000000
265.739563 63.088192 -0.000012 0.332475
265.444916 79.404907 -0.000015 0.534926
265.318390 86.410568 0.000016 0.540319
265.247986 90.311951 -0.000013 0.555392
265.203003 92.802872 0.000000 0.531740
265.171722 94.534073 -0.000006 0.559314
265.148682 95.809731 0.000033 0.575858
265.127319 92.705437 4.777394 0.499265
265.132202 92.266357 4.489613 0.554902
265.123871 93.018730 3.960518 0.522304
265.135071 92.005219 3.748621 0.513358
265.134399 92.068840 3.348809 0.506618
265.133698 92.131424 2.956232 0.515196
265.133057 92.189743 2.570054 0.511642
265.134064 92.095345 2.191427 0.521936
nan nan nan 0.000000
265.455353 63.084049 -0.000012 0.332598
265.274628 79.402458 -0.000012 0.533088
265.197052 86.408836 0.000020 0.532598
265.153839 90.310608 -0.000008 0.535539
265.126251 92.801788 0.000006 0.533088
265.107086 94.533142 -0.000005 0.563848
265.092957 95.808846 0.000016 0.521446
265.050232 92.626442 4.797034 0.509681
265.051849 92.232460 4.496804 0.428799
265.048981 92.934998 3.975650 0.544853
265.049957 92.697968 3.645767 0.506495
265.050934 92.453140 3.304527 0.512010
265.052979 91.960846 2.970167 0.503676
265.051178 92.400963 2.559646 0.503309
265.053162 91.915375 2.194362 0.504657
nan nan nan 0.000000
265.171143 63.081890 -0.000012 0.332353
265.104370 79.401230 -0.000007 0.540074
265.075684 86.407967 0.000026 0.536152
265.059723 90.310074 0.000019 0.526838
265.049500 92.801231 0.000011 0.509559
265.042450 94.532677 0.000001 0.554412
265.037231 95.808372 0.000004 0.556618
264.969757 91.745354 5.017725 0.505882
264.972229 92.610840 4.415070 0.512255
264.972931 92.850067 3.991095 0.506495
264.973297 92.981712 3.603671 0.509191
264.967529 90.981316 3.473842 0.538480
264.970215 91.915810 2.973856 0.516789
264.970367 91.962036 2.581207 0.510294
nan nan nan 0.000000
nan nan nan 0.000000
264.886932 63.081726 -0.000013 0.331985
264.934082 79.400909 -0.000025 0.524877
264.954315 86.407730 0.000007 0.531863
264.965607 90.309898 0.000001 0.529412
264.972809 92.801086 -0.000008 0.505760
264.977783 94.532562 -0.000015 0.539338
264.981476 95.808289 -0.000009 0.514338
264.892731 92.465012 4.837586 0.516422
264.898010 93.000504 4.331013 0.500858
264.894012 92.593941 4.037788 0.501716
264.896362 92.833649 3.625706 0.502696
264.895050 92.699776 3.276204 0.513603
264.886871 91.870445 2.977620 0.503554
264.888031 91.987808 2.579967 0.549632
nan nan nan 0.000000
nan nan nan 0.000000
264.602692 63.083542 -0.000013 0.331740
264.763794 79.402046 -0.000020 0.530147
264.832947 86.408539 0.000012 0.535662
264.871460 90.310547 0.000008 0.532230
264.896057 92.801598 -0.000003 0.534804
264.913147 94.532982 -0.000012 0.568260
264.925720 95.808914 0.000057 0.561275
264.812286 92.384323 4.858065 0.508211
264.807983 92.129646 4.519344 0.505882
264.817200 92.676430 4.022968 0.502451
264.817261 92.681496 3.648431 0.507966
264.820984 92.900681 3.253208 0.520588
264.817017 92.665718 2.912493 0.516176
264.808350 92.151947 2.571957 0.502328
nan nan nan 0.000000
nan nan nan 0.000000
264.318542 63.087318 -0.000013 0.331985
264.593506 79.404366 -0.000017 0.543137
264.711578 86.410202 0.000017 0.538725
264.777344 90.311813 0.000009 0.527696
264.819336 92.802643 0.000000 0.533088
264.848511 94.533875 -0.000008 0.518382
264.869995 95.809608 0.000046 0.540319
264.730591 92.300652 4.879436 0.521446
264.732178 92.366531 4.468525 0.508088
264.742065 92.781540 4.004125 0.528799
264.730072 92.278671 3.708436 0.512010
264.718384 91.787682 3.381463 0.506250
264.741730 92.767754 2.904254 0.506495
264.730865 92.311722 2.564186 0.521569
264.688232 90.523445 2.217199 0.569608
nan nan nan 0.000000
264.034363 63.093094 -0.000013 0.331985
264.423279 79.407898 -0.000012 0.545466
264.590240 86.412712 0.000021 0.534559
264.688599 90.539520 0.033513 0.579412
264.742615 92.804237 0.000006 0.532475
264.783875 94.535210 -0.000002 0.516054
264.814270 95.810669 0.000027 0.515319
264.647705 92.215698 4.901277 0.512500
264.649750 92.282608 4.487131 0.502083
264.656403 92.497421 4.056229 0.497426
264.648468 92.240677 3.714400 0.512500
264.645447 92.142578 3.340880 0.518750
264.647675 92.214928 2.949777 0.510294
264.655457 92.467331 2.556646 0.504902
264.635681 91.826736 2.195904 0.505882
264.596832 90.565460 1.783447 0.649755
264.598206 90.610909 1.352110 0.555760
264.598633 90.624229 0.919731 0.576593
264.597412 90.584061 0.479742 0.604412
264.597565 90.589417 0.040541 0.578309
264.665894 92.806335 0.000007 0.540074
264.719238 94.536987 0.000000 0.533211
264.758575 95.812149 0.000016 0.572794
264.568268 92.254791 4.892170 0.511029
264.566071 92.197380 4.506147 0.518873
264.573944 92.405785 4.073407 0.505882
264.586823 92.745277 3.639907 0.511275
264.568207 92.253983 3.328375 0.501961
264.551483 91.811111 2.983140 0.509069
264.500488 90.462967 2.655318 0.525858
264.550323 91.780716 2.196704 0.500000
264.504486 90.569061 1.783454 0.543627
264.505859 90.604561 1.351643 0.601838
264.506927 90.632912 0.920184 0.614706
264.505829 90.603493 0.481615 0.561152
264.504242 90.561516 0.035931 0.592402
264.589203 92.808899 -0.000006 0.531618
264.654633 94.539139 -0.000015 0.515074
264.702850 95.813995 0.000001 0.525000
264.496185 92.447052 4.844799 0.512132
264.481110 92.110809 4.525587 0.511397
264.489868 92.306313 4.092123 0.505882
264.502899 92.597031 3.662393 0.510049
264.499023 92.510475 3.299223 0.505882
264.318268 88.476524 3.257118 0.507721
264.462128 91.686974 2.595315 0.502696
nan nan nan 0.000000
nan nan nan 0.000000
263.182220 63.122334 -0.000014 0.332353
264.408478 90.489670 0.908116 0.585294
264.411102 90.548592 0.474854 0.496324
264.410187 90.528030 0.030393 0.632721
264.512543 92.812080 -0.000003 0.522917
264.590027 94.541817 -0.000013 0.558333
264.647156 95.816238 -0.000014 0.573162
264.426483 92.633789 4.798922 0.509069
264.399628 92.116096 4.525296 0.507108
264.406616 92.251122 4.102884 0.515931
264.399780 92.118538 3.734026 0.517647
264.379181 91.721191 3.390582 0.535049
264.426971 92.643517 2.915410 0.504534
264.209473 88.445442 2.754975 0.513480
264.219604 88.640938 2.248275 0.506127
nan nan nan 0.000000
262.908875 63.339123 0.009976 1.000000
263.742615 79.433571 -0.000017 0.531740
264.105133 86.431030 0.000018 0.537623
264.307007 90.327972 0.000012 0.531373
264.435883 92.815811 0.000000 0.540441
264.525482 94.544960 -0.000008 0.544853
264.591461 95.819191 0.000052 0.535294
264.275391 91.393684 5.111166 0.504044
264.321564 92.178993 4.512662 0.509681
264.324493 92.228470 4.107825 0.516789
264.315033 92.067635 3.742260 0.506985
264.400299 93.517944 3.184062 0.508088
264.363617 92.894028 2.895188 0.519975
264.104553 88.488808 2.753133 0.508211
263.767181 82.751732 2.344908 0.514583
nan nan nan 0.000000
262.614563 63.151741 -0.000014 0.331863
263.572601 79.443024 -0.000013 0.533333
263.983948 86.437775 0.000023 0.529657
264.213013 90.333199 0.000016 0.541422
264.359283 92.820068 0.000005 0.530515
264.460907 94.548553 -0.000003 0.543995
264.535828 95.822128 0.000016 0.500000
264.185425 91.346634 5.124331 0.508824
264.271606 92.656845 4.410327 0.510539
263.996185 88.471733 4.793782 0.508946
264.262848 92.523125 3.675306 0.504657
264.305725 93.175110 3.224102 0.507353
264.292145 92.968422 2.889464 0.508578
263.990936 88.392342 2.758209 0.505882
263.616882 82.708725 2.345763 0.506740
nan nan nan 0.000000
262.330902 63.169407 -0.000014 0.332230
263.402649 79.453690 -0.000006 0.534191
263.862823 86.445366 0.000028 0.534804
264.119080 90.339081 0.000021 0.553676
264.282684 92.824867 0.000010 0.529779
264.396393 94.552559 -0.000005 0.542279
264.480194 95.825539 0.000001 0.515074
264.131073 91.799728 5.012051 0.509191
264.168091 92.307808 4.487078 0.515319
264.152435 92.092880 4.134500 0.503309
264.189575 92.602539 3.664306 0.534069
264.205872 92.826820 3.264868 0.504779
264.201752 92.770126 2.906196 0.534559
263.911469 88.784157 2.739277 0.507230
263.886658 88.443825 2.251833 0.528676
nan nan nan 0.000000
262.047333 63.189068 -0.000014 0.332230
263.232758 79.465233 -0.000026 0.537745
263.741730 86.453613 0.000011 0.577206
264.025177 90.345482 0.000004 0.543995
264.206146 92.830086 -0.000006 0.525613
264.331909 94.556961 -0.000020 0.519240
264.424561 95.829330 -0.000014 0.526226
264.086365 92.294098 4.889428 0.523284
264.097565 92.434486 4.460957 0.502696
263.812195 88.860756 4.725616 0.524142
264.095062 92.403191 3.694857 0.513113
264.134918 92.902168 3.256847 0.503186
264.080719 92.223549 2.951639 0.505637
263.473450 84.618759 2.944956 0.508578
263.787079 88.546333 2.250285 0.511029
nan nan nan 0.000000
261.763947 63.210697 -0.000014 0.332230
263.062958 79.478264 -0.000020 0.528064
263.620697 86.462883 0.000014 0.527574
263.931305 90.352669 0.000007 0.535784
264.129608 92.835945 -0.000002 0.531863
264.267456 94.562202 0.000050 0.537255
264.368988 95.833847 0.000054 0.521324
264.013550 92.386269 4.867936 0.506740
264.033661 92.618309 4.422538 0.517647
263.987244 92.083687 4.138560 0.512010
264.045868 92.758255 3.642978 0.513235
264.014801 92.400848 3.315469 0.501961
264.070984 93.047371 2.884389 0.506618
263.717499 88.979095 2.730489 0.505882
263.646637 88.163513 2.256719 0.513113
nan nan nan 0.000000
261.480713 63.234314 -0.000014 0.332721
262.893280 79.492470 -0.000015 0.528064
263.499756 86.473007 0.000019 0.544608
263.837524 90.360519 0.000012 0.522794
264.053162 92.842354 0.000003 0.546691
264.203033 94.567513 0.000036 0.555882
264.313446 95.838402 0.000037 0.581863
263.891083 91.937546 4.982641 0.514583
263.943634 92.496788 4.450429 0.512745
263.903351 92.068268 4.142728 0.505882
263.957489 92.644562 3.660953 0.519608
263.995575 93.049973 3.241295 0.505882
263.972809 92.807640 2.904691 0.501838
263.521149 87.998581 2.779332 0.517524
263.082947 83.333122 2.336273 0.525858
nan nan nan 0.000000
261.197662 63.259888 -0.000014 0.332230
262.723694 79.507835 -0.000013 0.519608
263.378876 86.483986 0.000025 0.546936
263.743774 90.369019 0.000016 0.552451
263.976746 92.849289 0.000008 0.532721
264.138641 94.573250 0.000017 0.544730
264.257935 95.843376 0.000026 0.548652
263.812469 91.986481 4.972352 0.502451
263.838470 92.243713 4.507033 0.512132
263.504242 88.933655 4.717449 0.501961
263.905731 92.909966 3.622514 0.509559
263.909851 92.951065 3.253576 0.494730
263.921051 93.061729 2.884366 0.511152
263.136963 85.296188 2.913297 0.508333
263.105042 84.979713 2.309420 0.508088
nan nan nan 0.000000
260.914795 63.287457 -0.000014 0.332108
262.554199 79.524437 -0.000005 0.537868
263.258087 86.495804 0.000030 0.540564
263.650085 90.378189 0.000023 0.533578
263.900360 92.856750 0.000013 0.545588
264.074280 94.579453 0.000003 0.510784
264.202454 95.848717 0.000007 0.543873
263.573669 90.547020 5.337184 0.506250
263.525543 90.101486 4.974231 0.503922
263.752319 92.200874 4.121483 0.505882
263.836945 92.984398 3.612593 0.503676
263.859619 93.194115 3.226367 0.503676
263.810669 92.741165 2.911449 0.495956
262.985016 85.097755 2.923769 0.507721
nan nan nan 0.000000
nan nan nan 0.000000
260.632080 63.317009 -0.000014 0.331618
262.384827 79.541878 -0.000026 0.535294
263.137390 86.508247 0.000011 0.537255
263.556458 90.387848 0.000003 0.518137
263.824036 92.864616 -0.000008 0.518015
264.010010 94.586113 -0.000010 0.503554
264.147003 95.854446 -0.000006 0.528309
263.416504 89.994965 5.478978 0.515441
263.538818 91.057762 4.768649 0.505882
263.659241 92.104004 4.140878 0.500858
263.769043 93.057915 3.602873 0.506618
263.792847 93.264862 3.219130 0.512745
263.745667 92.854874 2.902774 0.500368
262.804626 84.678734 2.945209 0.511397
262.841980 85.003281 2.309499 0.517892
nan nan nan 0.000000
260.349640 63.348522 -0.000014 0.332475
262.215576 79.560829 -0.000021 0.541176
263.016754 86.521744 0.000016 0.533578
263.462921 90.398315 0.000008 0.552696
263.747772 92.873169 0.000000 0.576103
263.945740 94.593216 -0.000025 0.515196
264.091583 95.860588 -0.000018 0.534069
263.576904 92.107422 4.948784 0.510539
263.320831 90.011543 4.998585 0.512377
263.579071 92.125099 4.138784 0.504167
263.701904 93.130547 3.593347 0.507966
263.649109 92.698280 3.285805 0.429412
263.457397 91.129326 3.046061 0.505515
262.758728 85.410797 2.909761 0.506373
nan nan nan 0.000000
nan nan nan 0.000000
260.067383 63.381992 -0.000014 0.332108
262.046509 79.580933 -0.000017 0.532108
262.896240 86.536087 0.000020 0.542525
263.369476 90.409424 0.000012 0.530882
263.671539 92.882217 0.000001 0.536642
263.881561 94.601135 0.000042 0.542279
264.036285 95.867409 0.000046 0.541789
263.333282 90.863937 5.265442 0.508088
263.365784 91.115288 4.760847 0.507843
263.499023 92.146210 4.136790 0.510049
263.635040 93.198189 3.584629 0.505147
263.651672 93.327019 3.214002 0.510784
263.347687 90.975365 3.059709 0.502328
262.607178 85.246796 2.918684 0.517647
nan nan nan 0.000000
nan nan nan 0.000000
259.785431 63.417450 -0.000014 0.332353
261.877533 79.602242 -0.000011 0.532230
262.775818 86.551262 0.000025 0.529167
263.276031 90.421028 -0.000009 0.527328
263.595428 92.891823 0.000007 0.560294
263.817413 94.609123 0.000027 0.545956
263.980957 95.874313 0.000034 0.546814
263.257141 90.978973 5.239388 0.512745
263.279724 91.144691 4.757001 0.501225
263.419189 92.167328 4.134892 0.475123
263.415314 92.138992 3.744669 0.509926
263.516479 92.880844 3.266931 0.510907
263.359161 91.727180 2.998477 0.505147
262.452637 85.079826 2.927815 0.517524
262.454132 85.090530 2.308874 0.509436
nan nan nan 0.000000
259.531158 63.656418 0.009979 1.000000
261.708771 79.624733 -0.000005 0.542402
262.655518 86.567291 0.000030 0.535417
263.182739 90.433456 -0.000004 0.535417
263.519379 92.901955 0.000013 0.562990
263.753326 94.617577 0.000012 0.568260
263.925690 95.881569 0.000015 0.516667
263.134491 90.760094 5.297941 0.503186
263.189362 91.142380 4.760200 0.510049
263.339478 92.188477 4.133092 0.522181
263.352264 92.277580 3.725607 0.502083
263.153381 90.891579 3.499361 0.509069
263.164490 90.969116 3.062246 0.507230
262.295746 84.914650 2.936920 0.523529
262.378693 85.492607 2.302529 0.510417
nan nan nan 0.000000
259.251068 63.695564 0.009977 1.000000
261.540070 79.648079 -0.000026 0.534314
262.535278 86.583939 0.000010 0.545711
263.089508 90.446381 -0.000022 0.548284
263.443359 92.912483 -0.000006 0.550735
263.689301 94.626389 -0.000017 0.494730
263.870483 95.889252 0.000003 0.484191
262.980377 90.353935 5.404216 0.501716
263.107178 91.195831 4.751359 0.498774
263.259888 92.209656 4.131387 0.501716
263.290527 92.413055 3.707057 0.513603
263.344940 92.774223 3.281877 0.517279
263.229950 92.010796 2.976961 0.504779
263.072205 90.963722 2.637358 0.511397
nan nan nan 0.000000
nan nan nan 0.000000
258.940979 63.535519 -0.000019 0.536520
261.371613 79.672920 -0.000021 0.539338
262.415222 86.601639 0.000016 0.531373
262.996368 90.460091 -0.000019 0.549755
263.367462 92.923660 -0.000003 0.533456
263.625336 94.635735 -0.000032 0.529044
263.815338 95.897308 -0.000009 0.546936
263.055176 91.436714 5.133307 0.508701
263.018372 91.203522 4.752641 0.538113
262.968536 90.887558 4.377222 0.501471
263.019775 91.212349 3.889206 0.496936
263.273407 92.820084 3.277915 0.502819
263.083984 91.619461 3.010498 0.507230
262.980042 90.960587 2.638200 0.497059
261.951294 84.439835 2.320606 0.509559
nan nan nan 0.000000
258.660095 63.578899 -0.000015 0.532843
261.203308 79.698921 -0.000016 0.535907
262.295227 86.619949 -0.000006 0.544853
262.903351 90.474480 -0.000013 0.552696
263.291626 92.935387 0.000003 0.529779
263.561462 94.645889 0.000034 0.517647
263.760284 95.906006 0.000042 0.556863
262.963867 91.419884 5.141110 0.506373
262.933350 91.234840 4.748888 0.515319
263.100708 92.249596 4.128721 0.505515
263.081696 92.134308 3.752729 0.510784
262.975616 91.491119 3.434306 0.507966
263.019897 91.759399 3.000007 0.514461
261.282471 81.225311 3.123644 0.533701
nan nan nan 0.000000
nan nan nan 0.000000
258.379517 63.624302 -0.000009 0.533333
261.035248 79.726341 0.000008 0.554412
262.175415 86.639320 -0.000001 0.530392
262.810425 90.489525 -0.000006 0.549755
263.215881 92.947647 0.000009 0.550735
263.497620 94.656113 0.000019 0.542525
263.705231 95.914841 0.000030 0.550858
262.872162 91.403137 5.149064 0.505760
262.848694 91.266693 4.745144 0.525368
262.847900 91.262230 4.313527 0.508088
263.007996 92.192352 3.746054 0.510907
263.138672 92.951607 3.265509 0.509436
262.956726 91.894432 2.989950 0.514951
261.687866 84.522125 2.960624 0.506985
261.801300 85.181168 2.309036 0.483946
nan nan nan 0.000000
258.099182 63.671097 -0.000030 0.538480
260.867310 79.754379 -0.000013 0.541299
262.055725 86.659317 -0.000022 0.539583
262.717590 90.505005 -0.000029 0.549510
263.140167 92.960289 -0.000011 0.540441
263.433899 94.666794 0.000005 0.558701
263.650238 95.924049 0.000017 0.503431
262.779999 91.386490 5.157165 0.505882
nan nan nan 0.000000
262.942413 92.292244 4.125959 0.511765
262.921783 92.177086 3.750500 0.515564
263.070831 93.008377 3.260427 0.512623
262.633881 90.571495 3.101370 0.506618
262.587616 90.313423 2.672757 0.499142
261.652985 85.101067 2.310747 0.508701
247.518661 6.273712 0.378756 0.566176
257.819275 63.720417 -0.000024 0.537010
260.699585 79.783920 -0.000008 0.537868
261.936188 86.680382 -0.000015 0.523162
262.624878 90.521332 -0.000024 0.531618
263.064575 92.973595 -0.000006 0.552328
263.370209 94.677933 -0.000007 0.550858
263.595367 95.933632 0.000000 0.533456
261.435730 84.659225 6.875353 0.506127
262.541809 90.589302 4.900851 0.511152
262.863434 92.313660 4.124711 0.511765
262.841980 92.198532 3.749498 0.529779
262.795502 91.949547 3.385947 0.515074
262.722260 91.556671 3.020604 0.503309
261.339172 84.141701 2.982043 0.509069
261.251648 83.672340 2.334927 0.560539
261.247528 83.650360 1.664707 0.568750
261.258270 83.707870 0.996276 0.578431
261.250885 83.668213 0.321423 0.560049
261.816772 86.702240 -0.000011 0.530882
262.532318 90.538315 -0.000017 0.535294
262.989105 92.987427 -0.000001 0.520833
263.306580 94.689476 -0.000026 0.538358
263.540527 95.943596 -0.000016 0.535907
262.593475 91.348854 5.174999 0.506005
262.542053 91.083466 4.795990 0.552451
262.784576 92.335152 4.123550 0.506250
262.694794 91.871788 3.801192 0.507843
262.739624 92.103287 3.369772 0.501471
262.462311 90.671997 3.095848 0.502574
262.472443 90.724144 2.653959 0.502941
261.351532 84.939049 2.314258 0.508333
261.096008 83.620270 1.663760 0.608333
261.108734 83.685951 0.993846 0.595833
261.103088 83.656944 0.318252 0.598162
261.697540 86.724960 -0.000006 0.539461
262.439819 90.555908 -0.000015 0.545956
262.913727 93.001785 0.000003 0.540074
263.243073 94.701485 -0.000041 0.553922
263.485718 95.953949 -0.000032 0.535539
260.722809 82.491585 7.442389 0.524142
245.927399 8.886018 22.907894 0.557476
262.502899 91.347191 4.309839 0.505882
262.636078 92.009972 3.782768 0.508701
262.677429 92.215569 3.358487 0.505392
262.297638 90.326187 3.126281 0.528186
262.388580 90.778572 2.652133 0.512745
260.549072 81.627319 2.369968 0.510539
245.927399 8.886010 0.415890 0.530147
256.981689 63.880005 -0.000007 0.538603
260.197754 79.879539 0.000009 0.544363
261.578491 86.748528 0.000001 0.546569
262.347504 90.574203 -0.000005 0.526226
262.838470 93.016693 0.000012 0.513726
263.179688 94.714302 0.000026 0.539583
263.431091 95.964996 0.000034 0.517647
262.405670 91.315155 5.192547 0.501961
261.059662 84.852821 6.178419 0.506373
262.626678 92.376259 4.121879 0.515319
262.577362 92.139481 3.765694 0.509069
262.282257 90.722664 3.535859 0.514461
262.312317 90.866821 3.082610 0.513235
260.409821 81.732841 3.106991 0.511397
260.310364 81.255173 2.376717 0.506250
245.236237 8.882007 0.413557 0.592525
256.703156 63.936558 -0.000029 0.534436
260.030884 79.913422 -0.000012 0.544608
261.459564 86.772675 -0.000021 0.536029
262.255249 90.592926 -0.000028 0.528186
262.763245 93.031990 -0.000004 0.542770
263.116364 94.727211 0.000014 0.521936
263.376465 95.976120 0.000020 0.503676
262.310211 91.294464 5.202576 0.504167
260.977234 85.111397 6.127477 0.503676
262.548035 92.397827 4.121006 0.498529
262.285492 91.179771 3.913939 0.505024
262.122925 90.425919 3.573056 0.505882
262.209015 90.825073 3.087714 0.519853
261.137756 85.855843 2.901426 0.507353
244.542999 8.877966 3.588858 0.743505
244.542999 8.877966 0.411142 0.631250
256.425140 63.995598 -0.000023 0.533088
259.864319 79.948792 -0.000006 0.537745
261.340820 86.797882 -0.000015 0.534314
262.163147 90.612473 -0.000022 0.535662
262.688171 93.047829 -0.000017 0.564216
263.053070 94.740494 -0.000012 0.533946
263.321930 95.987572 -0.000007 0.502328
262.215149 91.278397 5.211604 0.525735
262.154785 91.007492 4.829113 0.510294
261.009796 85.870689 5.341053 0.514583
260.877411 85.276688 4.813998 0.503799
262.113770 90.823433 3.528613 0.517647
262.124054 90.869667 3.085635 0.504657
243.847626 8.873934 6.777492 0.572181
243.847626 8.873934 3.591361 0.450368
243.847626 8.873934 0.408639 0.639583
256.147552 64.056557 -0.000018 0.539706
259.697998 79.985321 -0.000002 0.541299
261.222290 86.823914 -0.000011 0.527574
262.071228 90.632660 -0.000018 0.529044
262.613190 93.064171 -0.000035 0.535784
262.989899 94.754250 -0.000031 0.548652
263.267456 95.999451 -0.000022 0.529044
260.382507 83.717491 7.160144 0.495711
262.056885 90.989845 4.837502 0.506250
260.745972 85.295975 5.453651 0.511029
260.764069 85.374634 4.803543 0.516054
261.843689 90.063828 3.620703 0.516299
261.831940 90.012848 3.159446 0.495221
260.924469 86.071396 2.893370 0.506373
243.149994 8.869867 3.593947 0.665441
243.149994 8.869867 0.406053 0.724142
255.870392 64.119484 -0.000012 0.535784
259.531952 80.023018 0.000004 0.530147
261.103912 86.850792 -0.000004 0.538848
261.979492 90.653625 0.000007 0.532598
262.538330 93.081055 -0.000049 0.531250
262.926849 94.768471 -0.000045 0.554044
263.213074 96.011711 -0.000036 0.581250
260.534576 84.979614 6.843632 0.508333
261.957825 90.969681 4.846615 0.507721
260.545990 85.027596 5.509488 0.505024
260.557220 85.074852 4.853833 0.507843
261.947327 90.925491 3.521466 0.506863
261.959259 90.975693 3.080195 0.505024
260.724670 85.779610 2.909564 0.507108
242.450073 8.865805 3.596619 0.564461
242.450073 8.865805 0.403379 0.521569
255.593658 64.184319 -0.000007 0.531495
259.366150 80.061874 0.000010 0.527574
260.985748 86.878487 0.000002 0.533701
261.887817 90.675087 0.000011 0.524510
262.463684 93.098785 -0.000001 0.531740
262.863953 94.783417 0.000003 0.520221
263.158844 96.024590 0.000010 0.532475
260.454834 85.221390 6.789445 0.522426
261.858093 90.949226 4.855964 0.516054
260.115814 83.837479 5.738358 0.512132
260.466064 85.267212 4.829266 0.515686
260.038788 83.523155 4.400784 0.507475
261.876587 91.024712 3.077878 0.502819
260.618286 85.888588 2.905585 0.502451
241.747787 8.861706 3.599383 0.583333
241.747787 8.861713 0.400617 0.683946
255.317276 64.250572 -0.000028 0.531740
259.200531 80.101578 -0.000010 0.533946
260.867737 86.906776 -0.000019 0.535049
261.796265 90.697037 -0.000008 0.535294
262.389069 93.116699 -0.000016 0.556618
262.801086 94.798523 -0.000010 0.542034
263.104645 96.037605 -0.000005 0.541054
260.377197 85.459221 6.736326 0.516054
260.336090 85.296364 6.120116 0.518750
259.756866 83.001450 5.901746 0.517157
259.871338 83.454971 5.111432 0.534069
260.314941 85.212677 4.204496 0.509926
260.536591 86.090805 3.496995 0.506005
260.612305 86.390816 2.881712 0.510417
241.043030 8.857622 3.602228 0.614583
241.043030 8.857622 0.397769 0.575123
255.041489 64.319252 -0.000023 0.540931
259.035278 80.142723 -0.000006 0.540686
260.749969 86.936104 -0.000015 0.539583
261.704956 90.719788 -0.000004 0.534191
262.314575 93.135155 -0.000028 0.537990
262.738342 94.814079 -0.000021 0.546446
263.050537 96.050995 -0.000020 0.565931
260.293396 85.661598 6.692425 0.506740
260.284515 85.627434 6.053611 0.505515
259.782501 83.695549 5.778237 0.513235
259.845917 83.939560 5.042732 0.511765
259.929993 84.263016 4.321320 0.508824
260.432861 86.198387 3.490560 0.507598
260.404572 86.089577 2.898580 0.505024
240.335693 8.853514 3.605166 0.580147
240.335693 8.853506 0.394834 0.611397
254.766174 64.389900 -0.000017 0.535417
258.870361 80.185036 0.000000 0.528064
260.632385 86.966278 -0.000008 0.540196
261.613770 90.743172 0.000001 0.534069
262.240204 93.154007 -0.000063 0.533088
262.675690 94.830025 -0.000040 0.544485
262.996521 96.064705 -0.000053 0.544976
260.226501 85.917793 6.634642 0.515686
260.208374 85.850060 6.011306 0.506495
nan nan nan 0.000000
259.617920 83.641098 5.094164 0.510172
260.056366 85.281303 4.204337 0.509436
260.099884 85.444122 3.557323 0.508578
259.760406 84.174164 2.997637 0.508946
239.625763 8.849367 3.608192 0.687255
239.625763 8.849367 0.391806 0.704289
254.491364 64.462433 -0.000012 0.535784
258.705719 80.228500 0.000005 0.534804
260.515045 86.997177 -0.000011 0.529657
261.522766 90.767204 0.000007 0.543750
262.165985 93.173500 -0.000077 0.528431
262.613159 94.846367 -0.000072 0.519485
262.942596 96.078857 -0.000066 0.529412
260.000153 85.581581 6.730761 0.506005
259.882141 85.152168 6.175221 0.510049
259.482056 83.696304 5.792223 0.511642
259.680908 84.419815 4.980230 0.500490
259.927124 85.315865 4.204390 0.506863
260.018372 85.647964 3.542938 0.504167
260.102173 85.952888 2.908904 0.513358
238.913071 8.845236 3.611309 0.558946
238.913071 8.845236 0.388691 0.545098
254.217102 64.536911 -0.000005 0.541299
258.541382 80.273140 0.000012 0.525858
260.397888 87.028984 -0.000005 0.528922
261.431915 90.791862 0.000013 0.533946
262.092010 93.193932 -0.000010 0.523284
262.550842 94.863586 -0.000004 0.525368
262.888855 96.093704 0.000002 0.549877
nan nan nan 0.000000
259.755676 85.200989 6.172391 0.518750
259.317841 83.650078 5.808345 0.502451
238.197617 8.841078 16.635305 0.572426
259.798004 85.350822 4.204502 0.506373
259.745911 85.166321 3.586978 0.519975
259.317596 83.649323 3.028264 0.519118
238.197586 8.841070 3.614515 0.633578
238.197617 8.841078 0.385483 0.602941
253.943176 64.612770 -0.000026 0.540074
258.377289 80.318596 -0.000008 0.539706
260.280914 87.061378 -0.000025 0.540074
261.341217 90.816994 -0.000006 0.526348
262.018066 93.214470 -0.000019 0.542892
262.488525 94.880875 -0.000016 0.481495
262.835144 96.108612 -0.000011 0.537377
nan nan nan 0.000000
nan nan nan 0.000000
259.166992 83.654556 5.815110 0.507475
259.371460 84.359840 5.001264 0.518873
259.669647 85.388573 4.204387 0.513971
259.492859 84.778664 3.623247 0.512500
259.577087 85.069275 2.957691 0.500245
237.479233 8.836898 3.617817 0.604167
237.479233 8.836905 0.382183 0.580637
253.669968 64.691078 -0.000020 0.537010
258.213562 80.365494 -0.000003 0.544363
260.164215 87.094818 -0.000020 0.525613
261.250732 90.842918 -0.000001 0.547426
261.944244 93.235390 -0.000055 0.554779
262.426331 94.898506 -0.000050 0.553186
262.781433 96.123550 -0.000113 0.542157
nan nan nan 0.000000
259.504456 85.302444 6.166453 0.508333
nan nan nan 0.000000
259.212952 84.322502 5.013201 0.506618
259.540588 85.423882 4.204673 0.500245
259.167877 84.170937 3.678566 0.507108
259.058563 83.803368 3.024539 0.511642
236.757904 8.832716 3.621208 0.580515
236.757904 8.832716 0.378792 0.616422
253.397278 64.771225 -0.000016 0.537500
258.050171 80.413452 -0.000004 0.534314
260.047791 87.129044 -0.000016 0.532353
261.160370 90.869408 -0.000007 0.547059
261.870605 93.256912 -0.000073 0.554902
262.364288 94.916649 -0.000066 0.517770
262.727936 96.139183 -0.000133 0.514461
nan nan nan 0.000000
nan nan nan 0.000000
nan nan nan 0.000000
259.055176 84.291283 5.024387 0.505515
259.102386 84.445953 4.326936 0.501593
259.319855 85.158852 3.597410 0.513726
258.930786 83.883575 3.022577 0.507598
236.033508 8.828486 3.624692 0.685172
236.033508 8.828486 0.375306 0.718750
253.125183 64.853355 -0.000009 0.537132
257.887146 80.462639 0.000001 0.525123
259.931610 87.164124 -0.000008 0.535539
261.070313 90.896606 0.000001 0.528064
261.797180 93.279335 -0.000019 0.537010
262.302460 94.935516 -0.000018 0.564828
262.674652 96.155518 -0.000066 0.533211
nan nan nan 0.000000
nan nan nan 0.000000
nan nan nan 0.000000
nan nan nan 0.000000
258.974213 84.509285 4.324326 0.514706
259.232941 85.336571 3.585590 0.520956
258.801117 83.955826 3.021065 0.519975
235.305954 8.824266 3.628273 0.559804
235.305954 8.824266 0.371727 0.545343
252.853638 64.937302 -0.000005 0.537868
257.724457 80.512962 0.000007 0.546691
259.815643 87.199989 -0.000002 0.534926
260.980377 90.924431 0.000007 0.531740
261.723846 93.301910 -0.000033 0.536397
262.240631 94.954529 -0.000032 0.505882
262.621368 96.171928 -0.000078 0.534069
nan nan nan 0.000000
nan nan nan 0.000000
nan nan nan 0.000000
nan nan nan 0.000000
nan nan nan 0.000000
258.649872 83.959229 3.707690 0.525858
234.575134 8.820014 6.899344 0.593627
234.575134 8.820014 3.631948 0.583333
234.575134 8.820014 0.368052 0.700735
252.582581 65.022713 -0.000025 0.536765
257.562042 80.564133 -0.000012 0.536642
259.699890 87.236458 -0.000021 0.537500
260.890594 90.952721 -0.000012 0.547794
261.650635 93.324890 -0.000066 0.528922
262.178986 94.973892 -0.000066 0.536520
262.568268 96.188858 -0.000049 0.553922
nan nan nan 0.000000
nan nan nan 0.000000
nan nan nan 0.000000
nan nan nan 0.000000
nan nan nan 0.000000
258.519836 84.029366 3.705507 0.503186
258.545105 84.106339 3.017861 0.499387
233.840988 8.815761 3.635721 0.612623
233.840988 8.815761 0.364279 0.591422
252.312241 65.110451 -0.000020 0.536397
257.400085 80.616699 -0.000009 0.543137
259.584442 87.273941 -0.000016 0.524877
260.800903 90.981255 -0.000089 0.547672
261.577606 93.348473 -0.000084 0.523407
262.117462 94.993752 -0.000084 0.552083
262.515228 96.206001 -0.000064 0.520588
nan nan nan 0.000000
nan nan nan 0.000000
nan nan nan 0.000000
nan nan nan 0.000000
nan nan nan 0.000000
nan nan nan 0.000000
258.419128 84.185562 3.016117 0.508333
nan nan nan 0.000000
nan nan nan 0.000000
252.042557 65.200150 -0.000013 0.536765
257.238525 80.670433 -0.000001 0.553554
259.469330 87.312378 0.000008 0.533578
260.711670 91.011330 -0.000025 0.531985
261.504883 93.372993 -0.000019 0.540074
262.056213 95.014427 -0.000014 0.568137
262.462372 96.223778 -0.000005 0.533456
nan nan nan 0.000000
nan nan nan 0.000000
nan nan nan 0.000000
nan nan nan 0.000000
nan nan nan 0.000000
nan nan nan 0.000000
nan nan nan 0.000000
nan nan nan 0.000000
nan nan nan 0.000000
251.773468 65.291672 -0.000008 0.540319
257.077301 80.725266 0.000004 0.537745
259.354431 87.351456 0.000012 0.534436
260.622681 91.041931 0.000027 0.546569
261.432343 93.397949 0.000035 0.560662
261.994934 95.035164 -0.000028 0.497549
262.409576 96.241676 -0.000015 0.541176
nan nan nan 0.000000
nan nan nan 0.000000
nan nan nan 0.000000
nan nan nan 0.000000
nan nan nan 0.000000
nan nan nan 0.000000
nan nan nan 0.000000
nan nan nan 0.000000
nan nan nan 0.000000
251.505005 65.384979 -0.000008 0.535049
256.916382 80.780937 -0.000017 0.527941
259.239716 87.391151 -0.000007 0.537623
260.533691 91.072624 -0.000007 0.533211
261.359802 93.422958 -0.000001 0.542525
261.933838 95.056252 -0.000060 0.530025
262.356873 96.259804 -0.000062 0.554902
nan nan nan 0.000000
nan nan nan 0.000000
nan nan nan 0.000000
nan nan nan 0.000000
nan nan nan 0.000000
nan nan nan 0.000000
nan nan nan 0.000000
nan nan nan 0.000000
nan nan nan 0.000000
251.237244 65.480278 -0.000002 0.539828
256.755920 80.838036 -0.000011 0.538848
259.125366 87.431839 -0.000001 0.532598
260.444946 91.104042 -0.000022 0.542892
261.287445 93.448586 -0.000015 0.533946
261.872925 95.077850 -0.000073 0.544730
262.304321 96.278404 -0.000078 0.501348
nan nan nan 0.000000
nan nan nan 0.000000
nan nan nan 0.000000
259.150635 87.852768 4.518877 0.506495
nan nan nan 0.000000
259.825378 89.689964 3.231874 0.529167
nan nan nan 0.000000
259.643585 89.194992 2.254476 0.497672
nan nan nan 0.000000
250.970139 65.577423 0.000004 0.537745
256.595917 80.896240 -0.000005 0.531618
259.011322 87.473335 0.000005 0.549510
260.356628 91.136581 0.000039 0.550000
261.215454 93.475098 0.000045 0.533946
261.812225 95.100136 -0.000023 0.542647
262.252014 96.297653 -0.000021 0.534926
nan nan nan 0.000000
259.623871 89.451530 5.308234 0.504167
nan nan nan 0.000000
nan nan nan 0.000000
259.012299 87.821426 3.962415 0.505515
259.730743 89.736404 3.231004 0.517892
nan nan nan 0.000000
nan nan nan 0.000000
nan nan nan 0.000000
250.703735 65.676453 0.000009 0.535539
256.436310 80.955566 0.000000 0.537623
258.897522 87.515625 0.000011 0.526961
260.268280 91.169113 0.000004 0.533701
261.143433 93.501633 0.000013 0.556373
261.751587 95.122505 -0.000053 0.521936
262.199707 96.316895 -0.000063 0.516667
nan nan nan 0.000000
259.721802 90.005890 5.188786 0.508333
259.171875 88.570755 4.966102 0.501103
258.977814 88.064323 4.498502 0.509559
259.498657 89.423615 3.770231 0.505024
259.638000 89.787292 3.229799 0.507843
259.273254 88.835327 2.786907 0.506495
nan nan nan 0.000000
nan nan nan 0.000000
250.438034 65.777321 0.000015 0.533088
256.277161 81.016228 0.000025 0.539583
258.784058 87.558693 0.000015 0.528799
260.180237 91.202393 -0.000010 0.531005
261.071533 93.528389 -0.000075 0.517892
261.691101 95.145370 -0.000066 0.656127
262.147552 96.336609 -0.000077 0.557230
nan nan nan 0.000000
259.603485 89.986374 5.201941 0.512500
259.366547 89.380768 4.815868 0.513971
258.894043 88.172943 4.487962 0.525000
258.841919 88.039673 3.945982 0.516299
259.242065 89.062576 3.296936 0.506250
259.402649 89.473038 2.755396 0.516422
259.287262 89.178032 2.256802 0.502451
nan nan nan 0.000000
250.172836 65.879578 -0.000004 0.537010
256.118286 81.077477 0.000004 0.535049
258.670807 87.602303 -0.000010 0.543137
260.092560 91.236565 0.000020 0.538971
261.000031 93.556328 -0.000030 0.550980
261.630890 95.168915 -0.000019 0.567279
262.095642 96.356895 -0.000035 0.569363
nan nan nan 0.000000
259.491516 89.985046 5.211100 0.506373
259.628967 90.329353 4.637796 0.504289
258.809021 88.275764 4.478414 0.522672
259.483582 89.965179 3.712843 0.516176
259.692474 90.488388 3.174635 0.502819
259.274536 89.441673 2.759143 0.507843
259.220551 89.306435 2.255250 0.508088
nan nan nan 0.000000
249.908554 65.984146 0.000001 0.536765
255.959930 81.140121 0.000010 0.530760
258.557953 87.646957 -0.000005 0.538235
260.004944 91.271042 -0.000002 0.555392
260.928619 93.584427 -0.000052 0.558088
261.570709 95.192520 -0.000056 0.546936
262.043732 96.377281 -0.000061 0.519363
nan nan nan 0.000000
259.378937 89.983879 5.220426 0.516054
259.525818 90.344421 4.642275 0.507353
258.726410 88.382187 4.468357 0.513726
259.584900 90.489418 3.652551 0.507598
259.354797 89.924660 3.227859 0.506127
259.056610 89.192657 2.774493 0.506618
259.153992 89.431702 2.253756 0.513726
nan nan nan 0.000000
249.645035 66.090584 0.000008 0.537010
255.802048 81.203903 0.000017 0.532721
258.445404 87.692406 0.000000 0.548039
259.917603 91.306038 -0.000035 0.530392
260.857391 93.612968 -0.000084 0.582230
261.510681 95.216576 -0.000085 0.532353
261.992004 96.398018 -0.000093 0.512745
nan nan nan 0.000000
259.051666 89.467628 5.350433 0.505882
259.420654 90.355553 4.647682 0.505637
259.587769 90.757713 4.093867 0.504289
259.416321 90.345093 3.675286 0.504902
259.465637 90.463806 3.183519 0.513848
259.226868 89.889137 2.739668 0.517034
258.849213 88.980415 2.262483 0.507721
nan nan nan 0.000000
249.382233 66.198868 0.000014 0.536274
255.644608 81.268768 0.000024 0.531618
258.333191 87.738640 0.000007 0.550490
259.830688 91.342239 0.000028 0.535049
260.786530 93.642403 -0.000036 0.512623
261.451019 95.241432 -0.000025 0.520098
261.940552 96.419456 -0.000031 0.537868
nan nan nan 0.000000
259.144226 89.963600 5.243923 0.512745
259.316650 90.370499 4.652497 0.515441
259.485077 90.767906 4.098369 0.506985
259.299652 90.330383 3.682038 0.517524
259.472717 90.738708 3.162511 0.506250
259.230682 90.167595 2.726981 0.516299
nan nan nan 0.000000
nan nan nan 0.000000
249.119995 66.308411 -0.000008 0.539338
255.487488 81.334419 0.000002 0.536520
258.221191 87.785439 -0.000013 0.543137
259.743622 91.378075 -0.000067 0.526593
260.715698 93.671944 -0.000068 0.538971
261.391327 95.266251 -0.000071 0.555515
261.889069 96.440849 -0.000078 0.546569
nan nan nan 0.000000
259.029633 89.962723 5.253835 0.504412
259.816315 91.783661 4.380329 0.507598
259.188538 90.330513 4.175323 0.503799
259.154785 90.252380 3.696846 0.523529
259.474670 90.992821 3.143291 0.504412
259.037659 89.981285 2.739126 0.506373
nan nan nan 0.000000
nan nan nan 0.000000
248.858749 66.420372 -0.000001 0.534191
255.330963 81.401482 0.000008 0.536765
258.109619 87.833237 -0.000007 0.539216
259.657043 91.415031 -0.000079 0.535172
260.645142 93.702080 -0.000077 0.535784
261.331848 95.291626 -0.000084 0.538971
261.837799 96.462746 -0.000089 0.534559
258.721161 89.523102 5.905540 0.536887
258.952850 90.049347 5.243314 0.528799
259.104004 90.392586 4.664155 0.509069
259.692322 91.728676 3.955343 0.510539
259.221802 90.660103 3.650769 0.507966
259.371796 91.000740 3.146068 0.498039
259.473938 91.232727 2.674205 0.505882
258.888763 89.903770 2.248336 0.502819
