# This PCD file was generated using the MATLABÂ® pcwrite function
# from Computer Vision ToolboxÂ®.
# .PCD v.7 - Point Cloud Data file format
VERSION .7
FIELDS x y z intensity
SIZE 4 4 4 4
TYPE F F F F
COUNT 1 1 1 1
WIDTH 1295
HEIGHT 1
VIEWPOINT 0 0 0 1 0 0 0
POINTS 1295
DATA ascii
337.014832 205.775253 0.008393 0.635172
337.288574 201.955948 -0.000027 0.524387
337.466644 199.471252 -0.000067 0.525613
337.590454 197.743942 -0.000030 0.546324
337.681641 196.471527 -0.000037 0.562132
337.140869 205.699173 6.315319 0.666544
337.141571 205.688248 5.718465 0.695833
337.132813 205.824158 5.157477 0.678431
337.133698 205.809814 4.571936 0.127819
337.132141 205.834167 3.997452 0.746078
337.132141 205.834152 3.423683 0.752696
337.135376 205.784134 2.850526 0.753186
337.121155 206.004257 2.286916 0.769853
337.121155 206.004257 1.713084 0.772426
337.140869 205.699173 1.153656 0.669853
337.140869 205.699173 0.587408 0.495343
337.136017 205.774246 0.009457 0.668137
337.382477 201.962158 0.000001 0.537010
337.543213 199.476349 -0.000044 0.556005
337.654968 197.748230 -0.000006 0.530025
337.737244 196.475220 -0.000015 0.763726
337.261383 205.698410 6.313282 0.674387
337.262024 205.687302 5.716674 0.722304
337.254211 205.823120 5.155942 0.678431
337.255005 205.808868 4.570698 0.863235
337.253601 205.833145 3.996481 0.716299
337.253601 205.833145 3.422991 0.771569
337.256500 205.783112 2.850112 0.763480
337.242096 206.033234 2.287268 0.678431
337.242096 206.033234 1.712732 0.678431
337.261383 205.698410 1.154056 0.675368
337.261383 205.698410 0.588074 0.503676
337.257080 205.773224 0.010423 0.668750
337.476440 201.967957 -0.000006 0.536520
337.619843 199.480896 -0.000018 0.537868
337.719513 197.752060 0.000019 0.528676
337.792908 196.478516 0.000011 0.520588
337.381683 205.699295 6.311876 0.658333
337.382355 205.686356 5.715065 0.723284
337.375458 205.822098 5.154562 0.678431
337.376282 205.806503 4.569377 0.863113
337.374969 205.832123 3.995608 0.759804
337.374969 205.832108 3.422369 0.761397
337.377533 205.782074 2.849740 0.786642
337.364868 206.032196 2.287143 0.678431
337.364868 206.032196 1.712857 0.678431
337.381683 205.699417 1.154325 0.661520
337.381683 205.699417 0.588523 0.469608
337.378021 205.772217 0.011292 0.688603
337.570435 201.973038 -0.000005 0.534069
337.696442 199.485367 -0.000076 0.547672
337.784027 197.755829 -0.000037 0.560662
337.848541 196.481766 -0.000045 0.552941
337.487518 206.031158 6.393664 0.678431
337.502594 205.685410 5.713635 0.693137
337.496674 205.821060 5.153337 0.678431
337.497437 205.804321 4.568205 0.840319
337.496246 205.831085 3.994833 0.731250
337.496246 205.831070 3.421816 0.754657
337.498444 205.781036 2.849410 0.761397
337.487518 206.031158 2.287031 0.678431
337.487518 206.031158 1.712969 0.678431
337.487518 206.031158 1.138291 0.678431
337.502441 205.689392 0.589812 0.662255
337.498871 205.771194 0.012063 0.641789
337.664459 201.977448 -0.000004 0.528554
337.773071 199.488846 -0.000053 0.513358
337.848602 197.758759 -0.000013 0.521324
337.904236 196.484299 -0.000022 0.552083
337.610077 206.030106 6.392171 0.678431
337.622742 205.684433 5.712385 0.729657
337.618866 205.790039 5.146802 0.827328
337.618866 205.790024 4.565364 0.823407
337.617401 205.830063 3.994155 0.728431
337.617432 205.830048 3.421333 0.741176
337.619232 205.780029 2.849122 0.746936
337.610077 206.030106 2.286933 0.678431
337.610077 206.030106 1.713067 0.678431
337.610077 206.030106 1.138584 0.678431
337.622437 205.692993 0.589912 0.651593
337.619629 205.770187 0.012738 0.651348
337.758514 201.981232 -0.000005 0.538358
337.849792 199.491714 -0.000016 0.505270
337.913208 197.761169 0.000024 0.540686
337.959930 196.486389 0.000013 0.515564
337.733459 205.999069 6.383375 0.763603
337.742828 205.683472 5.711317 0.724632
337.739990 205.779007 5.144066 0.783946
337.739990 205.778992 4.563134 0.712010
337.739990 205.779007 3.987818 0.748897
337.739990 205.778992 3.416817 0.744608
337.739990 205.779007 2.848875 0.741054
337.733459 205.999069 2.286359 0.758946
337.733459 205.999069 1.713641 0.767892
337.733459 205.999069 1.140309 0.766054
337.742462 205.695938 0.589995 0.660417
337.740295 205.769165 0.013314 0.730760
337.852570 201.984390 -0.000009 0.531985
337.926453 199.494598 -0.000076 0.543627
337.977814 197.763580 -0.000034 0.526961
338.015656 196.488464 -0.000042 0.577819
337.860687 205.777863 6.327150 0.679044
337.862854 205.682480 5.710427 0.715196
337.860687 205.777863 5.143284 0.769485
337.860687 205.777863 4.562496 0.743137
337.860687 205.777863 3.987323 0.724020
337.860687 205.777863 3.416465 0.751103
337.860687 205.777863 2.848663 0.743995
337.860687 205.777863 2.282686 0.783946
337.860687 205.777863 1.717314 0.739093
337.860687 205.777863 1.151336 0.726593
337.860687 205.777863 0.583535 0.747549
337.860931 205.768158 0.013794 0.695711
337.946686 201.986832 -0.000007 0.519608
338.003174 199.496460 -0.000049 0.553186
338.042450 197.765167 -0.000009 0.547059
338.071381 196.489838 -0.000019 0.519485
337.981323 205.776855 6.326318 0.739093
337.982819 205.681503 5.709718 0.682353
337.981323 205.776855 5.142679 0.759436
337.981323 205.776855 4.562005 0.759436
337.981323 205.776855 3.986942 0.716054
337.981323 205.776840 3.416192 0.740686
337.981323 205.776855 2.848501 0.752696
337.981323 205.776855 2.282632 0.748407
337.981323 205.776855 1.717368 0.774020
337.981323 205.776855 1.151499 0.725245
337.981323 205.776840 0.583808 0.766422
337.981476 205.767136 0.014177 0.657230
338.040802 201.988647 -0.000007 0.547672
338.079895 199.497787 -0.000024 0.535907
338.107056 197.766281 0.000018 0.525735
338.127106 196.490784 0.000006 0.546936
338.101471 205.825836 6.338220 0.784069
338.102753 205.680496 5.709187 0.688971
338.101563 205.815826 5.149503 0.678431
338.101563 205.815826 4.567568 0.678431
338.101563 205.815826 3.991256 0.678431
338.101471 205.825836 3.420088 0.778431
338.101563 205.815826 2.850343 0.678431
338.101563 205.815826 2.283245 0.678431
338.101563 205.815826 1.716755 0.678431
338.101715 205.797531 1.150556 0.123775
338.101471 205.825821 0.579912 0.753309
338.102020 205.766113 0.014464 0.713480
338.134918 201.989792 -0.000006 0.546814
338.156616 199.499054 -0.000083 0.553799
338.171722 197.767349 -0.000045 0.545098
338.182831 196.491699 -0.000051 0.503676
338.222412 205.824829 6.337805 0.738113
338.222656 205.679489 5.708834 0.699265
338.222412 205.814819 5.149202 0.678431
338.222412 205.814819 4.567323 0.678431
338.222412 205.814819 3.991065 0.678431
338.222412 205.824814 3.419952 0.782475
338.222412 205.814819 2.850261 0.678431
338.222412 205.814819 2.283218 0.678431
338.222412 205.814819 1.716782 0.678431
338.222443 205.796570 1.150633 0.122794
338.222412 205.824814 0.580048 0.727451
338.222473 205.765091 0.014653 0.623284
338.229065 201.990265 -0.000006 0.537745
338.233368 199.499313 -0.000058 0.524020
338.236389 197.767563 -0.000017 0.541422
338.238556 196.491898 -0.000027 0.523652
338.343292 205.823792 6.337601 0.764093
338.342529 205.678497 5.708660 0.682598
338.343231 205.813782 5.149055 0.678431
338.343231 205.813782 4.567202 0.678431
338.343231 205.813782 3.990971 0.678431
338.343292 205.823776 3.419886 0.755637
338.343231 205.813782 2.850222 0.678431
338.343231 205.813782 2.283205 0.678431
338.343231 205.813782 1.716795 0.678431
338.343140 205.795593 1.150671 0.109314
338.343292 205.823776 0.580114 0.764461
338.342957 205.763702 0.014789 0.668995
338.323181 201.990112 -0.000005 0.537745
338.310089 199.499023 -0.000029 0.533578
338.301025 197.767319 0.000012 0.554534
338.294312 196.491684 0.000001 0.554902
338.464172 205.822754 6.337609 0.752328
338.462402 205.677475 5.708667 0.688725
338.464050 205.812744 5.149060 0.678431
338.464050 205.812759 4.567206 0.678431
338.464050 205.812744 3.990975 0.678431
338.464172 205.822754 3.419888 0.714706
338.464050 205.812759 2.850223 0.678431
338.464050 205.812759 2.283206 0.678431
338.464050 205.812744 1.716795 0.678431
338.463837 205.794586 1.150670 0.121078
338.464172 205.822754 0.580112 0.774877
338.463440 205.762695 0.014786 0.667770
338.417297 201.989288 -0.000005 0.530760
338.386841 199.498642 -0.000080 0.557843
338.365662 197.766983 -0.000038 0.540196
338.350067 196.491394 -0.000045 0.504289
338.585083 205.821747 6.337828 0.732353
338.582275 205.676453 5.708852 0.718750
338.584869 205.811737 5.149220 0.678431
338.584869 205.811737 4.567336 0.678431
338.584869 205.811737 3.991076 0.678431
338.585052 205.821732 3.419960 0.728676
338.584869 205.811737 2.850266 0.678431
338.584869 205.811737 2.283219 0.678431
338.584869 205.811737 1.716780 0.678431
338.584534 205.793503 1.150629 0.106127
338.585052 205.821732 0.580040 0.730882
338.583893 205.761658 0.014685 0.666299
338.511414 201.987839 -0.000010 0.550735
338.463562 199.497284 -0.000054 0.539338
338.430328 197.765854 -0.000011 0.542525
338.405792 196.490417 -0.000023 0.537255
338.705963 205.820709 6.338259 0.713848
338.702148 205.675400 5.709216 0.722672
338.705719 205.810715 5.149533 0.678431
338.705719 205.810699 4.567591 0.678431
338.705719 205.810699 3.991274 0.678431
338.705963 205.820709 3.420101 0.777941
338.705719 205.810715 2.850351 0.678431
338.705719 205.810715 2.283248 0.678431
338.705719 205.810715 1.716752 0.678431
338.705261 205.792419 1.150548 0.115809
338.705963 205.820694 0.579899 0.736397
338.704407 205.760635 0.014489 0.673162
338.605499 201.985703 -0.000010 0.539583
338.540283 199.495392 -0.000026 0.531618
338.494934 197.764252 0.000016 0.555637
338.461517 196.489059 0.000004 0.526716
338.826904 205.819687 6.338901 0.726593
338.822083 205.674362 5.709759 0.709559
338.826599 205.809692 5.150000 0.678431
338.826599 205.809692 4.567971 0.678431
338.826599 205.809692 3.991569 0.678431
338.826904 205.819687 3.420311 0.737745
338.826599 205.809692 2.850477 0.678431
338.826599 205.809692 2.283289 0.678431
338.826599 205.809692 1.716710 0.678431
338.825958 205.791260 1.150429 0.111152
338.826904 205.819687 0.579689 0.742525
338.824921 205.759613 0.014194 0.624510
338.699615 201.982910 -0.000009 0.533701
338.617004 199.493439 -0.000088 0.557966
338.559570 197.762619 -0.000045 0.510907
338.517242 196.487640 -0.000058 0.539093
338.947906 205.818665 6.339755 0.725490
338.942047 205.673309 5.710481 0.734436
338.947510 205.808655 5.150619 0.678431
338.947510 205.808655 4.568477 0.678431
338.947510 205.808655 3.991961 0.678431
338.947906 205.818665 3.420591 0.757843
338.947510 205.808655 2.850644 0.678431
338.947510 205.808655 2.283346 0.678431
338.947510 205.808655 1.716654 0.678431
338.946747 205.790070 1.150270 0.115564
338.947906 205.818649 0.579409 0.745711
338.945496 205.758606 0.013803 0.671324
338.793671 201.979446 -0.000008 0.533211
338.693665 199.490494 -0.000062 0.541667
338.624176 197.760117 -0.000018 0.539216
338.572968 196.485489 -0.000031 0.514216
339.068939 205.817642 6.340821 0.743015
339.062073 205.672241 5.711382 0.718627
339.068481 205.807648 5.151393 0.678431
339.068481 205.807648 4.569107 0.678431
339.068481 205.807648 3.992450 0.678431
339.068939 205.817642 3.420939 0.723407
339.068481 205.807632 2.850853 0.678431
339.068481 205.807648 2.283415 0.678431
339.068481 205.807648 1.716585 0.678431
339.067566 205.788864 1.150071 0.129412
339.068939 205.817642 0.579060 0.723897
339.066101 205.757568 0.013316 0.665564
338.887726 201.975342 -0.000008 0.553676
338.770355 199.487000 -0.000036 0.560662
338.688721 197.757187 0.000007 0.537500
338.628632 196.482956 -0.000004 0.548897
339.190033 205.816620 6.342101 0.697181
339.182159 205.671158 5.712463 0.721201
339.189484 205.806610 5.152321 0.678431
339.189484 205.806610 4.569865 0.678431
339.189484 205.806610 3.993037 0.678431
339.190033 205.816605 3.421358 0.761152
339.189484 205.806610 2.851104 0.678431
339.189484 205.806610 2.283499 0.678431
339.189484 205.806610 1.716501 0.678431
339.188477 205.787582 1.149832 0.127696
339.190033 205.816605 0.578642 0.706127
339.186798 205.756561 0.012730 0.700245
338.981720 201.970581 -0.000008 0.544976
338.846985 199.483444 -0.000098 0.535417
338.753326 197.754196 -0.000055 0.518015
338.684326 196.480377 -0.000064 0.536642
339.311218 205.815582 6.343590 0.770343
339.302338 205.670090 5.713724 0.720343
339.310608 205.805588 5.153403 0.678431
339.310608 205.805588 4.570747 0.678431
339.310608 205.805588 3.993721 0.678431
339.311218 205.815567 3.421846 0.761397
339.310608 205.805588 2.851396 0.678431
339.310608 205.805573 2.283596 0.678431
339.310608 205.805573 1.716404 0.678431
339.309448 205.786301 1.149553 0.147794
339.311218 205.815567 0.578154 0.734069
339.307556 205.755539 0.012047 0.666667
339.075684 201.965149 -0.000008 0.531005
338.923615 199.478897 -0.000071 0.541054
338.817841 197.750351 -0.000028 0.544730
338.739960 196.477066 -0.000038 0.522917
339.432495 205.814560 6.345293 0.798162
339.422577 205.668991 5.715165 0.696814
339.431824 205.804565 5.154641 0.678431
339.431824 205.804565 4.571755 0.678431
339.431824 205.804565 3.994503 0.678431
339.432495 205.814560 3.422403 0.724265
339.431824 205.804565 2.851730 0.678431
339.431824 205.804565 2.283707 0.678431
339.431824 205.804565 1.716293 0.678431
339.430481 205.784943 1.149235 0.117525
339.432495 205.814560 0.577596 0.674755
339.428406 205.754532 0.011265 0.617525
339.169617 201.959076 -0.000006 0.537132
339.000183 199.473801 -0.000044 0.555270
338.882385 197.746048 0.000000 0.531740
338.795593 196.473358 -0.000010 0.528922
339.553864 205.813538 6.347211 0.717034
339.542908 205.667892 5.716786 0.700980
339.553101 205.803528 5.156033 0.678431
339.553101 205.803528 4.572889 0.678431
339.553101 205.803528 3.995383 0.678431
339.553864 205.813522 3.423031 0.706740
339.553101 205.803528 2.852106 0.678431
339.553101 205.803528 2.283833 0.678431
339.553101 205.803528 1.716168 0.678431
339.551636 205.783585 1.148877 0.120466
339.553864 205.813522 0.576968 0.725613
339.549377 205.753510 0.010387 0.726471
339.263519 201.952301 0.000001 0.523284
339.076721 199.468597 -0.000097 0.544240
338.946869 197.741669 -0.000052 0.526716
338.851196 196.469574 -0.000063 0.549510
339.675354 205.812500 6.349341 0.711152
339.663391 205.666779 5.718589 0.697549
339.674530 205.802490 5.157578 0.678431
339.674530 205.802490 4.574151 0.678431
339.674530 205.802490 3.996361 0.678431
339.675354 205.812485 3.423728 0.718260
339.674530 205.802490 2.852524 0.678431
339.674530 205.802490 2.283972 0.678431
339.674530 205.802490 1.716028 0.678431
339.672882 205.782150 1.148480 0.118382
339.675354 205.812485 0.576271 0.744118
339.670441 205.752518 0.009410 0.670588
339.357361 201.944931 -0.000003 0.516176
339.153229 199.462418 -0.000070 0.528676
339.011292 197.736481 -0.000025 0.555270
338.906738 196.465088 -0.000036 0.519485
339.796967 205.811462 6.351686 0.752574
339.784027 205.666321 5.720716 0.693137
339.796082 205.801483 5.159281 0.678431
339.796082 205.801483 4.575539 0.678431
339.796082 205.801483 3.997438 0.678431
339.796967 205.811462 3.424497 0.763235
339.795563 205.795746 2.852701 0.120221
339.796082 205.801483 2.284125 0.678431
339.796082 205.801483 1.715876 0.678431
339.788605 205.717850 1.151141 0.920098
339.796967 205.811447 0.575503 0.693505
339.791626 205.751495 0.008334 0.695098
339.451141 201.936890 -0.000002 0.537500
339.229675 199.455704 -0.000040 0.511887
339.075714 197.731110 -0.000057 0.529412
338.962311 196.460205 -0.000007 0.561642
339.913910 205.760483 6.341674 0.698775
339.904724 205.665207 5.722883 0.706250
339.913910 205.760468 5.153833 0.734436
339.913910 205.760468 4.571097 0.698039
339.913910 205.760468 3.993994 0.735907
339.913910 205.760468 3.421219 0.765686
339.913910 205.760468 2.851512 0.698775
339.913910 205.760468 2.283634 0.763603
339.913910 205.760468 1.716366 0.742279
339.913910 205.760468 1.148487 0.738358
339.913910 205.760468 0.578781 0.754044
339.912933 205.750488 0.007159 0.728309
339.544861 201.928207 -0.000005 0.531495
339.306061 199.448471 -0.000012 0.545956
339.140076 197.724991 -0.000029 0.517157
339.017792 196.454956 0.000020 0.554289
340.034424 205.749557 6.341952 0.586397
340.025604 205.664078 5.725234 0.709926
340.034424 205.749557 5.154037 0.621936
340.034424 205.749557 4.571262 0.655515
340.034424 205.749557 3.994121 0.659436
340.034424 205.749557 3.421310 0.669118
340.034424 205.749557 2.851567 0.704167
340.034424 205.749557 2.283653 0.623529
340.034424 205.749557 1.716347 0.662132
340.034424 205.749557 1.148433 0.622304
340.034424 205.749542 0.578689 0.679167
340.039673 205.800339 0.000005 0.544608
339.638519 201.918777 0.000008 0.507598
339.382446 199.441208 -0.000080 0.530760
339.204437 197.718872 -0.000093 0.521569
339.073273 196.449539 -0.000011 0.529779
340.156036 205.748535 6.344933 0.615564
340.146606 205.662949 5.727768 0.713726
340.156036 205.748535 5.156201 0.614093
340.156036 205.748535 4.573028 0.660907
340.156036 205.748535 3.995490 0.626838
340.156036 205.748535 3.422286 0.706985
340.156036 205.748535 2.852151 0.668015
340.156036 205.748535 2.283847 0.617525
340.156036 205.748535 1.716152 0.674142
340.156036 205.748535 1.147848 0.616789
340.156036 205.748535 0.577713 0.680392
340.160339 205.787430 0.000007 0.546446
339.732117 201.908768 0.000007 0.522794
339.458740 199.432892 -0.000050 0.539583
339.268707 197.711868 -0.000066 0.507475
339.128693 196.443512 0.000015 0.548284
340.277863 205.747498 6.348130 0.586887
340.267822 205.661804 5.730487 0.726103
340.277863 205.747498 5.158525 0.623407
340.277863 205.747498 4.574921 0.661029
340.277863 205.747498 3.996958 0.632230
340.277863 205.747498 3.423333 0.612868
340.277863 205.747498 2.852778 0.665564
340.277863 205.747498 2.284057 0.619608
340.277863 205.747498 1.715943 0.671569
340.277863 205.747498 1.147221 0.623162
340.277863 205.747498 0.576667 0.673897
340.280945 205.773697 0.000007 0.543137
339.825623 201.898102 0.000008 0.519853
339.534973 199.424057 -0.000022 0.529412
339.332947 197.704422 -0.000036 0.530147
339.184052 196.437088 0.000044 0.543995
340.401093 205.756454 6.354067 0.757721
340.389160 205.660645 5.733391 0.730637
340.428497 205.976227 5.203136 0.772304
340.428497 205.976227 4.611290 0.773897
340.428497 205.976227 4.025164 0.772304
340.428497 205.976227 3.443436 0.772672
340.401093 205.756439 2.853943 0.691054
340.401093 205.756439 2.284444 0.729779
340.401093 205.756439 1.715556 0.721691
340.401093 205.756439 1.146057 0.750123
340.401093 205.756439 0.574723 0.729657
340.401428 205.759094 0.000007 0.522672
339.919067 201.886795 0.000009 0.524755
339.611176 199.415207 -0.000089 0.552819
339.397156 197.696945 -0.000102 0.528064
339.239410 196.430649 -0.000021 0.571569
340.529938 205.805374 6.370322 0.673284
340.510803 205.660080 5.736604 0.722181
340.552307 205.975189 5.205809 0.770221
340.556244 206.005157 4.617952 0.678431
340.556244 206.005157 4.030331 0.678431
340.556244 206.005157 3.447119 0.678431
340.524384 205.763290 2.855046 0.816667
340.524689 205.765411 2.284846 0.855515
340.524689 205.765411 1.715153 0.827574
340.529938 205.805374 1.142869 0.747059
340.530334 205.808380 0.569154 0.738848
340.521820 205.743668 0.000009 0.550490
340.012421 201.874817 0.000011 0.559681
339.687317 199.405289 -0.000061 0.526593
339.461273 197.688614 -0.000074 0.515686
339.294708 196.423447 0.000008 0.529044
340.652771 205.804337 6.374187 0.784191
340.632568 205.658920 5.739882 0.693873
340.676331 205.974121 5.208643 0.771936
340.680511 206.004105 4.620267 0.678431
340.680511 206.004105 4.032126 0.678431
340.680511 206.004089 3.448399 0.678431
340.647034 205.763046 2.855841 0.845956
340.651398 205.794327 2.285594 0.678431
340.647217 205.764374 1.714902 0.827451
340.652771 205.804337 1.142111 0.736274
340.653046 205.806168 0.567985 0.770466
340.642090 205.727402 0.000010 0.533946
340.105713 201.862213 0.000010 0.540196
339.763306 199.394836 -0.000030 0.526471
339.525330 197.679810 -0.000045 0.526103
339.349915 196.415863 0.000037 0.512745
340.775818 205.803299 6.378271 0.742402
340.754578 205.657761 5.743346 0.728676
340.800140 205.970032 5.211078 0.734436
340.804962 206.003036 4.622715 0.678431
340.756195 205.668762 3.995161 0.655760
340.756195 205.668762 3.422052 0.589828
340.769897 205.762863 2.856683 0.850490
340.774384 205.793289 2.285860 0.678431
340.769989 205.763336 1.714635 0.822304
340.775818 205.803299 1.141309 0.770711
340.775909 205.803894 0.566750 0.743382
340.762238 205.710297 0.000010 0.533824
340.198914 201.848938 0.000013 0.547059
339.839294 199.384155 -0.000053 0.541912
339.589355 197.670975 -0.000103 0.531250
339.405121 196.408234 -0.000018 0.531127
340.899109 205.802246 6.382578 0.754044
340.876801 205.656601 5.747000 0.707108
340.925232 205.972839 5.214947 0.740686
340.928101 205.991776 4.623761 0.140686
340.878479 205.667450 3.997092 0.660172
340.878479 205.667450 3.423428 0.585662
340.893036 205.762695 2.857569 0.826103
340.897583 205.792252 2.286141 0.678431
340.892975 205.762283 1.714355 0.855882
340.899109 205.802246 1.140465 0.776716
340.898987 205.801544 0.565449 0.760049
340.882294 205.692398 0.000005 0.543382
340.292023 201.835068 0.000006 0.541667
339.915161 199.372650 -0.000023 0.514951
339.653290 197.661270 -0.000073 0.506618
339.460266 196.399872 0.000011 0.556250
341.022644 205.801193 6.387105 0.758946
340.999359 205.655899 5.750948 0.689828
341.050598 205.975845 5.219020 0.715441
341.049835 205.970978 4.623506 0.773162
341.001038 205.666351 3.999148 0.667525
341.001038 205.666351 3.424893 0.573652
341.016479 205.762589 2.858501 0.849142
341.021027 205.791199 2.286437 0.678431
341.016235 205.761246 1.714060 0.855147
341.022644 205.801208 1.139577 0.769730
341.022308 205.799133 0.564080 0.768382
341.002197 205.673630 0.000005 0.549632
340.384979 201.820496 0.000007 0.542279
339.990967 199.360611 0.000007 0.546324
339.717102 197.650986 -0.000011 0.530147
339.515320 196.391418 -0.000032 0.564093
341.146423 205.800140 6.391857 0.748039
341.122101 205.654739 5.754985 0.693627
341.176392 205.979034 5.223292 0.727574
341.179840 205.999863 4.630854 0.678431
341.123901 205.665482 4.001333 0.656740
341.123901 205.665482 3.426451 0.559926
341.140137 205.762512 2.859480 0.850735
341.144745 205.790146 2.286747 0.678431
341.139740 205.760193 1.713750 0.828676
341.146423 205.800156 1.138645 0.742034
341.145844 205.796646 0.562644 0.721078
341.121979 205.653992 0.000005 0.531618
340.477905 201.805283 0.000007 0.532598
340.066742 199.348587 -0.000063 0.559191
339.780945 197.640839 -0.000078 0.539706
339.570404 196.382660 -0.000096 0.517892
341.270508 205.799103 6.396835 0.711397
341.245117 205.653580 5.759213 0.698162
341.299072 205.962769 5.224135 0.791422
341.305359 205.998810 4.633835 0.678431
341.249573 205.679291 4.005335 0.653676
341.249573 205.679276 3.429303 0.592892
341.264130 205.762497 2.860505 0.822917
341.268768 205.789093 2.287072 0.678431
341.263519 205.759140 1.713425 0.822304
341.270508 205.799103 1.137669 0.726103
341.269623 205.794098 0.561140 0.727083
341.241638 205.633530 0.000007 0.541176
340.570679 201.789474 0.000000 0.520588
340.142365 199.335480 -0.000029 0.503922
339.844666 197.629807 -0.000048 0.526471
339.625305 196.373154 -0.000067 0.511642
341.394867 205.798050 6.402038 0.732230
341.368408 205.652405 5.763632 0.712010
341.420868 205.941071 5.224136 0.778554
341.431152 205.997742 4.636952 0.678431
341.431152 205.997742 4.045066 0.678431
341.431152 205.997742 3.457621 0.678431
341.388428 205.762512 2.861577 0.839093
341.393036 205.788040 2.287412 0.678431
341.387604 205.758087 1.713086 0.813113
341.394867 205.798050 1.136648 0.713235
341.393677 205.791473 0.559568 0.736397
341.361115 205.612244 0.000007 0.540686
340.663330 201.772934 0.000002 0.523775
340.217896 199.321838 0.000004 0.536029
339.908295 197.618332 -0.000016 0.562010
339.680206 196.363251 -0.000035 0.555270
341.518097 205.789368 6.405528 0.749387
341.492065 205.651627 5.768335 0.699755
341.542511 205.918533 5.224136 0.788113
341.552673 205.972443 4.636547 0.728186
341.552673 205.972443 4.044753 0.721691
341.552673 205.972443 3.457397 0.709559
341.513031 205.762558 2.862696 0.812377
341.511993 205.757050 2.287268 0.842525
341.511993 205.757050 1.712732 0.821446
341.518127 205.789536 1.135956 0.806373
341.517975 205.788788 0.557927 0.790196
341.480438 205.590118 0.000007 0.535662
340.755920 201.755798 0.000001 0.530270
340.293396 199.308228 -0.000064 0.512623
339.971924 197.606842 -0.000081 0.558701
339.735046 196.353348 -0.000102 0.563358
341.634705 205.746002 6.400383 0.730025
341.615967 205.650467 5.773150 0.697059
341.634705 205.745987 5.196482 0.738358
341.634705 205.745987 4.605865 0.722059
341.622223 205.682388 4.013500 0.644485
341.622192 205.682266 3.435112 0.643505
341.634705 205.746002 2.863027 0.715686
341.634705 205.745987 2.287470 0.739461
341.634705 205.745987 1.712530 0.747549
341.634705 205.746002 1.136973 0.757966
341.634705 205.745987 0.559562 0.745221
341.599609 205.567230 0.000002 0.517279
340.848358 201.738022 -0.000003 0.525490
340.368713 199.293503 -0.000025 0.553186
340.035370 197.594421 -0.000039 0.514338
339.789734 196.342667 -0.000061 0.556740
341.759613 205.744827 6.406227 0.746078
341.740204 205.649307 5.778162 0.735907
341.759613 205.744827 5.200727 0.774877
341.759613 205.744827 4.609325 0.755392
341.759613 205.744827 4.023641 0.713848
341.759613 205.744827 3.442350 0.741054
341.759613 205.744827 2.864173 0.736887
341.759613 205.744827 2.287852 0.772672
341.759613 205.744827 1.712148 0.759191
341.759613 205.744827 1.135827 0.742892
341.759613 205.744827 0.557649 0.774387
341.718628 205.543427 0.000004 0.539216
340.940613 201.719589 -0.000004 0.540319
340.443878 199.278107 0.000042 0.543382
340.098694 197.581635 -0.000011 0.524020
339.844360 196.331497 0.000001 0.558824
341.887573 205.756424 6.415575 0.757108
341.864807 205.648438 5.783438 0.725735
341.887512 205.756180 5.207471 0.776348
341.887512 205.756180 4.614824 0.764338
341.887512 205.756180 4.027905 0.757721
341.887512 205.756165 3.445389 0.741544
341.889252 205.764420 2.866407 0.755760
341.887573 205.756454 2.288463 0.748039
341.887573 205.756439 1.711537 0.738725
341.887848 205.757797 1.133926 0.924877
341.887543 205.756393 0.554592 0.762623
341.837494 205.518860 -0.000003 0.540564
341.032806 201.700485 -0.000003 0.534926
340.519104 199.262909 -0.000028 0.533211
340.162048 197.568741 -0.000058 0.526838
339.898987 196.320450 -0.000064 0.519730
342.021423 205.792618 6.431467 0.717525
341.989746 205.647293 5.788852 0.738113
342.019257 205.782623 5.217199 0.678431
342.019257 205.782623 4.622754 0.678431
342.019257 205.782623 4.034056 0.678431
342.021423 205.792603 3.450611 0.762132
342.014771 205.762177 2.867592 0.765441
342.019257 205.782623 2.289333 0.678431
342.019257 205.782623 1.710667 0.678431
341.999481 205.692093 1.135932 0.914216
342.021423 205.792603 0.549389 0.742525
341.956177 205.493393 -0.000001 0.532353
341.124847 201.680756 -0.000003 0.540931
340.594086 199.246658 0.000004 0.551471
340.225250 197.555038 -0.000027 0.578431
339.953491 196.308640 -0.000036 0.545833
342.147797 205.791550 6.438055 0.750980
342.115082 205.646347 5.794509 0.712255
342.145538 205.781570 5.221983 0.678431
342.145538 205.781570 4.626655 0.678431
342.145538 205.781570 4.037080 0.678431
342.147797 205.791550 3.452768 0.740196
342.140656 205.759872 2.868820 0.752328
342.145538 205.781570 2.289763 0.678431
342.145538 205.781570 1.710237 0.678431
342.125092 205.690948 1.134651 0.906005
342.147797 205.791534 0.547232 0.749877
342.074677 205.467148 -0.000001 0.534314
341.216766 201.660370 -0.000001 0.541299
340.668976 199.229904 0.000033 0.544363
340.288330 197.540878 0.000009 0.534314
340.007874 196.296478 -0.000007 0.559559
342.274506 205.790482 6.444881 0.752574
342.240723 205.645218 5.800332 0.709681
342.272217 205.780487 5.226938 0.678431
342.272217 205.780487 4.630693 0.678431
342.272217 205.780487 4.040213 0.678431
342.274506 205.790466 3.455003 0.723529
342.266876 205.757538 2.870093 0.754167
342.272217 205.780487 2.290209 0.678431
342.272217 205.780487 1.709791 0.678431
342.251099 205.689819 1.133323 0.917402
342.274506 205.790451 0.544998 0.763235
342.192963 205.440033 0.000001 0.542402
341.308502 201.639343 0.000001 0.531127
340.743835 199.213120 -0.000032 0.503676
340.351410 197.526749 -0.000055 0.540196
340.062286 196.284409 -0.000105 0.549142
342.401672 205.789413 6.451946 0.740074
342.366791 205.644089 5.806360 0.723284
342.399292 205.779419 5.232067 0.678431
342.399292 205.779419 4.634875 0.678431
342.399292 205.779419 4.043455 0.678431
342.401672 205.789398 3.457315 0.708824
342.393433 205.755142 2.871409 0.770098
342.399292 205.779419 2.290670 0.678431
342.399292 205.779419 1.709330 0.678431
342.377502 205.688675 1.131950 0.914706
342.401672 205.789383 0.542685 0.728676
342.311066 205.412094 0.000001 0.536765
341.400055 201.617645 0.000008 0.539216
340.818481 199.195282 -0.000000 0.519975
340.414307 197.511734 -0.000025 0.528922
340.116516 196.271469 -0.000076 0.562990
342.529205 205.788330 6.459249 0.766422
342.493286 205.643082 5.812618 0.698775
342.526764 205.778336 5.237370 0.678431
342.526764 205.778336 4.639199 0.678431
342.526764 205.778336 4.046809 0.678431
342.529205 205.788315 3.459706 0.734314
342.520416 205.752716 2.872770 0.789338
342.526764 205.778336 2.291147 0.678431
342.526764 205.778336 1.708853 0.678431
342.504272 205.687531 1.130529 0.906740
342.529205 205.788300 0.540294 0.710907
342.429016 205.383408 -0.000004 0.557108
341.491547 201.595383 0.000002 0.551716
340.893066 199.177231 -0.000023 0.516544
340.477112 197.496414 -0.000025 0.538480
340.170624 196.258118 -0.000034 0.538358
342.657196 205.787247 6.466797 0.753554
342.620178 205.641983 5.819066 0.701226
342.654694 205.777252 5.242849 0.678431
342.654694 205.777252 4.643664 0.678431
342.654694 205.777252 4.050273 0.678431
342.657196 205.787231 3.462177 0.754902
342.647766 205.750229 2.874175 0.726225
342.654694 205.777252 2.291640 0.678431
342.654694 205.777252 1.708360 0.678431
342.631500 205.686371 1.129062 0.921814
342.657196 205.787216 0.537823 0.743260
342.546753 205.353836 -0.000005 0.536765
341.582825 201.572449 0.000004 0.513235
340.967590 199.158920 -0.000095 0.528554
340.539886 197.480988 -0.000095 0.529044
340.224792 196.244797 -0.000105 0.563235
342.785614 205.786148 6.474588 0.743873
342.747528 205.640900 5.825726 0.701961
342.782990 205.776169 5.248504 0.678431
342.782990 205.776169 4.648276 0.678431
342.782990 205.776169 4.053848 0.678431
342.785614 205.786148 3.464727 0.797426
342.775543 205.747696 2.875627 0.733456
342.782990 205.776169 2.292149 0.678431
342.782990 205.776169 1.707851 0.678431
342.759155 205.685211 1.127547 0.926225
342.785614 205.786133 0.535274 0.741299
342.664246 205.323441 -0.000003 0.530147
341.673950 201.548874 0.000004 0.548774
341.041840 199.139511 -0.000059 0.548774
340.602448 197.464630 -0.000057 0.560784
340.278748 196.230942 -0.000132 0.535539
342.914490 205.785049 6.482624 0.732353
342.875336 205.639847 5.832603 0.706740
342.911804 205.775070 5.254339 0.678431
342.911804 205.775070 4.653033 0.678431
342.911804 205.775070 4.057537 0.678431
342.914490 205.785034 3.467358 0.731373
342.903717 205.745102 2.877123 0.767770
342.911804 205.775070 2.292674 0.678431
342.911804 205.775070 1.707326 0.678431
342.887268 205.684036 1.125984 0.922181
342.914490 205.785034 0.532643 0.750000
342.781525 205.292206 -0.000002 0.526716
341.764923 201.524658 0.000005 0.519118
341.115967 199.119629 -0.000028 0.529044
340.664886 197.447876 -0.000026 0.555637
340.332611 196.216492 -0.000102 0.532598
343.043854 205.783966 6.490908 0.724142
343.003571 205.638702 5.839672 0.684314
343.041077 205.773972 5.260354 0.678431
343.041077 205.773972 4.657935 0.678431
343.041077 205.773972 4.061339 0.678431
343.043854 205.783951 3.470070 0.738971
343.032349 205.742477 2.878666 0.740074
343.041077 205.773972 2.293214 0.678431
343.041077 205.773972 1.706786 0.678431
343.015808 205.682846 1.124374 0.872426
343.043854 205.783936 0.529931 0.738358
342.898590 205.260147 0.000001 0.537623
341.855713 201.499817 0.000007 0.532353
341.190063 199.099747 -0.000099 0.560172
340.727386 197.431412 -0.000163 0.538971
340.386475 196.202042 -0.000171 0.524877
343.173676 205.782852 6.499444 0.770833
343.132324 205.637680 5.846987 0.718260
343.170837 205.772873 5.266550 0.678431
343.170837 205.772873 4.662987 0.678431
343.170837 205.772873 4.065258 0.678431
343.173676 205.782852 3.472863 0.744976
343.161438 205.739792 2.880255 0.783578
343.170837 205.772873 2.293772 0.678431
343.170837 205.772873 1.706228 0.678431
343.144867 205.681671 1.122714 0.923774
343.173676 205.782837 0.527137 0.739706
343.015411 205.227310 0.000002 0.539828
341.946320 201.474380 0.000000 0.544485
341.263977 199.079071 -0.000116 0.562010
340.789581 197.413788 -0.000132 0.542770
340.440094 196.186859 -0.000142 0.506373
343.304016 205.781769 6.508232 0.742892
343.261536 205.636475 5.854477 0.708211
343.301086 205.771759 5.272931 0.678431
343.301086 205.771759 4.668188 0.678431
343.301086 205.771759 4.069291 0.678431
343.304016 205.781754 3.475740 0.733211
343.289429 205.731873 2.881625 0.717402
343.301086 205.771759 2.294346 0.678431
343.301086 205.771759 1.705655 0.678431
343.274384 205.680466 1.121006 0.920956
343.304016 205.781738 0.524260 0.770956
343.132050 205.193680 -0.000002 0.552083
342.036774 201.448303 -0.000004 0.509314
341.337646 199.057526 -0.000069 0.538725
340.851654 197.395645 -0.000086 0.525858
340.493530 196.171082 -0.000061 0.533088
343.434875 205.780655 6.517274 0.767770
343.391327 205.635483 5.862232 0.714706
343.431854 205.770676 5.279496 0.678431
343.431854 205.770660 4.673540 0.678431
343.431854 205.770660 4.073442 0.678431
343.434875 205.780640 3.478700 0.754289
343.419891 205.730774 2.883394 0.733701
343.431854 205.770676 2.294936 0.678431
343.431854 205.770676 1.705064 0.678431
343.404510 205.679504 1.119236 0.936152
343.434875 205.780640 0.521300 0.745956
343.248413 205.159210 -0.000004 0.539461
342.127014 201.421570 -0.000005 0.552574
341.411346 199.036133 -0.000142 0.518627
340.913727 197.377594 -0.000157 0.574877
340.547089 196.155518 -0.000131 0.551716
343.566254 205.779526 6.526575 0.766422
343.521545 205.634262 5.870157 0.725368
343.563171 205.769547 5.286247 0.678431
343.563171 205.769547 4.679045 0.678431
343.563171 205.769547 4.077711 0.678431
343.566254 205.779510 3.481744 0.781740
343.550903 205.729660 2.885212 0.753431
343.563171 205.769547 2.295543 0.678431
343.563171 205.769547 1.704457 0.678431
343.535156 205.678574 1.117413 0.909069
343.566254 205.779510 0.518256 0.759191
343.364532 205.123932 -0.000002 0.536642
342.217102 201.394211 -0.000004 0.532353
341.484711 199.013641 -0.000109 0.550490
340.975525 197.358521 -0.000091 0.522304
340.600372 196.139191 -0.000099 0.541912
343.698181 205.778412 6.536136 0.719853
343.652435 205.633316 5.878370 0.693873
343.695038 205.768433 5.293188 0.678431
343.695038 205.768433 4.684703 0.678431
343.695038 205.768433 4.082099 0.678431
343.698181 205.778397 3.484874 0.737132
343.682434 205.728546 2.887082 0.751961
343.695038 205.768433 2.296167 0.678431
343.695038 205.768433 1.703833 0.678431
343.666382 205.677612 1.115541 0.916544
343.698181 205.778397 0.515126 0.717892
343.480438 205.087830 -0.000002 0.536520
342.306976 201.366196 -0.000002 0.523039
341.557922 198.990646 -0.000074 0.523775
341.037201 197.339127 -0.000055 0.493382
340.653534 196.122375 -0.000038 0.527451
343.813843 205.725174 6.532238 0.799510
343.783752 205.632050 5.886733 0.707721
343.813873 205.725250 5.292278 0.727696
343.813873 205.725266 4.683963 0.712132
343.813873 205.725266 4.081524 0.739706
343.813873 205.725266 3.483607 0.732966
343.813843 205.725159 2.888886 0.777819
343.813843 205.725174 2.296084 0.702819
343.813843 205.725174 1.703916 0.759314
343.813843 205.725174 1.111113 0.777328
343.813843 205.725174 0.516400 0.720833
343.596039 205.050903 0.000002 0.537132
342.396606 201.337555 0.000002 0.532598
341.631073 198.967484 -0.000108 0.518627
341.098846 197.319763 -0.000121 0.555270
340.706726 196.105698 -0.000108 0.570466
nan nan nan 0.000000
nan nan nan 0.000000
nan nan nan 0.000000
nan nan nan 0.000000
nan nan nan 0.000000
nan nan nan 0.000000
nan nan nan 0.000000
nan nan nan 0.000000
nan nan nan 0.000000
351.035858 227.159500 -0.000014 0.331985
345.911530 211.665482 -0.000015 0.540319
343.711426 205.013260 -0.000006 0.522672
342.486084 201.308350 -0.000002 0.540196
341.703949 198.943405 -0.000063 0.536642
341.160248 197.299469 -0.000076 0.548407
340.759644 196.088211 -0.000064 0.534069
nan nan nan 0.000000
nan nan nan 0.000000
nan nan nan 0.000000
nan nan nan 0.000000
nan nan nan 0.000000
nan nan nan 0.000000
nan nan nan 0.000000
nan nan nan 0.000000
nan nan nan 0.000000
351.305420 227.069427 -0.000021 0.332108
346.072998 211.611435 -0.000013 0.543260
343.826538 204.974716 -0.000004 0.547304
342.575348 201.278458 -0.000000 0.544730
341.776672 198.918869 -0.000028 0.549877
341.221466 197.278671 -0.000008 0.538971
340.812408 196.070267 0.000003 0.545588
nan nan nan 0.000000
nan nan nan 0.000000
nan nan nan 0.000000
nan nan nan 0.000000
nan nan nan 0.000000
nan nan nan 0.000000
nan nan nan 0.000000
nan nan nan 0.000000
nan nan nan 0.000000
351.574341 226.977463 -0.000025 0.332353
346.234100 211.556259 -0.000012 0.534069
343.941345 204.935394 -0.000003 0.540074
342.664429 201.247971 -0.000001 0.538848
341.849396 198.894379 -0.000096 0.531495
341.282745 197.258026 -0.000075 0.529902
340.865234 196.052444 -0.000061 0.554289
nan nan nan 0.000000
nan nan nan 0.000000
nan nan nan 0.000000
nan nan nan 0.000000
nan nan nan 0.000000
nan nan nan 0.000000
nan nan nan 0.000000
nan nan nan 0.000000
nan nan nan 0.000000
351.842621 226.883591 -0.000030 0.332353
346.394836 211.499969 -0.000011 0.536029
344.055878 204.895264 -0.000001 0.541299
342.753265 201.216858 0.000001 0.535172
341.921875 198.869186 -0.000132 0.533211
341.343689 197.236511 -0.000044 0.561152
340.917816 196.033905 -0.000028 0.564583
nan nan nan 0.000000
nan nan nan 0.000000
nan nan nan 0.000000
nan nan nan 0.000000
nan nan nan 0.000000
nan nan nan 0.000000
nan nan nan 0.000000
nan nan nan 0.000000
nan nan nan 0.000000
352.110077 226.787460 -0.000012 0.332108
346.555145 211.442596 -0.000015 0.554779
344.170166 204.854401 -0.000007 0.541544
342.841888 201.185165 -0.000007 0.540319
341.994232 198.843628 -0.000190 0.536029
341.404785 197.215317 -0.000179 0.509559
340.970459 196.015579 -0.000152 0.539093
nan nan nan 0.000000
nan nan nan 0.000000
nan nan nan 0.000000
nan nan nan 0.000000
nan nan nan 0.000000
nan nan nan 0.000000
nan nan nan 0.000000
nan nan nan 0.000000
nan nan nan 0.000000
352.376984 226.689758 -0.000012 0.332598
346.715057 211.384079 -0.000015 0.528064
344.284149 204.812668 -0.000004 0.534804
342.930267 201.152802 -0.000003 0.526961
342.066254 198.817062 -0.000154 0.549877
341.465424 197.192932 -0.000144 0.526226
341.022766 195.996307 -0.000121 0.536152
nan nan nan 0.000000
nan nan nan 0.000000
nan nan nan 0.000000
nan nan nan 0.000000
nan nan nan 0.000000
nan nan nan 0.000000
nan nan nan 0.000000
nan nan nan 0.000000
nan nan nan 0.000000
352.643219 226.590332 -0.000018 0.332475
346.874542 211.324402 -0.000011 0.533333
344.397827 204.770157 -0.000003 0.512745
343.018433 201.119827 -0.000003 0.544240
342.137970 198.789810 -0.000081 0.551348
341.525940 197.170135 -0.000107 0.571201
341.074921 195.976639 -0.000084 0.524142
nan nan nan 0.000000
nan nan nan 0.000000
nan nan nan 0.000000
nan nan nan 0.000000
nan nan nan 0.000000
nan nan nan 0.000000
nan nan nan 0.000000
nan nan nan 0.000000
nan nan nan 0.000000
352.908661 226.488739 -0.000006 0.331985
347.033600 211.263565 -0.000004 0.530392
344.511200 204.726837 0.000000 0.533701
343.106384 201.086227 0.000000 0.556985
342.209808 198.762802 -0.000154 0.524877
341.586395 197.147217 -0.000142 0.529534
341.127045 195.956879 -0.000117 0.587868
nan nan nan 0.000000
nan nan nan 0.000000
nan nan nan 0.000000
nan nan nan 0.000000
nan nan nan 0.000000
nan nan nan 0.000000
nan nan nan 0.000000
nan nan nan 0.000000
nan nan nan 0.000000
353.173431 226.385437 -0.000003 0.332598
347.192261 211.201752 -0.000006 0.539951
344.624298 204.682785 -0.000005 0.532108
343.194092 201.052078 -0.000005 0.559436
342.281219 198.734695 -0.000107 0.556250
341.646545 197.123535 -0.000096 0.497059
341.178955 195.936462 -0.000072 0.496078
nan nan nan 0.000000
nan nan nan 0.000000
nan nan nan 0.000000
nan nan nan 0.000000
nan nan nan 0.000000
nan nan nan 0.000000
nan nan nan 0.000000
nan nan nan 0.000000
nan nan nan 0.000000
353.361633 226.091568 0.009992 1.000000
347.350464 211.138779 -0.000006 0.553554
344.737061 204.637894 -0.000004 0.534804
343.281525 201.017258 -0.000002 0.536887
342.352448 198.706146 -0.000073 0.538235
341.706543 197.099487 -0.000062 0.564706
341.230621 195.915649 -0.000015 0.517279
nan nan nan 0.000000
nan nan nan 0.000000
nan nan nan 0.000000
nan nan nan 0.000000
nan nan nan 0.000000
nan nan nan 0.000000
nan nan nan 0.000000
nan nan nan 0.000000
nan nan nan 0.000000
353.700897 226.173523 -0.000008 0.332108
347.508209 211.074692 -0.000005 0.540686
344.849518 204.592209 -0.000001 0.549387
343.368744 200.981827 -0.000001 0.537500
342.423645 198.677475 -0.000115 0.546201
341.766510 197.075287 -0.000093 0.546324
341.282410 195.894913 -0.000080 0.489951
nan nan nan 0.000000
nan nan nan 0.000000
nan nan nan 0.000000
nan nan nan 0.000000
nan nan nan 0.000000
nan nan nan 0.000000
nan nan nan 0.000000
nan nan nan 0.000000
nan nan nan 0.000000
353.963501 226.064774 -0.000010 0.332598
347.665558 211.009552 -0.000007 0.542279
344.961670 204.545807 -0.000008 0.548774
343.455719 200.945831 -0.000005 0.537990
342.494446 198.647888 -0.000068 0.543015
341.826172 197.050369 -0.000051 0.507966
341.333923 195.873657 -0.000103 0.518873
nan nan nan 0.000000
nan nan nan 0.000000
nan nan nan 0.000000
nan nan nan 0.000000
nan nan nan 0.000000
nan nan nan 0.000000
nan nan nan 0.000000
nan nan nan 0.000000
nan nan nan 0.000000
354.225311 225.954224 -0.000013 0.332230
347.822449 210.943283 -0.000008 0.551838
345.073456 204.498566 -0.000005 0.547549
343.542450 200.909210 -0.000006 0.536397
342.565063 198.617859 -0.000034 0.559681
341.885773 197.025345 -0.000082 0.534681
341.385193 195.851837 -0.000069 0.529657
nan nan nan 0.000000
nan nan nan 0.000000
nan nan nan 0.000000
nan nan nan 0.000000
nan nan nan 0.000000
nan nan nan 0.000000
nan nan nan 0.000000
nan nan nan 0.000000
nan nan nan 0.000000
354.486389 225.841873 -0.000016 0.332598
347.978851 210.875931 -0.000006 0.536029
345.184937 204.450531 -0.000004 0.541912
343.628845 200.871948 -0.000002 0.561520
342.635620 198.587646 -0.000065 0.543382
341.945282 197.000061 -0.000149 0.510049
341.436523 195.830048 -0.000135 0.510294
nan nan nan 0.000000
nan nan nan 0.000000
nan nan nan 0.000000
nan nan nan 0.000000
nan nan nan 0.000000
nan nan nan 0.000000
nan nan nan 0.000000
nan nan nan 0.000000
nan nan nan 0.000000
354.746643 225.727615 -0.000015 0.332843
348.134766 210.807495 -0.000008 0.538725
345.296051 204.401794 -0.000008 0.540196
343.715088 200.834152 -0.000008 0.558333
342.705750 198.556564 -0.000017 0.533456
342.004395 196.973862 -0.000101 0.561520
341.487427 195.807327 -0.000052 0.500245
nan nan nan 0.000000
nan nan nan 0.000000
nan nan nan 0.000000
nan nan nan 0.000000
nan nan nan 0.000000
nan nan nan 0.000000
nan nan nan 0.000000
nan nan nan 0.000000
nan nan nan 0.000000
355.006042 225.611526 -0.000014 0.332230
348.290192 210.737915 -0.000005 0.539338
345.406860 204.352203 -0.000006 0.544240
343.800964 200.795700 -0.000005 0.535417
342.775940 198.525574 -0.000085 0.524265
342.063446 196.947601 -0.000134 0.550000
341.538422 195.784805 -0.000119 0.529534
nan nan nan 0.000000
nan nan nan 0.000000
nan nan nan 0.000000
nan nan nan 0.000000
nan nan nan 0.000000
nan nan nan 0.000000
nan nan nan 0.000000
nan nan nan 0.000000
nan nan nan 0.000000
355.264740 225.493744 -0.000018 0.332108
348.445129 210.667313 -0.000005 0.543627
345.517273 204.301849 -0.000003 0.536642
343.886658 200.756638 -0.000003 0.563603
342.845886 198.493927 -0.000120 0.530515
342.122253 196.920654 -0.000099 0.544608
341.589050 195.761444 -0.000050 0.530515
nan nan nan 0.000000
nan nan nan 0.000000
nan nan nan 0.000000
nan nan nan 0.000000
nan nan nan 0.000000
nan nan nan 0.000000
nan nan nan 0.000000
nan nan nan 0.000000
nan nan nan 0.000000
355.522430 225.373856 -0.000007 0.332843
348.599579 210.595581 -0.000003 0.534069
345.627380 204.250732 -0.000001 0.541544
343.972015 200.716995 0.000000 0.532843
342.915375 198.461426 -0.000082 0.541912
342.180756 196.893173 -0.000035 0.509069
341.639526 195.737839 -0.000013 0.553922
nan nan nan 0.000000
nan nan nan 0.000000
nan nan nan 0.000000
nan nan nan 0.000000
nan nan nan 0.000000
nan nan nan 0.000000
nan nan nan 0.000000
nan nan nan 0.000000
nan nan nan 0.000000
355.779480 225.252655 -0.000021 0.332108
348.753571 210.522858 -0.000007 0.529902
345.737122 204.198883 -0.000005 0.531127
344.057098 200.676788 -0.000003 0.539828
342.984833 198.428741 -0.000105 0.555270
342.239288 196.865768 -0.000094 0.532353
341.689972 195.714081 -0.000035 0.496814
nan nan nan 0.000000
nan nan nan 0.000000
nan nan nan 0.000000
nan nan nan 0.000000
nan nan nan 0.000000
nan nan nan 0.000000
nan nan nan 0.000000
nan nan nan 0.000000
nan nan nan 0.000000
356.035614 225.129410 -0.000022 0.331740
348.906982 210.448990 -0.000005 0.546446
345.846466 204.146240 -0.000002 0.548897
344.141937 200.635956 -0.000002 0.553922
343.053864 198.395264 -0.000066 0.529167
342.297424 196.837433 -0.000021 0.541789
341.740143 195.689789 0.000003 0.537623
nan nan nan 0.000000
nan nan nan 0.000000
nan nan nan 0.000000
nan nan nan 0.000000
nan nan nan 0.000000
nan nan nan 0.000000
nan nan nan 0.000000
nan nan nan 0.000000
nan nan nan 0.000000
356.290710 225.004105 -0.000007 0.332353
349.059937 210.374130 -0.000011 0.527451
345.955475 204.092896 -0.000009 0.544730
344.226471 200.594589 -0.000009 0.549877
343.122925 198.361771 -0.000123 0.527451
342.355591 196.809219 -0.000077 0.562255
341.790436 195.665741 -0.000129 0.524142
nan nan nan 0.000000
nan nan nan 0.000000
nan nan nan 0.000000
nan nan nan 0.000000
nan nan nan 0.000000
nan nan nan 0.000000
nan nan nan 0.000000
nan nan nan 0.000000
nan nan nan 0.000000
356.545135 224.877426 -0.000015 0.332721
349.212341 210.298096 -0.000007 0.524510
346.064117 204.038712 -0.000006 0.522794
344.310699 200.552567 -0.000006 0.554167
343.191406 198.327179 -0.000048 0.504044
342.413361 196.780212 -0.000036 0.519975
341.840179 195.640594 -0.000056 0.492402
nan nan nan 0.000000
nan nan nan 0.000000
nan nan nan 0.000000
nan nan nan 0.000000
nan nan nan 0.000000
nan nan nan 0.000000
nan nan nan 0.000000
nan nan nan 0.000000
nan nan nan 0.000000
356.798553 224.748779 -0.000012 0.332843
349.364166 210.221039 -0.000005 0.538971
346.172302 203.983780 -0.000004 0.521446
344.394653 200.509964 -0.000002 0.550858
343.259735 198.292267 -0.000011 0.508333
342.471100 196.751114 -0.000070 0.566912
341.889832 195.615250 -0.000021 0.578676
nan nan nan 0.000000
nan nan nan 0.000000
nan nan nan 0.000000
nan nan nan 0.000000
nan nan nan 0.000000
nan nan nan 0.000000
nan nan nan 0.000000
nan nan nan 0.000000
nan nan nan 0.000000
357.051178 224.618500 -0.000016 0.332353
349.515503 210.142990 -0.000009 0.536520
346.280182 203.928146 -0.000008 0.524877
344.478271 200.466797 -0.000005 0.549142
343.328308 198.257751 -0.000149 0.543873
342.528656 196.721664 -0.000123 0.568382
341.939392 195.589752 -0.000041 0.493382
nan nan nan 0.000000
nan nan nan 0.000000
nan nan nan 0.000000
nan nan nan 0.000000
nan nan nan 0.000000
nan nan nan 0.000000
nan nan nan 0.000000
nan nan nan 0.000000
nan nan nan 0.000000
357.302734 224.486237 -0.000008 0.332721
349.666260 210.063797 -0.000006 0.542525
346.387634 203.871689 -0.000004 0.541789
344.561615 200.423019 -0.000003 0.545956
343.396118 198.221878 -0.000110 0.565074
342.585754 196.691330 -0.000054 0.546569
341.988678 195.563705 -0.000002 0.554167
nan nan nan 0.000000
nan nan nan 0.000000
nan nan nan 0.000000
nan nan nan 0.000000
nan nan nan 0.000000
nan nan nan 0.000000
nan nan nan 0.000000
nan nan nan 0.000000
nan nan nan 0.000000
357.553436 224.352356 -0.000008 0.332475
