# This PCD file was generated using the MATLABÂ® pcwrite function
# from Computer Vision ToolboxÂ®.
# .PCD v.7 - Point Cloud Data file format
VERSION .7
FIELDS x y z intensity
SIZE 4 4 4 4
TYPE F F F F
COUNT 1 1 1 1
WIDTH 1324
HEIGHT 1
VIEWPOINT 0 0 0 1 0 0 0
POINTS 1324
DATA ascii
387.290985 150.338593 10.139395 10.139395
386.331299 150.954712 7.707842 7.707842
386.323456 150.959747 5.419352 5.419352
386.327454 150.957169 3.139049 3.139049
386.325928 150.958176 0.860982 0.860982
362.011108 166.568344 -0.000004 -0.000004
348.278320 175.384827 -0.000008 -0.000008
342.382050 179.170258 0.000030 0.000030
339.098328 181.278427 0.000031 0.000031
337.002014 182.624268 0.000023 0.000023
335.544922 183.559723 0.000026 0.000026
334.471466 184.248901 0.000023 0.000023
nan nan nan nan
nan nan nan nan
nan nan nan nan
nan nan nan nan
387.322052 149.728714 10.180507 10.180507
386.324097 150.379288 7.732976 7.732976
386.326385 150.377777 5.435003 5.435003
386.328033 150.376709 3.144216 3.144216
386.325775 150.378204 0.855830 0.855830
361.856720 166.329727 -0.000004 -0.000004
348.185852 175.241867 -0.000008 -0.000008
342.316162 179.068344 0.000023 0.000023
339.047211 181.199387 0.000026 0.000026
336.960327 182.559830 0.000019 0.000019
335.509857 183.505402 0.000012 0.000012
334.441162 184.202087 0.000015 0.000015
nan nan nan nan
nan nan nan nan
nan nan nan nan
nan nan nan nan
387.353241 149.112732 10.222414 10.222414
386.331421 149.789078 7.760051 7.760051
386.329376 149.790436 5.450968 5.450968
386.328613 149.790939 3.149486 3.149486
386.325592 149.792923 0.850573 0.850573
361.700684 166.092178 -0.000004 -0.000004
348.092346 175.099533 -0.000009 -0.000009
342.249573 178.966873 0.000017 0.000017
338.995575 181.120682 0.000019 0.000019
336.918182 182.495712 0.000021 0.000021
335.474396 183.451355 0.000006 0.000006
334.410553 184.155502 0.000018 0.000018
nan nan nan nan
nan nan nan nan
nan nan nan nan
nan nan nan nan
nan nan nan nan
386.324463 149.202881 7.786243 7.786243
386.322571 149.204147 5.466671 5.466671
386.323578 149.203476 3.154750 3.154750
386.326935 149.201233 0.845182 0.845182
361.542999 165.855713 -0.000005 -0.000005
347.997894 174.957855 -0.000009 -0.000009
342.182190 178.865921 0.000022 0.000022
338.943329 181.042389 0.000024 0.000024
336.875580 182.431870 0.000026 0.000026
335.438507 183.397583 0.000010 0.000010
334.379639 184.109116 0.000012 0.000012
nan nan nan nan
nan nan nan nan
nan nan nan nan
nan nan nan nan
nan nan nan nan
386.332123 148.601288 7.814421 7.814421
386.325714 148.605652 5.483282 5.483282
386.324158 148.606720 3.160235 3.160235
386.326782 148.604950 0.839713 0.839713
361.383636 165.620377 -0.000004 -0.000004
347.902374 174.816864 -0.000008 -0.000008
342.114136 178.765442 0.000026 0.000026
338.890594 180.964417 0.000018 0.000018
336.832581 182.368317 0.000020 0.000020
335.402252 183.344070 0.000014 0.000014
334.348419 184.062943 0.000007 0.000007
nan nan nan nan
nan nan nan nan
nan nan nan nan
nan nan nan nan
nan nan nan nan
386.325470 148.003754 7.841722 7.841722
386.328918 148.001343 5.500228 5.500228
386.324799 148.004211 3.165827 3.165827
386.326630 148.002945 0.834136 0.834136
361.222656 165.386139 -0.000004 -0.000004
347.805939 174.676498 -0.000010 -0.000010
342.045349 178.665436 0.000031 0.000031
338.837280 180.886871 0.000022 0.000022
336.789124 182.305084 0.000022 0.000022
335.365631 183.290802 0.000018 0.000018
334.316833 184.017044 0.000021 0.000021
nan nan nan nan
nan nan nan nan
nan nan nan nan
nan nan nan nan
nan nan nan nan
386.333496 147.390167 7.871048 7.871048
386.322266 147.398087 5.516916 5.516916
386.325409 147.395859 3.171530 3.171530
386.326477 147.395111 0.828447 0.828447
361.060059 165.153030 -0.000005 -0.000005
347.708527 174.536865 -0.000009 -0.000009
341.975983 178.565826 0.000016 0.000016
338.783417 180.809662 0.000017 0.000017
336.745239 182.242142 0.000017 0.000017
335.328674 183.237747 0.000005 0.000005
334.284973 183.971283 0.000006 0.000006
nan nan nan nan
nan nan nan nan
nan nan nan nan
nan nan nan nan
nan nan nan nan
nan nan nan nan
nan nan nan nan
nan nan nan nan
nan nan nan nan
360.895813 164.921082 -0.000005 -0.000005
347.610107 174.397888 -0.000007 -0.000007
341.905884 178.466751 0.000011 0.000011
338.729065 180.732819 0.000013 0.000013
336.700928 182.179504 0.000013 0.000013
335.291290 183.184982 0.000008 0.000008
334.252747 183.925812 0.000010 0.000010
nan nan nan nan
nan nan nan nan
nan nan nan nan
nan nan nan nan
nan nan nan nan
nan nan nan nan
nan nan nan nan
nan nan nan nan
nan nan nan nan
360.729950 164.690277 -0.000005 -0.000005
347.510742 174.259598 -0.000009 -0.000009
341.835052 178.368195 0.000015 0.000015
338.674133 180.656387 0.000014 0.000014
336.656128 182.117203 0.000018 0.000018
335.253540 183.132507 0.000019 0.000019
334.220215 183.880539 0.000013 0.000013
nan nan nan nan
nan nan nan nan
nan nan nan nan
nan nan nan nan
nan nan nan nan
nan nan nan nan
nan nan nan nan
388.911346 143.635864 3.241804 3.241804
nan nan nan nan
360.562469 164.460632 -0.000005 -0.000005
347.410400 174.121994 -0.000009 -0.000009
341.763489 178.270157 0.000019 0.000019
338.618683 180.580322 0.000010 0.000010
336.610901 182.055191 0.000015 0.000015
335.215454 183.080276 0.000016 0.000016
334.187378 183.835495 0.000007 0.000007
nan nan nan nan
nan nan nan nan
nan nan nan nan
nan nan nan nan
nan nan nan nan
nan nan nan nan
388.358215 143.387405 5.713490 5.713490
394.072906 139.127716 3.353582 3.353582
394.072906 139.127716 0.646418 0.646418
360.393433 164.232178 -0.000005 -0.000005
347.309113 173.985123 -0.000008 -0.000008
341.691315 178.172607 0.000023 0.000023
338.562653 180.504700 0.000021 0.000021
336.565308 181.993484 0.000009 0.000009
335.177032 183.028290 0.000009 0.000009
334.154205 183.790680 0.000011 0.000011
nan nan nan nan
nan nan nan nan
nan nan nan nan
nan nan nan nan
nan nan nan nan
388.579102 142.558701 8.253298 8.253298
387.489258 143.382965 5.679486 5.679486
388.238312 142.816452 3.240986 3.240986
393.115570 139.127731 0.658945 0.658945
360.222778 164.004883 -0.000005 -0.000005
347.206848 173.848953 -0.000008 -0.000008
341.618439 178.075531 0.000019 0.000019
338.506134 180.429398 0.000018 0.000018
336.519196 181.932129 0.000013 0.000013
335.138184 182.976608 0.000013 0.000013
334.120728 183.746124 0.000015 0.000015
nan nan nan nan
nan nan nan nan
nan nan nan nan
nan nan nan nan
nan nan nan nan
387.546906 142.679657 8.179964 8.179964
387.323486 142.851089 5.688841 5.688841
387.392181 142.798370 3.230153 3.230153
387.989990 142.339645 0.757517 0.757517
360.050537 163.778809 -0.000004 -0.000004
347.103668 173.713501 -0.000008 -0.000008
341.544861 177.979019 0.000023 0.000023
338.449097 180.354553 0.000021 0.000021
336.472687 181.871109 0.000017 0.000017
335.099060 182.925156 0.000006 0.000006
334.086975 183.701767 0.000007 0.000007
nan nan nan nan
nan nan nan nan
nan nan nan nan
nan nan nan nan
nan nan nan nan
387.504181 142.046112 8.208959 8.208959
391.381927 139.027283 5.961472 5.961472
387.347076 142.168381 3.235874 3.235874
391.252899 139.127716 0.683128 0.683128
359.876740 163.553925 -0.000004 -0.000004
346.999542 173.578766 -0.000009 -0.000009
341.470612 177.883011 0.000029 0.000029
338.391510 180.280075 0.000023 0.000023
336.425781 181.810379 0.000012 0.000012
335.059479 182.874054 0.000018 0.000018
334.052856 183.657700 0.000020 0.000020
nan nan nan nan
nan nan nan nan
nan nan nan nan
nan nan nan nan
nan nan nan nan
390.669708 138.872437 8.573786 8.573786
390.475891 139.025513 5.926499 5.926499
390.346436 139.127731 3.305198 3.305198
390.346436 139.127731 0.694800 0.694800
359.701324 163.330276 -0.000004 -0.000004
346.894440 173.444763 -0.000009 -0.000009
341.395752 177.787476 0.000021 0.000021
338.333435 180.205994 0.000019 0.000019
336.378418 181.750000 0.000016 0.000016
335.019592 182.823166 0.000016 0.000016
334.018463 183.613831 0.000016 0.000016
nan nan nan nan
nan nan nan nan
nan nan nan nan
nan nan nan nan
nan nan nan nan
389.748444 138.893341 8.513598 8.513598
389.580109 139.028198 5.891975 5.891975
389.455902 139.127716 3.293795 3.293795
389.455902 139.127716 0.706205 0.706205
359.524414 163.107849 -0.000005 -0.000005
346.788452 173.311493 -0.000009 -0.000009
341.320251 177.692459 0.000016 0.000016
338.274841 180.132309 0.000016 0.000016
336.330658 181.689926 0.000011 0.000011
334.979340 182.772568 0.000012 0.000012
333.983795 183.570175 0.000002 0.000002
nan nan nan nan
nan nan nan nan
nan nan nan nan
nan nan nan nan
nan nan nan nan
388.844299 138.913498 8.454868 8.454868
388.705231 139.026520 5.858580 5.858580
388.580688 139.127716 3.282648 3.282648
388.580688 139.127716 0.717352 0.717352
359.345947 162.886658 -0.000005 -0.000005
346.681549 173.178955 -0.000009 -0.000009
341.244019 177.597992 0.000015 0.000015
338.215790 180.059036 0.000013 0.000013
336.282501 181.630219 0.000010 0.000010
334.938812 182.722229 0.000005 0.000005
333.948792 183.526810 0.000012 0.000012
nan nan nan nan
nan nan nan nan
nan nan nan nan
nan nan nan nan
nan nan nan nan
387.944794 138.942749 8.396276 8.396276
387.840118 139.029053 5.825613 5.825613
387.720459 139.127701 3.271755 3.271755
387.720428 139.127701 0.728244 0.728244
359.165924 162.666718 -0.000004 -0.000004
346.573669 173.047195 -0.000008 -0.000008
341.167114 177.504105 0.000021 0.000021
338.156097 179.986252 0.000022 0.000022
336.233887 181.570831 0.000012 0.000012
334.897827 182.672226 0.000011 0.000011
333.913483 183.483673 0.000007 0.000007
nan nan nan nan
nan nan nan nan
nan nan nan nan
nan nan nan nan
nan nan nan nan
387.071808 138.962814 8.340149 8.340149
386.994843 139.027161 5.793722 5.793722
386.874573 139.127716 3.261106 3.261106
386.874573 139.127716 0.738895 0.738895
358.984375 162.448044 -0.000004 -0.000004
346.464874 172.916168 -0.000009 -0.000009
341.089569 177.410736 0.000022 0.000022
338.096069 179.913757 0.000008 0.000008
336.184875 181.511780 0.000008 0.000008
334.856506 182.622482 0.000013 0.000013
333.877869 183.440781 0.000009 0.000009
nan nan nan nan
nan nan nan nan
nan nan nan nan
nan nan nan nan
nan nan nan nan
386.599152 138.655884 8.326714 8.326714
386.478577 138.758118 5.782836 5.782836
386.479645 138.757202 3.260067 3.260067
386.479645 138.757202 0.739933 0.739933
358.801270 162.230652 -0.000004 -0.000004
346.355194 172.785934 -0.000007 -0.000007
341.011383 177.317902 0.000024 0.000024
338.035400 179.841766 0.000010 0.000010
336.135437 181.453094 0.000010 0.000010
334.814911 182.573013 0.000006 0.000006
333.841980 183.398148 0.000012 0.000012
nan nan nan nan
nan nan nan nan
nan nan nan nan
nan nan nan nan
nan nan nan nan
386.524963 138.009155 8.356529 8.356529
386.479584 138.048172 5.805523 5.805523
386.479645 138.048111 3.267602 3.267602
386.479645 138.048111 0.732396 0.732396
358.616699 162.014526 -0.000004 -0.000004
346.244598 172.656448 -0.000007 -0.000007
340.932617 177.225571 0.000017 0.000017
337.974243 179.770233 0.000018 0.000018
336.085571 181.394775 0.000018 0.000018
334.772888 182.523865 0.000013 0.000013
333.805756 183.355743 0.000008 0.000008
nan nan nan nan
nan nan nan nan
nan nan nan nan
nan nan nan nan
391.929260 132.576385 11.797446 11.797446
386.531799 137.284973 8.395833 8.395833
386.480621 137.329620 5.828675 5.828675
386.479675 137.330460 3.275292 3.275292
386.479675 137.330460 0.724706 0.724706
358.430603 161.799698 -0.000004 -0.000004
346.133118 172.527740 -0.000008 -0.000008
340.853180 177.133804 0.000012 0.000012
337.912689 179.699020 0.000004 0.000004
336.035370 181.336731 0.000008 0.000008
334.730591 182.475006 0.000010 0.000010
333.769287 183.313614 0.000005 0.000005
nan nan nan nan
nan nan nan nan
nan nan nan nan
nan nan nan nan
391.031982 132.576385 11.719906 11.719906
386.538818 136.551666 8.435952 8.435952
386.479340 136.604294 5.852146 5.852146
386.479675 136.604019 3.283138 3.283138
386.479675 136.604019 0.716860 0.716860
358.243011 161.586212 -0.000004 -0.000004
346.020721 172.399811 -0.000008 -0.000008
340.772980 177.042694 0.000023 0.000023
337.850525 179.628342 0.000010 0.000010
335.984680 181.279129 0.000015 0.000015
334.687897 182.426453 0.000010 0.000010
333.732483 183.271744 0.000007 0.000007
nan nan nan nan
nan nan nan nan
nan nan nan nan
nan nan nan nan
390.148743 132.576385 11.644039 11.644039
386.546112 135.808914 8.476912 8.476912
386.480469 135.867813 5.876257 5.876257
386.479675 135.868515 3.291146 3.291146
386.479675 135.868515 0.708854 0.708854
358.053955 161.373993 -0.000004 -0.000004
345.907440 172.272675 -0.000008 -0.000008
340.692230 176.952103 0.000028 0.000028
337.787842 179.558121 0.000021 0.000021
335.933655 181.221817 0.000015 0.000015
334.644867 182.378189 0.000018 0.000018
333.695404 183.230133 0.000015 0.000015
nan nan nan nan
nan nan nan nan
nan nan nan nan
nan nan nan nan
389.279175 132.576385 11.569814 11.569814
386.553680 135.056427 8.518738 8.518738
386.479187 135.124237 5.900700 5.900700
386.479675 135.123779 3.299316 3.299316
386.479675 135.123779 0.700684 0.700684
357.863403 161.163116 -0.000004 -0.000004
345.793274 172.146317 -0.000008 -0.000008
340.610931 176.861984 0.000017 0.000017
337.724762 179.488251 0.000018 0.000018
335.882202 181.164886 0.000013 0.000013
334.601563 182.330200 0.000008 0.000008
333.658020 183.188782 0.000013 0.000013
nan nan nan nan
nan nan nan nan
nan nan nan nan
nan nan nan nan
nan nan nan nan
386.568451 134.287567 8.562224 8.562224
386.480377 134.368835 5.925817 5.925817
386.479675 134.369476 3.307656 3.307656
386.479675 134.369476 0.692345 0.692345
357.671387 160.953568 -0.000004 -0.000004
345.678253 172.020767 -0.000008 -0.000008
340.528931 176.772507 0.000019 0.000019
337.661163 179.418854 0.000018 0.000018
335.830353 181.108307 0.000015 0.000015
334.557892 182.282547 0.000011 0.000011
333.620361 183.147675 0.000010 0.000010
nan nan nan nan
nan nan nan nan
nan nan nan nan
nan nan nan nan
nan nan nan nan
386.577789 133.513626 8.605982 8.605982
386.479126 133.605972 5.951282 5.951282
386.479706 133.605438 3.316167 3.316167
386.479675 133.605438 0.683833 0.683833
357.477905 160.745361 -0.000003 -0.000003
345.562317 171.896027 -0.000007 -0.000007
340.446259 176.683624 0.000024 0.000024
337.597076 179.349899 0.000016 0.000016
335.778076 181.052124 0.000021 0.000021
334.513824 182.235214 0.000020 0.000020
333.582397 183.106857 0.000017 0.000017
nan nan nan nan
nan nan nan nan
nan nan nan nan
nan nan nan nan
nan nan nan nan
386.587311 132.729187 8.650663 8.650663
386.480377 132.830658 5.977449 5.977449
386.479706 132.831329 3.324855 3.324855
386.479706 132.831329 0.675146 0.675146
357.282990 160.538528 -0.000004 -0.000004
345.445526 171.772095 -0.000008 -0.000008
340.363007 176.595322 0.000027 0.000027
337.532532 179.281403 0.000019 0.000019
335.725525 180.996246 0.000013 0.000013
334.469513 182.188141 0.000013 0.000013
333.544189 183.066284 0.000011 0.000011
nan nan nan nan
nan nan nan nan
nan nan nan nan
nan nan nan nan
nan nan nan nan
nan nan nan nan
392.737366 126.024872 6.430678 6.430678
392.235718 126.507660 3.464444 3.464444
nan nan nan nan
357.086639 160.333054 -0.000003 -0.000003
345.327850 171.648987 -0.000008 -0.000008
340.279175 176.507553 0.000022 0.000022
337.467529 179.213348 0.000018 0.000018
335.672485 180.940765 0.000012 0.000012
334.424866 182.141388 0.000011 0.000011
333.505646 183.025986 0.000013 0.000013
nan nan nan nan
nan nan nan nan
nan nan nan nan
nan nan nan nan
nan nan nan nan
390.934479 126.904518 9.238684 9.238684
390.701477 127.131920 6.321005 6.321005
392.161530 125.707069 3.472689 3.472689
nan nan nan nan
356.888824 160.128952 -0.000003 -0.000003
345.209351 171.526718 -0.000008 -0.000008
340.194763 176.420334 0.000014 0.000014
337.402008 179.145752 0.000019 0.000019
335.619049 180.885681 0.000015 0.000015
334.379852 182.095001 0.000016 0.000016
333.466919 182.985931 0.000005 0.000005
nan nan nan nan
nan nan nan nan
nan nan nan nan
nan nan nan nan
nan nan nan nan
390.890594 126.080864 9.283453 9.283453
nan nan nan nan
392.165100 124.819595 3.482912 3.482912
nan nan nan nan
356.689636 159.926239 -0.000004 -0.000004
345.089996 171.405243 -0.000008 -0.000008
340.109680 176.333801 0.000018 0.000018
337.336060 179.078583 0.000010 0.000010
335.565308 180.830917 0.000007 0.000007
334.334564 182.048859 0.000012 0.000012
333.427826 182.946198 0.000009 0.000009
nan nan nan nan
nan nan nan nan
nan nan nan nan
nan nan nan nan
nan nan nan nan
390.151489 125.944031 9.248446 9.248446
nan nan nan nan
390.823761 125.269424 3.462168 3.462168
nan nan nan nan
356.489014 159.724915 -0.000003 -0.000003
344.969818 171.284622 -0.000008 -0.000008
340.024017 176.247833 0.000018 0.000018
337.269592 179.011932 0.000014 0.000014
335.511169 180.776581 0.000010 0.000010
334.288940 182.003052 0.000005 0.000005
333.388489 182.906693 0.000006 0.000006
nan nan nan 0.000000
nan nan nan 0.000000
nan nan nan 0.000000
nan nan nan 0.000000
nan nan nan 0.000000
304.361694 212.365646 4.736391 0.398162
304.792389 211.927368 3.609299 0.398775
nan nan nan 0.000000
nan nan nan 0.000000
299.218353 217.599655 0.000012 0.540686
310.656464 205.959915 0.000005 0.551593
315.567261 200.962570 -0.000007 0.549755
318.302368 198.179230 -0.000003 0.539583
320.048492 196.402313 0.000002 0.535049
321.262115 195.167297 0.000002 0.559681
322.156250 194.257401 0.000002 0.540319
nan nan nan 0.000000
nan nan nan 0.000000
nan nan nan 0.000000
nan nan nan 0.000000
nan nan nan 0.000000
304.469055 212.589615 4.743385 0.397549
304.890198 212.155045 3.613948 0.405515
303.876434 213.201187 2.561437 0.391054
303.877563 213.200027 1.438590 0.373774
303.891724 213.185425 0.315564 0.375980
310.778320 206.078842 0.000003 0.553186
315.654083 201.047333 -0.000008 0.549755
318.369751 198.244949 0.000000 0.533946
320.103424 196.455902 0.000005 0.569118
321.308350 195.212494 -0.000008 0.578922
322.196136 194.296356 -0.000002 0.532475
nan nan nan 0.000000
nan nan nan 0.000000
nan nan nan 0.000000
nan nan nan 0.000000
nan nan nan 0.000000
304.166321 213.244568 4.799296 0.394608
303.783386 213.645264 3.704403 0.377696
304.759003 212.624329 2.544621 0.397304
nan nan nan 0.000000
299.626587 217.995193 0.000013 0.533456
310.901001 206.196930 0.000003 0.533701
315.741577 201.131485 -0.000006 0.558578
318.437561 198.310211 0.000003 0.526471
320.158722 196.509094 0.000007 0.516054
321.354950 195.257294 -0.000001 0.545343
322.236298 194.334991 0.000001 0.539951
nan nan nan 0.000000
nan nan nan 0.000000
nan nan nan 0.000000
nan nan nan 0.000000
nan nan nan 0.000000
304.465942 213.274109 4.784141 0.399265
305.194946 212.500519 3.615876 0.390564
nan nan nan 0.000000
nan nan nan 0.000000
299.832336 218.191284 -0.000016 0.537868
311.024628 206.314026 0.000016 0.531127
315.829773 201.214859 0.000023 0.560784
318.505890 198.374969 0.000012 0.539706
320.214386 196.561905 0.000009 0.539093
321.401855 195.301788 -0.000000 0.582353
322.276764 194.373322 0.000013 0.574510
nan nan nan 0.000000
nan nan nan 0.000000
nan nan nan 0.000000
nan nan nan 0.000000
nan nan nan 0.000000
304.774261 213.290527 4.767849 0.396324
304.207611 213.900345 3.699230 0.403554
304.778503 213.285965 2.552282 0.407843
nan nan nan 0.000000
300.039917 218.385437 -0.000014 0.540809
311.149017 206.430389 0.000016 0.546691
315.918427 201.297775 0.000024 0.529167
318.574585 198.439316 0.000004 0.525613
320.270416 196.614334 0.000011 0.578064
321.449066 195.345932 0.000005 0.525735
322.317474 194.411423 0.000008 0.569485
nan nan nan 0.000000
nan nan nan 0.000000
nan nan nan 0.000000
nan nan nan 0.000000
nan nan nan 0.000000
nan nan nan 0.000000
304.627167 213.799896 3.681626 0.399510
304.498566 213.940262 2.563257 0.406250
nan nan nan 0.000000
300.248779 218.578186 -0.000014 0.534069
311.274170 206.545837 0.000018 0.537990
316.007538 201.380142 0.000014 0.534926
318.643799 198.503143 0.000007 0.541789
320.326843 196.666351 0.000016 0.532475
321.496582 195.389771 0.000006 0.558456
322.358429 194.449203 0.000011 0.506250
nan nan nan 0.000000
nan nan nan 0.000000
nan nan nan 0.000000
nan nan nan 0.000000
nan nan nan 0.000000
nan nan nan 0.000000
304.598450 214.188126 3.696681 0.402206
304.487915 214.310471 2.567855 0.403676
nan nan nan 0.000000
300.458954 218.769470 -0.000015 0.540074
311.400085 206.660431 0.000019 0.534069
316.097321 201.461823 0.000015 0.542647
318.713440 198.566467 0.000011 0.550368
320.383606 196.717987 0.000016 0.527574
321.544434 195.433258 0.000014 0.518995
322.399658 194.486740 0.000005 0.562990
nan nan nan 0.000000
nan nan nan 0.000000
nan nan nan 0.000000
nan nan nan 0.000000
nan nan nan 0.000000
nan nan nan 0.000000
305.650543 213.369751 3.632241 0.411152
304.568237 214.584488 2.570315 0.407721
nan nan nan 0.000000
300.670532 218.959274 -0.000015 0.537010
311.526855 206.774155 0.000019 0.532721
316.187683 201.542831 0.000019 0.530882
318.783447 198.629333 0.000010 0.542892
320.440674 196.769272 0.000008 0.493873
321.592560 195.476425 0.000016 0.521569
322.441132 194.523987 0.000000 0.506495
nan nan nan 0.000000
nan nan nan 0.000000
nan nan nan 0.000000
nan nan nan 0.000000
nan nan nan 0.000000
nan nan nan 0.000000
305.560913 213.823166 3.651841 0.387132
nan nan nan 0.000000
nan nan nan 0.000000
300.883392 219.147598 -0.000014 0.533578
311.654358 206.887054 0.000013 0.532475
316.278595 201.623230 0.000023 0.548039
318.853943 198.691742 0.000003 0.529044
320.498169 196.820099 0.000012 0.524142
321.640961 195.519287 0.000012 0.552819
322.482880 194.560913 0.000004 0.525368
nan nan nan 0.000000
nan nan nan 0.000000
nan nan nan 0.000000
nan nan nan 0.000000
nan nan nan 0.000000
nan nan nan 0.000000
305.538971 214.207031 3.666760 0.402941
nan nan nan 0.000000
nan nan nan 0.000000
301.097595 219.334427 -0.000014 0.537745
311.782654 206.999008 0.000010 0.549142
316.370056 201.703049 0.000020 0.522304
318.924866 198.753616 0.000003 0.529412
320.555969 196.870590 0.000001 0.563848
321.689667 195.561768 0.000011 0.545098
322.524902 194.597549 0.000006 0.541544
nan nan nan 0.000000
nan nan nan 0.000000
nan nan nan 0.000000
nan nan nan 0.000000
nan nan nan 0.000000
nan nan nan 0.000000
nan nan nan 0.000000
nan nan nan 0.000000
nan nan nan 0.000000
301.313049 219.519775 -0.000015 0.541176
311.911743 207.110031 0.000013 0.538971
316.462006 201.782242 0.000014 0.539706
318.996246 198.814987 0.000003 0.543873
320.614136 196.920609 0.000006 0.565319
321.738708 195.603912 0.000014 0.497917
322.567139 194.633926 -0.000003 0.510172
313.087708 205.977875 7.702944 0.671569
313.087708 205.977875 6.917294 0.639583
313.087708 205.977875 6.142673 0.659926
313.087708 205.977875 5.377228 0.612990
313.087708 205.977875 4.619182 0.625735
313.087708 205.977875 3.866822 0.703186
313.087708 205.977890 3.118492 0.637990
313.087677 205.977921 2.372565 0.614828
313.087677 205.977905 1.627435 0.653799
313.087677 205.977905 0.881506 0.628186
313.087677 205.977921 0.133173 0.627206
316.554596 201.860718 0.000016 0.522059
319.067993 198.875900 -0.000003 0.546078
320.672699 196.970230 0.000009 0.529044
321.787964 195.645752 0.000008 0.529412
322.609650 194.669952 0.000003 0.577574
313.295685 205.976181 7.669199 0.630024
313.295685 205.976196 6.888197 0.621324
313.295685 205.976181 6.118161 0.602328
313.295685 205.976196 5.357245 0.638358
313.295685 205.976196 4.603683 0.668873
313.295685 205.976181 3.855776 0.675245
313.295685 205.976181 3.111873 0.668382
313.295715 205.976166 2.370359 0.625245
313.295715 205.976166 1.629641 0.661642
313.295715 205.976151 0.888128 0.637623
313.295715 205.976166 0.144227 0.606495
316.647705 201.938553 0.000018 0.558946
319.140228 198.936279 -0.000000 0.532721
320.731537 197.019455 0.000005 0.535294
321.837585 195.687210 0.000010 0.544730
322.652405 194.705704 0.000006 0.570588
313.501373 205.974319 7.636065 0.676471
313.501404 205.974319 6.859628 0.675980
313.501373 205.974319 6.094093 0.648407
313.501404 205.974319 5.337623 0.615564
313.501373 205.974319 4.588467 0.618627
313.501373 205.974319 3.844931 0.623407
313.501373 205.974319 3.105375 0.614093
313.501312 205.974411 2.368197 0.621936
313.501312 205.974411 1.631803 0.645343
313.501312 205.974411 0.894619 0.671324
313.501312 205.974411 0.155060 0.630270
316.741333 202.015823 0.000008 0.537868
319.212799 198.996201 -0.000012 0.542402
320.790710 197.068329 -0.000006 0.539093
321.887482 195.728348 0.000006 0.541789
322.695465 194.741165 0.000004 0.440441
313.704529 205.972733 7.603665 0.636765
313.704529 205.972733 6.831693 0.662010
313.704529 205.972717 6.070557 0.659436
313.704529 205.972717 5.318437 0.626716
313.704529 205.972733 4.573586 0.623162
313.704529 205.972717 3.834324 0.643873
313.704529 205.972717 3.099020 0.627328
313.704559 205.972687 2.366077 0.623652
313.704559 205.972687 1.633922 0.631005
313.704559 205.972687 0.900981 0.656127
313.704559 205.972687 0.165679 0.632353
316.835541 202.092346 0.000011 0.535172
319.285950 199.055435 0.000015 0.541544
320.850281 197.116699 -0.000004 0.507230
321.937592 195.769150 -0.000005 0.578922
322.738708 194.776306 0.000007 0.540809
313.905487 205.970978 7.571851 0.586887
313.905487 205.970978 6.804260 0.612377
313.905487 205.970978 6.047446 0.706495
313.905487 205.970978 5.299597 0.627696
313.905487 205.970978 4.558974 0.627328
313.905487 205.970978 3.823910 0.623652
313.905487 205.970978 3.092781 0.661152
313.905457 205.970978 2.364000 0.604902
313.905457 205.970978 1.636000 0.631005
313.905457 205.970978 0.907218 0.677819
313.905457 205.970978 0.176088 0.601961
316.930267 202.168228 0.000012 0.522181
319.359375 199.114334 0.000004 0.530637
320.910187 197.164673 -0.000002 0.533456
321.988098 195.809555 0.000004 0.525245
322.782196 194.811172 0.000002 0.511642
314.104156 205.969284 7.540675 0.624387
314.104156 205.969284 6.777378 0.621569
314.104156 205.969284 6.024800 0.614338
314.104156 205.969284 5.281134 0.637010
314.104156 205.969284 4.544657 0.627574
314.104156 205.969284 3.813704 0.627696
314.104156 205.969269 3.086666 0.637623
314.104126 205.969299 2.361964 0.604534
314.104126 205.969299 1.638036 0.619853
314.104126 205.969315 0.913331 0.645221
314.104126 205.969299 0.186292 0.627328
317.025482 202.243484 0.000007 0.531373
319.433258 199.172653 0.000006 0.536642
320.970398 197.212250 -0.000007 0.522181
322.038788 195.849655 -0.000006 0.529902
322.825989 194.845688 0.000013 0.480760
314.300598 205.967621 7.510120 0.675123
314.300598 205.967621 6.751033 0.621201
314.300598 205.967621 6.002604 0.665686
314.300598 205.967621 5.263041 0.646201
314.300598 205.967621 4.530623 0.628554
314.300598 205.967621 3.803703 0.632966
314.300598 205.967621 3.080674 0.631618
314.300568 205.967636 2.359968 0.623039
314.300568 205.967636 1.640032 0.655882
314.300598 205.967636 0.919324 0.676348
314.300598 205.967636 0.196294 0.663358
317.121246 202.318039 0.000008 0.547181
319.507538 199.230438 0.000013 0.555270
321.030945 197.259384 -0.000004 0.514951
322.089813 195.889343 0.000001 0.506740
322.869934 194.879959 0.000001 0.505760
314.494873 205.965988 7.480172 0.651471
314.494873 205.966003 6.725212 0.630270
314.494873 205.966003 5.980851 0.636152
314.494904 205.965988 5.245306 0.648775
314.494873 205.965988 4.516870 0.675735
314.494873 205.965988 3.793900 0.661152
314.494873 205.965988 3.074800 0.647549
314.494904 205.965988 2.358011 0.624877
314.494904 205.965988 1.641989 0.640809
314.494904 205.965988 0.925200 0.680147
314.494904 205.965988 0.206100 0.668382
317.217560 202.391891 0.000011 0.539951
319.582245 199.287720 0.000017 0.501716
321.091827 197.306091 -0.000003 0.578799
322.141113 195.928680 0.000005 0.522917
322.914154 194.913895 0.000004 0.528799
314.687073 205.964417 7.450819 0.635539
314.687073 205.964417 6.699901 0.669118
314.687073 205.964417 5.959528 0.646691
314.687073 205.964417 5.227922 0.625980
314.687073 205.964417 4.503387 0.674632
314.687073 205.964417 3.784291 0.618382
314.687073 205.964417 3.069044 0.631250
314.687103 205.964355 2.356092 0.641544
314.687103 205.964355 1.643908 0.628676
314.687134 205.964355 0.930960 0.648775
314.687103 205.964355 0.215714 0.651348
317.314362 202.465103 0.000012 0.552083
319.657349 199.344498 0.000020 0.535049
321.153046 197.352341 0.000005 0.493505
322.192688 195.967667 0.000006 0.506127
322.958618 194.947510 0.000007 0.528676
314.877319 205.962738 7.422002 0.594118
314.877319 205.962738 6.675056 0.647181
314.877319 205.962738 5.938595 0.617157
314.877319 205.962738 5.210858 0.647059
314.877319 205.962738 4.490153 0.618260
314.877319 205.962738 3.774858 0.606863
314.877319 205.962723 3.063392 0.646201
314.877289 205.962753 2.354211 0.634804
314.877289 205.962753 1.645789 0.649020
314.877289 205.962753 0.936606 0.635662
314.877289 205.962753 0.225139 0.656250
317.411713 202.537598 0.000015 0.550490
319.732788 199.400772 0.000015 0.518137
321.214600 197.398193 0.000008 0.538725
322.244507 196.006317 0.000003 0.543873
323.003326 194.980774 0.000017 0.512132
315.065430 205.961197 7.393795 0.627819
315.065430 205.961212 6.650735 0.645711
315.065430 205.961212 5.918106 0.646936
315.065430 205.961197 5.194154 0.646201
315.065430 205.961212 4.477200 0.650613
315.065430 205.961197 3.765625 0.641667
315.065430 205.961212 3.057860 0.658946
315.065460 205.961151 2.352367 0.612745
315.065460 205.961151 1.647633 0.703309
315.065460 205.961151 0.942143 0.640441
315.065460 205.961151 0.234380 0.669608
317.509491 202.609497 0.000010 0.532843
319.808685 199.456482 0.000018 0.526348
321.276489 197.443573 0.000019 0.565809
322.296600 196.044571 0.000005 0.514583
323.048248 195.013824 0.000005 0.573162
315.251709 205.959595 7.366109 0.646691
315.251709 205.959595 6.626862 0.611887
315.251709 205.959595 5.897993 0.637868
315.251709 205.959595 5.177759 0.627819
315.251709 205.959595 4.464484 0.638480
315.251709 205.959595 3.756562 0.646446
315.251709 205.959595 3.052430 0.643627
315.251709 205.959579 2.350559 0.643627
315.251709 205.959579 1.649441 0.665441
315.251709 205.959579 0.947571 0.627696
315.251709 205.959579 0.243439 0.646936
317.607758 202.680740 -0.000002 0.521691
319.884857 199.511734 0.000006 0.528064
321.338623 197.488586 0.000014 0.530025
322.348969 196.082504 0.000001 0.467279
323.093353 195.046524 0.000002 0.566912
315.436066 205.958023 7.338970 0.625613
315.436066 205.958023 6.603462 0.650980
315.436066 205.958023 5.878280 0.680025
315.436066 205.958023 5.161687 0.605392
315.436066 205.958023 4.452020 0.661765
315.436066 205.958023 3.747678 0.616912
315.436066 205.958023 3.047107 0.628676
315.436066 205.958023 2.348786 0.643873
315.436066 205.958023 1.651214 0.671569
315.436066 205.958023 0.952893 0.626103
315.436066 205.958023 0.252321 0.660784
317.706573 202.751205 0.000000 0.536274
319.961517 199.566376 0.000009 0.553431
321.401093 197.533142 0.000016 0.525000
322.401581 196.120026 0.000004 0.542892
323.138763 195.078888 0.000004 0.561765
315.618591 205.956467 7.312364 0.636765
315.618591 205.956467 6.580522 0.639706
315.618591 205.956467 5.858954 0.674755
315.618591 205.956467 5.145932 0.634681
315.618591 205.956467 4.439801 0.644730
315.618591 205.956467 3.738969 0.627696
315.618591 205.956467 3.041889 0.647917
315.618591 205.956467 2.347048 0.636397
315.618591 205.956467 1.652952 0.644608
315.618591 205.956467 0.958110 0.644853
315.618591 205.956467 0.261030 0.666054
317.805878 202.820984 0.000002 0.550613
320.038544 199.620453 0.000018 0.543015
321.463837 197.577301 0.000005 0.521691
322.454468 196.157242 -0.000007 0.523652
323.184387 195.110931 0.000002 0.581740
315.799286 205.954941 7.286283 0.647059
315.799286 205.954941 6.558033 0.608824
315.799286 205.954941 5.840009 0.647794
315.799286 205.954941 5.130486 0.667892
315.799286 205.954941 4.427823 0.614706
315.799286 205.954941 3.730431 0.630515
315.799286 205.954941 3.036774 0.622181
315.799286 205.954941 2.345344 0.623162
315.799286 205.954941 1.654655 0.677941
315.799286 205.954941 0.963225 0.624632
315.799286 205.954941 0.269568 0.614093
317.905670 202.890060 0.000004 0.548284
320.115936 199.674011 0.000022 0.537745
321.526978 197.620956 0.000015 0.527206
322.507629 196.194016 0.000002 0.542647
323.230194 195.142685 0.000002 0.562377
315.978241 205.953430 7.260713 0.678309
315.978241 205.953430 6.535986 0.624142
315.978241 205.953430 5.821434 0.662745
315.978241 205.953430 5.115345 0.675000
315.978241 205.953430 4.416079 0.636275
315.978241 205.953430 3.722061 0.659681
315.978241 205.953445 3.031760 0.664093
315.978241 205.953415 2.343674 0.610907
315.978241 205.953415 1.656326 0.651961
315.978241 205.953415 0.968241 0.627574
315.978241 205.953415 0.277940 0.648407
318.005981 202.958374 0.000015 0.553799
320.193665 199.727127 0.000009 0.530882
321.590363 197.664185 0.000017 0.529167
322.561035 196.230438 0.000004 0.529657
323.276245 195.174088 -0.000001 0.531005
316.155457 205.951965 7.235646 0.632721
316.155457 205.951965 6.514371 0.659314
316.155457 205.951965 5.803224 0.646569
316.155457 205.951965 5.100499 0.646569
316.155457 205.951965 4.404566 0.633701
316.155457 205.951950 3.713855 0.636397
316.155457 205.951981 3.026844 0.666544
316.155487 205.951920 2.342036 0.643015
316.155487 205.951935 1.657964 0.668995
316.155487 205.951935 0.973159 0.631127
316.155487 205.951935 0.286147 0.659559
318.106750 203.026062 0.000017 0.551961
320.271820 199.779617 0.000010 0.566667
321.654053 197.706955 0.000020 0.533824
322.614716 196.266479 0.000005 0.543995
323.322510 195.205185 0.000000 0.580024
316.331055 205.950424 7.211052 0.615074
316.331055 205.950439 6.493166 0.630392
316.331055 205.950424 5.785359 0.664951
316.331055 205.950439 5.085937 0.632230
316.331055 205.950424 4.393271 0.623652
316.331055 205.950424 3.705804 0.641544
316.331055 205.950424 3.022019 0.641789
316.331055 205.950439 2.340430 0.612010
316.331055 205.950439 1.659570 0.697917
316.331055 205.950439 0.977980 0.633946
316.331055 205.950424 0.294195 0.644363
318.207794 203.093262 -0.000012 0.534559
320.350250 199.831635 -0.000002 0.535539
321.717987 197.749405 0.000002 0.566422
322.668610 196.302185 0.000001 0.523407
323.368958 195.235977 -0.000012 0.558088
316.504974 205.948975 7.186957 0.616422
316.504974 205.948975 6.472390 0.650245
316.504974 205.948975 5.767857 0.653064
316.504974 205.948975 5.071666 0.688480
316.504974 205.948975 4.382206 0.624632
316.504974 205.948975 3.697918 0.630392
316.504944 205.948990 3.017295 0.645466
316.504974 205.948959 2.338856 0.587010
316.504974 205.948959 1.661144 0.665319
316.504974 205.948959 0.982707 0.635662
316.504974 205.948959 0.302084 0.648529
318.309509 203.159531 -0.000010 0.555270
320.429108 199.883026 -0.000001 0.535172
321.782288 197.791290 0.000005 0.531250
322.722809 196.337433 0.000013 0.543750
323.415680 195.266388 -0.000001 0.516789
316.677307 205.947510 7.163325 0.624755
316.677307 205.947495 6.452013 0.653922
316.677307 205.947495 5.750689 0.620466
316.677307 205.947510 5.057672 0.670343
316.677307 205.947495 4.371351 0.624265
316.677307 205.947495 3.690181 0.638113
316.677307 205.947510 3.012659 0.629412
316.677307 205.947495 2.337312 0.589583
316.677307 205.947495 1.662688 0.678431
316.677307 205.947495 0.987341 0.631005
316.677307 205.947495 0.309818 0.621078
318.411621 203.225082 -0.000008 0.543627
320.508301 199.933899 -0.000003 0.530270
321.846863 197.832748 0.000005 0.554289
322.777222 196.372360 0.000017 0.559926
323.462555 195.296539 -0.000014 0.532230
316.848083 205.946045 7.140157 0.633578
316.848083 205.946045 6.432037 0.633578
316.848083 205.946045 5.733861 0.643750
316.848083 205.946045 5.043952 0.660294
316.848083 205.946045 4.360712 0.646324
316.848083 205.946045 3.682597 0.633824
316.848083 205.946030 3.008114 0.638848
316.848083 205.946045 2.335799 0.584069
316.848083 205.946045 1.664201 0.635294
316.848083 205.946045 0.991885 0.629044
316.848083 205.946045 0.317402 0.617770
318.514282 203.289841 0.000004 0.535784
320.587891 199.984192 -0.000002 0.527696
321.911713 197.873734 0.000008 0.496324
322.831818 196.406952 0.000002 0.531985
323.509705 195.326294 -0.000002 0.555515
317.017334 205.944611 7.117447 0.645833
317.017334 205.944611 6.412457 0.659436
317.017334 205.944611 5.717364 0.643137
317.017334 205.944611 5.030504 0.628309
317.017334 205.944611 4.350282 0.644485
317.017334 205.944611 3.675163 0.672549
317.017365 205.944595 3.003660 0.635539
317.017334 205.944611 2.334315 0.597181
317.017334 205.944611 1.665685 0.706495
317.017334 205.944611 0.996338 0.619976
317.017334 205.944611 0.324836 0.609314
318.617310 203.353989 0.000003 0.547059
320.667786 200.033936 -0.000004 0.573039
321.976898 197.914246 0.000017 0.533456
322.886719 196.441071 0.000012 0.571078
323.557037 195.355759 -0.000004 0.485784
317.178986 205.953323 7.098153 0.767279
317.178986 205.953323 6.395820 0.757353
317.185120 205.943192 5.701193 0.613971
317.178986 205.953323 5.019077 0.762377
317.178986 205.953323 4.341419 0.762377
317.178986 205.953323 3.668848 0.762990
317.185150 205.943176 2.999294 0.632598
317.185120 205.943192 2.332861 0.589828
317.185120 205.943192 1.667140 0.617034
317.185120 205.943192 1.000705 0.611520
317.185120 205.943192 0.332123 0.615319
318.720795 203.417389 0.000005 0.532475
320.748047 200.083115 -0.000003 0.533946
322.042328 197.954330 0.000018 0.547917
322.941864 196.474838 0.000014 0.575368
323.604553 195.384872 -0.000003 0.538971
317.312653 206.006668 7.092302 0.678431
317.345428 205.951904 6.376991 0.755882
317.351471 205.941788 5.685340 0.667157
317.312653 206.006668 5.015613 0.678431
317.312653 206.006668 4.338734 0.678431
317.312653 206.006668 3.666932 0.678431
317.351471 205.941772 2.995014 0.631005
317.351471 205.941788 2.331435 0.615809
317.351471 205.941788 1.668565 0.667402
317.351471 205.941788 1.004985 0.648529
317.351471 205.941788 0.339267 0.642034
318.824738 203.480072 0.000005 0.534681
320.828674 200.131714 -0.000001 0.539706
322.108002 197.994034 0.000004 0.568505
322.997223 196.508240 0.000014 0.555270
323.652344 195.413589 0.000021 0.531495
317.478180 206.005280 7.070830 0.678431
317.510437 205.950516 6.358535 0.772549
317.516418 205.940399 5.669800 0.645588
317.478180 206.005264 5.002897 0.678431
317.478180 206.005264 4.328872 0.678431
317.478180 206.005264 3.659904 0.678431
317.516418 205.940384 2.990819 0.631618
317.516418 205.940399 2.330037 0.614706
317.516418 205.940399 1.669963 0.662377
317.516388 205.940399 1.009181 0.656250
317.516418 205.940399 0.346270 0.630270
318.929108 203.542038 0.000007 0.527941
320.909637 200.179703 0.000013 0.511520
322.173981 198.033203 0.000006 0.519363
323.052795 196.541245 0.000012 0.552941
323.700256 195.442047 0.000022 0.508946
317.642365 206.003876 7.049782 0.678431
317.673676 205.949860 6.340628 0.723039
317.679962 205.938995 5.654567 0.637745
317.642365 206.003860 4.990433 0.678431
317.642365 206.003860 4.319205 0.678431
317.642365 206.003860 3.653014 0.678431
317.679962 205.938995 2.986706 0.661642
317.679962 205.938995 2.328668 0.615686
317.679962 205.938995 1.671333 0.705760
317.679962 205.938995 1.013293 0.654167
317.679962 205.938995 0.353133 0.623407
319.033875 203.603363 -0.000006 0.534314
320.990845 200.227264 -0.000001 0.527451
322.240234 198.071915 0.000004 0.581250
323.108582 196.573914 -0.000001 0.576348
323.748383 195.470200 0.000010 0.553554
317.805176 206.002487 7.029155 0.678431
317.842163 205.937637 6.320199 0.659069
317.842163 205.937637 5.639639 0.647059
317.805176 206.002487 4.978217 0.678431
317.805176 206.002487 4.309731 0.678431
317.805176 206.002487 3.646262 0.678431
317.842163 205.937637 2.982677 0.624142
317.842163 205.937637 2.327325 0.615686
317.842163 205.937637 1.672675 0.660784
317.842163 205.937637 1.017324 0.671201
317.842163 205.937637 0.359861 0.625245
319.139038 203.663895 -0.000010 0.535049
321.072388 200.274292 -0.000017 0.511029
322.306763 198.110168 0.000006 0.511887
323.164642 196.606155 -0.000002 0.495956
323.796692 195.498001 0.000006 0.500490
317.966675 206.001129 7.008936 0.678431
318.003052 205.936264 6.302830 0.624020
318.003052 205.936264 5.625008 0.617279
317.966675 206.001129 4.966244 0.678431
317.966675 206.001129 4.300446 0.678431
317.966675 206.001129 3.639643 0.678431
318.003052 205.936264 2.978725 0.628554
318.003052 205.936264 2.326008 0.615686
318.003052 205.936264 1.673991 0.688603
318.003052 205.936264 1.021274 0.656005
318.003052 205.936264 0.366455 0.625858
319.244720 203.723633 -0.000008 0.540564
321.154327 200.320633 -0.000016 0.534559
322.373505 198.148041 -0.000010 0.576226
323.220886 196.637985 -0.000001 0.530637
323.845184 195.525452 0.000005 0.545466
318.126862 205.999771 6.989122 0.678431
318.162689 205.934906 6.285810 0.642647
318.162689 205.934906 5.610667 0.614216
318.126862 205.999771 4.954510 0.678431
318.126892 205.999771 4.291346 0.678431
318.126862 205.999771 3.633157 0.678431
318.162689 205.934906 2.974854 0.661765
318.162689 205.934906 2.324719 0.623897
318.162689 205.934906 1.675281 0.643995
318.162689 205.934906 1.025146 0.635784
318.162689 205.934906 0.372916 0.626471
319.350830 203.782532 0.000009 0.537623
321.236633 200.366318 0.000001 0.563113
322.440582 198.185272 0.000007 0.502206
323.277466 196.669296 0.000029 0.557353
323.893921 195.552490 0.000023 0.493382
318.285828 205.998428 6.969707 0.678431
318.321045 205.933578 6.269131 0.676961
318.321045 205.933578 5.596617 0.667892
318.285828 205.998413 4.943012 0.678431
318.285828 205.998413 4.282429 0.678431
318.285828 205.998413 3.626801 0.678431
318.321045 205.933578 2.971060 0.624510
318.321045 205.933563 2.323455 0.653186
318.321045 205.933578 1.676545 0.657721
318.321045 205.933578 1.028940 0.704779
318.321045 205.933578 0.379249 0.669240
319.457214 203.840942 -0.000006 0.501348
321.319183 200.411530 -0.000003 0.542034
322.507904 198.222122 0.000006 0.520221
323.334106 196.700409 0.000014 0.555637
323.942810 195.579315 0.000005 0.564338
318.443573 205.997086 6.950679 0.678431
318.478180 205.932251 6.252787 0.649632
318.478180 205.932236 5.582847 0.634804
318.443573 205.997086 4.931746 0.678431
318.443573 205.997086 4.273690 0.678431
318.443573 205.997086 3.620574 0.678431
318.478180 205.932236 2.967342 0.617525
318.478210 205.932236 2.322217 0.652451
318.478210 205.932236 1.677783 0.672059
318.478180 205.932251 1.032657 0.720221
318.478180 205.932251 0.385453 0.659926
319.564087 203.898468 -0.000006 0.526961
321.402069 200.456131 0.000001 0.545833
322.575470 198.258484 0.000007 0.530025
323.390991 196.731110 -0.000002 0.519853
323.991882 195.605743 0.000008 0.506985
318.615906 205.965622 6.923513 0.821078
318.634125 205.930908 6.236774 0.645833
318.634125 205.930908 5.569357 0.614706
318.606262 205.984009 4.918738 0.120466
318.606262 205.984009 4.263603 0.134559
318.600098 205.995758 3.614472 0.678431
318.634125 205.930923 2.963700 0.608088
318.634125 205.930908 2.321004 0.659191
318.634125 205.930908 1.678996 0.637990
318.634125 205.930908 1.036300 0.666789
318.634125 205.930908 0.391533 0.638971
319.671356 203.955246 -0.000004 0.522917
321.485260 200.500168 0.000003 0.540809
322.643280 198.294403 0.000005 0.529779
323.448181 196.761307 0.000014 0.549632
324.041138 195.631836 0.000007 0.542892
318.770996 205.964310 6.905282 0.828922
318.788910 205.929611 6.221086 0.590809
318.788910 205.929611 5.556140 0.645098
318.755463 205.994446 4.909892 0.678431
318.755463 205.994446 4.256742 0.678431
318.755463 205.994446 3.608493 0.678431
318.788910 205.929611 2.960132 0.619240
318.788910 205.929611 2.319815 0.665441
318.788910 205.929611 1.680185 0.634681
318.788910 205.929611 1.039868 0.679289
318.788910 205.929611 0.397488 0.624510
319.779022 204.011276 -0.000003 0.538113
321.568756 200.543640 0.000001 0.532966
322.711365 198.329834 0.000007 0.577206
323.505524 196.791153 0.000013 0.534436
324.090576 195.657578 0.000006 0.531495
318.937439 205.938416 6.880518 0.793382
318.942566 205.928299 6.205719 0.631250
318.942566 205.928299 5.543193 0.672426
318.937439 205.938416 4.890196 0.743873
318.937439 205.938416 4.241467 0.758946
318.937439 205.938416 3.597607 0.751961
318.942566 205.928299 2.956636 0.654412
318.942566 205.928299 2.318651 0.624020
318.942566 205.928299 1.681349 0.626348
318.942566 205.928299 1.043364 0.637623
318.942566 205.928299 0.403323 0.615809
319.886993 204.066727 -0.000023 0.535662
321.652496 200.586609 -0.000015 0.545588
322.779663 198.364853 -0.000008 0.561765
323.562988 196.820740 -0.000020 0.553431
324.140198 195.683029 -0.000009 0.588113
319.095123 205.927017 6.860219 0.681127
319.095123 205.927017 6.190666 0.648529
319.095123 205.927017 5.530510 0.612990
319.095123 205.927017 4.878175 0.647672
319.095123 205.927017 4.232145 0.666299
319.095123 205.927017 3.590962 0.678431
319.095123 205.927017 2.953212 0.636152
319.095123 205.927017 2.317511 0.627206
319.095123 205.927017 1.682490 0.672181
319.095123 205.927017 1.046787 0.633456
319.095123 205.927017 0.409038 0.675613
319.995514 204.121109 -0.000004 0.541054
321.736664 200.628799 0.000003 0.556495
322.848206 198.399353 -0.000010 0.533333
323.620789 196.849701 -0.000001 0.570221
324.190033 195.707962 0.000022 0.511765
319.246582 205.925735 6.843121 0.647304
319.246582 205.925735 6.175921 0.635784
319.246582 205.925735 5.518090 0.648775
319.246582 205.925735 4.868050 0.647794
319.246582 205.925735 4.224292 0.660294
319.246582 205.925735 3.585365 0.669976
319.246582 205.925735 2.949859 0.632721
319.241638 205.935837 2.316577 0.768750
319.241638 205.935822 1.683423 0.768505
319.241638 205.935837 1.049588 0.775000
319.241638 205.935837 0.413712 0.769975
320.104309 204.174866 -0.000001 0.543505
321.821045 200.670502 0.000002 0.511887
322.916962 198.433334 -0.000007 0.533946
323.678772 196.878296 0.000014 0.533578
324.239990 195.732651 0.000026 0.524755
319.397003 205.924454 6.826376 0.632230
319.397003 205.924454 6.161485 0.626348
319.397003 205.924454 5.505927 0.677451
319.397003 205.924454 4.858134 0.669976
319.397003 205.924454 4.216601 0.642279
319.397003 205.924454 3.579884 0.636887
319.397003 205.924454 2.946575 0.635784
319.360992 205.999313 2.316659 0.678431
319.380310 205.959137 1.684070 0.144853
319.380310 205.959152 1.051534 0.160662
319.385132 205.949097 0.417873 0.451593
320.213409 204.228012 -0.000018 0.541054
321.905670 200.711716 -0.000013 0.528186
322.985992 198.466873 -0.000009 0.532966
323.736908 196.906586 -0.000000 0.600000
324.290100 195.757111 -0.000010 0.559191
319.546387 205.923187 6.809981 0.617157
319.546387 205.923187 6.147347 0.628431
319.546387 205.923203 5.494018 0.643505
319.546387 205.923187 4.848425 0.694730
319.546387 205.923187 4.209072 0.618505
319.546387 205.923187 3.574517 0.626593
319.546387 205.923187 2.943359 0.613971
319.511017 205.998047 2.315583 0.678431
319.529999 205.957870 1.685144 0.141422
319.529999 205.957870 1.054756 0.158701
319.534729 205.947845 0.423247 0.462745
320.322968 204.280289 -0.000020 0.527941
321.990631 200.752228 -0.000013 0.527328
323.055267 198.499893 -0.000008 0.549632
323.795258 196.934433 -0.000002 0.560907
324.340424 195.781052 0.000005 0.502941
319.694763 205.921936 6.793931 0.646446
319.694763 205.921936 6.133508 0.640441
319.694763 205.921936 5.482358 0.667770
319.694763 205.921936 4.838920 0.662377
319.694763 205.921936 4.201700 0.606985
319.694763 205.921936 3.569263 0.624877
319.694763 205.921936 2.940211 0.678309
319.660034 205.996780 2.314530 0.678431
319.678680 205.956619 1.686194 0.123407
319.678680 205.956619 1.057910 0.155637
319.683319 205.946594 0.428509 0.462868
320.432953 204.331604 -0.000000 0.530392
322.075897 200.792068 0.000002 0.534436
323.124817 198.532349 0.000010 0.530760
323.853821 196.961792 0.000015 0.492647
324.390930 195.804626 0.000025 0.521324
319.842163 205.920685 6.778218 0.658824
319.842163 205.920685 6.119959 0.667525
319.842163 205.920685 5.470943 0.638480
319.842163 205.920685 4.829615 0.668382
319.842163 205.920685 4.194485 0.632966
319.842163 205.920685 3.564119 0.623897
319.842163 205.920685 2.937130 0.648407
319.808075 205.995529 2.313499 0.678431
319.826385 205.955353 1.687223 0.133824
319.826385 205.955368 1.060998 0.121078
319.830933 205.945328 0.433659 0.462868
320.543152 204.382446 -0.000017 0.525735
322.161377 200.831497 -0.000014 0.564461
323.194458 198.564514 -0.000010 0.538235
323.912537 196.988846 0.000001 0.551716
324.441528 195.828049 -0.000012 0.551838
