# This PCD file was generated using the MATLABÂ® pcwrite function
# from Computer Vision ToolboxÂ®.
# .PCD v.7 - Point Cloud Data file format
VERSION .7
FIELDS x y z intensity
SIZE 4 4 4 4
TYPE F F F F
COUNT 1 1 1 1
WIDTH 1163
HEIGHT 1
VIEWPOINT 0 0 0 1 0 0 0
POINTS 1163
DATA ascii
265.153046 -571.787720 3.007908 1.000000
265.153046 -571.787720 2.869056 1.000000
265.153046 -571.787720 2.732154 1.000000
265.153046 -571.787720 2.596873 1.000000
265.153046 -571.787720 2.462900 1.000000
265.153046 -571.787720 2.329932 1.000000
265.153046 -571.787720 2.197676 1.000000
265.153046 -571.787720 2.065845 1.000000
265.153046 -571.787720 1.934155 1.000000
265.153046 -571.787720 1.802324 1.000000
265.153046 -571.787720 1.670068 1.000000
265.153046 -571.787720 1.537100 1.000000
265.153046 -571.787720 1.403127 1.000000
265.153046 -571.787720 1.267846 1.000000
265.153046 -571.787720 1.130944 1.000000
265.153046 -571.787720 0.992093 1.000000
265.171844 -571.766541 3.006961 1.000000
265.171844 -571.766541 2.868240 1.000000
265.171844 -571.766541 2.731467 1.000000
265.171844 -571.766541 2.596313 1.000000
265.171844 -571.766541 2.462465 1.000000
265.171844 -571.766541 2.329622 1.000000
265.171844 -571.766541 2.197491 1.000000
265.171844 -571.766541 2.065783 1.000000
265.171844 -571.766541 1.934217 1.000000
265.171844 -571.766541 1.802509 1.000000
265.171844 -571.766541 1.670378 1.000000
265.171844 -571.766541 1.537535 1.000000
265.171844 -571.766541 1.403687 1.000000
265.171844 -571.766541 1.268534 1.000000
265.171844 -571.766541 1.131760 1.000000
265.171844 -571.766541 0.993039 1.000000
265.190613 -571.745361 3.006066 1.000000
265.190613 -571.745361 2.867467 1.000000
265.190613 -571.745361 2.730816 1.000000
265.190613 -571.745361 2.595783 1.000000
265.190613 -571.745361 2.462054 1.000000
265.190613 -571.745361 2.329329 1.000000
265.190613 -571.745361 2.197315 1.000000
265.190613 -571.745361 2.065725 1.000000
265.190613 -571.745361 1.934275 1.000000
265.190613 -571.745361 1.802685 1.000000
265.190613 -571.745361 1.670671 1.000000
265.190613 -571.745361 1.537946 1.000000
265.190613 -571.745361 1.404217 1.000000
265.190613 -571.745361 1.269184 1.000000
265.190613 -571.745361 1.132532 1.000000
265.190613 -571.745361 0.993935 1.000000
265.209351 -571.724243 3.005220 1.000000
265.209351 -571.724243 2.866739 1.000000
265.209351 -571.724243 2.730202 1.000000
265.209351 -571.724243 2.595282 1.000000
265.209351 -571.724243 2.461666 1.000000
265.209351 -571.724243 2.329052 1.000000
265.209351 -571.724243 2.197149 1.000000
265.209351 -571.724243 2.065670 1.000000
265.209351 -571.724243 1.934330 1.000000
265.209351 -571.724243 1.802851 1.000000
265.209351 -571.724243 1.670947 1.000000
265.209351 -571.724243 1.538334 1.000000
265.209351 -571.724243 1.404718 1.000000
265.209351 -571.724243 1.269798 1.000000
265.209351 -571.724243 1.133261 1.000000
265.209351 -571.724243 0.994780 1.000000
265.228027 -571.703186 3.004426 1.000000
265.228027 -571.703186 2.866054 1.000000
265.228027 -571.703125 2.729625 1.000000
265.228027 -571.703186 2.594811 1.000000
265.228027 -571.703186 2.461301 1.000000
265.228027 -571.703186 2.328792 1.000000
265.228027 -571.703186 2.196993 1.000000
265.228027 -571.703186 2.065618 1.000000
265.228027 -571.703186 1.934382 1.000000
265.228027 -571.703186 1.803007 1.000000
265.228027 -571.703186 1.671208 1.000000
265.228027 -571.703186 1.538699 1.000000
265.228027 -571.703186 1.405189 1.000000
265.228027 -571.703186 1.270375 1.000000
265.228027 -571.703186 1.133946 1.000000
265.228027 -571.703186 0.995575 1.000000
265.246704 -571.682129 3.003681 1.000000
265.246704 -571.682129 2.865412 1.000000
265.246704 -571.682129 2.729084 1.000000
265.246704 -571.682129 2.594370 1.000000
265.246704 -571.682129 2.460959 1.000000
265.246704 -571.682129 2.328549 1.000000
265.246704 -571.682129 2.196847 1.000000
265.246704 -571.682129 2.065569 1.000000
265.246704 -571.682129 1.934431 1.000000
265.246704 -571.682129 1.803153 1.000000
265.246704 -571.682129 1.671451 1.000000
265.246704 -571.682129 1.539041 1.000000
265.246704 -571.682129 1.405630 1.000000
265.246704 -571.682129 1.270916 1.000000
265.246704 -571.682129 1.134588 1.000000
265.246704 -571.682129 0.996319 1.000000
265.265350 -571.661072 3.002986 1.000000
265.265350 -571.661072 2.864813 1.000000
265.265350 -571.661072 2.728579 1.000000
265.265350 -571.661072 2.593959 1.000000
265.265350 -571.661072 2.460640 1.000000
265.265350 -571.661072 2.328321 1.000000
265.265350 -571.661072 2.196711 1.000000
265.265350 -571.661072 2.065524 1.000000
265.265350 -571.661072 1.934476 1.000000
265.265350 -571.661072 1.803289 1.000000
265.265350 -571.661072 1.671679 1.000000
265.265350 -571.661072 1.539360 1.000000
265.265350 -571.661072 1.406041 1.000000
265.265350 -571.661072 1.271421 1.000000
265.265350 -571.661072 1.135187 1.000000
265.265350 -571.661072 0.997014 1.000000
265.283966 -571.640076 3.002342 1.000000
265.283966 -571.640076 2.864257 1.000000
265.283966 -571.640076 2.728111 1.000000
265.283966 -571.640076 2.593577 1.000000
265.283966 -571.640076 2.460344 1.000000
265.283966 -571.640076 2.328110 1.000000
265.283966 -571.640076 2.196585 1.000000
265.283966 -571.640076 2.065481 1.000000
265.283966 -571.640076 1.934519 1.000000
265.283966 -571.640076 1.803415 1.000000
265.283966 -571.640076 1.671890 1.000000
265.283966 -571.640076 1.539656 1.000000
265.283966 -571.640076 1.406423 1.000000
265.283966 -571.640076 1.271889 1.000000
265.283966 -571.640076 1.135743 1.000000
265.283966 -571.640076 0.997659 1.000000
265.302551 -571.619080 3.001746 1.000000
265.302551 -571.619080 2.863744 1.000000
265.302551 -571.619080 2.727678 1.000000
265.302551 -571.619080 2.593225 1.000000
265.302551 -571.619080 2.460071 1.000000
265.302551 -571.619080 2.327915 1.000000
265.302551 -571.619080 2.196468 1.000000
265.302551 -571.619080 2.065443 1.000000
265.302551 -571.619080 1.934557 1.000000
265.302551 -571.619080 1.803532 1.000000
265.302551 -571.619080 1.672085 1.000000
265.302551 -571.619080 1.539930 1.000000
265.302551 -571.619080 1.406775 1.000000
265.302551 -571.619080 1.272322 1.000000
265.302551 -571.619080 1.136257 1.000000
265.302551 -571.619080 0.998254 1.000000
265.321136 -571.598145 3.001200 1.000000
265.321136 -571.598145 2.863273 1.000000
265.321136 -571.598145 2.727282 1.000000
265.321136 -571.598145 2.592901 1.000000
265.321136 -571.598145 2.459820 1.000000
265.321136 -571.598145 2.327737 1.000000
265.321136 -571.598145 2.196361 1.000000
265.321136 -571.598145 2.065407 1.000000
265.321136 -571.598145 1.934593 1.000000
265.321136 -571.598145 1.803639 1.000000
265.321136 -571.598145 1.672263 1.000000
265.321136 -571.598145 1.540180 1.000000
265.321136 -571.598145 1.407099 1.000000
265.321136 -571.598145 1.272718 1.000000
265.321136 -571.598145 1.136727 1.000000
265.321136 -571.598145 0.998800 1.000000
265.339691 -571.577209 3.000704 1.000000
265.339691 -571.577209 2.862845 1.000000
265.339691 -571.577209 2.726921 1.000000
265.339691 -571.577209 2.592607 1.000000
265.339691 -571.577209 2.459592 1.000000
265.339691 -571.577209 2.327574 1.000000
265.339691 -571.577209 2.196264 1.000000
265.339691 -571.577209 2.065374 1.000000
265.339691 -571.577209 1.934626 1.000000
265.339691 -571.577209 1.803736 1.000000
265.339691 -571.577209 1.672426 1.000000
265.339691 -571.577209 1.540408 1.000000
265.339691 -571.577209 1.407393 1.000000
265.339691 -571.577209 1.273079 1.000000
265.339691 -571.577209 1.137155 1.000000
265.339691 -571.577209 0.999296 1.000000
265.358215 -571.556335 3.000257 1.000000
265.358215 -571.556335 2.862459 1.000000
265.358215 -571.556335 2.726596 1.000000
265.358215 -571.556335 2.592342 1.000000
265.358215 -571.556335 2.459386 1.000000
265.358215 -571.556335 2.327428 1.000000
265.358215 -571.556335 2.196176 1.000000
265.358215 -571.556335 2.065345 1.000000
265.358215 -571.556335 1.934655 1.000000
265.358215 -571.556335 1.803824 1.000000
265.358215 -571.556335 1.672572 1.000000
265.358215 -571.556335 1.540614 1.000000
265.358215 -571.556335 1.407658 1.000000
265.358215 -571.556335 1.273404 1.000000
265.358215 -571.556335 1.137541 1.000000
265.358215 -571.556335 0.999743 1.000000
265.376740 -571.535400 2.999859 1.000000
265.376740 -571.535461 2.862116 1.000000
265.376740 -571.535400 2.726307 1.000000
265.376740 -571.535461 2.592107 1.000000
265.376740 -571.535461 2.459203 1.000000
265.376740 -571.535461 2.327297 1.000000
265.376740 -571.535461 2.196098 1.000000
265.376740 -571.535461 2.065319 1.000000
265.376740 -571.535461 1.934681 1.000000
265.376740 -571.535461 1.803902 1.000000
265.376740 -571.535461 1.672702 1.000000
265.376740 -571.535461 1.540797 1.000000
265.376740 -571.535461 1.407893 1.000000
265.376740 -571.535461 1.273693 1.000000
265.376740 -571.535461 1.137884 1.000000
265.376740 -571.535461 1.000141 1.000000
265.395264 -571.514587 2.999510 1.000000
265.395264 -571.514587 2.861815 1.000000
265.395264 -571.514587 2.726054 1.000000
265.395264 -571.514587 2.591900 1.000000
265.395264 -571.514587 2.459043 1.000000
265.395264 -571.514587 2.327183 1.000000
265.395264 -571.514587 2.196029 1.000000
265.395264 -571.514587 2.065296 1.000000
265.395264 -571.514587 1.934704 1.000000
265.395264 -571.514587 1.803971 1.000000
265.395264 -571.514587 1.672817 1.000000
265.395264 -571.514587 1.540957 1.000000
265.395264 -571.514587 1.408100 1.000000
265.395264 -571.514587 1.273947 1.000000
265.395264 -571.514587 1.138185 1.000000
265.395264 -571.514587 1.000491 1.000000
265.413757 -571.493713 2.999210 1.000000
265.413757 -571.493713 2.861556 1.000000
265.413757 -571.493713 2.725835 1.000000
265.413757 -571.493713 2.591722 1.000000
265.413757 -571.493713 2.458905 1.000000
265.413757 -571.493713 2.327085 1.000000
265.413757 -571.493713 2.195970 1.000000
265.413757 -571.493713 2.065277 1.000000
265.413757 -571.493713 1.934723 1.000000
265.413757 -571.493713 1.804030 1.000000
265.413757 -571.493713 1.672915 1.000000
265.413757 -571.493713 1.541095 1.000000
265.413757 -571.493713 1.408278 1.000000
265.413757 -571.493713 1.274165 1.000000
265.413757 -571.493713 1.138444 1.000000
265.413757 -571.493713 1.000791 1.000000
265.432251 -571.472839 2.998958 1.000000
265.432251 -571.472839 2.861340 1.000000
265.432251 -571.472839 2.725653 1.000000
265.432251 -571.472839 2.591573 1.000000
265.432251 -571.472839 2.458790 1.000000
265.432251 -571.472839 2.327003 1.000000
265.432251 -571.472839 2.195921 1.000000
265.432251 -571.472839 2.065260 1.000000
265.432251 -571.472839 1.934740 1.000000
265.432251 -571.472839 1.804079 1.000000
265.432251 -571.472839 1.672997 1.000000
265.432251 -571.472839 1.541210 1.000000
265.432251 -571.472839 1.408427 1.000000
265.432251 -571.472839 1.274347 1.000000
265.432251 -571.472839 1.138661 1.000000
265.432251 -571.472839 1.001042 1.000000
265.450714 -571.452026 2.998756 1.000000
265.450714 -571.452026 2.861165 1.000000
265.450714 -571.452026 2.725506 1.000000
265.450714 -571.452026 2.591454 1.000000
265.450714 -571.452026 2.458697 1.000000
265.450714 -571.452026 2.326936 1.000000
265.450714 -571.452026 2.195881 1.000000
265.450714 -571.452026 2.065247 1.000000
265.450714 -571.452026 1.934753 1.000000
265.450714 -571.452026 1.804119 1.000000
265.450714 -571.452026 1.673064 1.000000
265.450714 -571.452026 1.541303 1.000000
265.450714 -571.452026 1.408546 1.000000
265.450714 -571.452026 1.274494 1.000000
265.450714 -571.452026 1.138835 1.000000
265.450714 -571.452026 1.001245 1.000000
265.469177 -571.431152 2.998602 1.000000
265.469177 -571.431152 2.861032 1.000000
265.469177 -571.431152 2.725394 1.000000
265.469177 -571.431152 2.591362 1.000000
265.469177 -571.431152 2.458626 1.000000
265.469177 -571.431152 2.326886 1.000000
265.469177 -571.431152 2.195851 1.000000
265.469177 -571.431152 2.065237 1.000000
265.469177 -571.431152 1.934763 1.000000
265.469177 -571.431152 1.804149 1.000000
265.469177 -571.431152 1.673114 1.000000
265.469177 -571.431152 1.541374 1.000000
265.469177 -571.431152 1.408638 1.000000
265.469177 -571.431152 1.274606 1.000000
265.469177 -571.431152 1.138968 1.000000
265.469177 -571.431152 1.001399 1.000000
265.487640 -571.410339 2.998497 1.000000
265.487640 -571.410339 2.860941 1.000000
265.487640 -571.410339 2.725318 1.000000
265.487640 -571.410339 2.591300 1.000000
265.487640 -571.410339 2.458578 1.000000
265.487640 -571.410339 2.326852 1.000000
265.487640 -571.410339 2.195830 1.000000
265.487640 -571.410339 2.065230 1.000000
265.487640 -571.410339 1.934770 1.000000
265.487640 -571.410339 1.804169 1.000000
265.487640 -571.410339 1.673148 1.000000
265.487640 -571.410339 1.541422 1.000000
265.487640 -571.410339 1.408700 1.000000
265.487640 -571.410339 1.274682 1.000000
265.487640 -571.410339 1.139059 1.000000
265.487640 -571.410339 1.001503 1.000000
265.506104 -571.389526 2.998440 1.000000
265.506104 -571.389526 2.860893 1.000000
265.506104 -571.389526 2.725277 1.000000
265.506104 -571.389526 2.591267 1.000000
265.506104 -571.389526 2.458552 1.000000
265.506104 -571.389526 2.326833 1.000000
265.506104 -571.389526 2.195819 1.000000
265.506104 -571.389526 2.065227 1.000000
265.506104 -571.389526 1.934773 1.000000
265.506104 -571.389526 1.804181 1.000000
265.506104 -571.389526 1.673167 1.000000
265.506104 -571.389526 1.541448 1.000000
265.506104 -571.389526 1.408733 1.000000
265.506104 -571.389526 1.274723 1.000000
265.506104 -571.389526 1.139107 1.000000
265.506104 -571.389526 1.001560 1.000000
265.524567 -571.368713 2.998433 1.000000
265.524567 -571.368713 2.860887 1.000000
265.524567 -571.368713 2.725271 1.000000
265.524567 -571.368713 2.591262 1.000000
265.524567 -571.368713 2.458549 1.000000
265.524567 -571.368713 2.326831 1.000000
265.524567 -571.368713 2.195818 1.000000
265.524567 -571.368713 2.065226 1.000000
265.524567 -571.368713 1.934774 1.000000
265.524567 -571.368713 1.804182 1.000000
265.524567 -571.368713 1.673169 1.000000
265.524567 -571.368713 1.541452 1.000000
265.524567 -571.368713 1.408738 1.000000
265.524567 -571.368713 1.274729 1.000000
265.524567 -571.368713 1.139114 1.000000
265.524567 -571.368713 1.001568 1.000000
265.543030 -571.347900 2.998474 1.000000
265.543030 -571.347900 2.860922 1.000000
265.543030 -571.347900 2.725301 1.000000
265.543030 -571.347900 2.591286 1.000000
265.543030 -571.347900 2.458567 1.000000
265.543030 -571.347900 2.326844 1.000000
265.543030 -571.347900 2.195826 1.000000
265.543030 -571.347900 2.065229 1.000000
265.543030 -571.347900 1.934771 1.000000
265.543030 -571.347900 1.804174 1.000000
265.543030 -571.347900 1.673156 1.000000
265.543030 -571.347900 1.541433 1.000000
265.543030 -571.347900 1.408714 1.000000
265.543030 -571.347900 1.274699 1.000000
265.543030 -571.347900 1.139079 1.000000
265.543030 -571.347900 1.001527 1.000000
265.561493 -571.327087 2.998564 1.000000
265.561493 -571.327087 2.860999 1.000000
265.561493 -571.327087 2.725366 1.000000
265.561493 -571.327087 2.591340 1.000000
265.561493 -571.327087 2.458608 1.000000
265.561493 -571.327087 2.326873 1.000000
265.561493 -571.327087 2.195843 1.000000
265.561493 -571.327087 2.065235 1.000000
265.561493 -571.327087 1.934765 1.000000
265.561493 -571.327087 1.804156 1.000000
265.561493 -571.327087 1.673127 1.000000
265.561493 -571.327087 1.541392 1.000000
265.561493 -571.327087 1.408661 1.000000
265.561493 -571.327087 1.274634 1.000000
265.561493 -571.327087 1.139001 1.000000
265.561493 -571.327087 1.001437 1.000000
265.579956 -571.306213 2.998702 1.000000
265.579987 -571.306213 2.861118 1.000000
265.579956 -571.306213 2.725466 1.000000
265.579987 -571.306213 2.591421 1.000000
265.579987 -571.306213 2.458672 1.000000
265.579987 -571.306213 2.326919 1.000000
265.579956 -571.306213 2.195871 1.000000
265.579987 -571.306213 2.065243 1.000000
265.579987 -571.306213 1.934756 1.000000
265.579987 -571.306213 1.804129 1.000000
265.579987 -571.306213 1.673081 1.000000
265.579987 -571.306213 1.541328 1.000000
265.579987 -571.306213 1.408579 1.000000
265.579987 -571.306213 1.274534 1.000000
265.579987 -571.306213 1.138882 1.000000
265.579987 -571.306213 1.001299 1.000000
265.598450 -571.285400 2.998889 1.000000
265.598450 -571.285400 2.861279 1.000000
265.598450 -571.285400 2.725602 1.000000
265.598450 -571.285400 2.591532 1.000000
265.598450 -571.285400 2.458758 1.000000
265.598450 -571.285400 2.326980 1.000000
265.598450 -571.285400 2.195907 1.000000
265.598450 -571.285400 2.065256 1.000000
265.598450 -571.285400 1.934744 1.000000
265.598450 -571.285400 1.804093 1.000000
265.598450 -571.285400 1.673020 1.000000
265.598450 -571.285400 1.541242 1.000000
265.598450 -571.285400 1.408468 1.000000
265.598450 -571.285400 1.274398 1.000000
265.598450 -571.285400 1.138721 1.000000
265.598450 -571.285400 1.001112 1.000000
265.616943 -571.264526 2.999124 1.000000
265.616943 -571.264526 2.861483 1.000000
265.616943 -571.264526 2.725774 1.000000
265.616943 -571.264526 2.591672 1.000000
265.616943 -571.264526 2.458866 1.000000
265.616943 -571.264526 2.327057 1.000000
265.616943 -571.264526 2.195953 1.000000
265.616943 -571.264526 2.065271 1.000000
265.616943 -571.264526 1.934729 1.000000
265.616943 -571.264526 1.804046 1.000000
265.616943 -571.264526 1.672943 1.000000
265.616943 -571.264526 1.541134 1.000000
265.616943 -571.264526 1.408328 1.000000
265.616943 -571.264526 1.274226 1.000000
265.616943 -571.264526 1.138517 1.000000
265.616943 -571.264526 1.000876 1.000000
265.635406 -571.243713 2.999409 1.000000
265.635406 -571.243713 2.861728 1.000000
265.635406 -571.243713 2.725980 1.000000
265.635406 -571.243713 2.591841 1.000000
265.635406 -571.243713 2.458997 1.000000
265.635406 -571.243713 2.327150 1.000000
265.635406 -571.243713 2.196009 1.000000
265.635406 -571.243713 2.065290 1.000000
265.635406 -571.243713 1.934710 1.000000
265.635406 -571.243713 1.803991 1.000000
265.635437 -571.243713 1.672850 1.000000
265.635437 -571.243713 1.541003 1.000000
265.635437 -571.243713 1.408160 1.000000
265.635437 -571.243713 1.274020 1.000000
265.635437 -571.243713 1.138272 1.000000
265.635437 -571.243713 1.000591 1.000000
265.653931 -571.222839 2.999743 1.000000
265.653931 -571.222839 2.862016 1.000000
265.653931 -571.222839 2.726223 1.000000
265.653931 -571.222839 2.592038 1.000000
265.653931 -571.222839 2.459150 1.000000
265.653931 -571.222839 2.327259 1.000000
265.653931 -571.222839 2.196075 1.000000
265.653931 -571.222839 2.065312 1.000000
265.653931 -571.222839 1.934688 1.000000
265.653931 -571.222839 1.803925 1.000000
265.653931 -571.222839 1.672741 1.000000
265.653931 -571.222839 1.540850 1.000000
265.653931 -571.222839 1.407962 1.000000
265.653931 -571.222839 1.273777 1.000000
265.653931 -571.222839 1.137985 1.000000
265.653931 -571.222839 1.000258 1.000000
265.672455 -571.201965 3.000125 1.000000
265.672455 -571.201965 2.862346 1.000000
265.672455 -571.201965 2.726501 1.000000
265.672455 -571.201965 2.592265 1.000000
265.672455 -571.201965 2.459326 1.000000
265.672455 -571.201965 2.327384 1.000000
265.672455 -571.201965 2.196150 1.000000
265.672455 -571.201965 2.065337 1.000000
265.672455 -571.201965 1.934663 1.000000
265.672455 -571.201965 1.803850 1.000000
265.672455 -571.201965 1.672615 1.000000
265.672455 -571.201965 1.540674 1.000000
265.672455 -571.201965 1.407736 1.000000
265.672455 -571.201965 1.273499 1.000000
265.672455 -571.201965 1.137655 1.000000
265.672455 -571.201965 0.999875 1.000000
265.690979 -571.181030 3.000556 1.000000
265.690979 -571.181030 2.862718 1.000000
265.690979 -571.181030 2.726814 1.000000
265.690979 -571.181030 2.592520 1.000000
265.690979 -571.181030 2.459524 1.000000
265.690979 -571.181030 2.327526 1.000000
265.690979 -571.181030 2.196234 1.000000
265.690979 -571.181030 2.065365 1.000000
265.690979 -571.181030 1.934635 1.000000
265.690979 -571.181030 1.803765 1.000000
265.690979 -571.181030 1.672474 1.000000
265.690979 -571.181030 1.540476 1.000000
265.690979 -571.181030 1.407480 1.000000
265.690979 -571.181030 1.273186 1.000000
265.690979 -571.181030 1.137282 1.000000
265.690979 -571.181030 0.999444 1.000000
265.709534 -571.160095 3.001037 1.000000
265.709534 -571.160095 2.863132 1.000000
265.709534 -571.160095 2.727163 1.000000
265.709534 -571.160095 2.592805 1.000000
265.709534 -571.160095 2.459745 1.000000
265.709534 -571.160095 2.327683 1.000000
265.709534 -571.160095 2.196329 1.000000
265.709534 -571.160095 2.065396 1.000000
265.709534 -571.160095 1.934604 1.000000
265.709534 -571.160095 1.803671 1.000000
265.709534 -571.160095 1.672317 1.000000
265.709534 -571.160095 1.540255 1.000000
265.709534 -571.160095 1.407195 1.000000
265.709534 -571.160095 1.272837 1.000000
265.709534 -571.160095 1.136868 1.000000
265.709534 -571.160095 0.998963 1.000000
265.728088 -571.139160 3.001568 1.000000
265.728088 -571.139160 2.863589 1.000000
265.728088 -571.139160 2.727548 1.000000
265.728088 -571.139160 2.593119 1.000000
265.728088 -571.139160 2.459988 1.000000
265.728088 -571.139160 2.327857 1.000000
265.728088 -571.139160 2.196433 1.000000
265.728088 -571.139160 2.065431 1.000000
265.728088 -571.139160 1.934569 1.000000
265.728088 -571.139160 1.803567 1.000000
265.728088 -571.139160 1.672143 1.000000
265.728088 -571.139160 1.540012 1.000000
265.728088 -571.139160 1.406882 1.000000
265.728088 -571.139160 1.272452 1.000000
265.728088 -571.139160 1.136411 1.000000
265.728088 -571.139160 0.998433 1.000000
265.746674 -571.118225 3.002147 1.000000
265.746674 -571.118225 2.864089 1.000000
265.746674 -571.118225 2.727969 1.000000
265.746674 -571.118225 2.593462 1.000000
265.746674 -571.118225 2.460254 1.000000
265.746674 -571.118225 2.328046 1.000000
265.746674 -571.118225 2.196546 1.000000
265.746674 -571.118225 2.065469 1.000000
265.746674 -571.118225 1.934531 1.000000
265.746674 -571.118225 1.803454 1.000000
265.746674 -571.118225 1.671954 1.000000
265.746674 -571.118225 1.539746 1.000000
265.746674 -571.118225 1.406538 1.000000
265.746674 -571.118225 1.272031 1.000000
265.746674 -571.118225 1.135911 1.000000
265.746674 -571.118225 0.997854 1.000000
265.765289 -571.097229 3.002776 1.000000
265.765289 -571.097229 2.864631 1.000000
265.765289 -571.097229 2.728426 1.000000
265.765289 -571.097229 2.593834 1.000000
265.765289 -571.097229 2.460543 1.000000
265.765289 -571.097229 2.328252 1.000000
265.765289 -571.097229 2.196670 1.000000
265.765289 -571.097229 2.065510 1.000000
265.765289 -571.097229 1.934490 1.000000
265.765289 -571.097229 1.803330 1.000000
265.765289 -571.097229 1.671748 1.000000
265.765289 -571.097229 1.539457 1.000000
265.765289 -571.097229 1.406166 1.000000
265.765289 -571.097229 1.271574 1.000000
265.765289 -571.097229 1.135369 1.000000
265.765289 -571.097229 0.997224 1.000000
265.783936 -571.076233 3.003455 1.000000
265.783936 -571.076233 2.865217 1.000000
265.783936 -571.076233 2.728920 1.000000
265.783936 -571.076233 2.594236 1.000000
265.783936 -571.076233 2.460855 1.000000
265.783936 -571.076233 2.328475 1.000000
265.783936 -571.076233 2.196803 1.000000
265.783936 -571.076233 2.065554 1.000000
265.783936 -571.076233 1.934446 1.000000
265.783936 -571.076233 1.803197 1.000000
265.783936 -571.076233 1.671525 1.000000
265.783936 -571.076233 1.539145 1.000000
265.783936 -571.076233 1.405764 1.000000
265.783936 -571.076233 1.271081 1.000000
265.783936 -571.076233 1.134784 1.000000
265.783936 -571.076233 0.996546 1.000000
265.802582 -571.055176 3.004184 1.000000
265.802582 -571.055176 2.865845 1.000000
265.802582 -571.055176 2.729449 1.000000
265.802582 -571.055176 2.594668 1.000000
265.802582 -571.055176 2.461190 1.000000
265.802582 -571.055176 2.328713 1.000000
265.802582 -571.055176 2.196946 1.000000
265.802582 -571.055176 2.065602 1.000000
265.802582 -571.055176 1.934398 1.000000
265.802582 -571.055176 1.803054 1.000000
265.802582 -571.055176 1.671287 1.000000
265.802582 -571.055176 1.538810 1.000000
265.802582 -571.055176 1.405332 1.000000
265.802582 -571.055176 1.270551 1.000000
265.802582 -571.055176 1.134155 1.000000
265.802582 -571.055176 0.995817 1.000000
265.821289 -571.034058 3.004962 1.000000
265.821289 -571.034058 2.866516 1.000000
265.821289 -571.034058 2.730014 1.000000
265.821259 -571.034058 2.595129 1.000000
265.821289 -571.034058 2.461547 1.000000
265.821289 -571.034058 2.328968 1.000000
265.821289 -571.034058 2.197098 1.000000
265.821289 -571.034058 2.065653 1.000000
265.821289 -571.034058 1.934347 1.000000
265.821289 -571.034058 1.802901 1.000000
265.821289 -571.034058 1.671032 1.000000
265.821289 -571.034058 1.538453 1.000000
265.821289 -571.034058 1.404871 1.000000
265.821289 -571.034058 1.269986 1.000000
265.821289 -571.034058 1.133484 1.000000
265.821289 -571.034058 0.995038 1.000000
265.839996 -571.012939 3.005791 1.000000
265.839996 -571.012939 2.867231 1.000000
265.839996 -571.012939 2.730617 1.000000
265.839996 -571.012939 2.595620 1.000000
265.839996 -571.012939 2.461928 1.000000
265.839996 -571.012939 2.329239 1.000000
265.839996 -571.012939 2.197261 1.000000
265.839996 -571.012939 2.065707 1.000000
265.839996 -571.012939 1.934293 1.000000
265.839996 -571.012939 1.802739 1.000000
265.839996 -571.012939 1.670761 1.000000
265.839996 -571.012939 1.538072 1.000000
265.839996 -571.012939 1.404380 1.000000
265.839996 -571.012939 1.269383 1.000000
265.839996 -571.012939 1.132769 1.000000
265.839996 -571.013000 0.994209 1.000000
265.858734 -570.991821 3.006671 1.000000
265.858734 -570.991821 2.867990 1.000000
265.858734 -570.991821 2.731255 1.000000
265.858734 -570.991821 2.596141 1.000000
265.858734 -570.991821 2.462332 1.000000
265.858734 -570.991821 2.329527 1.000000
265.858734 -570.991821 2.197433 1.000000
265.858734 -570.991821 2.065764 1.000000
265.858734 -570.991821 1.934236 1.000000
265.858734 -570.991821 1.802566 1.000000
265.858734 -570.991821 1.670473 1.000000
265.858734 -570.991821 1.537668 1.000000
265.858734 -570.991821 1.403859 1.000000
265.858734 -570.991821 1.268745 1.000000
265.858734 -570.991821 1.132011 1.000000
265.858734 -570.991821 0.993330 1.000000
265.877533 -570.970642 3.007601 1.000000
265.877533 -570.970642 2.868792 1.000000
265.877533 -570.970642 2.731931 1.000000
265.877533 -570.970642 2.596692 1.000000
265.877533 -570.970642 2.462759 1.000000
265.877533 -570.970642 2.329832 1.000000
265.877533 -570.970642 2.197616 1.000000
265.877533 -570.970642 2.065825 1.000000
265.877533 -570.970642 1.934175 1.000000
265.877533 -570.970642 1.802384 1.000000
265.877533 -570.970642 1.670168 1.000000
265.877533 -570.970642 1.537241 1.000000
265.877533 -570.970642 1.403308 1.000000
265.877533 -570.970642 1.268069 1.000000
265.877533 -570.970642 1.131208 1.000000
265.877533 -570.970642 0.992399 1.000000
265.896362 -570.949402 3.008582 1.000000
265.896362 -570.949402 2.869637 1.000000
265.896362 -570.949402 2.732644 1.000000
265.896362 -570.949402 2.597273 1.000000
265.896362 -570.949402 2.463210 1.000000
265.896362 -570.949402 2.330153 1.000000
265.896362 -570.949402 2.197809 1.000000
265.896362 -570.949402 2.065889 1.000000
265.896362 -570.949402 1.934111 1.000000
265.896362 -570.949402 1.802191 1.000000
265.896362 -570.949402 1.669847 1.000000
265.896362 -570.949402 1.536790 1.000000
265.896362 -570.949402 1.402727 1.000000
265.896362 -570.949402 1.267356 1.000000
265.896362 -570.949402 1.130363 1.000000
265.896362 -570.949402 0.991418 1.000000
265.915192 -570.928162 3.009614 1.000000
265.915192 -570.928162 2.870528 1.000000
265.915192 -570.928162 2.733394 1.000000
265.915192 -570.928162 2.597884 1.000000
265.915192 -570.928162 2.463684 1.000000
265.915222 -570.928162 2.330491 1.000000
265.915192 -570.928162 2.198011 1.000000
265.915192 -570.928162 2.065957 1.000000
265.915192 -570.928162 1.934044 1.000000
265.915222 -570.928162 1.801989 1.000000
265.915222 -570.928162 1.669509 1.000000
265.915222 -570.928162 1.536316 1.000000
265.915222 -570.928162 1.402116 1.000000
265.915222 -570.928162 1.266606 1.000000
265.915222 -570.928162 1.129472 1.000000
265.915222 -570.928162 0.990386 1.000000
265.934113 -570.906799 3.010698 1.000000
265.934113 -570.906799 2.871462 1.000000
265.934113 -570.906799 2.734181 1.000000
265.934113 -570.906799 2.598526 1.000000
265.934113 -570.906799 2.464182 1.000000
265.934113 -570.906799 2.330846 1.000000
265.934113 -570.906799 2.198224 1.000000
265.934113 -570.906799 2.066027 1.000000
265.934113 -570.906799 1.933973 1.000000
265.934113 -570.906799 1.801776 1.000000
265.934113 -570.906799 1.669154 1.000000
265.934113 -570.906799 1.535818 1.000000
265.934113 -570.906799 1.401474 1.000000
265.934113 -570.906799 1.265819 1.000000
265.934113 -570.906799 1.128538 1.000000
265.934113 -570.906799 0.989302 1.000000
265.953033 -570.885437 3.011834 1.000000
265.953033 -570.885437 2.872441 1.000000
265.953033 -570.885437 2.735006 1.000000
265.953033 -570.885498 2.599198 1.000000
265.953033 -570.885437 2.464703 1.000000
265.953033 -570.885437 2.331217 1.000000
265.953033 -570.885498 2.198446 1.000000
265.953033 -570.885437 2.066102 1.000000
265.953033 -570.885437 1.933898 1.000000
265.953033 -570.885498 1.801554 1.000000
265.953033 -570.885498 1.668783 1.000000
265.953033 -570.885498 1.535297 1.000000
265.953033 -570.885498 1.400802 1.000000
265.953033 -570.885498 1.264994 1.000000
265.953033 -570.885498 1.127559 1.000000
265.953033 -570.885498 0.988167 1.000000
265.972015 -570.864075 3.013021 1.000000
265.972015 -570.864075 2.873465 1.000000
265.972015 -570.864075 2.735868 1.000000
265.972015 -570.864075 2.599901 1.000000
265.972015 -570.864075 2.465249 1.000000
265.972015 -570.864075 2.331606 1.000000
265.972015 -570.864075 2.198679 1.000000
265.972015 -570.864075 2.066179 1.000000
265.972015 -570.864075 1.933821 1.000000
265.972015 -570.864075 1.801321 1.000000
265.972015 -570.864075 1.668394 1.000000
265.972015 -570.864075 1.534752 1.000000
265.972015 -570.864075 1.400099 1.000000
265.972015 -570.864075 1.264132 1.000000
265.972015 -570.864075 1.126535 1.000000
265.972015 -570.864075 0.986979 1.000000
265.991058 -570.842590 3.014261 1.000000
265.991058 -570.842590 2.874534 1.000000
265.991058 -570.842590 2.736769 1.000000
265.991058 -570.842590 2.600636 1.000000
265.991058 -570.842590 2.465818 1.000000
265.991058 -570.842590 2.332012 1.000000
265.991058 -570.842590 2.198922 1.000000
265.991058 -570.842590 2.066260 1.000000
265.991058 -570.842590 1.933740 1.000000
265.991058 -570.842590 1.801078 1.000000
265.991058 -570.842590 1.667988 1.000000
265.991058 -570.842590 1.534182 1.000000
265.991058 -570.842590 1.399365 1.000000
265.991058 -570.842590 1.263231 1.000000
265.991058 -570.842590 1.125466 1.000000
265.991058 -570.842590 0.985740 1.000000
266.010132 -570.821106 3.015553 1.000000
266.010132 -570.821106 2.875648 1.000000
266.010132 -570.821106 2.737708 1.000000
266.010132 -570.821106 2.601401 1.000000
266.010132 -570.821106 2.466411 1.000000
266.010132 -570.821106 2.332435 1.000000
266.010132 -570.821106 2.199176 1.000000
266.010132 -570.821106 2.066344 1.000000
266.010132 -570.821106 1.933656 1.000000
266.010132 -570.821106 1.800824 1.000000
266.010132 -570.821106 1.667565 1.000000
266.010132 -570.821106 1.533589 1.000000
266.010132 -570.821106 1.398599 1.000000
266.010132 -570.821106 1.262292 1.000000
266.010132 -570.821106 1.124352 1.000000
266.010132 -570.821106 0.984447 1.000000
266.029266 -570.799500 3.016899 1.000000
266.029266 -570.799500 2.876808 1.000000
266.029266 -570.799500 2.738685 1.000000
266.029266 -570.799500 2.602198 1.000000
266.029266 -570.799500 2.467029 1.000000
266.029266 -570.799500 2.332875 1.000000
266.029266 -570.799500 2.199440 1.000000
266.029266 -570.799500 2.066432 1.000000
266.029266 -570.799500 1.933568 1.000000
266.029266 -570.799500 1.800560 1.000000
266.029266 -570.799500 1.667125 1.000000
266.029266 -570.799500 1.532971 1.000000
266.029266 -570.799500 1.397803 1.000000
266.029266 -570.799500 1.261315 1.000000
266.029266 -570.799500 1.123192 1.000000
266.029266 -570.799500 0.983102 1.000000
266.048431 -570.777893 3.018297 1.000000
266.048431 -570.777893 2.878014 1.000000
266.048431 -570.777893 2.739701 1.000000
266.048431 -570.777893 2.603026 1.000000
266.048431 -570.777893 2.467672 1.000000
266.048431 -570.777893 2.333333 1.000000
266.048431 -570.777893 2.199714 1.000000
266.048431 -570.777893 2.066524 1.000000
266.048431 -570.777893 1.933476 1.000000
266.048431 -570.777893 1.800286 1.000000
266.048431 -570.777893 1.666667 1.000000
266.048431 -570.777893 1.532329 1.000000
266.048431 -570.777893 1.396974 1.000000
266.048431 -570.777893 1.260300 1.000000
266.048431 -570.777893 1.121986 1.000000
266.048431 -570.777893 0.981703 1.000000
266.067657 -570.756226 3.019749 1.000000
266.067657 -570.756226 2.879266 1.000000
266.067657 -570.756226 2.740756 1.000000
266.067657 -570.756226 2.603886 1.000000
266.067657 -570.756165 2.468338 1.000000
266.067657 -570.756226 2.333808 1.000000
266.067657 -570.756165 2.199999 1.000000
266.067657 -570.756226 2.066619 1.000000
266.067657 -570.756226 1.933381 1.000000
266.067657 -570.756226 1.800001 1.000000
266.067657 -570.756226 1.666192 1.000000
266.067657 -570.756226 1.531662 1.000000
266.067657 -570.756226 1.396115 1.000000
266.067657 -570.756226 1.259245 1.000000
266.067657 -570.756226 1.120734 1.000000
266.067657 -570.756226 0.980251 1.000000
266.086945 -570.734436 3.021255 1.000000
266.086945 -570.734436 2.880565 1.000000
266.086945 -570.734436 2.741849 1.000000
266.086945 -570.734436 2.604778 1.000000
266.086945 -570.734436 2.469030 1.000000
266.086945 -570.734436 2.334301 1.000000
266.086945 -570.734436 2.200294 1.000000
266.086945 -570.734436 2.066717 1.000000
266.086945 -570.734436 1.933283 1.000000
266.086945 -570.734436 1.799706 1.000000
266.086945 -570.734436 1.665699 1.000000
266.086945 -570.734436 1.530970 1.000000
266.086945 -570.734436 1.395223 1.000000
266.086945 -570.734436 1.258151 1.000000
266.086945 -570.734436 1.119436 1.000000
266.086945 -570.734436 0.978745 1.000000
266.106293 -570.712646 3.022815 1.000000
266.106293 -570.712646 2.881910 1.000000
266.106293 -570.712646 2.742983 1.000000
266.106293 -570.712646 2.605701 1.000000
266.106293 -570.712646 2.469747 1.000000
266.106293 -570.712646 2.334812 1.000000
266.106293 -570.712646 2.200600 1.000000
266.106293 -570.712646 2.066819 1.000000
266.106293 -570.712646 1.933181 1.000000
266.106293 -570.712646 1.799400 1.000000
266.106293 -570.712646 1.665188 1.000000
266.106293 -570.712646 1.530253 1.000000
266.106293 -570.712646 1.394299 1.000000
266.106293 -570.712646 1.257017 1.000000
266.106293 -570.712646 1.118090 1.000000
266.106293 -570.712646 0.977185 1.000000
266.125702 -570.690735 3.024431 1.000000
266.125702 -570.690735 2.883303 1.000000
266.125702 -570.690735 2.744156 1.000000
266.125702 -570.690735 2.606658 1.000000
266.125702 -570.690735 2.470489 1.000000
266.125702 -570.690735 2.335341 1.000000
266.125702 -570.690735 2.200917 1.000000
266.125702 -570.690735 2.066924 1.000000
266.125702 -570.690735 1.933076 1.000000
266.125702 -570.690735 1.799083 1.000000
266.125702 -570.690735 1.664659 1.000000
266.125702 -570.690735 1.529511 1.000000
266.125702 -570.690735 1.393342 1.000000
266.125702 -570.690735 1.255844 1.000000
266.125702 -570.690735 1.116697 1.000000
266.125702 -570.690735 0.975570 1.000000
266.145172 -570.668762 3.026101 1.000000
266.145172 -570.668762 2.884743 1.000000
266.145172 -570.668762 2.745370 1.000000
266.145172 -570.668762 2.607647 1.000000
266.145172 -570.668762 2.471256 1.000000
266.145172 -570.668762 2.335888 1.000000
266.145172 -570.668762 2.201244 1.000000
266.145172 -570.668762 2.067034 1.000000
266.145172 -570.668762 1.932966 1.000000
266.145172 -570.668762 1.798756 1.000000
266.145172 -570.668762 1.664112 1.000000
266.145172 -570.668762 1.528744 1.000000
266.145172 -570.668762 1.392353 1.000000
266.145172 -570.668762 1.254630 1.000000
266.145172 -570.668762 1.115257 1.000000
266.145172 -570.668762 0.973899 1.000000
266.164703 -570.646729 3.027828 1.000000
266.164703 -570.646729 2.886232 1.000000
266.164703 -570.646729 2.746624 1.000000
266.164703 -570.646729 2.608670 1.000000
266.164703 -570.646729 2.472049 1.000000
266.164703 -570.646729 2.336453 1.000000
266.164703 -570.646729 2.201583 1.000000
266.164703 -570.646729 2.067146 1.000000
266.164703 -570.646729 1.932854 1.000000
266.164703 -570.646729 1.798417 1.000000
266.164703 -570.646729 1.663547 1.000000
266.164703 -570.646729 1.527951 1.000000
266.164703 -570.646729 1.391331 1.000000
266.164703 -570.646729 1.253376 1.000000
266.164703 -570.646729 1.113769 1.000000
266.164703 -570.646729 0.972173 1.000000
266.184296 -570.624634 3.029610 1.000000
266.184296 -570.624634 2.887768 1.000000
266.184296 -570.624634 2.747918 1.000000
266.184296 -570.624634 2.609725 1.000000
266.184296 -570.624634 2.472867 1.000000
266.184296 -570.624634 2.337036 1.000000
266.184296 -570.624634 2.201932 1.000000
266.184296 -570.624634 2.067263 1.000000
266.184296 -570.624634 1.932737 1.000000
266.184296 -570.624634 1.798067 1.000000
266.184296 -570.624634 1.662964 1.000000
266.184296 -570.624634 1.527133 1.000000
266.184296 -570.624634 1.390275 1.000000
266.184296 -570.624634 1.252082 1.000000
266.184296 -570.624634 1.112232 1.000000
266.184296 -570.624634 0.970391 1.000000
266.203949 -570.602478 3.031448 1.000000
266.203949 -570.602478 2.889354 1.000000
266.203949 -570.602478 2.749254 1.000000
266.203949 -570.602478 2.610814 1.000000
266.203949 -570.602478 2.473711 1.000000
266.203949 -570.602478 2.337638 1.000000
266.203949 -570.602478 2.202293 1.000000
266.203949 -570.602478 2.067383 1.000000
266.203949 -570.602478 1.932617 1.000000
266.203949 -570.602478 1.797707 1.000000
266.203949 -570.602478 1.662362 1.000000
266.203949 -570.602478 1.526289 1.000000
266.203949 -570.602478 1.389186 1.000000
266.203949 -570.602478 1.250746 1.000000
266.203949 -570.602478 1.110647 1.000000
266.203949 -570.602478 0.968552 1.000000
266.223694 -570.580200 3.033344 1.000000
266.223694 -570.580200 2.890988 1.000000
266.223694 -570.580200 2.750631 1.000000
266.223694 -570.580200 2.611936 1.000000
266.223694 -570.580200 2.474582 1.000000
266.223694 -570.580200 2.338259 1.000000
266.223694 -570.580200 2.202665 1.000000
266.223694 -570.580200 2.067507 1.000000
266.223694 -570.580200 1.932493 1.000000
266.223694 -570.580200 1.797335 1.000000
266.223694 -570.580200 1.661741 1.000000
266.223694 -570.580200 1.525418 1.000000
266.223694 -570.580200 1.388064 1.000000
266.223694 -570.580200 1.249369 1.000000
266.223694 -570.580200 1.109012 1.000000
266.223694 -570.580200 0.966656 1.000000
266.243500 -570.557861 3.035297 1.000000
266.243500 -570.557861 2.892673 1.000000
266.243500 -570.557861 2.752050 1.000000
266.243500 -570.557861 2.613093 1.000000
266.243500 -570.557861 2.475479 1.000000
266.243500 -570.557861 2.338898 1.000000
266.243500 -570.557861 2.203048 1.000000
266.243500 -570.557861 2.067634 1.000000
266.243500 -570.557861 1.932366 1.000000
266.243500 -570.557861 1.796952 1.000000
266.243500 -570.557861 1.661102 1.000000
266.243500 -570.557861 1.524521 1.000000
266.243500 -570.557861 1.386907 1.000000
266.243500 -570.557861 1.247950 1.000000
266.243500 -570.557861 1.107328 1.000000
266.243500 -570.557861 0.964703 1.000000
266.263397 -570.535461 3.037308 1.000000
266.263397 -570.535461 2.894406 1.000000
266.263397 -570.535461 2.753511 1.000000
266.263397 -570.535461 2.614284 1.000000
266.263397 -570.535461 2.476403 1.000000
266.263397 -570.535461 2.339556 1.000000
266.263397 -570.535461 2.203443 1.000000
266.263397 -570.535461 2.067766 1.000000
266.263397 -570.535461 1.932234 1.000000
266.263397 -570.535461 1.796558 1.000000
266.263397 -570.535461 1.660444 1.000000
266.263397 -570.535461 1.523597 1.000000
266.263397 -570.535461 1.385716 1.000000
266.263397 -570.535461 1.246489 1.000000
266.263397 -570.535461 1.105594 1.000000
266.263397 -570.535461 0.962692 1.000000
266.283356 -570.512939 3.039379 1.000000
266.283356 -570.512939 2.896191 1.000000
266.283356 -570.512939 2.755015 1.000000
266.283356 -570.512939 2.615510 1.000000
266.283356 -570.512939 2.477354 1.000000
266.283356 -570.512939 2.340234 1.000000
266.283356 -570.512939 2.203848 1.000000
266.283356 -570.512939 2.067901 1.000000
266.283356 -570.512939 1.932099 1.000000
266.283356 -570.512939 1.796152 1.000000
266.283356 -570.512939 1.659766 1.000000
266.283356 -570.512939 1.522646 1.000000
266.283356 -570.512939 1.384490 1.000000
266.283356 -570.512939 1.244985 1.000000
266.283356 -570.512939 1.103809 1.000000
266.283356 -570.512939 0.960622 1.000000
266.303406 -570.490295 3.041507 1.000000
266.303406 -570.490295 2.898027 1.000000
266.303406 -570.490295 2.756561 1.000000
266.303406 -570.490295 2.616771 1.000000
266.303406 -570.490295 2.478331 1.000000
266.303406 -570.490295 2.340931 1.000000
266.303406 -570.490295 2.204266 1.000000
266.303406 -570.490295 2.068040 1.000000
266.303406 -570.490295 1.931960 1.000000
266.303406 -570.490295 1.795734 1.000000
266.303406 -570.490295 1.659069 1.000000
266.303406 -570.490295 1.521669 1.000000
266.303406 -570.490295 1.383229 1.000000
266.303406 -570.490295 1.243439 1.000000
266.303406 -570.490295 1.101973 1.000000
266.303406 -570.490295 0.958493 1.000000
266.323547 -570.467590 3.043696 1.000000
266.323547 -570.467590 2.899914 1.000000
266.323547 -570.467590 2.758151 1.000000
266.323547 -570.467590 2.618067 1.000000
266.323547 -570.467590 2.479337 1.000000
266.323547 -570.467590 2.341647 1.000000
266.323547 -570.467590 2.204695 1.000000
266.323547 -570.467590 2.068183 1.000000
266.323547 -570.467590 1.931817 1.000000
266.323547 -570.467590 1.795305 1.000000
266.323547 -570.467590 1.658353 1.000000
266.323547 -570.467590 1.520663 1.000000
266.323547 -570.467590 1.381933 1.000000
266.323547 -570.467590 1.241849 1.000000
266.323547 -570.467590 1.100086 1.000000
266.323547 -570.467590 0.956304 1.000000
266.343750 -570.444824 3.045945 1.000000
266.343750 -570.444824 2.901854 1.000000
266.343750 -570.444824 2.759785 1.000000
266.343750 -570.444824 2.619399 1.000000
266.343750 -570.444824 2.480370 1.000000
266.343750 -570.444824 2.342383 1.000000
266.343750 -570.444824 2.205137 1.000000
266.343750 -570.444824 2.068330 1.000000
266.343750 -570.444824 1.931670 1.000000
266.343750 -570.444824 1.794864 1.000000
266.343750 -570.444824 1.657616 1.000000
266.343750 -570.444824 1.519630 1.000000
266.343750 -570.444824 1.380601 1.000000
266.343750 -570.444824 1.240215 1.000000
266.343750 -570.444824 1.098146 1.000000
266.343750 -570.444824 0.954055 1.000000
266.364075 -570.421875 3.048255 1.000000
266.364075 -570.421875 2.903845 1.000000
266.364075 -570.421875 2.761463 1.000000
266.364075 -570.421875 2.620767 1.000000
266.364075 -570.421875 2.481431 1.000000
266.364075 -570.421875 2.343140 1.000000
266.364075 -570.421875 2.205589 1.000000
266.364075 -570.421875 2.068481 1.000000
266.364075 -570.421875 1.931519 1.000000
266.364075 -570.421875 1.794411 1.000000
266.364075 -570.421875 1.656860 1.000000
266.364075 -570.421875 1.518570 1.000000
266.364075 -570.421875 1.379233 1.000000
266.364075 -570.421875 1.238537 1.000000
266.364075 -570.421875 1.096155 1.000000
266.364075 -570.421875 0.951745 1.000000
266.384460 -570.398865 3.050627 1.000000
266.384460 -570.398926 2.905890 1.000000
266.384460 -570.398865 2.763186 1.000000
266.384460 -570.398865 2.622171 1.000000
266.384460 -570.398865 2.482520 1.000000
266.384460 -570.398865 2.343916 1.000000
266.384460 -570.398865 2.206054 1.000000
266.384460 -570.398926 2.068636 1.000000
266.384460 -570.398926 1.931364 1.000000
266.384460 -570.398926 1.793945 1.000000
266.384460 -570.398926 1.656084 1.000000
266.384460 -570.398926 1.517480 1.000000
266.384460 -570.398926 1.377829 1.000000
266.384460 -570.398926 1.236814 1.000000
266.384460 -570.398926 1.094110 1.000000
266.384460 -570.398926 0.949373 1.000000
266.404938 -570.375793 3.053061 1.000000
266.404938 -570.375793 2.907989 1.000000
266.404938 -570.375793 2.764954 1.000000
266.404938 -570.375793 2.623612 1.000000
266.404938 -570.375793 2.483638 1.000000
266.404938 -570.375793 2.344713 1.000000
266.404938 -570.375793 2.206532 1.000000
266.404938 -570.375793 2.068795 1.000000
266.404938 -570.375793 1.931205 1.000000
266.404938 -570.375793 1.793468 1.000000
266.404938 -570.375793 1.655287 1.000000
266.404938 -570.375793 1.516363 1.000000
266.404938 -570.375793 1.376388 1.000000
266.404938 -570.375793 1.235047 1.000000
266.404938 -570.375793 1.092012 1.000000
266.404938 -570.375793 0.946940 1.000000
266.425537 -570.352539 3.055557 1.000000
266.425537 -570.352539 2.910141 1.000000
266.425537 -570.352539 2.766767 1.000000
266.425537 -570.352539 2.625091 1.000000
266.425537 -570.352539 2.484784 1.000000
266.425537 -570.352539 2.345530 1.000000
266.425537 -570.352539 2.207021 1.000000
266.425537 -570.352539 2.068958 1.000000
266.425537 -570.352539 1.931042 1.000000
266.425537 -570.352539 1.792978 1.000000
266.425537 -570.352539 1.654470 1.000000
266.425537 -570.352539 1.515216 1.000000
266.425537 -570.352539 1.374909 1.000000
266.425537 -570.352600 1.233233 1.000000
266.425537 -570.352600 1.089859 1.000000
266.425537 -570.352600 0.944443 1.000000
266.446228 -570.329224 3.058118 1.000000
266.446228 -570.329224 2.912349 1.000000
266.446228 -570.329224 2.768627 1.000000
266.446228 -570.329224 2.626607 1.000000
266.446228 -570.329224 2.485960 1.000000
266.446228 -570.329224 2.346368 1.000000
266.446228 -570.329224 2.207524 1.000000
266.446228 -570.329224 2.069125 1.000000
266.446228 -570.329224 1.930875 1.000000
266.446228 -570.329224 1.792476 1.000000
266.446228 -570.329224 1.653632 1.000000
266.446228 -570.329224 1.514040 1.000000
266.446228 -570.329224 1.373393 1.000000
266.446228 -570.329224 1.231373 1.000000
266.446228 -570.329224 1.087651 1.000000
266.446228 -570.329224 0.941883 1.000000
266.467010 -570.305786 3.060742 1.000000
266.467010 -570.305786 2.914612 1.000000
266.467010 -570.305786 2.770533 1.000000
266.467010 -570.305786 2.628161 1.000000
266.467010 -570.305786 2.487165 1.000000
266.467010 -570.305786 2.347227 1.000000
266.467010 -570.305786 2.208038 1.000000
266.467010 -570.305786 2.069297 1.000000
266.467010 -570.305786 1.930703 1.000000
266.467010 -570.305786 1.791962 1.000000
266.467010 -570.305786 1.652773 1.000000
266.467010 -570.305786 1.512835 1.000000
266.467010 -570.305786 1.371839 1.000000
266.467010 -570.305786 1.229467 1.000000
266.467010 -570.305786 1.085389 1.000000
266.467010 -570.305786 0.939259 1.000000
266.487885 -570.282227 3.063431 1.000000
266.487885 -570.282227 2.916930 1.000000
266.487885 -570.282227 2.772487 1.000000
266.487885 -570.282227 2.629754 1.000000
266.487885 -570.282227 2.488400 1.000000
266.487885 -570.282227 2.348108 1.000000
266.487885 -570.282227 2.208566 1.000000
266.487885 -570.282227 2.069472 1.000000
266.487885 -570.282227 1.930528 1.000000
266.487885 -570.282227 1.791434 1.000000
266.487885 -570.282227 1.651892 1.000000
266.487885 -570.282227 1.511600 1.000000
266.487885 -570.282227 1.370246 1.000000
266.487885 -570.282227 1.227514 1.000000
266.487885 -570.282227 1.083070 1.000000
266.487885 -570.282227 0.936569 1.000000
266.508881 -570.258545 3.066186 1.000000
266.508881 -570.258545 2.919306 1.000000
266.508881 -570.258545 2.774488 1.000000
266.508881 -570.258545 2.631385 1.000000
266.508881 -570.258545 2.489666 1.000000
266.508881 -570.258545 2.349010 1.000000
266.508881 -570.258545 2.209106 1.000000
266.508881 -570.258545 2.069652 1.000000
266.508881 -570.258545 1.930348 1.000000
266.508881 -570.258545 1.790894 1.000000
266.508881 -570.258545 1.650991 1.000000
266.508911 -570.258545 1.510334 1.000000
266.508911 -570.258545 1.368615 1.000000
266.508911 -570.258545 1.225512 1.000000
266.508911 -570.258545 1.080694 1.000000
266.508911 -570.258545 0.933814 1.000000
266.529999 -570.234741 3.069008 1.000000
266.529999 -570.234741 2.921739 1.000000
266.529999 -570.234741 2.776538 1.000000
266.529999 -570.234741 2.633057 1.000000
266.529999 -570.234741 2.490962 1.000000
266.529999 -570.234741 2.349933 1.000000
266.529999 -570.234741 2.209660 1.000000
266.529999 -570.234741 2.069837 1.000000
266.529999 -570.234741 1.930163 1.000000
266.529999 -570.234741 1.790340 1.000000
266.529999 -570.234741 1.650067 1.000000
