# This PCD file was generated using the MATLABÂ® pcwrite function
# from Computer Vision ToolboxÂ®.
# .PCD v.7 - Point Cloud Data file format
VERSION .7
FIELDS x y z intensity
SIZE 4 4 4 4
TYPE F F F F
COUNT 1 1 1 1
WIDTH 1163
HEIGHT 1
VIEWPOINT 0 0 0 1 0 0 0
POINTS 1163
DATA ascii
486.711884 -394.326233 1.588365 1.000000
486.711884 -394.326233 1.422469 1.000000
486.711884 -394.326233 1.255320 1.000000
486.711884 -394.326233 1.086539 1.000000
486.711884 -394.326233 0.915735 1.000000
486.711884 -394.326233 0.742499 1.000000
486.676910 -394.333374 3.255793 1.000000
486.676910 -394.333374 3.082792 1.000000
486.676910 -394.333374 2.912220 1.000000
486.676910 -394.333374 2.743669 1.000000
486.676910 -394.333374 2.576746 1.000000
486.676910 -394.333374 2.411076 1.000000
486.676910 -394.333374 2.246293 1.000000
486.676910 -394.333374 2.082039 1.000000
486.676910 -394.333374 1.917961 1.000000
486.676910 -394.333374 1.753707 1.000000
486.676910 -394.333374 1.588924 1.000000
486.676910 -394.333374 1.423254 1.000000
486.676910 -394.333374 1.256331 1.000000
486.676910 -394.333374 1.087780 1.000000
486.676910 -394.333374 0.917208 1.000000
486.676910 -394.333374 0.744207 1.000000
486.642059 -394.340485 3.254150 1.000000
486.642059 -394.340485 3.081376 1.000000
486.642059 -394.340485 2.911027 1.000000
486.642059 -394.340485 2.742696 1.000000
486.642059 -394.340485 2.575992 1.000000
486.642059 -394.340485 2.410538 1.000000
486.642059 -394.340485 2.245971 1.000000
486.642059 -394.340485 2.081932 1.000000
486.642059 -394.340485 1.918068 1.000000
486.642059 -394.340485 1.754029 1.000000
486.642059 -394.340485 1.589462 1.000000
486.642059 -394.340485 1.424008 1.000000
486.642059 -394.340485 1.257304 1.000000
486.642059 -394.340485 1.088973 1.000000
486.642059 -394.340485 0.918624 1.000000
486.642059 -394.340485 0.745850 1.000000
486.607269 -394.347565 3.252573 1.000000
486.607269 -394.347565 3.080016 1.000000
486.607269 -394.347565 2.909881 1.000000
486.607269 -394.347565 2.741762 1.000000
486.607269 -394.347565 2.575267 1.000000
486.607269 -394.347565 2.410022 1.000000
486.607269 -394.347565 2.245661 1.000000
486.607269 -394.347565 2.081829 1.000000
486.607269 -394.347565 1.918171 1.000000
486.607269 -394.347565 1.754339 1.000000
486.607269 -394.347565 1.589978 1.000000
486.607269 -394.347565 1.424733 1.000000
486.607269 -394.347565 1.258238 1.000000
486.607269 -394.347565 1.090119 1.000000
486.607269 -394.347565 0.919984 1.000000
486.607269 -394.347565 0.747427 1.000000
486.572571 -394.354645 3.251060 1.000000
486.572571 -394.354645 3.078711 1.000000
486.572571 -394.354645 2.908782 1.000000
486.572571 -394.354645 2.740866 1.000000
486.572571 -394.354645 2.574573 1.000000
486.572571 -394.354645 2.409527 1.000000
486.572571 -394.354645 2.245365 1.000000
486.572571 -394.354645 2.081730 1.000000
486.572571 -394.354645 1.918270 1.000000
486.572571 -394.354645 1.754635 1.000000
486.572571 -394.354645 1.590473 1.000000
486.572571 -394.354645 1.425428 1.000000
486.572571 -394.354645 1.259134 1.000000
486.572571 -394.354645 1.091218 1.000000
486.572571 -394.354645 0.921289 1.000000
486.572571 -394.354645 0.748940 1.000000
486.537964 -394.361725 3.249612 1.000000
486.537964 -394.361725 3.077463 1.000000
486.537964 -394.361725 2.907731 1.000000
486.537964 -394.361725 2.740009 1.000000
486.537964 -394.361725 2.573907 1.000000
486.537964 -394.361725 2.409053 1.000000
486.537964 -394.361725 2.245081 1.000000
486.537964 -394.361725 2.081635 1.000000
486.537964 -394.361725 1.918365 1.000000
486.537964 -394.361725 1.754919 1.000000
486.537964 -394.361725 1.590947 1.000000
486.537964 -394.361725 1.426093 1.000000
486.537964 -394.361725 1.259991 1.000000
486.537964 -394.361725 1.092269 1.000000
486.537964 -394.361725 0.922537 1.000000
486.537964 -394.361725 0.750388 1.000000
486.503448 -394.368744 3.248228 1.000000
486.503448 -394.368744 3.076270 1.000000
486.503448 -394.368744 2.906725 1.000000
486.503448 -394.368744 2.739189 1.000000
486.503448 -394.368744 2.573272 1.000000
486.503448 -394.368744 2.408600 1.000000
486.503448 -394.368744 2.244809 1.000000
486.503448 -394.368744 2.081545 1.000000
486.503448 -394.368744 1.918455 1.000000
486.503448 -394.368744 1.755191 1.000000
486.503448 -394.368744 1.591400 1.000000
486.503448 -394.368744 1.426728 1.000000
486.503448 -394.368744 1.260811 1.000000
486.503448 -394.368744 1.093275 1.000000
486.503448 -394.368744 0.923730 1.000000
486.503448 -394.368744 0.751772 1.000000
486.468994 -394.375793 3.246908 1.000000
486.468964 -394.375793 3.075131 1.000000
486.468964 -394.375793 2.905766 1.000000
486.468964 -394.375793 2.738407 1.000000
486.468994 -394.375793 2.572665 1.000000
486.468994 -394.375793 2.408168 1.000000
486.468964 -394.375793 2.244550 1.000000
486.468964 -394.375793 2.081459 1.000000
486.468964 -394.375793 1.918541 1.000000
486.468964 -394.375793 1.755450 1.000000
486.468994 -394.375793 1.591832 1.000000
486.468994 -394.375793 1.427335 1.000000
486.468964 -394.375793 1.261593 1.000000
486.468964 -394.375793 1.094234 1.000000
486.468964 -394.375793 0.924869 1.000000
486.468964 -394.375793 0.753092 1.000000
486.434601 -394.382813 3.245651 1.000000
486.434601 -394.382813 3.074048 1.000000
486.434601 -394.382813 2.904853 1.000000
486.434601 -394.382813 2.737663 1.000000
486.434601 -394.382813 2.572088 1.000000
486.434601 -394.382813 2.407756 1.000000
486.434601 -394.382813 2.244304 1.000000
486.434601 -394.382813 2.081376 1.000000
486.434601 -394.382813 1.918624 1.000000
486.434601 -394.382813 1.755696 1.000000
486.434601 -394.382813 1.592244 1.000000
486.434601 -394.382813 1.427912 1.000000
486.434601 -394.382813 1.262337 1.000000
486.434601 -394.382813 1.095147 1.000000
486.434601 -394.382813 0.925952 1.000000
486.434601 -394.382813 0.754349 1.000000
486.400269 -394.389801 3.244458 1.000000
486.400269 -394.389801 3.073019 1.000000
486.400269 -394.389801 2.903986 1.000000
486.400269 -394.389801 2.736956 1.000000
486.400269 -394.389801 2.571540 1.000000
486.400269 -394.389801 2.407365 1.000000
486.400269 -394.389801 2.244070 1.000000
486.400269 -394.389801 2.081298 1.000000
486.400269 -394.389801 1.918702 1.000000
486.400269 -394.389801 1.755930 1.000000
486.400269 -394.389801 1.592635 1.000000
486.400269 -394.389801 1.428460 1.000000
486.400269 -394.389801 1.263044 1.000000
486.400269 -394.389801 1.096014 1.000000
486.400269 -394.389801 0.926982 1.000000
486.400269 -394.389801 0.755542 1.000000
486.366028 -394.396790 3.243327 1.000000
486.366028 -394.396790 3.072043 1.000000
486.366028 -394.396790 2.903165 1.000000
486.366028 -394.396790 2.736286 1.000000
486.366028 -394.396790 2.571021 1.000000
486.366028 -394.396790 2.406995 1.000000
486.366028 -394.396790 2.243848 1.000000
486.366028 -394.396790 2.081224 1.000000
486.366028 -394.396790 1.918775 1.000000
486.366028 -394.396790 1.756152 1.000000
486.366028 -394.396790 1.593005 1.000000
486.366028 -394.396790 1.428979 1.000000
486.366028 -394.396790 1.263714 1.000000
486.366028 -394.396790 1.096835 1.000000
486.366028 -394.396790 0.927957 1.000000
486.366028 -394.396790 0.756673 1.000000
486.331818 -394.403748 3.242259 1.000000
486.331818 -394.403748 3.071122 1.000000
486.331818 -394.403748 2.902389 1.000000
486.331818 -394.403748 2.735654 1.000000
486.331818 -394.403748 2.570530 1.000000
486.331818 -394.403748 2.406646 1.000000
486.331818 -394.403748 2.243638 1.000000
486.331818 -394.403748 2.081155 1.000000
486.331818 -394.403748 1.918845 1.000000
486.331818 -394.403748 1.756362 1.000000
486.331818 -394.403748 1.593354 1.000000
486.331818 -394.403748 1.429470 1.000000
486.331818 -394.403748 1.264346 1.000000
486.331818 -394.403748 1.097611 1.000000
486.331818 -394.403748 0.928878 1.000000
486.331818 -394.403748 0.757741 1.000000
486.297668 -394.410736 3.241253 1.000000
486.297668 -394.410736 3.070255 1.000000
486.297668 -394.410736 2.901658 1.000000
486.297668 -394.410736 2.735058 1.000000
486.297668 -394.410736 2.570068 1.000000
486.297668 -394.410736 2.406316 1.000000
486.297668 -394.410736 2.243441 1.000000
486.297668 -394.410736 2.081089 1.000000
486.297668 -394.410736 1.918911 1.000000
486.297668 -394.410736 1.756559 1.000000
486.297668 -394.410736 1.593684 1.000000
486.297668 -394.410736 1.429932 1.000000
486.297668 -394.410736 1.264942 1.000000
486.297668 -394.410736 1.098342 1.000000
486.297668 -394.410736 0.929745 1.000000
486.297668 -394.410736 0.758747 1.000000
486.263611 -394.417664 3.240309 1.000000
486.263611 -394.417664 3.069441 1.000000
486.263611 -394.417664 2.900972 1.000000
486.263611 -394.417664 2.734499 1.000000
486.263611 -394.417664 2.569634 1.000000
486.263611 -394.417664 2.406007 1.000000
486.263611 -394.417664 2.243256 1.000000
486.263611 -394.417664 2.081027 1.000000
486.263611 -394.417664 1.918973 1.000000
486.263611 -394.417664 1.756744 1.000000
486.263611 -394.417664 1.593993 1.000000
486.263611 -394.417664 1.430365 1.000000
486.263611 -394.417664 1.265501 1.000000
486.263611 -394.417664 1.099028 1.000000
486.263611 -394.417664 0.930559 1.000000
486.263611 -394.417664 0.759691 1.000000
486.229553 -394.424622 3.239426 1.000000
486.229553 -394.424622 3.068680 1.000000
486.229553 -394.424622 2.900331 1.000000
486.229553 -394.424622 2.733976 1.000000
486.229553 -394.424622 2.569229 1.000000
486.229553 -394.424622 2.405718 1.000000
486.229553 -394.424622 2.243083 1.000000
486.229553 -394.424622 2.080970 1.000000
486.229553 -394.424622 1.919030 1.000000
486.229553 -394.424622 1.756917 1.000000
486.229553 -394.424622 1.594282 1.000000
486.229553 -394.424622 1.430771 1.000000
486.229553 -394.424622 1.266024 1.000000
486.229553 -394.424622 1.099669 1.000000
486.229553 -394.424622 0.931320 1.000000
486.229553 -394.424622 0.760574 1.000000
486.195587 -394.431549 3.238606 1.000000
486.195587 -394.431549 3.067973 1.000000
486.195587 -394.431549 2.899735 1.000000
486.195587 -394.431549 2.733491 1.000000
486.195587 -394.431549 2.568852 1.000000
486.195587 -394.431549 2.405450 1.000000
486.195587 -394.431549 2.242922 1.000000
486.195587 -394.431549 2.080916 1.000000
486.195587 -394.431549 1.919084 1.000000
486.195587 -394.431549 1.757078 1.000000
486.195587 -394.431549 1.594550 1.000000
486.195587 -394.431549 1.431148 1.000000
486.195587 -394.431549 1.266509 1.000000
486.195587 -394.431549 1.100265 1.000000
486.195587 -394.431549 0.932027 1.000000
486.195587 -394.431549 0.761394 1.000000
486.161621 -394.438477 3.237847 1.000000
486.161621 -394.438477 3.067318 1.000000
486.161621 -394.438477 2.899184 1.000000
486.161621 -394.438477 2.733041 1.000000
486.161621 -394.438477 2.568504 1.000000
486.161621 -394.438477 2.405201 1.000000
486.161621 -394.438477 2.242773 1.000000
486.161621 -394.438477 2.080867 1.000000
486.161621 -394.438477 1.919133 1.000000
486.161621 -394.438477 1.757227 1.000000
486.161621 -394.438477 1.594799 1.000000
486.161621 -394.438477 1.431496 1.000000
486.161621 -394.438477 1.266959 1.000000
486.161621 -394.438477 1.100816 1.000000
486.161621 -394.438477 0.932682 1.000000
486.161621 -394.438477 0.762153 1.000000
486.127716 -394.445404 3.237148 1.000000
486.127716 -394.445374 3.066716 1.000000
486.127716 -394.445404 2.898677 1.000000
486.127716 -394.445404 2.732628 1.000000
486.127716 -394.445374 2.568183 1.000000
486.127716 -394.445374 2.404973 1.000000
486.127716 -394.445404 2.242636 1.000000
486.127716 -394.445374 2.080821 1.000000
486.127716 -394.445374 1.919179 1.000000
486.127716 -394.445404 1.757364 1.000000
486.127716 -394.445374 1.595027 1.000000
486.127716 -394.445374 1.431817 1.000000
486.127716 -394.445404 1.267372 1.000000
486.127716 -394.445404 1.101323 1.000000
486.127716 -394.445374 0.933284 1.000000
486.127716 -394.445374 0.762851 1.000000
486.093872 -394.452301 3.236511 1.000000
486.093872 -394.452301 3.066167 1.000000
486.093872 -394.452301 2.898214 1.000000
486.093872 -394.452301 2.732250 1.000000
486.093872 -394.452301 2.567891 1.000000
486.093872 -394.452301 2.404764 1.000000
486.093872 -394.452301 2.242511 1.000000
486.093872 -394.452301 2.080779 1.000000
486.093872 -394.452301 1.919221 1.000000
486.093872 -394.452301 1.757489 1.000000
486.093872 -394.452301 1.595236 1.000000
486.093872 -394.452301 1.432109 1.000000
486.093872 -394.452301 1.267750 1.000000
486.093872 -394.452301 1.101786 1.000000
486.093872 -394.452301 0.933833 1.000000
486.093872 -394.452301 0.763489 1.000000
486.060028 -394.459198 3.235935 1.000000
486.060028 -394.459198 3.065670 1.000000
486.060028 -394.459198 2.897796 1.000000
486.060028 -394.459198 2.731909 1.000000
486.060028 -394.459198 2.567626 1.000000
486.060028 -394.459198 2.404576 1.000000
486.060028 -394.459198 2.242398 1.000000
486.060028 -394.459198 2.080742 1.000000
486.060028 -394.459198 1.919258 1.000000
486.060028 -394.459198 1.757602 1.000000
486.060028 -394.459198 1.595424 1.000000
486.060028 -394.459198 1.432374 1.000000
486.060028 -394.459198 1.268091 1.000000
486.060028 -394.459198 1.102204 1.000000
486.060028 -394.459198 0.934330 1.000000
486.060028 -394.459198 0.764065 1.000000
486.026215 -394.466095 3.235420 1.000000
486.026215 -394.466095 3.065226 1.000000
486.026215 -394.466095 2.897421 1.000000
486.026215 -394.466095 2.731604 1.000000
486.026215 -394.466095 2.567389 1.000000
486.026215 -394.466095 2.404407 1.000000
486.026215 -394.466095 2.242297 1.000000
486.026215 -394.466095 2.080708 1.000000
486.026215 -394.466095 1.919292 1.000000
486.026215 -394.466095 1.757703 1.000000
486.026215 -394.466095 1.595593 1.000000
486.026215 -394.466095 1.432611 1.000000
486.026215 -394.466095 1.268396 1.000000
486.026215 -394.466095 1.102579 1.000000
486.026215 -394.466095 0.934774 1.000000
486.026215 -394.466095 0.764580 1.000000
485.992432 -394.472992 3.234965 1.000000
485.992432 -394.472992 3.064834 1.000000
485.992432 -394.472992 2.897091 1.000000
485.992432 -394.472992 2.731335 1.000000
485.992432 -394.472992 2.567181 1.000000
485.992432 -394.472992 2.404258 1.000000
485.992432 -394.472992 2.242208 1.000000
485.992432 -394.472992 2.080678 1.000000
485.992432 -394.472992 1.919322 1.000000
485.992432 -394.472992 1.757792 1.000000
485.992432 -394.472992 1.595742 1.000000
485.992432 -394.472992 1.432819 1.000000
485.992432 -394.472992 1.268665 1.000000
485.992432 -394.472992 1.102909 1.000000
485.992432 -394.472992 0.935166 1.000000
485.992432 -394.472992 0.765035 1.000000
485.958679 -394.479858 3.234571 1.000000
485.958679 -394.479858 3.064494 1.000000
485.958679 -394.479858 2.896804 1.000000
485.958679 -394.479858 2.731101 1.000000
485.958679 -394.479858 2.566999 1.000000
485.958679 -394.479858 2.404129 1.000000
485.958679 -394.479858 2.242131 1.000000
485.958679 -394.479858 2.080653 1.000000
485.958679 -394.479858 1.919347 1.000000
485.958679 -394.479858 1.757869 1.000000
485.958679 -394.479858 1.595871 1.000000
485.958679 -394.479858 1.433001 1.000000
485.958679 -394.479858 1.268899 1.000000
485.958679 -394.479858 1.103196 1.000000
485.958679 -394.479858 0.935506 1.000000
485.958679 -394.479858 0.765429 1.000000
485.924957 -394.486755 3.234237 1.000000
485.924957 -394.486755 3.064206 1.000000
485.924957 -394.486755 2.896562 1.000000
485.924957 -394.486755 2.730903 1.000000
485.924957 -394.486755 2.566846 1.000000
485.924957 -394.486755 2.404020 1.000000
485.924957 -394.486755 2.242065 1.000000
485.924957 -394.486755 2.080631 1.000000
485.924957 -394.486755 1.919369 1.000000
485.924957 -394.486755 1.757935 1.000000
485.924957 -394.486755 1.595980 1.000000
485.924957 -394.486755 1.433154 1.000000
485.924957 -394.486755 1.269097 1.000000
485.924957 -394.486755 1.103438 1.000000
485.924957 -394.486755 0.935794 1.000000
485.924957 -394.486755 0.765763 1.000000
485.891235 -394.493622 3.233963 1.000000
485.891235 -394.493622 3.063970 1.000000
485.891235 -394.493622 2.896363 1.000000
485.891235 -394.493622 2.730741 1.000000
485.891235 -394.493622 2.566720 1.000000
485.891235 -394.493622 2.403930 1.000000
485.891235 -394.493622 2.242012 1.000000
485.891235 -394.493622 2.080613 1.000000
485.891235 -394.493622 1.919387 1.000000
485.891235 -394.493622 1.757988 1.000000
485.891235 -394.493622 1.596070 1.000000
485.891235 -394.493622 1.433280 1.000000
485.891235 -394.493622 1.269259 1.000000
485.891235 -394.493622 1.103637 1.000000
485.891235 -394.493622 0.936030 1.000000
485.891235 -394.493622 0.766037 1.000000
485.857513 -394.500488 3.233750 1.000000
485.857513 -394.500488 3.063786 1.000000
485.857513 -394.500488 2.896208 1.000000
485.857513 -394.500488 2.730615 1.000000
485.857513 -394.500488 2.566622 1.000000
485.857513 -394.500488 2.403860 1.000000
485.857513 -394.500488 2.241970 1.000000
485.857513 -394.500488 2.080599 1.000000
485.857513 -394.500488 1.919401 1.000000
485.857513 -394.500488 1.758030 1.000000
485.857513 -394.500488 1.596140 1.000000
485.857513 -394.500488 1.433378 1.000000
485.857513 -394.500488 1.269385 1.000000
485.857513 -394.500488 1.103792 1.000000
485.857513 -394.500488 0.936214 1.000000
485.857513 -394.500488 0.766250 1.000000
485.823822 -394.507385 3.233597 1.000000
485.823822 -394.507385 3.063654 1.000000
485.823822 -394.507385 2.896097 1.000000
485.823822 -394.507385 2.730524 1.000000
485.823822 -394.507385 2.566552 1.000000
485.823822 -394.507385 2.403810 1.000000
485.823822 -394.507385 2.241940 1.000000
485.823822 -394.507385 2.080589 1.000000
485.823822 -394.507385 1.919411 1.000000
485.823822 -394.507385 1.758060 1.000000
485.823822 -394.507385 1.596190 1.000000
485.823822 -394.507385 1.433448 1.000000
485.823822 -394.507385 1.269476 1.000000
485.823822 -394.507385 1.103903 1.000000
485.823822 -394.507385 0.936347 1.000000
485.823822 -394.507385 0.766403 1.000000
485.790131 -394.514252 3.233503 1.000000
485.790131 -394.514252 3.063573 1.000000
485.790131 -394.514252 2.896029 1.000000
485.790131 -394.514252 2.730469 1.000000
485.790131 -394.514252 2.566509 1.000000
485.790131 -394.514252 2.403780 1.000000
485.790131 -394.514252 2.241921 1.000000
485.790131 -394.514252 2.080583 1.000000
485.790131 -394.514252 1.919417 1.000000
485.790131 -394.514252 1.758079 1.000000
485.790131 -394.514252 1.596220 1.000000
485.790131 -394.514252 1.433491 1.000000
485.790131 -394.514252 1.269531 1.000000
485.790131 -394.514252 1.103971 1.000000
485.790131 -394.514252 0.936427 1.000000
485.790131 -394.514252 0.766497 1.000000
485.756470 -394.521118 3.233470 1.000000
485.756470 -394.521118 3.063545 1.000000
485.756470 -394.521118 2.896005 1.000000
485.756470 -394.521118 2.730449 1.000000
485.756470 -394.521118 2.566494 1.000000
485.756470 -394.521118 2.403769 1.000000
485.756470 -394.521118 2.241915 1.000000
485.756470 -394.521118 2.080580 1.000000
485.756470 -394.521118 1.919419 1.000000
485.756470 -394.521118 1.758085 1.000000
485.756470 -394.521118 1.596231 1.000000
485.756470 -394.521118 1.433506 1.000000
485.756470 -394.521118 1.269551 1.000000
485.756470 -394.521118 1.103995 1.000000
485.756470 -394.521118 0.936455 1.000000
485.756470 -394.521118 0.766529 1.000000
485.722778 -394.527985 3.233498 1.000000
485.722778 -394.527985 3.063568 1.000000
485.722778 -394.527985 2.896025 1.000000
485.722778 -394.527985 2.730466 1.000000
485.722778 -394.527985 2.566506 1.000000
485.722778 -394.527985 2.403778 1.000000
485.722778 -394.527985 2.241920 1.000000
485.722778 -394.527985 2.080582 1.000000
485.722778 -394.527985 1.919418 1.000000
485.722778 -394.527985 1.758080 1.000000
485.722778 -394.527985 1.596222 1.000000
485.722778 -394.527985 1.433494 1.000000
485.722778 -394.527985 1.269534 1.000000
485.722778 -394.527985 1.103975 1.000000
485.722778 -394.527985 0.936432 1.000000
485.722778 -394.527985 0.766502 1.000000
485.689087 -394.534851 3.233585 1.000000
485.689087 -394.534851 3.063643 1.000000
485.689087 -394.534851 2.896088 1.000000
485.689087 -394.534851 2.730517 1.000000
485.689087 -394.534851 2.566546 1.000000
485.689087 -394.534851 2.403806 1.000000
485.689087 -394.534851 2.241937 1.000000
485.689087 -394.534851 2.080588 1.000000
485.689087 -394.534851 1.919412 1.000000
485.689087 -394.534851 1.758063 1.000000
485.689087 -394.534851 1.596194 1.000000
485.689087 -394.534851 1.433453 1.000000
485.689087 -394.534851 1.269483 1.000000
485.689087 -394.534851 1.103912 1.000000
485.689087 -394.534851 0.936357 1.000000
485.689087 -394.534851 0.766415 1.000000
485.655396 -394.541718 3.233733 1.000000
485.655396 -394.541718 3.063771 1.000000
485.655396 -394.541748 2.896195 1.000000
485.655396 -394.541748 2.730605 1.000000
485.655396 -394.541718 2.566614 1.000000
485.655396 -394.541718 2.403855 1.000000
485.655396 -394.541748 2.241966 1.000000
485.655396 -394.541748 2.080598 1.000000
485.655396 -394.541748 1.919402 1.000000
485.655396 -394.541748 1.758034 1.000000
485.655396 -394.541718 1.596145 1.000000
485.655396 -394.541718 1.433386 1.000000
485.655396 -394.541748 1.269395 1.000000
485.655396 -394.541718 1.103805 1.000000
485.655396 -394.541718 0.936229 1.000000
485.655396 -394.541718 0.766267 1.000000
485.621674 -394.548615 3.233940 1.000000
485.621674 -394.548615 3.063950 1.000000
485.621674 -394.548615 2.896346 1.000000
485.621674 -394.548615 2.730728 1.000000
485.621674 -394.548615 2.566710 1.000000
485.621674 -394.548615 2.403923 1.000000
485.621674 -394.548615 2.242007 1.000000
485.621674 -394.548615 2.080611 1.000000
485.621674 -394.548615 1.919389 1.000000
485.621674 -394.548615 1.757993 1.000000
485.621674 -394.548615 1.596077 1.000000
485.621674 -394.548615 1.433290 1.000000
485.621674 -394.548615 1.269273 1.000000
485.621674 -394.548615 1.103654 1.000000
485.621674 -394.548615 0.936050 1.000000
485.621674 -394.548615 0.766060 1.000000
485.587982 -394.555481 3.234208 1.000000
485.587982 -394.555481 3.064181 1.000000
485.587982 -394.555481 2.896541 1.000000
485.587982 -394.555481 2.730886 1.000000
485.587982 -394.555481 2.566833 1.000000
485.587982 -394.555481 2.404010 1.000000
485.587982 -394.555481 2.242059 1.000000
485.587982 -394.555481 2.080629 1.000000
485.587982 -394.555481 1.919371 1.000000
485.587982 -394.555481 1.757940 1.000000
485.587982 -394.555481 1.595990 1.000000
485.587982 -394.555481 1.433167 1.000000
485.587982 -394.555481 1.269114 1.000000
485.587982 -394.555481 1.103459 1.000000
485.587982 -394.555481 0.935819 1.000000
485.587982 -394.555481 0.765792 1.000000
485.554230 -394.562378 3.234536 1.000000
485.554230 -394.562378 3.064464 1.000000
485.554230 -394.562378 2.896779 1.000000
485.554230 -394.562378 2.731081 1.000000
485.554230 -394.562378 2.566983 1.000000
485.554230 -394.562378 2.404118 1.000000
485.554230 -394.562378 2.242124 1.000000
485.554230 -394.562378 2.080650 1.000000
485.554230 -394.562378 1.919350 1.000000
485.554230 -394.562378 1.757876 1.000000
485.554230 -394.562378 1.595882 1.000000
485.554230 -394.562378 1.433017 1.000000
485.554230 -394.562378 1.268919 1.000000
485.554230 -394.562378 1.103221 1.000000
485.554230 -394.562378 0.935536 1.000000
485.554230 -394.562378 0.765464 1.000000
485.520477 -394.569244 3.234925 1.000000
485.520477 -394.569244 3.064798 1.000000
485.520477 -394.569244 2.897061 1.000000
485.520477 -394.569244 2.731311 1.000000
485.520477 -394.569244 2.567162 1.000000
485.520477 -394.569244 2.404245 1.000000
485.520477 -394.569244 2.242200 1.000000
485.520477 -394.569244 2.080676 1.000000
485.520477 -394.569244 1.919324 1.000000
485.520477 -394.569244 1.757800 1.000000
485.520477 -394.569244 1.595755 1.000000
485.520477 -394.569244 1.432838 1.000000
485.520477 -394.569244 1.268690 1.000000
485.520477 -394.569244 1.102939 1.000000
485.520477 -394.569244 0.935202 1.000000
485.520477 -394.569244 0.765075 1.000000
485.486694 -394.576141 3.235374 1.000000
485.486694 -394.576141 3.065186 1.000000
485.486694 -394.576141 2.897388 1.000000
485.486694 -394.576141 2.731576 1.000000
485.486694 -394.576141 2.567368 1.000000
485.486694 -394.576141 2.404392 1.000000
485.486694 -394.576141 2.242288 1.000000
485.486694 -394.576141 2.080705 1.000000
485.486694 -394.576141 1.919295 1.000000
485.486694 -394.576141 1.757712 1.000000
485.486694 -394.576141 1.595608 1.000000
485.486694 -394.576141 1.432632 1.000000
485.486694 -394.576141 1.268424 1.000000
485.486694 -394.576141 1.102612 1.000000
485.486694 -394.576141 0.934814 1.000000
485.486694 -394.576141 0.764626 1.000000
485.452911 -394.583038 3.235884 1.000000
485.452911 -394.583038 3.065625 1.000000
485.452911 -394.583038 2.897758 1.000000
485.452911 -394.583038 2.731878 1.000000
485.452911 -394.583038 2.567602 1.000000
485.452911 -394.583038 2.404558 1.000000
485.452911 -394.583038 2.242388 1.000000
485.452911 -394.583038 2.080738 1.000000
485.452911 -394.583038 1.919262 1.000000
485.452911 -394.583038 1.757612 1.000000
485.452911 -394.583038 1.595441 1.000000
485.452911 -394.583038 1.432398 1.000000
485.452911 -394.583038 1.268122 1.000000
485.452911 -394.583038 1.102242 1.000000
485.452911 -394.583038 0.934375 1.000000
485.452911 -394.583038 0.764116 1.000000
485.419067 -394.589935 3.236454 1.000000
485.419067 -394.589935 3.066117 1.000000
485.419067 -394.589935 2.898172 1.000000
485.419067 -394.589935 2.732216 1.000000
485.419067 -394.589935 2.567864 1.000000
485.419067 -394.589935 2.404745 1.000000
485.419067 -394.589935 2.242500 1.000000
485.419067 -394.589935 2.080775 1.000000
485.419067 -394.589935 1.919224 1.000000
485.419067 -394.589935 1.757500 1.000000
485.419067 -394.589935 1.595255 1.000000
485.419067 -394.589935 1.432136 1.000000
485.419067 -394.589935 1.267784 1.000000
485.419067 -394.589935 1.101828 1.000000
485.419067 -394.589935 0.933883 1.000000
485.419067 -394.589935 0.763546 1.000000
485.385193 -394.596832 3.237085 1.000000
485.385193 -394.596832 3.066661 1.000000
485.385193 -394.596832 2.898630 1.000000
485.385193 -394.596832 2.732590 1.000000
485.385193 -394.596832 2.568154 1.000000
485.385193 -394.596832 2.404952 1.000000
485.385193 -394.596832 2.242624 1.000000
485.385193 -394.596832 2.080817 1.000000
485.385193 -394.596832 1.919183 1.000000
485.385193 -394.596832 1.757376 1.000000
485.385193 -394.596832 1.595048 1.000000
485.385193 -394.596832 1.431846 1.000000
485.385193 -394.596832 1.267410 1.000000
485.385193 -394.596832 1.101370 1.000000
485.385193 -394.596832 0.933339 1.000000
485.385193 -394.596832 0.762915 1.000000
485.351318 -394.603760 3.237777 1.000000
485.351318 -394.603760 3.067258 1.000000
485.351318 -394.603760 2.899133 1.000000
485.351318 -394.603760 2.733000 1.000000
485.351318 -394.603760 2.568472 1.000000
485.351318 -394.603760 2.405178 1.000000
485.351318 -394.603760 2.242759 1.000000
485.351318 -394.603760 2.080862 1.000000
485.351318 -394.603760 1.919138 1.000000
485.351318 -394.603760 1.757241 1.000000
485.351318 -394.603760 1.594821 1.000000
485.351318 -394.603760 1.431528 1.000000
485.351318 -394.603760 1.267000 1.000000
485.351318 -394.603760 1.100867 1.000000
485.351318 -394.603760 0.932742 1.000000
485.351318 -394.603760 0.762223 1.000000
485.317352 -394.610687 3.238530 1.000000
485.317352 -394.610687 3.067908 1.000000
485.317352 -394.610687 2.899681 1.000000
485.317352 -394.610687 2.733446 1.000000
485.317352 -394.610687 2.568818 1.000000
485.317352 -394.610687 2.405425 1.000000
485.317352 -394.610687 2.242907 1.000000
485.317352 -394.610687 2.080911 1.000000
485.317352 -394.610687 1.919089 1.000000
485.317352 -394.610687 1.757093 1.000000
485.317352 -394.610687 1.594575 1.000000
485.317352 -394.610687 1.431182 1.000000
485.317352 -394.610687 1.266554 1.000000
485.317352 -394.610687 1.100319 1.000000
485.317352 -394.610687 0.932092 1.000000
485.317352 -394.610687 0.761470 1.000000
485.283386 -394.617615 3.239345 1.000000
485.283386 -394.617615 3.068610 1.000000
485.283386 -394.617615 2.900272 1.000000
485.283386 -394.617615 2.733928 1.000000
485.283386 -394.617615 2.569192 1.000000
485.283386 -394.617615 2.405692 1.000000
485.283386 -394.617615 2.243067 1.000000
485.283386 -394.617615 2.080965 1.000000
485.283386 -394.617615 1.919036 1.000000
485.283386 -394.617615 1.756933 1.000000
485.283386 -394.617615 1.594308 1.000000
485.283386 -394.617615 1.430808 1.000000
485.283386 -394.617615 1.266072 1.000000
485.283386 -394.617615 1.099728 1.000000
485.283386 -394.617615 0.931390 1.000000
485.283386 -394.617615 0.760655 1.000000
485.249359 -394.624542 3.240221 1.000000
485.249359 -394.624542 3.069366 1.000000
485.249359 -394.624542 2.900909 1.000000
485.249359 -394.624542 2.734447 1.000000
485.249359 -394.624542 2.569594 1.000000
485.249359 -394.624542 2.405979 1.000000
485.249359 -394.624542 2.243239 1.000000
485.249359 -394.624542 2.081022 1.000000
485.249359 -394.624542 1.918978 1.000000
485.249359 -394.624542 1.756761 1.000000
485.249359 -394.624542 1.594021 1.000000
485.249359 -394.624542 1.430406 1.000000
485.249359 -394.624542 1.265553 1.000000
485.249359 -394.624542 1.099091 1.000000
485.249359 -394.624542 0.930634 1.000000
485.249359 -394.624542 0.759779 1.000000
485.215271 -394.631500 3.241159 1.000000
485.215271 -394.631500 3.070174 1.000000
485.215271 -394.631500 2.901590 1.000000
485.215271 -394.631500 2.735003 1.000000
485.215271 -394.631500 2.570025 1.000000
485.215271 -394.631500 2.406286 1.000000
485.215271 -394.631500 2.243423 1.000000
485.215271 -394.631500 2.081083 1.000000
485.215271 -394.631500 1.918917 1.000000
485.215271 -394.631500 1.756577 1.000000
485.215271 -394.631500 1.593714 1.000000
485.215271 -394.631500 1.429975 1.000000
485.215271 -394.631500 1.264997 1.000000
485.215271 -394.631500 1.098410 1.000000
485.215271 -394.631500 0.929826 1.000000
485.215271 -394.631500 0.758841 1.000000
485.181152 -394.638458 3.242159 1.000000
485.181152 -394.638458 3.071036 1.000000
485.181152 -394.638458 2.902317 1.000000
485.181152 -394.638458 2.735595 1.000000
485.181152 -394.638458 2.570484 1.000000
485.181152 -394.638458 2.406613 1.000000
485.181152 -394.638458 2.243619 1.000000
485.181152 -394.638458 2.081148 1.000000
485.181152 -394.638458 1.918852 1.000000
485.181152 -394.638458 1.756381 1.000000
485.181152 -394.638458 1.593387 1.000000
485.181152 -394.638458 1.429516 1.000000
485.181152 -394.638458 1.264405 1.000000
485.181152 -394.638458 1.097683 1.000000
485.181152 -394.638458 0.928963 1.000000
485.181152 -394.638458 0.757841 1.000000
485.146942 -394.645447 3.243222 1.000000
485.146942 -394.645447 3.071952 1.000000
485.146942 -394.645447 2.903088 1.000000
485.146942 -394.645447 2.736224 1.000000
485.146942 -394.645447 2.570972 1.000000
485.146942 -394.645447 2.406961 1.000000
485.146942 -394.645447 2.243827 1.000000
485.146942 -394.645447 2.081218 1.000000
485.146942 -394.645447 1.918782 1.000000
485.146942 -394.645447 1.756173 1.000000
485.146942 -394.645447 1.593039 1.000000
485.146942 -394.645447 1.429028 1.000000
485.146942 -394.645447 1.263776 1.000000
485.146942 -394.645447 1.096912 1.000000
485.146942 -394.645447 0.928048 1.000000
485.146942 -394.645447 0.756778 1.000000
485.112701 -394.652435 3.244347 1.000000
485.112701 -394.652435 3.072922 1.000000
485.112701 -394.652435 2.903906 1.000000
485.112701 -394.652435 2.736890 1.000000
485.112701 -394.652435 2.571489 1.000000
485.112701 -394.652435 2.407329 1.000000
485.112701 -394.652435 2.244048 1.000000
485.112701 -394.652435 2.081291 1.000000
485.112701 -394.652435 1.918709 1.000000
485.112701 -394.652435 1.755952 1.000000
485.112701 -394.652435 1.592671 1.000000
485.112701 -394.652435 1.428511 1.000000
485.112701 -394.652435 1.263110 1.000000
485.112701 -394.652435 1.096094 1.000000
485.112701 -394.652435 0.927078 1.000000
485.112701 -394.652435 0.755654 1.000000
485.078400 -394.659424 3.245534 1.000000
485.078400 -394.659424 3.073947 1.000000
485.078400 -394.659424 2.904768 1.000000
485.078400 -394.659424 2.737593 1.000000
485.078400 -394.659424 2.572034 1.000000
485.078400 -394.659424 2.407718 1.000000
485.078400 -394.659424 2.244281 1.000000
485.078400 -394.659424 2.081369 1.000000
485.078400 -394.659424 1.918631 1.000000
485.078400 -394.659424 1.755719 1.000000
485.078400 -394.659424 1.592282 1.000000
485.078400 -394.659424 1.427966 1.000000
485.078400 -394.659424 1.262407 1.000000
485.078400 -394.659424 1.095232 1.000000
485.078400 -394.659424 0.926054 1.000000
485.078400 -394.659424 0.754466 1.000000
485.044006 -394.666443 3.246784 1.000000
485.044006 -394.666443 3.075025 1.000000
485.044006 -394.666443 2.905676 1.000000
485.044006 -394.666443 2.738334 1.000000
485.044006 -394.666443 2.572609 1.000000
485.044006 -394.666443 2.408127 1.000000
485.044006 -394.666443 2.244526 1.000000
485.044006 -394.666443 2.081451 1.000000
485.044006 -394.666443 1.918550 1.000000
485.044006 -394.666443 1.755474 1.000000
485.044006 -394.666443 1.591873 1.000000
485.044006 -394.666443 1.427391 1.000000
485.044006 -394.666443 1.261666 1.000000
485.044006 -394.666443 1.094323 1.000000
485.044006 -394.666443 0.924975 1.000000
485.044006 -394.666443 0.753216 1.000000
485.009552 -394.673462 3.248098 1.000000
485.009552 -394.673462 3.076158 1.000000
485.009552 -394.673462 2.906631 1.000000
485.009552 -394.673462 2.739112 1.000000
485.009552 -394.673462 2.573212 1.000000
485.009552 -394.673462 2.408557 1.000000
485.009552 -394.673462 2.244784 1.000000
485.009552 -394.673462 2.081536 1.000000
485.009552 -394.673462 1.918464 1.000000
485.009552 -394.673462 1.755216 1.000000
485.009552 -394.673462 1.591443 1.000000
485.009552 -394.673462 1.426788 1.000000
485.009552 -394.673462 1.260888 1.000000
485.009552 -394.673462 1.093369 1.000000
485.009552 -394.673462 0.923842 1.000000
485.009552 -394.673462 0.751902 1.000000
484.975037 -394.680511 3.249476 1.000000
484.975037 -394.680511 3.077346 1.000000
484.975037 -394.680511 2.907632 1.000000
484.975037 -394.680511 2.739928 1.000000
484.975037 -394.680511 2.573845 1.000000
484.975037 -394.680511 2.409008 1.000000
484.975037 -394.680511 2.245054 1.000000
484.975037 -394.680511 2.081626 1.000000
484.975037 -394.680511 1.918374 1.000000
484.975037 -394.680511 1.754946 1.000000
484.975037 -394.680511 1.590992 1.000000
484.975037 -394.680511 1.426155 1.000000
484.975037 -394.680511 1.260072 1.000000
484.975037 -394.680511 1.092368 1.000000
484.975037 -394.680511 0.922654 1.000000
484.975037 -394.680511 0.750524 1.000000
484.940430 -394.687561 3.250918 1.000000
484.940430 -394.687561 3.078589 1.000000
484.940430 -394.687561 2.908679 1.000000
484.940430 -394.687561 2.740782 1.000000
484.940430 -394.687561 2.574507 1.000000
484.940430 -394.687561 2.409480 1.000000
484.940430 -394.687561 2.245337 1.000000
484.940430 -394.687561 2.081721 1.000000
484.940430 -394.687561 1.918280 1.000000
484.940430 -394.687561 1.754663 1.000000
484.940430 -394.687561 1.590520 1.000000
484.940430 -394.687561 1.425493 1.000000
484.940430 -394.687561 1.259218 1.000000
484.940430 -394.687561 1.091321 1.000000
484.940430 -394.687561 0.921411 1.000000
484.940430 -394.687561 0.749082 1.000000
484.905731 -394.694641 3.252425 1.000000
484.905731 -394.694641 3.079888 1.000000
484.905731 -394.694641 2.909774 1.000000
484.905731 -394.694641 2.741674 1.000000
484.905731 -394.694641 2.575199 1.000000
484.905731 -394.694641 2.409974 1.000000
484.905731 -394.694641 2.245632 1.000000
484.905731 -394.694641 2.081819 1.000000
484.905731 -394.694641 1.918181 1.000000
484.905731 -394.694641 1.754368 1.000000
484.905731 -394.694641 1.590026 1.000000
484.905731 -394.694641 1.424801 1.000000
484.905731 -394.694641 1.258326 1.000000
484.905731 -394.694641 1.090226 1.000000
484.905731 -394.694641 0.920112 1.000000
484.905731 -394.694641 0.747575 1.000000
484.870972 -394.701721 3.253996 1.000000
484.870972 -394.701721 3.081243 1.000000
484.870972 -394.701721 2.910915 1.000000
484.870972 -394.701721 2.742604 1.000000
484.870972 -394.701721 2.575921 1.000000
484.870972 -394.701721 2.410488 1.000000
484.870972 -394.701721 2.245940 1.000000
484.870972 -394.701721 2.081922 1.000000
484.870972 -394.701721 1.918078 1.000000
484.870972 -394.701721 1.754059 1.000000
484.870972 -394.701721 1.589512 1.000000
484.870972 -394.701721 1.424079 1.000000
484.870972 -394.701721 1.257396 1.000000
484.870972 -394.701721 1.089085 1.000000
484.870972 -394.701721 0.918757 1.000000
484.870972 -394.701721 0.746004 1.000000
484.836121 -394.708832 3.255632 1.000000
484.836121 -394.708832 3.082654 1.000000
484.836121 -394.708832 2.912104 1.000000
484.836121 -394.708832 2.743574 1.000000
484.836121 -394.708832 2.576672 1.000000
484.836121 -394.708832 2.411023 1.000000
484.836121 -394.708832 2.246261 1.000000
484.836121 -394.708832 2.082028 1.000000
484.836121 -394.708832 1.917971 1.000000
484.836121 -394.708832 1.753739 1.000000
484.836121 -394.708832 1.588977 1.000000
484.836121 -394.708832 1.423328 1.000000
484.836121 -394.708832 1.256426 1.000000
484.836121 -394.708832 1.087896 1.000000
484.836121 -394.708832 0.917346 1.000000
484.836121 -394.708832 0.744368 1.000000
484.801147 -394.715973 3.257334 1.000000
484.801147 -394.715973 3.084121 1.000000
484.801147 -394.715973 2.913340 1.000000
484.801147 -394.715973 2.744581 1.000000
484.801147 -394.715973 2.577454 1.000000
484.801147 -394.715973 2.411580 1.000000
484.801147 -394.715973 2.246595 1.000000
484.801147 -394.715973 2.082140 1.000000
484.801147 -394.715973 1.917860 1.000000
484.801147 -394.715973 1.753405 1.000000
484.801147 -394.715973 1.588419 1.000000
484.801147 -394.715973 1.422546 1.000000
484.801147 -394.715973 1.255419 1.000000
484.801147 -394.715973 1.086660 1.000000
484.801147 -394.715973 0.915879 1.000000
484.801147 -394.715973 0.742666 1.000000
484.766113 -394.723114 3.259102 1.000000
484.766113 -394.723114 3.085646 1.000000
484.766113 -394.723114 2.914624 1.000000
484.766113 -394.723114 2.745628 1.000000
484.766113 -394.723114 2.578266 1.000000
484.766113 -394.723114 2.412159 1.000000
484.766113 -394.723114 2.246942 1.000000
484.766113 -394.723114 2.082255 1.000000
484.766113 -394.723114 1.917745 1.000000
484.766113 -394.723114 1.753058 1.000000
484.766113 -394.723114 1.587841 1.000000
484.766113 -394.723114 1.421734 1.000000
484.766113 -394.723114 1.254372 1.000000
484.766113 -394.723114 1.085376 1.000000
484.766113 -394.723114 0.914354 1.000000
484.766113 -394.723114 0.740898 1.000000
484.730957 -394.730286 3.260937 1.000000
484.730957 -394.730286 3.087228 1.000000
484.730957 -394.730286 2.915957 1.000000
484.730957 -394.730286 2.746715 1.000000
484.730957 -394.730286 2.579108 1.000000
484.730957 -394.730286 2.412760 1.000000
484.730957 -394.730286 2.247302 1.000000
484.730957 -394.730286 2.082375 1.000000
484.730957 -394.730286 1.917625 1.000000
484.730957 -394.730286 1.752698 1.000000
484.730957 -394.730286 1.587240 1.000000
484.730957 -394.730286 1.420892 1.000000
484.730957 -394.730286 1.253285 1.000000
484.730957 -394.730286 1.084043 1.000000
484.730957 -394.730286 0.912773 1.000000
484.730957 -394.730286 0.739063 1.000000
484.695709 -394.737488 3.262839 1.000000
484.695709 -394.737488 3.088867 1.000000
484.695709 -394.737488 2.917338 1.000000
484.695709 -394.737488 2.747841 1.000000
484.695709 -394.737488 2.579982 1.000000
484.695709 -394.737488 2.413383 1.000000
484.695709 -394.737488 2.247675 1.000000
484.695709 -394.737488 2.082499 1.000000
484.695709 -394.737488 1.917501 1.000000
484.695709 -394.737488 1.752325 1.000000
484.695709 -394.737488 1.586618 1.000000
484.695709 -394.737488 1.420018 1.000000
484.695709 -394.737488 1.252159 1.000000
484.695709 -394.737488 1.082661 1.000000
484.695709 -394.737488 0.911133 1.000000
484.695709 -394.737488 0.737161 1.000000
484.660339 -394.744690 3.264808 1.000000
484.660339 -394.744690 3.090565 1.000000
484.660339 -394.744690 2.918769 1.000000
484.660339 -394.744690 2.749007 1.000000
484.660339 -394.744690 2.580886 1.000000
484.660339 -394.744690 2.414027 1.000000
484.660339 -394.744690 2.248061 1.000000
484.660339 -394.744690 2.082628 1.000000
484.660339 -394.744690 1.917372 1.000000
484.660339 -394.744690 1.751939 1.000000
484.660339 -394.744690 1.585973 1.000000
484.660339 -394.744690 1.419114 1.000000
484.660339 -394.744690 1.250993 1.000000
484.660339 -394.744690 1.081231 1.000000
484.660339 -394.744690 0.909435 1.000000
484.660339 -394.744690 0.735192 1.000000
484.624878 -394.751923 3.266845 1.000000
484.624878 -394.751923 3.092321 1.000000
484.624878 -394.751923 2.920249 1.000000
484.624878 -394.751923 2.750214 1.000000
484.624878 -394.751923 2.581822 1.000000
484.624878 -394.751923 2.414694 1.000000
484.624878 -394.751923 2.248461 1.000000
484.624878 -394.751923 2.082761 1.000000
484.624878 -394.751923 1.917239 1.000000
484.624878 -394.751923 1.751539 1.000000
484.624878 -394.751923 1.585306 1.000000
484.624878 -394.751923 1.418178 1.000000
484.624878 -394.751923 1.249786 1.000000
484.624878 -394.751923 1.079751 1.000000
484.624878 -394.751923 0.907678 1.000000
484.624878 -394.751923 0.733155 1.000000
484.589264 -394.759186 3.268950 1.000000
484.589264 -394.759186 3.094137 1.000000
484.589264 -394.759186 2.921778 1.000000
484.589264 -394.759186 2.751460 1.000000
484.589264 -394.759186 2.582789 1.000000
484.589264 -394.759186 2.415383 1.000000
484.589264 -394.759186 2.248873 1.000000
484.589264 -394.759186 2.082899 1.000000
484.589264 -394.759186 1.917101 1.000000
484.589264 -394.759186 1.751127 1.000000
484.589264 -394.759186 1.584617 1.000000
484.589264 -394.759186 1.417211 1.000000
484.589264 -394.759186 1.248540 1.000000
484.589264 -394.759186 1.078222 1.000000
484.589264 -394.759186 0.905863 1.000000
484.589264 -394.759186 0.731050 1.000000
484.553558 -394.766479 3.271125 1.000000
484.553558 -394.766479 3.096012 1.000000
484.553558 -394.766479 2.923357 1.000000
484.553558 -394.766479 2.752748 1.000000
484.553558 -394.766479 2.583787 1.000000
484.553558 -394.766479 2.416095 1.000000
484.553558 -394.766479 2.249300 1.000000
484.553558 -394.766479 2.083041 1.000000
484.553558 -394.766479 1.916959 1.000000
484.553558 -394.766479 1.750700 1.000000
484.553558 -394.766479 1.583905 1.000000
484.553558 -394.766479 1.416212 1.000000
484.553558 -394.766479 1.247252 1.000000
484.553558 -394.766479 1.076642 1.000000
484.553558 -394.766479 0.903988 1.000000
484.553558 -394.766479 0.728875 1.000000
484.517731 -394.773773 3.273369 1.000000
484.517731 -394.773773 3.097948 1.000000
484.517731 -394.773773 2.924988 1.000000
484.517731 -394.773773 2.754077 1.000000
484.517731 -394.773773 2.584818 1.000000
484.517731 -394.773773 2.416830 1.000000
484.517731 -394.773773 2.249740 1.000000
484.517731 -394.773773 2.083187 1.000000
484.517731 -394.773773 1.916813 1.000000
484.517731 -394.773773 1.750260 1.000000
484.517731 -394.773773 1.583170 1.000000
484.517731 -394.773773 1.415182 1.000000
484.517731 -394.773773 1.245923 1.000000
484.517731 -394.773773 1.075012 1.000000
484.517731 -394.773773 0.902053 1.000000
484.517731 -394.773773 0.726631 1.000000
484.481750 -394.781128 3.275684 1.000000
484.481750 -394.781128 3.099943 1.000000
484.481750 -394.781128 2.926669 1.000000
484.481750 -394.781128 2.755448 1.000000
484.481750 -394.781128 2.585881 1.000000
484.481750 -394.781128 2.417587 1.000000
484.481750 -394.781128 2.250194 1.000000
484.481750 -394.781128 2.083338 1.000000
484.481750 -394.781128 1.916662 1.000000
484.481750 -394.781128 1.749806 1.000000
484.481750 -394.781128 1.582413 1.000000
484.481750 -394.781128 1.414119 1.000000
484.481750 -394.781128 1.244552 1.000000
484.481750 -394.781128 1.073331 1.000000
484.481750 -394.781128 0.900057 1.000000
484.481750 -394.781128 0.724316 1.000000
484.445679 -394.788483 3.278069 1.000000
484.445679 -394.788483 3.102000 1.000000
484.445679 -394.788483 2.928402 1.000000
484.445679 -394.788483 2.756860 1.000000
484.445679 -394.788483 2.586977 1.000000
484.445679 -394.788483 2.418368 1.000000
484.445679 -394.788483 2.250662 1.000000
484.445679 -394.788483 2.083494 1.000000
484.445679 -394.788483 1.916506 1.000000
484.445679 -394.788483 1.749338 1.000000
484.445679 -394.788483 1.581632 1.000000
484.445679 -394.788483 1.413023 1.000000
484.445679 -394.788483 1.243140 1.000000
484.445679 -394.788483 1.071598 1.000000
484.445679 -394.788483 0.898000 1.000000
484.445679 -394.788483 0.721931 1.000000
484.409424 -394.795868 3.280526 1.000000
484.409424 -394.795868 3.104118 1.000000
484.409424 -394.795868 2.930187 1.000000
484.409424 -394.795868 2.758316 1.000000
484.409424 -394.795868 2.588105 1.000000
484.409424 -394.795868 2.419172 1.000000
484.409424 -394.795868 2.251144 1.000000
484.409424 -394.795868 2.083655 1.000000
484.409424 -394.795868 1.916345 1.000000
484.409424 -394.795868 1.748856 1.000000
484.409424 -394.795868 1.580828 1.000000
484.409424 -394.795868 1.411895 1.000000
484.409424 -394.795868 1.241685 1.000000
484.409424 -394.795868 1.069813 1.000000
484.409424 -394.795868 0.895882 1.000000
484.409424 -394.795868 0.719474 1.000000
484.373047 -394.803284 3.283055 1.000000
484.373047 -394.803284 3.106298 1.000000
484.373047 -394.803284 2.932024 1.000000
484.373047 -394.803284 2.759813 1.000000
484.373047 -394.803284 2.589267 1.000000
484.373047 -394.803284 2.420000 1.000000
484.373047 -394.803284 2.251640 1.000000
484.373047 -394.803284 2.083820 1.000000
484.373047 -394.803284 1.916180 1.000000
484.373047 -394.803284 1.748360 1.000000
484.373047 -394.803284 1.580000 1.000000
484.373047 -394.803284 1.410733 1.000000
484.373047 -394.803284 1.240187 1.000000
484.373047 -394.803284 1.067976 1.000000
484.373047 -394.803284 0.893701 1.000000
484.373047 -394.803284 0.716945 1.000000
484.336548 -394.810730 3.285657 1.000000
484.336548 -394.810730 3.108542 1.000000
484.336548 -394.810730 2.933914 1.000000
484.336548 -394.810730 2.761354 1.000000
484.336548 -394.810730 2.590462 1.000000
484.336548 -394.810730 2.420852 1.000000
484.336548 -394.810730 2.252150 1.000000
484.336548 -394.810730 2.083990 1.000000
484.336548 -394.810730 1.916010 1.000000
484.336548 -394.810730 1.747850 1.000000
484.336548 -394.810730 1.579148 1.000000
484.336548 -394.810730 1.409538 1.000000
484.336548 -394.810730 1.238646 1.000000
484.336548 -394.810730 1.066086 1.000000
484.336548 -394.810730 0.891458 1.000000
484.336548 -394.810730 0.714343 1.000000
484.299866 -394.818207 3.288332 1.000000
484.299866 -394.818207 3.110848 1.000000
484.299866 -394.818207 2.935857 1.000000
484.299866 -394.818207 2.762938 1.000000
484.299866 -394.818207 2.591690 1.000000
484.299866 -394.818207 2.421727 1.000000
484.299866 -394.818207 2.252675 1.000000
484.299866 -394.818207 2.084165 1.000000
484.299866 -394.818207 1.915835 1.000000
484.299866 -394.818207 1.747325 1.000000
484.299866 -394.818207 1.578272 1.000000
484.299866 -394.818207 1.408310 1.000000
484.299866 -394.818207 1.237062 1.000000
484.299866 -394.818207 1.064143 1.000000
484.299866 -394.818207 0.889152 1.000000
484.299866 -394.818207 0.711668 1.000000
484.263031 -394.825745 3.291081 1.000000
484.263031 -394.825745 3.113219 1.000000
484.263031 -394.825745 2.937854 1.000000
484.263031 -394.825745 2.764566 1.000000
484.263031 -394.825745 2.592953 1.000000
484.263031 -394.825745 2.422627 1.000000
484.263031 -394.825745 2.253214 1.000000
484.263031 -394.825745 2.084344 1.000000
484.263031 -394.825745 1.915656 1.000000
484.263031 -394.825745 1.746786 1.000000
484.263031 -394.825745 1.577372 1.000000
484.263031 -394.825745 1.407047 1.000000
484.263031 -394.825745 1.235434 1.000000
484.263031 -394.825745 1.062146 1.000000
484.263031 -394.825745 0.886781 1.000000
484.263031 -394.825745 0.708918 1.000000
484.226044 -394.833282 3.293906 1.000000
484.226044 -394.833282 3.115654 1.000000
484.226044 -394.833282 2.939906 1.000000
484.226044 -394.833282 2.766239 1.000000
484.226044 -394.833282 2.594250 1.000000
484.226044 -394.833282 2.423552 1.000000
484.226044 -394.833282 2.253768 1.000000
484.226044 -394.833282 2.084529 1.000000
484.226044 -394.833282 1.915471 1.000000
484.226044 -394.833282 1.746232 1.000000
484.226044 -394.833282 1.576448 1.000000
484.226044 -394.833282 1.405750 1.000000
484.226044 -394.833282 1.233761 1.000000
484.226044 -394.833282 1.060094 1.000000
484.226044 -394.833282 0.884346 1.000000
484.226044 -394.833282 0.706094 1.000000
484.188904 -394.840851 3.296806 1.000000
484.188904 -394.840851 3.118155 1.000000
484.188904 -394.840851 2.942012 1.000000
484.188904 -394.840851 2.767956 1.000000
484.188904 -394.840851 2.595582 1.000000
