# This PCD file was generated using the MATLABÂ® pcwrite function
# from Computer Vision ToolboxÂ®.
# .PCD v.7 - Point Cloud Data file format
VERSION .7
FIELDS x y z intensity
SIZE 4 4 4 4
TYPE F F F F
COUNT 1 1 1 1
WIDTH 1165
HEIGHT 1
VIEWPOINT 0 0 0 1 0 0 0
POINTS 1165
DATA ascii
177.255569 -370.277802 3.434105 1.000000
177.255569 -370.277802 3.022159 1.000000
177.255569 -370.277802 2.612418 1.000000
177.255569 -370.277802 2.203994 1.000000
177.255569 -370.277802 1.796006 1.000000
177.255569 -370.277802 1.387581 1.000000
177.255569 -370.277802 0.977841 1.000000
177.255569 -370.277802 0.565895 1.000000
177.255569 -370.277802 0.150834 1.000000
176.403214 -371.480896 0.000008 0.549310
175.402252 -372.893768 0.000007 0.557168
174.664780 -373.934692 0.000007 0.560372
177.305527 -370.357391 5.113626 1.000000
177.305527 -370.357391 4.684687 1.000000
177.305527 -370.357391 4.261769 1.000000
177.305527 -370.357391 3.843861 1.000000
177.305527 -370.357391 3.429990 1.000000
177.305527 -370.357391 3.019226 1.000000
177.305527 -370.357391 2.610661 1.000000
177.305527 -370.357391 2.203408 1.000000
177.305527 -370.357391 1.796592 1.000000
177.305527 -370.357391 1.389339 1.000000
177.305527 -370.357391 0.980774 1.000000
177.305527 -370.357391 0.570010 1.000000
177.305527 -370.357391 0.156140 1.000000
176.465668 -371.525482 0.000008 0.530343
175.454865 -372.931305 0.000007 0.527642
174.710144 -373.967072 0.000007 0.523964
177.355194 -370.436523 5.104869 1.000000
177.355194 -370.436554 4.677135 1.000000
177.355194 -370.436554 4.255407 1.000000
177.355194 -370.436554 3.838674 1.000000
177.355194 -370.436554 3.425968 1.000000
177.355194 -370.436554 3.016359 1.000000
177.355194 -370.436554 2.608943 1.000000
177.355194 -370.436554 2.202836 1.000000
177.355194 -370.436554 1.797164 1.000000
177.355194 -370.436554 1.391057 1.000000
177.355194 -370.436554 0.983641 1.000000
177.355194 -370.436554 0.574033 1.000000
177.355194 -370.436554 0.161327 1.000000
176.527817 -371.570496 0.000007 0.529168
175.507217 -372.969238 0.000007 0.569924
174.755295 -373.999786 0.000007 0.541894
177.404602 -370.515259 5.096310 1.000000
177.404602 -370.515259 4.669756 1.000000
177.404602 -370.515259 4.249190 1.000000
177.404602 -370.515259 3.833605 1.000000
177.404602 -370.515259 3.422037 1.000000
177.404602 -370.515259 3.013557 1.000000
177.404602 -370.515259 2.607265 1.000000
177.404602 -370.515259 2.202277 1.000000
177.404602 -370.515259 1.797723 1.000000
177.404602 -370.515259 1.392735 1.000000
177.404587 -370.515259 0.986442 1.000000
177.404602 -370.515259 0.577963 1.000000
177.404587 -370.515259 0.166395 1.000000
176.589645 -371.615936 0.000007 0.526497
175.559311 -373.007538 0.000007 0.556023
174.800217 -374.032776 0.000006 0.540017
177.453720 -370.593536 5.087950 1.000000
177.453720 -370.593536 4.662546 1.000000
177.453720 -370.593536 4.243116 1.000000
177.453720 -370.593536 3.828654 1.000000
177.453720 -370.593536 3.418197 1.000000
177.453720 -370.593536 3.010820 1.000000
177.453720 -370.593536 2.605625 1.000000
177.453720 -370.593536 2.201731 1.000000
177.453720 -370.593536 1.798269 1.000000
177.453720 -370.593536 1.394375 1.000000
177.453720 -370.593536 0.989179 1.000000
177.453720 -370.593536 0.581803 1.000000
177.453720 -370.593536 0.171347 1.000000
176.651154 -371.661804 0.000008 0.551385
175.611130 -373.046173 0.000007 0.551324
174.844894 -374.066101 0.000006 0.536645
177.502579 -370.671387 5.079782 1.000000
177.502579 -370.671387 4.655504 1.000000
177.502579 -370.671387 4.237184 1.000000
177.502594 -370.671387 3.823818 1.000000
177.502579 -370.671387 3.414447 1.000000
177.502579 -370.671387 3.008147 1.000000
177.502579 -370.671387 2.604023 1.000000
177.502594 -370.671387 2.201197 1.000000
177.502594 -370.671387 1.798803 1.000000
177.502579 -370.671387 1.395977 1.000000
177.502579 -370.671387 0.991853 1.000000
177.502579 -370.671387 0.585554 1.000000
177.502579 -370.671387 0.176183 1.000000
176.712341 -371.708130 0.000007 0.573754
175.662689 -373.085175 0.000007 0.536370
174.889343 -374.099731 0.000006 0.516320
177.551193 -370.748840 5.071808 1.000000
177.551193 -370.748840 4.648629 1.000000
177.551193 -370.748840 4.231391 1.000000
177.551193 -370.748840 3.819096 1.000000
177.551193 -370.748840 3.410784 1.000000
177.551193 -370.748840 3.005537 1.000000
177.551193 -370.748840 2.602459 1.000000
177.551193 -370.748840 2.200677 1.000000
177.551193 -370.748840 1.799324 1.000000
177.551193 -370.748840 1.397541 1.000000
177.551193 -370.748840 0.994463 1.000000
177.551193 -370.748840 0.589216 1.000000
177.551193 -370.748840 0.180905 1.000000
176.773209 -371.754852 0.000008 0.549630
175.713959 -373.124542 0.000007 0.507286
174.933563 -374.133698 0.000006 0.551980
177.599548 -370.825897 5.064024 1.000000
177.599548 -370.825897 4.641917 1.000000
177.599564 -370.825897 4.225738 1.000000
177.599548 -370.825897 3.814486 1.000000
177.599548 -370.825897 3.407209 1.000000
177.599548 -370.825897 3.002989 1.000000
177.599548 -370.825897 2.600933 1.000000
177.599548 -370.825928 2.200168 1.000000
177.599548 -370.825928 1.799832 1.000000
177.599548 -370.825928 1.399067 1.000000
177.599548 -370.825897 0.997011 1.000000
177.599548 -370.825897 0.592791 1.000000
177.599548 -370.825928 0.185514 1.000000
176.833755 -371.802002 0.000007 0.532601
175.764969 -373.164276 0.000006 0.520836
174.977539 -374.167938 0.000006 0.487648
177.647675 -370.902588 5.056427 1.000000
177.647675 -370.902588 4.635367 1.000000
177.647675 -370.902588 4.220219 1.000000
177.647675 -370.902588 3.809988 1.000000
177.647675 -370.902588 3.403720 1.000000
177.647675 -370.902588 3.000503 1.000000
177.647675 -370.902588 2.599443 1.000000
177.647675 -370.902588 2.199672 1.000000
177.647675 -370.902588 1.800328 1.000000
177.647675 -370.902588 1.400557 1.000000
177.647675 -370.902588 0.999498 1.000000
177.647675 -370.902588 0.596280 1.000000
177.647675 -370.902588 0.190013 1.000000
176.893951 -371.849579 0.000007 0.571145
175.815689 -373.204376 0.000007 0.521172
175.021271 -374.202515 0.000006 0.526757
177.695557 -370.978882 5.049018 1.000000
177.695557 -370.978882 4.628979 1.000000
177.695557 -370.978882 4.214836 1.000000
177.695557 -370.978882 3.805599 1.000000
177.695557 -370.978882 3.400317 1.000000
177.695557 -370.978882 2.998077 1.000000
177.695557 -370.978882 2.597989 1.000000
177.695557 -370.978882 2.199188 1.000000
177.695557 -370.978882 1.800813 1.000000
177.695557 -370.978882 1.402010 1.000000
177.695557 -370.978882 1.001923 1.000000
177.695557 -370.978882 0.599683 1.000000
177.695557 -370.978882 0.194401 1.000000
176.953827 -371.897583 0.000007 0.558358
175.866135 -373.244812 0.000007 0.543664
175.064758 -374.237366 0.000006 0.560601
177.743210 -371.054810 5.041791 1.000000
177.743210 -371.054810 4.622747 1.000000
177.743210 -371.054810 4.209586 1.000000
177.743210 -371.054810 3.801320 1.000000
177.743210 -371.054810 3.396998 1.000000
177.743210 -371.054810 2.995711 1.000000
177.743210 -371.054810 2.596572 1.000000
177.743210 -371.054810 2.198715 1.000000
177.743210 -371.054810 1.801285 1.000000
177.743210 -371.054810 1.403428 1.000000
177.743210 -371.054810 1.004289 1.000000
177.743210 -371.054810 0.603002 1.000000
177.743210 -371.054810 0.198680 1.000000
177.013367 -371.945984 0.000007 0.533944
175.916290 -373.285583 0.000006 0.559960
175.108002 -374.272552 0.000006 0.537835
177.790634 -371.130402 5.034745 1.000000
177.790634 -371.130402 4.616672 1.000000
177.790634 -371.130402 4.204469 1.000000
177.790634 -371.130402 3.797148 1.000000
177.790634 -371.130402 3.393763 1.000000
177.790634 -371.130402 2.993405 1.000000
177.790634 -371.130402 2.595191 1.000000
177.790634 -371.130402 2.198255 1.000000
177.790634 -371.130402 1.801745 1.000000
177.790634 -371.130402 1.404809 1.000000
177.790634 -371.130402 1.006595 1.000000
177.790634 -371.130402 0.606237 1.000000
177.790634 -371.130402 0.202853 1.000000
177.072571 -371.994812 0.000007 0.525307
175.966156 -373.326721 0.000006 0.547417
175.151016 -374.308014 0.000006 0.540780
177.837845 -371.205627 5.027881 1.000000
177.837845 -371.205627 4.610753 1.000000
177.837845 -371.205627 4.199483 1.000000
177.837845 -371.205627 3.793082 1.000000
177.837845 -371.205627 3.390610 1.000000
177.837845 -371.205627 2.991158 1.000000
177.837845 -371.205627 2.593844 1.000000
177.837845 -371.205627 2.197807 1.000000
177.837845 -371.205627 1.802193 1.000000
177.837845 -371.205627 1.406156 1.000000
177.837845 -371.205627 1.008842 1.000000
177.837845 -371.205627 0.609390 1.000000
177.837845 -371.205627 0.206918 1.000000
177.131424 -372.044067 0.000007 0.535348
176.015747 -373.368195 0.000006 0.553964
175.193756 -374.343781 0.000006 0.535149
177.884857 -371.280518 5.021194 1.000000
177.884857 -371.280518 4.604987 1.000000
177.884857 -371.280518 4.194625 1.000000
177.884857 -371.280518 3.789122 1.000000
177.884857 -371.280518 3.387539 1.000000
177.884857 -371.280518 2.988969 1.000000
177.884857 -371.280518 2.592533 1.000000
177.884857 -371.280518 2.197370 1.000000
177.884857 -371.280518 1.802630 1.000000
177.884857 -371.280518 1.407467 1.000000
177.884857 -371.280518 1.011031 1.000000
177.884857 -371.280518 0.612461 1.000000
177.884857 -371.280518 0.210878 1.000000
177.189926 -372.093689 0.000007 0.554910
176.065033 -373.410034 0.000006 0.530709
175.236267 -374.379822 0.000006 0.565072
177.931656 -371.355103 5.014683 1.000000
177.931656 -371.355103 4.599374 1.000000
177.931656 -371.355103 4.189895 1.000000
177.931656 -371.355103 3.785267 1.000000
177.931656 -371.355103 3.384548 1.000000
177.931656 -371.355103 2.986837 1.000000
177.931656 -371.355103 2.591256 1.000000
177.931656 -371.355103 2.196945 1.000000
177.931656 -371.355103 1.803056 1.000000
177.931656 -371.355103 1.408744 1.000000
177.931656 -371.355103 1.013162 1.000000
177.931641 -371.355103 0.615452 1.000000
177.931641 -371.355103 0.214734 1.000000
177.248093 -372.143768 0.000007 0.524910
176.114044 -373.452209 0.000006 0.494911
175.278519 -374.416199 0.000006 0.526513
177.978241 -371.429352 5.008346 1.000000
177.978241 -371.429352 4.593909 1.000000
177.978241 -371.429352 4.185292 1.000000
177.978241 -371.429352 3.781514 1.000000
177.978241 -371.429352 3.381638 1.000000
177.978241 -371.429352 2.984763 1.000000
177.978241 -371.429352 2.590013 1.000000
177.978241 -371.429352 2.196531 1.000000
177.978241 -371.429352 1.803469 1.000000
177.978241 -371.429352 1.409987 1.000000
177.978241 -371.429352 1.015237 1.000000
177.978241 -371.429352 0.618362 1.000000
177.978241 -371.429352 0.218487 1.000000
177.305908 -372.194214 0.000007 0.521172
176.162735 -373.494720 0.000006 0.559869
175.320511 -374.452850 0.000006 0.550195
178.024658 -371.503296 5.002182 1.000000
178.024658 -371.503296 4.588595 1.000000
178.024658 -371.503296 4.180814 1.000000
178.024658 -371.503296 3.777863 1.000000
178.024658 -371.503296 3.378807 1.000000
178.024658 -371.503296 2.982745 1.000000
178.024658 -371.503296 2.588804 1.000000
178.024658 -371.503296 2.196128 1.000000
178.024658 -371.503296 1.803872 1.000000
178.024658 -371.503296 1.411196 1.000000
178.024658 -371.503296 1.017254 1.000000
178.024658 -371.503296 0.621193 1.000000
178.024658 -371.503296 0.222137 1.000000
177.363358 -372.245087 0.000007 0.563241
176.211151 -373.537567 0.000006 0.531975
175.362244 -374.489807 0.000005 0.563485
178.070877 -371.576935 4.996189 1.000000
178.070877 -371.576935 4.583427 1.000000
178.070877 -371.576935 4.176461 1.000000
178.070877 -371.576935 3.774314 1.000000
178.070877 -371.576935 3.376055 1.000000
178.070877 -371.576935 2.980783 1.000000
178.070877 -371.576935 2.587629 1.000000
178.070877 -371.576935 2.195736 1.000000
178.070877 -371.576935 1.804264 1.000000
178.070877 -371.576935 1.412371 1.000000
178.070862 -371.576935 1.019216 1.000000
178.070862 -371.576935 0.623946 1.000000
178.070862 -371.576935 0.225686 1.000000
177.420456 -372.296356 0.000007 0.549050
176.259247 -373.580750 0.000006 0.517601
175.403732 -374.527039 0.000006 0.534615
178.116913 -371.650299 4.990366 1.000000
178.116913 -371.650299 4.578405 1.000000
178.116913 -371.650299 4.172231 1.000000
178.116913 -371.650299 3.770866 1.000000
178.116913 -371.650299 3.373380 1.000000
178.116913 -371.650299 2.978877 1.000000
178.116913 -371.650299 2.586486 1.000000
178.116913 -371.650299 2.195356 1.000000
178.116913 -371.650299 1.804644 1.000000
178.116913 -371.650299 1.413514 1.000000
178.116913 -371.650299 1.021123 1.000000
178.116913 -371.650299 0.626620 1.000000
178.116913 -371.650299 0.229135 1.000000
177.477203 -372.347992 0.000007 0.507408
176.307053 -373.624268 0.000006 0.531899
175.444946 -374.564575 0.000006 0.570809
178.162766 -371.723358 4.984709 1.000000
178.162766 -371.723358 4.573528 1.000000
178.162766 -371.723358 4.168121 1.000000
178.162766 -371.723358 3.767517 1.000000
178.162766 -371.723358 3.370782 1.000000
178.162766 -371.723358 2.977025 1.000000
178.162766 -371.723358 2.585377 1.000000
178.162766 -371.723358 2.194986 1.000000
178.162766 -371.723358 1.805014 1.000000
178.162766 -371.723358 1.414623 1.000000
178.162766 -371.723358 1.022974 1.000000
178.162766 -371.723358 0.629218 1.000000
178.162766 -371.723358 0.232484 1.000000
177.533585 -372.400055 0.000007 0.530114
176.354553 -373.668121 0.000006 0.505272
175.485901 -374.602386 0.000005 0.554360
178.208450 -371.796173 4.979219 1.000000
178.208450 -371.796173 4.568795 1.000000
178.208450 -371.796173 4.164133 1.000000
178.208450 -371.796173 3.764265 1.000000
178.208450 -371.796173 3.368261 1.000000
178.208450 -371.796173 2.975229 1.000000
178.208450 -371.796173 2.584300 1.000000
178.208450 -371.796173 2.194628 1.000000
178.208450 -371.796173 1.805372 1.000000
178.208450 -371.796173 1.415699 1.000000
178.208450 -371.796173 1.024772 1.000000
178.208450 -371.796173 0.631739 1.000000
178.208450 -371.796173 0.235735 1.000000
177.589600 -372.452515 0.000007 0.550179
176.401749 -373.712311 0.000006 0.501411
175.526581 -374.640472 0.000005 0.562875
178.253983 -371.868713 4.973894 1.000000
178.253983 -371.868713 4.564204 1.000000
178.253983 -371.868713 4.160266 1.000000
178.253983 -371.868713 3.761112 1.000000
178.253983 -371.868713 3.365816 1.000000
178.253983 -371.868713 2.973485 1.000000
178.253983 -371.868713 2.583256 1.000000
178.253983 -371.868713 2.194280 1.000000
178.253983 -371.868713 1.805720 1.000000
178.253967 -371.868713 1.416744 1.000000
178.253967 -371.868713 1.026515 1.000000
178.253967 -371.868713 0.634185 1.000000
178.253967 -371.868713 0.238889 1.000000
177.645248 -372.505341 0.000007 0.525307
176.448624 -373.756836 0.000006 0.532265
175.567017 -374.678864 0.000005 0.537743
178.299332 -371.940979 4.968732 1.000000
178.299347 -371.940979 4.559753 1.000000
178.299332 -371.940979 4.156516 1.000000
178.299347 -371.940979 3.758055 1.000000
178.299332 -371.940979 3.363444 1.000000
178.299332 -371.940979 2.971796 1.000000
178.299332 -371.940979 2.582244 1.000000
178.299332 -371.940979 2.193943 1.000000
178.299332 -371.940979 1.806057 1.000000
178.299332 -371.940979 1.417756 1.000000
178.299332 -371.940979 1.028204 1.000000
178.299332 -371.940979 0.636556 1.000000
178.299332 -371.940979 0.241946 1.000000
177.700531 -372.558563 0.000007 0.553491
176.495193 -373.801666 0.000005 0.516426
175.607162 -374.717529 0.000005 0.544427
178.344543 -372.013031 4.963733 1.000000
178.344543 -372.013031 4.555442 1.000000
178.344543 -372.013031 4.152884 1.000000
178.344543 -372.013031 3.755095 1.000000
178.344543 -372.013031 3.361149 1.000000
178.344543 -372.013031 2.970159 1.000000
178.344543 -372.013031 2.581263 1.000000
178.344543 -372.013031 2.193616 1.000000
178.344543 -372.013031 1.806384 1.000000
178.344543 -372.013031 1.418737 1.000000
178.344543 -372.013031 1.029841 1.000000
178.344543 -372.013031 0.638851 1.000000
178.344543 -372.013031 0.244906 1.000000
177.755432 -372.612183 0.000006 0.512444
176.541458 -373.846832 0.000006 0.562081
175.647049 -374.756470 0.000005 0.560540
178.389603 -372.084839 4.958894 1.000000
178.389603 -372.084839 4.551270 1.000000
178.389603 -372.084839 4.149369 1.000000
178.389603 -372.084839 3.752228 1.000000
178.389603 -372.084808 3.358927 1.000000
178.389603 -372.084839 2.968575 1.000000
178.389603 -372.084839 2.580314 1.000000
178.389603 -372.084839 2.193300 1.000000
178.389603 -372.084839 1.806700 1.000000
178.389603 -372.084839 1.419686 1.000000
178.389603 -372.084839 1.031425 1.000000
178.389603 -372.084839 0.641074 1.000000
178.389603 -372.084839 0.247772 1.000000
177.809952 -372.666168 0.000006 0.520668
176.587387 -373.892303 0.000006 0.551537
175.686661 -374.795685 0.000005 0.515404
178.434509 -372.156403 4.954215 1.000000
178.434525 -372.156403 4.547235 1.000000
178.434509 -372.156403 4.145970 1.000000
178.434525 -372.156403 3.749458 1.000000
178.434509 -372.156403 3.356778 1.000000
178.434509 -372.156403 2.967043 1.000000
178.434509 -372.156403 2.579396 1.000000
178.434509 -372.156403 2.192994 1.000000
178.434509 -372.156403 1.807006 1.000000
178.434509 -372.156403 1.420604 1.000000
178.434509 -372.156403 1.032956 1.000000
178.434509 -372.156403 0.643223 1.000000
178.434509 -372.156403 0.250542 1.000000
177.864105 -372.720551 0.000006 0.547402
176.633011 -373.938110 0.000006 0.551476
175.725998 -374.835175 0.000005 0.534997
178.479294 -372.227722 4.949694 1.000000
178.479294 -372.227722 4.543338 1.000000
178.479294 -372.227722 4.142687 1.000000
178.479294 -372.227722 3.746780 1.000000
178.479294 -372.227722 3.354702 1.000000
178.479294 -372.227722 2.965564 1.000000
178.479294 -372.227722 2.578510 1.000000
178.479294 -372.227722 2.192699 1.000000
178.479294 -372.227722 1.807301 1.000000
178.479294 -372.227722 1.421490 1.000000
178.479294 -372.227722 1.034436 1.000000
178.479294 -372.227722 0.645299 1.000000
178.479294 -372.227753 0.253220 1.000000
177.917877 -372.775299 0.000007 0.532540
176.678314 -373.984253 0.000005 0.534859
175.765045 -374.874939 0.000005 0.499672
178.523926 -372.298859 4.945330 1.000000
178.523926 -372.298859 4.539575 1.000000
178.523926 -372.298859 4.139517 1.000000
178.523926 -372.298859 3.744197 1.000000
178.523926 -372.298859 3.352697 1.000000
178.523926 -372.298859 2.964135 1.000000
178.523926 -372.298859 2.577654 1.000000
178.523926 -372.298859 2.192414 1.000000
178.523926 -372.298859 1.807586 1.000000
178.523926 -372.298859 1.422346 1.000000
178.523926 -372.298859 1.035865 1.000000
178.523926 -372.298859 0.647303 1.000000
178.523926 -372.298859 0.255803 1.000000
177.971268 -372.830414 0.000006 0.519097
176.723282 -374.030670 0.000005 0.537423
175.803833 -374.914978 0.000005 0.541299
178.568436 -372.369781 4.941122 1.000000
178.568436 -372.369781 4.535947 1.000000
178.568436 -372.369781 4.136460 1.000000
178.568436 -372.369781 3.741705 1.000000
178.568436 -372.369781 3.350765 1.000000
178.568436 -372.369781 2.962758 1.000000
178.568436 -372.369781 2.576829 1.000000
178.568436 -372.369781 2.192139 1.000000
178.568436 -372.369781 1.807861 1.000000
178.568436 -372.369781 1.423171 1.000000
178.568436 -372.369781 1.037242 1.000000
178.568436 -372.369781 0.649236 1.000000
178.568436 -372.369781 0.258296 1.000000
178.024261 -372.885895 0.000006 0.522148
176.767944 -374.077423 0.000005 0.569421
175.842331 -374.955292 0.000005 0.532113
178.612823 -372.440521 4.937070 1.000000
178.612823 -372.440521 4.532454 1.000000
178.612823 -372.440521 4.133516 1.000000
178.612823 -372.440521 3.739305 1.000000
178.612823 -372.440521 3.348903 1.000000
178.612823 -372.440521 2.961431 1.000000
178.612823 -372.440521 2.576034 1.000000
178.612823 -372.440521 2.191874 1.000000
178.612823 -372.440521 1.808126 1.000000
178.612823 -372.440521 1.423966 1.000000
178.612823 -372.440521 1.038569 1.000000
178.612823 -372.440521 0.651097 1.000000
178.612823 -372.440521 0.260696 1.000000
178.076874 -372.941772 0.000006 0.508766
176.812256 -374.124481 0.000006 0.549813
175.880554 -374.995880 0.000005 0.547463
178.657089 -372.511047 4.933171 1.000000
178.657089 -372.511047 4.529091 1.000000
178.657089 -372.511047 4.130684 1.000000
178.657089 -372.511047 3.736996 1.000000
178.657089 -372.511047 3.347113 1.000000
178.657089 -372.511047 2.960155 1.000000
178.657089 -372.511047 2.575269 1.000000
178.657089 -372.511047 2.191620 1.000000
178.657089 -372.511047 1.808380 1.000000
178.657089 -372.511047 1.424731 1.000000
178.657089 -372.511047 1.039845 1.000000
178.657089 -372.511047 0.652887 1.000000
178.657089 -372.511047 0.263004 1.000000
178.129089 -372.997986 0.000006 0.550042
176.856262 -374.171844 0.000005 0.544610
175.918488 -375.036713 0.000005 0.554467
178.701233 -372.581390 4.929425 1.000000
178.701233 -372.581390 4.525861 1.000000
178.701233 -372.581390 4.127963 1.000000
178.701233 -372.581390 3.734778 1.000000
178.701233 -372.581390 3.345392 1.000000
178.701233 -372.581390 2.958929 1.000000
178.701233 -372.581390 2.574534 1.000000
178.701233 -372.581390 2.191375 1.000000
178.701233 -372.581390 1.808625 1.000000
178.701233 -372.581390 1.425465 1.000000
178.701233 -372.581390 1.041071 1.000000
178.701233 -372.581390 0.654608 1.000000
178.701233 -372.581390 0.265222 1.000000
178.180923 -373.054565 0.000006 0.561135
176.899918 -374.219543 0.000005 0.529000
175.956131 -375.077820 0.000005 0.539345
178.745270 -372.651581 4.925831 1.000000
178.745270 -372.651581 4.522762 1.000000
178.745270 -372.651581 4.125353 1.000000
178.745270 -372.651581 3.732649 1.000000
178.745270 -372.651581 3.343741 1.000000
178.745270 -372.651581 2.957752 1.000000
178.745270 -372.651581 2.573830 1.000000
178.745270 -372.651581 2.191140 1.000000
178.745270 -372.651581 1.808860 1.000000
178.745270 -372.651581 1.426170 1.000000
178.745270 -372.651581 1.042248 1.000000
178.745270 -372.651581 0.656259 1.000000
178.745270 -372.651581 0.267351 1.000000
178.232346 -373.111511 0.000006 0.512642
176.943237 -374.267517 0.000005 0.507881
nan nan nan 0.000000
178.789200 -372.721588 4.922389 1.000000
178.789200 -372.721588 4.519794 1.000000
178.789200 -372.721588 4.122851 1.000000
178.789200 -372.721588 3.730610 1.000000
178.789200 -372.721588 3.342161 1.000000
178.789200 -372.721588 2.956625 1.000000
178.789200 -372.721588 2.573154 1.000000
178.789200 -372.721588 2.190915 1.000000
178.789200 -372.721588 1.809085 1.000000
178.789200 -372.721588 1.426845 1.000000
178.789200 -372.721588 1.043375 1.000000
178.789200 -372.721588 0.657840 1.000000
178.789200 -372.721588 0.269390 1.000000
178.283371 -373.168823 0.000006 0.529076
176.986237 -374.315796 0.000005 0.520150
nan nan nan 0.000000
178.833038 -372.791412 4.919095 1.000000
178.833038 -372.791412 4.516954 1.000000
178.833038 -372.791412 4.120460 1.000000
178.833038 -372.791412 3.728661 1.000000
178.833038 -372.791412 3.340648 1.000000
178.833038 -372.791412 2.955547 1.000000
178.833038 -372.791412 2.572508 1.000000
178.833038 -372.791412 2.190700 1.000000
178.833038 -372.791412 1.809300 1.000000
178.833038 -372.791412 1.427491 1.000000
178.833038 -372.791412 1.044452 1.000000
178.833038 -372.791412 0.659352 1.000000
178.833038 -372.791412 0.271340 1.000000
178.334015 -373.226501 0.000006 0.525322
177.028885 -374.364380 0.000005 0.519554
nan nan nan 0.000000
178.876770 -372.861115 4.915953 1.000000
178.876770 -372.861115 4.514245 1.000000
178.876770 -372.861115 4.118176 1.000000
178.876770 -372.861115 3.726799 1.000000
178.876770 -372.861115 3.339204 1.000000
178.876770 -372.861115 2.954519 1.000000
178.876770 -372.861115 2.571892 1.000000
178.876770 -372.861115 2.190494 1.000000
178.876770 -372.861115 1.809505 1.000000
178.876770 -372.861115 1.428108 1.000000
178.876770 -372.861115 1.045481 1.000000
178.876770 -372.861115 0.660796 1.000000
178.876770 -372.861115 0.273201 1.000000
178.384232 -373.284515 0.000006 0.546212
177.071198 -374.413239 0.000005 0.533242
176.103821 -375.244843 0.000005 0.553841
178.920410 -372.930664 4.912958 1.000000
178.920410 -372.930664 4.511662 1.000000
178.920410 -372.930664 4.116001 1.000000
178.920410 -372.930664 3.725026 1.000000
178.920410 -372.930664 3.337830 1.000000
178.920410 -372.930664 2.953538 1.000000
178.920410 -372.930664 2.571305 1.000000
178.920410 -372.930664 2.190299 1.000000
178.920410 -372.930664 1.809701 1.000000
178.920410 -372.930664 1.428695 1.000000
178.920410 -372.930664 1.046461 1.000000
178.920410 -372.930664 0.662171 1.000000
178.920410 -372.930664 0.274974 1.000000
178.434052 -373.342865 0.000006 0.552819
177.113174 -374.462433 0.000005 0.527611
176.140015 -375.287262 0.000005 0.523354
178.963974 -373.000061 4.910111 1.000000
178.963974 -373.000061 4.509208 1.000000
178.963974 -373.000061 4.113933 1.000000
178.963974 -373.000061 3.723340 1.000000
178.963974 -373.000061 3.336522 1.000000
178.963974 -373.000061 2.952606 1.000000
178.963974 -373.000061 2.570746 1.000000
178.963974 -373.000061 2.190113 1.000000
178.963974 -373.000061 1.809887 1.000000
178.963974 -373.000061 1.429253 1.000000
178.963974 -373.000061 1.047393 1.000000
178.963974 -373.000061 0.663478 1.000000
178.963974 -373.000061 0.276660 1.000000
178.483459 -373.401581 0.000006 0.561868
177.154800 -374.511871 0.000005 0.531029
176.175903 -375.329895 0.000005 0.532479
179.007446 -373.069336 4.907412 1.000000
179.007446 -373.069336 4.506881 1.000000
179.007446 -373.069336 4.111972 1.000000
179.007446 -373.069336 3.721741 1.000000
179.007446 -373.069336 3.335282 1.000000
179.007446 -373.069336 2.951722 1.000000
179.007446 -373.069336 2.570217 1.000000
179.007446 -373.069336 2.189936 1.000000
179.007446 -373.069336 1.810063 1.000000
179.007446 -373.069336 1.429783 1.000000
179.007446 -373.069336 1.048277 1.000000
179.007446 -373.069336 0.664719 1.000000
179.007446 -373.069336 0.278259 1.000000
178.532471 -373.460632 0.000006 0.536446
177.196091 -374.561646 0.000005 0.535317
176.211502 -375.372803 0.000004 0.525917
179.050842 -373.138489 4.904858 1.000000
179.050842 -373.138489 4.504678 1.000000
179.050842 -373.138489 4.110117 1.000000
179.050842 -373.138489 3.720229 1.000000
179.050842 -373.138489 3.334109 1.000000
179.050842 -373.138489 2.950887 1.000000
179.050842 -373.138489 2.569716 1.000000
179.050842 -373.138489 2.189770 1.000000
179.050842 -373.138489 1.810230 1.000000
179.050842 -373.138489 1.430284 1.000000
179.050842 -373.138489 1.049113 1.000000
179.050842 -373.138489 0.665891 1.000000
179.050842 -373.138489 0.279771 1.000000
178.581055 -373.520050 0.000006 0.558831
177.237015 -374.611664 0.000005 0.509224
176.246796 -375.415955 0.000004 0.550851
179.094162 -373.207520 4.902451 1.000000
179.094162 -373.207520 4.502602 1.000000
179.094162 -373.207520 4.108368 1.000000
179.094162 -373.207489 3.718803 1.000000
179.094162 -373.207520 3.333004 1.000000
179.094162 -373.207520 2.950099 1.000000
179.094162 -373.207520 2.569244 1.000000
179.094162 -373.207520 2.189613 1.000000
179.094162 -373.207520 1.810387 1.000000
179.094162 -373.207520 1.430756 1.000000
179.094162 -373.207520 1.049901 1.000000
179.094162 -373.207520 0.666997 1.000000
179.094162 -373.207520 0.281197 1.000000
178.629227 -373.579773 0.000006 0.565118
177.277603 -374.661987 0.000005 0.538552
176.281784 -375.459320 0.000004 0.524498
179.137405 -373.276428 4.900188 1.000000
179.137405 -373.276428 4.500651 1.000000
179.137405 -373.276428 4.106725 1.000000
179.137405 -373.276428 3.717464 1.000000
179.137405 -373.276428 3.331964 1.000000
179.137405 -373.276428 2.949358 1.000000
179.137405 -373.276428 2.568800 1.000000
179.137405 -373.276428 2.189465 1.000000
179.137405 -373.276428 1.810535 1.000000
179.137405 -373.276428 1.431199 1.000000
179.137405 -373.276428 1.050642 1.000000
179.137405 -373.276428 0.668036 1.000000
179.137405 -373.276428 0.282536 1.000000
178.676971 -373.639832 0.000006 0.550927
177.317825 -374.712616 0.000005 0.536904
176.316467 -375.502960 0.000004 0.506920
179.180588 -373.345245 4.898071 1.000000
179.180588 -373.345245 4.498826 1.000000
179.180588 -373.345245 4.105187 1.000000
179.180588 -373.345245 3.716210 1.000000
179.180588 -373.345245 3.330992 1.000000
179.180588 -373.345245 2.948665 1.000000
179.180588 -373.345245 2.568385 1.000000
179.180588 -373.345245 2.189326 1.000000
179.180588 -373.345245 1.810673 1.000000
179.180588 -373.345245 1.431615 1.000000
179.180588 -373.345245 1.051335 1.000000
179.180588 -373.345245 0.669008 1.000000
179.180588 -373.345245 0.283791 1.000000
178.724304 -373.700226 0.000006 0.558724
177.357697 -374.763489 0.000005 0.516838
176.350845 -375.546844 0.000004 0.527520
179.223724 -373.413940 4.896097 1.000000
179.223724 -373.413940 4.497124 1.000000
179.223724 -373.413940 4.103753 1.000000
179.223724 -373.413940 3.715041 1.000000
179.223724 -373.413940 3.330086 1.000000
179.223724 -373.413940 2.948019 1.000000
179.223724 -373.413940 2.567998 1.000000
179.223724 -373.413940 2.189197 1.000000
179.223724 -373.413940 1.810803 1.000000
179.223724 -373.413940 1.432002 1.000000
179.223709 -373.413940 1.051981 1.000000
179.223724 -373.413940 0.669914 1.000000
179.223709 -373.413940 0.284959 1.000000
178.771210 -373.760956 0.000005 0.532387
177.397217 -374.814636 0.000005 0.522591
176.384933 -375.590942 0.000004 0.538720
179.266785 -373.482574 4.894267 1.000000
179.266785 -373.482574 4.495547 1.000000
179.266785 -373.482574 4.102424 1.000000
179.266785 -373.482574 3.713957 1.000000
179.266785 -373.482574 3.329246 1.000000
179.266785 -373.482574 2.947420 1.000000
179.266785 -373.482574 2.567639 1.000000
179.266785 -373.482574 2.189078 1.000000
179.266785 -373.482574 1.810922 1.000000
179.266785 -373.482574 1.432361 1.000000
179.266785 -373.482574 1.052580 1.000000
179.266785 -373.482574 0.670755 1.000000
179.266785 -373.482574 0.286043 1.000000
178.817703 -373.822021 0.000005 0.524895
177.436386 -374.866089 0.000005 0.557260
176.418701 -375.635315 0.000004 0.526314
179.309799 -373.551117 4.892581 1.000000
179.309799 -373.551117 4.494093 1.000000
179.309799 -373.551117 4.101199 1.000000
179.309799 -373.551117 3.712959 1.000000
179.309799 -373.551117 3.328471 1.000000
179.309799 -373.551117 2.946868 1.000000
179.309799 -373.551117 2.567308 1.000000
179.309799 -373.551117 2.188968 1.000000
179.309799 -373.551117 1.811032 1.000000
179.309799 -373.551117 1.432692 1.000000
179.309799 -373.551117 1.053132 1.000000
179.309799 -373.551117 0.671529 1.000000
179.309799 -373.551117 0.287041 1.000000
178.863754 -373.883392 0.000005 0.547921
177.475189 -374.917786 0.000005 0.549493
176.452148 -375.679901 0.000004 0.547494
179.352768 -373.619598 4.891037 1.000000
179.352768 -373.619598 4.492762 1.000000
179.352768 -373.619598 4.100077 1.000000
179.352768 -373.619598 3.712044 1.000000
179.352768 -373.619598 3.327762 1.000000
179.352768 -373.619598 2.946362 1.000000
179.352768 -373.619598 2.567006 1.000000
179.352768 -373.619598 2.188867 1.000000
179.352768 -373.619598 1.811133 1.000000
179.352768 -373.619598 1.432994 1.000000
179.352768 -373.619598 1.053638 1.000000
179.352768 -373.619598 0.672238 1.000000
179.352768 -373.619598 0.287956 1.000000
178.909378 -373.945099 0.000005 0.545754
177.513626 -374.969757 0.000005 0.576974
176.485291 -375.724701 0.000003 0.562524
179.395691 -373.687988 4.889636 1.000000
179.395691 -373.687988 4.491553 1.000000
179.395691 -373.687988 4.099059 1.000000
179.395691 -373.687988 3.711215 1.000000
179.395691 -373.687988 3.327118 1.000000
179.395691 -373.687988 2.945903 1.000000
179.395691 -373.687988 2.566730 1.000000
179.395691 -373.687988 2.188775 1.000000
179.395691 -373.687988 1.811225 1.000000
179.395691 -373.687988 1.433269 1.000000
179.395691 -373.687988 1.054096 1.000000
179.395691 -373.687988 0.672882 1.000000
179.395691 -373.687988 0.288786 1.000000
178.954575 -374.007111 0.000005 0.547982
177.551697 -375.022003 0.000004 0.558358
176.518127 -375.769745 0.000003 0.566262
179.438583 -373.756317 4.888376 1.000000
179.438568 -373.756317 4.490468 1.000000
179.438583 -373.756317 4.098145 1.000000
179.438568 -373.756317 3.710469 1.000000
179.438568 -373.756317 3.326540 1.000000
179.438568 -373.756317 2.945491 1.000000
179.438568 -373.756317 2.566483 1.000000
179.438568 -373.756317 2.188693 1.000000
179.438568 -373.756317 1.811307 1.000000
179.438568 -373.756317 1.433516 1.000000
179.438568 -373.756317 1.054508 1.000000
179.438568 -373.756317 0.673460 1.000000
179.438568 -373.756317 0.289531 1.000000
178.999344 -374.069427 0.000005 0.541802
177.589417 -375.074524 0.000004 0.542809
176.550644 -375.815033 0.000003 0.507805
179.481430 -373.824585 4.887260 1.000000
179.481430 -373.824585 4.489504 1.000000
179.481430 -373.824585 4.097333 1.000000
179.481430 -373.824585 3.709807 1.000000
179.481430 -373.824585 3.326026 1.000000
179.481430 -373.824585 2.945126 1.000000
179.481430 -373.824615 2.566265 1.000000
179.481430 -373.824585 2.188620 1.000000
179.481430 -373.824585 1.811380 1.000000
179.481430 -373.824615 1.433735 1.000000
179.481430 -373.824615 1.054874 1.000000
179.481430 -373.824615 0.673974 1.000000
179.481430 -373.824615 0.290193 1.000000
179.043671 -374.132080 0.000005 0.522148
177.626755 -375.127289 0.000004 0.542916
176.582840 -375.860535 0.000003 0.541939
179.524246 -373.892822 4.886282 1.000000
179.524246 -373.892822 4.488662 1.000000
179.524246 -373.892822 4.096623 1.000000
179.524246 -373.892822 3.709229 1.000000
179.524246 -373.892822 3.325578 1.000000
179.524246 -373.892822 2.944806 1.000000
179.524246 -373.892822 2.566073 1.000000
179.524246 -373.892822 2.188556 1.000000
179.524246 -373.892822 1.811444 1.000000
179.524246 -373.892822 1.433927 1.000000
179.524246 -373.892822 1.055193 1.000000
179.524246 -373.892822 0.674422 1.000000
179.524246 -373.892822 0.290771 1.000000
179.087555 -374.195038 0.000005 0.511391
177.663727 -375.180328 0.000005 0.511803
176.614716 -375.906250 0.000003 0.527947
179.567032 -373.961029 4.885448 1.000000
179.567032 -373.961029 4.487942 1.000000
179.567032 -373.961029 4.096017 1.000000
179.567032 -373.961029 3.708735 1.000000
179.567032 -373.961029 3.325195 1.000000
179.567032 -373.961029 2.944533 1.000000
179.567032 -373.961029 2.565909 1.000000
179.567032 -373.961029 2.188502 1.000000
179.567032 -373.961029 1.811498 1.000000
179.567032 -373.961029 1.434091 1.000000
179.567032 -373.961029 1.055467 1.000000
179.567032 -373.961029 0.674806 1.000000
179.567032 -373.961029 0.291266 1.000000
179.130997 -374.258270 0.000005 0.544274
177.700333 -375.233612 0.000005 0.522530
176.646271 -375.952209 0.000003 0.553704
179.609802 -374.029175 4.884755 1.000000
179.609802 -374.029175 4.487344 1.000000
179.609802 -374.029175 4.095513 1.000000
179.609802 -374.029175 3.708324 1.000000
179.609802 -374.029175 3.324876 1.000000
179.609802 -374.029175 2.944306 1.000000
179.609802 -374.029175 2.565773 1.000000
179.609802 -374.029175 2.188456 1.000000
179.609802 -374.029175 1.811543 1.000000
179.609802 -374.029175 1.434227 1.000000
179.609802 -374.029175 1.055694 1.000000
179.609802 -374.029175 0.675124 1.000000
179.609802 -374.029175 0.291676 1.000000
179.173996 -374.321838 0.000005 0.507805
177.736557 -375.287170 0.000004 0.521050
176.677521 -375.998383 0.000004 0.543328
179.652557 -374.097290 4.884201 1.000000
179.652557 -374.097290 4.486867 1.000000
179.652557 -374.097290 4.095112 1.000000
179.652557 -374.097290 3.707996 1.000000
179.652557 -374.097290 3.324622 1.000000
179.652557 -374.097290 2.944125 1.000000
179.652557 -374.097290 2.565665 1.000000
179.652557 -374.097290 2.188421 1.000000
179.652557 -374.097290 1.811580 1.000000
179.652557 -374.097290 1.434335 1.000000
179.652557 -374.097290 1.055875 1.000000
179.652557 -374.097290 0.675378 1.000000
179.652557 -374.097290 0.292004 1.000000
179.216553 -374.385681 0.000005 0.531029
177.772415 -375.340942 0.000004 0.533745
176.708435 -376.044769 0.000003 0.537179
179.695282 -374.165375 4.883789 1.000000
179.695282 -374.165375 4.486512 1.000000
179.695282 -374.165375 4.094812 1.000000
179.695282 -374.165375 3.707752 1.000000
179.695282 -374.165375 3.324433 1.000000
179.695282 -374.165375 2.943990 1.000000
179.695282 -374.165375 2.565584 1.000000
179.695282 -374.165375 2.188393 1.000000
179.695282 -374.165375 1.811607 1.000000
179.695282 -374.165375 1.434416 1.000000
179.695282 -374.165375 1.056010 1.000000
179.695282 -374.165375 0.675567 1.000000
179.695282 -374.165375 0.292249 1.000000
179.258667 -374.449829 0.000005 0.532845
177.807892 -375.394989 0.000004 0.564523
176.739014 -376.091339 0.000003 0.519753
179.738007 -374.233459 4.883517 1.000000
179.738007 -374.233459 4.486278 1.000000
179.738007 -374.233459 4.094615 1.000000
179.738007 -374.233459 3.707592 1.000000
179.738007 -374.233459 3.324308 1.000000
179.738007 -374.233459 2.943901 1.000000
179.738007 -374.233459 2.565531 1.000000
179.738007 -374.233459 2.188376 1.000000
179.738007 -374.233459 1.811624 1.000000
179.738007 -374.233459 1.434469 1.000000
179.738007 -374.233459 1.056099 1.000000
179.738007 -374.233459 0.675692 1.000000
179.738007 -374.233459 0.292409 1.000000
179.300339 -374.514282 0.000005 0.550652
177.842987 -375.449280 0.000004 0.562387
176.769287 -376.138153 0.000003 0.536126
179.780731 -374.301544 4.883387 1.000000
179.780731 -374.301544 4.486164 1.000000
179.780731 -374.301544 4.094521 1.000000
179.780731 -374.301544 3.707514 1.000000
179.780731 -374.301544 3.324248 1.000000
179.780731 -374.301544 2.943858 1.000000
179.780731 -374.301544 2.565505 1.000000
179.780731 -374.301544 2.188367 1.000000
179.780731 -374.301544 1.811633 1.000000
179.780731 -374.301544 1.434495 1.000000
179.780731 -374.301544 1.056142 1.000000
179.780731 -374.301544 0.675752 1.000000
179.780731 -374.301544 0.292486 1.000000
179.341553 -374.579010 0.000005 0.526726
177.877716 -375.503815 0.000004 0.548409
176.799225 -376.185181 0.000003 0.563348
179.823456 -374.369598 4.883396 1.000000
179.823456 -374.369598 4.486173 1.000000
179.823456 -374.369598 4.094527 1.000000
179.823456 -374.369598 3.707520 1.000000
179.823456 -374.369598 3.324252 1.000000
179.823456 -374.369598 2.943861 1.000000
179.823456 -374.369598 2.565507 1.000000
179.823456 -374.369598 2.188368 1.000000
179.823456 -374.369598 1.811632 1.000000
179.823456 -374.369598 1.434493 1.000000
179.823441 -374.369598 1.056139 1.000000
179.823441 -374.369598 0.675748 1.000000
179.823441 -374.369598 0.292481 1.000000
179.382309 -374.644012 0.000005 0.538537
177.912048 -375.558594 0.000004 0.536065
176.828827 -376.232422 0.000003 0.576089
179.866165 -374.437683 4.883546 1.000000
179.866165 -374.437683 4.486302 1.000000
179.866165 -374.437683 4.094636 1.000000
179.866165 -374.437683 3.707608 1.000000
179.866165 -374.437683 3.324322 1.000000
179.866165 -374.437683 2.943911 1.000000
179.866165 -374.437683 2.565536 1.000000
179.866165 -374.437683 2.188377 1.000000
179.866165 -374.437683 1.811623 1.000000
179.866165 -374.437683 1.434464 1.000000
179.866165 -374.437683 1.056090 1.000000
179.866165 -374.437683 0.675678 1.000000
179.866165 -374.437683 0.292393 1.000000
179.422607 -374.709320 0.000005 0.568841
177.945999 -375.613617 0.000004 0.516686
176.858109 -376.279846 0.000003 0.539559
179.908890 -374.505768 4.883837 1.000000
179.908890 -374.505768 4.486553 1.000000
179.908890 -374.505768 4.094847 1.000000
179.908890 -374.505768 3.707781 1.000000
179.908890 -374.505768 3.324455 1.000000
179.908890 -374.505768 2.944005 1.000000
179.908890 -374.505768 2.565593 1.000000
179.908890 -374.505768 2.188397 1.000000
179.908890 -374.505768 1.811604 1.000000
179.908890 -374.505768 1.434407 1.000000
179.908890 -374.505768 1.055994 1.000000
179.908890 -374.505768 0.675545 1.000000
179.908890 -374.505768 0.292220 1.000000
179.462463 -374.774902 0.000005 0.531212
177.979568 -375.668854 0.000004 0.534478
176.887054 -376.327484 0.000003 0.535317
179.951630 -374.573853 4.884268 1.000000
179.951630 -374.573853 4.486925 1.000000
179.951630 -374.573853 4.095160 1.000000
179.951630 -374.573853 3.708036 1.000000
179.951630 -374.573853 3.324653 1.000000
179.951630 -374.573853 2.944147 1.000000
179.951630 -374.573853 2.565678 1.000000
179.951630 -374.573853 2.188424 1.000000
179.951630 -374.573853 1.811575 1.000000
179.951630 -374.573853 1.434322 1.000000
179.951630 -374.573853 1.055853 1.000000
179.951630 -374.573853 0.675347 1.000000
179.951630 -374.573853 0.291964 1.000000
179.501846 -374.840759 0.000005 0.545861
178.012756 -375.724335 0.000004 0.540612
176.915665 -376.375305 0.000003 0.546441
179.994385 -374.641998 4.884840 1.000000
179.994385 -374.641998 4.487418 1.000000
179.994385 -374.641998 4.095575 1.000000
179.994385 -374.641998 3.708375 1.000000
179.994385 -374.641998 3.324916 1.000000
179.994385 -374.641998 2.944334 1.000000
179.994385 -374.641998 2.565790 1.000000
179.994385 -374.641998 2.188462 1.000000
179.994385 -374.641998 1.811538 1.000000
179.994385 -374.641998 1.434210 1.000000
179.994385 -374.641998 1.055666 1.000000
179.994385 -374.641998 0.675085 1.000000
179.994385 -374.641998 0.291626 1.000000
179.540771 -374.906891 0.000005 0.516060
178.045547 -375.780060 0.000004 0.551720
176.943939 -376.423370 0.000003 0.556054
180.037155 -374.710144 4.885552 1.000000
180.037155 -374.710144 4.488032 1.000000
180.037155 -374.710144 4.096093 1.000000
180.037155 -374.710144 3.708796 1.000000
180.037155 -374.710144 3.325243 1.000000
180.037155 -374.710144 2.944567 1.000000
180.037155 -374.710144 2.565930 1.000000
180.037155 -374.710144 2.188509 1.000000
180.037155 -374.710144 1.811491 1.000000
180.037155 -374.710144 1.434070 1.000000
180.037155 -374.710144 1.055432 1.000000
180.037155 -374.710144 0.674757 1.000000
180.037155 -374.710144 0.291204 1.000000
179.579239 -374.973267 0.000005 0.533669
178.077957 -375.835999 0.000004 0.561242
176.971878 -376.471588 0.000003 0.539849
180.079956 -374.778320 4.886408 1.000000
180.079956 -374.778320 4.488769 1.000000
180.079956 -374.778320 4.096714 1.000000
180.079956 -374.778320 3.709303 1.000000
180.079956 -374.778320 3.325635 1.000000
180.079956 -374.778320 2.944847 1.000000
180.079956 -374.778320 2.566097 1.000000
180.079956 -374.778320 2.188564 1.000000
180.079956 -374.778320 1.811436 1.000000
180.079956 -374.778320 1.433902 1.000000
180.079956 -374.778320 1.055153 1.000000
180.079956 -374.778320 0.674365 1.000000
180.079956 -374.778320 0.290698 1.000000
179.617233 -375.039948 0.000004 0.558053
178.109970 -375.892151 0.000003 0.548760
176.999481 -376.520020 0.000003 0.525124
180.122772 -374.846558 4.887402 1.000000
180.122772 -374.846558 4.489627 1.000000
180.122772 -374.846558 4.097437 1.000000
180.122772 -374.846558 3.709892 1.000000
180.122772 -374.846558 3.326093 1.000000
180.122772 -374.846558 2.945172 1.000000
180.122772 -374.846558 2.566292 1.000000
180.122772 -374.846558 2.188629 1.000000
180.122772 -374.846558 1.811370 1.000000
180.122772 -374.846558 1.433707 1.000000
180.122772 -374.846558 1.054827 1.000000
180.122772 -374.846558 0.673908 1.000000
180.122772 -374.846558 0.290108 1.000000
179.654770 -375.106873 0.000005 0.543709
178.141602 -375.948547 0.000004 0.542580
177.026749 -376.568634 0.000003 0.558541
180.165619 -374.914856 4.888539 1.000000
180.165619 -374.914856 4.490607 1.000000
180.165634 -374.914856 4.098263 1.000000
180.165619 -374.914856 3.710565 1.000000
180.165619 -374.914856 3.326615 1.000000
180.165619 -374.914856 2.945544 1.000000
180.165619 -374.914856 2.566515 1.000000
180.165619 -374.914856 2.188704 1.000000
180.165619 -374.914856 1.811296 1.000000
180.165619 -374.914856 1.433484 1.000000
180.165619 -374.914856 1.054455 1.000000
180.165619 -374.914856 0.673386 1.000000
180.165619 -374.914856 0.289435 1.000000
179.691849 -375.174072 0.000004 0.539971
178.172821 -376.005157 0.000003 0.534630
177.053680 -376.617432 0.000003 0.504448
180.208511 -374.983185 4.889818 1.000000
180.208511 -374.983185 4.491710 1.000000
180.208511 -374.983185 4.099192 1.000000
180.208511 -374.983185 3.711322 1.000000
180.208511 -374.983185 3.327202 1.000000
180.208511 -374.983185 2.945963 1.000000
180.208511 -374.983185 2.566767 1.000000
180.208511 -374.983185 2.188787 1.000000
180.208511 -374.983185 1.811213 1.000000
180.208511 -374.983185 1.433233 1.000000
180.208511 -374.983185 1.054036 1.000000
180.208511 -374.983185 0.672799 1.000000
180.208511 -374.983185 0.288678 1.000000
179.728439 -375.241516 0.000004 0.509102
178.203659 -376.061951 0.000004 0.539269
177.080261 -376.666443 0.000003 0.533089
180.251450 -375.051605 4.891238 1.000000
180.251450 -375.051605 4.492935 1.000000
180.251450 -375.051605 4.100224 1.000000
180.251450 -375.051605 3.712164 1.000000
180.251450 -375.051605 3.327854 1.000000
180.251450 -375.051605 2.946428 1.000000
180.251450 -375.051605 2.567045 1.000000
180.251450 -375.051605 2.188880 1.000000
180.251450 -375.051605 1.811120 1.000000
180.251450 -375.051605 1.432955 1.000000
180.251434 -375.051605 1.053571 1.000000
180.251434 -375.051605 0.672146 1.000000
180.251450 -375.051605 0.287836 1.000000
179.764557 -375.309204 0.000004 0.578729
178.234085 -376.118988 0.000003 0.550484
177.106506 -376.715607 0.000003 0.523018
180.294418 -375.120087 4.892800 1.000000
180.294418 -375.120087 4.494283 1.000000
180.294418 -375.120087 4.101359 1.000000
180.294418 -375.120087 3.713089 1.000000
180.294418 -375.120087 3.328572 1.000000
180.294418 -375.120087 2.946940 1.000000
180.294418 -375.120087 2.567352 1.000000
180.294418 -375.120087 2.188982 1.000000
180.294418 -375.120087 1.811018 1.000000
180.294418 -375.120087 1.432648 1.000000
180.294418 -375.120087 1.053060 1.000000
180.294418 -375.120087 0.671428 1.000000
180.294418 -375.120087 0.286911 1.000000
179.800217 -375.377167 0.000004 0.555200
178.264130 -376.176239 0.000003 0.567330
177.132401 -376.764984 0.000003 0.505119
180.337433 -375.188629 4.894507 1.000000
180.337433 -375.188629 4.495753 1.000000
180.337433 -375.188629 4.102598 1.000000
180.337433 -375.188629 3.714099 1.000000
180.337433 -375.188629 3.329355 1.000000
180.337433 -375.188629 2.947498 1.000000
180.337433 -375.188629 2.567686 1.000000
180.337433 -375.188629 2.189094 1.000000
180.337433 -375.188629 1.810907 1.000000
180.337433 -375.188629 1.432314 1.000000
180.337433 -375.188629 1.052501 1.000000
180.337433 -375.188629 0.670645 1.000000
180.337433 -375.188629 0.285901 1.000000
179.835388 -375.445374 0.000004 0.553994
178.293762 -376.233704 0.000003 0.558053
177.157959 -376.814514 0.000003 0.531136
180.380508 -375.257263 4.896357 1.000000
180.380508 -375.257263 4.497348 1.000000
180.380508 -375.257263 4.103941 1.000000
180.380508 -375.257263 3.715194 1.000000
180.380508 -375.257263 3.330205 1.000000
180.380508 -375.257263 2.948104 1.000000
180.380508 -375.257263 2.568049 1.000000
180.380508 -375.257263 2.189214 1.000000
180.380508 -375.257263 1.810786 1.000000
180.380508 -375.257263 1.431951 1.000000
180.380508 -375.257263 1.051896 1.000000
180.380508 -375.257263 0.669795 1.000000
180.380508 -375.257263 0.284806 1.000000
179.870087 -375.513794 0.000004 0.534157
178.322998 -376.291351 0.000003 0.517906
177.183151 -376.864227 0.000003 0.541024
180.423645 -375.325989 4.898349 1.000000
180.423645 -375.325989 4.499066 1.000000
180.423645 -375.325989 4.105389 1.000000
180.423645 -375.325989 3.716376 1.000000
180.423645 -375.325989 3.331120 1.000000
180.423645 -375.325989 2.948756 1.000000
180.423645 -375.325989 2.568439 1.000000
180.423645 -375.325989 2.189344 1.000000
180.423645 -375.325989 1.810655 1.000000
180.423645 -375.325989 1.431560 1.000000
180.423645 -375.325989 1.051244 1.000000
180.423645 -375.325989 0.668880 1.000000
180.423645 -375.325989 0.283625 1.000000
179.904297 -375.582489 0.000004 0.534478
178.351822 -376.349243 0.000003 0.534295
177.208023 -376.914124 0.000003 0.551858
180.466843 -375.394836 4.900486 1.000000
180.466843 -375.394836 4.500909 1.000000
180.466843 -375.394836 4.106942 1.000000
180.466843 -375.394836 3.717640 1.000000
180.466843 -375.394836 3.332101 1.000000
180.466843 -375.394836 2.949456 1.000000
180.466843 -375.394836 2.568859 1.000000
180.466843 -375.394836 2.189484 1.000000
180.466843 -375.394836 1.810516 1.000000
180.466843 -375.394836 1.431141 1.000000
180.466843 -375.394836 1.050544 1.000000
180.466843 -375.394836 0.667899 1.000000
180.466843 -375.394836 0.282360 1.000000
179.938049 -375.651398 0.000004 0.509102
178.380249 -376.407288 0.000003 0.573175
177.232529 -376.964203 0.000002 0.512718
180.510101 -375.463745 4.902769 1.000000
