# This PCD file was generated using the MATLAB® pcwrite function
# from Computer Vision Toolbox®.
# .PCD v.7 - Point Cloud Data file format
VERSION .7
FIELDS x y z intensity
SIZE 4 4 4 4
TYPE F F F F
COUNT 1 1 1 1
WIDTH 1226
HEIGHT 1
VIEWPOINT 0 0 0 1 0 0 0
POINTS 1226
DATA ascii
142.858276 -324.794952 -0.000002 0.495689
nan nan nan 0.000000
nan nan nan 0.000000
175.618973 -273.253387 14.565216 1.000000
175.618973 -273.253387 12.243534 1.000000
175.618973 -273.253387 9.944286 1.000000
175.618973 -273.253387 7.662293 1.000000
148.615768 -315.822632 2.915964 1.000000
148.615768 -315.822601 2.305103 1.000000
148.615768 -315.822601 1.694897 1.000000
148.615768 -315.822632 1.084037 1.000000
148.615768 -315.822632 0.471207 1.000000
147.941040 -316.886292 -0.000011 0.536065
145.850754 -320.181519 -0.000008 0.538552
144.516296 -322.285248 -0.000005 0.544381
143.588791 -323.747406 -0.000004 0.544442
142.905457 -324.824646 -0.000003 0.536889
nan nan nan 0.000000
nan nan nan 0.000000
175.945862 -273.636200 14.538568 1.000000
175.945862 -273.636200 12.221806 1.000000
175.945862 -273.636200 9.927437 1.000000
175.945862 -273.636200 7.650281 1.000000
148.693451 -315.942383 2.913061 1.000000
148.693451 -315.942383 2.304137 1.000000
148.693451 -315.942383 1.695864 1.000000
148.693451 -315.942383 1.086939 1.000000
148.693451 -315.942383 0.476052 1.000000
148.043304 -316.951660 -0.000011 0.534554
145.930069 -320.232208 -0.000008 0.552682
144.580948 -322.326569 -0.000006 0.524941
143.643265 -323.782227 -0.000004 0.516487
142.952423 -324.854675 -0.000003 0.536828
nan nan nan 0.000000
nan nan nan 0.000000
176.271362 -274.017395 14.512637 1.000000
176.271362 -274.017395 12.200666 1.000000
176.271362 -274.017365 9.911043 1.000000
176.271362 -274.017395 7.638598 1.000000
148.770630 -316.061432 2.910221 1.000000
148.770630 -316.061432 2.303190 1.000000
148.770630 -316.061432 1.696810 1.000000
148.770630 -316.061432 1.089779 1.000000
148.770630 -316.061432 0.480793 1.000000
148.145111 -317.017731 -0.000011 0.534295
146.009018 -320.283478 -0.000008 0.555383
144.645309 -322.368347 -0.000005 0.540993
143.697479 -323.817413 -0.000004 0.542046
142.999176 -324.885010 -0.000003 0.549401
nan nan nan 0.000000
nan nan nan 0.000000
176.595551 -274.397034 14.487418 1.000000
176.595551 -274.397034 12.180111 1.000000
176.595551 -274.397034 9.895101 1.000000
176.595551 -274.397034 7.627234 1.000000
148.847351 -316.179718 2.907442 1.000000
148.847351 -316.179718 2.302265 1.000000
148.847351 -316.179718 1.697735 1.000000
148.847351 -316.179718 1.092557 1.000000
148.847351 -316.179718 0.485430 1.000000
148.246445 -317.084534 -0.000011 0.547478
146.087616 -320.335266 -0.000008 0.549981
144.709381 -322.410583 -0.000005 0.534340
143.751465 -323.852997 -0.000004 0.549889
143.045715 -324.915710 -0.000003 0.518975
nan nan nan 0.000000
nan nan nan 0.000000
176.918457 -274.775146 14.462915 1.000000
176.918457 -274.775146 12.160132 1.000000
176.918442 -274.775146 9.879604 1.000000
176.918442 -274.775146 7.616190 1.000000
148.923599 -316.297302 2.904725 1.000000
148.923599 -316.297302 2.301359 1.000000
148.923599 -316.297302 1.698640 1.000000
148.923599 -316.297302 1.095275 1.000000
148.923599 -316.297302 0.489966 1.000000
148.347321 -317.152039 -0.000012 0.527550
146.165848 -320.387604 -0.000008 0.540673
144.773163 -322.453247 -0.000006 0.533669
143.805191 -323.888947 -0.000004 0.551354
143.092041 -324.946686 -0.000003 0.538048
nan nan nan 0.000000
nan nan nan 0.000000
177.240097 -275.151825 14.439106 1.000000
177.240097 -275.151825 12.140723 1.000000
177.240082 -275.151825 9.864550 1.000000
177.240097 -275.151825 7.605463 1.000000
148.999390 -316.414185 2.902067 1.000000
148.999390 -316.414185 2.300474 1.000000
148.999390 -316.414185 1.699526 1.000000
148.999390 -316.414185 1.097933 1.000000
148.999390 -316.414185 0.494401 1.000000
148.447723 -317.220245 -0.000011 0.529320
146.243713 -320.440491 -0.000008 0.524941
144.836639 -322.496368 -0.000006 0.539315
143.858673 -323.925262 -0.000005 0.570306
143.138153 -324.978027 -0.000003 0.545205
nan nan nan 0.000000
nan nan nan 0.000000
177.560532 -275.527069 14.415993 1.000000
177.560532 -275.527069 12.121879 1.000000
177.560532 -275.527069 9.849937 1.000000
177.560532 -275.527069 7.595047 1.000000
149.074753 -316.530396 2.899469 1.000000
149.074753 -316.530396 2.299609 1.000000
149.074753 -316.530396 1.700391 1.000000
149.074753 -316.530396 1.100531 1.000000
149.074753 -316.530396 0.498738 1.000000
148.547638 -317.289124 -0.000012 0.557168
146.321198 -320.493958 -0.000008 0.539452
144.899811 -322.539917 -0.000006 0.534813
143.911896 -323.961975 -0.000005 0.531579
143.184036 -325.009674 -0.000003 0.541283
nan nan nan 0.000000
nan nan nan 0.000000
177.879791 -275.900970 14.393567 1.000000
177.879791 -275.900940 12.103600 1.000000
177.879791 -275.900940 9.835763 1.000000
177.879791 -275.900940 7.584941 1.000000
149.149689 -316.645935 2.896930 1.000000
149.149689 -316.645935 2.298763 1.000000
149.149689 -316.645935 1.701237 1.000000
149.149689 -316.645935 1.103070 1.000000
149.149689 -316.645935 0.502976 1.000000
148.647079 -317.358734 -0.000012 0.527184
146.398315 -320.547913 -0.000008 0.548028
144.962677 -322.583923 -0.000006 0.541711
143.964859 -323.999054 -0.000004 0.528740
143.229706 -325.041626 -0.000003 0.539147
nan nan nan 0.000000
nan nan nan 0.000000
178.197922 -276.273499 14.371828 1.000000
178.197922 -276.273499 12.085876 1.000000
178.197922 -276.273499 9.822018 1.000000
178.197922 -276.273499 7.575145 1.000000
149.224197 -316.760834 2.894448 1.000000
149.224197 -316.760834 2.297936 1.000000
149.224197 -316.760834 1.702064 1.000000
149.224197 -316.760834 1.105553 1.000000
149.224197 -316.760834 0.507119 1.000000
148.746033 -317.429016 -0.000012 0.553887
146.475052 -320.602417 -0.000009 0.542504
145.025238 -322.628357 -0.000006 0.521950
144.017563 -324.036469 -0.000005 0.555016
143.275146 -325.073914 -0.000003 0.504219
nan nan nan 0.000000
nan nan nan 0.000000
178.514954 -276.644775 14.350764 1.000000
178.514954 -276.644775 12.068705 1.000000
178.514954 -276.644745 9.808699 1.000000
178.514954 -276.644745 7.565655 1.000000
149.298294 -316.875092 2.892022 1.000000
149.298294 -316.875092 2.297129 1.000000
149.298294 -316.875092 1.702872 1.000000
149.298294 -316.875092 1.107977 1.000000
149.298294 -316.875092 0.511166 1.000000
148.844482 -317.500000 -0.000012 0.551461
146.551407 -320.657471 -0.000009 0.531487
145.087479 -322.673248 -0.000006 0.553414
144.070007 -324.074280 -0.000005 0.529854
143.320374 -325.106506 -0.000003 0.548394
nan nan nan 0.000000
nan nan nan 0.000000
178.830933 -277.014771 14.330373 1.000000
178.830933 -277.014771 12.052082 1.000000
178.830917 -277.014771 9.795807 1.000000
178.830917 -277.014771 7.556465 1.000000
149.372009 -316.988770 2.889654 1.000000
149.372009 -316.988770 2.296340 1.000000
149.371994 -316.988770 1.703660 1.000000
149.371994 -316.988770 1.110346 1.000000
149.371994 -316.988770 0.515120 1.000000
148.942444 -317.571655 -0.000012 0.537285
146.627380 -320.713043 -0.000009 0.549432
145.149414 -322.718567 -0.000006 0.529061
144.122177 -324.112457 -0.000005 0.531502
143.365356 -325.139404 -0.000004 0.523781
nan nan nan 0.000000
nan nan nan 0.000000
179.145844 -277.383606 14.310642 1.000000
179.145844 -277.383606 12.035998 1.000000
179.145874 -277.383575 9.783335 1.000000
179.145859 -277.383575 7.547575 1.000000
149.445328 -317.101807 2.887341 1.000000
149.445328 -317.101807 2.295569 1.000000
149.445328 -317.101807 1.704431 1.000000
149.445313 -317.101837 1.112658 1.000000
149.445313 -317.101837 0.518980 1.000000
149.039886 -317.643982 -0.000012 0.531106
146.702957 -320.769165 -0.000009 0.542168
145.211029 -322.764282 -0.000006 0.543221
144.174088 -324.151001 -0.000005 0.504738
143.410110 -325.172638 -0.000004 0.508232
nan nan nan 0.000000
nan nan nan 0.000000
179.459808 -277.751221 14.291584 1.000000
179.459808 -277.751221 12.020457 1.000000
179.459808 -277.751251 9.771282 1.000000
179.459808 -277.751221 7.538986 1.000000
149.518265 -317.214294 2.885083 1.000000
149.518265 -317.214294 2.294817 1.000000
149.518265 -317.214294 1.705183 1.000000
149.518265 -317.214294 1.114916 1.000000
149.518265 -317.214294 0.522748 1.000000
149.136841 -317.717010 -0.000012 0.550835
146.778152 -320.825775 -0.000009 0.557977
145.272324 -322.810455 -0.000006 0.547890
144.225723 -324.189880 -0.000005 0.524742
143.454636 -325.206177 -0.000004 0.524773
nan nan nan 0.000000
nan nan nan 0.000000
179.772812 -278.117767 14.273172 1.000000
179.772812 -278.117767 12.005452 1.000000
179.772812 -278.117767 9.759644 1.000000
179.772812 -278.117767 7.530688 1.000000
149.590836 -317.326202 2.882880 1.000000
149.590836 -317.326202 2.294083 1.000000
149.590836 -317.326233 1.705917 1.000000
149.590836 -317.326233 1.117120 1.000000
149.590836 -317.326233 0.526426 1.000000
149.233276 -317.790710 -0.000012 0.555077
146.852936 -320.882935 -0.000009 0.518578
145.333298 -322.857056 -0.000006 0.544778
144.277100 -324.229126 -0.000005 0.549645
143.498932 -325.240021 -0.000004 0.566964
nan nan nan 0.000000
nan nan nan 0.000000
180.084869 -278.483246 14.255415 1.000000
180.084869 -278.483246 11.990970 1.000000
180.084885 -278.483215 9.748417 1.000000
180.084885 -278.483215 7.522686 1.000000
149.663055 -317.437592 2.880731 1.000000
149.663055 -317.437592 2.293367 1.000000
149.663055 -317.437592 1.706633 1.000000
149.663055 -317.437592 1.119270 1.000000
149.663055 -317.437592 0.530014 1.000000
149.329193 -317.865082 -0.000012 0.536736
146.927322 -320.940613 -0.000009 0.533120
145.393936 -322.904083 -0.000006 0.566827
144.328186 -324.268768 -0.000005 0.541283
143.542984 -325.274170 -0.000004 0.562356
nan nan nan 0.000000
nan nan nan 0.000000
180.396072 -278.847656 14.238307 1.000000
180.396057 -278.847656 11.977025 1.000000
180.396057 -278.847656 9.737598 1.000000
180.396057 -278.847656 7.514975 1.000000
149.734924 -317.548401 2.878634 1.000000
149.734924 -317.548401 2.292669 1.000000
149.734924 -317.548401 1.707331 1.000000
149.734924 -317.548401 1.121366 1.000000
149.734924 -317.548401 0.533513 1.000000
149.424591 -317.940125 -0.000013 0.540764
147.001312 -320.998810 -0.000009 0.540825
145.454254 -322.951508 -0.000007 0.530266
144.378998 -324.308716 -0.000005 0.532525
143.586792 -325.308655 -0.000004 0.546349
nan nan nan 0.000000
nan nan nan 0.000000
180.706390 -279.211060 14.221838 1.000000
180.706390 -279.211090 11.963598 1.000000
180.706390 -279.211090 9.727184 1.000000
180.706390 -279.211060 7.507554 1.000000
149.806458 -317.658722 2.876590 1.000000
149.806458 -317.658722 2.291988 1.000000
149.806458 -317.658722 1.708012 1.000000
149.806458 -317.658722 1.123410 1.000000
149.806458 -317.658722 0.536924 1.000000
149.519455 -318.015839 -0.000013 0.549310
147.074890 -321.057526 -0.000009 0.551171
145.514236 -322.999390 -0.000007 0.551644
144.429535 -324.349030 -0.000005 0.505150
143.630371 -325.343414 -0.000004 0.581750
nan nan nan 0.000000
nan nan nan 0.000000
181.015915 -279.573517 14.206010 1.000000
181.015915 -279.573517 11.950697 1.000000
181.015900 -279.573547 9.717178 1.000000
181.015915 -279.573517 7.500421 1.000000
149.877670 -317.768524 2.874598 1.000000
149.877670 -317.768524 2.291325 1.000000
149.877670 -317.768524 1.708676 1.000000
149.877670 -317.768524 1.125402 1.000000
149.877670 -317.768524 0.540249 1.000000
149.613800 -318.092194 -0.000013 0.538628
147.148041 -321.116760 -0.000009 0.544366
145.573883 -323.047668 -0.000007 0.520989
144.479782 -324.389709 -0.000005 0.541405
143.673691 -325.378479 -0.000004 0.495705
nan nan nan 0.000000
nan nan nan 0.000000
181.324631 -279.935089 14.190813 1.000000
181.324646 -279.935059 11.938306 1.000000
181.324646 -279.935059 9.707571 1.000000
181.324646 -279.935059 7.493574 1.000000
149.948547 -317.877838 2.872658 1.000000
149.948547 -317.877838 2.290678 1.000000
149.948547 -317.877838 1.709322 1.000000
149.948547 -317.877838 1.127342 1.000000
149.948547 -317.877838 0.543488 1.000000
149.707596 -318.169220 -0.000013 0.562005
147.220795 -321.176483 -0.000010 0.517678
145.633179 -323.096344 -0.000007 0.511177
144.529739 -324.430756 -0.000005 0.524849
143.716766 -325.413849 -0.000004 0.532174
nan nan nan 0.000000
nan nan nan 0.000000
181.632614 -280.295715 14.176250 1.000000
181.632614 -280.295746 11.926431 1.000000
181.632614 -280.295715 9.698362 1.000000
181.632629 -280.295715 7.487010 1.000000
150.019135 -317.986664 2.870768 1.000000
150.019135 -317.986664 2.290049 1.000000
150.019135 -317.986664 1.709951 1.000000
150.019135 -317.986664 1.129232 1.000000
150.019135 -317.986664 0.546641 1.000000
149.800873 -318.246887 -0.000013 0.534874
147.293121 -321.236725 -0.000009 0.525246
145.692154 -323.145477 -0.000007 0.511894
144.579422 -324.472107 -0.000006 0.547417
143.759613 -325.449524 -0.000004 0.571191
nan nan nan 0.000000
nan nan nan 0.000000
181.939880 -280.655548 14.162312 1.000000
181.939865 -280.655548 11.915071 1.000000
181.939880 -280.655548 9.689552 1.000000
181.939880 -280.655548 7.480729 1.000000
150.089401 -318.095032 2.868929 1.000000
150.089401 -318.095032 2.289436 1.000000
150.089401 -318.095032 1.710564 1.000000
150.089401 -318.095032 1.131071 1.000000
150.089401 -318.095032 0.549711 1.000000
149.893585 -318.325195 -0.000013 0.528008
147.365036 -321.297455 -0.000009 0.527962
145.750778 -323.194977 -0.000007 0.516472
144.628799 -324.513824 -0.000005 0.528847
143.802185 -325.485504 -0.000004 0.551995
nan nan nan 0.000000
nan nan nan 0.000000
182.246445 -281.014557 14.148998 1.000000
182.246445 -281.014557 11.904218 1.000000
182.246445 -281.014557 9.681133 1.000000
182.246445 -281.014557 7.474730 1.000000
150.159378 -318.202942 2.867140 1.000000
150.159378 -318.202942 2.288840 1.000000
150.159378 -318.202942 1.711160 1.000000
150.159378 -318.202942 1.132860 1.000000
150.159378 -318.202942 0.552697 1.000000
149.985748 -318.404175 -0.000013 0.548028
147.436523 -321.358704 -0.000010 0.548775
145.809052 -323.244904 -0.000007 0.538567
144.677902 -324.555878 -0.000005 0.552270
143.844513 -325.521759 -0.000004 0.537606
nan nan nan 0.000000
nan nan nan 0.000000
182.552353 -281.372803 14.136303 1.000000
182.552368 -281.372803 11.893870 1.000000
182.552353 -281.372803 9.673107 1.000000
182.552353 -281.372803 7.469007 1.000000
150.229080 -318.310425 2.865400 1.000000
150.229080 -318.310425 2.288261 1.000000
150.229080 -318.310425 1.711739 1.000000
150.229080 -318.310425 1.134600 1.000000
150.229080 -318.310425 0.555601 1.000000
150.077377 -318.483765 -0.000013 0.537514
147.507568 -321.420441 -0.000010 0.540185
145.866974 -323.295227 -0.000007 0.576959
144.726700 -324.598297 -0.000006 0.529519
143.886597 -325.558319 -0.000004 0.545754
nan nan nan 0.000000
nan nan nan 0.000000
182.857635 -281.730316 14.124222 1.000000
182.857635 -281.730316 11.884022 1.000000
182.857635 -281.730316 9.665470 1.000000
182.857635 -281.730316 7.463567 1.000000
150.298492 -318.417480 2.863709 1.000000
150.298508 -318.417450 2.287698 1.000000
150.298508 -318.417450 1.712303 1.000000
150.298492 -318.417480 1.136290 1.000000
150.298492 -318.417480 0.558423 1.000000
150.168427 -318.564026 -0.000013 0.546899
147.578186 -321.482666 -0.000010 0.532677
145.924545 -323.345978 -0.000007 0.560632
144.775192 -324.641022 -0.000006 0.527062
143.928421 -325.595184 -0.000004 0.549950
nan nan nan 0.000000
nan nan nan 0.000000
183.162338 -282.087128 14.112761 1.000000
183.162338 -282.087128 11.874678 1.000000
183.162354 -282.087128 9.658225 1.000000
183.162338 -282.087128 7.458401 1.000000
150.367645 -318.524109 2.862067 1.000000
150.367661 -318.524109 2.287151 1.000000
150.367661 -318.524109 1.712849 1.000000
150.367645 -318.524109 1.137933 1.000000
150.367661 -318.524109 0.561163 1.000000
150.258926 -318.644897 -0.000013 0.557656
147.648376 -321.545410 -0.000010 0.536049
145.981750 -323.397095 -0.000007 0.546914
144.823395 -324.684113 -0.000006 0.541680
143.969971 -325.632324 -0.000005 0.578149
nan nan nan 0.000000
nan nan nan 0.000000
183.466476 -282.443298 14.101906 1.000000
183.466476 -282.443298 11.865827 1.000000
183.466476 -282.443298 9.651359 1.000000
183.466476 -282.443298 7.453511 1.000000
150.436554 -318.630341 2.860473 1.000000
150.436554 -318.630341 2.286619 1.000000
150.436554 -318.630341 1.713380 1.000000
150.436554 -318.630341 1.139527 1.000000
150.436554 -318.630341 0.563824 1.000000
150.348862 -318.726410 -0.000013 0.533425
147.718124 -321.608612 -0.000010 0.522164
146.038620 -323.448639 -0.000007 0.553429
144.871307 -324.727539 -0.000006 0.546838
144.011276 -325.669769 -0.000005 0.544030
nan nan nan 0.000000
nan nan nan 0.000000
183.770096 -282.798828 14.091665 1.000000
183.770096 -282.798828 11.857479 1.000000
183.770096 -282.798828 9.644883 1.000000
183.770096 -282.798828 7.448893 1.000000
150.505188 -318.736206 2.858927 1.000000
150.505188 -318.736206 2.286104 1.000000
150.505188 -318.736206 1.713896 1.000000
150.505188 -318.736206 1.141073 1.000000
150.505188 -318.736206 0.566405 1.000000
150.438217 -318.808533 -0.000013 0.549920
147.787415 -321.672302 -0.000010 0.535485
146.095108 -323.500580 -0.000008 0.530510
144.918900 -324.771271 -0.000006 0.512001
144.052322 -325.707489 -0.000005 0.550195
nan nan nan 0.000000
nan nan nan 0.000000
184.073196 -283.153778 14.082025 1.000000
184.073196 -283.153778 11.849619 1.000000
184.073196 -283.153778 9.638792 1.000000
184.073196 -283.153778 7.444551 1.000000
150.573593 -318.841675 2.857428 1.000000
150.573593 -318.841675 2.285605 1.000000
150.573593 -318.841675 1.714395 1.000000
150.573593 -318.841675 1.142572 1.000000
150.573593 -318.841675 0.568908 1.000000
150.527008 -318.891296 -0.000014 0.530434
147.856277 -321.736481 -0.000010 0.517205
146.151245 -323.552887 -0.000008 0.534539
144.966187 -324.815369 -0.000006 0.544182
144.093094 -325.745483 -0.000005 0.565469
nan nan nan 0.000000
nan nan nan 0.000000
184.375824 -283.508209 14.072987 1.000000
184.375839 -283.508179 11.842255 1.000000
184.375824 -283.508209 9.633078 1.000000
184.375839 -283.508179 7.440477 1.000000
150.641754 -318.946777 2.855976 1.000000
150.641754 -318.946777 2.285121 1.000000
150.641754 -318.946777 1.714879 1.000000
150.641754 -318.946777 1.144024 1.000000
150.641754 -318.946777 0.571331 1.000000
150.615204 -318.974670 -0.000014 0.540856
147.924683 -321.801147 -0.000010 0.534432
146.207016 -323.605621 -0.000008 0.577111
145.013168 -324.859772 -0.000006 0.526497
144.133606 -325.783783 -0.000005 0.567575
nan nan nan 0.000000
nan nan nan 0.000000
184.678040 -283.862091 14.064555 1.000000
184.678040 -283.862091 11.835378 1.000000
184.678040 -283.862091 9.627745 1.000000
184.678040 -283.862091 7.436677 1.000000
150.709702 -319.051544 2.854569 1.000000
150.709702 -319.051544 2.284653 1.000000
150.709702 -319.051544 1.715347 1.000000
150.709702 -319.051544 1.145430 1.000000
150.709702 -319.051544 0.573678 1.000000
150.702820 -319.058655 -0.000014 0.541405
147.992630 -321.866272 -0.000010 0.552132
146.262405 -323.658722 -0.000008 0.564141
145.059845 -324.904510 -0.000006 0.524620
144.173843 -325.822357 -0.000005 0.539239
nan nan nan 0.000000
nan nan nan 0.000000
184.979828 -284.215515 14.056717 1.000000
184.979828 -284.215515 11.828992 1.000000
184.979828 -284.215515 9.622789 1.000000
184.979828 -284.215515 7.433145 1.000000
150.777420 -319.155975 2.853210 1.000000
150.777420 -319.155975 2.284200 1.000000
150.777420 -319.155975 1.715800 1.000000
150.777420 -319.155975 1.146790 1.000000
150.777405 -319.155975 0.575947 1.000000
150.789856 -319.143250 -0.000014 0.548547
148.060120 -321.931885 -0.000010 0.524224
146.317429 -323.712189 -0.000008 0.538949
145.106201 -324.949554 -0.000006 0.554299
144.213806 -325.861206 -0.000005 0.546227
nan nan nan 0.000000
nan nan nan 0.000000
185.281250 -284.568481 14.049479 1.000000
185.281250 -284.568481 11.823088 1.000000
185.281250 -284.568481 9.618215 1.000000
185.281250 -284.568481 7.429884 1.000000
150.844925 -319.260071 2.851896 1.000000
150.844925 -319.260071 2.283762 1.000000
150.844925 -319.260071 1.716238 1.000000
150.844910 -319.260071 1.148104 1.000000
150.844925 -319.260071 0.578140 1.000000
150.844925 -319.260071 0.005109 1.000000
148.127167 -321.997986 -0.000010 0.521599
146.372086 -323.766052 -0.000008 0.548577
145.152237 -324.994965 -0.000006 0.554055
144.253510 -325.900330 -0.000005 0.537575
nan nan nan 0.000000
nan nan nan 0.000000
185.582321 -284.921082 14.042835 1.000000
185.582321 -284.921082 11.817670 1.000000
185.582321 -284.921051 9.614014 1.000000
185.582321 -284.921051 7.426889 1.000000
150.912231 -319.363861 2.850627 1.000000
150.912231 -319.363861 2.283340 1.000000
150.912231 -319.363861 1.716660 1.000000
150.912231 -319.363861 1.149372 1.000000
150.912231 -319.363861 0.580257 1.000000
150.912216 -319.363861 0.008079 1.000000
148.193726 -322.064514 -0.000010 0.526680
146.426346 -323.820313 -0.000008 0.516777
145.197952 -325.040649 -0.000006 0.520729
144.292938 -325.939758 -0.000005 0.556756
nan nan nan 0.000000
nan nan nan 0.000000
185.883072 -285.273254 14.036788 1.000000
185.883072 -285.273254 11.812741 1.000000
185.883072 -285.273254 9.610190 1.000000
185.883072 -285.273254 7.424164 1.000000
150.979324 -319.467346 2.849404 1.000000
150.979340 -319.467316 2.282933 1.000000
150.979340 -319.467316 1.717067 1.000000
150.979324 -319.467346 1.150596 1.000000
150.979324 -319.467346 0.582299 1.000000
150.979324 -319.467346 0.010944 1.000000
148.259842 -322.131531 -0.000010 0.540032
146.480240 -323.874939 -0.000008 0.545266
145.243362 -325.086670 -0.000006 0.530434
144.332077 -325.979431 -0.000005 0.533806
nan nan nan 0.000000
nan nan nan 0.000000
186.183533 -285.625122 14.031329 1.000000
186.183533 -285.625122 11.808292 1.000000
186.183533 -285.625122 9.606737 1.000000
186.183548 -285.625122 7.421705 1.000000
151.046249 -319.570526 2.848225 1.000000
151.046249 -319.570526 2.282540 1.000000
151.046249 -319.570526 1.717460 1.000000
151.046249 -319.570526 1.151774 1.000000
151.046249 -319.570526 0.584266 1.000000
151.046249 -319.570526 0.013704 1.000000
148.325470 -322.199005 -0.000010 0.538766
146.533752 -323.929932 -0.000008 0.525536
145.288437 -325.133026 -0.000006 0.529122
144.370956 -326.019379 -0.000005 0.573449
nan nan nan 0.000000
nan nan nan 0.000000
186.483749 -285.976685 14.026464 1.000000
186.483749 -285.976685 11.804324 1.000000
186.483749 -285.976685 9.603661 1.000000
186.483749 -285.976685 7.419512 1.000000
151.112976 -319.673431 2.847091 1.000000
151.112976 -319.673431 2.282162 1.000000
151.112976 -319.673431 1.717838 1.000000
151.112976 -319.673431 1.152909 1.000000
151.112976 -319.673431 0.586159 1.000000
151.112976 -319.673431 0.016359 1.000000
148.390640 -322.266937 -0.000010 0.519860
146.586884 -323.985321 -0.000008 0.497215
145.333191 -325.179657 -0.000007 0.549340
144.409546 -326.059601 -0.000005 0.512963
nan nan nan 0.000000
nan nan nan 0.000000
186.783737 -286.327972 14.022186 1.000000
186.783722 -286.327972 11.800836 1.000000
186.783737 -286.327972 9.600958 1.000000
186.783722 -286.327972 7.417586 1.000000
151.179535 -319.776062 2.846001 1.000000
151.179535 -319.776062 2.281799 1.000000
151.179535 -319.776062 1.718201 1.000000
151.179535 -319.776062 1.153998 1.000000
151.179535 -319.776062 0.587978 1.000000
151.179535 -319.776062 0.018912 1.000000
148.455322 -322.335297 -0.000010 0.527108
146.639618 -324.041077 -0.000008 0.547402
145.377625 -325.226624 -0.000006 0.517021
144.447845 -326.100098 -0.000006 0.529763
nan nan nan 0.000000
nan nan nan 0.000000
187.083511 -286.679047 14.018498 1.000000
187.083511 -286.679047 11.797830 1.000000
187.083511 -286.679047 9.598625 1.000000
187.083511 -286.679047 7.415921 1.000000
151.245926 -319.878448 2.844955 1.000000
151.245926 -319.878448 2.281451 1.000000
151.245926 -319.878448 1.718549 1.000000
151.245926 -319.878448 1.155044 1.000000
151.245926 -319.878448 0.589724 1.000000
151.245926 -319.878448 0.021361 1.000000
148.519547 -322.404114 -0.000011 0.540047
146.691956 -324.097168 -0.000009 0.511284
145.421722 -325.273895 -0.000007 0.564294
144.485870 -326.140869 -0.000006 0.522881
nan nan nan 0.000000
nan nan nan 0.000000
187.383118 -287.029907 14.015393 1.000000
187.383118 -287.029907 11.795301 1.000000
187.383118 -287.029907 9.596663 1.000000
187.383118 -287.029907 7.414525 1.000000
151.312164 -319.980560 2.843953 1.000000
151.312164 -319.980560 2.281116 1.000000
151.312164 -319.980560 1.718883 1.000000
151.312164 -319.980560 1.156047 1.000000
151.312164 -319.980560 0.591397 1.000000
151.312164 -319.980560 0.023708 1.000000
148.583267 -322.473389 -0.000011 0.525399
146.743912 -324.153656 -0.000009 0.522988
145.465500 -325.321472 -0.000007 0.481895
144.523621 -326.181885 -0.000006 0.563622
nan nan nan 0.000000
nan nan nan 0.000000
187.682587 -287.380615 14.012882 1.000000
187.682587 -287.380615 11.793255 1.000000
187.682587 -287.380615 9.595076 1.000000
187.682587 -287.380615 7.413392 1.000000
151.378235 -320.082458 2.842995 1.000000
151.378235 -320.082458 2.280797 1.000000
151.378235 -320.082458 1.719203 1.000000
151.378235 -320.082458 1.157005 1.000000
151.378235 -320.082458 0.592997 1.000000
151.378235 -320.082458 0.025953 1.000000
148.646515 -322.543121 -0.000011 0.525200
146.795471 -324.210480 -0.000009 0.532982
145.508926 -325.369354 -0.000007 0.518166
144.561066 -326.223175 -0.000006 0.560601
nan nan nan 0.000000
nan nan nan 0.000000
187.981964 -287.731171 14.010956 1.000000
187.981964 -287.731171 11.791684 1.000000
187.981964 -287.731171 9.593859 1.000000
187.981964 -287.731171 7.412524 1.000000
151.444168 -320.184143 2.842078 1.000000
151.444168 -320.184143 2.280493 1.000000
151.444168 -320.184143 1.719508 1.000000
151.444168 -320.184143 1.157921 1.000000
151.444168 -320.184143 0.594525 1.000000
151.444168 -320.184143 0.028097 1.000000
148.709259 -322.613281 -0.000011 0.509621
146.846634 -324.267670 -0.000009 0.562417
145.552032 -325.417542 -0.000007 0.561746
144.598221 -326.264709 -0.000006 0.508217
nan nan nan 0.000000
nan nan nan 0.000000
188.281235 -288.081665 14.009613 1.000000
188.281250 -288.081665 11.790587 1.000000
188.281235 -288.081665 9.593007 1.000000
188.281250 -288.081665 7.411918 1.000000
151.509964 -320.285583 2.841206 1.000000
151.509964 -320.285583 2.280201 1.000000
151.509964 -320.285583 1.719798 1.000000
151.509964 -320.285583 1.158794 1.000000
151.509949 -320.285583 0.595982 1.000000
151.509949 -320.285583 0.030142 1.000000
148.771530 -322.683868 -0.000011 0.532937
146.897385 -324.325226 -0.000009 0.527886
145.594788 -325.466034 -0.000007 0.536889
144.635101 -326.306519 -0.000006 0.561746
nan nan nan 0.000000
nan nan nan 0.000000
188.580460 -288.432068 14.008860 1.000000
188.580460 -288.432068 11.789973 1.000000
188.580475 -288.432068 9.592533 1.000000
188.580460 -288.432068 7.411579 1.000000
151.575623 -320.386841 2.840375 1.000000
151.575607 -320.386841 2.279925 1.000000
151.575607 -320.386841 1.720075 1.000000
151.575623 -320.386841 1.159624 1.000000
151.575607 -320.386841 0.597367 1.000000
151.575607 -320.386841 0.032085 1.000000
148.833298 -322.754913 -0.000011 0.537209
146.947739 -324.383118 -0.000009 0.543511
145.637207 -325.514801 -0.000007 0.563317
144.671677 -326.348572 -0.000006 0.500587
nan nan nan 0.000000
nan nan nan 0.000000
188.879669 -288.782471 14.008686 1.000000
188.879669 -288.782471 11.789831 1.000000
188.879669 -288.782471 9.592422 1.000000
188.879669 -288.782471 7.411502 1.000000
151.641144 -320.487885 2.839588 1.000000
151.641144 -320.487885 2.279663 1.000000
151.641144 -320.487885 1.720337 1.000000
151.641144 -320.487885 1.160411 1.000000
151.641144 -320.487885 0.598682 1.000000
151.641144 -320.487885 0.033929 1.000000
148.894562 -322.826355 -0.000011 0.509010
146.997696 -324.441376 -0.000009 0.536004
145.679291 -325.563873 -0.000007 0.498024
144.707962 -326.390900 -0.000006 0.560403
nan nan nan 0.000000
nan nan nan 0.000000
189.178864 -289.132843 14.009099 1.000000
189.178864 -289.132843 11.790173 1.000000
189.178864 -289.132874 9.592682 1.000000
189.178879 -289.132843 7.411688 1.000000
151.706558 -320.588745 2.838843 1.000000
151.706558 -320.588745 2.279414 1.000000
151.706558 -320.588745 1.720585 1.000000
151.706558 -320.588745 1.161156 1.000000
151.706558 -320.588745 0.599926 1.000000
151.706558 -320.588745 0.035675 1.000000
148.955338 -322.898254 -0.000011 0.546517
147.047241 -324.500000 -0.000009 0.526177
145.721039 -325.613251 -0.000007 0.514626
144.743958 -326.433472 -0.000006 0.525032
nan nan nan 0.000000
nan nan nan 0.000000
189.478119 -289.483276 14.010101 1.000000
189.478119 -289.483276 11.790985 1.000000
189.478119 -289.483276 9.593319 1.000000
189.478119 -289.483276 7.412138 1.000000
151.771851 -320.689453 2.838140 1.000000
151.771851 -320.689453 2.279180 1.000000
151.771851 -320.689453 1.720819 1.000000
151.771851 -320.689453 1.161860 1.000000
151.771851 -320.689453 0.601099 1.000000
151.771851 -320.689453 0.037321 1.000000
149.015610 -322.970551 -0.000011 0.533165
147.096375 -324.558929 -0.000009 0.551568
145.762421 -325.662903 -0.000007 0.535348
144.779633 -326.476288 -0.000006 0.497185
nan nan nan 0.000000
nan nan nan 0.000000
189.777451 -289.833801 14.011691 1.000000
189.777435 -289.833801 11.792278 1.000000
189.777435 -289.833801 9.594322 1.000000
189.777435 -289.833801 7.412854 1.000000
151.837051 -320.789978 2.837479 1.000000
151.837051 -320.789978 2.278960 1.000000
151.837051 -320.789978 1.721040 1.000000
151.837051 -320.789978 1.162521 1.000000
151.837051 -320.789978 0.602203 1.000000
151.837051 -320.789978 0.038869 1.000000
149.075363 -323.043274 -0.000011 0.552819
147.145081 -324.618225 -0.000009 0.514397
145.803467 -325.712860 -0.000008 0.512734
144.815033 -326.519348 -0.000006 0.554009
nan nan nan 0.000000
nan nan nan 0.000000
190.076843 -290.184418 14.013859 1.000000
190.076843 -290.184418 11.794050 1.000000
190.076843 -290.184418 9.595695 1.000000
190.076843 -290.184418 7.413833 1.000000
151.902145 -320.890350 2.836860 1.000000
151.902145 -320.890350 2.278754 1.000000
151.902145 -320.890350 1.721246 1.000000
151.902145 -320.890350 1.163140 1.000000
151.902145 -320.890350 0.603236 1.000000
151.902130 -320.890350 0.040319 1.000000
149.134628 -323.116394 -0.000012 0.520195
147.193390 -324.677856 -0.000009 0.540993
145.844162 -325.763092 -0.000007 0.544213
144.850113 -326.562653 -0.000007 0.542275
nan nan nan 0.000000
nan nan nan 0.000000
190.376373 -290.535187 14.016617 1.000000
190.376358 -290.535187 11.796296 1.000000
190.376358 -290.535187 9.597435 1.000000
190.376373 -290.535187 7.415074 1.000000
151.967133 -320.990570 2.836282 1.000000
151.967133 -320.990570 2.278562 1.000000
151.967133 -320.990570 1.721438 1.000000
151.967133 -320.990570 1.163718 1.000000
151.967133 -320.990570 0.604200 1.000000
151.967133 -320.990570 0.041671 1.000000
149.193359 -323.189972 -0.000011 0.550774
147.241272 -324.737793 -0.000010 0.496986
145.884506 -325.813599 -0.000008 0.543282
144.884903 -326.606201 -0.000007 0.553384
nan nan nan 0.000000
nan nan nan 0.000000
190.676041 -290.886108 14.019964 1.000000
190.676041 -290.886108 11.799025 1.000000
190.676041 -290.886108 9.599552 1.000000
190.676041 -290.886108 7.416583 1.000000
152.032059 -321.090668 2.835746 1.000000
152.032059 -321.090668 2.278383 1.000000
152.032059 -321.090668 1.721617 1.000000
152.032059 -321.090668 1.164254 1.000000
152.032043 -321.090668 0.605096 1.000000
152.032059 -321.090668 0.042927 1.000000
149.251587 -323.263916 -0.000012 0.541146
147.288742 -324.798096 -0.000010 0.564843
145.924500 -325.864410 -0.000008 0.542855
144.919388 -326.650024 -0.000007 0.571771
nan nan nan 0.000000
nan nan nan 0.000000
190.975906 -291.237274 14.023896 1.000000
190.975906 -291.237274 11.802233 1.000000
190.975906 -291.237274 9.602039 1.000000
190.975922 -291.237274 7.418354 1.000000
152.096893 -321.190643 2.835251 1.000000
152.096893 -321.190643 2.278218 1.000000
152.096893 -321.190643 1.721782 1.000000
152.096893 -321.190643 1.164749 1.000000
152.096878 -321.190643 0.605921 1.000000
152.096878 -321.190643 0.044086 1.000000
149.309296 -323.338287 -0.000012 0.533639
147.335785 -324.858734 -0.000010 0.553704
145.964127 -325.915466 -0.000008 0.503487
144.953552 -326.694061 -0.000007 0.525597
nan nan nan 0.000000
nan nan nan 0.000000
191.275970 -291.588684 14.028418 1.000000
191.275970 -291.588684 11.805920 1.000000
191.275970 -291.588684 9.604900 1.000000
191.275970 -291.588684 7.420393 1.000000
152.161636 -321.290527 2.834797 1.000000
152.161652 -321.290527 2.278067 1.000000
152.161652 -321.290527 1.721933 1.000000
152.161636 -321.290527 1.165202 1.000000
152.161636 -321.290527 0.606678 1.000000
152.161636 -321.290527 0.045148 1.000000
149.366486 -323.413055 -0.000012 0.528222
147.382401 -324.919678 -0.000009 0.535576
146.003403 -325.966827 -0.000008 0.517433
144.987427 -326.738312 -0.000007 0.529427
nan nan nan 0.000000
nan nan nan 0.000000
191.576279 -291.940369 14.033528 1.000000
191.576279 -291.940369 11.810086 1.000000
191.576279 -291.940369 9.608130 1.000000
191.576294 -291.940369 7.422697 1.000000
152.226334 -321.390259 2.834385 1.000000
152.226334 -321.390259 2.277930 1.000000
152.226334 -321.390259 1.722070 1.000000
152.226334 -321.390259 1.165614 1.000000
152.226334 -321.390289 0.607366 1.000000
152.226334 -321.390289 0.046113 1.000000
149.423141 -323.488220 -0.000012 0.537697
147.428604 -324.980957 -0.000010 0.550835
146.042328 -326.018463 -0.000008 0.538262
145.020981 -326.782837 -0.000007 0.521874
nan nan nan 0.000000
nan nan nan 0.000000
191.876877 -292.292358 14.039236 1.000000
191.876862 -292.292358 11.814734 1.000000
191.876877 -292.292358 9.611738 1.000000
191.876877 -292.292358 7.425268 1.000000
152.290970 -321.489929 2.834014 1.000000
152.290970 -321.489929 2.277806 1.000000
152.290970 -321.489929 1.722194 1.000000
152.290970 -321.489929 1.165986 1.000000
152.290970 -321.489929 0.607986 1.000000
152.290970 -321.489929 0.046984 1.000000
149.479279 -323.563782 -0.000012 0.548913
147.474365 -325.042542 -0.000010 0.533471
146.080872 -326.070343 -0.000007 0.535119
145.054230 -326.827576 -0.000007 0.546349
nan nan nan 0.000000
nan nan nan 0.000000
192.177750 -292.644714 14.045532 1.000000
192.177765 -292.644714 11.819869 1.000000
192.177765 -292.644714 9.615719 1.000000
192.177750 -292.644714 7.428105 1.000000
152.355545 -321.589508 2.833683 1.000000
152.355545 -321.589508 2.277696 1.000000
152.355545 -321.589508 1.722304 1.000000
152.355545 -321.589508 1.166317 1.000000
152.355545 -321.589508 0.608537 1.000000
152.355545 -321.589508 0.047757 1.000000
149.534897 -323.639709 -0.000012 0.544671
147.519699 -325.104462 -0.000010 0.556527
146.119064 -326.122498 -0.000008 0.544762
145.087158 -326.872559 -0.000007 0.524971
nan nan nan 0.000000
nan nan nan 0.000000
192.478958 -292.997467 14.052423 1.000000
192.478943 -292.997467 11.825485 1.000000
192.478958 -292.997467 9.620075 1.000000
192.478958 -292.997467 7.431211 1.000000
152.420074 -321.689026 2.833394 1.000000
152.420074 -321.689026 2.277599 1.000000
152.420074 -321.689026 1.722400 1.000000
152.420074 -321.689026 1.166606 1.000000
152.420074 -321.689026 0.609021 1.000000
152.420074 -321.689026 0.048435 1.000000
149.589966 -323.716064 -0.000012 0.529412
147.564606 -325.166687 -0.000010 0.551659
146.156906 -326.174927 -0.000008 0.528084
145.119766 -326.917755 -0.000007 0.521080
nan nan nan 0.000000
nan nan nan 0.000000
192.780548 -293.350616 14.059910 1.000000
192.780533 -293.350616 11.831592 1.000000
192.780548 -293.350616 9.624809 1.000000
192.780548 -293.350616 7.434585 1.000000
152.484558 -321.788483 2.833145 1.000000
152.484573 -321.788452 2.277517 1.000000
152.484573 -321.788452 1.722483 1.000000
152.484558 -321.788483 1.166855 1.000000
152.484558 -321.788483 0.609436 1.000000
152.484558 -321.788483 0.049017 1.000000
149.644516 -323.792755 -0.000012 0.525719
147.609070 -325.229218 -0.000010 0.536202
146.194366 -326.227631 -0.000008 0.546319
145.152069 -326.963196 -0.000007 0.532692
nan nan nan 0.000000
nan nan nan 0.000000
193.082489 -293.704224 14.067993 1.000000
193.082489 -293.704224 11.838182 1.000000
193.082504 -293.704224 9.629923 1.000000
193.082504 -293.704224 7.438229 1.000000
152.549011 -321.887848 2.832937 1.000000
152.549011 -321.887848 2.277447 1.000000
152.549011 -321.887848 1.722553 1.000000
152.549011 -321.887848 1.167063 1.000000
152.549011 -321.887848 0.609784 1.000000
152.549011 -321.887848 0.049504 1.000000
149.698517 -323.869873 -0.000012 0.536950
147.653091 -325.292084 -0.000010 0.528756
146.231445 -326.280579 -0.000008 0.564691
145.184052 -327.008850 -0.000007 0.540764
nan nan nan 0.000000
nan nan nan 0.000000
193.384872 -294.058319 14.076681 1.000000
193.384872 -294.058350 11.845263 1.000000
193.384888 -294.058319 9.635410 1.000000
193.384872 -294.058319 7.442142 1.000000
152.613434 -321.987213 2.832769 1.000000
152.613434 -321.987213 2.277392 1.000000
152.613434 -321.987213 1.722608 1.000000
152.613434 -321.987213 1.167230 1.000000
152.613434 -321.987213 0.610063 1.000000
152.613434 -321.987213 0.049897 1.000000
149.751984 -323.947327 -0.000012 0.539681
147.696686 -325.355225 -0.000010 0.509422
146.268173 -326.333771 -0.000008 0.516213
145.215714 -327.054718 -0.000008 0.523171
nan nan nan 0.000000
nan nan nan 0.000000
193.687714 -294.412964 14.085969 1.000000
193.687714 -294.412964 11.852836 1.000000
193.687698 -294.412964 9.641281 1.000000
193.687714 -294.412964 7.446328 1.000000
152.677841 -322.086517 2.832643 1.000000
152.677841 -322.086517 2.277349 1.000000
152.677841 -322.086517 1.722651 1.000000
152.677841 -322.086517 1.167357 1.000000
152.677841 -322.086517 0.610274 1.000000
152.677841 -322.086517 0.050193 1.000000
149.804901 -324.025177 -0.000012 0.540413
147.739822 -325.418701 -0.000010 0.559091
146.304520 -326.387238 -0.000008 0.517891
145.247055 -327.100830 -0.000007 0.525567
nan nan nan 0.000000
nan nan nan 0.000000
193.991013 -294.768158 14.095858 1.000000
193.991013 -294.768158 11.860897 1.000000
193.991013 -294.768158 9.647535 1.000000
193.991013 -294.768158 7.450784 1.000000
152.742218 -322.185791 2.832556 1.000000
152.742218 -322.185791 2.277321 1.000000
152.742218 -322.185791 1.722679 1.000000
152.742218 -322.185791 1.167443 1.000000
152.742218 -322.185791 0.610418 1.000000
152.742218 -322.185791 0.050395 1.000000
149.857285 -324.103394 -0.000012 0.521080
147.782532 -325.482452 -0.000010 0.541817
146.340500 -326.440948 -0.000008 0.511513
145.278076 -327.147125 -0.000008 0.549508
nan nan nan 0.000000
nan nan nan 0.000000
194.294846 -295.123962 14.106356 1.000000
194.294846 -295.123962 11.869456 1.000000
194.294846 -295.123962 9.654177 1.000000
194.294846 -295.123962 7.455516 1.000000
152.806595 -322.285065 2.832511 1.000000
152.806595 -322.285065 2.277305 1.000000
152.806595 -322.285065 1.722694 1.000000
152.806595 -322.285065 1.167488 1.000000
152.806595 -322.285065 0.610494 1.000000
152.806595 -322.285065 0.050501 1.000000
149.909119 -324.181946 -0.000012 0.534585
147.824783 -325.546509 -0.000010 0.551797
146.376099 -326.494904 -0.000009 0.562860
145.308762 -327.193665 -0.000007 0.539849
nan nan nan 0.000000
nan nan nan 0.000000
194.599213 -295.480377 14.117466 1.000000
194.599213 -295.480377 11.878513 1.000000
194.599213 -295.480377 9.661197 1.000000
194.599213 -295.480377 7.460521 1.000000
152.870972 -322.384338 2.832507 1.000000
152.870972 -322.384308 2.277304 1.000000
152.870972 -322.384308 1.722696 1.000000
152.870972 -322.384338 1.167493 1.000000
152.870972 -322.384338 0.610502 1.000000
152.870956 -322.384338 0.050513 1.000000
149.960403 -324.260895 -0.000012 0.551339
147.866592 -325.610840 -0.000010 0.554391
146.411316 -326.549133 -0.000008 0.528313
145.339142 -327.240417 -0.000008 0.530983
nan nan nan 0.000000
nan nan nan 0.000000
194.904144 -295.837494 14.129181 1.000000
194.904144 -295.837494 11.888063 1.000000
194.904144 -295.837494 9.668606 1.000000
194.904144 -295.837494 7.465802 1.000000
152.935333 -322.483582 2.832542 1.000000
152.935333 -322.483582 2.277316 1.000000
152.935333 -322.483582 1.722684 1.000000
152.935333 -322.483582 1.167458 1.000000
152.935333 -322.483582 0.610443 1.000000
152.935333 -322.483582 0.050429 1.000000
150.011124 -324.340179 -0.000012 0.538308
147.907944 -325.675476 -0.000010 0.519219
146.446152 -326.603577 -0.000008 0.527626
145.369186 -327.287354 -0.000008 0.536431
nan nan nan 0.000000
nan nan nan 0.000000
195.209686 -296.195313 14.141516 1.000000
195.209686 -296.195313 11.898117 1.000000
195.209702 -296.195313 9.676405 1.000000
195.209686 -296.195313 7.471359 1.000000
195.209702 -296.195282 5.278122 1.000000
195.209702 -296.195282 3.091927 1.000000
195.209717 -296.195282 0.908073 1.000000
173.149658 -309.986145 -0.000038 0.541161
159.311417 -318.637115 -0.000022 0.538247
153.370224 -322.351257 -0.000016 0.555825
150.061310 -324.419800 -0.000012 0.530922
147.948853 -325.740417 -0.000010 0.529717
146.480621 -326.658295 -0.000008 0.545953
145.398895 -327.334534 -0.000008 0.534463
nan nan nan 0.000000
nan nan nan 0.000000
195.515869 -296.553864 14.154467 1.000000
195.515869 -296.553864 11.908675 1.000000
195.515869 -296.553864 9.684592 1.000000
195.515869 -296.553864 7.477195 1.000000
195.515884 -296.553864 5.281619 1.000000
195.515884 -296.553864 3.093091 1.000000
195.515884 -296.553864 0.906909 1.000000
173.299469 -310.227661 -0.000038 0.545312
159.401184 -318.781799 -0.000022 0.534096
153.434204 -322.454376 -0.000016 0.556878
150.110931 -324.499817 -0.000013 0.546136
147.989304 -325.805634 -0.000010 0.545510
146.514694 -326.713226 -0.000008 0.547921
145.428284 -327.381897 -0.000008 0.527443
nan nan nan 0.000000
nan nan nan 0.000000
195.822723 -296.913208 14.168040 1.000000
195.822723 -296.913208 11.919745 1.000000
195.822739 -296.913208 9.693174 1.000000
195.822723 -296.913208 7.483312 1.000000
195.822739 -296.913208 5.285284 1.000000
195.822754 -296.913208 3.094312 1.000000
195.822754 -296.913208 0.905688 1.000000
173.447601 -310.470245 -0.000038 0.538537
159.489929 -318.927155 -0.000022 0.539025
153.497467 -322.557983 -0.000016 0.548424
150.159988 -324.580139 -0.000012 0.547509
148.029297 -325.871124 -0.000010 0.544182
146.548386 -326.768402 -0.000009 0.566552
145.457321 -327.429474 -0.000008 0.496956
nan nan nan 0.000000
nan nan nan 0.000000
196.130280 -297.273376 14.182240 1.000000
196.130280 -297.273376 11.931320 1.000000
196.130280 -297.273346 9.702154 1.000000
196.130280 -297.273376 7.489709 1.000000
196.130280 -297.273346 5.289115 1.000000
196.130295 -297.273346 3.095590 1.000000
196.130295 -297.273346 0.904410 1.000000
173.594025 -310.713837 -0.000037 0.541650
159.577667 -319.073090 -0.000022 0.534096
153.559998 -322.661987 -0.000016 0.520088
150.208481 -324.660797 -0.000013 0.554864
148.068832 -325.936890 -0.000010 0.515251
146.581696 -326.823792 -0.000009 0.533745
145.486053 -327.477234 -0.000008 0.522087
nan nan nan 0.000000
nan nan nan 0.000000
196.438568 -297.634399 14.197067 1.000000
196.438568 -297.634399 11.943407 1.000000
196.438568 -297.634399 9.711529 1.000000
196.438568 -297.634399 7.496391 1.000000
196.438568 -297.634399 5.293119 1.000000
196.438568 -297.634399 3.096922 1.000000
196.438583 -297.634369 0.903077 1.000000
173.738770 -310.958435 -0.000038 0.543572
159.664383 -319.219635 -0.000022 0.533715
153.621796 -322.766449 -0.000016 0.546822
150.256409 -324.741821 -0.000013 0.543832
148.107910 -326.002930 -0.000010 0.532647
146.614624 -326.879425 -0.000009 0.532082
145.514435 -327.525208 -0.000008 0.555550
nan nan nan 0.000000
nan nan nan 0.000000
196.747620 -297.996307 14.212526 1.000000
196.747620 -297.996307 11.956009 1.000000
196.747620 -297.996307 9.721300 1.000000
196.747620 -297.996307 7.503359 1.000000
196.747620 -297.996307 5.297296 1.000000
196.747620 -297.996307 3.098314 1.000000
196.747620 -297.996307 0.901688 1.000000
173.881775 -311.204041 -0.000037 0.540764
159.750076 -319.366791 -0.000023 0.550347
153.682877 -322.871338 -0.000016 0.552682
150.303772 -324.823151 -0.000013 0.524254
148.146515 -326.069244 -0.000011 0.516396
146.647141 -326.935303 -0.000009 0.557504
145.542480 -327.573395 -0.000008 0.571252
nan nan nan 0.000000
nan nan nan 0.000000
197.057465 -298.359161 14.228621 1.000000
197.057465 -298.359161 11.969131 1.000000
197.057480 -298.359161 9.731476 1.000000
197.057465 -298.359161 7.510611 1.000000
197.057480 -298.359161 5.301640 1.000000
197.057480 -298.359161 3.099761 1.000000
197.057480 -298.359161 0.900239 1.000000
174.023087 -311.450653 -0.000038 0.538415
159.834732 -319.514557 -0.000022 0.543923
153.743210 -322.976654 -0.000017 0.547784
150.350571 -324.904846 -0.000013 0.544305
148.184677 -326.135834 -0.000011 0.528908
146.679291 -326.991394 -0.000009 0.565576
145.570190 -327.621735 -0.000008 0.535149
nan nan nan 0.000000
nan nan nan 0.000000
197.368149 -298.722992 14.245355 1.000000
197.368164 -298.722992 11.982775 1.000000
197.368164 -298.722992 9.742058 1.000000
197.368164 -298.722992 7.518153 1.000000
197.368164 -298.722992 5.306159 1.000000
197.368164 -298.722992 3.101265 1.000000
197.368179 -298.722992 0.898735 1.000000
174.162659 -311.698242 -0.000037 0.544717
159.918350 -319.662903 -0.000023 0.538949
153.802826 -323.082367 -0.000017 0.549569
150.396805 -324.986847 -0.000013 0.522652
148.222351 -326.202667 -0.000011 0.540658
146.711029 -327.047729 -0.000009 0.521004
145.597565 -327.670319 -0.000008 0.532311
nan nan nan 0.000000
nan nan nan 0.000000
197.679703 -299.087830 14.262734 1.000000
197.679688 -299.087860 11.996939 1.000000
197.679718 -299.087830 9.753046 1.000000
197.679703 -299.087830 7.525985 1.000000
197.679703 -299.087830 5.310848 1.000000
197.679703 -299.087830 3.102828 1.000000
197.679718 -299.087830 0.897172 1.000000
174.300491 -311.946808 -0.000037 0.541634
160.000946 -319.811829 -0.000023 0.547448
153.861679 -323.188507 -0.000016 0.551080
150.442444 -325.069153 -0.000013 0.551965
148.259567 -326.269775 -0.000011 0.559380
146.742386 -327.104248 -0.000009 0.527794
145.624603 -327.719055 -0.000008 0.523583
nan nan nan 0.000000
nan nan nan 0.000000
197.992157 -299.453735 14.280765 1.000000
197.992157 -299.453735 12.011637 1.000000
197.992157 -299.453735 9.764442 1.000000
197.992157 -299.453735 7.534109 1.000000
197.992157 -299.453735 5.315716 1.000000
197.992172 -299.453735 3.104449 1.000000
197.992172 -299.453735 0.895549 1.000000
174.436615 -312.196320 -0.000037 0.541054
160.082489 -319.961304 -0.000023 0.526894
153.919800 -323.295074 -0.000016 0.337301
150.487473 -325.151825 -0.000003 0.338506
148.296310 -326.337128 -0.000010 0.518212
146.773346 -327.161011 -0.000009 0.542153
145.651291 -327.767975 -0.000008 0.519799
nan nan nan 0.000000
nan nan nan 0.000000
198.305542 -299.820740 14.299443 1.000000
198.305542 -299.820740 12.026869 1.000000
198.305542 -299.820740 9.776253 1.000000
198.305557 -299.820740 7.542528 1.000000
198.305557 -299.820740 5.320760 1.000000
198.305557 -299.820740 3.106128 1.000000
198.305557 -299.820740 0.893870 1.000000
174.570953 -312.446777 -0.000038 0.546181
160.162994 -320.111359 -0.000022 0.540291
153.900299 -323.442932 0.010002 1.000000
150.531967 -325.234772 -0.000003 0.338903
148.332596 -326.404755 -0.000010 0.542763
146.803909 -327.217957 -0.000009 0.510414
145.677643 -327.817108 -0.000008 0.565118
nan nan nan 0.000000
nan nan nan 0.000000
198.619904 -300.188873 14.318784 1.000000
198.619888 -300.188873 12.042631 1.000000
198.619904 -300.188873 9.788481 1.000000
198.619904 -300.188873 7.551243 1.000000
198.619904 -300.188873 5.325982 1.000000
198.619904 -300.188873 3.107870 1.000000
198.619904 -300.188873 0.892130 1.000000
174.703583 -312.698181 -0.000038 0.542031
160.242432 -320.261993 -0.000022 0.538827
153.956680 -323.549713 0.009997 1.000000
150.516052 -325.349304 0.010013 1.000000
148.368393 -326.472626 -0.000010 0.550134
146.834076 -327.275146 -0.000009 0.514382
145.703659 -327.866425 -0.000008 0.540948
nan nan nan 0.000000
nan nan nan 0.000000
198.935242 -300.558197 14.338788 1.000000
198.935257 -300.558167 12.058940 1.000000
198.935257 -300.558167 9.801128 1.000000
198.935257 -300.558167 7.560256 1.000000
198.935272 -300.558167 5.331383 1.000000
198.935272 -300.558167 3.109667 1.000000
198.935272 -300.558167 0.890332 1.000000
