# This PCD file was generated using the MATLAB® pcwrite function
# from Computer Vision Toolbox®.
# .PCD v.7 - Point Cloud Data file format
VERSION .7
FIELDS x y z intensity
SIZE 4 4 4 4
TYPE F F F F
COUNT 1 1 1 1
WIDTH 1193
HEIGHT 1
VIEWPOINT 0 0 0 1 0 0 0
POINTS 1193
DATA ascii
344.249573 -249.892853 1.493250 1.000000
344.249573 -249.892853 1.346585 1.000000
344.249573 -249.892853 1.198489 1.000000
344.249573 -249.892853 1.048619 1.000000
344.249573 -249.892853 0.896614 1.000000
344.292511 -249.884430 3.095566 1.000000
344.292511 -249.884430 2.944638 1.000000
344.292511 -249.884430 2.795830 1.000000
344.292511 -249.884430 2.648784 1.000000
344.292511 -249.884430 2.503159 1.000000
344.292511 -249.884430 2.358627 1.000000
344.292511 -249.884430 2.214868 1.000000
344.292511 -249.884430 2.071572 1.000000
344.292511 -249.884430 1.928428 1.000000
344.292511 -249.884430 1.785132 1.000000
344.292511 -249.884430 1.641373 1.000000
344.292511 -249.884430 1.496841 1.000000
344.292511 -249.884430 1.351216 1.000000
344.292511 -249.884430 1.204170 1.000000
344.292511 -249.884430 1.055361 1.000000
344.292511 -249.884430 0.904433 1.000000
344.334839 -249.876129 3.087909 1.000000
344.334839 -249.876129 2.938036 1.000000
344.334839 -249.876129 2.790268 1.000000
344.334839 -249.876129 2.644249 1.000000
344.334839 -249.876129 2.499642 1.000000
344.334839 -249.876129 2.356120 1.000000
344.334839 -249.876129 2.213367 1.000000
344.334839 -249.876129 2.071071 1.000000
344.334839 -249.876129 1.928929 1.000000
344.334839 -249.876129 1.786633 1.000000
344.334839 -249.876129 1.643880 1.000000
344.334839 -249.876129 1.500358 1.000000
344.334839 -249.876129 1.355751 1.000000
344.334839 -249.876129 1.209732 1.000000
344.334839 -249.876129 1.061964 1.000000
344.334839 -249.876129 0.912091 1.000000
344.376587 -249.867935 3.080410 1.000000
344.376587 -249.867935 2.931570 1.000000
344.376587 -249.867935 2.784820 1.000000
344.376587 -249.867935 2.639808 1.000000
344.376587 -249.867935 2.496198 1.000000
344.376587 -249.867935 2.353665 1.000000
344.376587 -249.867935 2.211896 1.000000
344.376587 -249.867935 2.070581 1.000000
344.376587 -249.867935 1.929418 1.000000
344.376587 -249.867935 1.788104 1.000000
344.376587 -249.867935 1.646335 1.000000
344.376587 -249.867935 1.503802 1.000000
344.376587 -249.867935 1.360192 1.000000
344.376587 -249.867935 1.215180 1.000000
344.376587 -249.867935 1.068430 1.000000
344.376587 -249.867935 0.919590 1.000000
344.417755 -249.859863 3.073066 1.000000
344.417755 -249.859863 2.925238 1.000000
344.417755 -249.859863 2.779485 1.000000
344.417755 -249.859863 2.635459 1.000000
344.417755 -249.859863 2.492825 1.000000
344.417755 -249.859863 2.351261 1.000000
344.417755 -249.859863 2.210455 1.000000
344.417755 -249.859863 2.070102 1.000000
344.417755 -249.859863 1.929898 1.000000
344.417755 -249.859863 1.789545 1.000000
344.417755 -249.859863 1.648739 1.000000
344.417755 -249.859863 1.507175 1.000000
344.417755 -249.859863 1.364541 1.000000
344.417755 -249.859863 1.220514 1.000000
344.417755 -249.859863 1.074762 1.000000
344.417755 -249.859863 0.926934 1.000000
344.458344 -249.851898 3.065873 1.000000
344.458344 -249.851898 2.919036 1.000000
344.458374 -249.851898 2.774260 1.000000
344.458374 -249.851898 2.631200 1.000000
344.458374 -249.851898 2.489522 1.000000
344.458344 -249.851898 2.348907 1.000000
344.458344 -249.851898 2.209045 1.000000
344.458344 -249.851898 2.069632 1.000000
344.458344 -249.851898 1.930368 1.000000
344.458344 -249.851898 1.790955 1.000000
344.458344 -249.851898 1.651093 1.000000
344.458344 -249.851898 1.510478 1.000000
344.458344 -249.851898 1.368800 1.000000
344.458344 -249.851898 1.225739 1.000000
344.458344 -249.851898 1.080964 1.000000
344.458344 -249.851898 0.934127 1.000000
344.498444 -249.844040 3.058826 1.000000
344.498444 -249.844040 2.912960 1.000000
344.498444 -249.844040 2.769141 1.000000
344.498444 -249.844040 2.627027 1.000000
344.498444 -249.844040 2.486285 1.000000
344.498444 -249.844040 2.346600 1.000000
344.498444 -249.844040 2.207663 1.000000
344.498444 -249.844040 2.069171 1.000000
344.498444 -249.844040 1.930829 1.000000
344.498444 -249.844025 1.792337 1.000000
344.498444 -249.844040 1.653400 1.000000
344.498444 -249.844040 1.513715 1.000000
344.498444 -249.844025 1.372973 1.000000
344.498444 -249.844040 1.230858 1.000000
344.498444 -249.844025 1.087040 1.000000
344.498444 -249.844025 0.941174 1.000000
344.537994 -249.836273 3.051923 1.000000
344.537994 -249.836273 2.907008 1.000000
344.537994 -249.836273 2.764127 1.000000
344.537994 -249.836273 2.622939 1.000000
344.537994 -249.836273 2.483115 1.000000
344.537994 -249.836273 2.344340 1.000000
344.537994 -249.836273 2.206309 1.000000
344.537994 -249.836273 2.068720 1.000000
344.537994 -249.836273 1.931280 1.000000
344.537994 -249.836273 1.793691 1.000000
344.537994 -249.836273 1.655659 1.000000
344.537994 -249.836273 1.516885 1.000000
344.537994 -249.836273 1.377061 1.000000
344.537994 -249.836273 1.235872 1.000000
344.537994 -249.836273 1.092992 1.000000
344.537994 -249.836273 0.948076 1.000000
344.577026 -249.828613 3.045161 1.000000
344.577026 -249.828613 2.901177 1.000000
344.577026 -249.828613 2.759215 1.000000
344.577026 -249.828613 2.618934 1.000000
344.577026 -249.828613 2.480009 1.000000
344.577026 -249.828613 2.342127 1.000000
344.577026 -249.828613 2.204983 1.000000
344.577026 -249.828613 2.068279 1.000000
344.577026 -249.828613 1.931721 1.000000
344.577026 -249.828613 1.795017 1.000000
344.577026 -249.828613 1.657873 1.000000
344.577026 -249.828613 1.519991 1.000000
344.577026 -249.828613 1.381066 1.000000
344.577026 -249.828613 1.240785 1.000000
344.577026 -249.828613 1.098823 1.000000
344.577026 -249.828613 0.954839 1.000000
344.615570 -249.821060 3.038535 1.000000
344.615570 -249.821060 2.895463 1.000000
344.615570 -249.821060 2.754402 1.000000
344.615570 -249.821060 2.615010 1.000000
344.615570 -249.821060 2.476966 1.000000
344.615570 -249.821060 2.339958 1.000000
344.615570 -249.821060 2.203683 1.000000
344.615570 -249.821060 2.067846 1.000000
344.615570 -249.821060 1.932154 1.000000
344.615570 -249.821060 1.796317 1.000000
344.615570 -249.821060 1.660042 1.000000
344.615570 -249.821060 1.523034 1.000000
344.615570 -249.821060 1.384990 1.000000
344.615570 -249.821060 1.245598 1.000000
344.615570 -249.821060 1.104536 1.000000
344.615570 -249.821060 0.961465 1.000000
344.653625 -249.813583 3.032042 1.000000
344.653625 -249.813583 2.889866 1.000000
344.653625 -249.813583 2.749685 1.000000
344.653625 -249.813583 2.611165 1.000000
344.653625 -249.813583 2.473984 1.000000
344.653625 -249.813583 2.337832 1.000000
344.653625 -249.813583 2.202410 1.000000
344.653625 -249.813583 2.067422 1.000000
344.653625 -249.813583 1.932578 1.000000
344.653625 -249.813583 1.797590 1.000000
344.653625 -249.813583 1.662167 1.000000
344.653625 -249.813583 1.526016 1.000000
344.653625 -249.813583 1.388834 1.000000
344.653625 -249.813583 1.250314 1.000000
344.653625 -249.813583 1.110134 1.000000
344.653625 -249.813583 0.967958 1.000000
344.691223 -249.806213 3.025680 1.000000
344.691223 -249.806213 2.884380 1.000000
344.691223 -249.806213 2.745064 1.000000
344.691223 -249.806213 2.607398 1.000000
344.691223 -249.806213 2.471062 1.000000
344.691223 -249.806213 2.335750 1.000000
344.691223 -249.806213 2.201162 1.000000
344.691223 -249.806213 2.067006 1.000000
344.691223 -249.806213 1.932994 1.000000
344.691223 -249.806213 1.798838 1.000000
344.691223 -249.806213 1.664250 1.000000
344.691223 -249.806213 1.528938 1.000000
344.691223 -249.806213 1.392602 1.000000
344.691223 -249.806213 1.254936 1.000000
344.691223 -249.806213 1.115620 1.000000
344.691223 -249.806213 0.974320 1.000000
344.728363 -249.798935 3.019445 1.000000
344.728363 -249.798935 2.879004 1.000000
344.728363 -249.798935 2.740535 1.000000
344.728363 -249.798935 2.603705 1.000000
344.728363 -249.798935 2.468199 1.000000
344.728363 -249.798935 2.333709 1.000000
344.728363 -249.798935 2.199939 1.000000
344.728363 -249.798935 2.066599 1.000000
344.728363 -249.798935 1.933401 1.000000
344.728363 -249.798935 1.800061 1.000000
344.728363 -249.798935 1.666291 1.000000
344.728363 -249.798935 1.531801 1.000000
344.728363 -249.798935 1.396294 1.000000
344.728363 -249.798935 1.259465 1.000000
344.728363 -249.798935 1.120996 1.000000
344.728363 -249.798935 0.980555 1.000000
344.765045 -249.791733 3.013334 1.000000
344.765045 -249.791733 2.873735 1.000000
344.765045 -249.791733 2.736096 1.000000
344.765045 -249.791733 2.600087 1.000000
344.765045 -249.791733 2.465392 1.000000
344.765045 -249.791733 2.331708 1.000000
344.765045 -249.791733 2.198740 1.000000
344.765045 -249.791733 2.066200 1.000000
344.765045 -249.791733 1.933800 1.000000
344.765045 -249.791733 1.801259 1.000000
344.765045 -249.791733 1.668291 1.000000
344.765045 -249.791733 1.534608 1.000000
344.765045 -249.791733 1.399913 1.000000
344.765045 -249.791733 1.263904 1.000000
344.765045 -249.791733 1.126265 1.000000
344.765045 -249.791733 0.986665 1.000000
344.801300 -249.784622 3.007345 1.000000
344.801300 -249.784622 2.868571 1.000000
344.801300 -249.784622 2.731745 1.000000
344.801300 -249.784622 2.596540 1.000000
344.801300 -249.784622 2.462642 1.000000
344.801300 -249.784622 2.329748 1.000000
344.801300 -249.784622 2.197566 1.000000
344.801300 -249.784622 2.065808 1.000000
344.801300 -249.784622 1.934192 1.000000
344.801300 -249.784622 1.802434 1.000000
344.801300 -249.784622 1.670252 1.000000
344.801300 -249.784622 1.537358 1.000000
344.801300 -249.784622 1.403460 1.000000
344.801300 -249.784622 1.268254 1.000000
344.801300 -249.784622 1.131429 1.000000
344.801300 -249.784622 0.992654 1.000000
344.837128 -249.777603 3.001475 1.000000
344.837128 -249.777588 2.863510 1.000000
344.837128 -249.777603 2.727481 1.000000
344.837128 -249.777603 2.593064 1.000000
344.837128 -249.777603 2.459946 1.000000
344.837128 -249.777588 2.327826 1.000000
344.837128 -249.777588 2.196415 1.000000
344.837128 -249.777603 2.065425 1.000000
344.837128 -249.777603 1.934575 1.000000
344.837128 -249.777588 1.803585 1.000000
344.837128 -249.777588 1.672173 1.000000
344.837128 -249.777588 1.540054 1.000000
344.837128 -249.777588 1.406936 1.000000
344.837128 -249.777588 1.272518 1.000000
344.837128 -249.777588 1.136490 1.000000
344.837128 -249.777588 0.998525 1.000000
344.872528 -249.770645 2.995722 1.000000
344.872528 -249.770645 2.858549 1.000000
344.872528 -249.770645 2.723302 1.000000
344.872528 -249.770645 2.589657 1.000000
344.872528 -249.770645 2.457304 1.000000
344.872528 -249.770645 2.325943 1.000000
344.872528 -249.770645 2.195286 1.000000
344.872528 -249.770645 2.065049 1.000000
344.872528 -249.770645 1.934951 1.000000
344.872528 -249.770645 1.804714 1.000000
344.872528 -249.770645 1.674057 1.000000
344.872528 -249.770645 1.542696 1.000000
344.872528 -249.770645 1.410343 1.000000
344.872528 -249.770645 1.276698 1.000000
344.872528 -249.770645 1.141451 1.000000
344.872528 -249.770645 1.004278 1.000000
344.907532 -249.763779 2.990082 1.000000
344.907532 -249.763779 2.853686 1.000000
344.907532 -249.763779 2.719205 1.000000
344.907532 -249.763779 2.586317 1.000000
344.907532 -249.763779 2.454713 1.000000
344.907532 -249.763779 2.324097 1.000000
344.907532 -249.763779 2.194180 1.000000
344.907532 -249.763779 2.064680 1.000000
344.907532 -249.763779 1.935320 1.000000
344.907532 -249.763779 1.805820 1.000000
344.907532 -249.763779 1.675903 1.000000
344.907532 -249.763779 1.545287 1.000000
344.907532 -249.763779 1.413683 1.000000
344.907532 -249.763779 1.280795 1.000000
344.907532 -249.763779 1.146314 1.000000
344.907532 -249.763779 1.009918 1.000000
344.942169 -249.756989 2.984553 1.000000
344.942169 -249.756989 2.848918 1.000000
344.942169 -249.756989 2.715189 1.000000
344.942169 -249.756989 2.583043 1.000000
344.942169 -249.756989 2.452174 1.000000
344.942169 -249.756989 2.322287 1.000000
344.942169 -249.756989 2.193096 1.000000
344.942169 -249.756989 2.064319 1.000000
344.942169 -249.756989 1.935681 1.000000
344.942139 -249.756989 1.806904 1.000000
344.942139 -249.756989 1.677713 1.000000
344.942169 -249.756989 1.547826 1.000000
344.942139 -249.756989 1.416957 1.000000
344.942139 -249.756989 1.284811 1.000000
344.942169 -249.756989 1.151081 1.000000
344.942139 -249.756989 1.015447 1.000000
344.976379 -249.750275 2.979133 1.000000
344.976379 -249.750275 2.844246 1.000000
344.976379 -249.750275 2.711252 1.000000
344.976379 -249.750275 2.579833 1.000000
344.976379 -249.750275 2.449685 1.000000
344.976379 -249.750275 2.320513 1.000000
344.976379 -249.750275 2.192033 1.000000
344.976379 -249.750275 2.063965 1.000000
344.976379 -249.750275 1.936035 1.000000
344.976379 -249.750275 1.807967 1.000000
344.976379 -249.750275 1.679487 1.000000
344.976379 -249.750275 1.550315 1.000000
344.976379 -249.750275 1.420166 1.000000
344.976379 -249.750275 1.288748 1.000000
344.976379 -249.750275 1.155754 1.000000
344.976379 -249.750275 1.020867 1.000000
nan nan nan 0.000000
nan nan nan 0.000000
375.797180 -276.665558 8.734203 1.000000
375.797180 -276.665558 7.489921 1.000000
375.797180 -276.665558 6.257662 1.000000
375.797180 -276.665558 5.034649 1.000000
375.797180 -276.665558 3.818186 1.000000
375.797180 -276.665558 2.605630 1.000000
375.797180 -276.665558 1.394371 1.000000
375.797180 -276.665558 0.181813 1.000000
366.298431 -268.359283 -0.000013 0.532525
361.024078 -263.747070 -0.000014 0.544839
358.086517 -261.178314 -0.000010 0.538827
356.211151 -259.538361 -0.000006 0.512642
354.907684 -258.398529 -0.000004 0.538231
353.947327 -257.558746 0.000010 0.332372
nan nan nan 0.000000
nan nan nan 0.000000
375.478790 -276.728516 8.698298 1.000000
375.478790 -276.728516 7.460649 1.000000
375.478790 -276.728516 6.234960 1.000000
375.478790 -276.728516 5.018469 1.000000
375.478790 -276.728516 3.808492 1.000000
375.478790 -276.728516 2.602400 1.000000
375.478790 -276.728516 1.397600 1.000000
375.478790 -276.728516 0.191508 1.000000
366.185913 -268.487091 -0.000014 0.540490
360.943878 -263.838165 -0.000015 0.530510
358.024292 -261.248932 -0.000010 0.523812
356.160431 -259.595947 -0.000006 0.537942
354.864960 -258.447052 -0.000004 0.517143
353.910522 -257.600616 -0.000002 0.543313
nan nan nan 0.000000
nan nan nan 0.000000
375.163727 -276.790833 8.663095 1.000000
375.163727 -276.790833 7.431949 1.000000
375.163727 -276.790833 6.212704 1.000000
375.163727 -276.790833 5.002605 1.000000
375.163727 -276.790833 3.798987 1.000000
375.163757 -276.790833 2.599234 1.000000
375.163757 -276.790833 1.400766 1.000000
375.163757 -276.790833 0.201012 1.000000
366.072479 -268.614105 -0.000014 0.573434
360.863007 -263.928680 -0.000015 0.549065
357.961609 -261.319153 -0.000010 0.524910
356.109314 -259.653168 -0.000006 0.589364
354.821899 -258.495270 -0.000004 0.517968
353.873383 -257.642181 -0.000002 0.505089
nan nan nan 0.000000
nan nan nan 0.000000
374.851990 -276.852478 8.628580 1.000000
374.851990 -276.852478 7.403812 1.000000
374.851990 -276.852478 6.190883 1.000000
374.851990 -276.852478 4.987052 1.000000
374.851990 -276.852478 3.789669 1.000000
374.851990 -276.852478 2.596130 1.000000
374.851990 -276.852478 1.403870 1.000000
374.851990 -276.852478 0.210331 1.000000
365.958160 -268.740295 -0.000014 0.535897
360.781555 -264.018646 -0.000015 0.557000
357.898407 -261.388916 -0.000010 0.555886
356.057800 -259.710052 -0.000006 0.568399
354.778503 -258.543182 -0.000004 0.571771
353.835968 -257.683502 -0.000002 0.555200
nan nan nan 0.000000
nan nan nan 0.000000
374.543427 -276.913513 8.594744 1.000000
374.543427 -276.913513 7.376227 1.000000
374.543427 -276.913513 6.169488 1.000000
374.543427 -276.913513 4.971804 1.000000
374.543427 -276.913513 3.780533 1.000000
374.543427 -276.913513 2.593088 1.000000
374.543427 -276.913513 1.406913 1.000000
374.543427 -276.913513 0.219467 1.000000
365.842957 -268.865723 -0.000014 0.553414
360.699432 -264.108032 -0.000015 0.528206
357.834747 -261.458221 -0.000010 0.576074
356.005890 -259.766571 -0.000006 0.601312
354.734772 -258.590790 -0.000004 0.541604
353.798248 -257.724548 -0.000002 0.542855
nan nan nan 0.000000
nan nan nan 0.000000
374.237976 -276.973907 8.561565 1.000000
374.237976 -276.973938 7.349182 1.000000
374.237976 -276.973938 6.148512 1.000000
374.237976 -276.973938 4.956853 1.000000
374.237976 -276.973938 3.771575 1.000000
374.237976 -276.973938 2.590104 1.000000
374.237976 -276.973938 1.409896 1.000000
374.237976 -276.973938 0.228424 1.000000
365.726898 -268.990326 -0.000014 0.548562
360.616730 -264.196869 -0.000015 0.537957
357.770569 -261.527100 -0.000010 0.541024
355.953583 -259.822723 -0.000007 0.511513
354.690704 -258.638092 -0.000004 0.529503
353.760254 -257.765320 -0.000002 0.526223
nan nan nan 0.000000
nan nan nan 0.000000
373.935577 -277.033722 8.529039 1.000000
373.935577 -277.033722 7.322664 1.000000
373.935577 -277.033722 6.127947 1.000000
373.935577 -277.033722 4.942195 1.000000
373.935577 -277.033722 3.762793 1.000000
373.935577 -277.033722 2.587178 1.000000
373.935577 -277.033722 1.412822 1.000000
373.935577 -277.033722 0.237206 1.000000
365.609955 -269.114105 -0.000014 0.528984
360.533386 -264.285095 -0.000015 0.546334
357.705933 -261.595551 -0.000010 0.531945
355.900879 -259.878510 -0.000006 0.567208
354.646301 -258.685089 -0.000004 0.546868
353.721985 -257.805847 -0.000002 0.591287
nan nan nan 0.000000
418.028625 -319.914948 23.033617 1.000000
373.636139 -277.092957 8.497149 1.000000
373.636139 -277.092957 7.296665 1.000000
373.636139 -277.092957 6.107785 1.000000
373.636139 -277.092957 4.927825 1.000000
373.636139 -277.092957 3.754183 1.000000
373.636139 -277.092957 2.584310 1.000000
373.636139 -277.092957 1.415690 1.000000
373.636139 -277.092957 0.245817 1.000000
365.492157 -269.237091 -0.000013 0.536492
360.449402 -264.372742 -0.000015 0.507912
357.640839 -261.663513 -0.000010 0.532540
355.847809 -259.933929 -0.000007 0.556298
354.601593 -258.731781 -0.000005 0.547097
353.683441 -257.846100 -0.000002 0.539025
417.208923 -320.064209 26.272982 1.000000
417.208923 -320.064209 22.929087 1.000000
373.339600 -277.151581 8.465879 1.000000
373.339600 -277.151581 7.271174 1.000000
373.339600 -277.151581 6.088016 1.000000
373.339600 -277.151581 4.913733 1.000000
373.339600 -277.151581 3.745741 1.000000
373.339600 -277.151581 2.581498 1.000000
373.339600 -277.151581 1.418502 1.000000
373.339600 -277.151581 0.254259 1.000000
365.373505 -269.359222 -0.000013 0.541192
360.364838 -264.459808 -0.000015 0.564095
357.575256 -261.731049 -0.000010 0.534615
355.794342 -259.988953 -0.000007 0.549691
354.556549 -258.778168 -0.000005 0.570550
353.644592 -257.886108 -0.000003 0.559106
416.397278 -320.211975 26.154121 1.000000
416.397278 -320.211975 22.826591 1.000000
373.045898 -277.209686 8.435223 1.000000
373.045898 -277.209686 7.246183 1.000000
373.045898 -277.209686 6.068634 1.000000
373.045898 -277.209686 4.899919 1.000000
373.045898 -277.209686 3.737463 1.000000
373.045898 -277.209686 2.578741 1.000000
373.045898 -277.209686 1.421259 1.000000
373.045898 -277.209686 0.262536 1.000000
365.254028 -269.480560 -0.000013 0.538186
360.279663 -264.546265 -0.000015 0.548989
357.509186 -261.798096 -0.000011 0.544961
355.740479 -260.043640 -0.000007 0.541314
354.511169 -258.824219 -0.000005 0.501427
353.605469 -257.925812 -0.000003 0.558129
415.631317 -320.396332 26.051014 1.000000
415.631317 -320.396332 22.737694 1.000000
372.754944 -277.267212 8.405169 1.000000
372.754944 -277.267212 7.221681 1.000000
372.754944 -277.267212 6.049631 1.000000
372.754944 -277.267212 4.886375 1.000000
372.754944 -277.267212 3.729349 1.000000
372.754944 -277.267212 2.576037 1.000000
372.754944 -277.267212 1.423962 1.000000
372.754944 -277.267212 0.270650 1.000000
365.133667 -269.601013 -0.000014 0.543969
360.193909 -264.632141 -0.000015 0.554025
357.442688 -261.864685 -0.000010 0.576333
355.686249 -260.097931 -0.000007 0.505867
354.465485 -258.869965 -0.000005 0.535973
353.566071 -257.965240 -0.000003 0.479988
415.844574 -321.571411 26.298010 1.000000
415.844604 -321.571411 22.950666 1.000000
372.466675 -277.324219 8.375700 1.000000
372.466675 -277.324219 7.197658 1.000000
372.466675 -277.324219 6.031000 1.000000
372.466675 -277.324219 4.873096 1.000000
372.466675 -277.324219 3.721393 1.000000
372.466675 -277.324219 2.573387 1.000000
372.466675 -277.324219 1.426612 1.000000
372.466675 -277.324219 0.278607 1.000000
365.012482 -269.720673 -0.000014 0.550683
360.107513 -264.717407 -0.000015 0.564248
357.375702 -261.930817 -0.000010 0.573129
355.631653 -260.151825 -0.000007 0.554330
354.419495 -258.915375 -0.000005 0.521828
353.526398 -258.004395 -0.000003 0.558923
nan nan nan 0.000000
nan nan nan 0.000000
372.181061 -277.380737 8.346813 1.000000
372.181061 -277.380707 7.174106 1.000000
372.181061 -277.380707 6.012734 1.000000
372.181061 -277.380737 4.860078 1.000000
372.181061 -277.380737 3.713593 1.000000
372.181061 -277.380707 2.570789 1.000000
372.181061 -277.380737 1.429211 1.000000
372.181061 -277.380737 0.286406 1.000000
364.890472 -269.839447 -0.000013 0.540856
360.020569 -264.802063 -0.000015 0.508186
357.308258 -261.996490 -0.000011 0.535256
355.576660 -260.205353 -0.000008 0.548486
354.373169 -258.960480 -0.000005 0.532555
353.486481 -258.043274 -0.000003 0.475685
nan nan nan 0.000000
nan nan nan 0.000000
371.897980 -277.436707 8.318492 1.000000
371.897980 -277.436707 7.151017 1.000000
371.897980 -277.436707 5.994829 1.000000
371.897980 -277.436707 4.847316 1.000000
371.897980 -277.436707 3.705946 1.000000
371.897980 -277.436707 2.568243 1.000000
371.897980 -277.436707 1.431757 1.000000
371.897980 -277.436707 0.294053 1.000000
364.767639 -269.957367 -0.000014 0.548379
359.933014 -264.886108 -0.000015 0.520958
357.240356 -262.061676 -0.000011 0.540490
355.521301 -260.258514 -0.000007 0.554131
354.326538 -259.005249 -0.000005 0.553857
353.446259 -258.081879 -0.000003 0.526635
nan nan nan 0.000000
nan nan nan 0.000000
371.617401 -277.492188 8.290724 1.000000
371.617401 -277.492188 7.128384 1.000000
371.617401 -277.492188 5.977275 1.000000
371.617401 -277.492188 4.834804 1.000000
371.617401 -277.492188 3.698450 1.000000
371.617401 -277.492188 2.565745 1.000000
371.617401 -277.492188 1.434254 1.000000
371.617401 -277.492188 0.301549 1.000000
364.643982 -270.074432 -0.000014 0.543053
359.844879 -264.969574 -0.000016 0.567178
357.171997 -262.126373 -0.000011 0.518013
355.465576 -260.311249 -0.000008 0.531487
354.279572 -259.049683 -0.000005 0.535393
353.405792 -258.120209 -0.000003 0.601053
nan nan nan 0.000000
nan nan nan 0.000000
371.339294 -277.547211 8.263506 1.000000
371.339294 -277.547180 7.106194 1.000000
371.339294 -277.547211 5.960066 1.000000
371.339294 -277.547211 4.822538 1.000000
371.339294 -277.547211 3.691102 1.000000
371.339294 -277.547211 2.563298 1.000000
371.339294 -277.547211 1.436702 1.000000
371.339294 -277.547211 0.308898 1.000000
364.519501 -270.190643 -0.000014 0.530358
359.756134 -265.052399 -0.000015 0.542916
357.103180 -262.190613 -0.000011 0.515343
355.409485 -260.363617 -0.000008 0.553307
354.232330 -259.093811 -0.000005 0.555047
353.365021 -258.158264 -0.000003 0.508431
nan nan nan 0.000000
nan nan nan 0.000000
371.063538 -277.601746 8.236824 1.000000
371.063538 -277.601746 7.084442 1.000000
371.063538 -277.601746 5.943197 1.000000
371.063538 -277.601746 4.810514 1.000000
371.063538 -277.601746 3.683897 1.000000
371.063538 -277.601746 2.560899 1.000000
371.063538 -277.601746 1.439101 1.000000
371.063538 -277.601746 0.316102 1.000000
364.394226 -270.305969 -0.000014 0.525185
359.666840 -265.134583 -0.000016 0.518593
357.033936 -262.254364 -0.000011 0.536263
355.353027 -260.415588 -0.000008 0.551934
354.184753 -259.137573 -0.000005 0.550118
353.324036 -258.196014 -0.000004 0.526070
nan nan nan 0.000000
nan nan nan 0.000000
370.790131 -277.655792 8.210670 1.000000
370.790131 -277.655792 7.063120 1.000000
370.790131 -277.655823 5.926661 1.000000
370.790131 -277.655792 4.798729 1.000000
370.790131 -277.655823 3.676837 1.000000
370.790131 -277.655823 2.558546 1.000000
370.790131 -277.655823 1.441453 1.000000
370.790131 -277.655823 0.323163 1.000000
364.268127 -270.420441 -0.000014 0.540536
359.576996 -265.216187 -0.000016 0.545159
356.964233 -262.317627 -0.000011 0.522484
355.296234 -260.467163 -0.000008 0.533776
354.136902 -259.181030 -0.000006 0.558206
353.282745 -258.233459 -0.000003 0.487022
nan nan nan 0.000000
nan nan nan 0.000000
370.518982 -277.709442 8.185038 1.000000
370.518982 -277.709412 7.042222 1.000000
370.518982 -277.709412 5.910454 1.000000
370.518982 -277.709442 4.787177 1.000000
370.518982 -277.709442 3.669915 1.000000
370.518982 -277.709442 2.556241 1.000000
370.518982 -277.709442 1.443759 1.000000
370.518982 -277.709442 0.330085 1.000000
364.141235 -270.533997 -0.000014 0.541985
359.486542 -265.297119 -0.000016 0.518608
356.894104 -262.380402 -0.000011 0.566339
355.239044 -260.518341 -0.000008 0.538109
354.088715 -259.224152 -0.000005 0.550774
353.241211 -258.270660 -0.000003 0.497230
nan nan nan 0.000000
nan nan nan 0.000000
370.250031 -277.762604 8.159910 1.000000
370.250031 -277.762604 7.021739 1.000000
370.250031 -277.762634 5.894568 1.000000
370.250031 -277.762634 4.775855 1.000000
370.250031 -277.762634 3.663131 1.000000
370.250031 -277.762634 2.553982 1.000000
370.250031 -277.762634 1.446019 1.000000
370.250031 -277.762634 0.336868 1.000000
364.013580 -270.646698 -0.000014 0.543786
359.395538 -265.377441 -0.000015 0.542473
356.823517 -262.442719 -0.000012 0.518624
355.181519 -260.569122 -0.000008 0.544060
354.040253 -259.266937 -0.000005 0.529366
353.199432 -258.307526 -0.000003 0.539895
nan nan nan 0.000000
nan nan nan 0.000000
369.983276 -277.815369 8.135286 1.000000
369.983276 -277.815369 7.001666 1.000000
369.983276 -277.815369 5.878999 1.000000
369.983276 -277.815369 4.764759 1.000000
369.983276 -277.815369 3.656483 1.000000
369.983276 -277.815369 2.551766 1.000000
369.983276 -277.815369 1.448233 1.000000
369.983276 -277.815369 0.343516 1.000000
363.885132 -270.758484 -0.000014 0.533440
359.303986 -265.457123 -0.000016 0.539712
356.752533 -262.504486 -0.000012 0.564782
355.123627 -260.619507 -0.000008 0.518364
353.991486 -259.309387 -0.000005 0.564813
353.157379 -258.344116 -0.000004 0.476524
nan nan nan 0.000000
nan nan nan 0.000000
369.718597 -277.867706 8.111156 1.000000
369.718597 -277.867706 6.981992 1.000000
369.718597 -277.867706 5.863743 1.000000
369.718597 -277.867706 4.753884 1.000000
369.718597 -277.867706 3.649967 1.000000
369.718597 -277.867737 2.549597 1.000000
369.718597 -277.867737 1.450403 1.000000
369.718628 -277.867706 0.350032 1.000000
363.755890 -270.869385 -0.000014 0.538048
359.211884 -265.536163 -0.000016 0.518898
356.681091 -262.565796 -0.000012 0.546380
355.065399 -260.669495 -0.000008 0.537133
353.942413 -259.351471 -0.000006 0.572030
353.115082 -258.380432 -0.000004 0.544503
nan nan nan 0.000000
nan nan nan 0.000000
369.456024 -277.919647 8.087507 1.000000
369.456024 -277.919647 6.962716 1.000000
369.456024 -277.919647 5.848793 1.000000
369.456024 -277.919647 4.743228 1.000000
369.456024 -277.919647 3.643583 1.000000
369.456024 -277.919647 2.547470 1.000000
369.456024 -277.919647 1.452530 1.000000
369.456024 -277.919647 0.356416 1.000000
363.625885 -270.979340 -0.000013 0.534340
359.119232 -265.614532 -0.000016 0.544717
356.609222 -262.626587 -0.000012 0.540719
355.006805 -260.719055 -0.000008 0.548821
353.893066 -259.393219 -0.000006 0.519982
353.072510 -258.416443 -0.000004 0.551568
nan nan nan 0.000000
nan nan nan 0.000000
369.195435 -277.971191 8.064339 1.000000
369.195435 -277.971191 6.943826 1.000000
369.195435 -277.971191 5.834144 1.000000
369.195435 -277.971191 4.732787 1.000000
369.195435 -277.971191 3.637328 1.000000
369.195435 -277.971191 2.545386 1.000000
369.195435 -277.971191 1.454614 1.000000
369.195435 -277.971191 0.362672 1.000000
363.495117 -271.088409 -0.000014 0.548119
359.026031 -265.692291 -0.000016 0.542779
356.536926 -262.686890 -0.000012 0.540383
354.947876 -260.768188 -0.000008 0.523201
353.843414 -259.434631 -0.000006 0.492546
353.029724 -258.452148 -0.000004 0.523415
nan nan nan 0.000000
nan nan nan 0.000000
368.936798 -278.022339 8.041637 1.000000
368.936798 -278.022339 6.925320 1.000000
368.936798 -278.022339 5.819792 1.000000
368.936798 -278.022339 4.722556 1.000000
368.936798 -278.022339 3.631198 1.000000
368.936798 -278.022339 2.543344 1.000000
368.936798 -278.022339 1.456656 1.000000
368.936798 -278.022339 0.368801 1.000000
363.363586 -271.196594 -0.000014 0.541741
358.932281 -265.769379 -0.000017 0.530953
356.464233 -262.746674 -0.000012 0.565637
354.888611 -260.816925 -0.000009 0.497612
353.793488 -259.475708 -0.000006 0.569757
352.986664 -258.487549 -0.000004 0.515938
nan nan nan 0.000000
nan nan nan 0.000000
368.680115 -278.073090 8.019399 1.000000
368.680115 -278.073090 6.907189 1.000000
368.680115 -278.073120 5.805731 1.000000
368.680115 -278.073120 4.712535 1.000000
368.680115 -278.073120 3.625194 1.000000
368.680115 -278.073120 2.541344 1.000000
368.680115 -278.073120 1.458655 1.000000
368.680115 -278.073120 0.374805 1.000000
363.231323 -271.303833 -0.000013 0.530434
358.837982 -265.845825 -0.000017 0.532891
356.391113 -262.805939 -0.000013 0.542458
354.829010 -260.865265 -0.000009 0.549645
353.743286 -259.516418 -0.000006 0.540825
352.943359 -258.522644 -0.000004 0.471412
nan nan nan 0.000000
nan nan nan 0.000000
368.425262 -278.123505 7.997614 1.000000
368.425262 -278.123505 6.889430 1.000000
368.425262 -278.123505 5.791957 1.000000
368.425262 -278.123505 4.702719 1.000000
368.425262 -278.123505 3.619312 1.000000
368.425262 -278.123505 2.539385 1.000000
368.425262 -278.123505 1.460615 1.000000
368.425262 -278.123505 0.380687 1.000000
363.098297 -271.410126 -0.000014 0.536400
358.743195 -265.921600 -0.000016 0.553323
356.317596 -262.864716 -0.000013 0.537285
354.769043 -260.913177 -0.000009 0.537362
353.692780 -259.556763 -0.000006 0.512947
352.899811 -258.557434 -0.000004 0.507424
nan nan nan 0.000000
nan nan nan 0.000000
368.172272 -278.173523 7.976276 1.000000
368.172272 -278.173523 6.872035 1.000000
368.172272 -278.173553 5.778466 1.000000
368.172272 -278.173553 4.693103 1.000000
368.172272 -278.173553 3.613551 1.000000
368.172272 -278.173553 2.537467 1.000000
368.172272 -278.173553 1.462533 1.000000
368.172272 -278.173553 0.386448 1.000000
362.964539 -271.515503 -0.000013 0.533257
358.647827 -265.996704 -0.000016 0.535836
356.243652 -262.922974 -0.000012 0.553353
354.708771 -260.960663 -0.000009 0.547234
353.641998 -259.596771 -0.000006 0.569390
352.856018 -258.591949 -0.000004 0.527626
nan nan nan 0.000000
nan nan nan 0.000000
367.921021 -278.223206 7.955379 1.000000
367.921021 -278.223206 6.855000 1.000000
367.921021 -278.223206 5.765253 1.000000
367.921021 -278.223236 4.683685 1.000000
367.921021 -278.223236 3.607909 1.000000
367.921021 -278.223236 2.535586 1.000000
367.921021 -278.223236 1.464413 1.000000
367.921051 -278.223236 0.392091 1.000000
362.830017 -271.619965 -0.000013 0.539178
358.551971 -266.071136 -0.000017 0.544945
356.169312 -262.980713 -0.000013 0.535683
354.648163 -261.007721 -0.000009 0.552758
353.590942 -259.636444 -0.000007 0.531655
352.812012 -258.626129 -0.000005 0.516701
nan nan nan 0.000000
nan nan nan 0.000000
367.671539 -278.272552 7.934916 1.000000
367.671539 -278.272552 6.838316 1.000000
367.671539 -278.272552 5.752316 1.000000
367.671539 -278.272583 4.674465 1.000000
367.671539 -278.272583 3.602384 1.000000
367.671539 -278.272583 2.533747 1.000000
367.671539 -278.272583 1.466253 1.000000
367.671539 -278.272583 0.397615 1.000000
362.694824 -271.723480 -0.000014 0.539010
358.455597 -266.144897 -0.000016 0.523873
356.094574 -263.037903 -0.000013 0.517082
354.587250 -261.054352 -0.000009 0.564660
353.539581 -259.675720 -0.000007 0.533578
352.767731 -258.660004 -0.000005 0.506813
nan nan nan 0.000000
nan nan nan 0.000000
367.423767 -278.321564 7.914879 1.000000
367.423767 -278.321564 6.821982 1.000000
367.423767 -278.321564 5.739649 1.000000
367.423767 -278.321564 4.665436 1.000000
367.423767 -278.321564 3.596975 1.000000
367.423767 -278.321564 2.531945 1.000000
367.423767 -278.321564 1.468055 1.000000
367.423767 -278.321564 0.403025 1.000000
362.558868 -271.826019 -0.000014 0.549340
358.358704 -266.218018 -0.000017 0.537820
356.019409 -263.094604 -0.000013 0.515297
354.525970 -261.100586 -0.000009 0.538537
353.487976 -259.714661 -0.000007 0.527169
352.723236 -258.693573 -0.000004 0.528618
nan nan nan 0.000000
367.177612 -278.370239 8.997593 1.000000
367.177612 -278.370239 7.895266 1.000000
367.177612 -278.370239 6.805992 1.000000
367.177612 -278.370239 5.727248 1.000000
367.177612 -278.370239 4.656596 1.000000
367.177612 -278.370239 3.591678 1.000000
367.177612 -278.370239 2.530181 1.000000
367.177612 -278.370239 1.469819 1.000000
367.177612 -278.370239 0.408321 1.000000
362.422211 -271.927612 -0.000014 0.554452
358.261322 -266.290436 -0.000017 0.535195
355.943878 -263.150757 -0.000013 0.556054
354.464386 -261.146362 -0.000009 0.526772
353.436096 -259.753235 -0.000007 0.537621
352.678497 -258.726837 -0.000005 0.521004
nan nan nan 0.000000
366.933105 -278.418610 8.974804 1.000000
366.933105 -278.418610 7.876065 1.000000
366.933105 -278.418610 6.790340 1.000000
366.933105 -278.418610 5.715108 1.000000
366.933105 -278.418610 4.647944 1.000000
366.933105 -278.418610 3.586495 1.000000
366.933105 -278.418610 2.528454 1.000000
366.933105 -278.418610 1.471546 1.000000
366.933105 -278.418610 0.413504 1.000000
362.284851 -272.028290 -0.000014 0.543160
358.163422 -266.362152 -0.000016 0.525597
355.867950 -263.206421 -0.000013 0.551888
354.402496 -261.191711 -0.000009 0.555749
353.383972 -259.791443 -0.000007 0.537545
352.633545 -258.759796 -0.000005 0.579690
nan nan nan 0.000000
366.690155 -278.466644 8.952500 1.000000
366.690155 -278.466644 7.857274 1.000000
366.690155 -278.466644 6.775022 1.000000
366.690155 -278.466644 5.703228 1.000000
366.690155 -278.466644 4.639478 1.000000
366.690155 -278.466644 3.581422 1.000000
366.690155 -278.466644 2.526764 1.000000
366.690155 -278.466644 1.473236 1.000000
366.690155 -278.466675 0.418577 1.000000
362.146790 -272.127960 -0.000014 0.536873
358.065002 -266.433228 -0.000017 0.529946
355.791626 -263.261505 -0.000013 0.541650
354.340302 -261.236633 -0.000010 0.537179
353.331543 -259.829285 -0.000007 0.543542
352.588348 -258.792419 -0.000005 0.547662
nan nan nan 0.000000
366.448730 -278.514404 8.930676 1.000000
366.448730 -278.514404 7.838889 1.000000
366.448730 -278.514404 6.760035 1.000000
366.448730 -278.514404 5.691604 1.000000
366.448730 -278.514404 4.631191 1.000000
366.448730 -278.514404 3.576457 1.000000
366.448730 -278.514404 2.525110 1.000000
366.448730 -278.514404 1.474890 1.000000
366.448761 -278.514404 0.423541 1.000000
362.008057 -272.226685 -0.000014 0.542214
357.966125 -266.503571 -0.000017 0.553765
355.714935 -263.316071 -0.000014 0.520699
354.277771 -261.281128 -0.000010 0.531975
353.278870 -259.866760 -0.000007 0.537453
352.542938 -258.824738 -0.000004 0.583932
nan nan nan 0.000000
366.208832 -278.561829 8.909323 1.000000
366.208832 -278.561859 7.820900 1.000000
366.208832 -278.561859 6.745369 1.000000
366.208832 -278.561829 5.680231 1.000000
366.208832 -278.561859 4.623085 1.000000
366.208832 -278.561859 3.571601 1.000000
366.208832 -278.561859 2.523492 1.000000
366.208832 -278.561859 1.476507 1.000000
366.208832 -278.561859 0.428398 1.000000
361.868622 -272.324432 -0.000014 0.537240
357.866730 -266.573242 -0.000017 0.534676
355.637878 -263.370117 -0.000014 0.540520
354.214935 -261.325195 -0.000010 0.535775
353.225922 -259.903870 -0.000007 0.518639
352.497284 -258.856720 -0.000005 0.538231
nan nan nan 0.000000
365.970398 -278.609009 8.888435 1.000000
365.970398 -278.609009 7.803303 1.000000
365.970398 -278.609009 6.731021 1.000000
365.970398 -278.609009 5.669105 1.000000
365.970398 -278.609009 4.615155 1.000000
365.970398 -278.609009 3.566849 1.000000
365.970398 -278.609009 2.521911 1.000000
365.970398 -278.609009 1.478090 1.000000
365.970398 -278.609009 0.433149 1.000000
361.728485 -272.421204 -0.000014 0.543114
357.766876 -266.642242 -0.000017 0.557183
355.560425 -263.423615 -0.000014 0.542184
354.151794 -261.368774 -0.000010 0.531411
353.172729 -259.940613 -0.000007 0.559152
352.451416 -258.888428 -0.000005 0.522454
nan nan nan 0.000000
365.733368 -278.655884 8.868010 1.000000
365.733368 -278.655884 7.786095 1.000000
365.733368 -278.655884 6.716993 1.000000
365.733368 -278.655884 5.658225 1.000000
365.733368 -278.655884 4.607401 1.000000
365.733368 -278.655884 3.562204 1.000000
365.733368 -278.655884 2.520363 1.000000
365.733368 -278.655884 1.479638 1.000000
365.733368 -278.655884 0.437796 1.000000
361.587708 -272.516998 -0.000014 0.543420
357.666534 -266.710510 -0.000018 0.539986
355.482605 -263.476563 -0.000014 0.517052
354.088348 -261.411957 -0.000010 0.526009
353.119293 -259.976990 -0.000007 0.567544
352.405334 -258.919769 -0.000005 0.578485
nan nan nan 0.000000
365.497742 -278.702484 8.848035 1.000000
365.497742 -278.702484 7.769267 1.000000
365.497742 -278.702484 6.703275 1.000000
365.497742 -278.702484 5.647586 1.000000
365.497742 -278.702484 4.599817 1.000000
365.497742 -278.702484 3.557661 1.000000
365.497742 -278.702484 2.518849 1.000000
365.497742 -278.702484 1.481151 1.000000
365.497742 -278.702484 0.442339 1.000000
361.446259 -272.611816 -0.000014 0.542123
357.565704 -266.778076 -0.000017 0.539300
355.404388 -263.528961 -0.000014 0.525551
354.024597 -261.454681 -0.000010 0.547326
353.065582 -260.012970 -0.000007 0.568750
352.359039 -258.950806 -0.000005 0.545251
nan nan nan 0.000000
365.263458 -278.748810 8.828510 1.000000
365.263458 -278.748810 7.752816 1.000000
365.263458 -278.748810 6.689865 1.000000
365.263458 -278.748810 5.637186 1.000000
365.263458 -278.748810 4.592405 1.000000
365.263458 -278.748810 3.553219 1.000000
365.263458 -278.748810 2.517370 1.000000
365.263458 -278.748810 1.482630 1.000000
365.263458 -278.748810 0.446781 1.000000
361.304138 -272.705627 -0.000015 0.535271
357.464417 -266.844940 -0.000017 0.541604
355.325836 -263.580841 -0.000014 0.547967
353.960571 -261.496948 -0.000010 0.556832
353.011627 -260.048584 -0.000007 0.492119
352.312531 -258.981506 -0.000005 0.569345
nan nan nan 0.000000
365.030518 -278.794891 8.809427 1.000000
365.030518 -278.794891 7.736740 1.000000
365.030518 -278.794891 6.676758 1.000000
365.030518 -278.794891 5.627021 1.000000
365.030518 -278.794891 4.585160 1.000000
365.030518 -278.794891 3.548878 1.000000
365.030518 -278.794891 2.515924 1.000000
365.030518 -278.794891 1.484076 1.000000
365.030518 -278.794891 0.451122 1.000000
361.161377 -272.798462 -0.000015 0.537438
357.362640 -266.911102 -0.000017 0.530571
355.246948 -263.632141 -0.000014 0.532311
353.896240 -261.538788 -0.000010 0.532525
352.957428 -260.083832 -0.000007 0.533242
352.265778 -259.011902 -0.000006 0.490440
nan nan nan 0.000000
364.798828 -278.840698 8.790779 1.000000
364.798828 -278.840698 7.721030 1.000000
364.798828 -278.840698 6.663951 1.000000
364.798828 -278.840698 5.617089 1.000000
364.798828 -278.840698 4.578081 1.000000
364.798828 -278.840698 3.544636 1.000000
364.798828 -278.840698 2.514512 1.000000
364.798828 -278.840698 1.485489 1.000000
364.798828 -278.840698 0.455363 1.000000
361.017975 -272.890289 -0.000014 0.543252
357.260437 -266.976563 -0.000017 0.547311
355.167664 -263.682892 -0.000014 0.552071
353.831604 -261.580170 -0.000010 0.550378
352.902985 -260.118713 -0.000007 0.544213
352.218842 -259.041962 -0.000005 0.575280
nan nan nan 0.000000
364.568420 -278.886261 8.772562 1.000000
364.568420 -278.886261 7.705683 1.000000
364.568420 -278.886261 6.651439 1.000000
364.568420 -278.886261 5.607385 1.000000
364.568420 -278.886261 4.571165 1.000000
364.568420 -278.886261 3.540493 1.000000
364.568420 -278.886261 2.513131 1.000000
364.568420 -278.886261 1.486869 1.000000
364.568420 -278.886292 0.459507 1.000000
360.873932 -272.981110 -0.000015 0.538415
357.157776 -267.041290 -0.000017 0.531487
355.088043 -263.733093 -0.000014 0.528923
353.766693 -261.621094 -0.000010 0.514199
352.848297 -260.153168 -0.000008 0.526329
352.171692 -259.071686 -0.000005 0.504051
nan nan nan 0.000000
364.339233 -278.931580 8.754770 1.000000
364.339233 -278.931610 7.690694 1.000000
364.339233 -278.931610 6.639220 1.000000
364.339233 -278.931610 5.597909 1.000000
364.339233 -278.931610 4.564410 1.000000
364.339233 -278.931610 3.536447 1.000000
364.339233 -278.931610 2.511783 1.000000
364.339233 -278.931610 1.488217 1.000000
364.339233 -278.931610 0.463553 1.000000
360.729248 -273.070923 -0.000015 0.538720
357.054657 -267.105316 -0.000018 0.542840
355.008057 -263.782745 -0.000014 0.574136
353.701508 -261.661560 -0.000010 0.534066
352.793396 -260.187286 -0.000008 0.534600
352.124329 -259.101074 -0.000006 0.543297
nan nan nan 0.000000
364.111237 -278.976685 8.737402 1.000000
364.111237 -278.976685 7.676062 1.000000
364.111237 -278.976685 6.627291 1.000000
364.111237 -278.976685 5.588657 1.000000
364.111237 -278.976685 4.557817 1.000000
364.111237 -278.976685 3.532495 1.000000
364.111237 -278.976685 2.510467 1.000000
364.111237 -278.976685 1.489533 1.000000
364.111237 -278.976685 0.467504 1.000000
360.583954 -273.159729 -0.000015 0.548684
356.951080 -267.168610 -0.000018 0.538720
354.927765 -263.831818 -0.000014 0.534295
353.636017 -261.701599 -0.000011 0.533318
352.738220 -260.220978 -0.000008 0.553170
352.076782 -259.130157 -0.000006 0.552148
nan nan nan 0.000000
363.884399 -279.021545 8.720448 1.000000
363.884399 -279.021545 7.661778 1.000000
363.884399 -279.021545 6.615646 1.000000
363.884399 -279.021545 5.579626 1.000000
363.884399 -279.021545 4.551380 1.000000
363.884399 -279.021545 3.528639 1.000000
363.884399 -279.021545 2.509183 1.000000
363.884399 -279.021545 1.490818 1.000000
363.884399 -279.021545 0.471360 1.000000
360.438049 -273.247498 -0.000015 0.527260
356.847076 -267.231171 -0.000018 0.541054
354.847107 -263.880371 -0.000015 0.509163
353.570282 -261.741150 -0.000011 0.555947
352.682831 -260.254303 -0.000008 0.473869
352.028992 -259.158905 -0.000006 0.561288
nan nan nan 0.000000
363.658661 -279.066193 8.703904 1.000000
363.658661 -279.066193 7.647841 1.000000
363.658691 -279.066193 6.604287 1.000000
363.658661 -279.066193 5.570815 1.000000
363.658661 -279.066193 4.545099 1.000000
363.658691 -279.066193 3.524877 1.000000
363.658661 -279.066193 2.507929 1.000000
363.658661 -279.066193 1.492071 1.000000
363.658691 -279.066193 0.475123 1.000000
360.291504 -273.334259 -0.000015 0.547539
356.742645 -267.292999 -0.000018 0.544991
354.766113 -263.928314 -0.000015 0.538918
353.504242 -261.780243 -0.000011 0.548486
352.627197 -260.287262 -0.000008 0.530846
351.981049 -259.187286 -0.000006 0.542596
nan nan nan 0.000000
363.434052 -279.110596 8.687768 1.000000
363.434052 -279.110626 7.634246 1.000000
363.434052 -279.110626 6.593202 1.000000
363.434052 -279.110626 5.562220 1.000000
363.434052 -279.110626 4.538974 1.000000
363.434052 -279.110626 3.521206 1.000000
363.434052 -279.110626 2.506706 1.000000
363.434052 -279.110626 1.493293 1.000000
363.434052 -279.110626 0.478794 1.000000
360.144409 -273.420013 -0.000016 0.537865
356.637787 -267.354126 -0.000018 0.546868
354.684784 -263.975708 -0.000014 0.523232
353.437927 -261.818878 -0.000011 0.531121
352.571350 -260.319794 -0.000008 0.533455
351.932892 -259.215363 -0.000006 0.567987
nan nan nan 0.000000
363.210510 -279.154816 8.672032 1.000000
363.210510 -279.154816 7.620991 1.000000
363.210510 -279.154816 6.582395 1.000000
363.210510 -279.154816 5.553839 1.000000
363.210510 -279.154816 4.532999 1.000000
363.210510 -279.154816 3.517626 1.000000
363.210510 -279.154816 2.505514 1.000000
363.210510 -279.154816 1.494486 1.000000
363.210510 -279.154816 0.482373 1.000000
359.996674 -273.504730 -0.000016 0.548180
356.532501 -267.414490 -0.000017 0.558419
354.603119 -264.022522 -0.000015 0.532265
353.371368 -261.857056 -0.000011 0.516930
352.515259 -260.351959 -0.000008 0.539483
351.884521 -259.243103 -0.000006 0.500847
nan nan nan 0.000000
362.988007 -279.198822 8.656696 1.000000
362.988007 -279.198822 7.608068 1.000000
362.987976 -279.198822 6.571863 1.000000
362.988007 -279.198822 5.545669 1.000000
362.988007 -279.198822 4.527177 1.000000
362.988007 -279.198822 3.514137 1.000000
362.988007 -279.198853 2.504352 1.000000
362.988007 -279.198853 1.495648 1.000000
362.988007 -279.198822 0.485861 1.000000
359.848358 -273.588409 -0.000016 0.539590
356.426788 -267.474152 -0.000018 0.539483
354.521149 -264.068787 -0.000015 0.560708
353.304535 -261.894775 -0.000011 0.521523
352.458954 -260.383728 -0.000008 0.539834
351.835968 -259.270477 -0.000006 0.571511
nan nan nan 0.000000
362.766479 -279.242615 8.641752 1.000000
362.766479 -279.242615 7.595478 1.000000
362.766479 -279.242645 6.561598 1.000000
362.766479 -279.242645 5.537710 1.000000
362.766479 -279.242645 4.521503 1.000000
362.766479 -279.242645 3.510739 1.000000
362.766510 -279.242645 2.503220 1.000000
362.766510 -279.242645 1.496780 1.000000
362.766479 -279.242645 0.489261 1.000000
359.699463 -273.671051 -0.000016 0.554986
356.320679 -267.533051 -0.000018 0.548119
354.438843 -264.114471 -0.000015 0.517037
353.237457 -261.932007 -0.000011 0.512779
352.402435 -260.415100 -0.000008 0.546624
351.787231 -259.297546 -0.000006 0.610742
nan nan nan 0.000000
362.545959 -279.286255 8.627198 1.000000
362.545959 -279.286255 7.583216 1.000000
362.545959 -279.286255 6.551602 1.000000
362.545959 -279.286255 5.529957 1.000000
362.545959 -279.286255 4.515978 1.000000
362.545959 -279.286255 3.507428 1.000000
362.545990 -279.286255 2.502117 1.000000
362.545990 -279.286255 1.497882 1.000000
362.545990 -279.286255 0.492571 1.000000
359.550018 -273.752655 -0.000016 0.545296
356.214142 -267.591187 -0.000018 0.531716
354.356201 -264.159576 -0.000015 0.577569
353.170105 -261.968781 -0.000011 0.559152
352.345703 -260.446075 -0.000009 0.522789
351.738312 -259.324249 -0.000006 0.513466
nan nan nan 0.000000
362.326416 -279.329681 8.613028 1.000000
362.326416 -279.329681 7.571280 1.000000
362.326416 -279.329681 6.541871 1.000000
362.326416 -279.329681 5.522409 1.000000
362.326416 -279.329681 4.510598 1.000000
362.326416 -279.329681 3.504206 1.000000
362.326416 -279.329681 2.501043 1.000000
362.326416 -279.329681 1.498957 1.000000
362.326416 -279.329681 0.495794 1.000000
359.399994 -273.833191 -0.000016 0.547112
356.107208 -267.648621 -0.000018 0.553246
354.273285 -264.204102 -0.000015 0.564508
353.102478 -262.005066 -0.000011 0.515373
352.288727 -260.476685 -0.000009 0.529259
351.689209 -259.350616 -0.000006 0.481559
nan nan nan 0.000000
362.107758 -279.372925 8.599239 1.000000
362.107758 -279.372925 7.559664 1.000000
362.107758 -279.372925 6.532402 1.000000
362.107758 -279.372925 5.515066 1.000000
362.107758 -279.372925 4.505365 1.000000
362.107758 -279.372925 3.501069 1.000000
362.107758 -279.372925 2.499999 1.000000
362.107758 -279.372925 1.500001 1.000000
362.107788 -279.372925 0.498930 1.000000
359.249390 -273.912720 -0.000017 0.539590
355.999878 -267.705292 -0.000018 0.538033
354.190033 -264.248047 -0.000015 0.530236
353.034637 -262.040894 -0.000011 0.521752
352.231567 -260.506866 -0.000009 0.556939
351.639923 -259.376648 -0.000007 0.537423
nan nan nan 0.000000
361.890015 -279.415985 8.585830 1.000000
361.890015 -279.415985 7.548367 1.000000
361.890015 -279.415985 6.523190 1.000000
361.890015 -279.415985 5.507923 1.000000
361.890015 -279.415985 4.500272 1.000000
361.890015 -279.415985 3.498019 1.000000
361.890015 -279.415985 2.498983 1.000000
361.890015 -279.415985 1.501017 1.000000
361.890015 -279.415985 0.501981 1.000000
359.098267 -273.991150 -0.000016 0.529152
355.892151 -267.761200 -0.000018 0.537087
354.106506 -264.291412 -0.000015 0.539345
352.966522 -262.076263 -0.000011 0.557336
352.174194 -260.536621 -0.000009 0.528161
351.590424 -259.402313 -0.000007 0.564599
nan nan nan 0.000000
361.673157 -279.458862 8.572793 1.000000
361.673157 -279.458862 7.537384 1.000000
361.673157 -279.458862 6.514235 1.000000
