# This PCD file was generated using the MATLABÂ® pcwrite function
# from Computer Vision ToolboxÂ®.
# .PCD v.7 - Point Cloud Data file format
VERSION .7
FIELDS x y z intensity
SIZE 4 4 4 4
TYPE F F F F
COUNT 1 1 1 1
WIDTH 1179
HEIGHT 1
VIEWPOINT 0 0 0 1 0 0 0
POINTS 1179
DATA ascii
227.664825 -486.774780 4.136204 1.000000
227.664825 -486.774780 3.656715 1.000000
227.664825 -486.774780 3.180825 1.000000
227.664825 -486.774780 2.707481 1.000000
227.664825 -486.774780 2.235659 1.000000
227.664825 -486.774780 1.764341 1.000000
227.664825 -486.774780 1.292518 1.000000
227.664825 -486.774780 0.819175 1.000000
227.664825 -486.774780 0.343284 1.000000
227.720764 -485.858154 0.000013 0.539681
227.872513 -483.371582 0.000010 0.523735
227.977982 -481.643311 0.000008 0.597986
228.055695 -480.369995 0.000006 0.544915
227.574005 -486.628448 5.572181 1.000000
227.574005 -486.628448 5.080069 1.000000
227.574005 -486.628448 4.594866 1.000000
227.574005 -486.628448 4.115411 1.000000
227.574005 -486.628448 3.640589 1.000000
227.574005 -486.628448 3.169331 1.000000
227.574005 -486.628448 2.700595 1.000000
227.574005 -486.628448 2.233365 1.000000
227.574005 -486.628448 1.766635 1.000000
227.574005 -486.628448 1.299404 1.000000
227.574005 -486.628448 0.830669 1.000000
227.574005 -486.628448 0.359411 1.000000
227.626831 -485.852112 0.000013 0.565164
227.795929 -483.366638 0.000010 0.573922
227.913467 -481.639130 0.000008 0.541146
228.000061 -480.366394 0.000006 0.481346
227.484940 -486.484924 5.537915 1.000000
227.484940 -486.484924 5.050525 1.000000
227.484940 -486.484924 4.569976 1.000000
227.484940 -486.484924 4.095120 1.000000
227.484940 -486.484924 3.624853 1.000000
227.484940 -486.484924 3.158115 1.000000
227.484940 -486.484924 2.693875 1.000000
227.484940 -486.484924 2.231126 1.000000
227.484940 -486.484924 1.768873 1.000000
227.484940 -486.484924 1.306125 1.000000
227.484940 -486.484924 0.841885 1.000000
227.484940 -486.484924 0.375147 1.000000
227.532944 -485.845398 0.000013 0.532662
227.719391 -483.361176 0.000010 0.538415
227.848984 -481.634521 0.000008 0.546426
227.944458 -480.362427 0.000006 0.502068
227.397552 -486.344147 5.504472 1.000000
227.397552 -486.344147 5.021688 1.000000
227.397552 -486.344147 4.545683 1.000000
227.397552 -486.344147 4.075315 1.000000
227.397552 -486.344147 3.609493 1.000000
227.397552 -486.344147 3.147167 1.000000
227.397552 -486.344147 2.687316 1.000000
227.397552 -486.344147 2.228942 1.000000
227.397552 -486.344147 1.771058 1.000000
227.397552 -486.344147 1.312684 1.000000
227.397552 -486.344147 0.852832 1.000000
227.397552 -486.344147 0.390506 1.000000
227.439102 -485.838013 0.000013 0.509606
227.642899 -483.355164 0.000010 0.525338
227.784531 -481.629456 0.000008 0.528649
227.888885 -480.358063 0.000006 0.512169
227.311813 -486.205994 5.471824 1.000000
227.311813 -486.205994 4.993537 1.000000
227.311813 -486.205994 4.521966 1.000000
227.311813 -486.205994 4.055981 1.000000
227.311813 -486.205994 3.594499 1.000000
227.311813 -486.205994 3.136480 1.000000
227.311813 -486.205994 2.680913 1.000000
227.311813 -486.205994 2.226809 1.000000
227.311813 -486.205994 1.773191 1.000000
227.311813 -486.205994 1.319087 1.000000
227.311813 -486.205994 0.863520 1.000000
227.311813 -486.205994 0.405501 1.000000
227.345322 -485.829987 0.000013 0.567971
227.566437 -483.348602 0.000010 0.530587
227.720123 -481.623962 0.000007 0.534173
227.833359 -480.353302 0.000006 0.580148
227.227646 -486.070374 5.439943 1.000000
227.227646 -486.070374 4.966048 1.000000
227.227646 -486.070374 4.498809 1.000000
227.227646 -486.070374 4.037102 1.000000
227.227646 -486.070374 3.579857 1.000000
227.227646 -486.070374 3.126043 1.000000
227.227646 -486.070374 2.674660 1.000000
227.227646 -486.070374 2.224726 1.000000
227.227646 -486.070374 1.775274 1.000000
227.227646 -486.070374 1.325340 1.000000
227.227646 -486.070374 0.873956 1.000000
227.227646 -486.070374 0.420143 1.000000
227.251587 -485.821320 0.000013 0.552117
227.490021 -483.341522 0.000010 0.515709
227.655746 -481.617981 0.000007 0.571054
227.777847 -480.348145 0.000006 0.512596
227.145004 -485.937195 5.408806 1.000000
227.145004 -485.937195 4.939201 1.000000
227.145004 -485.937225 4.476191 1.000000
227.145004 -485.937225 4.018662 1.000000
227.145004 -485.937225 3.565557 1.000000
227.145004 -485.937225 3.115851 1.000000
227.145004 -485.937225 2.668553 1.000000
227.145004 -485.937195 2.222692 1.000000
227.145004 -485.937195 1.777308 1.000000
227.145004 -485.937225 1.331446 1.000000
227.145004 -485.937225 0.884148 1.000000
227.145004 -485.937225 0.434443 1.000000
227.157928 -485.811981 0.000013 0.551659
227.413666 -483.333923 0.000010 0.502556
227.591431 -481.611572 0.000008 0.521279
227.722382 -480.342621 0.000006 0.515206
227.063843 -485.806427 5.378391 1.000000
227.063843 -485.806427 4.912977 1.000000
227.063843 -485.806427 4.454097 1.000000
227.063843 -485.806427 4.000651 1.000000
227.063843 -485.806427 3.551589 1.000000
227.063843 -485.806427 3.105895 1.000000
227.063843 -485.806427 2.662588 1.000000
227.063843 -485.806427 2.220705 1.000000
227.063843 -485.806427 1.779295 1.000000
227.063843 -485.806427 1.337412 1.000000
227.063843 -485.806427 0.894104 1.000000
227.063843 -485.806427 0.448411 1.000000
227.063843 -485.806427 -0.000652 1.000000
227.337372 -483.325775 0.000009 0.517037
227.527145 -481.604706 0.000007 0.549218
227.666962 -480.336731 0.000006 0.549599
226.984116 -485.677979 5.348678 1.000000
226.984116 -485.677979 4.887357 1.000000
226.984116 -485.677979 4.432513 1.000000
226.984116 -485.677979 3.983055 1.000000
226.984116 -485.677979 3.537942 1.000000
226.984116 -485.677979 3.096169 1.000000
226.984116 -485.677979 2.656761 1.000000
226.984116 -485.677979 2.218764 1.000000
226.984116 -485.677979 1.781236 1.000000
226.984116 -485.677979 1.343239 1.000000
226.984116 -485.677979 0.903831 1.000000
226.984116 -485.677979 0.462058 1.000000
226.984116 -485.677979 0.016945 1.000000
227.261124 -483.317108 0.000010 0.535790
227.462906 -481.597412 0.000007 0.597467
227.611572 -480.330414 0.000006 0.559838
226.905762 -485.551727 5.319641 1.000000
226.905762 -485.551758 4.862321 1.000000
226.905762 -485.551758 4.411420 1.000000
226.905762 -485.551727 3.965860 1.000000
226.905762 -485.551758 3.524607 1.000000
226.905762 -485.551727 3.086663 1.000000
226.905762 -485.551758 2.651066 1.000000
226.905762 -485.551758 2.216867 1.000000
226.905762 -485.551758 1.783133 1.000000
226.905762 -485.551758 1.348934 1.000000
226.905762 -485.551758 0.913336 1.000000
226.905762 -485.551758 0.475393 1.000000
226.905762 -485.551727 0.034140 1.000000
227.184937 -483.307892 0.000009 0.567178
227.398727 -481.589661 0.000007 0.537362
227.556229 -480.323730 0.000005 0.531777
226.828766 -485.427673 5.291264 1.000000
226.828766 -485.427673 4.837852 1.000000
226.828766 -485.427673 4.390806 1.000000
226.828766 -485.427673 3.949055 1.000000
226.828766 -485.427673 3.511573 1.000000
226.828766 -485.427673 3.077374 1.000000
226.828766 -485.427673 2.645500 1.000000
226.828766 -485.427673 2.215013 1.000000
226.828766 -485.427673 1.784987 1.000000
226.828766 -485.427673 1.354500 1.000000
226.828766 -485.427673 0.922625 1.000000
226.828766 -485.427673 0.488426 1.000000
226.828766 -485.427673 0.050944 1.000000
227.108826 -483.298157 0.000009 0.549859
227.334610 -481.581451 0.000007 0.530037
227.500946 -480.316650 0.000005 0.525292
226.753067 -485.305695 5.263525 1.000000
226.753067 -485.305695 4.813935 1.000000
226.753067 -485.305695 4.370656 1.000000
226.753067 -485.305695 3.932629 1.000000
226.753067 -485.305695 3.498834 1.000000
226.753067 -485.305695 3.068294 1.000000
226.753067 -485.305695 2.640060 1.000000
226.753067 -485.305695 2.213201 1.000000
226.753067 -485.305695 1.786799 1.000000
226.753067 -485.305695 1.359940 1.000000
226.753067 -485.305695 0.931705 1.000000
226.753067 -485.305695 0.501166 1.000000
226.753067 -485.305695 0.067371 1.000000
227.032776 -483.287872 0.000010 0.505684
227.270538 -481.572784 0.000007 0.555230
227.445709 -480.309174 0.000005 0.540902
226.678619 -485.185760 5.236406 1.000000
226.678619 -485.185760 4.790551 1.000000
226.678619 -485.185760 4.350956 1.000000
226.678619 -485.185760 3.916569 1.000000
226.678619 -485.185760 3.486379 1.000000
226.678619 -485.185760 3.059417 1.000000
226.678619 -485.185760 2.634741 1.000000
226.678619 -485.185760 2.211429 1.000000
226.678619 -485.185760 1.788571 1.000000
226.678619 -485.185760 1.365258 1.000000
226.678619 -485.185760 0.940582 1.000000
226.678619 -485.185760 0.513621 1.000000
226.678619 -485.185760 0.083431 1.000000
226.956818 -483.277069 0.000009 0.521004
227.206528 -481.563690 0.000007 0.513985
227.390518 -480.301331 0.000005 0.526375
226.605408 -485.067810 5.209889 1.000000
226.605408 -485.067810 4.767688 1.000000
226.605408 -485.067810 4.331696 1.000000
226.605408 -485.067810 3.900866 1.000000
226.605408 -485.067810 3.474201 1.000000
226.605408 -485.067810 3.050737 1.000000
226.605408 -485.067810 2.629540 1.000000
226.605408 -485.067810 2.209697 1.000000
226.605408 -485.067810 1.790303 1.000000
226.605408 -485.067810 1.370459 1.000000
226.605408 -485.067810 0.949262 1.000000
226.605408 -485.067810 0.525799 1.000000
226.605408 -485.067810 0.099134 1.000000
226.880920 -483.265747 0.000010 0.540871
227.142593 -481.554138 0.000007 0.552117
227.335388 -480.293121 0.000005 0.520729
226.533386 -484.951752 5.183957 1.000000
226.533386 -484.951752 4.745328 1.000000
226.533386 -484.951752 4.312858 1.000000
226.533386 -484.951752 3.885509 1.000000
226.533386 -484.951752 3.462291 1.000000
226.533386 -484.951752 3.042248 1.000000
226.533386 -484.951752 2.624455 1.000000
226.533386 -484.951752 2.208003 1.000000
226.533386 -484.951752 1.791997 1.000000
226.533386 -484.951752 1.375545 1.000000
226.533386 -484.951752 0.957751 1.000000
226.533386 -484.951752 0.537709 1.000000
226.533386 -484.951752 0.114491 1.000000
226.805099 -483.253876 0.000009 0.556008
227.078720 -481.544159 0.000007 0.559976
227.280319 -480.284485 0.000005 0.521035
226.462509 -484.837555 5.158594 1.000000
226.462509 -484.837555 4.723458 1.000000
226.462509 -484.837555 4.294433 1.000000
226.462509 -484.837555 3.870489 1.000000
226.462509 -484.837555 3.450642 1.000000
226.462509 -484.837555 3.033946 1.000000
226.462509 -484.837555 2.619480 1.000000
226.462509 -484.837555 2.206346 1.000000
226.462509 -484.837555 1.793654 1.000000
226.462509 -484.837555 1.380519 1.000000
226.462509 -484.837555 0.966054 1.000000
226.462509 -484.837555 0.549358 1.000000
226.462509 -484.837555 0.129510 1.000000
226.729370 -483.241516 0.000009 0.553033
227.014923 -481.533722 0.000007 0.541695
227.225296 -480.275482 0.000005 0.598184
226.392746 -484.725159 5.133782 1.000000
226.392746 -484.725159 4.702065 1.000000
226.392746 -484.725159 4.276410 1.000000
226.392746 -484.725159 3.855796 1.000000
226.392746 -484.725159 3.439247 1.000000
226.392746 -484.725159 3.025824 1.000000
226.392746 -484.725159 2.614614 1.000000
226.392746 -484.725159 2.204725 1.000000
226.392746 -484.725159 1.795275 1.000000
226.392746 -484.725159 1.385386 1.000000
226.392746 -484.725159 0.974176 1.000000
226.392746 -484.725159 0.560753 1.000000
226.392746 -484.725159 0.144203 1.000000
226.653732 -483.228577 0.000009 0.508888
226.951202 -481.522827 0.000007 0.540475
227.170349 -480.266113 0.000005 0.554177
226.324066 -484.614502 5.109509 1.000000
226.324066 -484.614502 4.681135 1.000000
226.324066 -484.614502 4.258777 1.000000
226.324066 -484.614502 3.841421 1.000000
226.324066 -484.614502 3.428099 1.000000
226.324066 -484.614502 3.017878 1.000000
226.324066 -484.614502 2.609853 1.000000
226.324066 -484.614502 2.203139 1.000000
226.324066 -484.614502 1.796861 1.000000
226.324066 -484.614502 1.390146 1.000000
226.324066 -484.614502 0.982122 1.000000
226.324066 -484.614502 0.571901 1.000000
226.324066 -484.614502 0.158579 1.000000
226.578186 -483.215149 0.000009 0.569604
226.887558 -481.511505 0.000007 0.538781
227.115479 -480.256348 0.000005 0.524651
226.256454 -484.505554 5.085757 1.000000
226.256454 -484.505524 4.660656 1.000000
226.256454 -484.505524 4.241524 1.000000
226.256454 -484.505524 3.827356 1.000000
226.256454 -484.505554 3.417191 1.000000
226.256454 -484.505524 3.010103 1.000000
226.256454 -484.505554 2.605195 1.000000
226.256454 -484.505554 2.201588 1.000000
226.256454 -484.505554 1.798412 1.000000
226.256454 -484.505554 1.394805 1.000000
226.256454 -484.505554 0.989897 1.000000
226.256454 -484.505554 0.582809 1.000000
226.256454 -484.505554 0.172644 1.000000
226.502731 -483.201172 0.000010 0.542473
226.823990 -481.499725 0.000007 0.533211
227.060669 -480.246185 0.000005 0.602823
226.189850 -484.398224 5.062513 1.000000
226.189850 -484.398224 4.640615 1.000000
226.189850 -484.398224 4.224640 1.000000
226.189850 -484.398224 3.813591 1.000000
226.189850 -484.398224 3.406516 1.000000
226.189850 -484.398224 3.002495 1.000000
226.189850 -484.398224 2.600637 1.000000
226.189850 -484.398224 2.200069 1.000000
226.189850 -484.398224 1.799931 1.000000
226.189850 -484.398224 1.399363 1.000000
226.189850 -484.398224 0.997505 1.000000
226.189850 -484.398224 0.593484 1.000000
226.189850 -484.398224 0.186408 1.000000
226.427383 -483.186646 0.000009 0.501976
226.760498 -481.487518 0.000007 0.571664
227.005936 -480.235657 0.000005 0.517266
226.124237 -484.292511 5.039765 1.000000
226.124237 -484.292511 4.621000 1.000000
226.124237 -484.292511 4.208115 1.000000
226.124237 -484.292511 3.800120 1.000000
226.124237 -484.292511 3.396068 1.000000
226.124237 -484.292511 2.995048 1.000000
226.124237 -484.292511 2.596175 1.000000
226.124237 -484.292511 2.198583 1.000000
226.124237 -484.292511 1.801417 1.000000
226.124237 -484.292511 1.403825 1.000000
226.124237 -484.292511 1.004952 1.000000
226.124237 -484.292511 0.603932 1.000000
226.124237 -484.292511 0.199880 1.000000
226.352127 -483.171631 0.000009 0.558206
226.697098 -481.474854 0.000007 0.517052
226.951263 -480.224731 0.000005 0.515068
226.059601 -484.188354 5.017497 1.000000
226.059601 -484.188354 4.601800 1.000000
226.059601 -484.188354 4.191939 1.000000
226.059601 -484.188354 3.786933 1.000000
226.059601 -484.188354 3.385841 1.000000
226.059601 -484.188354 2.987759 1.000000
226.059601 -484.188354 2.591808 1.000000
226.059601 -484.188354 2.197128 1.000000
226.059601 -484.188354 1.802872 1.000000
226.059601 -484.188354 1.408192 1.000000
226.059601 -484.188354 1.012241 1.000000
226.059601 -484.188354 0.614158 1.000000
226.059601 -484.188354 0.213066 1.000000
226.276993 -483.156097 0.000009 0.523308
226.633804 -481.461761 0.000007 0.574746
226.896683 -480.213440 0.000005 0.555779
225.995895 -484.085724 4.995699 1.000000
225.995895 -484.085724 4.583006 1.000000
225.995895 -484.085724 4.176106 1.000000
225.995895 -484.085724 3.774025 1.000000
225.995895 -484.085724 3.375830 1.000000
225.995895 -484.085724 2.980623 1.000000
225.995895 -484.085724 2.587533 1.000000
225.995895 -484.085724 2.195704 1.000000
225.995895 -484.085724 1.804296 1.000000
225.995895 -484.085724 1.412467 1.000000
225.995895 -484.085724 1.019376 1.000000
225.995895 -484.085724 0.624170 1.000000
225.995880 -484.085724 0.225975 1.000000
226.201950 -483.140015 0.000009 0.521233
226.570587 -481.448212 0.000007 0.600290
226.842178 -480.201782 0.000005 0.493736
234.369949 -446.523743 8.644118 1.000000
234.369949 -446.523743 7.728810 1.000000
234.369949 -446.523743 6.826353 1.000000
234.369949 -446.523743 5.934584 1.000000
234.369949 -446.523743 5.051434 1.000000
234.369949 -446.523743 4.174910 1.000000
234.369949 -446.523743 3.303080 1.000000
234.369949 -446.523743 2.434050 1.000000
234.369949 -446.523743 1.565950 1.000000
234.369949 -446.523743 0.696920 1.000000
233.901291 -448.604614 -0.000015 0.547387
232.361847 -455.439972 -0.000011 0.534386
231.504456 -459.246887 -0.000009 0.557931
230.957092 -461.677277 -0.000008 0.565057
230.576645 -463.366486 -0.000006 0.561715
230.296356 -464.611023 -0.000006 0.577081
234.600388 -446.350342 8.699339 1.000000
234.600388 -446.350342 7.776423 1.000000
234.600388 -446.350342 6.866465 1.000000
234.600388 -446.350342 5.967284 1.000000
234.600388 -446.350342 5.076795 1.000000
234.600388 -446.350342 4.192986 1.000000
234.600388 -446.350342 3.313910 1.000000
234.600388 -446.350342 2.437657 1.000000
234.600388 -446.350342 1.562343 1.000000
234.600388 -446.350342 0.686090 1.000000
234.067291 -448.642609 -0.000016 0.560327
232.480164 -455.467041 -0.000011 0.523217
231.596222 -459.267883 -0.000009 0.541924
231.031891 -461.694397 -0.000007 0.564874
230.639664 -463.380920 -0.000006 0.550301
230.350693 -464.623474 -0.000005 0.570138
234.834717 -446.174011 8.755816 1.000000
234.834717 -446.174011 7.825119 1.000000
234.834717 -446.174011 6.907490 1.000000
234.834717 -446.174011 6.000729 1.000000
234.834717 -446.174011 5.102733 1.000000
234.834717 -446.174011 4.211473 1.000000
234.834717 -446.174011 3.324987 1.000000
234.834717 -446.174011 2.441346 1.000000
234.834717 -446.174011 1.558653 1.000000
234.834717 -446.174011 0.675013 1.000000
234.233017 -448.681763 -0.000015 0.546578
232.598282 -455.494965 -0.000011 0.550774
231.687820 -459.289551 -0.000009 0.533288
231.106567 -461.712036 -0.000007 0.523995
230.702591 -463.395782 -0.000006 0.550286
230.404938 -464.636292 -0.000006 0.519295
235.073029 -445.994690 8.813586 1.000000
235.073029 -445.994690 7.874931 1.000000
235.073029 -445.994690 6.949455 1.000000
235.073029 -445.994690 6.034941 1.000000
235.073029 -445.994690 5.129265 1.000000
235.073029 -445.994690 4.230384 1.000000
235.073029 -445.994690 3.336317 1.000000
235.073029 -445.994690 2.445121 1.000000
235.073029 -445.994690 1.554879 1.000000
235.073029 -445.994690 0.663683 1.000000
nan nan nan 0.000000
232.716202 -455.523682 -0.000011 0.562844
231.779282 -459.311829 -0.000009 0.547250
231.181137 -461.730225 -0.000008 0.603815
230.765396 -463.411072 -0.000006 0.569329
230.459106 -464.649475 -0.000006 0.523735
235.315460 -445.812286 8.872692 1.000000
235.315460 -445.812286 7.925895 1.000000
235.315460 -445.812286 6.992392 1.000000
235.315460 -445.812286 6.069943 1.000000
235.315460 -445.812286 5.156409 1.000000
235.315460 -445.812286 4.249732 1.000000
235.315460 -445.812286 3.347909 1.000000
235.315460 -445.812286 2.448983 1.000000
235.315460 -445.812286 1.551018 1.000000
235.315460 -445.812286 0.652091 1.000000
234.563629 -448.763519 -0.000016 0.546441
232.833923 -455.553223 -0.000012 0.539437
231.870575 -459.334747 -0.000009 0.541451
231.255554 -461.748901 -0.000007 0.570474
230.828094 -463.426819 -0.000006 0.540932
230.513168 -464.663055 -0.000006 0.550668
235.562164 -445.626648 8.933174 1.000000
235.562149 -445.626648 7.978044 1.000000
235.562149 -445.626648 7.036324 1.000000
235.562149 -445.626648 6.105760 1.000000
235.562149 -445.626648 5.184187 1.000000
235.562149 -445.626648 4.269530 1.000000
235.562149 -445.626648 3.359771 1.000000
235.562149 -445.626648 2.452933 1.000000
235.562149 -445.626648 1.547067 1.000000
235.562149 -445.626648 0.640229 1.000000
234.728485 -448.806122 -0.000016 0.535012
232.951431 -455.583588 -0.000012 0.548867
231.961700 -459.358307 -0.000009 0.540307
231.329849 -461.768097 -0.000008 0.539498
230.890686 -463.442993 -0.000006 0.535653
230.567139 -464.677002 -0.000006 0.547463
235.813248 -445.437714 8.995073 1.000000
235.813248 -445.437714 8.031416 1.000000
235.813248 -445.437714 7.081289 1.000000
235.813248 -445.437714 6.142416 1.000000
235.813248 -445.437714 5.212615 1.000000
235.813248 -445.437714 4.289792 1.000000
235.813248 -445.437714 3.371911 1.000000
235.813248 -445.437714 2.456977 1.000000
235.813248 -445.437714 1.543023 1.000000
235.813248 -445.437714 0.628088 1.000000
234.893066 -448.849884 -0.000016 0.526177
233.068726 -455.614807 -0.000011 0.544839
232.052673 -459.382477 -0.000009 0.535225
231.404007 -461.787811 -0.000008 0.572854
230.953171 -463.459625 -0.000007 0.506539
230.621002 -464.691315 -0.000006 0.512932
236.068863 -445.245392 9.058434 1.000000
236.068863 -445.245361 8.086049 1.000000
236.068863 -445.245392 7.127315 1.000000
236.068863 -445.245361 6.179937 1.000000
236.068863 -445.245361 5.241715 1.000000
236.068863 -445.245392 4.310534 1.000000
236.068863 -445.245392 3.384337 1.000000
236.068863 -445.245392 2.461116 1.000000
236.068863 -445.245392 1.538884 1.000000
236.068863 -445.245392 0.615662 1.000000
235.057312 -448.894806 -0.000016 0.537041
233.185806 -455.646820 -0.000012 0.543420
232.143463 -459.407318 -0.000009 0.539178
231.478027 -461.808044 -0.000008 0.522194
231.015518 -463.476654 -0.000007 0.527520
230.674774 -464.706024 -0.000006 0.563531
236.329178 -445.049500 9.123304 1.000000
236.329178 -445.049500 8.141983 1.000000
236.329178 -445.049500 7.174439 1.000000
236.329178 -445.049500 6.218353 1.000000
236.329178 -445.049500 5.271509 1.000000
236.329178 -445.049500 4.331768 1.000000
236.329178 -445.049500 3.397061 1.000000
236.329178 -445.049500 2.465355 1.000000
236.329178 -445.049500 1.534646 1.000000
236.329178 -445.049500 0.602939 1.000000
235.221252 -448.940857 -0.000016 0.536141
233.302643 -455.679626 -0.000012 0.552972
232.234085 -459.432770 -0.000009 0.528496
231.551910 -461.828796 -0.000008 0.555932
231.077759 -463.494141 -0.000007 0.506432
230.728439 -464.721100 -0.000006 0.491295
236.594330 -444.850006 9.189733 1.000000
236.594330 -444.849976 8.199260 1.000000
236.594330 -444.850006 7.222691 1.000000
236.594330 -444.849976 6.257691 1.000000
236.594330 -444.850006 5.302017 1.000000
236.594330 -444.850006 4.353513 1.000000
236.594330 -444.850006 3.410089 1.000000
236.594330 -444.849976 2.469694 1.000000
236.594330 -444.849976 1.530306 1.000000
236.594330 -444.850006 0.589911 1.000000
235.384872 -448.988068 -0.000016 0.545266
233.419266 -455.713287 -0.000012 0.551339
232.324539 -459.458862 -0.000010 0.511574
231.625641 -461.850098 -0.000008 0.574365
231.139877 -463.512085 -0.000007 0.561608
230.781998 -464.736542 -0.000006 0.500282
236.864487 -444.646729 9.257768 1.000000
236.864487 -444.646698 8.257921 1.000000
236.864487 -444.646729 7.272113 1.000000
236.864487 -444.646729 6.297981 1.000000
236.864487 -444.646698 5.333263 1.000000
236.864487 -444.646729 4.375784 1.000000
236.864487 -444.646729 3.423432 1.000000
236.864487 -444.646698 2.474138 1.000000
236.864487 -444.646698 1.525861 1.000000
236.864487 -444.646729 0.576567 1.000000
235.548157 -449.036407 -0.000017 0.536355
233.535645 -455.747742 -0.000012 0.548638
232.414780 -459.485565 -0.000010 0.562554
231.699219 -461.871857 -0.000008 0.549554
231.201874 -463.530426 -0.000007 0.532097
230.835449 -464.752380 -0.000006 0.555337
237.139816 -444.439545 9.327463 1.000000
237.139816 -444.439545 8.318016 1.000000
237.139816 -444.439545 7.322740 1.000000
237.139816 -444.439545 6.339253 1.000000
237.139816 -444.439545 5.365273 1.000000
237.139816 -444.439545 4.398599 1.000000
237.139816 -444.439545 3.437101 1.000000
237.139816 -444.439545 2.478691 1.000000
237.139816 -444.439545 1.521308 1.000000
237.139816 -444.439545 0.562899 1.000000
235.711090 -449.085876 -0.000017 0.543633
233.651779 -455.782990 -0.000012 0.510307
232.504852 -459.512939 -0.000009 0.535088
231.772644 -461.894165 -0.000008 0.491493
231.263733 -463.549225 -0.000007 0.559503
230.888779 -464.768585 -0.000006 0.495644
237.420502 -444.228333 9.398875 1.000000
237.420502 -444.228333 8.379589 1.000000
237.420502 -444.228333 7.374616 1.000000
237.420502 -444.228333 6.381543 1.000000
237.420502 -444.228333 5.398068 1.000000
237.420502 -444.228333 4.421974 1.000000
237.420502 -444.228333 3.451107 1.000000
237.420502 -444.228333 2.483356 1.000000
237.420502 -444.228333 1.516643 1.000000
237.420502 -444.228333 0.548893 1.000000
235.873688 -449.136505 -0.000017 0.548516
233.767670 -455.819092 -0.000012 0.534447
232.594727 -459.540894 -0.000010 0.542382
231.845917 -461.916962 -0.000008 0.540703
231.325455 -463.568420 -0.000007 0.583917
230.942001 -464.785126 -0.000006 0.509285
237.706711 -444.012970 9.472058 1.000000
237.706726 -444.012970 8.442692 1.000000
237.706711 -444.012970 7.427777 1.000000
237.706726 -444.012970 6.424881 1.000000
237.706726 -444.012970 5.431681 1.000000
237.706711 -444.012970 4.445931 1.000000
237.706711 -444.012970 3.465460 1.000000
237.706711 -444.012970 2.488138 1.000000
237.706711 -444.012970 1.511862 1.000000
237.706711 -444.012970 0.534539 1.000000
236.035919 -449.188232 -0.000017 0.533272
233.883301 -455.855957 -0.000012 0.538506
232.684402 -459.569519 -0.000010 0.546334
231.919022 -461.940308 -0.000008 0.518166
231.387039 -463.588074 -0.000007 0.475425
230.995117 -464.802094 -0.000006 0.564584
237.998672 -443.793274 9.547077 1.000000
237.998672 -443.793274 8.507376 1.000000
237.998672 -443.793274 7.482270 1.000000
237.998672 -443.793274 6.469308 1.000000
237.998672 -443.793274 5.466134 1.000000
237.998672 -443.793274 4.470488 1.000000
237.998672 -443.793274 3.480173 1.000000
237.998672 -443.793274 2.493038 1.000000
237.998672 -443.793274 1.506961 1.000000
237.998672 -443.793274 0.519827 1.000000
236.197784 -449.241119 -0.000017 0.530694
233.998672 -455.893646 -0.000013 0.546487
232.773880 -459.598755 -0.000010 0.531060
231.991959 -461.964111 -0.000008 0.517510
231.448502 -463.608154 -0.000007 0.550195
231.048096 -464.819397 -0.000006 0.552270
238.296570 -443.569122 9.623993 1.000000
238.296570 -443.569122 8.573694 1.000000
238.296570 -443.569122 7.538142 1.000000
238.296570 -443.569122 6.514857 1.000000
238.296570 -443.569122 5.501458 1.000000
238.296570 -443.569122 4.495666 1.000000
238.296570 -443.569122 3.495259 1.000000
238.296570 -443.569122 2.498063 1.000000
238.296570 -443.569122 1.501937 1.000000
238.296570 -443.569122 0.504741 1.000000
236.359283 -449.295135 -0.000017 0.545403
234.113770 -455.932159 -0.000012 0.528389
232.863144 -459.628601 -0.000010 0.541466
232.064728 -461.988464 -0.000008 0.563287
231.509811 -463.628662 -0.000007 0.568429
231.100952 -464.837067 -0.000006 0.557351
238.600601 -443.340363 9.702871 1.000000
238.600601 -443.340363 8.641706 1.000000
238.600616 -443.340363 7.595441 1.000000
238.600616 -443.340363 6.561567 1.000000
238.600616 -443.340363 5.537685 1.000000
238.600616 -443.340363 4.521485 1.000000
238.600601 -443.340363 3.510728 1.000000
238.600601 -443.340363 2.503217 1.000000
238.600601 -443.340363 1.496783 1.000000
238.600601 -443.340363 0.489271 1.000000
236.520401 -449.350281 -0.000017 0.533822
234.228607 -455.971436 -0.000013 0.532891
232.952209 -459.659088 -0.000010 0.552682
232.137329 -462.013306 -0.000008 0.489128
231.570969 -463.649597 -0.000007 0.555016
231.153702 -464.855133 -0.000006 0.527977
238.911011 -443.106781 9.783781 1.000000
238.911026 -443.106781 8.711471 1.000000
238.911026 -443.106781 7.654215 1.000000
238.911026 -443.106781 6.609481 1.000000
238.911026 -443.106781 5.574844 1.000000
238.911026 -443.106781 4.547972 1.000000
238.911026 -443.106781 3.526597 1.000000
238.911026 -443.106781 2.508502 1.000000
238.911026 -443.106781 1.491498 1.000000
238.911026 -443.106781 0.473402 1.000000
236.681122 -449.406525 -0.000018 0.543114
234.343170 -456.011536 -0.000013 0.546685
233.041046 -459.690186 -0.000010 0.555611
232.209763 -462.038666 -0.000009 0.540490
231.631989 -463.670929 -0.000007 0.504387
231.206314 -464.873535 -0.000006 0.526894
239.228043 -442.868225 9.866798 1.000000
239.228043 -442.868225 8.783051 1.000000
239.228043 -442.868225 7.714520 1.000000
239.228043 -442.868256 6.658643 1.000000
239.228043 -442.868225 5.612973 1.000000
239.228043 -442.868256 4.575147 1.000000
239.228043 -442.868225 3.542879 1.000000
239.228043 -442.868225 2.513926 1.000000
239.228043 -442.868225 1.486074 1.000000
239.228043 -442.868225 0.457121 1.000000
236.841446 -449.463928 -0.000017 0.538735
234.457428 -456.052460 -0.000012 0.559197
233.129669 -459.721893 -0.000010 0.546090
232.282013 -462.064514 -0.000008 0.546456
231.692856 -463.692719 -0.000007 0.555764
231.258789 -464.892334 -0.000006 0.508324
239.551910 -442.624542 9.951996 1.000000
239.551910 -442.624542 8.856508 1.000000
239.551910 -442.624542 7.776407 1.000000
239.551910 -442.624542 6.709097 1.000000
239.551910 -442.624542 5.652100 1.000000
239.551910 -442.624542 4.603036 1.000000
239.551910 -442.624542 3.559588 1.000000
239.551910 -442.624542 2.519492 1.000000
239.551910 -442.624542 1.480509 1.000000
239.551910 -442.624542 0.440411 1.000000
237.001373 -449.522400 -0.000017 0.537408
234.571426 -456.094147 -0.000012 0.541543
233.218079 -459.754242 -0.000010 0.528237
232.354080 -462.090881 -0.000008 0.568353
231.753571 -463.714935 -0.000007 0.525856
231.311142 -464.911469 -0.000006 0.555001
240.528473 -440.666321 10.497106 1.000000
240.528473 -440.666321 9.326525 1.000000
240.528473 -440.666321 8.172379 1.000000
240.528473 -440.666321 7.031905 1.000000
240.528473 -440.666321 5.902450 1.000000
240.528473 -440.666321 4.781473 1.000000
240.528473 -440.666321 3.666498 1.000000
240.528473 -440.666321 2.555102 1.000000
240.528473 -440.666321 1.444897 1.000000
240.528473 -440.666321 0.333502 1.000000
237.160889 -449.582031 -0.000018 0.544610
234.685120 -456.136627 -0.000013 0.523537
233.306244 -459.787170 -0.000010 0.538201
232.425964 -462.117737 -0.000009 0.521996
231.814133 -463.737579 -0.000007 0.534600
231.363358 -464.930969 -0.000007 0.532128
240.863312 -440.456299 10.576159 1.000000
240.863297 -440.456329 9.394687 1.000000
240.863312 -440.456299 8.229806 1.000000
240.863297 -440.456329 7.078719 1.000000
240.863297 -440.456329 5.938758 1.000000
240.863312 -440.456329 4.807351 1.000000
240.863297 -440.456329 3.682002 1.000000
240.863297 -440.456329 2.560267 1.000000
240.863297 -440.456329 1.439733 1.000000
240.863297 -440.456329 0.317998 1.000000
237.319977 -449.642761 -0.000018 0.538064
234.798508 -456.179901 -0.000013 0.545266
233.394180 -459.820740 -0.000010 0.554864
232.497650 -462.145111 -0.000009 0.515084
231.874527 -463.760620 -0.000007 0.539208
231.415436 -464.950867 -0.000006 0.537820
241.204437 -440.242371 10.657120 1.000000
241.204437 -440.242371 9.464496 1.000000
241.204422 -440.242371 8.288615 1.000000
241.204422 -440.242371 7.126664 1.000000
241.204422 -440.242371 5.975942 1.000000
241.204422 -440.242371 4.833854 1.000000
241.204422 -440.242371 3.697880 1.000000
241.204422 -440.242371 2.565556 1.000000
241.204422 -440.242371 1.434444 1.000000
241.204422 -440.242371 0.302119 1.000000
237.478638 -449.704590 -0.000018 0.545998
234.911591 -456.223969 -0.000013 0.543786
233.481888 -459.854919 -0.000010 0.516564
232.569153 -462.172974 -0.000009 0.563958
231.934753 -463.784088 -0.000007 0.505714
231.467377 -464.971100 -0.000007 0.527428
241.552078 -440.024323 10.740059 1.000000
241.552078 -440.024323 9.536007 1.000000
241.552078 -440.024323 8.348864 1.000000
241.552078 -440.024323 7.175778 1.000000
241.552078 -440.024323 6.014032 1.000000
241.552078 -440.024353 4.861001 1.000000
241.552078 -440.024323 3.714147 1.000000
241.552078 -440.024323 2.570974 1.000000
241.552078 -440.024323 1.429026 1.000000
241.552078 -440.024353 0.285853 1.000000
237.636871 -449.767517 -0.000018 0.531655
235.024368 -456.268860 -0.000013 0.523903
233.569351 -459.889709 -0.000010 0.541711
232.640457 -462.201324 -0.000008 0.558007
nan nan nan 0.000000
231.519165 -464.991699 -0.000006 0.522545
241.906479 -439.802063 10.825032 1.000000
241.906479 -439.802063 9.609276 1.000000
241.906464 -439.802063 8.410588 1.000000
241.906464 -439.802063 7.226099 1.000000
241.906464 -439.802063 6.053058 1.000000
241.906464 -439.802063 4.888817 1.000000
241.906464 -439.802063 3.730812 1.000000
241.906479 -439.802063 2.576525 1.000000
241.906479 -439.802063 1.423475 1.000000
241.906464 -439.802063 0.269187 1.000000
237.794647 -449.831573 -0.000018 0.528191
235.136826 -456.314484 -0.000013 0.549584
233.656570 -459.925110 -0.000010 0.552758
232.711548 -462.230194 -0.000009 0.539696
232.054733 -463.832306 -0.000008 0.530114
231.570816 -465.012665 -0.000007 0.549630
242.267838 -439.575409 10.912112 1.000000
242.267838 -439.575409 9.684359 1.000000
242.267838 -439.575409 8.473845 1.000000
242.267838 -439.575409 7.277668 1.000000
242.267838 -439.575409 6.093051 1.000000
242.267838 -439.575439 4.917323 1.000000
242.267838 -439.575409 3.747891 1.000000
242.267838 -439.575409 2.582214 1.000000
242.267838 -439.575409 1.417786 1.000000
242.267838 -439.575439 0.252109 1.000000
237.951981 -449.896729 -0.000018 0.540337
235.248978 -456.360931 -0.000013 0.541253
233.743546 -459.961121 -0.000010 0.543908
232.782455 -462.259552 -0.000009 0.540200
232.114456 -463.857025 -0.000008 0.494942
231.622314 -465.033997 -0.000007 0.597116
242.636429 -439.344238 11.001372 1.000000
242.636429 -439.344238 9.761324 1.000000
242.636429 -439.344238 8.538687 1.000000
242.636429 -439.344238 7.330527 1.000000
242.636429 -439.344238 6.134047 1.000000
242.636429 -439.344238 4.946543 1.000000
242.636429 -439.344238 3.765398 1.000000
242.636429 -439.344238 2.588046 1.000000
242.636429 -439.344238 1.411954 1.000000
242.636429 -439.344238 0.234602 1.000000
238.108856 -449.962952 -0.000018 0.533455
235.360779 -456.408142 -0.000013 0.548638
233.830261 -459.997742 -0.000010 0.537240
232.853149 -462.289398 -0.000009 0.514885
232.174026 -463.882202 -0.000008 0.522606
231.673676 -465.055664 -0.000007 0.552636
243.012497 -439.108368 11.092890 1.000000
243.012497 -439.108398 9.840231 1.000000
243.012497 -439.108368 8.605163 1.000000
243.012497 -439.108398 7.384721 1.000000
243.012497 -439.108368 6.176076 1.000000
243.012497 -439.108398 4.976499 1.000000
243.012497 -439.108368 3.783346 1.000000
243.012497 -439.108398 2.594024 1.000000
243.012497 -439.108398 1.405976 1.000000
243.012497 -439.108368 0.216654 1.000000
238.265259 -450.030273 -0.000018 0.546517
235.472260 -456.456116 -0.000013 0.535927
233.916718 -460.034973 -0.000010 0.548516
232.923630 -462.319733 -0.000009 0.530510
232.233398 -463.907745 -0.000008 0.506355
231.724869 -465.077728 -0.000007 0.514916
243.396317 -438.867676 11.186736 1.000000
243.396317 -438.867645 9.921152 1.000000
243.396317 -438.867676 8.673335 1.000000
243.396301 -438.867676 7.440298 1.000000
243.396317 -438.867676 6.219177 1.000000
243.396301 -438.867676 5.007219 1.000000
243.396301 -438.867676 3.801752 1.000000
243.396301 -438.867676 2.600154 1.000000
243.396301 -438.867676 1.399845 1.000000
243.396301 -438.867676 0.198248 1.000000
238.421204 -450.098724 -0.000018 0.552026
235.583405 -456.504883 -0.000014 0.549233
234.002914 -460.072784 -0.000011 0.549264
232.993896 -462.350586 -0.000009 0.537987
232.292603 -463.933716 -0.000008 0.569879
231.775909 -465.100128 -0.000007 0.529717
243.788147 -438.621918 11.282997 1.000000
243.788147 -438.621918 10.004150 1.000000
243.788147 -438.621918 8.743258 1.000000
243.788147 -438.621918 7.497301 1.000000
243.788147 -438.621918 6.263387 1.000000
243.788147 -438.621918 5.038730 1.000000
243.788147 -438.621918 3.820631 1.000000
243.788147 -438.621918 2.606444 1.000000
243.788147 -438.621918 1.393556 1.000000
243.788147 -438.621918 0.179369 1.000000
238.576660 -450.168213 -0.000019 0.536141
235.694199 -456.554443 -0.000013 0.532250
234.088837 -460.111206 -0.000011 0.532723
nan nan nan 0.000000
232.351608 -463.960114 -0.000008 0.489586
231.826797 -465.122864 -0.000007 0.520241
244.188293 -438.370941 11.381759 1.000000
244.188293 -438.370941 10.089306 1.000000
244.188293 -438.370941 8.815001 1.000000
244.188293 -438.370941 7.555787 1.000000
244.188293 -438.370941 6.308744 1.000000
244.188293 -438.370941 5.071058 1.000000
244.188293 -438.370941 3.840001 1.000000
244.188293 -438.370941 2.612896 1.000000
244.188293 -438.370941 1.387105 1.000000
244.188293 -438.370941 0.159999 1.000000
238.731613 -450.238831 -0.000019 0.540383
235.804657 -456.604767 -0.000013 0.535851
234.174500 -460.150238 -0.000010 0.523018
233.133774 -462.413727 -0.000009 0.534966
232.410446 -463.986908 -0.000008 0.521843
231.877518 -465.145966 -0.000007 0.516518
244.597076 -438.114563 11.483113 1.000000
244.597076 -438.114563 10.176696 1.000000
244.597076 -438.114563 8.888624 1.000000
244.597076 -438.114563 7.615809 1.000000
244.597076 -438.114563 6.355294 1.000000
244.597076 -438.114563 5.104236 1.000000
244.597076 -438.114563 3.859879 1.000000
244.597076 -438.114563 2.619517 1.000000
244.597076 -438.114563 1.380483 1.000000
244.597076 -438.114563 0.140121 1.000000
238.886093 -450.310486 -0.000019 0.542748
235.914749 -456.655853 -0.000013 0.523629
234.259872 -460.189850 -0.000011 0.545647
233.203384 -462.446014 -0.000009 0.542809
232.469086 -464.014130 -0.000008 0.544579
231.928085 -465.169434 -0.000007 0.523873
245.014801 -437.852570 11.587150 1.000000
245.014801 -437.852570 10.266403 1.000000
245.014801 -437.852570 8.964199 1.000000
245.014801 -437.852570 7.677419 1.000000
245.014801 -437.852570 6.403075 1.000000
245.014801 -437.852570 5.138292 1.000000
245.014801 -437.852570 3.880283 1.000000
245.014801 -437.852570 2.626314 1.000000
245.014801 -437.852570 1.373687 1.000000
245.014801 -437.852570 0.119716 1.000000
239.040054 -450.383240 -0.000019 0.537728
236.024490 -456.707703 -0.000013 0.532494
234.344986 -460.230072 -0.000011 0.561196
233.272766 -462.478790 -0.000009 0.525292
232.527542 -464.041748 -0.000008 0.516075
231.978485 -465.193268 -0.000007 0.529717
245.441818 -437.584747 11.693974 1.000000
245.441818 -437.584747 10.358513 1.000000
245.441818 -437.584747 9.041798 1.000000
245.441833 -437.584747 7.740681 1.000000
245.441818 -437.584747 6.452137 1.000000
245.441818 -437.584747 5.173263 1.000000
245.441818 -437.584747 3.901235 1.000000
245.441818 -437.584747 2.633293 1.000000
245.441818 -437.584747 1.366708 1.000000
245.441818 -437.584747 0.098765 1.000000
239.193512 -450.457062 -0.000019 0.555947
236.133865 -456.760315 -0.000014 0.540673
234.429810 -460.270874 -0.000011 0.522728
233.341919 -462.512054 -0.000009 0.531579
232.585800 -464.069763 -0.000008 0.686534
232.028717 -465.217438 -0.000007 0.546792
nan nan nan 0.000000
246.777863 -435.490540 10.891642 1.000000
246.777863 -435.490540 9.490944 1.000000
246.777863 -435.490540 8.106836 1.000000
246.777863 -435.490540 6.736107 1.000000
246.777863 -435.490540 5.375660 1.000000
246.777863 -435.490540 4.022500 1.000000
246.777863 -435.490540 2.673685 1.000000
246.777863 -435.490540 1.326315 1.000000
246.575256 -435.900604 -0.000031 0.540688
239.346436 -450.531952 -0.000019 0.546700
236.242859 -456.813690 -0.000014 0.535744
234.514343 -460.312286 -0.000011 0.521660
233.410828 -462.545807 -0.000009 0.522850
232.643860 -464.098206 -0.000008 0.515145
232.078781 -465.241943 -0.000006 0.574197
nan nan nan 0.000000
247.259628 -435.172150 10.999599 1.000000
247.259613 -435.172150 9.581894 1.000000
247.259628 -435.172150 8.180984 1.000000
247.259628 -435.172150 6.793610 1.000000
247.259628 -435.172150 5.416646 1.000000
247.259628 -435.172150 4.047057 1.000000
247.259613 -435.172150 2.681864 1.000000
247.259613 -435.172150 1.318135 1.000000
246.829636 -436.027374 -0.000031 0.538354
239.498840 -450.607910 -0.000019 0.534447
236.351486 -456.867828 -0.000014 0.535866
234.598587 -460.354279 -0.000011 0.561990
233.479507 -462.580048 -0.000009 0.546197
232.701721 -464.127045 -0.000008 0.554696
232.128662 -465.266815 -0.000007 0.524865
nan nan nan 0.000000
247.753250 -434.845947 11.110659 1.000000
247.753265 -434.845947 9.675460 1.000000
247.753265 -434.845947 8.257260 1.000000
247.753265 -434.845917 6.852767 1.000000
247.753265 -434.845917 5.458810 1.000000
247.753265 -434.845917 4.072319 1.000000
247.753265 -434.845917 2.690280 1.000000
247.753265 -434.845917 1.309721 1.000000
247.083115 -436.155945 -0.000031 0.543648
239.650726 -450.684937 -0.000019 0.532006
236.459732 -456.922729 -0.000014 0.534859
234.682541 -460.396851 -0.000011 0.543587
233.547958 -462.614746 -0.000009 0.540963
232.759369 -464.156281 -0.000008 0.527459
232.178375 -465.292023 -0.000007 0.521111
nan nan nan 0.000000
248.259262 -434.511536 11.224955 1.000000
248.259262 -434.511536 9.771751 1.000000
248.259247 -434.511536 8.335758 1.000000
248.259262 -434.511536 6.913644 1.000000
248.259247 -434.511536 5.502201 1.000000
248.259247 -434.511536 4.098316 1.000000
248.259247 -434.511536 2.698940 1.000000
248.259247 -434.511536 1.301061 1.000000
247.335693 -436.286255 -0.000031 0.543862
239.802048 -450.763031 -0.000019 0.537942
236.567596 -456.978394 -0.000014 0.553719
234.766190 -460.440002 -0.000011 0.533471
233.616150 -462.649933 -0.000009 0.548760
232.816818 -464.185944 -0.000008 0.542840
232.227921 -465.317566 -0.000007 0.566247
nan nan nan 0.000000
248.778122 -434.168640 11.342608 1.000000
248.778137 -434.168640 9.870872 1.000000
248.778137 -434.168640 8.416565 1.000000
248.778137 -434.168640 6.976314 1.000000
248.778137 -434.168640 5.546868 1.000000
248.778137 -434.168640 4.125079 1.000000
248.778137 -434.168640 2.707853 1.000000
248.778137 -434.168640 1.292146 1.000000
247.587357 -436.418335 -0.000031 0.542596
239.952835 -450.842163 -0.000019 0.539605
236.675064 -457.034790 -0.000014 0.541573
234.849533 -460.483734 -0.000011 0.534386
233.684097 -462.685608 -0.000009 0.551171
232.874069 -464.215973 -0.000008 0.557076
232.277283 -465.343475 -0.000007 0.529580
nan nan nan 0.000000
249.310425 -433.816864 11.463773 1.000000
249.310440 -433.816864 9.972948 1.000000
249.310425 -433.816864 8.499781 1.000000
249.310440 -433.816864 7.040851 1.000000
249.310440 -433.816864 5.592867 1.000000
249.310440 -433.816864 4.152638 1.000000
249.310425 -433.816864 2.717034 1.000000
249.310425 -433.816864 1.282966 1.000000
247.838089 -436.552185 -0.000031 0.539239
240.103058 -450.922363 -0.000019 0.544366
236.782135 -457.091949 -0.000014 0.529549
234.932571 -460.528076 -0.000011 0.537072
233.751785 -462.721741 -0.000009 0.512627
232.931091 -464.246429 -0.000008 0.520119
232.326447 -465.369720 -0.000007 0.554421
nan nan nan 0.000000
249.856766 -433.455841 11.588595 1.000000
249.856766 -433.455811 10.078110 1.000000
249.856766 -433.455811 8.585510 1.000000
249.856766 -433.455811 7.107338 1.000000
249.856766 -433.455811 5.640256 1.000000
249.856766 -433.455811 4.181030 1.000000
249.856766 -433.455811 2.726491 1.000000
249.856766 -433.455811 1.273509 1.000000
248.087906 -436.687744 -0.000031 0.540993
240.252716 -451.003571 -0.000019 0.558480
236.888809 -457.149841 -0.000014 0.540902
235.015305 -460.572968 -0.000011 0.535943
233.819229 -462.758331 -0.000010 0.531106
232.987915 -464.277252 -0.000008 0.537713
232.375443 -465.396332 -0.000007 0.517250
nan nan nan 0.000000
250.417725 -433.085114 11.717236 1.000000
250.417725 -433.085114 10.186481 1.000000
250.417725 -433.085114 8.673861 1.000000
250.417725 -433.085114 7.175858 1.000000
250.417725 -433.085114 5.689094 1.000000
250.417725 -433.085114 4.210290 1.000000
250.417725 -433.085114 2.736238 1.000000
250.417725 -433.085114 1.263762 1.000000
248.336731 -436.825104 -0.000031 0.542290
240.401810 -451.085846 -0.000019 0.543648
236.995071 -457.208496 -0.000014 0.540230
235.097717 -460.618469 -0.000011 0.536522
233.886414 -462.795410 -0.000009 0.519982
233.044525 -464.308502 -0.000008 0.527428
232.424240 -465.423248 -0.000007 0.537118
nan nan nan 0.000000
250.993958 -432.704315 11.849857 1.000000
250.993958 -432.704285 10.298215 1.000000
250.993958 -432.704285 8.764946 1.000000
250.993958 -432.704285 7.246498 1.000000
250.993958 -432.704285 5.739444 1.000000
250.993973 -432.704285 4.240458 1.000000
250.993958 -432.704285 2.746286 1.000000
250.993958 -432.704285 1.253714 1.000000
248.584625 -436.964142 -0.000031 0.538689
240.550323 -451.169159 -0.000020 0.550744
237.100937 -457.267883 -0.000014 0.542199
235.179810 -460.664520 -0.000011 0.526284
233.953339 -462.832977 -0.000009 0.550881
233.100906 -464.340118 -0.000008 0.512139
232.472855 -465.450531 -0.000007 0.521904
nan nan nan 0.000000
251.586182 -432.312927 11.986644 1.000000
251.586166 -432.312927 10.413450 1.000000
251.586182 -432.312927 8.858892 1.000000
251.586182 -432.312927 7.319357 1.000000
251.586182 -432.312927 5.791372 1.000000
251.586166 -432.312927 4.271571 1.000000
251.586182 -432.312927 2.756649 1.000000
251.586182 -432.312927 1.243350 1.000000
248.831512 -437.104919 -0.000031 0.543801
240.698257 -451.253510 -0.000020 0.546441
237.206360 -457.328003 -0.000014 0.543435
235.261581 -460.711121 -0.000011 0.512749
234.020004 -462.870972 -0.000010 0.559365
233.157059 -464.372131 -0.000008 0.578378
232.521286 -465.478149 -0.000007 0.488716
nan nan nan 0.000000
nan nan nan 0.000000
252.195114 -431.910522 10.532361 1.000000
252.195099 -431.910522 8.955828 1.000000
252.195114 -431.910522 7.394535 1.000000
252.195114 -431.910522 5.844957 1.000000
252.195114 -431.910522 4.303676 1.000000
252.195114 -431.910522 2.767344 1.000000
252.195114 -431.910522 1.232656 1.000000
249.077438 -437.247437 -0.000032 0.536080
240.845596 -451.338898 -0.000020 0.541863
237.311386 -457.388855 -0.000015 0.529610
235.343018 -460.758331 -0.000011 0.533028
234.086395 -462.909454 -0.000010 0.505486
233.212997 -464.404572 -0.000008 0.582818
232.569519 -465.506073 -0.000007 0.543465
nan nan nan 0.000000
nan nan nan 0.000000
252.821533 -431.496552 10.655105 1.000000
252.821533 -431.496552 9.055893 1.000000
252.821533 -431.496552 7.472139 1.000000
252.821533 -431.496552 5.900269 1.000000
252.821533 -431.496552 4.336816 1.000000
252.821533 -431.496552 2.778383 1.000000
252.821518 -431.496552 1.221618 1.000000
249.322342 -437.391663 -0.000032 0.537072
240.992325 -451.425323 -0.000020 0.545174
237.415970 -457.450439 -0.000015 0.535637
235.424133 -460.806091 -0.000012 0.570932
234.152527 -462.948395 -0.000010 0.519097
233.268707 -464.437378 -0.000008 0.544533
232.617554 -465.534363 -0.000007 0.492683
nan nan nan 0.000000
nan nan nan 0.000000
253.466263 -431.070465 10.781867 1.000000
253.466263 -431.070465 9.159235 1.000000
253.466263 -431.070465 7.552284 1.000000
253.466263 -431.070465 5.957392 1.000000
253.466263 -431.070465 4.371040 1.000000
253.466263 -431.070465 2.789782 1.000000
253.466263 -431.070465 1.210218 1.000000
249.566254 -437.537567 -0.000032 0.544167
241.138458 -451.512756 -0.000020 0.544182
237.520126 -457.512756 -0.000015 0.542443
235.504913 -460.854431 -0.000011 0.533532
234.218369 -462.987793 -0.000010 0.554360
233.324173 -464.470551 -0.000008 0.563928
232.665375 -465.562988 -0.000007 0.592340
nan nan nan 0.000000
nan nan nan 0.000000
254.130203 -430.631714 10.912835 1.000000
254.130188 -430.631714 9.266004 1.000000
254.130188 -430.631714 7.635088 1.000000
254.130203 -430.631714 6.016412 1.000000
254.130203 -430.631714 4.406401 1.000000
254.130188 -430.631714 2.801560 1.000000
254.130188 -430.631714 1.198439 1.000000
249.809128 -437.685181 -0.000032 0.541588
241.283966 -451.601166 -0.000020 0.526268
237.623840 -457.575775 -0.000015 0.554833
235.585342 -460.903320 -0.000011 0.516106
234.283951 -463.027649 -0.000010 0.540536
233.379425 -464.504150 -0.000008 0.538354
232.713013 -465.591949 -0.000007 0.562158
nan nan nan 0.000000
nan nan nan 0.000000
nan nan nan 0.000000
nan nan nan 0.000000
nan nan nan 0.000000
nan nan nan 0.000000
nan nan nan 0.000000
nan nan nan 0.000000
nan nan nan 0.000000
250.050964 -437.834503 -0.000032 0.541024
241.428864 -451.690643 -0.000020 0.549035
237.727112 -457.639557 -0.000014 0.552239
235.665436 -460.952759 -0.000011 0.540246
234.349243 -463.067963 -0.000010 0.540780
233.434433 -464.538086 -0.000008 0.555322
232.760437 -465.621216 -0.000007 0.576440
nan nan nan 0.000000
nan nan nan 0.000000
nan nan nan 0.000000
nan nan nan 0.000000
nan nan nan 0.000000
nan nan nan 0.000000
nan nan nan 0.000000
nan nan nan 0.000000
nan nan nan 0.000000
nan nan nan 0.000000
241.573120 -451.781128 -0.000020 0.546212
237.829941 -457.704041 -0.000014 0.532219
235.745178 -461.002777 -0.000012 0.564218
234.414246 -463.108734 -0.000010 0.538323
233.489197 -464.572449 -0.000008 0.537621
232.807663 -465.650848 -0.000007 0.541070
nan nan nan 0.000000
nan nan nan 0.000000
nan nan nan 0.000000
nan nan nan 0.000000
nan nan nan 0.000000
nan nan nan 0.000000
nan nan nan 0.000000
nan nan nan 0.000000
nan nan nan 0.000000
250.531494 -438.138184 -0.000032 0.541695
241.716766 -451.872589 -0.000020 0.544015
237.932312 -457.769226 -0.000014 0.535927
235.824570 -461.053345 -0.000011 0.540612
234.478973 -463.149963 -0.000010 0.537850
