# This PCD file was generated using the MATLABÂ® pcwrite function
# from Computer Vision ToolboxÂ®.
# .PCD v.7 - Point Cloud Data file format
VERSION .7
FIELDS x y z intensity
SIZE 4 4 4 4
TYPE F F F F
COUNT 1 1 1 1
WIDTH 1156
HEIGHT 1
VIEWPOINT 0 0 0 1 0 0 0
POINTS 1156
DATA ascii
215.969788 -287.799774 1.215612 1.000000
222.999847 -286.141724 -0.000008 0.537728
238.883484 -282.395569 -0.000004 0.534997
245.702881 -280.787201 -0.000003 0.537102
249.500931 -279.891449 -0.000001 0.337606
251.925674 -279.319580 0.000002 0.345174
253.610947 -278.922089 0.000002 0.336141
254.852539 -278.629272 -0.000007 0.347982
216.521515 -287.330444 13.845641 1.000000
216.521515 -287.330444 12.213760 1.000000
216.521515 -287.330444 10.604789 1.000000
216.521515 -287.330444 9.014877 1.000000
216.521515 -287.330444 7.440331 1.000000
216.521515 -287.330444 5.877597 1.000000
216.521500 -287.330444 4.323231 1.000000
216.521500 -287.330444 2.773856 1.000000
216.521500 -287.330444 1.226143 1.000000
222.935577 -285.864868 -0.000008 0.543481
238.844955 -282.229706 -0.000004 0.541726
245.675446 -280.668976 -0.000002 0.546868
249.479599 -279.799774 -0.000009 0.335683
251.908325 -279.244812 0.000002 0.335866
253.596329 -278.859131 0.000002 0.335851
254.839935 -278.574982 -0.000008 0.333577
217.058624 -286.873535 13.689272 1.000000
217.058624 -286.873535 12.078932 1.000000
217.058624 -286.873535 10.491202 1.000000
217.058624 -286.873535 8.922277 1.000000
217.058624 -286.873535 7.368513 1.000000
217.058624 -286.873535 5.826410 1.000000
217.058609 -286.873535 4.292562 1.000000
217.058624 -286.873535 2.763642 1.000000
217.058624 -286.873535 1.236358 1.000000
222.873230 -285.587585 -0.000008 0.543572
238.807617 -282.063568 -0.000004 0.542794
245.648819 -280.550568 -0.000002 0.530770
249.458969 -279.707916 -0.000008 0.334905
251.891495 -279.169952 0.000003 0.337789
253.582153 -278.796051 0.000002 0.330159
254.827713 -278.520599 -0.000008 0.332860
217.581787 -286.428497 13.537531 1.000000
217.581787 -286.428497 11.948093 1.000000
217.581787 -286.428497 10.380976 1.000000
217.581787 -286.428497 8.832417 1.000000
217.581772 -286.428497 7.298824 1.000000
217.581772 -286.428497 5.776739 1.000000
217.581772 -286.428497 4.262803 1.000000
217.581772 -286.428497 2.753729 1.000000
217.581772 -286.428497 1.246271 1.000000
222.812836 -285.309845 -0.000008 0.536873
238.771423 -281.897156 -0.000004 0.546975
245.623016 -280.431976 -0.000003 0.537881
249.438950 -279.615967 -0.000008 0.341375
251.875183 -279.094971 0.000003 0.338689
253.568405 -278.732880 0.000002 0.335180
254.815857 -278.466125 -0.000008 0.335714
218.091568 -285.994843 13.390224 1.000000
218.091553 -285.994843 11.821081 1.000000
218.091553 -285.994843 10.273971 1.000000
218.091553 -285.994843 8.745185 1.000000
218.091553 -285.994843 7.231170 1.000000
218.091553 -285.994843 5.728519 1.000000
218.091537 -285.994843 4.233912 1.000000
218.091553 -285.994843 2.744106 1.000000
218.091537 -285.994843 1.255894 1.000000
222.754364 -285.031708 -0.000008 0.538186
238.736389 -281.730530 -0.000004 0.537194
245.598053 -280.313202 -0.000002 0.532906
249.419540 -279.523834 -0.000016 0.334890
251.859406 -279.019867 0.000003 0.334951
253.555115 -278.669617 0.000002 0.330526
254.804398 -278.411560 -0.000009 0.336965
218.588501 -285.572113 13.247175 1.000000
218.588501 -285.572113 11.697739 1.000000
218.588486 -285.572113 10.170058 1.000000
218.588486 -285.572113 8.660471 1.000000
218.588486 -285.572113 7.165474 1.000000
218.588501 -285.572113 5.681692 1.000000
218.588486 -285.572113 4.205856 1.000000
218.588486 -285.572113 2.734760 1.000000
218.588486 -285.572113 1.265239 1.000000
222.697830 -284.753174 -0.000008 0.541924
238.702515 -281.563629 -0.000004 0.539330
245.573914 -280.194244 -0.000003 0.543923
249.400864 -279.431580 -0.000009 0.338460
251.844147 -278.944672 0.000003 0.333516
253.542252 -278.606262 0.000002 0.335790
254.793304 -278.356934 -0.000009 0.335607
219.073135 -285.159851 13.108211 1.000000
219.073120 -285.159851 11.577920 1.000000
219.073120 -285.159851 10.069114 1.000000
219.073120 -285.159851 8.578178 1.000000
219.073120 -285.159851 7.101651 1.000000
219.073120 -285.159851 5.636203 1.000000
219.073120 -285.159851 4.178603 1.000000
219.073105 -285.159851 2.725683 1.000000
219.073105 -285.159851 1.274318 1.000000
222.643265 -284.474243 -0.000008 0.543008
238.669830 -281.396515 -0.000004 0.549859
245.550613 -280.075134 -0.000003 0.541512
249.382813 -279.339203 -0.000006 0.338262
251.829407 -278.869354 0.000004 0.340780
253.529846 -278.542816 0.000002 0.335149
254.782608 -278.302246 -0.000010 0.334249
219.545944 -284.757629 12.973169 1.000000
219.545959 -284.757629 11.461480 1.000000
219.545944 -284.757629 9.971017 1.000000
219.545959 -284.757629 8.498203 1.000000
219.545959 -284.757629 7.039629 1.000000
219.545944 -284.757629 5.591998 1.000000
219.545944 -284.757629 4.152116 1.000000
219.545959 -284.757629 2.716859 1.000000
219.545959 -284.757629 1.283140 1.000000
222.590637 -284.194946 -0.000008 0.540017
238.638290 -281.229187 -0.000004 0.538720
245.528137 -279.955872 -0.000003 0.535164
249.365372 -279.246704 -0.000009 0.335225
251.815201 -278.793945 0.000004 0.330755
253.517868 -278.479279 0.000002 0.343679
254.772278 -278.247467 -0.000010 0.341405
220.007446 -284.365051 12.841887 1.000000
220.007462 -284.365051 11.348282 1.000000
220.007446 -284.365051 9.875651 1.000000
220.007446 -284.365051 8.420461 1.000000
220.007446 -284.365051 6.979336 1.000000
220.007446 -284.365051 5.549023 1.000000
220.007446 -284.365051 4.126369 1.000000
220.007446 -284.365051 2.708284 1.000000
220.007446 -284.365051 1.291716 1.000000
222.539932 -283.915283 -0.000009 0.542107
238.607941 -281.061615 -0.000004 0.531731
245.506500 -279.836456 -0.000003 0.537133
249.348572 -279.154083 -0.000011 0.339162
251.801529 -278.718445 0.000005 0.338796
253.506348 -278.415680 0.000002 0.337987
254.762344 -278.192596 -0.000010 0.333577
220.458054 -283.981750 12.714227 1.000000
220.458054 -283.981750 11.238211 1.000000
220.458038 -283.981750 9.782919 1.000000
220.458038 -283.981750 8.344863 1.000000
220.458038 -283.981750 6.920706 1.000000
220.458038 -283.981750 5.507235 1.000000
220.458038 -283.981750 4.101332 1.000000
220.458038 -283.981750 2.699943 1.000000
220.458038 -283.981750 1.300057 1.000000
222.491226 -283.635284 -0.000008 0.542107
238.578751 -280.893860 -0.000004 0.538430
245.485687 -279.716858 -0.000003 0.539559
249.332413 -279.061371 -0.000014 0.338216
251.788376 -278.642853 0.000005 0.340551
253.495270 -278.351990 0.000002 0.341039
254.752777 -278.137695 -0.000011 0.337942
220.898193 -283.607330 12.590050 1.000000
220.898178 -283.607330 11.131142 1.000000
220.898193 -283.607330 9.692713 1.000000
220.898178 -283.607330 8.271328 1.000000
220.898163 -283.607330 6.863675 1.000000
220.898178 -283.607330 5.466585 1.000000
220.898163 -283.607330 4.076978 1.000000
220.898163 -283.607330 2.691831 1.000000
220.898163 -283.607330 1.308169 1.000000
222.444458 -283.354950 -0.000009 0.543648
238.550735 -280.725891 -0.000004 0.540307
245.465729 -279.597137 -0.000003 0.545586
249.316925 -278.968506 -0.000013 0.334844
251.775757 -278.567169 0.000005 0.343954
253.484619 -278.288208 0.000002 0.335073
254.743622 -278.082703 -0.000009 0.340749
221.328247 -283.241486 12.469219 1.000000
221.328247 -283.241486 11.026960 1.000000
221.328262 -283.241486 9.604943 1.000000
221.328247 -283.241486 8.199775 1.000000
221.328247 -283.241486 6.808185 1.000000
221.328247 -283.241486 5.427034 1.000000
221.328247 -283.241486 4.053279 1.000000
221.328247 -283.241486 2.683938 1.000000
221.328247 -283.241486 1.316062 1.000000
222.399658 -283.074280 -0.000008 0.537713
238.523880 -280.557739 -0.000004 0.542367
245.446594 -279.477295 -0.000003 0.537545
249.302094 -278.875549 -0.000013 0.340902
251.763657 -278.491394 0.000005 0.322621
253.474442 -278.224365 0.000002 0.339849
254.734833 -278.027679 -0.000009 0.331670
221.748657 -282.883881 12.351616 1.000000
221.748642 -282.883881 10.925555 1.000000
221.748627 -282.883881 9.519517 1.000000
221.748627 -282.883881 8.130131 1.000000
221.748627 -282.883881 6.754172 1.000000
221.748627 -282.883881 5.388535 1.000000
221.748627 -282.883881 4.030214 1.000000
221.748627 -282.883881 2.676254 1.000000
221.748627 -282.883881 1.323745 1.000000
222.356812 -282.793304 -0.000009 0.538506
238.498199 -280.389404 -0.000004 0.539895
245.428284 -279.357300 -0.000003 0.544793
249.287903 -278.782501 -0.000013 0.335363
251.752090 -278.415527 0.000007 0.335698
253.464691 -278.160461 0.000002 0.336645
254.726425 -277.972565 -0.000009 0.338476
222.159714 -282.534210 12.237122 1.000000
222.159714 -282.534210 10.826832 1.000000
222.159714 -282.534210 9.436344 1.000000
222.159698 -282.534210 8.062326 1.000000
222.159714 -282.534210 6.701586 1.000000
222.159698 -282.534210 5.351057 1.000000
222.159714 -282.534210 4.007760 1.000000
222.159698 -282.534210 2.668776 1.000000
222.159698 -282.534210 1.331225 1.000000
222.159714 -282.534210 -0.007760 1.000000
238.473724 -280.220886 -0.000004 0.541695
245.410828 -279.237213 -0.000003 0.539666
249.274353 -278.689362 -0.000013 0.336965
251.741074 -278.339569 0.000010 0.338445
253.455383 -278.096497 0.000002 0.337026
254.718414 -277.917389 -0.000009 0.336110
222.561813 -282.192139 12.125615 1.000000
222.561813 -282.192139 10.730688 1.000000
222.561798 -282.192139 9.355347 1.000000
222.561798 -282.192139 7.996294 1.000000
222.561798 -282.192139 6.650375 1.000000
222.561798 -282.192139 5.314556 1.000000
222.561813 -282.192139 3.985890 1.000000
222.561798 -282.192139 2.661491 1.000000
222.561798 -282.192139 1.338509 1.000000
222.561798 -282.192139 0.014109 1.000000
238.450394 -280.052216 -0.000004 0.546227
245.394211 -279.116974 -0.000003 0.541894
249.261475 -278.596130 -0.000013 0.333532
251.730576 -278.263580 0.000013 0.337957
253.446533 -278.032440 0.000002 0.332235
254.710785 -277.862183 -0.000008 0.330816
222.955261 -281.857452 12.016996 1.000000
222.955261 -281.857452 10.637034 1.000000
222.955246 -281.857452 9.276446 1.000000
222.955246 -281.857452 7.931972 1.000000
222.955261 -281.857452 6.600492 1.000000
222.955246 -281.857452 5.279002 1.000000
222.955246 -281.857452 3.964588 1.000000
222.955246 -281.857452 2.654395 1.000000
222.955246 -281.857452 1.345605 1.000000
222.955246 -281.857452 0.035412 1.000000
238.428253 -279.883362 -0.000004 0.543267
245.378418 -278.996643 -0.000003 0.549920
249.249237 -278.502777 -0.000013 0.337041
251.720596 -278.187469 0.000013 0.338064
253.438126 -277.968353 0.000002 0.339483
254.703537 -277.806915 -0.000008 0.332906
223.340363 -281.529846 11.911164 1.000000
223.340363 -281.529846 10.545780 1.000000
223.340363 -281.529846 9.199568 1.000000
223.340363 -281.529846 7.869298 1.000000
223.340363 -281.529846 6.551886 1.000000
223.340363 -281.529846 5.244358 1.000000
223.340363 -281.529846 3.943830 1.000000
223.340363 -281.529846 2.647480 1.000000
223.340363 -281.529846 1.352520 1.000000
223.340363 -281.529846 0.056168 1.000000
238.407288 -279.714355 -0.000005 0.542290
245.363495 -278.876190 -0.000003 0.544518
249.237656 -278.409363 -0.000012 0.341314
251.711151 -278.111328 0.000011 0.335836
253.430176 -277.904205 0.000002 0.326482
254.696671 -277.751587 -0.000007 0.339864
223.717453 -281.209076 11.808015 1.000000
223.717453 -281.209076 10.456840 1.000000
223.717453 -281.209076 9.124639 1.000000
223.717453 -281.209076 7.808214 1.000000
223.717453 -281.209076 6.504512 1.000000
223.717438 -281.209076 5.210592 1.000000
223.717453 -281.209076 3.923600 1.000000
223.717453 -281.209076 2.640742 1.000000
223.717453 -281.209076 1.359257 1.000000
223.717453 -281.209076 0.076399 1.000000
238.387512 -279.545227 -0.000005 0.547082
245.349396 -278.755646 -0.000002 0.545266
249.226715 -278.315887 -0.000012 0.338109
251.702240 -278.035126 0.000013 0.341512
253.422668 -277.839996 0.000002 0.336950
254.690201 -277.696228 -0.000006 0.339269
224.086777 -280.894897 11.707461 1.000000
224.086777 -280.894897 10.370137 1.000000
224.086777 -280.894897 9.051594 1.000000
224.086792 -280.894897 7.748666 1.000000
224.086777 -280.894897 6.458329 1.000000
224.086777 -280.894897 5.177676 1.000000
224.086777 -280.894897 3.903879 1.000000
224.086777 -280.894897 2.634172 1.000000
224.086777 -280.894897 1.365827 1.000000
224.086777 -280.894897 0.096120 1.000000
238.368912 -279.375977 -0.000005 0.542382
245.336136 -278.634979 -0.000002 0.533639
249.216431 -278.222321 -0.000012 0.330571
251.693863 -277.958832 0.000013 0.336965
253.415604 -277.775726 0.000002 0.339147
254.684113 -277.640808 -0.000006 0.339925
224.448624 -280.587097 11.609412 1.000000
224.448624 -280.587097 10.285598 1.000000
224.448624 -280.587097 8.980371 1.000000
224.448624 -280.587097 7.690602 1.000000
224.448624 -280.587097 6.413299 1.000000
224.448624 -280.587097 5.145580 1.000000
224.448624 -280.587097 3.884649 1.000000
224.448624 -280.587097 2.627768 1.000000
224.448624 -280.587097 1.372232 1.000000
224.448624 -280.587097 0.115350 1.000000
238.351486 -279.206573 -0.000005 0.541512
245.323715 -278.514252 -0.000003 0.546242
249.274063 -278.122009 0.010013 1.000000
251.686005 -277.882507 0.000012 0.327520
253.408981 -277.711426 0.000002 0.337240
254.678406 -277.585358 -0.000006 0.340017
224.803253 -280.285431 11.513781 1.000000
224.803253 -280.285431 10.203142 1.000000
224.803253 -280.285400 8.910904 1.000000
224.803253 -280.285431 7.633971 1.000000
224.803253 -280.285431 6.369380 1.000000
224.803253 -280.285400 5.114276 1.000000
224.803253 -280.285431 3.865893 1.000000
224.803253 -280.285431 2.621520 1.000000
224.803253 -280.285431 1.378479 1.000000
224.803253 -280.285431 0.134105 1.000000
238.335266 -279.037079 -0.000005 0.545617
245.312149 -278.393433 -0.000003 0.541909
249.265121 -278.028778 0.010011 1.000000
251.678680 -277.806122 0.000010 0.334890
253.402832 -277.647064 0.000002 0.344991
254.673096 -277.529877 -0.000006 0.340032
225.150925 -279.989685 11.420488 1.000000
225.150909 -279.989685 10.122705 1.000000
225.150925 -279.989685 8.843134 1.000000
225.150909 -279.989685 7.578723 1.000000
225.150925 -279.989685 6.326531 1.000000
225.150909 -279.989685 5.083736 1.000000
225.150925 -279.989685 3.847597 1.000000
225.150909 -279.989685 2.615425 1.000000
225.150909 -279.989685 1.384574 1.000000
225.150925 -279.989685 0.152403 1.000000
238.320206 -278.867462 -0.000005 0.539681
245.301422 -278.272552 -0.000003 0.541039
249.256821 -277.935486 0.010009 1.000000
251.671890 -277.729675 0.000009 0.330358
253.397110 -277.582672 0.000002 0.335943
254.668167 -277.474365 -0.000006 0.331060
225.491852 -279.699646 11.329458 1.000000
225.491852 -279.699646 10.044211 1.000000
225.491852 -279.699646 8.777009 1.000000
225.491852 -279.699646 7.524817 1.000000
225.491852 -279.699646 6.284725 1.000000
225.491852 -279.699646 5.053939 1.000000
225.491837 -279.699646 3.829743 1.000000
225.491837 -279.699646 2.609480 1.000000
225.491837 -279.699646 1.390521 1.000000
225.491837 -279.699646 0.170256 1.000000
238.306335 -278.697723 -0.000005 0.545785
245.291534 -278.151581 -0.000003 0.540658
249.249191 -277.842133 0.010009 1.000000
251.665634 -277.653198 0.000007 0.338674
253.391846 -277.518250 0.000002 0.330449
254.663635 -277.418793 -0.000004 0.340475
225.826263 -279.415192 11.240620 1.000000
225.826263 -279.415192 9.967609 1.000000
225.826248 -279.415192 8.712477 1.000000
225.826248 -279.415192 7.472207 1.000000
225.826263 -279.415192 6.243924 1.000000
225.826263 -279.415192 5.024858 1.000000
225.826263 -279.415192 3.812320 1.000000
225.826263 -279.415192 2.603675 1.000000
225.826263 -279.415192 1.396325 1.000000
225.826263 -279.415192 0.187680 1.000000
238.293655 -278.527924 -0.000005 0.554940
245.282501 -278.030548 -0.000003 0.529198
249.174850 -277.753540 -0.000010 0.344686
251.659943 -277.576691 0.000010 0.332906
253.387039 -277.453766 0.000002 0.339940
254.659485 -277.363220 -0.000004 0.331273
226.154373 -279.136047 11.153897 1.000000
226.154373 -279.136047 9.892836 1.000000
226.154373 -279.136047 8.649479 1.000000
226.154373 -279.136047 7.420850 1.000000
226.154373 -279.136047 6.204094 1.000000
226.154373 -279.136047 4.996470 1.000000
226.154373 -279.136047 3.795310 1.000000
226.154373 -279.136047 2.598009 1.000000
226.154373 -279.136047 1.401990 1.000000
226.154373 -279.136047 0.204689 1.000000
238.282166 -278.358032 -0.000005 0.535576
245.274323 -277.909454 -0.000001 0.337926
nan nan nan 0.000000
251.654755 -277.500122 0.000009 0.344717
253.382675 -277.389282 0.000002 0.342702
254.655731 -277.307587 -0.000003 0.339101
226.476410 -278.862122 11.069221 1.000000
226.476410 -278.862122 9.819828 1.000000
226.476410 -278.862122 8.587973 1.000000
226.476410 -278.862122 7.370708 1.000000
226.476410 -278.862122 6.165207 1.000000
226.476410 -278.862122 4.968752 1.000000
226.476410 -278.862122 3.778704 1.000000
226.476410 -278.862122 2.592478 1.000000
226.476410 -278.862122 1.407522 1.000000
226.476410 -278.862122 0.221295 1.000000
238.271851 -278.188049 -0.000005 0.535058
245.267014 -277.788300 0.000003 0.334493
249.162796 -277.565674 -0.000010 0.334920
251.650101 -277.423523 0.000007 0.341070
253.378754 -277.324738 0.000003 0.335500
254.652359 -277.251953 -0.000001 0.338781
226.792557 -278.593170 10.986537 1.000000
226.792557 -278.593170 9.748532 1.000000
226.792557 -278.593170 8.527908 1.000000
226.792557 -278.593170 7.321743 1.000000
226.792557 -278.593170 6.127233 1.000000
226.792557 -278.593170 4.941687 1.000000
226.792557 -278.593170 3.762488 1.000000
226.792557 -278.593170 2.587077 1.000000
226.792557 -278.593170 1.412923 1.000000
226.792557 -278.593170 0.237511 1.000000
238.262726 -278.018005 -0.000005 0.543084
245.347336 -277.662750 0.010004 1.000000
249.157761 -277.471680 -0.000009 0.338308
251.645981 -277.346893 0.000006 0.334859
253.375290 -277.260193 0.000003 0.339635
254.649384 -277.196289 -0.000001 0.333577
227.103012 -278.329071 10.905775 1.000000
227.103012 -278.329071 9.678896 1.000000
227.103012 -278.329071 8.469242 1.000000
227.103012 -278.329071 7.273915 1.000000
227.103012 -278.329071 6.090141 1.000000
227.103012 -278.329071 4.915249 1.000000
227.103012 -278.329071 3.746648 1.000000
227.103012 -278.329071 2.581800 1.000000
227.103012 -278.329071 1.418200 1.000000
227.103012 -278.329071 0.253351 1.000000
238.254791 -277.847900 -0.000005 0.520729
245.341583 -277.542114 0.009990 1.000000
249.153366 -277.377655 -0.000010 0.338262
251.642426 -277.270233 0.000009 0.336202
253.372284 -277.195618 0.000002 0.335058
254.646790 -277.140625 -0.000000 0.330114
227.407959 -278.069672 10.826878 1.000000
227.407959 -278.069672 9.610866 1.000000
227.407944 -278.069672 8.411930 1.000000
227.407959 -278.069672 7.227193 1.000000
227.407959 -278.069672 6.053905 1.000000
227.407944 -278.069672 4.889421 1.000000
227.407959 -278.069672 3.731174 1.000000
227.407959 -278.069672 2.576645 1.000000
227.407959 -278.069672 1.423354 1.000000
227.407959 -278.069672 0.268825 1.000000
238.248047 -277.677765 -0.000005 0.541741
245.250137 -277.424591 0.000015 0.338354
249.149643 -277.283600 -0.000009 0.337743
251.639374 -277.193573 0.000008 0.340063
253.369720 -277.131012 0.000003 0.327672
254.644577 -277.084900 0.000001 0.330480
227.707535 -277.814819 10.749790 1.000000
227.707535 -277.814819 9.544399 1.000000
227.707535 -277.814819 8.355933 1.000000
227.707550 -277.814819 7.181541 1.000000
227.707535 -277.814819 6.018503 1.000000
227.707535 -277.814819 4.864188 1.000000
227.707535 -277.814819 3.716056 1.000000
227.707535 -277.814819 2.571610 1.000000
227.707535 -277.814819 1.428390 1.000000
227.707535 -277.814819 0.283944 1.000000
238.242493 -277.507568 -0.000005 0.539208
245.246201 -277.303284 0.000016 0.336538
249.146576 -277.189514 -0.000009 0.337484
251.636856 -277.116882 0.000006 0.336156
253.367615 -277.066406 0.000002 0.334951
254.642761 -277.029205 0.000001 0.341451
228.001953 -277.564392 10.674455 1.000000
228.001953 -277.564392 9.479444 1.000000
228.001953 -277.564392 8.301210 1.000000
228.001953 -277.564392 7.136929 1.000000
228.001953 -277.564392 5.983902 1.000000
228.001953 -277.564392 4.839528 1.000000
228.001953 -277.564392 3.701281 1.000000
228.001953 -277.564392 2.566688 1.000000
228.001953 -277.564392 1.433311 1.000000
228.001953 -277.564392 0.298719 1.000000
238.238113 -277.337341 -0.000005 0.546044
245.243088 -277.181946 0.000017 0.339864
249.144165 -277.095428 -0.000009 0.334905
251.634888 -277.040161 0.000005 0.336934
253.365952 -277.001770 0.000003 0.337652
254.641327 -276.973480 0.000002 0.341863
228.291367 -277.318176 10.600821 1.000000
228.291367 -277.318176 9.415955 1.000000
228.291367 -277.318176 8.247721 1.000000
228.291367 -277.318176 7.093325 1.000000
228.291367 -277.318176 5.950085 1.000000
228.291382 -277.318176 4.815424 1.000000
228.291367 -277.318176 3.686839 1.000000
228.291367 -277.318176 2.561878 1.000000
228.291367 -277.318176 1.438122 1.000000
228.291367 -277.318176 0.313160 1.000000
238.234924 -277.167084 -0.000005 0.536202
245.240814 -277.060608 0.000017 0.340322
249.142395 -277.001312 -0.000008 0.333227
251.633469 -276.963440 0.000008 0.337728
253.364746 -276.937134 0.000002 0.345037
254.640289 -276.917755 0.000003 0.340307
228.575928 -277.076141 10.528841 1.000000
228.575912 -277.076141 9.353889 1.000000
228.575912 -277.076141 8.195433 1.000000
228.575912 -277.076141 7.050699 1.000000
228.575912 -277.076141 5.917027 1.000000
228.575912 -277.076141 4.791862 1.000000
228.575912 -277.076141 3.672722 1.000000
228.575912 -277.076141 2.557175 1.000000
228.575912 -277.076141 1.442824 1.000000
228.575912 -277.076141 0.327278 1.000000
238.232941 -276.996796 -0.000005 0.547478
245.239395 -276.939240 0.000016 0.339681
249.141296 -276.907196 -0.000009 0.341054
251.632553 -276.886719 0.000006 0.334981
253.363983 -276.872498 0.000003 0.343542
254.639648 -276.862000 0.000003 0.335714
228.855759 -276.838074 10.458464 1.000000
228.855759 -276.838074 9.293207 1.000000
228.855743 -276.838074 8.144312 1.000000
228.855743 -276.838074 7.009022 1.000000
228.855759 -276.838074 5.884705 1.000000
228.855759 -276.838074 4.768824 1.000000
228.855759 -276.838074 3.658919 1.000000
228.855759 -276.838074 2.552578 1.000000
228.855759 -276.838074 1.447422 1.000000
228.855759 -276.838074 0.341081 1.000000
238.232132 -276.826508 -0.000005 0.536507
245.238831 -276.817871 0.000018 0.332448
249.140854 -276.813049 -0.000009 0.338827
251.632187 -276.809967 0.000005 0.341268
253.363678 -276.807831 0.000003 0.341192
254.639389 -276.806274 0.000005 0.338674
229.131027 -276.603912 10.389643 1.000000
229.131027 -276.603912 9.233867 1.000000
229.131027 -276.603912 8.094318 1.000000
229.131027 -276.603912 6.968267 1.000000
229.131027 -276.603912 5.853098 1.000000
229.131027 -276.603912 4.746296 1.000000
229.131027 -276.603912 3.645422 1.000000
229.131027 -276.603912 2.548081 1.000000
229.131027 -276.603912 1.451918 1.000000
229.131027 -276.603912 0.354578 1.000000
238.232513 -276.656219 -0.000005 0.545678
245.239136 -276.696503 0.000021 0.336263
249.141068 -276.718933 -0.000008 0.336553
251.632370 -276.733246 0.000008 0.334371
253.363831 -276.743195 0.000003 0.340230
254.679413 -276.750763 0.009999 1.000000
229.401871 -276.373505 10.322336 1.000000
229.401871 -276.373505 9.175833 1.000000
229.401871 -276.373505 8.045425 1.000000
229.401871 -276.373505 6.928408 1.000000
229.401871 -276.373505 5.822186 1.000000
229.401871 -276.373505 4.724264 1.000000
229.401871 -276.373505 3.632221 1.000000
229.401871 -276.373505 2.543685 1.000000
229.401871 -276.373505 1.456315 1.000000
229.401871 -276.373505 0.367779 1.000000
238.234085 -276.485962 -0.000005 0.547204
245.240280 -276.575134 0.000024 0.338598
249.141937 -276.624786 -0.000008 0.336507
251.633072 -276.656525 0.000006 0.335653
253.364426 -276.678558 0.000003 0.337896
254.679932 -276.695282 0.010001 1.000000
229.668411 -276.146790 10.256499 1.000000
229.668411 -276.146790 9.119066 1.000000
229.668411 -276.146790 7.997602 1.000000
229.668411 -276.146790 6.889420 1.000000
229.668411 -276.146790 5.791948 1.000000
229.668427 -276.146790 4.702712 1.000000
229.668411 -276.146790 3.619309 1.000000
229.668411 -276.146790 2.539384 1.000000
229.668411 -276.146790 1.460616 1.000000
229.668411 -276.146790 0.380691 1.000000
238.236862 -276.315674 -0.000005 0.529702
245.242218 -276.453766 0.000021 0.336934
249.143463 -276.530670 -0.000008 0.339300
251.634323 -276.579773 0.000005 0.334524
253.411758 -276.614838 0.010000 1.000000
254.680832 -276.639832 0.010001 1.000000
229.930786 -275.923584 10.192093 1.000000
229.930786 -275.923584 9.063534 1.000000
229.930786 -275.923584 7.950818 1.000000
229.930786 -275.923584 6.851280 1.000000
229.930786 -275.923584 5.762370 1.000000
229.930786 -275.923584 4.681631 1.000000
229.930786 -275.923584 3.606678 1.000000
229.930786 -275.923584 2.535176 1.000000
229.930786 -275.923584 1.464823 1.000000
229.930786 -275.923584 0.393322 1.000000
238.240814 -276.145447 -0.000005 0.546822
245.245041 -276.332458 0.000021 0.336675
249.145660 -276.436584 -0.000008 0.339284
251.636108 -276.503082 0.000008 0.340642
253.413223 -276.550507 0.009994 1.000000
254.642212 -276.583313 0.000003 0.337758
230.189117 -275.703827 10.129077 1.000000
230.189117 -275.703827 9.009197 1.000000
230.189117 -275.703827 7.905042 1.000000
230.189117 -275.703827 6.813962 1.000000
230.189117 -275.703827 5.733428 1.000000
230.189117 -275.703827 4.661002 1.000000
230.189117 -275.703827 3.594317 1.000000
230.189102 -275.703827 2.531060 1.000000
230.189102 -275.703827 1.468940 1.000000
230.189117 -275.703827 0.405682 1.000000
238.245941 -275.975250 -0.000005 0.539269
245.248688 -276.211121 0.000020 0.338354
249.148499 -276.342499 -0.000008 0.334325
251.638412 -276.426361 0.000006 0.343038
253.415161 -276.486206 0.009994 1.000000
254.643890 -276.527618 0.000002 0.343725
230.443512 -275.487427 10.067412 1.000000
230.443512 -275.487427 8.956028 1.000000
230.443512 -275.487427 7.860245 1.000000
230.443512 -275.487427 6.777444 1.000000
230.443512 -275.487427 5.705107 1.000000
230.443512 -275.487427 4.640817 1.000000
230.443512 -275.487427 3.582224 1.000000
230.443512 -275.487427 2.527031 1.000000
230.443512 -275.487427 1.472969 1.000000
230.443512 -275.487427 0.417776 1.000000
238.252274 -275.805054 -0.000005 0.535790
245.253204 -276.089844 0.000020 0.333516
249.151993 -276.248444 -0.000008 0.336202
251.641266 -276.349701 0.000005 0.336263
253.371307 -276.420044 0.000000 0.335088
254.645966 -276.471893 0.000001 0.334066
230.694077 -275.274292 10.007066 1.000000
230.694077 -275.274292 8.903996 1.000000
230.694077 -275.274292 7.816410 1.000000
230.694077 -275.274292 6.741708 1.000000
230.694077 -275.274292 5.677391 1.000000
230.694077 -275.274292 4.621062 1.000000
230.694077 -275.274292 3.570389 1.000000
230.694077 -275.274292 2.523089 1.000000
230.694077 -275.274292 1.476911 1.000000
230.694077 -275.274292 0.429611 1.000000
238.259781 -275.634949 -0.000005 0.551751
245.258560 -275.968597 0.000020 0.338109
249.156143 -276.154388 -0.000008 0.335515
251.644669 -276.273010 0.000008 0.338430
253.374161 -276.355469 -0.000001 0.327932
254.648407 -276.416229 -0.000002 0.561364
230.940933 -275.064270 9.948000 1.000000
230.940933 -275.064270 8.853063 1.000000
230.940933 -275.064270 7.773504 1.000000
230.940933 -275.064270 6.706729 1.000000
230.940933 -275.064270 5.650264 1.000000
230.940933 -275.064270 4.601727 1.000000
230.940933 -275.064270 3.558804 1.000000
230.940948 -275.064270 2.519230 1.000000
230.940948 -275.064270 1.480770 1.000000
230.940933 -275.064270 0.441196 1.000000
238.268494 -275.464874 -0.000005 0.523110
245.264755 -275.847382 0.000019 0.335744
249.160965 -276.060394 -0.000007 0.340688
251.648575 -276.196381 0.000006 0.336706
253.377441 -276.290894 -0.000006 0.330907
254.651260 -276.360535 -0.000002 0.515801
231.184204 -274.857361 9.890177 1.000000
231.184204 -274.857361 8.803209 1.000000
231.184204 -274.857361 7.731501 1.000000
231.184204 -274.857361 6.672487 1.000000
231.184204 -274.857361 5.623709 1.000000
231.184204 -274.857361 4.582798 1.000000
231.184204 -274.857361 3.547463 1.000000
231.184204 -274.857361 2.515453 1.000000
231.184204 -274.857361 1.484547 1.000000
231.184204 -274.857361 0.452536 1.000000
238.278381 -275.294891 -0.000005 0.529625
245.271805 -275.726227 0.000019 0.334478
249.166428 -275.966431 -0.000007 0.334707
251.653046 -276.119781 0.000009 0.330739
253.381195 -276.226379 -0.000007 0.330755
254.654495 -276.304901 -0.000002 0.530571
231.423965 -274.653381 9.833569 1.000000
231.423965 -274.653381 8.754400 1.000000
231.423950 -274.653381 7.690382 1.000000
231.423965 -274.653381 6.638964 1.000000
231.423950 -274.653381 5.597711 1.000000
231.423965 -274.653381 4.564269 1.000000
231.423950 -274.653381 3.536362 1.000000
231.423965 -274.653381 2.511755 1.000000
231.423965 -274.653381 1.488245 1.000000
231.423950 -274.653381 0.463638 1.000000
238.289459 -275.124969 -0.000005 0.528679
245.279694 -275.605103 0.000019 0.337896
249.172546 -275.872498 -0.000007 0.334768
251.658035 -276.043213 0.000007 0.342504
253.385422 -276.161865 -0.000003 0.534585
254.658127 -276.249268 -0.000002 0.545815
231.660309 -274.452332 9.778147 1.000000
231.660309 -274.452332 8.706611 1.000000
231.660309 -274.452332 7.650122 1.000000
231.660309 -274.452332 6.606143 1.000000
231.660309 -274.452332 5.572256 1.000000
231.660309 -274.452332 4.546126 1.000000
231.660309 -274.452332 3.525491 1.000000
231.660309 -274.452332 2.508134 1.000000
231.660309 -274.452332 1.491866 1.000000
231.660309 -274.452332 0.474508 1.000000
238.301712 -274.955109 -0.000005 0.543770
245.288422 -275.484039 0.000018 0.331182
249.179337 -275.778595 -0.000007 0.333104
251.663544 -275.966675 0.000006 0.332250
253.390076 -276.097382 -0.000002 0.538155
254.662140 -276.193695 -0.000002 0.536599
231.893356 -274.254089 9.723875 1.000000
231.893356 -274.254089 8.659817 1.000000
231.893356 -274.254089 7.610698 1.000000
231.893356 -274.254089 6.574006 1.000000
231.893356 -274.254089 5.547331 1.000000
231.893356 -274.254089 4.528361 1.000000
231.893356 -274.254089 3.514848 1.000000
231.893356 -274.254089 2.504589 1.000000
231.893356 -274.254089 1.495411 1.000000
231.893356 -274.254089 0.485152 1.000000
238.315155 -274.785370 -0.000005 0.532708
245.298004 -275.363068 0.000018 0.339345
249.186768 -275.684784 -0.000007 0.336706
251.669617 -275.890167 0.000009 0.339055
253.395172 -276.032928 -0.000003 0.515312
254.666534 -276.138123 -0.000002 0.525673
232.123184 -274.058594 9.670727 1.000000
232.123184 -274.058594 8.613989 1.000000
232.123184 -274.058594 7.572090 1.000000
232.123184 -274.058594 6.542531 1.000000
232.123184 -274.058594 5.522922 1.000000
232.123184 -274.058594 4.510963 1.000000
232.123184 -274.058594 3.504424 1.000000
232.123184 -274.058594 2.501117 1.000000
232.123184 -274.058594 1.498883 1.000000
232.123184 -274.058594 0.495576 1.000000
238.329788 -274.615692 -0.000005 0.547890
245.308441 -275.242126 0.000018 0.339559
249.194855 -275.591003 -0.000006 0.336187
251.676208 -275.813721 0.000007 0.343572
253.400726 -275.968536 -0.000003 0.553002
254.671326 -276.082581 -0.000003 0.562722
232.349884 -273.865753 9.618673 1.000000
232.349884 -273.865753 8.569109 1.000000
232.349869 -273.865753 7.534280 1.000000
232.349884 -273.865753 6.511707 1.000000
232.349869 -273.865753 5.499017 1.000000
232.349884 -273.865753 4.493925 1.000000
232.349884 -273.865753 3.494215 1.000000
232.349884 -273.865753 2.497716 1.000000
232.349884 -273.865753 1.502284 1.000000
232.349884 -273.865753 0.505785 1.000000
238.345612 -274.446167 -0.000005 0.545220
245.319702 -275.121277 0.000017 0.334325
249.203598 -275.497284 -0.000006 0.336843
251.683350 -275.737335 0.000010 0.336721
253.406738 -275.904144 -0.000002 0.519524
254.676498 -276.027069 -0.000002 0.544289
232.573532 -273.675476 9.567690 1.000000
232.573532 -273.675476 8.525148 1.000000
232.573532 -273.675476 7.497243 1.000000
232.573532 -273.675476 6.481513 1.000000
232.573532 -273.675476 5.475600 1.000000
232.573532 -273.675476 4.477235 1.000000
232.573532 -273.675476 3.484216 1.000000
232.573532 -273.675476 2.494385 1.000000
232.573532 -273.675476 1.505615 1.000000
232.573532 -273.675476 0.515784 1.000000
238.362610 -274.276733 -0.000005 0.536828
245.331818 -275.000519 0.000016 0.338308
249.212997 -275.403625 -0.000006 0.335698
251.691010 -275.660980 0.000009 0.340414
253.413193 -275.839844 -0.000002 0.565057
254.682068 -275.971619 -0.000002 0.551751
232.794220 -273.487762 9.517748 1.000000
232.794220 -273.487762 8.482086 1.000000
232.794220 -273.487762 7.460963 1.000000
232.794220 -273.487762 6.451938 1.000000
232.794220 -273.487762 5.452663 1.000000
232.794220 -273.487762 4.460886 1.000000
232.794220 -273.487762 3.474421 1.000000
232.794220 -273.487762 2.491123 1.000000
232.794220 -273.487762 1.508878 1.000000
232.794220 -273.487762 0.525579 1.000000
238.380783 -274.107422 -0.000006 0.545785
245.344772 -274.879852 0.000016 0.341360
249.223053 -275.310028 -0.000006 0.338384
251.699219 -275.584686 0.000011 0.340887
253.420090 -275.775543 -0.000003 0.567880
254.688019 -275.916199 -0.000002 0.543252
233.012024 -273.302490 9.468821 1.000000
233.012024 -273.302490 8.439899 1.000000
233.012024 -273.302490 7.425425 1.000000
233.012024 -273.302490 6.422964 1.000000
233.012024 -273.302490 5.430193 1.000000
233.012024 -273.302490 4.444872 1.000000
233.012024 -273.302490 3.464824 1.000000
233.012024 -273.302460 2.487927 1.000000
233.012024 -273.302460 1.512074 1.000000
233.012024 -273.302490 0.535174 1.000000
238.400146 -273.938232 -0.000006 0.543328
245.358566 -274.759277 0.000016 0.336782
249.233749 -275.216492 -0.000006 0.331746
251.707932 -275.508423 0.000010 0.334890
253.427444 -275.711334 -0.000002 0.528344
254.694351 -275.860809 -0.000003 0.540703
233.227020 -273.119568 9.420884 1.000000
233.227020 -273.119568 8.398567 1.000000
233.227020 -273.119568 7.390603 1.000000
233.227020 -273.119568 6.394578 1.000000
233.227020 -273.119568 5.408179 1.000000
233.227020 -273.119568 4.429180 1.000000
233.227020 -273.119568 3.455423 1.000000
233.227020 -273.119568 2.484795 1.000000
233.227020 -273.119568 1.515206 1.000000
233.227020 -273.119568 0.544576 1.000000
238.420700 -273.769196 -0.000005 0.537682
245.373199 -274.638763 0.000015 0.341009
249.245102 -275.123047 -0.000006 0.335363
251.717194 -275.432251 0.000012 0.333394
253.435242 -275.647156 -0.000002 0.571450
254.701080 -275.805481 -0.000003 0.496880
233.439285 -272.939026 9.373919 1.000000
233.439301 -272.939026 8.358072 1.000000
233.439285 -272.939026 7.356488 1.000000
233.439285 -272.939026 6.366765 1.000000
233.439285 -272.939026 5.386609 1.000000
233.439285 -272.939026 4.413806 1.000000
233.439301 -272.939026 3.446212 1.000000
233.439301 -272.939026 2.481727 1.000000
233.439301 -272.939026 1.518273 1.000000
233.439301 -272.939026 0.553787 1.000000
238.442413 -273.600281 -0.000005 0.536995
245.388687 -274.518402 0.000015 0.334890
249.257111 -275.029694 -0.000006 0.334295
251.726974 -275.356140 0.000010 0.332906
253.443497 -275.583038 -0.000003 0.584100
254.708191 -275.750183 -0.000003 0.519432
233.648895 -272.760712 9.327900 1.000000
233.648895 -272.760712 8.318392 1.000000
233.648895 -272.760712 7.323057 1.000000
233.648895 -272.760712 6.339512 1.000000
233.648895 -272.760712 5.365473 1.000000
233.648895 -272.760712 4.398742 1.000000
233.648895 -272.760712 3.437186 1.000000
233.648895 -272.760712 2.478721 1.000000
233.648895 -272.760712 1.521280 1.000000
233.648895 -272.760712 0.562812 1.000000
238.465317 -273.431549 -0.000006 0.537682
245.405014 -274.398132 0.000015 0.338643
249.269760 -274.936432 -0.000008 0.341970
251.737320 -275.280121 0.000014 0.336400
253.452179 -275.518982 -0.000003 0.558068
254.715698 -275.694946 -0.000003 0.490043
233.855911 -272.584595 9.282803 1.000000
233.855911 -272.584595 8.279508 1.000000
233.855911 -272.584595 7.290299 1.000000
233.855911 -272.584595 6.312806 1.000000
233.855911 -272.584595 5.344761 1.000000
233.855911 -272.584595 4.383979 1.000000
233.855911 -272.584595 3.428342 1.000000
233.855911 -272.584595 2.475774 1.000000
233.855911 -272.584595 1.524226 1.000000
233.855911 -272.584595 0.571657 1.000000
238.489410 -273.262970 -0.000005 0.533074
245.422165 -274.277985 0.000015 0.338247
249.283051 -274.843231 -0.000011 0.336873
251.748154 -275.204163 0.000012 0.330358
253.461334 -275.454956 -0.000003 0.530938
254.723572 -275.639771 -0.000003 0.572213
233.794739 -272.369843 9.305937 1.000000
233.794724 -272.369843 8.299456 1.000000
233.794739 -272.369843 7.307103 1.000000
233.794724 -272.369843 6.326506 1.000000
233.794739 -272.369843 5.355386 1.000000
233.794739 -272.369843 4.391551 1.000000
233.794739 -272.369843 3.432880 1.000000
233.794739 -272.369843 2.477286 1.000000
233.794739 -272.369843 1.522715 1.000000
233.794739 -272.369843 0.567120 1.000000
238.514664 -273.094574 -0.000005 0.532677
245.440170 -274.157959 0.000014 0.337774
249.297012 -274.750153 -0.000010 0.337316
251.759552 -275.128265 0.000013 0.329809
253.470917 -275.391022 -0.000003 0.521477
254.731842 -275.584656 -0.000003 0.549538
233.590637 -272.130829 9.365734 1.000000
233.590637 -272.130829 8.351015 1.000000
233.590637 -272.130829 7.350542 1.000000
233.590622 -272.130829 6.361918 1.000000
233.590637 -272.130829 5.382849 1.000000
233.590637 -272.130829 4.411127 1.000000
233.590622 -272.130829 3.444607 1.000000
233.590622 -272.130829 2.481191 1.000000
233.590622 -272.130829 1.518808 1.000000
233.590622 -272.130829 0.555392 1.000000
238.541092 -272.926361 -0.000006 0.552026
245.459000 -274.038055 0.000013 0.336065
249.311661 -274.657166 -0.000005 0.343862
251.771454 -275.052460 0.000012 0.342214
253.480957 -275.327179 -0.000003 0.503151
254.740494 -275.529572 -0.000003 0.528908
233.383148 -271.887817 9.426888 1.000000
233.383148 -271.887817 8.403744 1.000000
233.383148 -271.887817 7.394964 1.000000
233.383148 -271.887817 6.398132 1.000000
233.383148 -271.887817 5.410934 1.000000
233.383148 -271.887817 4.431145 1.000000
233.383148 -271.887817 3.456600 1.000000
233.383148 -271.887817 2.485187 1.000000
233.383148 -271.887817 1.514813 1.000000
233.383148 -271.887817 0.543398 1.000000
238.568695 -272.758331 -0.000005 0.565148
245.478668 -273.918304 0.000013 0.339452
249.326920 -274.564301 -0.000005 0.335500
251.783890 -274.976746 0.000012 0.336843
253.491425 -275.263367 -0.000003 0.577234
254.749527 -275.474579 -0.000003 0.526589
233.172180 -271.640747 9.489429 1.000000
233.172180 -271.640747 8.457670 1.000000
233.172180 -271.640747 7.440396 1.000000
233.172180 -271.640747 6.435170 1.000000
233.172180 -271.640747 5.439658 1.000000
233.172180 -271.640747 4.451618 1.000000
233.172180 -271.640747 3.468867 1.000000
233.172180 -271.640747 2.489272 1.000000
233.172180 -271.640747 1.510727 1.000000
233.172180 -271.640747 0.531133 1.000000
238.597473 -272.590485 -0.000005 0.549126
245.499176 -273.798676 0.000013 0.338186
249.342834 -274.471527 -0.000003 0.325567
251.850967 -274.910583 0.010007 1.000000
253.502350 -275.199646 -0.000003 0.528542
254.758942 -275.419647 -0.000003 0.579583
232.957626 -271.389465 9.553408 1.000000
232.957626 -271.389465 8.512835 1.000000
232.957611 -271.389465 7.486869 1.000000
232.957611 -271.389465 6.473056 1.000000
232.957626 -271.389465 5.469042 1.000000
232.957611 -271.389465 4.472560 1.000000
232.957626 -271.389465 3.481415 1.000000
232.957626 -271.389465 2.493452 1.000000
232.957626 -271.389465 1.506548 1.000000
232.957626 -271.389465 0.518585 1.000000
238.627411 -272.422852 -0.000006 0.533745
245.520523 -273.679199 0.000013 0.341497
249.359390 -274.378845 -0.000003 0.342016
251.864288 -274.835388 0.009988 1.000000
253.513718 -275.136017 -0.000003 0.535958
254.768753 -275.364746 -0.000003 0.549065
232.739349 -271.133850 9.618860 1.000000
232.739349 -271.133850 8.569271 1.000000
232.739349 -271.133850 7.534416 1.000000
232.739349 -271.133850 6.511817 1.000000
232.739349 -271.133850 5.499102 1.000000
232.739349 -271.133850 4.493986 1.000000
232.739349 -271.133850 3.494252 1.000000
232.739349 -271.133850 2.497728 1.000000
232.739349 -271.133850 1.502272 1.000000
232.739349 -271.133850 0.505748 1.000000
238.658539 -272.255432 -0.000006 0.536889
245.542694 -273.559845 0.000012 0.338033
249.376587 -274.286316 -0.000004 0.332891
251.878235 -274.760315 0.009988 1.000000
253.525543 -275.072449 -0.000003 0.511162
254.778931 -275.309967 -0.000003 0.519387
232.517258 -270.873749 9.685839 1.000000
232.517258 -270.873749 8.627020 1.000000
232.517242 -270.873749 7.583069 1.000000
232.517258 -270.873749 6.551480 1.000000
232.517258 -270.873749 5.529862 1.000000
232.517258 -270.873749 4.515910 1.000000
232.517258 -270.873749 3.507388 1.000000
232.517258 -270.873749 2.502104 1.000000
232.517258 -270.873749 1.497896 1.000000
232.517258 -270.873749 0.492612 1.000000
238.690826 -272.088226 -0.000005 0.564797
245.565704 -273.440674 0.000012 0.335866
249.394440 -274.193878 -0.000005 0.340887
251.892715 -274.685364 0.009986 1.000000
253.537796 -275.008972 -0.000003 0.530251
254.789505 -275.255219 -0.000003 0.527001
232.291199 -270.609009 9.754386 1.000000
232.291199 -270.609009 8.686123 1.000000
232.291214 -270.609009 7.632859 1.000000
232.291214 -270.609009 6.592072 1.000000
232.291199 -270.609009 5.561343 1.000000
232.291199 -270.609009 4.538349 1.000000
232.291199 -270.609009 3.520831 1.000000
232.291199 -270.609009 2.506582 1.000000
232.291199 -270.609009 1.493418 1.000000
232.291199 -270.609009 0.479168 1.000000
238.724274 -271.921265 -0.000006 0.547173
245.589539 -273.321686 0.000011 0.334081
249.412918 -274.101593 -0.000005 0.339208
251.854004 -274.599548 0.000012 0.342626
253.550491 -274.945587 -0.000003 0.533928
254.800461 -275.200562 -0.000003 0.540337
232.061081 -270.339508 9.824547 1.000000
232.061081 -270.339508 8.746622 1.000000
232.061081 -270.339508 7.683827 1.000000
232.061081 -270.339508 6.633623 1.000000
232.061081 -270.339508 5.593568 1.000000
232.061081 -270.339508 4.561316 1.000000
232.061081 -270.339508 3.534592 1.000000
232.061081 -270.339508 2.511165 1.000000
232.061081 -270.339508 1.488835 1.000000
232.061081 -270.339508 0.465408 1.000000
238.758881 -271.754547 -0.000006 0.545113
245.614227 -273.202850 0.000011 0.336126
249.432022 -274.009430 -0.000009 0.340246
251.869598 -274.524414 0.000012 0.341817
253.563629 -274.882294 -0.000003 0.557244
254.811783 -275.145996 -0.000003 0.535317
231.826736 -270.065063 9.896383 1.000000
231.826736 -270.065063 8.808558 1.000000
231.826752 -270.065063 7.736008 1.000000
231.826736 -270.065063 6.676162 1.000000
231.826736 -270.065063 5.626559 1.000000
231.826736 -270.065063 4.584830 1.000000
231.826736 -270.065063 3.548681 1.000000
231.826736 -270.065063 2.515858 1.000000
231.826736 -270.065063 1.484142 1.000000
231.826752 -270.065063 0.451319 1.000000
238.794662 -271.588043 -0.000006 0.543313
245.639709 -273.084167 0.000010 0.337072
249.451797 -273.917389 -0.000011 0.332952
251.885727 -274.449371 0.000012 0.326238
253.577225 -274.819092 -0.000003 0.548211
254.823502 -275.091492 -0.000003 0.522881
231.588058 -269.785522 9.969938 1.000000
231.588043 -269.785522 8.871983 1.000000
231.588058 -269.785522 7.789439 1.000000
231.588058 -269.785522 6.719721 1.000000
231.588058 -269.785522 5.660340 1.000000
231.588043 -269.785522 4.608909 1.000000
231.588058 -269.785522 3.563107 1.000000
231.588058 -269.785522 2.520664 1.000000
231.588058 -269.785522 1.479336 1.000000
231.588058 -269.785522 0.436893 1.000000
238.831604 -271.421814 -0.000006 0.542748
245.666046 -272.965698 0.000010 0.339696
249.472244 -273.825500 -0.000006 0.335470
251.902283 -274.374451 -0.000003 0.536568
253.591248 -274.755981 -0.000003 0.546441
254.835587 -275.037079 -0.000003 0.523964
231.344849 -269.500702 10.045274 1.000000
231.344849 -269.500702 8.936939 1.000000
231.344849 -269.500702 7.844167 1.000000
231.344849 -269.500702 6.764336 1.000000
231.344864 -269.500702 5.694941 1.000000
231.344864 -269.500702 4.633569 1.000000
231.344849 -269.500702 3.577882 1.000000
231.344864 -269.500702 2.525585 1.000000
231.344864 -269.500702 1.474415 1.000000
231.344864 -269.500702 0.422117 1.000000
238.869705 -271.255859 -0.000006 0.528801
245.693207 -272.847412 0.000010 0.337636
249.493301 -273.733765 -0.000006 0.334585
251.919464 -274.299652 -0.000003 0.544793
253.605713 -274.692963 -0.000003 0.522957
254.848068 -274.982758 -0.000003 0.541115
231.097000 -269.210449 10.122448 1.000000
231.097000 -269.210449 9.003481 1.000000
231.097000 -269.210449 7.900226 1.000000
231.097015 -269.210449 6.810036 1.000000
231.097015 -269.210449 5.730383 1.000000
231.097015 -269.210449 4.658831 1.000000
231.097015 -269.210449 3.593017 1.000000
231.097015 -269.210449 2.530626 1.000000
231.097015 -269.210449 1.469373 1.000000
231.097015 -269.210449 0.406982 1.000000
238.908966 -271.090149 -0.000006 0.535653
nan nan nan 0.000000
249.515015 -273.642181 -0.000006 0.338720
251.937149 -274.225006 -0.000003 0.546029
253.620621 -274.630066 -0.000003 0.556283
254.860916 -274.928497 -0.000003 0.570489
230.844345 -268.914551 10.201519 1.000000
230.844345 -268.914551 9.071658 1.000000
230.844345 -268.914551 7.957662 1.000000
230.844345 -268.914551 6.856861 1.000000
230.844345 -268.914551 5.766699 1.000000
230.844345 -268.914551 4.684715 1.000000
230.844360 -268.914551 3.608525 1.000000
230.844345 -268.914551 2.535792 1.000000
230.844360 -268.914551 1.464208 1.000000
230.844360 -268.914551 0.391474 1.000000
238.949387 -270.924744 -0.000005 0.546975
245.749969 -272.611389 0.000009 0.338262
249.537476 -273.550781 0.000013 0.334890
251.955368 -274.150452 -0.000003 0.531563
253.635956 -274.567261 -0.000003 0.565240
254.874146 -274.874359 -0.000003 0.517815
230.586716 -268.612823 10.282550 1.000000
230.586700 -268.612793 9.141530 1.000000
230.586700 -268.612793 8.016526 1.000000
230.586700 -268.612793 6.904849 1.000000
230.586700 -268.612793 5.803915 1.000000
230.586716 -268.612793 4.711240 1.000000
230.586700 -268.612793 3.624419 1.000000
230.586716 -268.612823 2.541086 1.000000
230.586716 -268.612823 1.458914 1.000000
230.586700 -268.612793 0.375581 1.000000
238.990952 -270.759613 -0.000005 0.531395
245.779602 -272.493713 0.000009 0.334966
249.560455 -273.459503 0.000013 0.338903
251.974091 -274.076050 -0.000003 0.541756
253.651733 -274.504578 -0.000003 0.544640
254.887756 -274.820313 -0.000003 0.498177
230.323914 -268.305023 10.365615 1.000000
230.323914 -268.305023 9.213150 1.000000
230.323914 -268.305023 8.076866 1.000000
230.323914 -268.305023 6.954038 1.000000
230.323914 -268.305023 5.842063 1.000000
230.323914 -268.305023 4.738431 1.000000
230.323914 -268.305023 3.640709 1.000000
230.323914 -268.305023 2.546513 1.000000
230.323914 -268.305023 1.453488 1.000000
230.323914 -268.305023 0.359290 1.000000
239.033676 -270.594757 -0.000006 0.540887
245.894028 -272.398285 0.009998 1.000000
249.584061 -273.368378 0.000012 0.338643
251.993347 -274.001740 -0.000003 0.538903
253.667953 -274.441986 -0.000003 0.566278
254.901733 -274.766357 -0.000004 0.518944
230.055786 -267.991028 10.450777 1.000000
230.055786 -267.991028 9.286580 1.000000
230.055771 -267.991028 8.138727 1.000000
230.055786 -267.991028 7.004468 1.000000
230.055786 -267.991028 5.881173 1.000000
230.055786 -267.991028 4.766308 1.000000
230.055786 -267.991028 3.657412 1.000000
230.055786 -267.991028 2.552076 1.000000
230.055786 -267.991028 1.447924 1.000000
230.055786 -267.991028 0.342588 1.000000
239.077545 -270.430237 -0.000006 0.548089
245.925095 -272.281586 0.009993 1.000000
249.608307 -273.277435 0.000012 0.341024
252.013107 -273.927612 -0.000004 0.532540
253.684616 -274.379517 -0.000003 0.531960
254.916092 -274.712494 -0.000004 0.520806
229.782120 -267.670502 10.538111 1.000000
229.782120 -267.670502 9.361881 1.000000
229.782120 -267.670502 8.202165 1.000000
229.782120 -267.670502 7.056189 1.000000
229.782120 -267.670502 5.921284 1.000000
229.782120 -267.670502 4.794895 1.000000
229.782120 -267.670502 3.674540 1.000000
229.782120 -267.670502 2.557781 1.000000
229.782120 -267.670502 1.442219 1.000000
229.782120 -267.670502 0.325460 1.000000
239.122559 -270.265991 -0.000006 0.549584
245.873398 -272.141876 0.000008 0.339651
