# This PCD file was generated using the MATLABÂ® pcwrite function
# from Computer Vision ToolboxÂ®.
# .PCD v.7 - Point Cloud Data file format
VERSION .7
FIELDS x y z intensity
SIZE 4 4 4 4
TYPE F F F F
COUNT 1 1 1 1
WIDTH 1153
HEIGHT 1
VIEWPOINT 0 0 0 1 0 0 0
POINTS 1153
DATA ascii
176.361694 -368.853241 15.777951 1.000000
176.361694 -368.853241 13.232186 1.000000
176.361694 -368.853210 10.711030 1.000000
176.361694 -368.853210 8.208787 1.000000
176.361679 -368.853210 5.719944 1.000000
176.361694 -368.853241 3.239096 1.000000
176.361694 -368.853241 0.760904 1.000000
190.415283 -400.918701 -0.000018 0.543404
196.966370 -415.866028 0.000019 0.338735
199.778809 -422.283020 0.000001 0.341924
201.345200 -425.856995 -0.000011 0.339055
202.367325 -428.189148 0.010003 1.000000
203.040298 -429.724640 -0.000003 0.343847
203.552414 -430.893097 0.000007 0.341070
178.189301 -371.765442 20.115746 1.000000
178.189301 -371.765442 17.620083 1.000000
178.189301 -371.765442 15.159455 1.000000
178.189301 -371.765442 12.727973 1.000000
178.189301 -371.765442 10.319991 1.000000
178.189285 -371.765411 7.930078 1.000000
178.189301 -371.765411 5.552958 1.000000
178.189301 -371.765442 3.183474 1.000000
178.189301 -371.765442 0.816526 1.000000
190.675995 -400.805511 -0.000018 0.541497
197.122574 -415.798218 0.000020 0.336904
199.890137 -422.234711 0.000002 0.336080
201.431534 -425.819519 -0.000011 0.338170
202.437363 -428.158752 0.010008 1.000000
203.099609 -429.698914 -0.000004 0.330983
203.603546 -430.870911 0.000007 0.338964
179.860001 -374.427612 19.338253 1.000000
179.860001 -374.427612 16.949694 1.000000
179.860001 -374.427612 14.594677 1.000000
179.860001 -374.427612 12.267547 1.000000
179.860001 -374.427612 9.962912 1.000000
179.860001 -374.427612 7.675566 1.000000
179.860001 -374.427612 5.400470 1.000000
179.860001 -374.427612 3.132680 1.000000
179.860001 -374.427612 0.867320 1.000000
190.937485 -400.694153 -0.000018 0.539254
197.279251 -415.731537 0.000022 0.338933
200.001816 -422.187164 0.000003 0.336416
201.518143 -425.782623 -0.000011 0.329656
202.507614 -428.128845 0.010007 1.000000
203.159088 -429.673584 -0.000004 0.332174
203.654831 -430.849060 0.000007 0.336934
181.393250 -376.870728 18.625540 1.000000
181.393250 -376.870758 16.335165 1.000000
181.393250 -376.870758 14.076951 1.000000
181.393250 -376.870728 11.845486 1.000000
181.393250 -376.870728 9.635584 1.000000
181.393250 -376.870758 7.442263 1.000000
181.393234 -376.870728 5.260690 1.000000
181.393234 -376.870728 3.086119 1.000000
181.393234 -376.870728 0.913880 1.000000
191.199753 -400.584625 -0.000019 0.542351
197.436386 -415.665924 0.000023 0.334691
200.113800 -422.140381 0.000003 0.338155
201.604996 -425.746338 -0.000012 0.337896
202.557037 -428.048553 -0.000007 0.341680
203.218735 -429.648682 -0.000003 0.339040
203.706268 -430.827576 0.000007 0.338659
182.805435 -379.120972 17.969872 1.000000
182.805435 -379.120972 15.769825 1.000000
182.805435 -379.120972 13.600672 1.000000
182.805435 -379.121002 11.457205 1.000000
182.805450 -379.121002 9.334457 1.000000
182.805435 -379.120972 7.227636 1.000000
182.805435 -379.120972 5.132097 1.000000
182.805435 -379.120972 3.043287 1.000000
182.805435 -379.120972 0.956713 1.000000
191.462769 -400.476929 -0.000019 0.540536
197.593979 -415.601410 0.000025 0.337835
200.226120 -422.094391 0.000003 0.338552
201.692108 -425.710693 -0.000012 0.336645
202.628052 -428.019470 -0.000007 0.338933
203.278564 -429.624176 -0.000003 0.332891
203.757843 -430.806458 0.000007 0.333318
184.110565 -381.200653 17.364658 1.000000
184.110580 -381.200653 15.247989 1.000000
184.110580 -381.200653 13.161038 1.000000
184.110565 -381.200653 11.098803 1.000000
184.110580 -381.200653 9.056499 1.000000
184.110565 -381.200653 7.029524 1.000000
184.110565 -381.200653 5.013400 1.000000
184.110580 -381.200653 3.003748 1.000000
184.110580 -381.200653 0.996251 1.000000
191.726532 -400.371063 -0.000019 0.543786
197.752029 -415.538025 0.000027 0.338476
200.338760 -422.049194 0.000003 0.332799
201.779465 -425.675629 -0.000012 0.339117
202.699265 -427.990906 -0.000007 0.341451
nan nan nan 0.000000
203.809586 -430.785706 0.000007 0.341070
185.320465 -383.128540 16.804329 1.000000
185.320465 -383.128540 14.764855 1.000000
185.320465 -383.128540 12.754012 1.000000
185.320465 -383.128540 10.766983 1.000000
185.320465 -383.128540 8.799162 1.000000
185.320465 -383.128540 6.846104 1.000000
185.320465 -383.128540 4.903504 1.000000
185.320465 -383.128540 2.967144 1.000000
185.320465 -383.128540 1.032856 1.000000
191.991043 -400.267059 -0.000020 0.539132
197.910492 -415.475708 0.000028 0.338445
200.451721 -422.004761 0.000003 0.341085
201.867065 -425.641174 -0.000012 0.332219
202.770676 -427.962830 -0.000007 0.335851
203.398727 -429.576447 -0.000003 0.342870
203.861450 -430.765289 0.000007 0.341924
185.968842 -383.671112 16.619133 1.000000
185.968857 -383.671112 14.605167 1.000000
185.968842 -383.671112 12.619479 1.000000
185.968842 -383.671112 10.657312 1.000000
185.968842 -383.671112 8.714104 1.000000
185.968842 -383.671112 6.785481 1.000000
185.968842 -383.671112 4.867183 1.000000
185.968842 -383.671082 2.955044 1.000000
185.968842 -383.671082 1.044954 1.000000
192.256241 -400.164856 -0.000021 0.544076
198.069397 -415.414520 0.000029 0.337148
200.564972 -421.961151 0.000005 0.336370
201.954895 -425.607361 -0.000012 0.334356
202.842285 -427.935242 -0.000007 0.337163
203.459061 -429.553192 -0.000003 0.334508
203.913467 -430.745270 0.000007 0.335119
186.321518 -383.450806 16.639589 1.000000
186.321533 -383.450806 14.622804 1.000000
186.321533 -383.450806 12.634336 1.000000
186.321518 -383.450806 10.669423 1.000000
186.321533 -383.450806 8.723498 1.000000
186.321533 -383.450806 6.792175 1.000000
186.321533 -383.450806 4.871193 1.000000
186.321533 -383.450806 2.956381 1.000000
186.321533 -383.450806 1.043619 1.000000
192.522171 -400.064514 -0.000021 0.536736
198.228729 -415.354431 0.000030 0.338582
200.678543 -421.918335 0.000005 0.335622
202.042969 -425.574127 -0.000012 0.338659
202.914093 -427.908142 -0.000007 0.334279
203.519547 -429.530396 -0.000003 0.340230
203.965622 -430.725586 0.000007 0.340978
186.675201 -383.229858 16.660812 1.000000
186.675201 -383.229858 14.641105 1.000000
186.675217 -383.229858 12.649756 1.000000
186.675217 -383.229858 10.681994 1.000000
186.675201 -383.229858 8.733249 1.000000
186.675201 -383.229858 6.799123 1.000000
186.675201 -383.229858 4.875358 1.000000
186.675201 -383.229858 2.957767 1.000000
186.675201 -383.229858 1.042232 1.000000
192.788803 -399.966064 -0.000022 0.542077
198.430145 -415.409515 0.009988 1.000000
200.792404 -421.876282 0.000005 0.336782
202.131271 -425.541504 -0.000012 0.332601
202.986069 -427.881561 -0.000007 0.339071
203.580185 -429.507996 -0.000002 0.336492
204.017914 -430.706299 0.000008 0.337057
187.029938 -383.008270 16.682817 1.000000
187.029938 -383.008270 14.660080 1.000000
187.029938 -383.008270 12.665742 1.000000
187.029938 -383.008301 10.695023 1.000000
187.029938 -383.008270 8.743355 1.000000
187.029938 -383.008301 6.806327 1.000000
187.029938 -383.008270 4.879674 1.000000
187.029938 -383.008270 2.959206 1.000000
187.029938 -383.008270 1.040794 1.000000
193.056091 -399.869476 -0.000022 0.544152
198.548630 -415.237610 0.000033 0.336889
200.906540 -421.835052 0.000005 0.340780
202.219803 -425.509521 -0.000012 0.332555
203.058243 -427.855499 -0.000007 0.339773
203.640991 -429.486023 -0.000003 0.341527
204.070343 -430.687347 0.000007 0.342504
187.385742 -382.786011 16.705608 1.000000
187.385742 -382.786011 14.679729 1.000000
187.385742 -382.786011 12.682298 1.000000
187.385742 -382.786011 10.708520 1.000000
187.385742 -382.786011 8.753819 1.000000
187.385742 -382.786011 6.813787 1.000000
187.385742 -382.786011 4.884143 1.000000
187.385742 -382.786011 2.960694 1.000000
187.385742 -382.786011 1.039306 1.000000
193.324066 -399.774750 -0.000022 0.540398
198.708908 -415.180054 -0.000036 0.542321
201.020981 -421.794586 0.000006 0.339254
202.308548 -425.478149 -0.000012 0.343160
203.130600 -427.829926 -0.000006 0.336446
203.701950 -429.464478 -0.000002 0.338338
204.122894 -430.668762 0.000007 0.332906
187.742676 -382.563049 16.729185 1.000000
187.742676 -382.563049 14.700063 1.000000
187.742676 -382.563049 12.699424 1.000000
187.742676 -382.563049 10.722483 1.000000
187.742676 -382.563049 8.764648 1.000000
187.742676 -382.563049 6.821507 1.000000
187.742676 -382.563049 4.888767 1.000000
187.742676 -382.563049 2.962234 1.000000
187.742676 -382.563049 1.037765 1.000000
193.592682 -399.681915 -0.000022 0.542306
198.869858 -415.124451 -0.000036 0.533516
201.135696 -421.754974 0.000007 0.339315
202.397507 -425.447418 -0.000012 0.333425
203.203125 -427.804840 -0.000006 0.335821
203.763046 -429.443359 -0.000002 0.339879
204.175583 -430.650543 0.000008 0.339025
188.100769 -382.339355 16.753563 1.000000
188.100769 -382.339355 14.721079 1.000000
188.100769 -382.339355 12.717134 1.000000
188.100784 -382.339355 10.736918 1.000000
188.100784 -382.339355 8.775845 1.000000
188.100784 -382.339355 6.829485 1.000000
188.100784 -382.339355 4.893546 1.000000
188.100784 -382.339355 2.963827 1.000000
188.100784 -382.339355 1.036173 1.000000
193.861954 -399.590942 -0.000023 0.541497
199.031189 -415.069946 -0.000036 0.526116
201.250687 -421.716125 0.000008 0.336751
202.486694 -425.417267 -0.000013 0.337575
203.275818 -427.780304 -0.000006 0.337179
203.824295 -429.422668 -0.000002 0.343313
204.228394 -430.632721 0.000008 0.335470
188.460083 -382.114899 16.778742 1.000000
188.460068 -382.114899 14.742790 1.000000
188.460083 -382.114899 12.735419 1.000000
188.460083 -382.114899 10.751829 1.000000
188.460083 -382.114899 8.787407 1.000000
188.460083 -382.114929 6.837728 1.000000
188.460083 -382.114929 4.898485 1.000000
188.460083 -382.114899 2.965472 1.000000
188.460083 -382.114899 1.034528 1.000000
194.131851 -399.501831 -0.000023 0.539559
199.192886 -415.016541 -0.000036 0.536889
201.365936 -421.678070 0.000008 0.337530
202.576080 -425.387787 -0.000012 0.337499
203.348694 -427.756226 -0.000006 0.342275
203.885681 -429.402405 -0.000002 0.335042
204.281326 -430.615234 0.000008 0.342611
188.820618 -381.889679 16.804729 1.000000
188.820633 -381.889709 14.765196 1.000000
188.820633 -381.889709 12.754297 1.000000
188.820633 -381.889679 10.767220 1.000000
188.820633 -381.889679 8.799343 1.000000
188.820633 -381.889679 6.846235 1.000000
188.820633 -381.889679 4.903583 1.000000
188.820633 -381.889679 2.967170 1.000000
188.820633 -381.889679 1.032830 1.000000
194.402359 -399.414642 -0.000023 0.537499
199.354965 -414.964294 -0.000037 0.533135
201.481461 -421.640839 0.000008 0.338262
202.665665 -425.358887 -0.000013 0.337133
203.421722 -427.732697 -0.000006 0.332708
203.947220 -429.382568 -0.000002 0.337331
204.334381 -430.598145 0.000008 0.343297
189.182465 -381.663635 16.831532 1.000000
189.182465 -381.663635 14.788305 1.000000
189.182465 -381.663666 12.773769 1.000000
189.182465 -381.663666 10.783092 1.000000
189.182465 -381.663666 8.811651 1.000000
189.182465 -381.663666 6.855007 1.000000
189.182465 -381.663666 4.908838 1.000000
189.182465 -381.663666 2.968919 1.000000
189.182465 -381.663666 1.031079 1.000000
194.673462 -399.329315 -0.000023 0.542779
199.517395 -414.913208 -0.000036 0.539651
201.597229 -421.604431 0.000010 0.338308
202.755447 -425.330627 -0.000012 0.339712
203.494919 -427.709656 -0.000006 0.337270
204.008881 -429.363159 -0.000002 0.337713
204.387543 -430.581421 0.000009 0.343816
189.545624 -381.436798 16.859154 1.000000
189.545624 -381.436798 14.812125 1.000000
189.545624 -381.436798 12.793834 1.000000
189.545624 -381.436798 10.799448 1.000000
189.545624 -381.436798 8.824341 1.000000
189.545624 -381.436798 6.864048 1.000000
189.545624 -381.436798 4.914256 1.000000
189.545624 -381.436798 2.970725 1.000000
189.545624 -381.436798 1.029275 1.000000
194.945175 -399.245911 -0.000024 0.536950
199.680191 -414.863220 -0.000036 0.538949
201.713257 -421.568817 0.000010 0.340169
202.845428 -425.303009 -0.000012 0.339391
203.568283 -427.687134 -0.000006 0.333394
204.070679 -429.344208 -0.000001 0.339849
204.440826 -430.565063 0.000008 0.342840
189.910156 -381.209076 16.887611 1.000000
189.910156 -381.209076 14.836661 1.000000
189.910156 -381.209076 12.814506 1.000000
189.910156 -381.209076 10.816298 1.000000
189.910156 -381.209076 8.837408 1.000000
189.910172 -381.209106 6.873363 1.000000
189.910172 -381.209106 4.919837 1.000000
189.910172 -381.209106 2.972585 1.000000
189.910172 -381.209106 1.027416 1.000000
195.217438 -399.164337 -0.000026 0.537560
199.843323 -414.814392 -0.000036 0.547112
201.829529 -421.533997 0.000010 0.334691
202.935608 -425.276031 -0.000012 0.335729
203.641785 -427.665131 -0.000006 0.335607
204.132614 -429.325653 -0.000002 0.343801
204.494232 -430.549072 0.000008 0.336294
190.276123 -380.980469 16.916904 1.000000
190.276123 -380.980469 14.861917 1.000000
190.276123 -380.980469 12.835784 1.000000
190.276123 -380.980469 10.833647 1.000000
190.276123 -380.980499 8.850861 1.000000
190.276123 -380.980469 6.882953 1.000000
190.276123 -380.980499 4.925582 1.000000
190.276123 -380.980499 2.974498 1.000000
190.276123 -380.980499 1.025502 1.000000
195.490280 -399.084747 -0.000026 0.544182
200.006790 -414.766693 -0.000036 0.546136
201.946045 -421.500000 0.000011 0.338155
203.025970 -425.249664 -0.000012 0.336278
203.715454 -427.643646 -0.000006 0.333349
204.194672 -429.307556 -0.000001 0.328176
204.547745 -430.533447 0.000008 0.329000
190.643539 -380.750977 16.947041 1.000000
190.643539 -380.750977 14.887901 1.000000
190.643539 -380.750977 12.857677 1.000000
190.643524 -380.750977 10.851496 1.000000
190.643539 -380.750977 8.864702 1.000000
190.643539 -380.750977 6.892818 1.000000
190.643539 -380.750977 4.931493 1.000000
190.643539 -380.750977 2.976468 1.000000
190.643539 -380.750977 1.023533 1.000000
195.763657 -399.007019 -0.000026 0.545388
200.170593 -414.720123 -0.000036 0.536294
202.062790 -421.466827 0.000011 0.335027
203.116516 -425.223907 -0.000012 0.340063
203.789261 -427.622650 -0.000006 0.329732
204.256851 -429.289886 -0.000001 0.337636
204.601364 -430.518219 0.000008 0.334661
191.012466 -380.520508 16.978035 1.000000
191.012466 -380.520508 14.914627 1.000000
191.012466 -380.520508 12.880189 1.000000
191.012466 -380.520508 10.869848 1.000000
191.012466 -380.520508 8.878937 1.000000
191.012466 -380.520538 6.902962 1.000000
191.012466 -380.520508 4.937571 1.000000
191.012466 -380.520508 2.978491 1.000000
191.012466 -380.520508 1.021509 1.000000
196.037598 -398.931213 -0.000027 0.534447
200.334717 -414.674713 -0.000036 0.543420
202.179764 -421.434479 0.000012 0.339422
203.207230 -425.198822 -0.000012 0.339284
203.863220 -427.602203 -0.000006 0.340322
204.319168 -429.272644 -0.000001 0.331792
204.655090 -430.503357 0.000009 0.332784
191.382935 -380.289093 17.009880 1.000000
191.382935 -380.289093 14.942090 1.000000
191.382935 -380.289093 12.903328 1.000000
191.382935 -380.289093 10.888711 1.000000
191.382935 -380.289093 8.893566 1.000000
191.382935 -380.289124 6.913389 1.000000
191.382935 -380.289093 4.943819 1.000000
191.382935 -380.289093 2.980573 1.000000
191.382935 -380.289093 1.019428 1.000000
196.312042 -398.857330 -0.000027 0.543206
200.499146 -414.630432 -0.000036 0.553964
202.319214 -421.486755 0.009991 1.000000
203.298126 -425.174347 -0.000012 0.337301
203.937317 -427.582245 -0.000006 0.337881
204.381592 -429.255829 -0.000000 0.337087
204.708908 -430.488861 0.000009 0.341527
191.755005 -380.056671 17.042614 1.000000
191.755005 -380.056671 14.970306 1.000000
191.755005 -380.056671 12.927097 1.000000
191.755005 -380.056671 10.908087 1.000000
191.755005 -380.056671 8.908594 1.000000
191.755005 -380.056671 6.924102 1.000000
191.755005 -380.056671 4.950237 1.000000
191.755005 -380.056671 2.982709 1.000000
191.755005 -380.056671 1.017290 1.000000
196.586990 -398.785370 -0.000027 0.543923
200.663895 -414.587341 -0.000037 0.538643
202.436020 -421.456055 0.009975 1.000000
203.389191 -425.150513 -0.000012 0.337774
204.011566 -427.562805 -0.000006 0.337621
204.444138 -429.239471 -0.000000 0.337530
204.762833 -430.474731 0.000009 0.342367
192.128723 -379.823212 17.076216 1.000000
192.128723 -379.823212 14.999284 1.000000
192.128723 -379.823212 12.951507 1.000000
192.128723 -379.823212 10.927990 1.000000
192.128723 -379.823212 8.924027 1.000000
192.128723 -379.823242 6.935101 1.000000
192.128723 -379.823242 4.956828 1.000000
192.128723 -379.823242 2.984906 1.000000
192.128723 -379.823242 1.015095 1.000000
196.862457 -398.715332 -0.000027 0.536309
200.828934 -414.545349 -0.000037 0.537026
202.532013 -421.342285 0.000013 0.337438
203.480408 -425.127319 -0.000012 0.335393
204.085938 -427.543915 -0.000006 0.336217
204.506790 -429.223541 -0.000000 0.340459
204.816864 -430.460999 0.000009 0.333501
192.504120 -379.588715 17.110706 1.000000
192.504120 -379.588715 15.029021 1.000000
192.504135 -379.588715 12.976563 1.000000
192.504135 -379.588715 10.948415 1.000000
192.504135 -379.588715 8.939868 1.000000
192.504135 -379.588715 6.946394 1.000000
192.504135 -379.588715 4.963590 1.000000
192.504135 -379.588715 2.987159 1.000000
192.504135 -379.588715 1.012842 1.000000
197.138367 -398.647156 -0.000030 0.536950
200.994247 -414.504547 -0.000037 0.533455
202.649765 -421.312866 -0.000026 0.534005
203.571793 -425.104767 -0.000012 0.334569
204.160431 -427.525513 -0.000006 0.336416
204.569550 -429.208038 0.000000 0.339132
204.870972 -430.447662 0.000009 0.335241
192.881271 -379.353119 17.146095 1.000000
192.881287 -379.353119 15.059534 1.000000
192.881287 -379.353119 13.002270 1.000000
192.881287 -379.353119 10.969374 1.000000
192.881287 -379.353119 8.956123 1.000000
192.881287 -379.353119 6.957979 1.000000
192.881287 -379.353119 4.970531 1.000000
192.881287 -379.353119 2.989471 1.000000
192.881287 -379.353119 1.010530 1.000000
197.414780 -398.580963 -0.000030 0.543069
nan nan nan 0.000000
202.767807 -421.284607 -0.000026 0.529931
203.663345 -425.082825 -0.000012 0.339712
204.235062 -427.507660 -0.000005 0.342504
204.632416 -429.192993 0.000000 0.331914
204.925186 -430.434662 0.000009 0.334051
193.260208 -379.116394 17.182392 1.000000
193.260208 -379.116394 15.090835 1.000000
193.260208 -379.116425 13.028638 1.000000
193.260208 -379.116425 10.990867 1.000000
193.260208 -379.116425 8.972793 1.000000
193.260208 -379.116425 6.969860 1.000000
193.260208 -379.116425 4.977651 1.000000
193.260208 -379.116425 2.991842 1.000000
193.260208 -379.116425 1.008158 1.000000
197.691635 -398.516693 -0.000030 0.534630
201.325745 -414.426392 -0.000036 0.541329
202.886032 -421.257141 -0.000026 0.545388
203.755035 -425.061554 -0.000012 0.335531
204.309814 -427.490295 -0.000005 0.332784
204.695389 -429.178375 0.000000 0.339422
204.979477 -430.422058 0.000009 0.333150
193.640991 -378.878540 17.219612 1.000000
193.640991 -378.878540 15.122922 1.000000
193.640991 -378.878540 13.055672 1.000000
193.640991 -378.878571 11.012905 1.000000
193.640991 -378.878571 8.989884 1.000000
193.640991 -378.878540 6.982043 1.000000
193.640991 -378.878540 4.984950 1.000000
193.640991 -378.878571 2.994274 1.000000
193.640991 -378.878571 1.005727 1.000000
197.968948 -398.454376 -0.000031 0.542458
201.491882 -414.389038 -0.000036 0.549477
203.004456 -421.230560 -0.000026 0.523873
203.846863 -425.040924 -0.000012 0.336751
204.384674 -427.473480 -0.000005 0.340627
204.758469 -429.164185 0.000000 0.341299
205.033875 -430.409851 0.000010 0.335500
194.023651 -378.639496 17.257753 1.000000
194.023651 -378.639526 15.155811 1.000000
196.325485 -389.407043 11.079893 1.000000
196.325485 -389.407043 9.402194 1.000000
196.325485 -389.407043 7.740711 1.000000
196.325485 -389.407043 6.091693 1.000000
196.325485 -389.407043 4.451506 1.000000
196.325485 -389.407043 2.816585 1.000000
196.325485 -389.407043 1.183415 1.000000
198.246674 -398.393982 -0.000031 0.538643
201.658279 -414.352875 -0.000036 0.543893
203.123047 -421.204742 -0.000026 0.538460
203.938843 -425.020905 -0.000012 0.340047
204.459656 -427.457184 -0.000005 0.331792
204.821640 -429.150452 0.000000 0.336095
205.088333 -430.398010 0.000009 0.339147
194.408264 -378.399261 17.296839 1.000000
194.408264 -378.399261 15.189511 1.000000
196.849625 -390.222687 10.915041 1.000000
196.849625 -390.222687 9.267803 1.000000
196.849625 -390.222687 7.636484 1.000000
196.849625 -390.222687 6.017405 1.000000
196.849625 -390.222687 4.406997 1.000000
196.849625 -390.222687 2.801760 1.000000
196.849625 -390.222656 1.198241 1.000000
198.524811 -398.335510 -0.000031 0.537499
201.824936 -414.317871 -0.000036 0.533745
203.241821 -421.179810 -0.000026 0.528298
204.030960 -425.001556 -0.000012 0.330175
204.534760 -427.441406 -0.000004 0.335958
204.884903 -429.137177 0.000001 0.334676
205.142883 -430.386536 0.000010 0.332647
194.794861 -378.157776 17.336868 1.000000
194.794861 -378.157776 15.224028 1.000000
197.355103 -391.009277 10.756485 1.000000
197.355103 -391.009277 9.138544 1.000000
197.355103 -391.009277 7.536238 1.000000
197.355103 -391.009277 5.945957 1.000000
197.355103 -391.009277 4.364187 1.000000
197.355103 -391.009277 2.787499 1.000000
197.355103 -391.009277 1.212500 1.000000
198.803360 -398.279022 -0.000031 0.542733
201.991821 -414.283997 -0.000036 0.545495
203.360779 -421.155670 -0.000026 0.532891
204.123215 -424.982849 -0.000012 0.341634
204.609955 -427.426147 -0.000004 0.339651
204.948273 -429.124298 0.000001 0.332525
205.197510 -430.375458 0.000010 0.341680
195.183502 -377.914978 17.377869 1.000000
195.183502 -377.914978 15.259376 1.000000
197.842941 -391.768433 10.603882 1.000000
197.842941 -391.768433 9.014139 1.000000
197.842941 -391.768433 7.439755 1.000000
197.842941 -391.768433 5.877189 1.000000
197.842941 -391.768433 4.322986 1.000000
197.842941 -391.768433 2.773776 1.000000
197.842941 -391.768433 1.226224 1.000000
199.082291 -398.224457 -0.000032 0.539101
202.158951 -414.251312 -0.000036 0.524544
203.479889 -421.132385 -0.000026 0.544305
204.215591 -424.964783 -0.000012 0.335378
204.685272 -427.411407 -0.000004 0.333455
205.011719 -429.111908 0.000001 0.339834
205.252228 -430.364777 0.000010 0.331350
195.574265 -377.670898 17.419834 1.000000
195.574265 -377.670898 15.295562 1.000000
198.314072 -392.501587 10.456919 1.000000
198.314072 -392.501587 8.894327 1.000000
198.314072 -392.501587 7.346838 1.000000
198.314072 -392.501587 5.810961 1.000000
198.314072 -392.501587 4.283307 1.000000
198.314072 -392.501587 2.760558 1.000000
198.314072 -392.501587 1.239441 1.000000
199.361588 -398.171814 -0.000032 0.540322
202.326294 -414.219788 -0.000036 0.543404
203.599167 -421.109894 -0.000026 0.542611
204.308090 -424.947357 -0.000012 0.330587
204.760681 -427.397217 -0.000004 0.337438
205.075241 -429.099945 0.000001 0.339940
205.307007 -430.354431 0.000010 0.342916
195.967178 -377.425446 17.462788 1.000000
198.769424 -393.210175 11.870117 1.000000
198.769424 -393.210175 10.315281 1.000000
198.769424 -393.210175 8.778863 1.000000
198.769424 -393.210175 7.257289 1.000000
198.769424 -393.210175 5.747134 1.000000
198.769424 -393.210175 4.245067 1.000000
198.769424 -393.210175 2.747820 1.000000
198.769424 -393.210175 1.252179 1.000000
199.641266 -398.121155 -0.000033 0.539239
202.493851 -414.189453 -0.000036 0.527810
203.718597 -421.088287 -0.000026 0.543709
204.400726 -424.930573 -0.000012 0.336568
204.836197 -427.383545 -0.000004 0.343130
205.138855 -429.088409 0.000001 0.346670
205.361847 -430.344513 0.000010 0.320470
196.362289 -377.178619 17.506741 1.000000
199.209778 -393.895447 11.708007 1.000000
199.209778 -393.895447 10.178709 1.000000
199.209778 -393.895447 8.667522 1.000000
199.209778 -393.895447 7.170941 1.000000
199.209778 -393.895447 5.685590 1.000000
199.209778 -393.895447 4.208192 1.000000
199.209778 -393.895416 2.735538 1.000000
199.209778 -393.895416 1.264461 1.000000
199.921280 -398.072449 -0.000033 0.540612
202.661621 -414.160278 -0.000036 0.526345
203.838165 -421.067474 -0.000026 0.549706
204.504761 -424.980865 0.009982 1.000000
204.911789 -427.370392 -0.000003 0.327550
205.202545 -429.077332 0.000002 0.342626
205.416763 -430.334961 0.000010 0.341283
196.759689 -376.930389 17.551701 1.000000
199.635925 -394.558594 11.551589 1.000000
199.635925 -394.558594 10.046932 1.000000
199.635925 -394.558594 8.560093 1.000000
199.635925 -394.558594 7.087626 1.000000
199.635925 -394.558594 5.626206 1.000000
199.635925 -394.558594 4.172613 1.000000
199.635925 -394.558594 2.723688 1.000000
199.635925 -394.558594 1.276313 1.000000
200.201630 -398.025696 -0.000034 0.542397
202.829590 -414.132263 -0.000036 0.537148
203.957901 -421.047516 -0.000026 0.551461
204.597153 -424.965454 0.009983 1.000000
204.987488 -427.357758 -0.000003 0.334142
205.266312 -429.066711 0.000002 0.331518
205.471741 -430.325775 0.000009 0.339147
197.159424 -376.680695 17.597691 1.000000
200.048584 -395.200745 11.400583 1.000000
200.048584 -395.200775 9.919712 1.000000
200.048584 -395.200775 8.456381 1.000000
200.048584 -395.200745 7.007193 1.000000
200.048584 -395.200745 5.568879 1.000000
200.048584 -395.200745 4.138266 1.000000
200.048584 -395.200745 2.712246 1.000000
200.048584 -395.200745 1.287754 1.000000
200.482300 -397.980896 -0.000034 0.539330
202.997757 -414.105408 -0.000036 0.527535
204.077744 -421.028381 -0.000026 0.539071
204.679260 -424.884125 -0.000012 0.335821
205.063263 -427.345673 -0.000003 0.335576
205.330154 -429.056519 0.000002 0.339879
205.526794 -430.316986 0.000009 0.338186
197.561539 -376.429504 17.644707 1.000000
200.448425 -395.822968 11.254724 1.000000
200.448410 -395.822937 9.796830 1.000000
200.448410 -395.822937 8.356205 1.000000
200.448410 -395.822937 6.929502 1.000000
200.448410 -395.822937 5.513503 1.000000
200.448410 -395.822937 4.105088 1.000000
200.448410 -395.822937 2.701194 1.000000
200.448410 -395.822937 1.298806 1.000000
200.763260 -397.938019 -0.000036 0.543877
203.166092 -414.079773 -0.000036 0.540124
204.197739 -421.010101 -0.000026 0.549722
204.772308 -424.869965 -0.000012 0.330648
205.139114 -427.334106 -0.000003 0.342367
205.394058 -429.046783 0.000002 0.332586
205.581894 -430.308594 0.000009 0.330968
197.966110 -376.176758 17.692787 1.000000
200.836044 -396.426178 11.113755 1.000000
200.836044 -396.426178 9.678068 1.000000
200.836044 -396.426147 8.259386 1.000000
200.836044 -396.426147 6.854415 1.000000
200.836044 -396.426147 5.459986 1.000000
200.836044 -396.426147 4.073024 1.000000
200.836044 -396.426147 2.690514 1.000000
200.836044 -396.426147 1.309485 1.000000
201.044525 -397.897156 -0.000036 0.542657
203.334625 -414.055267 -0.000036 0.540627
204.317856 -420.992645 -0.000026 0.534127
204.865448 -424.856323 -0.000026 0.545266
205.215057 -427.323090 -0.000003 0.341863
205.458038 -429.037476 0.000002 0.343114
205.637054 -430.300598 0.000009 0.339940
198.373199 -375.922485 17.741928 1.000000
201.212067 -397.011292 10.977455 1.000000
201.212067 -397.011292 9.563237 1.000000
201.212067 -397.011292 8.165773 1.000000
201.212067 -397.011292 6.781815 1.000000
201.212067 -397.011292 5.408239 1.000000
201.212067 -397.011292 4.042020 1.000000
201.212067 -397.011292 2.680188 1.000000
201.212067 -397.011292 1.319812 1.000000
201.326080 -397.858246 -0.000036 0.540963
203.503296 -414.031982 -0.000036 0.540673
204.438080 -420.976044 -0.000026 0.536049
204.958694 -424.843445 -0.000026 0.544289
205.291077 -427.312592 -0.000002 0.338384
205.522079 -429.028625 0.000002 0.326802
205.692276 -430.292969 0.000009 0.320165
nan nan nan 0.000000
201.577011 -397.579224 10.845592 1.000000
201.577011 -397.579224 9.452149 1.000000
201.577011 -397.579224 8.075212 1.000000
201.577011 -397.579224 6.711580 1.000000
201.577011 -397.579224 5.358178 1.000000
201.577011 -397.579193 4.012026 1.000000
201.577011 -397.579224 2.670197 1.000000
201.577011 -397.579193 1.329803 1.000000
201.607880 -397.821320 -0.000037 0.539620
203.672150 -414.009857 -0.000036 0.548302
204.558411 -420.960205 -0.000032 0.552407
205.052017 -424.831207 -0.000027 0.557748
205.367157 -427.302612 -0.000002 0.332219
205.586182 -429.020233 0.000003 0.335988
205.747543 -430.285706 0.000009 0.345083
nan nan nan 0.000000
201.931412 -398.130737 10.717964 1.000000
201.931412 -398.130737 9.344627 1.000000
201.931412 -398.130707 7.987556 1.000000
201.931412 -398.130707 6.643600 1.000000
201.931412 -398.130707 5.309726 1.000000
201.931412 -398.130707 3.982996 1.000000
201.931412 -398.130707 2.660526 1.000000
201.931412 -398.130707 1.339473 1.000000
201.931412 -398.130707 0.017003 1.000000
203.841141 -413.988892 -0.000036 0.540871
204.678864 -420.945282 -0.000032 0.548165
205.145432 -424.819641 -0.000026 0.508324
205.443314 -427.293182 -0.000002 0.341482
205.650330 -429.012299 0.000003 0.334020
205.802856 -430.278870 0.000009 0.312261
202.275757 -398.666565 11.967529 1.000000
202.275757 -398.666565 10.594381 1.000000
202.275757 -398.666565 9.240513 1.000000
202.275757 -398.666565 7.902677 1.000000
202.275757 -398.666565 6.577773 1.000000
202.275757 -398.666565 5.262809 1.000000
202.275757 -398.666565 3.954885 1.000000
202.275757 -398.666565 2.651163 1.000000
202.275757 -398.666565 1.348836 1.000000
202.275757 -398.666565 0.045114 1.000000
204.010284 -413.969116 -0.000036 0.539879
204.799423 -420.931183 -0.000032 0.542458
205.238922 -424.808716 -0.000026 0.548791
205.519531 -427.284271 -0.000001 0.332723
205.714554 -429.004791 0.000003 0.341817
205.858231 -430.272369 0.000009 0.335348
202.610489 -399.187439 11.828683 1.000000
202.610489 -399.187439 10.474662 1.000000
202.610489 -399.187439 9.139652 1.000000
202.610489 -399.187439 7.820453 1.000000
202.610489 -399.187439 6.514004 1.000000
202.610489 -399.187439 5.217358 1.000000
202.610489 -399.187439 3.927654 1.000000
202.610489 -399.187439 2.642092 1.000000
202.610489 -399.187439 1.357908 1.000000
202.610489 -399.187439 0.072345 1.000000
204.179550 -413.950531 -0.000035 0.534249
204.920059 -420.917938 -0.000032 0.530358
205.332489 -424.798431 -0.000026 0.544701
205.595810 -427.275879 -0.000001 0.343191
205.778809 -428.997711 0.000003 0.336202
205.913635 -430.266296 0.000009 0.337926
202.936035 -399.694061 11.694115 1.000000
202.936035 -399.694061 10.358631 1.000000
202.936035 -399.694061 9.041899 1.000000
202.936035 -399.694061 7.740762 1.000000
202.936035 -399.694061 6.452200 1.000000
202.936035 -399.694031 5.173306 1.000000
202.936035 -399.694031 3.901262 1.000000
202.936035 -399.694031 2.633302 1.000000
202.936035 -399.694031 1.366699 1.000000
202.936035 -399.694031 0.098737 1.000000
204.348953 -413.933136 -0.000036 0.537560
205.040802 -420.905518 -0.000032 0.553201
205.426132 -424.788818 -0.000026 0.556481
205.672150 -427.268036 -0.000001 0.339071
205.843124 -428.991119 0.000003 0.336767
205.969086 -430.260590 0.000008 0.346548
203.252808 -400.186981 11.563642 1.000000
203.252808 -400.186981 10.246134 1.000000
203.252808 -400.186981 8.947123 1.000000
203.252792 -400.186981 7.663496 1.000000
203.252792 -400.186981 6.392278 1.000000
203.252792 -400.186981 5.130598 1.000000
203.252792 -400.186981 3.875673 1.000000
203.252808 -400.186981 2.624778 1.000000
203.252808 -400.186981 1.375222 1.000000
203.252792 -400.186981 0.124327 1.000000
204.518463 -413.916901 -0.000036 0.536339
205.161621 -420.893951 -0.000033 0.523003
205.519836 -424.779846 -0.000026 0.546212
205.748535 -427.260742 -0.000001 0.330846
205.907471 -428.984955 0.000004 0.322652
206.024582 -430.255280 0.000008 0.326940
203.561172 -400.666870 11.437083 1.000000
203.561172 -400.666870 10.137010 1.000000
203.561172 -400.666870 8.855189 1.000000
203.561172 -400.666870 7.588554 1.000000
203.561172 -400.666870 6.334156 1.000000
203.561172 -400.666870 5.089170 1.000000
203.561172 -400.666870 3.850852 1.000000
203.561172 -400.666870 2.616509 1.000000
203.561172 -400.666870 1.383490 1.000000
203.561172 -400.666840 0.149147 1.000000
204.688080 -413.901886 -0.000036 0.539605
205.282532 -420.883240 -0.000032 0.538842
205.613602 -424.771515 -0.000026 0.550820
205.824966 -427.253967 -0.000000 0.333349
205.971863 -428.979248 0.000004 0.332052
206.080093 -430.250366 0.000008 0.329961
203.861496 -401.134216 11.314288 1.000000
203.861496 -401.134216 10.031132 1.000000
203.861496 -401.134216 8.765991 1.000000
203.861496 -401.134216 7.515835 1.000000
203.861496 -401.134216 6.277760 1.000000
203.861496 -401.134216 5.048975 1.000000
203.861496 -401.134186 3.826769 1.000000
203.861496 -401.134216 2.608488 1.000000
203.861496 -401.134216 1.391512 1.000000
203.861496 -401.134186 0.173230 1.000000
204.857803 -413.888000 -0.000036 0.545632
205.403488 -420.873383 -0.000032 0.553094
205.707413 -424.763855 -0.000026 0.541588
205.901443 -427.247711 -0.000000 0.336187
206.036301 -428.973999 0.000004 0.339086
206.135651 -430.245819 0.000008 0.346731
204.154129 -401.589600 11.195084 1.000000
204.154129 -401.589600 9.928349 1.000000
204.154129 -401.589600 8.679401 1.000000
204.154129 -401.589600 7.445242 1.000000
204.154129 -401.589569 6.223012 1.000000
204.154129 -401.589569 5.009953 1.000000
204.154129 -401.589600 3.803390 1.000000
204.154129 -401.589569 2.600701 1.000000
204.154129 -401.589569 1.399300 1.000000
204.154129 -401.589569 0.196610 1.000000
205.027618 -413.875366 -0.000035 0.535576
205.524536 -420.864349 -0.000032 0.543038
205.801285 -424.756866 -0.000026 0.547982
205.981857 -427.296783 0.009989 1.000000
206.100769 -428.969177 0.000004 0.346365
206.191238 -430.241669 0.000008 0.338689
204.439362 -402.033478 11.079333 1.000000
204.439362 -402.033478 9.828545 1.000000
204.439362 -402.033447 8.595318 1.000000
204.439362 -402.033478 7.376695 1.000000
204.439362 -402.033447 6.169852 1.000000
204.439362 -402.033447 4.972063 1.000000
204.439362 -402.033447 3.780687 1.000000
204.439362 -402.033447 2.593139 1.000000
204.439362 -402.033447 1.406861 1.000000
204.439362 -402.033447 0.219312 1.000000
205.197525 -413.863861 -0.000035 0.540978
205.645630 -420.856171 -0.000032 0.545830
205.895203 -424.750519 -0.000026 0.552453
206.058044 -427.291626 0.009988 1.000000
206.165268 -428.964813 0.000004 0.336492
206.246857 -430.237915 0.000008 0.335042
204.717545 -402.466339 10.966887 1.000000
204.717545 -402.466339 9.731589 1.000000
204.717545 -402.466339 8.513633 1.000000
204.717545 -402.466339 7.310105 1.000000
204.717545 -402.466339 6.118208 1.000000
204.717545 -402.466339 4.935253 1.000000
204.717545 -402.466339 3.758634 1.000000
204.717545 -402.466339 2.585793 1.000000
204.717545 -402.466339 1.414207 1.000000
204.717545 -402.466339 0.241365 1.000000
205.367508 -413.853577 -0.000035 0.534920
205.766785 -420.848816 -0.000032 0.534661
205.989151 -424.744812 -0.000026 0.503288
206.134262 -427.286987 0.009987 1.000000
206.229797 -428.960907 0.000005 0.345876
206.302490 -430.234558 0.000008 0.332326
204.988922 -402.888641 10.857619 1.000000
204.988922 -402.888641 9.637373 1.000000
204.988907 -402.888641 8.434259 1.000000
204.988922 -402.888641 7.245398 1.000000
204.988922 -402.888641 6.068025 1.000000
204.988922 -402.888641 4.899485 1.000000
204.988922 -402.888641 3.737204 1.000000
204.988922 -402.888641 2.578654 1.000000
204.988922 -402.888641 1.421346 1.000000
204.988922 -402.888641 0.262796 1.000000
205.537552 -413.844452 -0.000035 0.550881
205.887970 -420.842316 -0.000032 0.552743
206.083145 -424.739777 -0.000026 0.546456
206.207748 -427.228088 0.000000 0.338293
206.294357 -428.957458 0.000005 0.328237
206.358154 -430.231567 0.000007 0.339742
205.253769 -403.300781 10.751407 1.000000
205.253769 -403.300781 9.545794 1.000000
205.253769 -403.300812 8.357107 1.000000
205.253769 -403.300781 7.182499 1.000000
205.253769 -403.300781 6.019245 1.000000
205.253769 -403.300781 4.864717 1.000000
205.253769 -403.300781 3.716373 1.000000
205.253769 -403.300781 2.571716 1.000000
205.253769 -403.300781 1.428284 1.000000
205.253769 -403.300781 0.283627 1.000000
205.707642 -413.836548 -0.000035 0.543221
206.009216 -420.836670 -0.000032 0.543923
206.177170 -424.735413 -0.000026 0.538109
206.284409 -427.224518 0.000001 0.333425
206.358932 -428.954437 0.000005 0.334295
206.413834 -430.228973 0.000007 0.331945
205.512360 -403.703217 10.648126 1.000000
205.512360 -403.703217 9.456739 1.000000
205.512360 -403.703186 8.282082 1.000000
205.512360 -403.703186 7.121339 1.000000
205.512360 -403.703186 5.971810 1.000000
205.512360 -403.703186 4.830910 1.000000
205.512360 -403.703186 3.696118 1.000000
205.512360 -403.703186 2.564969 1.000000
205.512360 -403.703186 1.435032 1.000000
205.512360 -403.703186 0.303882 1.000000
205.877808 -413.829803 -0.000035 0.546731
206.130493 -420.831879 -0.000032 0.544961
206.271225 -424.731689 -0.000026 0.521019
206.361084 -427.221375 -0.000022 0.530068
206.423523 -428.951904 0.000005 0.344808
206.469543 -430.226776 0.000007 0.340551
205.764923 -404.096252 10.547666 1.000000
205.764923 -404.096222 9.370121 1.000000
205.764923 -404.096222 8.209108 1.000000
205.764923 -404.096222 7.061847 1.000000
205.764923 -404.096222 5.925674 1.000000
205.764923 -404.096222 4.798025 1.000000
205.764923 -404.096222 3.676414 1.000000
205.764923 -404.096222 2.558405 1.000000
205.764923 -404.096222 1.441594 1.000000
205.764923 -404.096222 0.323585 1.000000
206.048004 -413.824249 -0.000035 0.541238
206.251801 -420.827942 -0.000031 0.530205
206.365311 -424.728607 -0.000026 0.526375
206.437775 -427.218872 -0.000022 0.549737
206.488144 -428.949799 0.000005 0.336797
206.525253 -430.224945 0.000007 0.338033
206.011703 -404.480286 10.449918 1.000000
206.011703 -404.480255 9.285839 1.000000
206.011703 -404.480286 8.138103 1.000000
206.011703 -404.480255 7.003962 1.000000
206.011703 -404.480255 5.880782 1.000000
206.011703 -404.480255 4.766029 1.000000
206.011703 -404.480255 3.657243 1.000000
206.011703 -404.480255 2.552020 1.000000
206.011703 -404.480255 1.447980 1.000000
206.011703 -404.480255 0.342756 1.000000
206.218231 -413.819916 -0.000034 0.536141
206.373138 -420.824829 -0.000031 0.536416
206.459412 -424.726196 -0.000026 0.554269
206.514481 -427.216888 -0.000022 0.525994
206.552765 -428.948120 0.000005 0.332845
206.580978 -430.223541 0.000008 0.345327
206.252914 -404.855621 10.354789 1.000000
206.252914 -404.855621 9.203813 1.000000
206.252914 -404.855621 8.068999 1.000000
206.252914 -404.855621 6.947628 1.000000
206.252914 -404.855621 5.837090 1.000000
206.252914 -404.855621 4.734887 1.000000
206.252914 -404.855621 3.638586 1.000000
206.252914 -404.855621 2.545806 1.000000
206.252914 -404.855621 1.454195 1.000000
206.252914 -404.855621 0.361414 1.000000
206.388489 -413.816742 -0.000035 0.527062
206.494492 -420.822571 -0.000032 0.539147
206.553528 -424.724457 -0.000026 0.533364
206.591217 -427.215485 -0.000022 0.664500
206.617401 -428.946930 0.000006 0.337453
206.636703 -430.222473 0.000007 0.345785
206.488770 -405.222656 10.262170 1.000000
206.488770 -405.222656 9.123955 1.000000
206.488770 -405.222656 8.001721 1.000000
206.488770 -405.222656 6.892780 1.000000
206.488770 -405.222656 5.794554 1.000000
206.488770 -405.222656 4.704570 1.000000
206.488770 -405.222626 3.620421 1.000000
206.488770 -405.222656 2.539755 1.000000
206.488770 -405.222626 1.460245 1.000000
206.488770 -405.222626 0.379578 1.000000
206.558777 -413.814758 -0.000034 0.536797
206.615860 -420.821167 -0.000031 0.547433
206.647644 -424.723358 -0.000026 0.538888
206.667938 -427.214569 -0.000022 0.538201
206.682053 -428.946167 0.000006 0.319890
206.692444 -430.221832 0.000007 0.341650
206.719452 -405.581635 10.171981 1.000000
206.719467 -405.581635 9.046189 1.000000
206.719452 -405.581635 7.936207 1.000000
206.719452 -405.581635 6.839370 1.000000
206.719452 -405.581635 5.753133 1.000000
206.719452 -405.581635 4.675046 1.000000
206.719467 -405.581635 3.602733 1.000000
206.719467 -405.581635 2.533863 1.000000
206.719467 -405.581635 1.466137 1.000000
206.719467 -405.581635 0.397267 1.000000
206.729050 -413.813965 -0.000035 0.530846
206.737228 -420.820587 -0.000031 0.540734
206.741776 -424.722931 -0.000026 0.536156
206.744675 -427.214233 -0.000022 0.531060
206.746704 -428.945892 0.000006 0.338048
206.748184 -430.221588 0.000007 0.338506
206.945175 -405.932892 10.084128 1.000000
206.945175 -405.932892 8.970439 1.000000
206.945175 -405.932892 7.872390 1.000000
206.945175 -405.932892 6.787344 1.000000
206.945175 -405.932892 5.712785 1.000000
206.945175 -405.932892 4.646288 1.000000
206.945175 -405.932892 3.585503 1.000000
206.945175 -405.932892 2.528124 1.000000
206.945175 -405.932892 1.471877 1.000000
206.945175 -405.932892 0.414497 1.000000
206.899338 -413.814362 -0.000035 0.539498
206.858597 -420.820862 -0.000031 0.536538
206.835907 -424.723145 -0.000026 0.523308
206.821411 -427.214417 -0.000022 0.532677
206.811340 -428.946045 0.000007 0.328099
206.803925 -430.221710 0.000007 0.340291
207.166107 -406.276703 9.998528 1.000000
207.166107 -406.276672 8.896635 1.000000
207.166107 -406.276672 7.810210 1.000000
207.166107 -406.276672 6.736653 1.000000
207.166107 -406.276672 5.673472 1.000000
207.166107 -406.276672 4.618268 1.000000
207.166107 -406.276672 3.568715 1.000000
207.166107 -406.276672 2.522532 1.000000
207.166107 -406.276672 1.477468 1.000000
207.166107 -406.276672 0.431285 1.000000
207.069626 -413.815948 -0.000035 0.543206
206.979965 -420.821991 -0.000031 0.545312
206.930023 -424.724030 -0.000026 0.542199
206.898148 -427.215118 -0.000022 0.547768
206.875992 -428.946625 0.000006 0.329763
206.859665 -430.222229 0.000007 0.343313
207.382416 -406.613312 9.915103 1.000000
207.382416 -406.613312 8.824702 1.000000
207.382416 -406.613281 7.749610 1.000000
207.382416 -406.613312 6.687250 1.000000
207.382416 -406.613281 5.635158 1.000000
207.382416 -406.613281 4.590959 1.000000
207.382416 -406.613281 3.552353 1.000000
207.382416 -406.613312 2.517081 1.000000
207.382416 -406.613312 1.482919 1.000000
207.382416 -406.613281 0.447647 1.000000
207.239899 -413.818726 -0.000034 0.538155
207.101318 -420.823975 -0.000031 0.525246
207.024139 -424.725555 -0.000026 0.480949
206.974869 -427.216370 -0.000022 0.545678
206.940628 -428.947693 0.000007 0.337026
206.915405 -430.223145 0.000007 0.330816
207.594269 -406.942993 9.833781 1.000000
207.594269 -406.942993 8.754581 1.000000
207.594269 -406.942963 7.690536 1.000000
207.594269 -406.942963 6.639091 1.000000
207.594269 -406.942963 5.597810 1.000000
207.594269 -406.942963 4.564339 1.000000
207.594269 -406.942963 3.536403 1.000000
207.594269 -406.942963 2.511769 1.000000
207.594269 -406.942963 1.488231 1.000000
207.594269 -406.942963 0.463596 1.000000
207.410126 -413.822693 -0.000034 0.552178
207.222656 -420.826813 -0.000031 0.547555
207.118256 -424.727753 -0.000025 0.535256
207.051590 -427.218140 -0.000022 0.515572
207.005264 -428.949188 0.000007 0.341466
206.971130 -430.224426 0.000006 0.339315
207.801834 -407.265961 9.754485 1.000000
207.801834 -407.265961 8.686210 1.000000
207.801834 -407.265961 7.632934 1.000000
207.801834 -407.265961 6.592133 1.000000
207.801834 -407.265961 5.561391 1.000000
207.801834 -407.265961 4.538382 1.000000
207.801834 -407.265961 3.520852 1.000000
207.801834 -407.265961 2.506588 1.000000
207.801834 -407.265961 1.493411 1.000000
207.801834 -407.265961 0.479148 1.000000
207.580353 -413.827850 -0.000034 0.530907
207.343979 -420.830475 -0.000031 0.543893
207.212341 -424.730591 -0.000025 0.540185
207.128296 -427.220459 -0.000021 0.562646
207.068314 -428.997345 0.009989 1.000000
207.026840 -430.226105 0.000006 0.323400
208.005234 -407.582489 9.677151 1.000000
208.005234 -407.582489 8.619530 1.000000
208.005234 -407.582489 7.576757 1.000000
208.005234 -407.582489 6.546337 1.000000
208.005234 -407.582489 5.525873 1.000000
208.005234 -407.582489 4.513066 1.000000
208.005234 -407.582489 3.505684 1.000000
208.005234 -407.582489 2.501536 1.000000
208.005234 -407.582489 1.498464 1.000000
208.005234 -407.582489 0.494315 1.000000
207.750519 -413.834167 -0.000034 0.534829
207.465271 -420.834991 -0.000031 0.523705
207.306396 -424.734100 -0.000026 0.502144
207.204971 -427.223328 -0.000022 0.533837
207.132599 -428.999725 0.009988 1.000000
207.082550 -430.228180 0.000006 0.332601
208.204636 -407.892792 9.601708 1.000000
208.204636 -407.892792 8.554482 1.000000
208.204636 -407.892792 7.521955 1.000000
208.204636 -407.892792 6.501659 1.000000
208.204636 -407.892792 5.491225 1.000000
208.204636 -407.892792 4.488372 1.000000
208.204636 -407.892792 3.490888 1.000000
208.204636 -407.892792 2.496608 1.000000
208.204636 -407.892792 1.503392 1.000000
208.204636 -407.892792 0.509111 1.000000
207.920639 -413.841705 -0.000033 0.538293
207.586517 -420.840363 -0.000031 0.546761
207.400436 -424.738251 -0.000025 0.551675
207.281631 -427.226715 -0.000021 0.562554
207.196854 -429.002563 0.009989 1.000000
207.138229 -430.230652 0.000005 0.334462
208.400162 -408.197052 9.528099 1.000000
208.400162 -408.197052 8.491011 1.000000
208.400162 -408.197052 7.468486 1.000000
208.400162 -408.197052 6.458069 1.000000
208.400162 -408.197052 5.457418 1.000000
208.400162 -408.197052 4.464275 1.000000
208.400162 -408.197052 3.476451 1.000000
208.400162 -408.197052 2.491799 1.000000
208.400162 -408.197052 1.508201 1.000000
208.400162 -408.197052 0.523548 1.000000
208.090698 -413.850433 -0.000033 0.540139
207.707733 -420.846558 -0.000031 0.532006
207.494446 -424.743073 -0.000025 0.552850
207.358276 -427.230652 -0.000021 0.532677
207.263626 -428.959717 0.000008 0.347036
207.193909 -430.233490 0.000006 0.327489
208.591949 -408.495514 9.456260 1.000000
208.591949 -408.495514 8.429071 1.000000
208.591949 -408.495514 7.416302 1.000000
208.591949 -408.495514 6.415527 1.000000
208.591949 -408.495514 5.424425 1.000000
208.591949 -408.495514 4.440761 1.000000
208.591949 -408.495514 3.462362 1.000000
208.591949 -408.495483 2.487106 1.000000
208.591949 -408.495483 1.512894 1.000000
208.591949 -408.495483 0.537637 1.000000
208.260696 -413.860321 -0.000033 0.540627
207.828903 -420.853638 -0.000031 0.522026
207.588409 -424.748535 -0.000025 0.555535
207.434875 -427.235107 -0.000021 0.521767
207.328171 -428.963501 0.000008 0.340414
207.249542 -430.236755 0.000005 0.334844
208.780121 -408.788330 9.386137 1.000000
208.780121 -408.788330 8.368607 1.000000
208.780121 -408.788330 7.365362 1.000000
208.780121 -408.788330 6.374001 1.000000
208.780121 -408.788330 5.392220 1.000000
208.780121 -408.788330 4.417806 1.000000
208.780121 -408.788330 3.448609 1.000000
208.780121 -408.788330 2.482525 1.000000
208.780121 -408.788330 1.517475 1.000000
208.780121 -408.788330 0.551390 1.000000
208.430634 -413.871429 -0.000033 0.539040
207.950012 -420.861542 -0.000030 0.530343
207.682343 -424.754669 -0.000025 0.542000
207.511459 -427.240112 -0.000021 0.545129
207.392670 -428.967682 0.000008 0.339803
207.305176 -430.240387 0.000005 0.336553
208.964783 -409.075714 9.317673 1.000000
208.964783 -409.075714 8.309575 1.000000
208.964783 -409.075714 7.315631 1.000000
208.964798 -409.075684 6.333457 1.000000
208.964783 -409.075684 5.360776 1.000000
208.964783 -409.075684 4.395395 1.000000
208.964798 -409.075684 3.435182 1.000000
208.964783 -409.075714 2.478052 1.000000
208.964798 -409.075714 1.521948 1.000000
208.964798 -409.075684 0.564818 1.000000
208.600479 -413.883698 -0.000033 0.538445
208.071075 -420.870270 -0.000030 0.534035
207.776230 -424.761475 -0.000025 0.544549
207.587997 -427.245636 -0.000021 0.499611
207.457169 -428.972229 -0.000019 0.544244
207.360764 -430.244385 0.000005 0.340703
209.146072 -409.357819 9.250817 1.000000
209.146072 -409.357819 8.251930 1.000000
209.146072 -409.357819 7.267065 1.000000
209.146072 -409.357819 6.293867 1.000000
209.146088 -409.357819 5.330072 1.000000
209.146088 -409.357819 4.373510 1.000000
209.146088 -409.357819 3.422069 1.000000
209.146088 -409.357819 2.473685 1.000000
209.146088 -409.357819 1.526315 1.000000
209.146072 -409.357819 0.577930 1.000000
208.770233 -413.897156 -0.000033 0.552682
208.192078 -420.879883 -0.000030 0.529580
207.870056 -424.768890 -0.000025 0.537881
207.664490 -427.251709 -0.000021 0.509422
207.521606 -428.977356 -0.000019 0.519142
207.416336 -430.248779 0.000005 0.340307
209.324097 -409.634827 9.185520 1.000000
209.324097 -409.634827 8.195627 1.000000
209.324097 -409.634827 7.219633 1.000000
