# This PCD file was generated using the MATLABÂ® pcwrite function
# from Computer Vision ToolboxÂ®.
# .PCD v.7 - Point Cloud Data file format
VERSION .7
FIELDS x y z intensity
SIZE 4 4 4 4
TYPE F F F F
COUNT 1 1 1 1
WIDTH 1194
HEIGHT 1
VIEWPOINT 0 0 0 1 0 0 0
POINTS 1194
DATA ascii
345.314301 -510.417145 0.480873 1.000000
345.307068 -510.368530 3.512832 1.000000
345.307068 -510.368530 3.304421 1.000000
345.307068 -510.368530 3.098936 1.000000
345.307068 -510.368530 2.895885 1.000000
345.307068 -510.368530 2.694796 1.000000
345.307068 -510.368530 2.495216 1.000000
345.307068 -510.368530 2.296705 1.000000
345.307068 -510.368530 2.098831 1.000000
345.307068 -510.368530 1.901169 1.000000
345.307068 -510.368530 1.703295 1.000000
345.307068 -510.368530 1.504784 1.000000
345.307068 -510.368530 1.305204 1.000000
345.307068 -510.368530 1.104115 1.000000
345.307068 -510.368530 0.901064 1.000000
345.307068 -510.368530 0.695579 1.000000
345.307068 -510.368530 0.487167 1.000000
345.299866 -510.320313 3.506662 1.000000
345.299866 -510.320313 3.299101 1.000000
345.299866 -510.320313 3.094454 1.000000
345.299866 -510.320313 2.892231 1.000000
345.299866 -510.320313 2.691962 1.000000
345.299866 -510.320313 2.493196 1.000000
345.299866 -510.320313 2.295495 1.000000
345.299866 -510.320313 2.098428 1.000000
345.299866 -510.320313 1.901572 1.000000
345.299866 -510.320313 1.704505 1.000000
345.299866 -510.320313 1.506803 1.000000
345.299866 -510.320313 1.308038 1.000000
345.299866 -510.320313 1.107769 1.000000
345.299866 -510.320313 0.905545 1.000000
345.299866 -510.320313 0.700898 1.000000
345.299866 -510.320313 0.493337 1.000000
345.292755 -510.272461 3.500616 1.000000
345.292755 -510.272461 3.293887 1.000000
345.292755 -510.272461 3.090062 1.000000
345.292755 -510.272461 2.888650 1.000000
345.292755 -510.272461 2.689185 1.000000
345.292755 -510.272461 2.491217 1.000000
345.292755 -510.272461 2.294309 1.000000
345.292755 -510.272461 2.098033 1.000000
345.292755 -510.272461 1.901967 1.000000
345.292755 -510.272461 1.705691 1.000000
345.292755 -510.272461 1.508783 1.000000
345.292755 -510.272461 1.310814 1.000000
345.292755 -510.272461 1.111350 1.000000
345.292755 -510.272461 0.909938 1.000000
345.292755 -510.272461 0.706112 1.000000
345.292755 -510.272461 0.499384 1.000000
345.285675 -510.225006 3.494690 1.000000
345.285675 -510.225006 3.288778 1.000000
345.285675 -510.225006 3.085757 1.000000
345.285675 -510.225006 2.885141 1.000000
345.285675 -510.225006 2.686464 1.000000
345.285675 -510.225006 2.489277 1.000000
345.285675 -510.225006 2.293147 1.000000
345.285675 -510.225006 2.097646 1.000000
345.285675 -510.225006 1.902354 1.000000
345.285675 -510.225006 1.706853 1.000000
345.285675 -510.225006 1.510722 1.000000
345.285675 -510.225006 1.313536 1.000000
345.285675 -510.225006 1.114859 1.000000
345.285675 -510.225006 0.914242 1.000000
345.285675 -510.225006 0.711222 1.000000
345.285675 -510.225006 0.505310 1.000000
345.278656 -510.177917 3.488883 1.000000
345.278656 -510.177917 3.283771 1.000000
345.278656 -510.177917 3.081539 1.000000
345.278656 -510.177917 2.881702 1.000000
345.278656 -510.177917 2.683797 1.000000
345.278656 -510.177917 2.487376 1.000000
345.278656 -510.177917 2.292008 1.000000
345.278656 -510.177917 2.097266 1.000000
345.278656 -510.177917 1.902734 1.000000
345.278656 -510.177917 1.707992 1.000000
345.278656 -510.177917 1.512623 1.000000
345.278656 -510.177917 1.316203 1.000000
345.278656 -510.177917 1.118298 1.000000
345.278656 -510.177917 0.918460 1.000000
345.278656 -510.177917 0.716229 1.000000
345.278656 -510.177917 0.511117 1.000000
345.271698 -510.131195 3.483192 1.000000
345.271698 -510.131195 3.278865 1.000000
345.271698 -510.131195 3.077406 1.000000
345.271698 -510.131195 2.878333 1.000000
345.271698 -510.131195 2.681184 1.000000
345.271698 -510.131195 2.485514 1.000000
345.271698 -510.131195 2.290892 1.000000
345.271698 -510.131195 2.096895 1.000000
345.271698 -510.131195 1.903105 1.000000
345.271698 -510.131195 1.709108 1.000000
345.271698 -510.131195 1.514486 1.000000
345.271698 -510.131195 1.318816 1.000000
345.271698 -510.131195 1.121667 1.000000
345.271698 -510.131195 0.922594 1.000000
345.271698 -510.131195 0.721135 1.000000
345.271698 -510.131195 0.516807 1.000000
345.264801 -510.084839 3.477618 1.000000
345.264801 -510.084839 3.274058 1.000000
345.264801 -510.084839 3.073357 1.000000
345.264801 -510.084839 2.875031 1.000000
345.264801 -510.084839 2.678623 1.000000
345.264801 -510.084839 2.483689 1.000000
345.264801 -510.084839 2.289798 1.000000
345.264801 -510.084839 2.096530 1.000000
345.264801 -510.084839 1.903469 1.000000
345.264801 -510.084839 1.710202 1.000000
345.264801 -510.084839 1.516311 1.000000
345.264801 -510.084839 1.321377 1.000000
345.264801 -510.084839 1.124968 1.000000
345.264801 -510.084839 0.926643 1.000000
345.264801 -510.084839 0.725941 1.000000
345.264801 -510.084839 0.522382 1.000000
345.257935 -510.038818 3.472157 1.000000
345.257935 -510.038818 3.269349 1.000000
345.257935 -510.038818 3.069389 1.000000
345.257935 -510.038818 2.871797 1.000000
345.257935 -510.038818 2.676115 1.000000
345.257935 -510.038818 2.481901 1.000000
345.257935 -510.038818 2.288727 1.000000
345.257935 -510.038818 2.096174 1.000000
345.257935 -510.038818 1.903826 1.000000
345.257935 -510.038818 1.711273 1.000000
345.257935 -510.038818 1.518099 1.000000
345.257935 -510.038818 1.323885 1.000000
345.257935 -510.038818 1.128203 1.000000
345.257935 -510.038818 0.930611 1.000000
345.257935 -510.038818 0.730651 1.000000
345.257935 -510.038818 0.527843 1.000000
345.251129 -509.993134 3.466806 1.000000
345.251129 -509.993134 3.264736 1.000000
345.251129 -509.993134 3.065503 1.000000
345.251129 -509.993134 2.868629 1.000000
345.251129 -509.993134 2.673658 1.000000
345.251129 -509.993134 2.480150 1.000000
345.251129 -509.993134 2.287678 1.000000
345.251129 -509.993134 2.095824 1.000000
345.251129 -509.993134 1.904176 1.000000
345.251129 -509.993134 1.712322 1.000000
345.251129 -509.993134 1.519850 1.000000
345.251129 -509.993134 1.326342 1.000000
345.251129 -509.993134 1.131371 1.000000
345.251129 -509.993134 0.934497 1.000000
345.251129 -509.993134 0.735264 1.000000
345.251129 -509.993134 0.533193 1.000000
345.244385 -509.947754 3.461566 1.000000
345.244385 -509.947754 3.260217 1.000000
345.244385 -509.947754 3.061696 1.000000
345.244385 -509.947754 2.865525 1.000000
345.244385 -509.947754 2.671251 1.000000
345.244385 -509.947784 2.478435 1.000000
345.244385 -509.947754 2.286650 1.000000
345.244385 -509.947754 2.095482 1.000000
345.244385 -509.947754 1.904518 1.000000
345.244385 -509.947754 1.713350 1.000000
345.244385 -509.947784 1.521565 1.000000
345.244385 -509.947754 1.328749 1.000000
345.244385 -509.947754 1.134474 1.000000
345.244385 -509.947754 0.938304 1.000000
345.244385 -509.947754 0.739782 1.000000
345.244385 -509.947754 0.538434 1.000000
345.237671 -509.902740 3.456433 1.000000
345.237671 -509.902740 3.255792 1.000000
345.237671 -509.902740 3.057968 1.000000
345.237671 -509.902740 2.862486 1.000000
345.237671 -509.902740 2.668894 1.000000
345.237671 -509.902740 2.476754 1.000000
345.237671 -509.902740 2.285644 1.000000
345.237671 -509.902740 2.095146 1.000000
345.237671 -509.902740 1.904854 1.000000
345.237671 -509.902740 1.714356 1.000000
345.237671 -509.902740 1.523245 1.000000
345.237671 -509.902740 1.331106 1.000000
345.237671 -509.902740 1.137513 1.000000
345.237671 -509.902740 0.942032 1.000000
345.237671 -509.902740 0.744208 1.000000
345.237671 -509.902740 0.543566 1.000000
345.230988 -509.858002 3.451407 1.000000
345.230988 -509.858002 3.251458 1.000000
345.230988 -509.858002 3.054317 1.000000
345.230988 -509.858002 2.859510 1.000000
345.230988 -509.858002 2.666585 1.000000
345.230988 -509.858002 2.475109 1.000000
345.230988 -509.858002 2.284658 1.000000
345.230988 -509.858002 2.094818 1.000000
345.230988 -509.858002 1.905182 1.000000
345.230988 -509.858002 1.715342 1.000000
345.230988 -509.858002 1.524891 1.000000
345.230988 -509.858002 1.333414 1.000000
345.230988 -509.858002 1.140490 1.000000
345.230988 -509.858002 0.945683 1.000000
345.230988 -509.858002 0.748541 1.000000
345.230988 -509.858002 0.548592 1.000000
345.224396 -509.813599 3.446486 1.000000
345.224396 -509.813599 3.247215 1.000000
345.224396 -509.813599 3.050742 1.000000
345.224396 -509.813599 2.856596 1.000000
345.224396 -509.813599 2.664326 1.000000
345.224396 -509.813599 2.473498 1.000000
345.224396 -509.813599 2.283693 1.000000
345.224365 -509.813599 2.094497 1.000000
345.224365 -509.813599 1.905503 1.000000
345.224365 -509.813599 1.716307 1.000000
345.224365 -509.813599 1.526502 1.000000
345.224365 -509.813599 1.335674 1.000000
345.224365 -509.813599 1.143404 1.000000
345.224365 -509.813599 0.949258 1.000000
345.224365 -509.813599 0.752785 1.000000
345.224365 -509.813599 0.553513 1.000000
345.217804 -509.769470 3.441669 1.000000
345.217804 -509.769470 3.243061 1.000000
345.217804 -509.769470 3.047242 1.000000
345.217804 -509.769470 2.853743 1.000000
345.217804 -509.769470 2.662113 1.000000
345.217804 -509.769470 2.471921 1.000000
345.217804 -509.769470 2.282748 1.000000
345.217804 -509.769470 2.094182 1.000000
345.217804 -509.769470 1.905818 1.000000
345.217804 -509.769470 1.717252 1.000000
345.217804 -509.769470 1.528079 1.000000
345.217804 -509.769470 1.337887 1.000000
345.217804 -509.769470 1.146257 1.000000
345.217804 -509.769470 0.952757 1.000000
345.217804 -509.769470 0.756939 1.000000
345.217804 -509.769470 0.558331 1.000000
345.211273 -509.725647 3.436952 1.000000
345.211273 -509.725647 3.238995 1.000000
345.211273 -509.725647 3.043816 1.000000
345.211273 -509.725647 2.850950 1.000000
345.211273 -509.725647 2.659947 1.000000
345.211273 -509.725647 2.470377 1.000000
345.211273 -509.725647 2.281823 1.000000
345.211273 -509.725647 2.093874 1.000000
345.211273 -509.725647 1.906126 1.000000
345.211273 -509.725647 1.718177 1.000000
345.211273 -509.725647 1.529623 1.000000
345.211273 -509.725647 1.340053 1.000000
345.211273 -509.725647 1.149050 1.000000
345.211273 -509.725647 0.956184 1.000000
345.211273 -509.725647 0.761005 1.000000
345.211273 -509.725647 0.563047 1.000000
345.204803 -509.682098 3.432337 1.000000
345.204803 -509.682098 3.235015 1.000000
345.204803 -509.682098 3.040463 1.000000
345.204803 -509.682098 2.848216 1.000000
345.204803 -509.682098 2.657827 1.000000
345.204803 -509.682098 2.468866 1.000000
345.204803 -509.682098 2.280918 1.000000
345.204803 -509.682098 2.093572 1.000000
345.204803 -509.682098 1.906428 1.000000
345.204803 -509.682098 1.719082 1.000000
345.204803 -509.682098 1.531133 1.000000
345.204803 -509.682098 1.342173 1.000000
345.204803 -509.682098 1.151783 1.000000
345.204803 -509.682098 0.959536 1.000000
345.204803 -509.682098 0.764985 1.000000
345.204803 -509.682098 0.567663 1.000000
345.198334 -509.638824 3.427819 1.000000
345.198334 -509.638824 3.231120 1.000000
345.198334 -509.638824 3.037182 1.000000
345.198334 -509.638824 2.845541 1.000000
345.198334 -509.638824 2.655752 1.000000
345.198334 -509.638824 2.467388 1.000000
345.198334 -509.638824 2.280032 1.000000
345.198334 -509.638824 2.093277 1.000000
345.198334 -509.638824 1.906723 1.000000
345.198334 -509.638824 1.719968 1.000000
345.198334 -509.638824 1.532612 1.000000
345.198334 -509.638824 1.344247 1.000000
345.198334 -509.638824 1.154459 1.000000
345.198334 -509.638824 0.962818 1.000000
345.198334 -509.638824 0.768880 1.000000
345.198334 -509.638824 0.572180 1.000000
345.191925 -509.595825 3.423400 1.000000
345.191925 -509.595825 3.227310 1.000000
345.191925 -509.595825 3.033972 1.000000
345.191925 -509.595825 2.842924 1.000000
345.191925 -509.595825 2.653723 1.000000
345.191925 -509.595825 2.465941 1.000000
345.191925 -509.595825 2.279165 1.000000
345.191925 -509.595825 2.092988 1.000000
345.191925 -509.595825 1.907012 1.000000
345.191925 -509.595825 1.720835 1.000000
345.191925 -509.595825 1.534059 1.000000
345.191925 -509.595825 1.346277 1.000000
345.191925 -509.595825 1.157076 1.000000
345.191925 -509.595825 0.966028 1.000000
345.191925 -509.595825 0.772690 1.000000
345.191925 -509.595825 0.576599 1.000000
345.185577 -509.553101 3.419077 1.000000
345.185577 -509.553101 3.223582 1.000000
345.185577 -509.553101 3.030832 1.000000
345.185577 -509.553101 2.840364 1.000000
345.185577 -509.553101 2.651737 1.000000
345.185577 -509.553101 2.464526 1.000000
345.185577 -509.553101 2.278317 1.000000
345.185577 -509.553101 2.092706 1.000000
345.185577 -509.553101 1.907294 1.000000
345.185577 -509.553101 1.721683 1.000000
345.185577 -509.553101 1.535474 1.000000
345.185577 -509.553101 1.348262 1.000000
345.185577 -509.553101 1.159636 1.000000
345.185577 -509.553101 0.969168 1.000000
345.185577 -509.553101 0.776417 1.000000
345.185577 -509.553101 0.580922 1.000000
345.179230 -509.510620 3.414849 1.000000
345.179230 -509.510620 3.219936 1.000000
345.179260 -509.510620 3.027760 1.000000
345.179230 -509.510620 2.837860 1.000000
345.179230 -509.510620 2.649796 1.000000
345.179230 -509.510620 2.463142 1.000000
345.179230 -509.510620 2.277488 1.000000
345.179230 -509.510620 2.092430 1.000000
345.179230 -509.510620 1.907570 1.000000
345.179230 -509.510620 1.722512 1.000000
345.179230 -509.510620 1.536858 1.000000
345.179230 -509.510620 1.350204 1.000000
345.179230 -509.510620 1.162139 1.000000
345.179230 -509.510620 0.972239 1.000000
345.179230 -509.510620 0.780063 1.000000
345.179230 -509.510620 0.585150 1.000000
345.172943 -509.468384 3.410715 1.000000
345.172943 -509.468384 3.216372 1.000000
345.172943 -509.468384 3.024757 1.000000
345.172943 -509.468384 2.835412 1.000000
345.172943 -509.468384 2.647897 1.000000
345.172943 -509.468384 2.461789 1.000000
345.172943 -509.468384 2.276677 1.000000
345.172943 -509.468384 2.092160 1.000000
345.172943 -509.468384 1.907840 1.000000
345.172943 -509.468384 1.723323 1.000000
345.172943 -509.468384 1.538211 1.000000
345.172943 -509.468384 1.352103 1.000000
345.172943 -509.468384 1.164588 1.000000
345.172943 -509.468384 0.975243 1.000000
345.172943 -509.468384 0.783628 1.000000
345.172943 -509.468384 0.589285 1.000000
345.166687 -509.426392 3.406672 1.000000
345.166687 -509.426392 3.212886 1.000000
345.166687 -509.426392 3.021821 1.000000
345.166687 -509.426392 2.833018 1.000000
345.166687 -509.426392 2.646040 1.000000
345.166687 -509.426392 2.460465 1.000000
345.166687 -509.426392 2.275884 1.000000
345.166687 -509.426392 2.091896 1.000000
345.166687 -509.426392 1.908104 1.000000
345.166687 -509.426392 1.724116 1.000000
345.166687 -509.426392 1.539534 1.000000
345.166687 -509.426392 1.353960 1.000000
345.166687 -509.426392 1.166982 1.000000
345.166687 -509.426392 0.978179 1.000000
345.166687 -509.426392 0.787113 1.000000
345.166687 -509.426392 0.593327 1.000000
345.160492 -509.384644 3.402722 1.000000
345.160492 -509.384644 3.209480 1.000000
345.160492 -509.384644 3.018951 1.000000
345.160492 -509.384644 2.830679 1.000000
345.160492 -509.384644 2.644226 1.000000
345.160492 -509.384644 2.459172 1.000000
345.160492 -509.384644 2.275109 1.000000
345.160492 -509.384644 2.091638 1.000000
345.160492 -509.384644 1.908362 1.000000
345.160492 -509.384644 1.724891 1.000000
345.160492 -509.384644 1.540828 1.000000
345.160492 -509.384644 1.355774 1.000000
345.160492 -509.384644 1.169321 1.000000
345.160461 -509.384644 0.981049 1.000000
345.160492 -509.384644 0.790520 1.000000
345.160492 -509.384644 0.597278 1.000000
345.154297 -509.343140 3.398861 1.000000
345.154297 -509.343140 3.206151 1.000000
345.154297 -509.343140 3.016147 1.000000
345.154297 -509.343140 2.828392 1.000000
345.154297 -509.343140 2.642453 1.000000
345.154297 -509.343140 2.457908 1.000000
345.154297 -509.343140 2.274352 1.000000
345.154297 -509.343140 2.091385 1.000000
345.154297 -509.343140 1.908615 1.000000
345.154297 -509.343140 1.725648 1.000000
345.154297 -509.343140 1.542091 1.000000
345.154297 -509.343140 1.357547 1.000000
345.154297 -509.343140 1.171607 1.000000
345.154297 -509.343140 0.983853 1.000000
345.154297 -509.343140 0.793849 1.000000
345.154297 -509.343140 0.601138 1.000000
345.148132 -509.301849 3.395090 1.000000
345.148132 -509.301849 3.202899 1.000000
345.148132 -509.301849 3.013407 1.000000
345.148132 -509.301849 2.826159 1.000000
345.148132 -509.301849 2.640721 1.000000
345.148132 -509.301849 2.456674 1.000000
345.148132 -509.301849 2.273612 1.000000
345.148132 -509.301849 2.091139 1.000000
345.148132 -509.301849 1.908861 1.000000
345.148132 -509.301849 1.726387 1.000000
345.148132 -509.301849 1.543326 1.000000
345.148132 -509.301849 1.359279 1.000000
345.148132 -509.301849 1.173841 1.000000
345.148132 -509.301849 0.986593 1.000000
345.148132 -509.301849 0.797101 1.000000
345.148132 -509.301849 0.604910 1.000000
345.142029 -509.260773 3.391406 1.000000
345.142029 -509.260773 3.199723 1.000000
345.142029 -509.260773 3.010731 1.000000
345.142029 -509.260773 2.823977 1.000000
345.142029 -509.260773 2.639029 1.000000
345.142029 -509.260773 2.455468 1.000000
345.142029 -509.260773 2.272890 1.000000
345.142029 -509.260773 2.090898 1.000000
345.142029 -509.260773 1.909102 1.000000
345.142029 -509.260773 1.727110 1.000000
345.142029 -509.260773 1.544532 1.000000
345.142029 -509.260773 1.360971 1.000000
345.142029 -509.260773 1.176022 1.000000
345.142029 -509.260773 0.989269 1.000000
345.142029 -509.260773 0.800277 1.000000
345.142029 -509.260773 0.608594 1.000000
345.135925 -509.219910 3.387809 1.000000
345.135925 -509.219910 3.196621 1.000000
345.135925 -509.219910 3.008118 1.000000
345.135925 -509.219910 2.821847 1.000000
345.135925 -509.219910 2.637377 1.000000
345.135925 -509.219910 2.454291 1.000000
345.135925 -509.219910 2.272185 1.000000
345.135925 -509.219910 2.090663 1.000000
345.135925 -509.219910 1.909337 1.000000
345.135925 -509.219910 1.727815 1.000000
345.135925 -509.219910 1.545709 1.000000
345.135925 -509.219910 1.362623 1.000000
345.135925 -509.219910 1.178152 1.000000
345.135925 -509.219910 0.991881 1.000000
345.135925 -509.219910 0.803378 1.000000
345.135925 -509.219910 0.612191 1.000000
345.129883 -509.179260 3.384298 1.000000
345.129883 -509.179260 3.193594 1.000000
345.129883 -509.179260 3.005568 1.000000
345.129883 -509.179260 2.819768 1.000000
345.129883 -509.179260 2.635764 1.000000
345.129883 -509.179260 2.453141 1.000000
345.129883 -509.179260 2.271496 1.000000
345.129883 -509.179260 2.090434 1.000000
345.129883 -509.179260 1.909566 1.000000
345.129883 -509.179260 1.728504 1.000000
345.129883 -509.179260 1.546859 1.000000
345.129883 -509.179260 1.364236 1.000000
345.129883 -509.179260 1.180232 1.000000
345.129883 -509.179260 0.994432 1.000000
345.129883 -509.179260 0.806406 1.000000
345.129883 -509.179260 0.615701 1.000000
345.123871 -509.138824 3.380872 1.000000
345.123871 -509.138824 3.190640 1.000000
345.123871 -509.138824 3.003079 1.000000
345.123871 -509.138824 2.817739 1.000000
345.123871 -509.138824 2.634191 1.000000
345.123871 -509.138824 2.452020 1.000000
345.123871 -509.138824 2.270824 1.000000
345.123871 -509.138824 2.090210 1.000000
345.123871 -509.138824 1.909790 1.000000
345.123840 -509.138824 1.729176 1.000000
345.123871 -509.138824 1.547980 1.000000
345.123840 -509.138824 1.365809 1.000000
345.123840 -509.138824 1.182261 1.000000
345.123871 -509.138824 0.996921 1.000000
345.123871 -509.138824 0.809360 1.000000
345.123840 -509.138824 0.619128 1.000000
345.117859 -509.098572 3.377530 1.000000
345.117859 -509.098572 3.187758 1.000000
345.117859 -509.098572 3.000651 1.000000
345.117859 -509.098572 2.815760 1.000000
345.117859 -509.098572 2.632656 1.000000
345.117859 -509.098572 2.450926 1.000000
345.117859 -509.098572 2.270168 1.000000
345.117859 -509.098572 2.089992 1.000000
345.117859 -509.098572 1.910008 1.000000
345.117859 -509.098572 1.729831 1.000000
345.117859 -509.098572 1.549074 1.000000
345.117859 -509.098572 1.367344 1.000000
345.117859 -509.098572 1.184240 1.000000
345.117859 -509.098572 0.999349 1.000000
345.117859 -509.098572 0.812242 1.000000
345.117859 -509.098572 0.622470 1.000000
345.111908 -509.058533 3.374270 1.000000
345.111908 -509.058533 3.184947 1.000000
345.111908 -509.058533 2.998283 1.000000
345.111908 -509.058533 2.813830 1.000000
345.111908 -509.058533 2.631159 1.000000
345.111908 -509.058533 2.449859 1.000000
345.111908 -509.058533 2.269529 1.000000
345.111908 -509.058533 2.089779 1.000000
345.111877 -509.058533 1.910221 1.000000
345.111908 -509.058533 1.730471 1.000000
345.111908 -509.058533 1.550141 1.000000
345.111877 -509.058533 1.368841 1.000000
345.111908 -509.058533 1.186170 1.000000
345.111908 -509.058533 1.001716 1.000000
345.111908 -509.058533 0.815052 1.000000
345.111908 -509.058533 0.625729 1.000000
345.105957 -509.018677 3.371093 1.000000
345.105957 -509.018677 3.182208 1.000000
345.105957 -509.018677 2.995975 1.000000
345.105957 -509.018677 2.811948 1.000000
345.105957 -509.018677 2.629700 1.000000
345.105957 -509.018677 2.448819 1.000000
345.105957 -509.018677 2.268906 1.000000
345.105957 -509.018677 2.089571 1.000000
345.105957 -509.018677 1.910429 1.000000
345.105957 -509.018677 1.731094 1.000000
345.105957 -509.018677 1.551181 1.000000
345.105957 -509.018677 1.370300 1.000000
345.105957 -509.018677 1.188052 1.000000
345.105957 -509.018677 1.004024 1.000000
345.105957 -509.018677 0.817791 1.000000
345.105957 -509.018677 0.628906 1.000000
345.100037 -508.978973 3.367997 1.000000
345.100037 -508.978973 3.179539 1.000000
345.100037 -508.978973 2.993726 1.000000
345.100037 -508.978973 2.810115 1.000000
345.100037 -508.978973 2.628278 1.000000
345.100037 -508.978973 2.447805 1.000000
345.100037 -508.978973 2.268299 1.000000
345.100037 -508.978973 2.089369 1.000000
345.100037 -508.978973 1.910631 1.000000
345.100037 -508.978973 1.731701 1.000000
345.100037 -508.978973 1.552195 1.000000
345.100037 -508.978973 1.371722 1.000000
345.100037 -508.978973 1.189885 1.000000
345.100037 -508.978973 1.006273 1.000000
345.100037 -508.978973 0.820461 1.000000
345.100037 -508.978973 0.632003 1.000000
345.094147 -508.939484 3.364981 1.000000
345.094147 -508.939484 3.176938 1.000000
345.094147 -508.939484 2.991536 1.000000
345.094147 -508.939484 2.808329 1.000000
345.094147 -508.939484 2.626893 1.000000
345.094147 -508.939484 2.446818 1.000000
345.094147 -508.939484 2.267707 1.000000
345.094147 -508.939484 2.089172 1.000000
345.094147 -508.939484 1.910828 1.000000
345.094147 -508.939484 1.732292 1.000000
345.094147 -508.939484 1.553182 1.000000
345.094147 -508.939484 1.373107 1.000000
345.094147 -508.939484 1.191671 1.000000
345.094147 -508.939484 1.008464 1.000000
345.094147 -508.939484 0.823061 1.000000
345.094147 -508.939484 0.635018 1.000000
345.088287 -508.900146 3.362045 1.000000
345.088287 -508.900146 3.174407 1.000000
345.088287 -508.900146 2.989403 1.000000
345.088287 -508.900146 2.806590 1.000000
345.088287 -508.900146 2.625544 1.000000
345.088287 -508.900146 2.445857 1.000000
345.088287 -508.900146 2.267132 1.000000
345.088287 -508.900146 2.088980 1.000000
345.088287 -508.900146 1.911020 1.000000
345.088287 -508.900146 1.732868 1.000000
345.088287 -508.900146 1.554143 1.000000
345.088287 -508.900146 1.374456 1.000000
345.088287 -508.900146 1.193410 1.000000
345.088287 -508.900146 1.010597 1.000000
345.088287 -508.900146 0.825593 1.000000
345.088287 -508.900146 0.637954 1.000000
345.082458 -508.860962 3.359187 1.000000
345.082458 -508.860962 3.171943 1.000000
345.082458 -508.860962 2.987327 1.000000
345.082458 -508.860962 2.804898 1.000000
345.082458 -508.860962 2.624232 1.000000
345.082458 -508.860962 2.444921 1.000000
345.082458 -508.860962 2.266571 1.000000
345.082458 -508.860962 2.088794 1.000000
345.082458 -508.860962 1.911206 1.000000
345.082458 -508.860962 1.733429 1.000000
345.082458 -508.860962 1.555078 1.000000
345.082458 -508.860962 1.375768 1.000000
345.082458 -508.860962 1.195102 1.000000
345.082458 -508.860962 1.012673 1.000000
345.082458 -508.860962 0.828057 1.000000
345.082458 -508.860962 0.640812 1.000000
345.076660 -508.821960 3.356408 1.000000
345.076660 -508.821960 3.169546 1.000000
345.076660 -508.821960 2.985308 1.000000
345.076660 -508.821960 2.803252 1.000000
345.076660 -508.821960 2.622955 1.000000
345.076660 -508.821960 2.444011 1.000000
345.076660 -508.821960 2.266026 1.000000
345.076660 -508.821960 2.088612 1.000000
345.076660 -508.821960 1.911388 1.000000
345.076660 -508.821960 1.733974 1.000000
345.076660 -508.821960 1.555988 1.000000
345.076660 -508.821960 1.377045 1.000000
345.076660 -508.821960 1.196748 1.000000
345.076660 -508.821960 1.014692 1.000000
345.076660 -508.821960 0.830454 1.000000
345.076660 -508.821960 0.643592 1.000000
345.070862 -508.783112 3.353705 1.000000
345.070862 -508.783112 3.167216 1.000000
345.070862 -508.783112 2.983345 1.000000
345.070862 -508.783112 2.801651 1.000000
345.070862 -508.783112 2.621714 1.000000
345.070862 -508.783112 2.443127 1.000000
345.070862 -508.783112 2.265496 1.000000
345.070862 -508.783112 2.088435 1.000000
345.070862 -508.783112 1.911564 1.000000
345.070862 -508.783112 1.734504 1.000000
345.070862 -508.783112 1.556873 1.000000
345.070862 -508.783112 1.378286 1.000000
345.070862 -508.783112 1.198348 1.000000
345.070862 -508.783112 1.016655 1.000000
345.070862 -508.783112 0.832784 1.000000
345.070862 -508.783112 0.646294 1.000000
345.019653 -508.764496 3.363526 1.000000
345.019653 -508.764496 3.175684 1.000000
345.019653 -508.764496 2.990479 1.000000
345.019653 -508.764496 2.807467 1.000000
345.019653 -508.764496 2.626225 1.000000
345.019653 -508.764496 2.446342 1.000000
345.019653 -508.764496 2.267422 1.000000
345.019653 -508.764496 2.089077 1.000000
345.019653 -508.764496 1.910923 1.000000
345.019653 -508.764496 1.732578 1.000000
345.019623 -508.764496 1.553658 1.000000
345.019623 -508.764496 1.373775 1.000000
345.019623 -508.764496 1.192532 1.000000
345.019623 -508.764496 1.009521 1.000000
345.019623 -508.764496 0.824316 1.000000
345.019623 -508.764496 0.636473 1.000000
344.865204 -508.789948 3.401529 1.000000
344.865204 -508.789948 3.208452 1.000000
344.865204 -508.789948 3.018085 1.000000
344.865204 -508.789948 2.829973 1.000000
344.865204 -508.789948 2.643678 1.000000
344.865204 -508.789948 2.458782 1.000000
344.865204 -508.789948 2.274876 1.000000
344.865204 -508.789948 2.091560 1.000000
344.865204 -508.789948 1.908440 1.000000
344.865204 -508.789948 1.725124 1.000000
344.865204 -508.789948 1.541218 1.000000
344.865204 -508.789948 1.356322 1.000000
344.865204 -508.789948 1.170027 1.000000
344.865204 -508.789948 0.981915 1.000000
344.865204 -508.789948 0.791548 1.000000
344.865204 -508.789948 0.598470 1.000000
344.701874 -508.816895 3.441785 1.000000
344.701874 -508.816895 3.243162 1.000000
344.701874 -508.816895 3.047327 1.000000
344.701874 -508.816895 2.853812 1.000000
344.701874 -508.816895 2.662166 1.000000
344.701874 -508.816895 2.471959 1.000000
344.701874 -508.816895 2.282771 1.000000
344.701874 -508.816895 2.094190 1.000000
344.701874 -508.816895 1.905810 1.000000
344.701874 -508.816895 1.717229 1.000000
344.701874 -508.816895 1.528041 1.000000
344.701874 -508.816895 1.337834 1.000000
344.701874 -508.816895 1.146188 1.000000
344.701874 -508.816895 0.952673 1.000000
344.701874 -508.816895 0.756838 1.000000
344.701874 -508.816895 0.558214 1.000000
344.528900 -508.845428 3.484495 1.000000
344.528900 -508.845428 3.279988 1.000000
344.528900 -508.845428 3.078352 1.000000
344.528900 -508.845428 2.879104 1.000000
344.528900 -508.845428 2.681782 1.000000
344.528900 -508.845428 2.485940 1.000000
344.528900 -508.845428 2.291147 1.000000
344.528900 -508.845428 2.096980 1.000000
344.528900 -508.845428 1.903020 1.000000
344.528900 -508.845428 1.708853 1.000000
344.528900 -508.845428 1.514060 1.000000
344.528900 -508.845428 1.318218 1.000000
344.528900 -508.845428 1.120896 1.000000
344.528900 -508.845428 0.921648 1.000000
344.528900 -508.845428 0.720012 1.000000
344.528900 -508.845428 0.515505 1.000000
344.345337 -508.875702 3.529889 1.000000
344.345337 -508.875702 3.319129 1.000000
344.345337 -508.875702 3.111327 1.000000
344.345337 -508.875702 2.905986 1.000000
344.345337 -508.875702 2.702630 1.000000
344.345337 -508.875702 2.500800 1.000000
344.345337 -508.875702 2.300050 1.000000
344.345337 -508.875702 2.099945 1.000000
344.345337 -508.875702 1.900055 1.000000
344.345337 -508.875702 1.699950 1.000000
344.345337 -508.875702 1.499200 1.000000
344.345337 -508.875702 1.297370 1.000000
344.345337 -508.875702 1.094014 1.000000
344.345337 -508.875702 0.888673 1.000000
344.345337 -508.875702 0.680871 1.000000
344.345337 -508.875702 0.470110 1.000000
344.150208 -508.907898 3.578228 1.000000
344.150208 -508.907898 3.360808 1.000000
344.150208 -508.907898 3.146441 1.000000
344.150208 -508.907898 2.934612 1.000000
344.150208 -508.907898 2.724830 1.000000
344.150208 -508.907898 2.516623 1.000000
344.150208 -508.907898 2.309531 1.000000
344.150208 -508.907898 2.103103 1.000000
344.150208 -508.907898 1.896897 1.000000
344.150208 -508.907898 1.690469 1.000000
344.150208 -508.907898 1.483377 1.000000
344.150208 -508.907898 1.275169 1.000000
344.150208 -508.907898 1.065388 1.000000
344.150208 -508.907898 0.853559 1.000000
344.150208 -508.907898 0.639192 1.000000
344.150208 -508.907898 0.421771 1.000000
343.942322 -508.942169 3.629802 1.000000
343.942322 -508.942169 3.405278 1.000000
343.942322 -508.942169 3.183905 1.000000
343.942322 -508.942169 2.965154 1.000000
343.942322 -508.942169 2.748517 1.000000
343.942322 -508.942169 2.533506 1.000000
343.942322 -508.942169 2.319646 1.000000
343.942322 -508.942169 2.106472 1.000000
343.942322 -508.942169 1.893528 1.000000
343.942322 -508.942169 1.680354 1.000000
343.942322 -508.942169 1.466494 1.000000
343.942322 -508.942169 1.251483 1.000000
343.942322 -508.942169 1.034846 1.000000
343.942322 -508.942169 0.816095 1.000000
343.942322 -508.942169 0.594722 1.000000
343.942322 -508.942169 0.370197 1.000000
343.720398 -508.978790 3.684947 1.000000
343.720398 -508.978790 3.452825 1.000000
343.720398 -508.978790 3.223962 1.000000
343.720398 -508.978790 2.997810 1.000000
343.720398 -508.978790 2.773843 1.000000
343.720398 -508.978790 2.551557 1.000000
343.720398 -508.978790 2.330461 1.000000
343.720398 -508.978790 2.110075 1.000000
343.720398 -508.978790 1.889925 1.000000
343.720398 -508.978790 1.669539 1.000000
343.720398 -508.978790 1.448443 1.000000
343.720398 -508.978790 1.226157 1.000000
343.720398 -508.978790 1.002190 1.000000
343.720398 -508.978790 0.776038 1.000000
343.720398 -508.978790 0.547175 1.000000
343.720398 -508.978790 0.315053 1.000000
343.482880 -509.017944 3.744041 1.000000
343.482880 -509.017944 3.503778 1.000000
343.482880 -509.017944 3.266889 1.000000
343.482880 -509.017944 3.032804 1.000000
343.482880 -509.017944 2.800983 1.000000
343.482880 -509.017944 2.570901 1.000000
343.482880 -509.017944 2.342051 1.000000
343.482880 -509.017944 2.113935 1.000000
343.482880 -509.017944 1.886065 1.000000
343.482880 -509.017944 1.657949 1.000000
343.482880 -509.017944 1.429099 1.000000
343.482880 -509.017944 1.199017 1.000000
343.482880 -509.017944 0.967195 1.000000
343.482880 -509.017944 0.733111 1.000000
343.482880 -509.017944 0.496222 1.000000
343.482880 -509.017944 0.255959 1.000000
343.228119 -509.059967 3.807522 1.000000
343.228119 -509.059967 3.558514 1.000000
343.228119 -509.059967 3.313002 1.000000
343.228119 -509.059967 3.070398 1.000000
343.228119 -509.059967 2.830138 1.000000
343.228119 -509.059967 2.591681 1.000000
343.228119 -509.059967 2.354501 1.000000
343.228119 -509.059967 2.118083 1.000000
343.228119 -509.059967 1.881917 1.000000
343.228119 -509.059967 1.645499 1.000000
343.228119 -509.059967 1.408319 1.000000
343.228119 -509.059967 1.169862 1.000000
343.228119 -509.059967 0.929602 1.000000
343.228119 -509.059967 0.686998 1.000000
343.228119 -509.059967 0.441486 1.000000
343.228119 -509.059967 0.192478 1.000000
342.954071 -509.105164 3.875893 1.000000
342.954071 -509.105164 3.617466 1.000000
342.954071 -509.105164 3.362668 1.000000
342.954071 -509.105164 3.110886 1.000000
342.954071 -509.105164 2.861539 1.000000
342.954071 -509.105164 2.614062 1.000000
342.954071 -509.105164 2.367910 1.000000
342.954071 -509.105164 2.122549 1.000000
342.954071 -509.105164 1.877451 1.000000
342.954071 -509.105164 1.632090 1.000000
342.954071 -509.105164 1.385938 1.000000
342.954071 -509.105164 1.138461 1.000000
342.954071 -509.105164 0.889114 1.000000
342.954071 -509.105164 0.637332 1.000000
342.954071 -509.105164 0.382534 1.000000
342.954071 -509.105164 0.124107 1.000000
342.658478 -509.153931 3.949740 1.000000
342.658478 -509.153931 3.681140 1.000000
342.658478 -509.153931 3.416311 1.000000
342.658478 -509.153931 3.154618 1.000000
342.658478 -509.153931 2.895454 1.000000
342.658478 -509.153931 2.638235 1.000000
342.658478 -509.153931 2.382393 1.000000
342.658478 -509.153931 2.127373 1.000000
342.658478 -509.153931 1.872626 1.000000
342.658478 -509.153931 1.617606 1.000000
342.658478 -509.153931 1.361765 1.000000
342.658478 -509.153931 1.104546 1.000000
342.658478 -509.153931 0.845382 1.000000
342.658478 -509.153931 0.583689 1.000000
342.658478 -509.153931 0.318860 1.000000
342.658478 -509.153931 0.050259 1.000000
342.338623 -509.206696 4.029743 1.000000
342.338623 -509.206696 3.750120 1.000000
342.338623 -509.206696 3.474425 1.000000
342.338623 -509.206696 3.201994 1.000000
342.338623 -509.206696 2.932197 1.000000
342.338623 -509.206696 2.664423 1.000000
342.338623 -509.206696 2.398084 1.000000
342.338623 -509.206696 2.132600 1.000000
342.338623 -509.206696 1.867400 1.000000
342.338623 -509.206696 1.601916 1.000000
342.338623 -509.206696 1.335576 1.000000
342.338623 -509.206696 1.067803 1.000000
342.338623 -509.206696 0.798006 1.000000
342.338623 -509.206696 0.525575 1.000000
342.338623 -509.206696 0.249880 1.000000
342.450897 -509.167999 0.000004 0.520531
341.991394 -509.263947 4.116699 1.000000
341.991394 -509.263947 3.825097 1.000000
341.991394 -509.263947 3.537590 1.000000
341.991394 -509.263947 3.253489 1.000000
341.991394 -509.263947 2.972132 1.000000
341.991394 -509.263947 2.692888 1.000000
341.991394 -509.263947 2.415138 1.000000
341.991394 -509.263947 2.138280 1.000000
341.991394 -509.263947 1.861719 1.000000
341.991394 -509.263947 1.584862 1.000000
341.991394 -509.263947 1.307112 1.000000
341.991394 -509.263947 1.027868 1.000000
341.991394 -509.263947 0.746511 1.000000
341.991394 -509.263947 0.462409 1.000000
341.991394 -509.263947 0.174902 1.000000
342.432922 -509.115234 0.000004 0.543908
341.613068 -509.326355 4.211550 1.000000
341.613068 -509.326355 3.906883 1.000000
341.613068 -509.326355 3.606492 1.000000
341.613068 -509.326355 3.309659 1.000000
341.613068 -509.326355 3.015695 1.000000
341.613068 -509.326355 2.723937 1.000000
341.613068 -509.326355 2.433741 1.000000
341.613068 -509.326355 2.144477 1.000000
341.613068 -509.326355 1.855523 1.000000
341.613068 -509.326355 1.566259 1.000000
341.613068 -509.326355 1.276063 1.000000
341.613068 -509.326355 0.984305 1.000000
341.613068 -509.326355 0.690341 1.000000
341.613068 -509.326355 0.393508 1.000000
341.613068 -509.326355 0.093117 1.000000
342.415314 -509.062347 0.000003 0.507668
341.199219 -509.394623 4.315421 1.000000
341.199219 -509.394623 3.996443 1.000000
341.199219 -509.394623 3.681944 1.000000
341.199219 -509.394623 3.371170 1.000000
341.199219 -509.394623 3.063400 1.000000
341.199219 -509.394623 2.757939 1.000000
341.199219 -509.394623 2.454113 1.000000
341.199219 -509.394623 2.151263 1.000000
341.199219 -509.394623 1.848737 1.000000
341.199219 -509.394623 1.545887 1.000000
341.199219 -509.394623 1.242061 1.000000
341.199219 -509.394623 0.936600 1.000000
341.199219 -509.394623 0.628830 1.000000
341.199219 -509.394623 0.318055 1.000000
341.199219 -509.394623 0.003557 1.000000
342.398071 -509.009338 0.000003 0.534615
340.744568 -509.469604 4.429652 1.000000
340.744568 -509.469604 4.094938 1.000000
340.744568 -509.469604 3.764923 1.000000
340.744568 -509.469604 3.438817 1.000000
340.744568 -509.469604 3.115863 1.000000
340.744568 -509.469604 2.795331 1.000000
340.744568 -509.469604 2.476516 1.000000
340.744568 -509.469604 2.158725 1.000000
340.744568 -509.469604 1.841275 1.000000
340.744568 -509.469604 1.523483 1.000000
340.744568 -509.469604 1.204668 1.000000
340.744568 -509.469604 0.884138 1.000000
340.744568 -509.469604 0.561183 1.000000
340.744568 -509.469604 0.235077 1.000000
341.164001 -509.338043 0.000003 0.534051
342.381195 -508.956207 0.000003 0.571542
340.242676 -509.552399 4.555872 1.000000
340.242676 -509.552399 4.203770 1.000000
340.242676 -509.552399 3.856610 1.000000
340.242676 -509.552399 3.513563 1.000000
340.242676 -509.552399 3.173831 1.000000
340.242676 -509.552399 2.836648 1.000000
340.242676 -509.552399 2.501271 1.000000
340.242676 -509.552399 2.166971 1.000000
340.242676 -509.552399 1.833029 1.000000
340.242676 -509.552399 1.498729 1.000000
340.242676 -509.552399 1.163351 1.000000
340.242676 -509.552399 0.826169 1.000000
340.242676 -509.552399 0.486437 1.000000
340.242676 -509.552399 0.143389 1.000000
341.144867 -509.276276 0.000003 0.537560
342.364716 -508.902954 0.000003 0.539055
339.685760 -509.644226 4.696063 1.000000
339.685760 -509.644226 4.324647 1.000000
339.685760 -509.644226 3.958447 1.000000
339.685760 -509.644226 3.596583 1.000000
339.685760 -509.644226 3.238217 1.000000
339.685760 -509.644226 2.882539 1.000000
339.685760 -509.644226 2.528766 1.000000
339.685760 -509.644226 2.176129 1.000000
339.685760 -509.644226 1.823871 1.000000
339.685760 -509.644226 1.471234 1.000000
339.685760 -509.644226 1.117461 1.000000
339.685760 -509.644226 0.761783 1.000000
339.685760 -509.644226 0.403417 1.000000
339.685760 -509.644226 0.041553 1.000000
341.126160 -509.214386 0.000003 0.553857
342.348572 -508.849609 0.000003 0.515846
339.064178 -509.746765 4.852675 1.000000
339.064178 -509.746765 4.459684 1.000000
339.064178 -509.746765 4.072211 1.000000
339.064178 -509.746765 3.689327 1.000000
339.064178 -509.746765 3.310144 1.000000
339.064178 -509.746765 2.933805 1.000000
339.064178 -509.746765 2.559482 1.000000
339.064178 -509.746765 2.186361 1.000000
339.064178 -509.746765 1.813639 1.000000
339.064178 -509.746765 1.440518 1.000000
339.064178 -509.746765 1.066194 1.000000
339.064178 -509.746765 0.689857 1.000000
339.064178 -509.746765 0.310673 1.000000
339.445282 -509.635925 0.000003 0.563989
341.107880 -509.152374 0.000003 0.504967
342.332825 -508.796143 0.000003 0.542275
338.365906 -509.861938 5.028759 1.000000
338.365906 -509.861938 4.611511 1.000000
338.365906 -509.861938 4.200120 1.000000
338.365906 -509.861938 3.793602 1.000000
338.365906 -509.861938 3.391013 1.000000
338.365906 -509.861938 2.991445 1.000000
338.365875 -509.861938 2.594017 1.000000
338.365906 -509.861938 2.197864 1.000000
338.365906 -509.861938 1.802136 1.000000
338.365875 -509.861938 1.405983 1.000000
338.365906 -509.861938 1.008555 1.000000
338.365906 -509.861938 0.608987 1.000000
338.365906 -509.861938 0.206398 1.000000
339.424103 -509.562164 0.000003 0.502617
341.090057 -509.090240 0.000003 0.538903
342.317444 -508.742554 0.000003 0.534859
337.575684 -509.992279 5.228176 1.000000
337.575684 -509.992279 4.783455 1.000000
337.575684 -509.992279 4.344979 1.000000
337.575684 -509.992279 3.911695 1.000000
337.575684 -509.992279 3.482599 1.000000
337.575684 -509.992279 3.056723 1.000000
337.575684 -509.992279 2.633127 1.000000
337.575684 -509.992279 2.210891 1.000000
337.575684 -509.992279 1.789108 1.000000
337.575684 -509.992279 1.366873 1.000000
337.575684 -509.992279 0.943277 1.000000
337.575684 -509.992279 0.517401 1.000000
337.575684 -509.992279 0.088305 1.000000
339.403442 -509.488281 0.000003 0.546746
341.072632 -509.027985 0.000003 0.562432
342.302429 -508.688873 0.000003 0.555474
336.674042 -510.140991 5.455888 1.000000
336.674042 -510.140991 4.979797 1.000000
336.674042 -510.140991 4.510391 1.000000
336.674042 -510.140991 4.046544 1.000000
336.674042 -510.140991 3.587180 1.000000
336.674042 -510.140991 3.131263 1.000000
336.674042 -510.140991 2.677787 1.000000
336.674042 -510.140991 2.225768 1.000000
336.674042 -510.140991 1.774232 1.000000
336.674042 -510.140991 1.322213 1.000000
336.674042 -510.140991 0.868737 1.000000
336.674042 -510.140991 0.412820 1.000000
336.977112 -510.059692 0.000003 0.526284
339.383301 -509.414215 0.000003 0.532662
341.055664 -508.965607 0.000003 0.551492
342.287811 -508.635071 0.000003 0.535668
335.635498 -510.312286 5.718353 1.000000
335.635498 -510.312286 5.206104 1.000000
335.635498 -510.312286 4.701047 1.000000
335.635498 -510.312286 4.201973 1.000000
335.635498 -510.312286 3.707721 1.000000
335.635498 -510.312286 3.217179 1.000000
335.635498 -510.312286 2.729263 1.000000
335.635498 -510.312286 2.242914 1.000000
335.635498 -510.312286 1.757086 1.000000
335.635498 -510.312286 1.270736 1.000000
335.635498 -510.312286 0.782821 1.000000
335.635498 -510.312286 0.292279 1.000000
336.953064 -509.968689 0.000003 0.537499
339.363678 -509.340027 0.000003 0.545846
341.039154 -508.903107 0.000003 0.544610
342.273560 -508.581207 0.000003 0.543374
334.426178 -510.511749 6.024179 1.000000
334.426178 -510.511749 5.469797 1.000000
334.426178 -510.511749 4.923203 1.000000
334.426178 -510.511749 4.383080 1.000000
334.426178 -510.511749 3.848177 1.000000
334.426178 -510.511749 3.317289 1.000000
334.426178 -510.511749 2.789243 1.000000
334.426178 -510.511749 2.262893 1.000000
334.426178 -510.511749 1.737107 1.000000
334.426178 -510.511749 1.210757 1.000000
334.426178 -510.511749 0.682710 1.000000
334.426178 -510.511749 0.151823 1.000000
336.929626 -509.877533 0.000003 0.544564
339.344574 -509.265717 0.000002 0.521920
341.023041 -508.840485 0.000002 0.555673
342.259674 -508.527222 0.000003 0.578088
333.000000 -510.746979 6.385050 1.000000
333.000000 -510.746979 5.780956 1.000000
333.000000 -510.746979 5.185344 1.000000
333.000000 -510.746979 4.596786 1.000000
333.000000 -510.746979 4.013915 1.000000
333.000000 -510.746979 3.435419 1.000000
333.000000 -510.746979 2.860019 1.000000
333.000000 -510.746979 2.286468 1.000000
333.000000 -510.746979 1.713532 1.000000
333.000000 -510.746979 1.139980 1.000000
333.000000 -510.746979 0.564581 1.000000
333.117493 -510.718079 0.000003 0.531121
336.906830 -509.786194 0.000003 0.552377
339.325989 -509.191284 0.000002 0.552712
341.007385 -508.777771 0.000002 0.524483
342.246185 -508.473114 0.000002 0.552483
331.292755 -511.028564 6.817281 1.000000
331.292755 -511.028564 6.153643 1.000000
331.292755 -511.028564 5.499320 1.000000
331.292755 -511.028564 4.852748 1.000000
331.292755 -511.028564 4.212426 1.000000
331.292755 -511.028564 3.576907 1.000000
331.292755 -511.028564 2.944792 1.000000
331.292755 -511.028564 2.314705 1.000000
331.292755 -511.028564 1.685295 1.000000
331.292755 -511.028564 1.055209 1.000000
331.292755 -511.028564 0.423092 1.000000
333.088928 -510.600128 0.000003 0.532921
336.884644 -509.694733 0.000002 0.557427
339.307922 -509.116699 0.000002 0.535073
340.992188 -508.714935 0.000002 0.521141
342.233063 -508.418945 0.000002 0.527871
nan nan nan 0.000000
nan nan nan 0.000000
nan nan nan 0.000000
309.622101 -515.900269 8.147384 1.000000
309.622101 -515.900269 6.767550 1.000000
309.622101 -515.900269 5.398073 1.000000
309.622101 -515.900269 4.035929 1.000000
309.622131 -515.900269 2.678158 1.000000
309.622131 -515.900269 1.321842 1.000000
310.334839 -515.735535 0.000008 0.537499
326.234741 -512.059998 0.000004 0.534249
333.061157 -510.481964 0.000003 0.525063
336.863129 -509.603088 0.000002 0.546166
339.290375 -509.041992 0.000002 0.539696
340.977386 -508.652008 0.000002 0.541863
342.220306 -508.364685 0.000002 0.551812
nan nan nan 0.000000
nan nan nan 0.000000
nan nan nan 0.000000
309.536469 -515.622986 8.150646 1.000000
309.536469 -515.622986 6.770083 1.000000
309.536469 -515.622986 5.399877 1.000000
309.536469 -515.622986 4.037010 1.000000
309.536469 -515.622986 2.678519 1.000000
309.536469 -515.622986 1.321482 1.000000
310.271790 -515.458374 0.000007 0.542092
326.196960 -511.893982 0.000004 0.535500
333.034241 -510.363617 0.000003 0.540520
336.842255 -509.511292 0.000002 0.560525
339.273346 -508.967163 0.000002 0.538781
340.963043 -508.588959 0.000002 0.544381
342.207947 -508.310333 0.000002 0.553643
nan nan nan 0.000000
nan nan nan 0.000000
nan nan nan 0.000000
309.450745 -515.345337 8.154213 1.000000
309.450714 -515.345337 6.772849 1.000000
309.450714 -515.345337 5.401848 1.000000
309.450714 -515.345337 4.038190 1.000000
309.450714 -515.345337 2.678911 1.000000
309.450745 -515.345337 1.321088 1.000000
310.210663 -515.180847 0.000007 0.538399
326.160339 -511.727661 0.000004 0.548638
333.008148 -510.245087 0.000003 0.533898
336.822021 -509.419373 0.000002 0.557519
339.256836 -508.892212 0.000002 0.549081
340.949158 -508.525818 0.000002 0.552132
342.195953 -508.255890 0.000001 0.552438
nan nan nan 0.000000
nan nan nan 0.000000
nan nan nan 0.000000
309.364868 -515.067383 8.158085 1.000000
309.364868 -515.067383 6.775853 1.000000
309.364868 -515.067383 5.403988 1.000000
309.364868 -515.067383 4.039472 1.000000
309.364868 -515.067383 2.679339 1.000000
309.364868 -515.067383 1.320661 1.000000
310.151520 -514.902832 0.000007 0.538369
326.124878 -511.561127 0.000004 0.539818
332.982880 -510.126373 0.000003 0.541802
336.802429 -509.327301 0.000002 0.537942
339.240875 -508.817169 0.000002 0.532418
340.935699 -508.462616 0.000002 0.547890
342.184357 -508.201385 0.000001 0.485969
nan nan nan 0.000000
nan nan nan 0.000000
nan nan nan 0.000000
nan nan nan 0.000000
nan nan nan 0.000000
nan nan nan 0.000000
252.204437 -526.314148 6.901339 1.000000
252.204437 -526.314148 3.632612 1.000000
252.204437 -526.314148 0.367388 1.000000
310.094269 -514.624451 0.000007 0.545007
326.090607 -511.394318 0.000004 0.541222
332.958435 -510.007507 0.000003 0.537194
336.783478 -509.235107 0.000002 0.543053
339.225433 -508.742004 0.000002 0.525689
340.922668 -508.399292 0.000002 0.540352
342.173126 -508.146759 0.000001 0.501472
nan nan nan 0.000000
nan nan nan 0.000000
nan nan nan 0.000000
nan nan nan 0.000000
nan nan nan 0.000000
nan nan nan 0.000000
nan nan nan 0.000000
nan nan nan 0.000000
nan nan nan 0.000000
310.038971 -514.345642 0.000007 0.538094
326.057495 -511.227295 0.000004 0.539773
332.934814 -509.888428 0.000002 0.534264
336.765167 -509.142792 0.000002 0.551308
339.210480 -508.666748 0.000002 0.552377
340.910095 -508.335876 0.000002 0.529503
342.162292 -508.092102 0.000001 0.506981
nan nan nan 0.000000
nan nan nan 0.000000
nan nan nan 0.000000
nan nan nan 0.000000
nan nan nan 0.000000
nan nan nan 0.000000
nan nan nan 0.000000
nan nan nan 0.000000
nan nan nan 0.000000
309.985626 -514.066528 0.000007 0.543954
326.025513 -511.060028 0.000004 0.537728
332.912048 -509.769226 0.000002 0.553674
336.747498 -509.050323 0.000002 0.536522
339.196106 -508.591370 0.000002 0.558312
340.897980 -508.272369 0.000002 0.507301
342.151825 -508.037354 0.000001 0.532189
nan nan nan 0.000000
nan nan nan 0.000000
nan nan nan 0.000000
nan nan nan 0.000000
nan nan nan 0.000000
nan nan nan 0.000000
nan nan nan 0.000000
nan nan nan 0.000000
nan nan nan 0.000000
309.934265 -513.786987 0.000007 0.539132
325.994720 -510.892548 0.000004 0.538231
332.890106 -509.649841 0.000003 0.539437
336.730469 -508.957733 0.000002 0.549004
339.182220 -508.515900 0.000001 0.546715
340.886292 -508.208771 0.000001 0.536599
342.141754 -507.982513 0.000001 0.524117
nan nan nan 0.000000
nan nan nan 0.000000
nan nan nan 0.000000
nan nan nan 0.000000
nan nan nan 0.000000
nan nan nan 0.000000
nan nan nan 0.000000
nan nan nan 0.000000
nan nan nan 0.000000
309.884827 -513.507080 0.000007 0.545434
325.965118 -510.724854 0.000003 0.537682
332.868988 -509.530334 0.000002 0.535714
336.714111 -508.865051 0.000002 0.541558
339.168884 -508.440308 0.000001 0.530190
340.875031 -508.145111 0.000001 0.539666
342.132050 -507.927643 0.000001 0.521187
nan nan nan 0.000000
nan nan nan 0.000000
nan nan nan 0.000000
nan nan nan 0.000000
nan nan nan 0.000000
nan nan nan 0.000000
nan nan nan 0.000000
nan nan nan 0.000000
nan nan nan 0.000000
