# This PCD file was generated using the MATLABÂ® pcwrite function
# from Computer Vision ToolboxÂ®.
# .PCD v.7 - Point Cloud Data file format
VERSION .7
FIELDS x y z intensity
SIZE 4 4 4 4
TYPE F F F F
COUNT 1 1 1 1
WIDTH 1293
HEIGHT 1
VIEWPOINT 0 0 0 1 0 0 0
POINTS 1293
DATA ascii
nan nan nan 0.000000
nan nan nan 0.000000
nan nan nan 0.000000
nan nan nan 0.000000
nan nan nan 0.000000
nan nan nan 0.000000
nan nan nan 0.000000
265.387878 -61.929375 0.000024 0.539117
280.842682 -56.689289 0.000015 0.535973
287.478058 -54.439510 0.000011 0.536614
291.173615 -53.186497 0.000008 0.537835
293.532928 -52.386555 0.000007 0.542519
295.172729 -51.830563 0.000006 0.528038
296.380859 -51.420933 0.000005 0.496223
nan nan nan 0.000000
nan nan nan 0.000000
nan nan nan 0.000000
nan nan nan 0.000000
nan nan nan 0.000000
nan nan nan 0.000000
nan nan nan 0.000000
nan nan nan 0.000000
nan nan nan 0.000000
265.297546 -61.659908 0.000024 0.541711
280.788574 -56.527836 0.000015 0.548531
287.439484 -54.324432 0.000011 0.527886
291.143707 -53.097252 0.000008 0.531868
293.508545 -52.313797 0.000007 0.536385
295.152191 -51.769268 0.000006 0.477485
296.363159 -51.368084 0.000005 0.522820
nan nan nan 0.000000
nan nan nan 0.000000
nan nan nan 0.000000
nan nan nan 0.000000
nan nan nan 0.000000
nan nan nan 0.000000
nan nan nan 0.000000
nan nan nan 0.000000
nan nan nan 0.000000
265.209137 -61.389801 0.000024 0.540246
280.735596 -56.366005 0.000014 0.531075
287.401733 -54.209087 0.000010 0.553506
291.114410 -53.007793 0.000008 0.522774
293.484650 -52.240871 0.000007 0.564614
295.132080 -51.707829 0.000006 0.576638
296.345825 -51.315109 0.000005 0.566979
nan nan nan 0.000000
nan nan nan 0.000000
nan nan nan 0.000000
nan nan nan 0.000000
nan nan nan 0.000000
nan nan nan 0.000000
nan nan nan 0.000000
nan nan nan 0.000000
nan nan nan 0.000000
265.122589 -61.119091 0.000024 0.538445
280.683746 -56.203812 0.000014 0.527367
287.364777 -54.093483 0.000011 0.524559
291.085754 -52.918137 0.000008 0.536599
293.461304 -52.167782 0.000007 0.523934
295.112396 -51.646252 0.000006 0.547204
296.328827 -51.262012 0.000005 0.483925
nan nan nan 0.000000
nan nan nan 0.000000
nan nan nan 0.000000
nan nan nan 0.000000
nan nan nan 0.000000
nan nan nan 0.000000
nan nan nan 0.000000
nan nan nan 0.000000
nan nan nan 0.000000
265.037903 -60.847778 0.000024 0.534615
280.633026 -56.041252 0.000015 0.533394
287.328613 -53.977619 0.000011 0.542885
291.057709 -52.828281 0.000008 0.524742
293.438446 -52.094528 0.000007 0.543801
295.093140 -51.584538 0.000006 0.514000
296.312225 -51.208801 0.000005 0.582650
nan nan nan 0.000000
nan nan nan 0.000000
nan nan nan 0.000000
nan nan nan 0.000000
nan nan nan 0.000000
nan nan nan 0.000000
nan nan nan 0.000000
nan nan nan 0.000000
nan nan nan 0.000000
264.955170 -60.575882 0.000024 0.538827
280.583435 -55.878349 0.000015 0.536858
287.293274 -53.861511 0.000011 0.547967
291.030304 -52.738235 0.000009 0.544076
293.416077 -52.021118 0.000007 0.512154
295.074310 -51.522694 0.000006 0.478965
296.295990 -51.155476 0.000005 0.562768
nan nan nan 0.000000
nan nan nan 0.000000
nan nan nan 0.000000
nan nan nan 0.000000
nan nan nan 0.000000
nan nan nan 0.000000
nan nan nan 0.000000
nan nan nan 0.000000
nan nan nan 0.000000
264.874298 -60.303413 0.000023 0.543236
280.534973 -55.715103 0.000014 0.547295
287.258728 -53.745155 0.000011 0.526894
291.003540 -52.647995 0.000008 0.517113
293.394257 -51.947552 0.000007 0.544991
295.055908 -51.460716 0.000006 0.556008
296.280151 -51.102039 0.000005 0.557900
nan nan nan 0.000000
nan nan nan 0.000000
nan nan nan 0.000000
nan nan nan 0.000000
nan nan nan 0.000000
nan nan nan 0.000000
nan nan nan 0.000000
nan nan nan 0.000000
nan nan nan 0.000000
264.795319 -60.030399 0.000023 0.538109
280.487671 -55.551525 0.000015 0.529778
287.225006 -53.628567 0.000010 0.513649
290.977386 -52.557575 0.000008 0.528145
293.372955 -51.873837 0.000007 0.605737
295.037964 -51.398613 0.000006 0.531075
296.264648 -51.048492 0.000006 0.516396
nan nan nan 0.000000
nan nan nan 0.000000
nan nan nan 0.000000
nan nan nan 0.000000
nan nan nan 0.000000
nan nan nan 0.000000
nan nan nan 0.000000
nan nan nan 0.000000
nan nan nan 0.000000
264.718262 -59.756828 0.000023 0.537850
280.441498 -55.387615 0.000014 0.534386
287.192108 -53.511738 0.000010 0.544457
290.951843 -52.466972 0.000008 0.543648
293.352142 -51.799976 0.000007 0.523186
295.020416 -51.336388 0.000006 0.563760
296.249542 -50.994839 0.000005 0.575219
nan nan nan 0.000000
nan nan nan 0.000000
nan nan nan 0.000000
nan nan nan 0.000000
nan nan nan 0.000000
nan nan nan 0.000000
233.115677 -68.007011 5.604435 0.483604
232.715302 -68.115265 3.207407 0.479835
nan nan nan 0.000000
264.643127 -59.482731 0.000023 0.535912
280.396484 -55.223389 0.000014 0.549523
287.160034 -53.394688 0.000011 0.539162
290.926971 -52.376190 0.000008 0.543435
293.331848 -51.725967 0.000007 0.498619
295.003326 -51.274040 0.000006 0.477043
296.234802 -50.941078 0.000005 0.549401
nan nan nan 0.000000
nan nan nan 0.000000
nan nan nan 0.000000
nan nan nan 0.000000
nan nan nan 0.000000
233.379547 -67.408028 7.982437 0.486595
nan nan nan 0.000000
234.002655 -67.244209 3.183380 0.482689
nan nan nan 0.000000
264.569885 -59.208115 0.000023 0.540124
280.352600 -55.058857 0.000014 0.552438
287.128754 -53.277412 0.000010 0.546456
290.902740 -52.285240 0.000009 0.543725
293.312073 -51.651825 0.000007 0.543526
294.986664 -51.211575 0.000006 0.598398
296.220459 -50.887218 0.000005 0.576715
nan nan nan 0.000000
nan nan nan 0.000000
nan nan nan 0.000000
nan nan nan 0.000000
232.754486 -67.041985 10.452495 0.493050
nan nan nan 0.000000
232.587631 -67.084602 5.618002 0.471351
234.157089 -66.683685 3.178633 0.480690
nan nan nan 0.000000
264.498596 -58.932991 0.000023 0.537194
280.309906 -54.894012 0.000014 0.530983
287.098297 -53.159924 0.000011 0.525032
290.879120 -52.194122 0.000008 0.530159
293.292847 -51.577541 0.000007 0.555489
294.970459 -51.148994 0.000006 0.480323
296.206451 -50.833260 0.000005 0.549752
nan nan nan 0.000000
nan nan nan 0.000000
nan nan nan 0.000000
nan nan nan 0.000000
nan nan nan 0.000000
233.182983 -66.407227 7.977742 0.479164
233.378586 -66.358704 5.571615 0.486854
232.769867 -66.509682 3.199950 0.493629
nan nan nan 0.000000
264.429230 -58.657379 0.000022 0.543160
280.268341 -54.728882 0.000014 0.541817
287.068665 -53.042229 0.000010 0.528267
290.856140 -52.102844 0.000008 0.526070
293.274109 -51.503128 0.000007 0.538293
294.954681 -51.086304 0.000006 0.566842
296.192841 -50.779205 0.000005 0.547585
nan nan nan 0.000000
nan nan nan 0.000000
nan nan nan 0.000000
nan nan nan 0.000000
nan nan nan 0.000000
nan nan nan 0.000000
233.221573 -65.874451 5.573462 0.460838
232.941086 -65.941940 3.195025 0.487633
nan nan nan 0.000000
264.361755 -58.381279 0.000023 0.536400
280.227905 -54.563461 0.000014 0.550835
287.039886 -52.924324 0.000010 0.533654
290.833801 -52.011406 0.000008 0.552728
293.255890 -51.428585 0.000007 0.539818
294.939331 -51.023502 0.000006 0.596567
296.179626 -50.725056 0.000005 0.558724
nan nan nan 0.000000
nan nan nan 0.000000
nan nan nan 0.000000
nan nan nan 0.000000
nan nan nan 0.000000
nan nan nan 0.000000
nan nan nan 0.000000
nan nan nan 0.000000
nan nan nan 0.000000
264.296234 -58.104733 0.000023 0.538445
280.188660 -54.397770 0.000014 0.554604
287.011902 -52.806225 0.000010 0.555337
290.812103 -51.919815 0.000009 0.527413
293.238190 -51.353916 0.000007 0.522408
294.924438 -50.960598 0.000006 0.584833
296.166779 -50.670815 0.000005 0.505928
nan nan nan 0.000000
nan nan nan 0.000000
nan nan nan 0.000000
nan nan nan 0.000000
nan nan nan 0.000000
nan nan nan 0.000000
nan nan nan 0.000000
nan nan nan 0.000000
nan nan nan 0.000000
264.232666 -57.827724 0.000023 0.536110
280.150543 -54.231804 0.000014 0.551171
286.984741 -52.687931 0.000010 0.545632
290.791016 -51.828072 0.000008 0.535775
293.221039 -51.279125 0.000007 0.529885
294.909973 -50.897587 0.000006 0.549569
296.154297 -50.616486 0.000005 0.583749
nan nan nan 0.000000
nan nan nan 0.000000
nan nan nan 0.000000
nan nan nan 0.000000
nan nan nan 0.000000
nan nan nan 0.000000
nan nan nan 0.000000
nan nan nan 0.000000
nan nan nan 0.000000
264.170990 -57.550278 0.000022 0.540078
280.113586 -54.065575 0.000014 0.538994
286.958405 -52.569450 0.000010 0.523522
290.770599 -51.736187 0.000008 0.515465
293.204376 -51.204220 0.000007 0.525124
294.895935 -50.834480 0.000006 0.541970
296.142212 -50.562073 0.000005 0.548501
nan nan nan 0.000000
nan nan nan 0.000000
nan nan nan 0.000000
nan nan nan 0.000000
nan nan nan 0.000000
nan nan nan 0.000000
nan nan nan 0.000000
261.321655 -57.861786 2.712840 0.431693
nan nan nan 0.000000
264.111267 -57.272415 0.000022 0.532799
280.077820 -53.899094 0.000014 0.534539
286.932892 -52.450790 0.000010 0.516701
290.750824 -51.644157 0.000008 0.538430
293.188263 -51.129196 0.000007 0.554177
294.882355 -50.771275 0.000006 0.552026
296.130493 -50.507576 0.000005 0.574746
nan nan nan 0.000000
nan nan nan 0.000000
nan nan nan 0.000000
261.790802 -57.455708 8.381377 0.459129
nan nan nan 0.000000
nan nan nan 0.000000
nan nan nan 0.000000
nan nan nan 0.000000
nan nan nan 0.000000
264.053467 -56.994144 0.000022 0.540139
280.043213 -53.732365 0.000014 0.538216
286.908234 -52.331955 0.000010 0.557671
290.731689 -51.551998 0.000009 0.555001
293.172668 -51.054062 0.000007 0.547250
294.869202 -50.707977 0.000006 0.550530
296.119171 -50.452999 0.000005 0.541604
nan nan nan 0.000000
nan nan nan 0.000000
nan nan nan 0.000000
261.595276 -57.188080 8.402016 0.518685
260.929749 -57.319012 7.043062 0.466239
261.828125 -57.142273 5.519368 0.435447
nan nan nan 0.000000
nan nan nan 0.000000
nan nan nan 0.000000
263.997620 -56.715466 0.000021 0.538811
280.009766 -53.565399 0.000014 0.538720
286.884369 -52.212948 0.000010 0.534264
290.713196 -51.459705 0.000008 0.541161
293.157562 -50.978821 0.000007 0.541802
294.856506 -50.644588 0.000005 0.493370
296.108215 -50.398342 0.000005 0.485740
nan nan nan 0.000000
nan nan nan 0.000000
nan nan nan 0.000000
261.473511 -56.904495 8.411777 0.428794
261.811707 -56.840408 6.933000 0.446021
261.411285 -56.916286 5.549413 0.465614
261.769653 -56.848377 4.108685 0.545129
nan nan nan 0.000000
nan nan nan 0.000000
263.943756 -56.436413 0.000022 0.545281
279.977478 -53.398205 0.000014 0.546899
286.861359 -52.093781 0.000010 0.518929
290.695343 -51.367287 0.000008 0.523705
293.143036 -50.903477 0.000007 0.556619
294.844269 -50.581116 0.000006 0.554345
296.097656 -50.343613 0.000005 0.528389
nan nan nan 0.000000
nan nan nan 0.000000
nan nan nan 0.000000
261.353394 -56.619652 8.421572 0.426505
261.670837 -56.561790 6.943076 0.427741
263.030273 -56.314011 5.409874 0.430671
261.637604 -56.567848 4.112544 0.461021
nan nan nan 0.000000
nan nan nan 0.000000
263.891815 -56.156982 0.000022 0.535698
279.946350 -53.230785 0.000014 0.540200
286.839203 -51.974453 0.000010 0.516838
290.678162 -51.274742 0.000008 0.541756
293.128998 -50.828033 0.000007 0.533913
294.832428 -50.517555 0.000006 0.574289
296.087463 -50.288807 0.000005 0.524239
nan nan nan 0.000000
nan nan nan 0.000000
nan nan nan 0.000000
262.150391 -56.173302 8.293545 0.430793
262.316498 -56.144226 6.861506 0.438361
262.562134 -56.101227 5.444594 0.434501
261.576721 -56.273731 4.112947 0.432547
nan nan nan 0.000000
nan nan nan 0.000000
263.841827 -55.877197 0.000022 0.539391
279.916382 -53.063156 0.000013 0.542840
286.817841 -51.854977 0.000010 0.530770
290.661591 -51.182079 0.000008 0.548714
293.115509 -50.752495 0.000007 0.531807
294.821075 -50.453915 0.000006 0.580270
296.077667 -50.233936 0.000005 0.530846
nan nan nan 0.000000
nan nan nan 0.000000
nan nan nan 0.000000
262.076416 -55.885384 8.297142 0.448554
262.085358 -55.883884 6.882658 0.434806
262.627930 -55.792793 5.435002 0.434791
260.637360 -56.126968 4.157213 0.513878
262.285950 -55.850208 2.691202 0.428000
nan nan nan 0.000000
263.793793 -55.597080 0.000022 0.543984
279.887634 -52.895321 0.000014 0.544381
286.797333 -51.735352 0.000010 0.526238
290.645691 -51.089306 0.000008 0.535683
293.102539 -50.676861 0.000007 0.528405
294.810150 -50.390198 0.000006 0.509865
296.068237 -50.178997 0.000005 0.540566
nan nan nan 0.000000
nan nan nan 0.000000
nan nan nan 0.000000
261.507751 -55.676594 8.375360 0.444877
260.379028 -55.857986 7.075872 0.468574
240.323151 -59.081078 7.283418 0.440208
262.671631 -55.489559 4.053521 0.451804
262.046387 -55.590034 2.694381 0.490196
261.414429 -55.691593 1.295145 0.882353
263.747711 -55.316620 0.000022 0.547784
279.860016 -52.727287 0.000014 0.529015
286.777649 -51.615585 0.000010 0.552254
290.630432 -50.996422 0.000008 0.526665
293.090088 -50.601143 0.000007 0.535912
294.799652 -50.326405 0.000006 0.565286
296.059204 -50.123989 0.000005 0.545586
nan nan nan 0.000000
nan nan nan 0.000000
nan nan nan 0.000000
261.885071 -55.315094 8.311747 0.435447
261.342865 -55.398354 6.958129 0.421988
261.592621 -55.360001 5.513188 0.452583
262.616760 -55.202744 4.053996 0.437827
261.680298 -55.346539 2.699680 0.490883
nan nan nan 0.000000
263.703613 -55.035858 0.000021 0.539620
279.833588 -52.559071 0.000014 0.541024
286.758820 -51.495686 0.000010 0.530861
290.615814 -50.903435 0.000008 0.557000
293.078186 -50.525337 0.000007 0.517311
294.789642 -50.262543 0.000006 0.552331
296.050537 -50.068924 0.000005 0.546670
nan nan nan 0.000000
nan nan nan 0.000000
nan nan nan 0.000000
261.655945 -55.048416 8.339491 0.424781
261.341980 -55.094387 6.953042 0.493111
261.583282 -55.059055 5.510285 0.441779
262.083923 -54.985752 4.078302 0.430915
262.311829 -54.952389 2.688504 0.549401
nan nan nan 0.000000
263.661438 -54.754787 0.000021 0.540444
279.808319 -52.390667 0.000013 0.545373
286.740814 -51.375660 0.000010 0.568490
290.601868 -50.810349 0.000008 0.547112
293.066803 -50.449448 0.000007 0.539345
294.780029 -50.198608 0.000006 0.568856
296.042267 -50.013802 0.000005 0.543282
nan nan nan 0.000000
nan nan nan 0.000000
nan nan nan 0.000000
nan nan nan 0.000000
260.456879 -54.914196 7.050909 0.425361
261.254761 -54.803055 5.533982 0.497490
261.723572 -54.737759 4.094105 0.436881
261.574768 -54.758484 2.699995 0.430411
nan nan nan 0.000000
263.621246 -54.473434 0.000021 0.540276
279.784241 -52.222099 0.000013 0.528023
286.723633 -51.255508 0.000010 0.541909
290.588531 -50.717167 0.000008 0.549096
293.055969 -50.373486 0.000007 0.516045
294.770905 -50.134609 0.000006 0.615656
296.034393 -49.958618 0.000005 0.542184
nan nan nan 0.000000
nan nan nan 0.000000
nan nan nan 0.000000
261.754395 -54.433510 8.312443 0.447807
241.248672 -57.143944 9.275072 0.436622
240.637344 -57.224747 7.235871 0.444770
260.530579 -54.595268 4.151238 0.433906
261.266266 -54.498028 2.704425 0.513817
nan nan nan 0.000000
263.583008 -54.191799 0.000021 0.543816
279.761322 -52.053360 0.000013 0.555016
286.707336 -51.135239 0.000010 0.534112
290.575867 -50.623898 0.000008 0.540795
293.045624 -50.297443 0.000007 0.531197
294.762207 -50.070549 0.000006 0.521431
296.026886 -49.903381 0.000005 0.509239
nan nan nan 0.000000
nan nan nan 0.000000
nan nan nan 0.000000
262.150848 -54.084518 8.247507 0.520806
240.298370 -56.817890 9.378717 0.454932
261.205902 -54.202717 5.531505 0.441428
260.503235 -54.290607 4.150662 0.450980
240.661591 -56.772457 3.043592 0.472557
nan nan nan 0.000000
263.546753 -53.909916 0.000021 0.539330
279.739624 -51.884468 0.000013 0.545205
286.691833 -51.014862 0.000010 0.548928
290.563873 -50.530537 0.000008 0.590631
293.035828 -50.221336 0.000006 0.488502
294.753967 -50.006432 0.000005 0.532967
296.019775 -49.848099 0.000005 0.523369
nan nan nan 0.000000
nan nan nan 0.000000
nan nan nan 0.000000
nan nan nan 0.000000
239.777191 -56.428501 9.432833 0.419608
261.076416 -53.915226 5.539201 0.429511
242.723541 -56.080837 5.028358 0.482521
213.588104 -59.518768 3.488808 0.479454
nan nan nan 0.000000
263.512451 -53.627777 0.000021 0.537530
279.719055 -51.715427 0.000013 0.543969
286.677185 -50.894379 0.000010 0.549874
290.552521 -50.437099 0.000008 0.536614
293.026581 -50.145161 0.000007 0.555535
294.746155 -49.942257 0.000006 0.534035
296.013062 -49.792763 0.000005 0.505302
nan nan nan 0.000000
nan nan nan 0.000000
nan nan nan 0.000000
nan nan nan 0.000000
242.310883 -55.693619 9.133630 0.433967
241.826004 -55.747406 7.124498 0.421530
211.278473 -59.135910 6.580212 0.429419
236.041260 -56.389084 3.117945 0.572274
nan nan nan 0.000000
263.480133 -53.345413 0.000020 0.540795
279.699707 -51.546249 0.000013 0.542611
286.663391 -50.773796 0.000009 0.529870
290.541809 -50.343582 0.000008 0.531975
293.017853 -50.068924 0.000006 0.577356
294.738800 -49.878029 0.000006 0.562249
296.006714 -49.737385 0.000005 0.488045
nan nan nan 0.000000
nan nan nan 0.000000
nan nan nan 0.000000
nan nan nan 0.000000
242.362152 -55.253059 9.122356 0.490730
236.125153 -55.900856 7.590615 0.441184
237.645859 -55.742912 5.274463 0.547524
237.688354 -55.738499 3.090010 0.527733
nan nan nan 0.000000
263.449799 -53.062820 0.000021 0.538842
279.681519 -51.376938 0.000013 0.553353
286.650421 -50.653118 0.000010 0.539315
290.531769 -50.249989 0.000008 0.564004
293.009674 -49.992626 0.000007 0.544091
294.731903 -49.813747 0.000006 0.539422
296.000763 -49.681961 0.000005 0.567254
328.903625 -46.440563 8.281673 0.607813
328.903625 -46.440563 7.416296 0.465232
329.111420 -46.420448 6.601054 0.678431
329.111420 -46.420448 5.750915 0.678431
329.111420 -46.420448 4.908990 0.678431
328.903625 -46.440563 4.056266 0.499275
329.007507 -46.430504 3.237123 0.678431
329.007507 -46.430504 2.412080 0.678431
329.007507 -46.430504 1.587920 0.678431
329.007507 -46.430508 0.762876 0.678431
328.220673 -46.506683 -0.000007 0.538308
321.246735 -47.181843 -0.000002 0.532403
317.362640 -47.557873 0.000000 0.520363
314.882965 -47.797932 0.000001 0.563622
313.159515 -47.964783 0.000003 0.519478
311.889771 -48.087711 0.000003 0.536538
329.000122 -46.607681 8.301857 0.462898
329.000122 -46.607681 7.433696 0.631449
329.208740 -46.588955 6.615838 0.557107
329.208710 -46.588955 5.762965 0.557107
329.208710 -46.588955 4.918336 0.549752
329.000122 -46.607681 4.062872 0.582452
329.104431 -46.598316 3.241098 0.678431
329.104431 -46.598320 2.413404 0.678431
329.104431 -46.598320 1.586596 0.678431
329.104431 -46.598316 0.758902 0.678431
328.236481 -46.676231 -0.000007 0.547417
321.257996 -47.302689 -0.000002 0.522759
317.371368 -47.651592 -0.000000 0.555291
314.890106 -47.874336 0.000001 0.534234
313.165527 -48.029152 0.000003 0.544457
311.894928 -48.143215 0.000003 0.527779
329.097260 -46.775883 8.322476 0.532525
329.097260 -46.775883 7.451477 0.421134
329.097260 -46.775883 6.592708 0.798291
329.097260 -46.775879 5.744110 0.644129
329.097260 -46.775879 4.903714 0.451194
329.097260 -46.775883 4.069623 0.611765
329.201965 -46.767220 3.245160 0.678431
329.201965 -46.767220 2.414756 0.678431
329.201965 -46.767220 1.585243 0.678431
329.201965 -46.767220 0.754840 0.678431
328.251129 -46.845886 -0.000007 0.541741
321.268433 -47.423615 -0.000002 0.531762
317.379456 -47.745373 0.000000 0.562188
314.896698 -47.950790 0.000001 0.542046
313.171082 -48.093563 0.000002 0.527901
311.899719 -48.198750 0.000003 0.521187
329.195038 -46.945194 8.343544 0.864775
329.195038 -46.945194 7.469642 0.543481
329.195038 -46.945194 6.608011 0.807843
329.195038 -46.945194 5.756586 0.571847
329.195038 -46.945194 4.913389 0.832410
329.195038 -46.945194 4.076518 0.612970
329.300171 -46.937237 3.249308 0.666941
329.300140 -46.937237 2.416138 0.666484
329.300171 -46.937237 1.583861 0.666941
329.300171 -46.937237 0.750692 0.678431
328.264587 -47.015640 -0.000007 0.530068
321.278015 -47.544605 -0.000002 0.522774
317.386902 -47.839207 -0.000000 0.570825
314.902771 -48.027287 0.000001 0.545159
313.176178 -48.158009 0.000002 0.551141
311.904114 -48.254318 0.000003 0.521798
329.293488 -47.115646 8.365063 0.492744
329.293488 -47.115646 7.488198 0.709804
329.504517 -47.101151 6.662134 0.678431
329.504517 -47.101151 5.800707 0.678431
329.504517 -47.101151 4.947606 0.678431
329.293488 -47.115650 4.083563 0.573251
329.398987 -47.108398 3.253546 0.678431
329.399017 -47.108402 2.417551 0.678431
329.398987 -47.108398 1.582450 0.678431
329.399017 -47.108398 0.746454 0.678431
328.276855 -47.185486 -0.000007 0.529549
321.286774 -47.665657 -0.000003 0.549706
317.393677 -47.933090 -0.000000 0.519142
314.908295 -48.103821 0.000001 0.546868
313.180847 -48.222488 0.000002 0.579248
311.908142 -48.309914 0.000003 0.563210
329.392609 -47.287270 8.387039 0.625208
329.392578 -47.287270 7.507146 0.672389
329.604462 -47.274200 6.678231 0.678431
329.604462 -47.274200 5.813830 0.678431
329.604462 -47.274200 4.957784 0.678431
329.392609 -47.287270 4.090757 0.613001
329.498535 -47.280735 3.257874 0.613321
329.498535 -47.280735 2.418992 0.575448
329.498535 -47.280735 1.581008 0.575448
329.498535 -47.280735 0.742125 0.613321
328.287933 -47.355412 -0.000007 0.546548
321.294678 -47.786774 -0.000004 0.524147
317.399811 -48.027020 0.000000 0.541665
314.913269 -48.180397 0.000001 0.526101
313.185059 -48.286999 0.000002 0.548638
311.911774 -48.365536 0.000003 0.578500
329.492401 -47.460094 8.409483 0.221942
329.492401 -47.460091 7.526498 0.527535
329.551392 -47.456863 6.666659 0.705669
329.551392 -47.456867 5.804398 0.611597
329.551392 -47.456863 4.950468 0.753414
329.492401 -47.460091 4.098103 0.630564
329.598755 -47.454277 3.262294 0.678431
329.598755 -47.454277 2.420464 0.678431
329.598755 -47.454277 1.579536 0.678431
329.598755 -47.454277 0.737705 0.678431
328.297821 -47.525410 -0.000007 0.546731
321.301727 -47.907940 -0.000003 0.529381
317.405273 -48.120991 -0.000000 0.526040
314.917725 -48.257004 0.000001 0.539422
313.188812 -48.351536 0.000002 0.553017
311.915009 -48.421185 0.000003 0.583963
329.592926 -47.634140 8.432401 0.579355
329.592926 -47.634140 7.546259 0.523171
329.592896 -47.634140 6.672557 0.560784
329.592926 -47.634140 5.809205 0.358846
329.592926 -47.634140 4.954198 0.600198
329.592926 -47.634140 4.105605 0.583825
329.699677 -47.629047 3.266807 0.678431
329.699677 -47.629047 2.421968 0.678431
329.699677 -47.629047 1.578032 0.678431
329.699677 -47.629051 0.733192 0.678431
328.306519 -47.695473 -0.000007 0.532326
321.307922 -48.029152 -0.000003 0.535943
317.410095 -48.214996 -0.000000 0.528023
314.921661 -48.333637 0.000001 0.564660
313.192108 -48.416100 0.000002 0.519448
311.917847 -48.476852 0.000003 0.549065
329.694153 -47.809444 8.455799 0.709804
329.694153 -47.809444 7.566434 0.678431
329.694153 -47.809444 6.689556 0.638788
329.694153 -47.809444 5.823062 0.559564
329.694153 -47.809444 4.964944 0.458030
329.694153 -47.809444 4.113264 0.473014
329.801331 -47.805084 3.271415 0.678431
329.801331 -47.805084 2.423503 0.678431
329.801331 -47.805084 1.576498 0.678431
329.801331 -47.805084 0.728585 0.678431
328.314026 -47.865593 -0.000007 0.544900
321.313263 -48.150406 -0.000003 0.529702
317.414246 -48.309029 -0.000001 0.530144
314.925049 -48.410301 0.000001 0.525612
313.194946 -48.480682 0.000002 0.574823
311.920319 -48.532543 0.000003 0.520073
329.481750 -47.996632 8.400887 0.269474
329.481750 -47.996632 7.519084 0.622110
329.481750 -47.996632 6.649664 0.385779
329.481750 -47.996632 5.790543 0.444205
329.481750 -47.996632 4.939724 0.732570
329.481750 -47.996632 4.095288 0.444892
329.683502 -47.989834 3.265293 0.678431
329.683502 -47.989834 2.421463 0.678431
329.683502 -47.989834 1.578537 0.678431
329.683502 -47.989834 0.734706 0.678431
328.320374 -48.035763 -0.000008 0.545983
321.317810 -48.271694 -0.000004 0.529534
317.417755 -48.403095 -0.000001 0.537316
314.927887 -48.486984 0.000001 0.556542
313.197357 -48.545288 0.000002 0.555505
311.922394 -48.588245 0.000002 0.537179
329.157745 -48.183746 8.318348 0.337530
329.157745 -48.183746 7.447919 0.708598
329.157745 -48.183743 6.589710 0.807828
329.157745 -48.183743 5.741666 0.817761
329.157745 -48.183746 4.901817 0.496605
329.157745 -48.183746 4.068271 0.570031
329.356995 -48.178425 3.248980 0.678431
329.356995 -48.178425 2.416029 0.678431
329.356995 -48.178425 1.583971 0.521416
329.356995 -48.178421 0.751020 0.515129
328.325500 -48.205971 -0.000008 0.543496
321.321472 -48.393009 -0.000004 0.535454
317.420593 -48.497181 -0.000001 0.553460
314.930206 -48.563683 0.000001 0.548516
313.199310 -48.609905 0.000002 0.569741
311.924072 -48.643963 0.000003 0.529870
328.841980 -48.366104 8.238213 0.764187
328.841980 -48.366104 7.378824 0.486671
328.841980 -48.366104 6.531498 0.665629
328.841980 -48.366104 5.694210 0.478935
328.841980 -48.366104 4.865014 0.747738
328.841980 -48.366104 4.042039 0.710643
329.038666 -48.362225 3.233136 0.667948
329.038666 -48.362225 2.410752 0.667948
329.038666 -48.362225 1.589248 0.667948
329.038666 -48.362228 0.766863 0.667948
328.329468 -48.376209 -0.000008 0.530449
321.324280 -48.514347 -0.000003 0.538079
317.422760 -48.591282 -0.000001 0.548302
314.931976 -48.640400 0.000001 0.579416
313.200806 -48.674538 0.000002 0.546685
311.925354 -48.699688 0.000002 0.508278
328.534119 -48.543903 8.160383 0.575463
328.534119 -48.543903 7.311716 0.801801
328.730225 -48.541405 6.510647 0.611765
328.730225 -48.541405 5.677211 0.468605
328.730225 -48.541405 4.851830 0.578454
328.534119 -48.543903 4.016562 0.437034
328.728363 -48.541428 3.217752 0.678431
328.728363 -48.541428 2.405627 0.678431
328.728363 -48.541428 1.594373 0.678431
328.728363 -48.541428 0.782248 0.678431
328.332214 -48.546474 -0.000008 0.542794
321.326233 -48.635700 -0.000003 0.528176
317.424286 -48.685398 -0.000001 0.531807
314.933228 -48.717125 0.000000 0.491585
313.201874 -48.739178 0.000001 0.550973
311.926270 -48.755421 0.000002 0.606744
323.865051 -48.742466 6.990430 0.937255
323.865051 -48.742466 6.302937 0.444358
323.865051 -48.742466 5.625097 0.678431
323.865051 -48.742466 4.955284 0.514122
323.865051 -48.742466 4.291946 0.614771
324.006470 -48.741653 3.645181 0.078691
324.006470 -48.741650 2.985697 0.081544
324.006470 -48.741650 2.328331 0.079789
324.006470 -48.741650 1.671669 0.084993
324.006470 -48.741653 1.014302 0.086275
324.006470 -48.741653 0.354818 0.076905
321.327362 -48.757069 -0.000004 0.546975
317.425171 -48.779522 -0.000001 0.533654
314.933960 -48.793858 0.000000 0.566888
313.202454 -48.803822 0.000001 0.505913
311.926788 -48.811161 0.000002 0.578241
323.624756 -48.881256 6.930155 0.502815
323.624756 -48.881256 6.250967 0.472251
323.624756 -48.881256 5.581313 0.425391
323.624756 -48.881256 4.919591 0.768261
323.624756 -48.881256 4.264265 0.773083
323.814301 -48.881489 3.629398 0.666667
323.814301 -48.881489 2.976241 0.678431
323.814301 -48.881493 2.325181 0.678431
323.814301 -48.881493 1.674819 0.678431
323.814301 -48.881489 1.023759 0.678431
323.814301 -48.881489 0.370601 0.678431
321.327637 -48.878437 -0.000004 0.526574
317.425385 -48.873650 -0.000001 0.540749
314.934113 -48.870594 0.000000 0.532967
313.202606 -48.868469 0.000002 0.539879
311.926910 -48.866901 0.000003 0.571405
323.675171 -49.019081 6.942947 0.404395
323.675171 -49.019081 6.261996 0.451453
323.675171 -49.019085 5.590604 0.698589
323.675171 -49.019085 4.927166 0.776242
323.390137 -49.016743 4.237348 0.643687
323.528168 -49.017876 3.605989 0.094118
323.528168 -49.017876 2.962216 0.075746
323.528168 -49.017876 2.320509 0.094118
323.528168 -49.017876 1.679491 0.094118
323.528168 -49.017876 1.037784 0.094118
323.528168 -49.017876 0.394010 0.089982
321.327057 -48.999809 -0.000004 0.516014
317.424927 -48.967777 -0.000001 0.554116
314.933746 -48.947327 0.000000 0.543496
313.202301 -48.933117 0.000001 0.517983
311.926636 -48.922646 0.000002 0.588327
323.531189 -49.154678 6.907287 0.678431
323.531189 -49.154675 6.231246 0.678431
323.531189 -49.154678 5.564700 0.678431
323.531189 -49.154675 4.906048 0.678431
323.161011 -49.149052 4.211169 0.346578
323.306946 -49.151268 3.587980 0.094118
323.306946 -49.151268 2.951426 0.094118
323.306946 -49.151268 2.316916 0.094118
323.306946 -49.151268 1.683084 0.094118
323.306946 -49.151268 1.048574 0.094118
323.306946 -49.151268 0.412019 0.124315
321.325653 -49.121170 -0.000004 0.542321
317.423828 -49.061897 -0.000001 0.541054
314.932861 -49.024059 0.000000 0.575036
313.201538 -48.997757 0.000001 0.528832
311.925995 -48.978382 0.000002 0.539193
322.937225 -49.278309 6.759107 0.508644
322.937225 -49.278309 6.103480 0.799374
322.937225 -49.278309 5.457060 0.608988
322.937225 -49.278309 4.818297 0.891264
322.937225 -49.278309 4.185707 0.763668
323.120178 -49.282364 3.572867 0.678431
323.120178 -49.282364 2.942371 0.678431
323.120178 -49.282364 2.313899 0.678431
323.120178 -49.282364 1.686100 0.678431
323.120178 -49.282364 1.057629 0.678431
323.120178 -49.282364 0.427132 0.678431
321.323395 -49.242523 -0.000005 0.525383
317.422089 -49.156010 -0.000001 0.553155
314.931427 -49.100780 -0.000000 0.535698
313.200348 -49.062397 0.000001 0.494652
311.924957 -49.034115 0.000002 0.561410
322.718506 -49.404625 6.705153 0.579660
322.718506 -49.404629 6.056959 0.363775
322.718506 -49.404625 5.417868 0.783047
322.718506 -49.404625 4.786346 0.458549
322.718506 -49.404625 4.160928 0.862135
322.899323 -49.409901 3.555034 0.678431
322.899323 -49.409901 2.931686 0.678431
322.899323 -49.409901 2.310340 0.678431
322.899323 -49.409901 1.689660 0.678431
322.899323 -49.409901 1.068314 0.678431
322.899323 -49.409897 0.444966 0.678431
321.320251 -49.363853 -0.000004 0.553216
317.419647 -49.250107 -0.000001 0.517205
314.929474 -49.177494 0.000000 0.568399
313.198669 -49.127022 0.000001 0.523796
311.923523 -49.089836 0.000002 0.510689
322.786926 -49.538322 6.723376 0.242435
322.786926 -49.538322 6.072671 0.309743
322.786926 -49.538322 5.431106 0.260624
322.786926 -49.538322 4.797138 0.094118
322.504669 -49.528118 4.136802 0.501747
322.683411 -49.534580 3.537673 0.678431
322.683411 -49.534580 2.921285 0.678431
322.683411 -49.534580 2.306876 0.678431
322.683411 -49.534580 1.693124 0.678431
322.683411 -49.534580 1.078715 0.678431
322.683411 -49.534580 0.462326 0.678431
321.316315 -49.485161 -0.000004 0.556985
317.416595 -49.344185 -0.000002 0.538430
314.926971 -49.254189 -0.000000 0.528649
313.196564 -49.191635 0.000001 0.599069
311.921692 -49.145550 0.000002 0.537118
322.649048 -49.664139 6.690111 0.678431
322.649048 -49.664139 6.043990 0.678431
322.649048 -49.664139 5.406941 0.678431
322.649048 -49.664139 4.777439 0.678431
322.295532 -49.648888 4.113312 0.355398
322.472290 -49.656513 3.520771 0.678431
322.472290 -49.656513 2.911158 0.678431
322.472290 -49.656513 2.303502 0.678431
322.472290 -49.656513 1.696498 0.678431
322.472290 -49.656513 1.088842 0.678431
322.472290 -49.656513 0.479229 0.678431
321.311493 -49.606434 -0.000005 0.536751
317.412872 -49.438240 -0.000002 0.539437
314.923920 -49.330864 -0.000000 0.563790
313.194000 -49.256233 0.000001 0.535531
311.919495 -49.201248 0.000002 0.522179
322.090942 -49.767040 6.551666 0.316793
322.090942 -49.767040 5.924619 0.722042
322.090942 -49.767040 5.306376 0.776471
322.090942 -49.767040 4.695454 0.519966
322.090942 -49.767040 4.090437 0.645106
322.219757 -49.773499 3.500534 0.086275
322.219757 -49.773499 2.899032 0.076112
322.219757 -49.773499 2.299464 0.086275
322.219757 -49.773499 1.700536 0.086275
322.219757 -49.773499 1.100967 0.086275
322.219757 -49.773499 0.499466 0.086275
321.305847 -49.727676 -0.000005 0.525612
317.408478 -49.532269 -0.000002 0.542016
314.920349 -49.407516 -0.000000 0.529107
313.191010 -49.320812 0.000001 0.510704
311.916901 -49.256931 0.000002 0.569833
321.890747 -49.882664 6.503144 0.757244
321.890747 -49.882668 5.882781 0.874098
321.890747 -49.882664 5.271127 0.377188
321.890747 -49.882664 4.666719 0.616587
321.890747 -49.882664 4.068151 0.412955
322.018097 -49.889938 3.484533 0.122515
322.018097 -49.889942 2.889446 0.094118
322.018097 -49.889942 2.296270 0.094118
322.018097 -49.889942 1.703730 0.094118
322.018097 -49.889942 1.110554 0.094118
322.018097 -49.889942 0.515467 0.094118
321.299347 -49.848873 -0.000005 0.532265
317.403442 -49.626259 -0.000002 0.546914
314.916229 -49.484142 -0.000000 0.588357
313.187531 -49.385365 0.000001 0.550149
311.913910 -49.312592 0.000002 0.558862
321.869690 -50.007080 6.499763 0.738842
321.869690 -50.007080 5.879865 0.797055
321.869690 -50.007076 5.268672 0.392737
321.869690 -50.007080 4.664716 0.694774
321.694763 -49.995857 4.046433 0.517647
321.865723 -50.006824 3.472643 0.678431
321.865723 -50.006824 2.882323 0.678431
321.865723 -50.006824 2.293897 0.678431
321.865723 -50.006824 1.706103 0.678431
321.865723 -50.006824 1.117677 0.678431
321.865723 -50.006824 0.527356 0.678431
321.291992 -49.970020 -0.000005 0.534768
317.397736 -49.720219 -0.000002 0.530816
314.911591 -49.560738 -0.000000 0.541299
313.183624 -49.449894 0.000000 0.523583
311.910553 -49.368233 0.000002 0.539940
321.841095 -50.130772 6.494704 0.663096
321.841064 -50.130772 5.875504 0.668467
321.841064 -50.130772 5.264997 0.668467
321.841064 -50.130768 4.661721 0.668467
321.502808 -50.106697 4.025262 0.523033
321.671936 -50.118736 3.457409 0.678431
321.671936 -50.118736 2.873195 0.678431
321.671936 -50.118736 2.290857 0.678431
321.671936 -50.118736 1.709143 0.678431
321.671936 -50.118736 1.126805 0.678431
321.671936 -50.118736 0.542591 0.678431
321.283813 -50.091114 -0.000005 0.533211
317.391388 -49.814129 -0.000002 0.538766
314.906403 -49.637299 -0.000000 0.541329
313.179260 -49.514397 0.000000 0.539010
311.906769 -49.423847 0.000001 0.516045
321.314789 -50.215279 6.364816 0.580392
321.314789 -50.215279 5.763510 0.404807
321.314789 -50.215279 5.170645 0.524392
321.314789 -50.215279 4.584803 0.603922
321.314789 -50.215279 4.004623 0.290196
321.482117 -50.228359 3.442556 0.655543
321.482117 -50.228359 2.864296 0.655543
321.482117 -50.228359 2.287893 0.655543
321.482117 -50.228359 1.712107 0.655543
321.482117 -50.228359 1.135704 0.655543
321.482117 -50.228359 0.557443 0.655543
321.274780 -50.212151 -0.000005 0.543572
317.384369 -49.907997 -0.000003 0.526360
314.900696 -49.713821 -0.000001 0.543938
313.174438 -49.578865 0.000000 0.561715
311.902618 -49.479431 0.000001 0.550515
321.130554 -50.321674 6.320993 0.391546
321.130554 -50.321674 5.725724 0.732143
321.130554 -50.321674 5.138812 0.709804
321.130554 -50.321674 4.558852 0.753506
321.130585 -50.321674 3.984497 0.459525
321.296112 -50.335781 3.428073 0.678431
321.296112 -50.335777 2.855619 0.678431
321.296112 -50.335781 2.285003 0.678431
321.296112 -50.335781 1.714997 0.678431
321.296112 -50.335781 1.144381 0.678431
321.296112 -50.335777 0.571926 0.678431
321.130554 -50.321671 0.015505 0.457618
317.376709 -50.001812 -0.000002 0.522347
314.894440 -49.790306 -0.000001 0.563699
313.169189 -49.643295 0.000000 0.521828
311.898102 -49.534988 0.000001 0.555123
320.950012 -50.425957 6.278250 0.561975
320.950012 -50.425957 5.688868 0.474510
320.950012 -50.425957 5.107762 0.804913
320.950012 -50.425957 4.533539 0.777508
320.950012 -50.425957 3.964865 0.870588
321.113800 -50.441067 3.413945 0.678431
321.113800 -50.441067 2.847154 0.678431
321.113800 -50.441067 2.282183 0.678431
321.113800 -50.441067 1.717817 0.678431
321.113800 -50.441067 1.152846 0.678431
321.113800 -50.441067 0.586055 0.678431
320.949982 -50.425953 0.035138 0.580392
317.368408 -50.095573 -0.000002 0.516518
314.887665 -49.866741 -0.000001 0.520027
313.163483 -49.707691 0.000000 0.562173
311.893158 -49.590511 0.000001 0.557626
320.995361 -50.550285 6.292530 0.358114
320.995361 -50.550285 5.701181 0.440284
320.995361 -50.550285 5.118135 0.763104
320.995361 -50.550285 4.541996 0.663691
320.772949 -50.528206 3.945712 0.937255
320.935028 -50.544296 3.400161 0.616388
320.935028 -50.544296 2.838896 0.616388
320.935028 -50.544296 2.279432 0.620111
320.935028 -50.544296 1.720568 0.622873
320.935028 -50.544296 1.161104 0.620111
320.935028 -50.544296 0.599839 0.633066
320.772919 -50.528202 0.054291 0.532036
317.359436 -50.189274 -0.000003 0.555123
314.880371 -49.943127 -0.000001 0.539117
313.157318 -49.772045 0.000000 0.514244
311.887848 -49.646000 0.000001 0.540581
320.920135 -50.662598 6.276663 0.678431
320.920135 -50.662598 5.687501 0.678431
320.920135 -50.662598 5.106610 0.678431
320.920135 -50.662598 4.532599 0.678431
320.599335 -50.628479 3.927022 0.777020
320.759735 -50.645538 3.386713 0.678431
320.759735 -50.645538 2.830838 0.678431
320.759735 -50.645538 2.276748 0.678431
320.759735 -50.645538 1.723252 0.678431
320.759735 -50.645538 1.169162 0.678431
320.759735 -50.645538 0.613287 0.678431
320.599304 -50.628475 0.072982 0.635142
317.349792 -50.282909 -0.000003 0.527657
314.872498 -50.019459 -0.000001 0.532586
313.150696 -49.836353 0.000000 0.567590
311.882141 -49.701450 0.000001 0.572335
320.428986 -50.726852 6.156129 0.405859
320.428986 -50.726852 5.583572 0.682704
320.428986 -50.726852 5.019053 0.848997
320.428986 -50.726852 4.461221 0.576684
320.428986 -50.726852 3.908779 0.340551
320.545959 -50.740116 3.370134 0.079103
320.545959 -50.740116 2.820905 0.076890
320.545959 -50.740116 2.273440 0.086275
320.545959 -50.740116 1.726560 0.086275
320.545959 -50.740116 1.179094 0.074510
320.545959 -50.740116 0.629865 0.074510
320.428955 -50.726849 0.091225 0.506737
317.339508 -50.376472 -0.000003 0.528527
314.864136 -50.095737 -0.000001 0.503655
313.143646 -49.900616 0.000000 0.549752
311.876068 -49.756859 0.000001 0.558083
320.261841 -50.823383 6.117349 0.556848
320.261841 -50.823383 5.550134 0.513939
320.261810 -50.823383 4.990883 0.454383
320.261841 -50.823383 4.438255 0.482002
320.261810 -50.823383 3.890968 0.568200
320.418976 -50.842319 3.360768 0.678431
320.418976 -50.842319 2.815293 0.678431
320.418976 -50.842319 2.271570 0.678431
320.418976 -50.842319 1.728430 0.678431
320.418976 -50.842319 1.184707 0.678431
320.418976 -50.842319 0.639232 0.678431
320.261810 -50.823380 0.109034 0.555474
317.328583 -50.469963 -0.000003 0.534264
314.855225 -50.171955 -0.000001 0.525521
313.136139 -49.964825 -0.000000 0.520012
311.869598 -49.812225 0.000001 0.518563
320.097748 -50.918133 6.079482 0.543297
320.097748 -50.918137 5.517484 0.686458
320.097748 -50.918137 4.963377 0.449668
320.097748 -50.918137 4.415831 0.678431
320.097748 -50.918137 3.873577 0.839216
320.253357 -50.937988 3.348254 0.678431
320.253357 -50.937984 2.807796 0.678431
320.253357 -50.937984 2.269073 0.678431
320.253357 -50.937984 1.730927 0.678431
320.253357 -50.937984 1.192204 0.678431
320.253357 -50.937988 0.651745 0.678431
320.097748 -50.918133 0.126423 0.764584
317.317017 -50.563377 -0.000003 0.542199
314.845764 -50.248108 -0.000001 0.538689
313.128174 -50.028984 -0.000000 0.561242
311.862732 -49.867542 0.000001 0.529793
320.085052 -51.031151 6.080011 0.750164
320.085052 -51.031151 5.517940 0.728359
320.085052 -51.031151 4.963759 0.784634
319.936646 -51.011166 4.393932 0.453132
319.936646 -51.011166 3.856594 0.677150
320.050140 -51.026451 3.332678 0.094118
320.050140 -51.026451 2.798463 0.090288
320.050140 -51.026451 2.265965 0.086915
320.050140 -51.026451 1.734036 0.083085
320.050140 -51.026451 1.201536 0.094118
320.050140 -51.026451 0.667322 0.094118
319.936646 -51.011166 0.143406 0.597452
317.304749 -50.656708 -0.000003 0.524086
314.835785 -50.324192 -0.000002 0.529564
313.119751 -50.093082 -0.000000 0.517861
311.855469 -49.922810 0.000001 0.571923
320.083527 -51.145782 6.083562 0.331014
320.083527 -51.145782 5.521002 0.359121
320.083527 -51.145782 4.966340 0.359121
319.778473 -51.102531 4.372544 0.579889
319.778473 -51.102528 3.840007 0.785107
319.931000 -51.124157 3.324097 0.678431
319.931000 -51.124157 2.793322 0.678431
319.931000 -51.124157 2.264252 0.678431
319.931000 -51.124157 1.735748 0.678431
319.931000 -51.124157 1.206678 0.678431
319.931000 -51.124157 0.675903 0.678431
319.843384 -51.111732 0.152451 0.393851
317.291870 -50.749950 -0.000003 0.515785
314.825287 -50.400204 -0.000001 0.515541
313.110901 -50.157120 -0.000001 0.523980
311.847839 -49.978027 0.000001 0.536599
319.925110 -51.237255 6.047588 0.678431
319.925110 -51.237259 5.489984 0.678431
319.925110 -51.237255 4.940208 0.678431
319.623077 -51.192280 4.351648 0.601785
319.623077 -51.192280 3.823801 0.741176
319.774109 -51.214771 3.312434 0.678431
319.774078 -51.214767 2.786335 0.678431
319.774078 -51.214771 2.261924 0.678431
319.774078 -51.214771 1.738076 0.678431
319.774078 -51.214767 1.213665 0.678431
319.774109 -51.214771 0.687565 0.678431
319.734314 -51.208847 0.163260 0.362142
317.278351 -50.843098 -0.000004 0.534508
314.814240 -50.476143 -0.000002 0.570901
313.101624 -50.221096 -0.000001 0.555184
311.839844 -50.033188 0.000000 0.534981
319.470367 -51.280464 5.936617 0.707576
319.470367 -51.280464 5.394299 0.755337
319.470367 -51.280464 4.859596 0.484047
319.470367 -51.280464 4.331226 0.538903
319.470367 -51.280464 3.807963 0.417060
319.619934 -51.303806 3.301038 0.661158
319.619934 -51.303806 2.779506 0.661158
319.619934 -51.303806 2.259650 0.661158
319.619934 -51.303806 1.740350 0.661158
319.619934 -51.303806 1.220493 0.661158
319.619934 -51.303806 0.698961 0.661158
319.580536 -51.297661 0.179209 0.096757
317.264160 -50.936153 -0.000004 0.509880
314.802673 -50.552002 -0.000002 0.552941
313.091858 -50.285007 -0.000001 0.549523
311.831421 -50.088295 0.000000 0.531182
319.320282 -51.367134 5.902914 0.869062
319.320282 -51.367134 5.365239 0.626200
319.320282 -51.367134 4.835114 0.627207
319.320282 -51.367134 4.311268 0.455863
319.388763 -51.378315 3.800467 0.627848
319.468384 -51.391312 3.289899 0.678431
319.468384 -51.391312 2.772833 0.678431
319.468384 -51.391312 2.257427 0.678431
319.468384 -51.391312 1.742573 0.678431
319.468384 -51.391312 1.227167 0.678431
319.468384 -51.391312 0.710100 0.678431
319.429413 -51.384949 0.194795 0.129412
317.249298 -51.029102 -0.000004 0.508415
314.790588 -50.627781 -0.000002 0.510246
313.081665 -50.348846 -0.000001 0.511955
311.822632 -50.143337 0.000000 0.532006
319.172729 -51.452339 5.869969 0.407080
319.172729 -51.452339 5.336833 0.485115
319.172729 -51.452339 4.811183 0.374609
319.172729 -51.452339 4.291759 0.500038
319.280823 -51.470757 3.789968 0.382223
319.319427 -51.477337 3.279012 0.678431
319.319427 -51.477337 2.766310 0.678431
319.319427 -51.477337 2.255254 0.678431
319.319427 -51.477337 1.744746 0.678431
319.319427 -51.477337 1.233690 0.678431
319.319427 -51.477337 0.720987 0.678431
319.300995 -51.474197 0.207676 0.203311
317.233826 -51.121948 -0.000004 0.546395
314.777954 -50.703468 -0.000002 0.536553
313.071045 -50.412613 -0.000001 0.507332
311.813477 -50.198322 0.000000 0.531121
319.207062 -51.567978 5.883406 0.685847
319.207062 -51.567978 5.348419 0.520989
319.207062 -51.567978 4.820943 0.419608
319.027649 -51.536121 4.272688 0.729366
319.134705 -51.555130 3.775073 0.198062
319.134705 -51.555130 3.265183 0.093263
319.134705 -51.555130 2.758024 0.094118
319.134705 -51.555130 2.252495 0.093263
319.134705 -51.555130 1.747505 0.094118
319.134705 -51.555130 1.241975 0.098680
319.134705 -51.555134 0.734816 0.094118
319.134705 -51.555134 0.224927 0.136431
317.217682 -51.214684 -0.000004 0.542947
314.764801 -50.779072 -0.000002 0.513603
313.059967 -50.476303 -0.000001 0.522988
311.803925 -50.253239 0.000000 0.578058
319.172791 -51.671715 5.879592 0.545159
319.172791 -51.671715 5.345130 0.553155
319.172791 -51.671715 4.818173 0.553155
318.884979 -51.618526 4.254042 0.365835
318.991028 -51.638126 3.760511 0.086336
319.028900 -51.645123 3.257962 0.678431
319.028900 -51.645123 2.753698 0.678431
319.028900 -51.645123 2.251053 0.678431
319.028900 -51.645123 1.748947 0.678431
319.028900 -51.645123 1.246302 0.678431
319.028900 -51.645123 0.742037 0.678431
319.028900 -51.645123 0.235059 0.618799
317.200897 -51.307304 -0.000004 0.537316
314.751129 -50.854576 -0.000003 0.512612
313.048431 -50.539917 -0.000001 0.509544
311.793976 -50.308086 -0.000000 0.609476
319.029724 -51.754341 5.848206 0.678431
319.029694 -51.754341 5.318068 0.678431
319.029724 -51.754341 4.795374 0.678431
318.744598 -51.699593 4.235806 0.513390
318.849670 -51.719769 3.746268 0.076341
318.849670 -51.719765 3.244653 0.094118
318.849670 -51.719765 2.745723 0.094118
318.849670 -51.719765 2.248397 0.094118
318.849670 -51.719765 1.751603 0.094118
318.849670 -51.719765 1.254276 0.086030
318.849670 -51.719765 0.755347 0.088060
318.849670 -51.719769 0.253732 0.062745
317.183472 -51.399803 -0.000004 0.558755
314.736908 -50.929985 -0.000002 0.527901
313.036469 -50.603447 -0.000001 0.564309
311.783661 -50.362865 0.000000 0.527413
318.606476 -51.779362 5.745366 0.843534
318.606476 -51.779362 5.229396 0.551873
318.606476 -51.779362 4.720671 0.684825
318.606476 -51.779362 4.217970 0.678431
318.747711 -51.807507 3.736695 0.506096
318.747711 -51.807507 3.237830 0.678431
318.747711 -51.807507 2.741636 0.678431
318.747711 -51.807507 2.247036 0.678431
318.747711 -51.807507 1.752964 0.678431
318.747711 -51.807507 1.258364 0.678431
318.747711 -51.807507 0.762170 0.678431
318.747711 -51.807507 0.263305 0.678431
317.165405 -51.492184 -0.000004 0.566964
314.722168 -51.005295 -0.000002 0.514366
313.024048 -50.666889 -0.000001 0.533349
311.772949 -50.417568 0.000000 0.554101
318.470520 -51.857872 5.715904 0.860151
318.470520 -51.857872 5.203993 0.615412
318.470520 -51.857872 4.699269 0.363333
318.470520 -51.857872 4.200523 0.490288
318.610443 -51.886768 3.723033 0.546685
318.610443 -51.886772 3.228092 0.678431
318.610443 -51.886768 2.735802 0.678431
318.610443 -51.886772 2.245092 0.678431
318.610443 -51.886772 1.754908 0.678431
318.610443 -51.886772 1.264198 0.678431
318.610443 -51.886772 0.771907 0.678431
318.610443 -51.886772 0.276966 0.678431
317.146698 -51.584431 -0.000004 0.536019
314.706909 -51.080498 -0.000003 0.556771
313.011200 -50.730247 -0.000001 0.560769
311.761871 -50.472198 -0.000000 0.519127
318.336700 -51.935158 5.687081 0.474510
318.336700 -51.935158 5.179141 0.477211
318.336700 -51.935158 4.678331 0.526589
318.336700 -51.935158 4.183454 0.671489
318.475311 -51.964802 3.709667 0.655451
318.475311 -51.964802 3.218566 0.678431
318.475311 -51.964802 2.730094 0.678431
318.475311 -51.964802 2.243191 0.678431
318.475311 -51.964802 1.756809 0.678431
318.475311 -51.964802 1.269906 0.678431
318.475311 -51.964802 0.781434 0.678431
318.475311 -51.964802 0.290333 0.678431
317.127319 -51.676548 -0.000005 0.554833
314.691132 -51.155594 -0.000003 0.535058
312.997894 -50.793514 -0.000001 0.553246
311.750397 -50.526749 -0.000001 0.526940
318.285309 -52.029041 5.679502 0.478950
318.285309 -52.029041 5.172607 0.710719
318.285309 -52.029041 4.672827 0.599893
318.285309 -52.029041 4.178967 0.465583
318.411102 -52.056854 3.704698 0.535973
318.411102 -52.056858 3.215024 0.535973
318.411102 -52.056854 2.727972 0.535973
318.411102 -52.056854 2.242484 0.544518
318.411102 -52.056854 1.757516 0.561608
318.411102 -52.056854 1.272028 0.584405
318.411102 -52.056858 0.784975 0.521721
318.411102 -52.056854 0.295302 0.678431
317.107330 -51.768528 -0.000005 0.534051
314.674835 -51.230576 -0.000003 0.536828
312.984161 -50.856686 -0.000001 0.514778
311.738556 -50.581215 -0.000001 0.491203
318.355286 -52.150223 5.703263 0.424750
318.355286 -52.150223 5.193093 0.431373
318.355316 -52.150223 4.690086 0.325353
318.355316 -52.150223 4.193038 0.447013
318.481689 -52.179100 3.715706 0.655909
318.481689 -52.179100 3.222870 0.678431
318.481689 -52.179100 2.732673 0.678431
318.481689 -52.179100 2.244050 0.678431
318.481689 -52.179100 1.755950 0.678431
318.481689 -52.179100 1.267327 0.678431
318.481689 -52.179104 0.777130 0.678431
318.481689 -52.179100 0.284294 0.678431
317.086670 -51.860359 -0.000005 0.545510
314.657990 -51.305447 -0.000003 0.554253
312.969971 -50.919758 -0.000002 0.517678
311.726318 -50.635601 -0.000001 0.496086
318.426208 -52.272987 5.727515 0.756222
318.426208 -52.272987 5.214005 0.606653
318.426208 -52.272987 4.707704 0.559747
318.426208 -52.272987 4.207399 0.343206
318.553192 -52.302944 3.726942 0.476280
318.553192 -52.302940 3.230878 0.678431
318.553192 -52.302944 2.737471 0.678431
318.553192 -52.302940 2.245648 0.678431
318.553192 -52.302940 1.754352 0.678431
318.553192 -52.302940 1.262529 0.678431
318.553192 -52.302940 0.769122 0.678431
318.553192 -52.302940 0.273058 0.678431
317.065399 -51.952053 -0.000005 0.552590
314.640656 -51.380196 -0.000003 0.518822
312.955353 -50.982731 -0.000002 0.565698
