# This PCD file was generated using the MATLABÂ® pcwrite function
# from Computer Vision ToolboxÂ®.
# .PCD v.7 - Point Cloud Data file format
VERSION .7
FIELDS x y z intensity
SIZE 4 4 4 4
TYPE F F F F
COUNT 1 1 1 1
WIDTH 1212
HEIGHT 1
VIEWPOINT 0 0 0 1 0 0 0
POINTS 1212
DATA ascii
nan nan nan 0.000000
nan nan nan 0.000000
248.033203 -237.283188 -0.000005 0.539208
238.926468 -223.740997 -0.000001 0.538994
235.016617 -217.926865 0.000001 0.522194
232.839050 -214.688705 0.000002 0.548302
231.448853 -212.621414 0.000003 0.531945
230.482620 -211.184570 0.000003 0.513222
229.770752 -210.125977 0.000003 0.538491
nan nan nan 0.000000
nan nan nan 0.000000
nan nan nan 0.000000
nan nan nan 0.000000
nan nan nan 0.000000
nan nan nan 0.000000
nan nan nan 0.000000
nan nan nan 0.000000
nan nan nan 0.000000
247.796799 -237.440964 -0.000006 0.537057
238.784836 -223.835541 -0.000002 0.532570
234.915680 -217.994247 0.000000 0.544488
232.760757 -214.740952 0.000002 0.520302
231.385025 -212.664017 0.000002 0.549157
230.428848 -211.220459 0.000003 0.513069
229.724380 -210.156921 0.000003 0.582208
nan nan nan 0.000000
nan nan nan 0.000000
nan nan nan 0.000000
nan nan nan 0.000000
nan nan nan 0.000000
nan nan nan 0.000000
nan nan nan 0.000000
nan nan nan 0.000000
nan nan nan 0.000000
247.559311 -237.597092 -0.000006 0.542763
238.642532 -223.929077 -0.000002 0.547616
234.814255 -218.060913 0.000000 0.553674
232.682098 -214.792664 0.000002 0.535195
231.320908 -212.706161 0.000003 0.528664
230.374832 -211.255966 0.000003 0.557153
229.677795 -210.187531 0.000003 0.521065
nan nan nan 0.000000
nan nan nan 0.000000
nan nan nan 0.000000
nan nan nan 0.000000
nan nan nan 0.000000
nan nan nan 0.000000
nan nan nan 0.000000
nan nan nan 0.000000
nan nan nan 0.000000
247.320724 -237.751556 -0.000007 0.542000
238.499588 -224.021622 -0.000001 0.535302
234.712372 -218.126877 0.000001 0.534081
232.603088 -214.843811 0.000002 0.510002
231.256500 -212.747864 0.000003 0.564034
230.320557 -211.291107 0.000003 0.504723
229.631012 -210.217819 0.000003 0.503548
nan nan nan 0.000000
nan nan nan 0.000000
nan nan nan 0.000000
nan nan nan 0.000000
nan nan nan 0.000000
nan nan nan 0.000000
nan nan nan 0.000000
nan nan nan 0.000000
nan nan nan 0.000000
247.081070 -237.904343 -0.000007 0.541100
238.356003 -224.113159 -0.000001 0.544137
234.610031 -218.192123 0.000000 0.564431
232.523712 -214.894409 0.000002 0.520974
231.191788 -212.789124 0.000002 0.512627
230.266052 -211.325851 0.000003 0.551110
229.584015 -210.247787 0.000003 0.549432
nan nan nan 0.000000
nan nan nan 0.000000
nan nan nan 0.000000
nan nan nan 0.000000
nan nan nan 0.000000
nan nan nan 0.000000
nan nan nan 0.000000
nan nan nan 0.000000
nan nan nan 0.000000
246.840363 -238.055481 -0.000007 0.543206
238.211792 -224.203705 -0.000001 0.544121
234.507233 -218.256653 0.000001 0.560449
232.444000 -214.944458 0.000002 0.535988
231.126801 -212.829926 0.000002 0.550454
230.211304 -211.360229 0.000003 0.515282
229.536804 -210.277435 0.000003 0.557656
nan nan nan 0.000000
nan nan nan 0.000000
nan nan nan 0.000000
nan nan nan 0.000000
nan nan nan 0.000000
nan nan nan 0.000000
nan nan nan 0.000000
nan nan nan 0.000000
nan nan nan 0.000000
246.598602 -238.204910 -0.000007 0.536965
238.066940 -224.293243 -0.000002 0.538354
234.403992 -218.320480 -0.000000 0.546715
232.363937 -214.993958 0.000002 0.532174
231.061523 -212.870270 0.000002 0.578515
230.156311 -211.394226 0.000002 0.504143
229.489380 -210.306732 0.000003 0.570687
nan nan nan 0.000000
nan nan nan 0.000000
nan nan nan 0.000000
nan nan nan 0.000000
nan nan nan 0.000000
nan nan nan 0.000000
nan nan nan 0.000000
nan nan nan 0.000000
nan nan nan 0.000000
246.355804 -238.352661 -0.000007 0.541466
237.921478 -224.381760 -0.000002 0.551339
234.300308 -218.383560 0.000000 0.548226
232.283524 -215.042892 0.000002 0.560922
230.995972 -212.910156 0.000003 0.558480
230.101074 -211.427826 0.000003 0.531167
229.441757 -210.335709 0.000003 0.490547
nan nan nan 0.000000
nan nan nan 0.000000
nan nan nan 0.000000
nan nan nan 0.000000
nan nan nan 0.000000
nan nan nan 0.000000
nan nan nan 0.000000
nan nan nan 0.000000
nan nan nan 0.000000
246.111969 -238.498688 -0.000007 0.547036
237.775391 -224.469254 -0.000002 0.543359
234.196182 -218.445923 0.000000 0.547982
232.202774 -215.091248 0.000001 0.562554
230.930145 -212.949585 0.000002 0.562112
230.045624 -211.461044 0.000002 0.569024
229.393951 -210.364349 0.000003 0.540719
nan nan nan 0.000000
nan nan nan 0.000000
nan nan nan 0.000000
nan nan nan 0.000000
nan nan nan 0.000000
nan nan nan 0.000000
nan nan nan 0.000000
nan nan nan 0.000000
nan nan nan 0.000000
245.867142 -238.643036 -0.000008 0.544076
237.628693 -224.555740 -0.000002 0.547524
234.091629 -218.507553 0.000000 0.526925
232.121674 -215.139053 0.000002 0.548043
230.864044 -212.988556 0.000002 0.508888
229.989929 -211.493866 0.000002 0.546715
229.345932 -210.392670 0.000003 0.585611
nan nan nan 0.000000
nan nan nan 0.000000
nan nan nan 0.000000
nan nan nan 0.000000
nan nan nan 0.000000
nan nan nan 0.000000
nan nan nan 0.000000
nan nan nan 0.000000
nan nan nan 0.000000
245.621307 -238.785660 -0.000008 0.541466
237.481400 -224.641190 -0.000003 0.539513
233.986649 -218.568466 -0.000000 0.530236
232.040268 -215.186295 0.000001 0.522652
230.797668 -213.027069 0.000002 0.507469
229.934006 -211.526321 0.000002 0.541848
229.297714 -210.420639 0.000003 0.527321
nan nan nan 0.000000
nan nan nan 0.000000
nan nan nan 0.000000
nan nan nan 0.000000
nan nan nan 0.000000
nan nan nan 0.000000
nan nan nan 0.000000
nan nan nan 0.000000
nan nan nan 0.000000
245.374466 -238.926544 -0.000008 0.540413
237.333511 -224.725616 -0.000003 0.537728
233.881241 -218.628632 0.000000 0.555306
231.958511 -215.232956 0.000001 0.535744
230.731018 -213.065094 0.000002 0.567941
229.877869 -211.558365 0.000002 0.508843
229.249298 -210.448273 0.000002 0.536004
210.338562 -176.614410 9.708941 0.712566
210.383408 -176.694916 8.627037 0.696849
210.417572 -176.756226 7.570312 0.260166
210.338562 -176.614410 6.565161 0.741024
210.338562 -176.614426 5.540472 0.741222
210.417557 -176.756226 4.510163 0.249119
210.383408 -176.694916 3.507391 0.723644
210.417557 -176.756226 2.500957 0.321202
210.383408 -176.694916 1.497895 0.711543
210.338577 -176.614426 0.488082 0.747341
213.445496 -182.191956 0.000026 0.538872
216.855026 -188.312714 0.000018 0.534783
218.753967 -191.721664 0.000013 0.528710
219.966278 -193.897995 0.000010 0.529946
220.808884 -195.410645 0.000008 0.541650
221.429672 -196.525085 0.000006 0.522759
210.583557 -176.614410 9.679266 0.717433
210.627670 -176.694916 8.601526 0.694667
210.661270 -176.756226 7.548870 0.106020
210.583572 -176.614426 6.547587 0.733867
210.583557 -176.614410 5.526843 0.724422
210.661270 -176.756226 4.500499 0.198932
210.627670 -176.694916 3.501589 0.716197
210.661255 -176.756210 2.499028 0.320012
210.627670 -176.694916 1.499828 0.704570
210.583572 -176.614426 0.493902 0.733333
213.594543 -182.109604 0.000026 0.526009
216.961258 -188.254013 0.000018 0.547341
218.836349 -191.676147 0.000013 0.542916
220.033447 -193.860901 0.000010 0.523705
220.865463 -195.379379 0.000008 0.522377
221.478470 -196.498138 0.000006 0.526024
210.826691 -176.614410 9.650188 0.731411
210.870071 -176.694916 8.576530 0.720745
210.903107 -176.756226 7.527859 0.129412
210.826691 -176.614426 6.530367 0.739559
210.826691 -176.614426 5.513489 0.738109
210.903107 -176.756226 4.491032 0.180392
210.870071 -176.694901 3.495904 0.733944
210.881546 -176.716217 2.497882 0.687617
210.870071 -176.694901 1.501722 0.722728
210.826691 -176.614426 0.499605 0.752941
213.744171 -182.028305 0.000027 0.541283
217.067902 -188.196075 0.000018 0.532403
218.919067 -191.631210 0.000014 0.516640
220.100876 -193.824265 0.000010 0.553307
220.922272 -195.348511 0.000008 0.547478
221.527451 -196.471527 0.000006 0.589975
211.067993 -176.614410 9.621700 0.733333
211.110641 -176.694916 8.552041 0.736996
211.143143 -176.756226 7.507272 0.107622
211.067993 -176.614410 6.513498 0.736248
211.110641 -176.694916 5.489925 0.725292
211.143127 -176.756226 4.481755 0.173159
211.110641 -176.694916 3.490333 0.722393
211.143127 -176.756210 2.495287 0.316548
211.110641 -176.694901 1.503577 0.696742
211.067993 -176.614426 0.505192 0.728237
213.894348 -181.948059 0.000027 0.534203
217.174942 -188.138870 0.000019 0.537591
219.002075 -191.586853 0.000014 0.530953
220.168549 -193.788086 0.000010 0.548318
220.979294 -195.318039 0.000008 0.574777
221.576614 -196.445251 0.000006 0.562692
211.307510 -176.614410 9.593790 0.733883
211.349457 -176.694931 8.528044 0.735012
211.381393 -176.756226 7.487108 0.087266
211.307510 -176.614410 6.496972 0.746731
211.349457 -176.694931 5.477144 0.732738
211.381393 -176.756226 4.472669 0.192157
211.349457 -176.694931 3.484875 0.731548
211.381393 -176.756210 2.493474 0.324117
211.349457 -176.694931 1.505395 0.732876
211.307510 -176.614426 0.510665 0.733333
214.045090 -181.868851 0.000027 0.538827
217.282394 -188.082413 0.000018 0.520165
219.085403 -191.543060 0.000014 0.536660
220.236481 -193.752396 0.000011 0.539239
221.036514 -195.287979 0.000008 0.533211
221.625946 -196.419312 0.000006 0.580438
211.545303 -176.614410 9.566456 0.717754
211.586533 -176.694931 8.504545 0.722393
211.617935 -176.756226 7.467354 0.105882
211.545288 -176.614410 6.480783 0.745220
211.586533 -176.694916 5.464626 0.722026
211.617935 -176.756226 4.463767 0.223529
211.586533 -176.694931 3.479529 0.722759
211.617920 -176.756210 2.491698 0.336828
211.586533 -176.694931 1.507176 0.722805
211.545303 -176.614426 0.516027 0.733333
214.196381 -181.790695 0.000027 0.545830
217.390228 -188.026703 0.000018 0.543084
219.169037 -191.499863 0.000014 0.525002
220.304657 -193.717178 0.000010 0.532998
221.093948 -195.258301 0.000008 0.533135
221.675476 -196.393738 0.000007 0.547189
211.781387 -176.614410 9.539680 0.713298
211.821930 -176.694931 8.481529 0.712795
211.852783 -176.756226 7.448008 0.100542
211.781387 -176.614410 6.464928 0.738781
211.821915 -176.694931 5.452367 0.728908
211.852783 -176.756226 4.455049 0.203922
211.821930 -176.694931 3.474294 0.733333
211.852768 -176.756210 2.489957 0.249973
211.821930 -176.694931 1.508920 0.725521
211.781403 -176.614426 0.521277 0.745892
214.348221 -181.713608 0.000028 0.531014
217.498444 -187.971756 0.000019 0.521157
219.252960 -191.457245 0.000014 0.536202
220.373077 -193.682434 0.000011 0.570001
221.151596 -195.229034 0.000008 0.596780
221.725174 -196.368500 0.000007 0.518837
212.015839 -176.614410 9.513459 0.721569
212.055664 -176.694931 8.458988 0.732967
212.085983 -176.756226 7.429061 0.129412
212.015839 -176.614410 6.449399 0.733822
212.055664 -176.694916 5.440361 0.732235
212.085983 -176.756226 4.446511 0.179355
212.055664 -176.694931 3.469167 0.724102
212.085983 -176.756210 2.488254 0.222339
212.055664 -176.694916 1.510627 0.725155
212.015839 -176.614426 0.526421 0.733333
214.500580 -181.637573 0.000028 0.537926
217.607040 -187.917572 0.000019 0.518730
219.337189 -191.415222 0.000014 0.536187
220.441742 -193.648178 0.000011 0.519142
221.209442 -195.200165 0.000008 0.537423
221.775055 -196.343613 0.000007 0.575128
212.248657 -176.614410 9.487783 0.721569
212.287796 -176.694931 8.436916 0.723476
212.317566 -176.756210 7.410513 0.106020
212.248657 -176.614410 6.434194 0.728420
212.287796 -176.694916 5.428605 0.699229
212.317581 -176.756226 4.438150 0.207233
212.287796 -176.694931 3.464147 0.739879
212.317581 -176.756210 2.486586 0.288945
212.287781 -176.694916 1.512300 0.733333
212.248672 -176.614426 0.531457 0.718532
214.653488 -181.562622 0.000028 0.548211
217.716019 -187.864136 0.000019 0.546120
219.421692 -191.373779 0.000014 0.516350
220.510635 -193.614395 0.000011 0.524529
221.267487 -195.171707 0.000008 0.518730
221.825104 -196.319077 0.000007 0.538537
212.547607 -176.756210 9.423287 0.129412
212.518356 -176.694931 8.415306 0.725017
212.547607 -176.756210 7.392347 0.106020
212.479919 -176.614410 6.419309 0.723354
212.518356 -176.694916 5.417094 0.739315
212.547607 -176.756210 4.429965 0.223529
212.518356 -176.694931 3.459231 0.719173
212.547607 -176.756226 2.484951 0.246830
212.518356 -176.694931 1.513937 0.731456
212.479919 -176.614426 0.536386 0.736736
214.806900 -181.488708 0.000028 0.547951
217.825363 -187.811462 0.000019 0.543740
219.506500 -191.332932 0.000014 0.554177
220.579773 -193.581100 0.000012 0.589975
221.325729 -195.143661 0.000009 0.575433
221.875320 -196.294876 0.000007 0.560327
212.776108 -176.756210 9.398808 0.130388
212.737808 -176.674515 8.399018 0.714763
212.776108 -176.756226 7.374565 0.117647
212.709625 -176.614410 6.404736 0.721569
212.747375 -176.694916 5.405826 0.698039
212.776108 -176.756210 4.421952 0.240497
212.747375 -176.694916 3.454419 0.741176
212.776123 -176.756226 2.483352 0.265675
212.747375 -176.694931 1.515540 0.721569
212.709625 -176.614426 0.541212 0.721569
214.960815 -181.415894 0.000028 0.554223
217.935074 -187.759567 0.000019 0.555840
219.591583 -191.292679 0.000014 0.545327
220.649139 -193.548279 0.000011 0.543343
221.384171 -195.116013 0.000009 0.536721
221.925705 -196.271042 0.000007 0.567071
213.003128 -176.756226 9.374847 0.134981
212.937836 -176.614410 8.392591 0.733333
213.003128 -176.756210 7.357161 0.111772
212.937836 -176.614410 6.390472 0.721569
212.974915 -176.694916 5.394797 0.729152
213.003128 -176.756210 4.414109 0.234424
212.974915 -176.694931 3.449709 0.721569
213.003128 -176.756226 2.481787 0.280110
212.974915 -176.694916 1.517109 0.709804
212.937851 -176.614426 0.545937 0.718029
215.115250 -181.344147 0.000028 0.542718
218.045151 -187.708435 0.000020 0.497383
219.676956 -191.253021 0.000015 0.538216
220.718719 -193.515945 0.000012 0.525353
221.442795 -195.088776 0.000009 0.576394
221.976257 -196.247559 0.000007 0.579507
213.228683 -176.756210 9.351400 0.139742
213.164597 -176.614410 8.372265 0.722988
213.228683 -176.756226 7.340128 0.129412
213.164597 -176.614410 6.376513 0.728695
213.200974 -176.694916 5.384004 0.738231
213.228683 -176.756210 4.406434 0.226261
213.200989 -176.694916 3.445100 0.731304
213.228683 -176.756226 2.480255 0.182101
213.200989 -176.694931 1.518644 0.709804
213.164597 -176.614426 0.550560 0.727306
215.270172 -181.273483 0.000028 0.537682
218.155563 -187.658066 0.000020 0.525948
219.762589 -191.213959 0.000015 0.548775
220.788544 -193.484100 0.000011 0.558663
221.501617 -195.061935 0.000009 0.514763
222.026978 -196.224426 0.000007 0.499153
213.452820 -176.756226 9.328456 0.129992
213.389923 -176.614410 8.352378 0.713298
213.452820 -176.756226 7.323462 0.109789
213.389923 -176.614410 6.362853 0.716152
213.425629 -176.694916 5.373443 0.731548
213.452820 -176.756210 4.398924 0.193500
213.425629 -176.694916 3.440590 0.727962
213.452820 -176.756210 2.478757 0.176593
213.425629 -176.694916 1.520146 0.721935
213.389923 -176.614410 0.555083 0.733333
215.425598 -181.203903 0.000028 0.536004
218.266342 -187.608459 0.000020 0.523308
219.848495 -191.175491 0.000015 0.531350
220.858582 -193.452744 0.000011 0.535531
221.560623 -195.035522 0.000009 0.515618
222.077850 -196.201645 0.000007 0.554513
213.675583 -176.756226 9.306009 0.137255
213.613861 -176.614410 8.332922 0.716609
213.675583 -176.756226 7.307157 0.137255
213.613861 -176.614410 6.349493 0.723781
213.648895 -176.694916 5.363111 0.713756
213.658173 -176.716217 4.395153 0.709804
213.648895 -176.694916 3.436178 0.733333
213.675583 -176.756210 2.477290 0.210407
213.648895 -176.694916 1.521616 0.712840
213.613861 -176.614410 0.559508 0.733333
215.581497 -181.135406 0.000029 0.542794
218.377457 -187.559647 0.000020 0.536202
219.934677 -191.137634 0.000015 0.542565
220.928833 -193.421875 0.000012 0.505730
221.619812 -195.009521 0.000009 0.532830
222.128891 -196.179230 0.000008 0.513268
213.896988 -176.756226 9.284054 0.152789
213.836441 -176.614410 8.313890 0.690349
213.887192 -176.733276 7.295746 0.413321
213.836441 -176.614410 6.336422 0.703929
213.870804 -176.694916 5.353004 0.711177
213.896988 -176.756226 4.384389 0.206943
213.870819 -176.694916 3.431863 0.723400
213.896988 -176.756210 2.475856 0.188724
213.870819 -176.694916 1.523053 0.737911
213.836441 -176.614426 0.563837 0.744518
215.737869 -181.067993 0.000029 0.544732
218.488922 -187.511597 0.000020 0.534157
220.021118 -191.100372 0.000015 0.537972
220.999298 -193.391495 0.000012 0.538521
221.679169 -194.983932 0.000009 0.525093
222.180069 -196.157150 0.000007 0.494560
214.117081 -176.756226 9.262586 0.137438
214.057693 -176.614410 8.295281 0.729976
214.117081 -176.756226 7.275611 0.149020
214.057693 -176.614410 6.323640 0.731868
214.091400 -176.694916 5.343122 0.720653
214.117081 -176.756226 4.377360 0.240253
214.091400 -176.694916 3.427642 0.725567
214.117081 -176.756226 2.474454 0.220661
214.091400 -176.694916 1.524459 0.731456
214.057709 -176.614426 0.568070 0.730724
215.894699 -181.001678 0.000029 0.539986
218.600708 -187.464325 0.000020 0.554910
220.107819 -191.063705 0.000015 0.537438
221.069977 -193.361618 0.000012 0.566003
221.738724 -194.958755 0.000009 0.542397
222.231415 -196.135452 0.000007 0.551675
214.319458 -176.716217 9.252428 0.678431
214.277664 -176.614410 8.277085 0.730846
214.335876 -176.756226 7.260364 0.152239
214.277664 -176.614410 6.311143 0.740566
214.310715 -176.694916 5.333458 0.731868
214.335892 -176.756226 4.370489 0.248524
214.310715 -176.694916 3.423516 0.699413
214.335876 -176.756210 2.473082 0.199512
214.310715 -176.694916 1.525833 0.718029
214.277664 -176.614426 0.572209 0.714305
216.052002 -180.936462 0.000029 0.539834
218.712814 -187.417847 0.000020 0.533394
220.194763 -191.027664 0.000015 0.551324
221.140854 -193.332230 0.000012 0.547295
221.798431 -194.933990 0.000009 0.523690
222.282913 -196.114105 0.000007 0.549935
214.553436 -176.756226 9.221073 0.135180
214.496368 -176.614410 8.259297 0.727077
214.553436 -176.756226 7.245459 0.178592
214.496368 -176.614410 6.298927 0.726345
214.528763 -176.694916 5.324014 0.726848
214.553452 -176.756226 4.363772 0.228305
214.528763 -176.694916 3.419482 0.726940
214.553436 -176.756226 2.471742 0.199512
214.528778 -176.694916 1.527177 0.713115
214.496384 -176.614426 0.576255 0.725383
216.209763 -180.872345 0.000029 0.542351
218.825256 -187.372147 0.000021 0.532738
220.281967 -190.992218 0.000015 0.615381
221.211945 -193.303329 0.000012 0.548226
221.858322 -194.909653 0.000009 0.562783
222.334549 -196.093109 0.000007 0.549081
214.769775 -176.756226 9.201018 0.137255
214.713867 -176.614410 8.241915 0.733364
214.769775 -176.756226 7.230891 0.149294
214.713867 -176.614410 6.286988 0.721569
214.745605 -176.694916 5.314782 0.720104
214.769775 -176.756226 4.357208 0.227436
214.745605 -176.694916 3.415540 0.721569
214.769775 -176.756226 2.470432 0.182681
214.745605 -176.694916 1.528490 0.708247
214.713867 -176.614426 0.580209 0.735119
216.367950 -180.809326 0.000029 0.529534
218.938004 -187.327240 0.000021 0.556588
220.369400 -190.957382 0.000015 0.531044
221.283234 -193.274933 0.000012 0.541756
221.918381 -194.885727 0.000010 0.551431
222.386337 -196.072479 0.000008 0.561196
214.984924 -176.756226 9.181427 0.149020
214.984924 -176.756226 8.192098 0.160784
214.984924 -176.756226 7.216658 0.164004
214.930145 -176.614410 6.275324 0.730663
214.961243 -176.694916 5.305762 0.733516
214.984924 -176.756226 4.350794 0.223529
214.961243 -176.694916 3.411688 0.737072
214.930161 -176.614426 2.471638 0.726986
214.961243 -176.694916 1.529773 0.725704
214.930161 -176.614426 0.584072 0.733333
216.526581 -180.747421 0.000030 0.540993
219.051071 -187.283112 0.000021 0.542885
220.457092 -190.923172 0.000016 0.548775
221.354721 -193.247040 0.000012 0.558602
221.978607 -194.862228 0.000010 0.535714
222.438263 -196.052216 0.000007 0.597787
215.198929 -176.756226 9.162285 0.129412
215.198914 -176.756226 8.175595 0.168292
215.198914 -176.756226 7.202755 0.213703
215.145279 -176.614410 6.263929 0.728695
215.175735 -176.694916 5.296952 0.721202
215.198929 -176.756226 4.344529 0.251789
215.175735 -176.694916 3.407926 0.730159
215.145279 -176.614426 2.470382 0.722530
215.175735 -176.694916 1.531026 0.700069
215.145279 -176.614426 0.587846 0.738155
216.685638 -180.686615 0.000030 0.529824
219.164444 -187.239777 0.000021 0.556863
220.545013 -190.889557 0.000016 0.554269
221.426392 -193.219635 0.000012 0.546410
222.039001 -194.839142 0.000010 0.525185
222.490326 -196.032318 0.000008 0.581384
215.411789 -176.756226 9.143597 0.117647
215.411789 -176.756226 8.159481 0.192065
215.411789 -176.756226 7.189178 0.205066
215.359268 -176.614410 6.252802 0.725750
215.359268 -176.614410 5.298225 0.730571
215.411789 -176.756226 4.338411 0.235294
215.359268 -176.614410 3.408469 0.725429
215.359283 -176.614426 2.469154 0.755840
215.359283 -176.614426 1.530846 0.727779
215.359283 -176.614426 0.591531 0.728283
216.845123 -180.626938 0.000030 0.534585
219.278107 -187.197235 0.000021 0.520760
220.633179 -190.856567 0.000016 0.545739
221.498260 -193.192734 0.000012 0.511238
222.099533 -194.816483 0.000010 0.483024
222.542526 -196.012772 0.000008 0.534173
215.623550 -176.756226 9.125350 0.120775
215.609055 -176.716217 8.152935 0.361212
215.609055 -176.716217 7.183668 0.396826
215.572159 -176.614410 6.241939 0.721569
215.601334 -176.694916 5.279950 0.709804
215.623550 -176.756226 4.332438 0.207324
215.601334 -176.694916 3.400666 0.729885
215.572159 -176.614426 2.467956 0.733333
215.601334 -176.694916 1.533445 0.722759
215.572159 -176.614426 0.595128 0.733242
217.005005 -180.568359 0.000030 0.542885
219.392075 -187.155487 0.000021 0.552224
220.721558 -190.824188 0.000015 0.529824
221.570313 -193.166351 0.000012 0.469978
222.160248 -194.794235 0.000009 0.524300
222.594879 -195.993607 0.000008 0.499489
215.834244 -176.756226 9.107542 0.122698
215.834244 -176.756210 8.128393 0.176074
215.834244 -176.756226 7.162988 0.203143
215.783981 -176.614410 6.231338 0.725612
215.812515 -176.694916 5.271753 0.709804
215.834259 -176.756226 4.326608 0.223529
215.812515 -176.694916 3.397165 0.733806
215.783981 -176.614426 2.466786 0.728099
215.812515 -176.694916 1.534611 0.712016
215.783981 -176.614426 0.598640 0.733333
217.165314 -180.510910 0.000030 0.544625
219.506332 -187.114532 0.000021 0.536812
220.810165 -190.792419 0.000016 0.560510
221.642548 -193.140457 0.000012 0.510323
222.221100 -194.772430 0.000009 0.543084
222.647339 -195.974792 0.000008 0.524254
216.043915 -176.756226 9.090166 0.130205
216.043900 -176.756210 8.113411 0.201755
216.043915 -176.756226 7.150367 0.194034
215.994751 -176.614410 6.220994 0.711925
216.022659 -176.694916 5.263755 0.709804
216.043915 -176.756226 4.320921 0.219364
216.022659 -176.694916 3.393749 0.731411
215.994751 -176.614426 2.465645 0.736019
216.022659 -176.694916 1.535749 0.714900
215.994751 -176.614426 0.602065 0.735882
217.326004 -180.454575 0.000031 0.534691
219.620865 -187.074371 0.000021 0.524712
220.898987 -190.761276 0.000016 0.530480
221.714966 -193.115067 0.000012 0.503655
222.282104 -194.751038 0.000010 0.512398
222.699951 -195.956360 0.000008 0.556435
216.248489 -176.744217 9.076395 0.129412
216.252548 -176.756226 8.098799 0.231922
216.252548 -176.756226 7.138057 0.173556
216.204498 -176.614410 6.210906 0.733333
216.231781 -176.694916 5.255954 0.709804
216.252563 -176.756226 4.315373 0.242283
216.231781 -176.694916 3.390418 0.725017
216.204498 -176.614426 2.464533 0.752941
216.231781 -176.694916 1.536858 0.731167
216.204498 -176.614426 0.605406 0.733822
217.487091 -180.399368 0.000031 0.542565
219.735672 -187.035019 0.000021 0.542397
220.988037 -190.730759 0.000016 0.536751
221.787552 -193.090179 0.000012 0.550515
222.343262 -194.730072 0.000010 0.498558
222.752670 -195.938278 0.000008 0.545495
216.460220 -176.756226 9.056699 0.129412
216.460205 -176.756210 8.084554 0.180392
216.460205 -176.756226 7.126055 0.172549
216.413254 -176.614395 6.201070 0.733333
216.439911 -176.694916 5.248348 0.709804
216.460220 -176.756226 4.309965 0.205249
216.439911 -176.694916 3.387170 0.732692
216.413269 -176.614426 2.463448 0.733333
216.439911 -176.694901 1.537940 0.713939
216.413269 -176.614426 0.608664 0.709804
217.648560 -180.345276 0.000031 0.534356
219.850769 -186.996475 0.000021 0.545068
221.077286 -190.700867 0.000016 0.527840
221.860321 -193.065811 0.000012 0.529061
222.404556 -194.709549 0.000010 0.559442
222.805527 -195.920578 0.000008 0.485039
216.666916 -176.756226 9.040596 0.140932
216.666916 -176.756226 8.070669 0.175387
216.666916 -176.756226 7.114359 0.180392
216.621063 -176.614410 6.191484 0.723781
216.647095 -176.694916 5.240936 0.709804
216.666916 -176.756226 4.304694 0.265690
216.647095 -176.694916 3.384005 0.732647
216.621063 -176.614426 2.462389 0.730282
216.647095 -176.694916 1.538994 0.724712
216.621063 -176.614426 0.611839 0.734005
217.810394 -180.292328 0.000031 0.535927
219.966110 -186.958725 0.000021 0.541207
221.166748 -190.671585 0.000016 0.549661
221.933258 -193.041946 0.000012 0.531014
222.466003 -194.689438 0.000010 0.590021
222.858505 -195.903244 0.000008 0.557382
216.872681 -176.756226 9.024910 0.105882
216.872681 -176.756210 8.057143 0.192157
216.872681 -176.756226 7.102962 0.180392
216.827927 -176.614410 6.182143 0.715450
216.853333 -176.694916 5.233714 0.709804
216.827927 -176.614410 4.311753 0.711681
216.853333 -176.694916 3.380921 0.720104
216.827927 -176.614410 2.461360 0.741176
216.853333 -176.694916 1.540022 0.735225
216.827927 -176.614426 0.614932 0.721614
217.972595 -180.240494 0.000031 0.532372
220.081726 -186.921783 0.000022 0.550805
221.256409 -190.642944 0.000016 0.543618
222.006348 -193.018585 0.000012 0.550561
222.527588 -194.669769 0.000010 0.558679
222.911606 -195.886276 0.000008 0.527932
217.077560 -176.756226 9.009632 0.109239
217.077560 -176.756226 8.043970 0.206073
217.077560 -176.756226 7.091865 0.177478
217.033875 -176.614410 6.173048 0.732006
217.058670 -176.694916 5.226682 0.709804
217.033875 -176.614410 4.306726 0.724987
217.058670 -176.694916 3.377918 0.714717
217.033875 -176.614410 2.460357 0.739651
217.058670 -176.694916 1.541022 0.735454
217.033875 -176.614426 0.617944 0.721935
218.135162 -180.189804 0.000031 0.524117
220.197586 -186.885651 0.000022 0.537285
221.346268 -190.614929 0.000017 0.559075
222.079605 -192.995758 0.000013 0.543786
222.589294 -194.650513 0.000010 0.532204
222.964813 -195.869675 0.000008 0.549966
217.281540 -176.756226 8.994761 0.129412
217.281540 -176.756226 8.031147 0.205966
217.281540 -176.756226 7.081062 0.196582
217.238937 -176.614410 6.164196 0.721706
217.263123 -176.694916 5.219837 0.709804
217.238953 -176.614410 4.301831 0.731350
217.263123 -176.694916 3.374995 0.736095
217.238937 -176.614410 2.459380 0.719265
217.263123 -176.694916 1.541996 0.731411
217.238953 -176.614426 0.620876 0.733333
218.298065 -180.140244 0.000031 0.540413
220.313705 -186.850342 0.000022 0.536889
221.436325 -190.587524 0.000016 0.547082
222.153015 -192.973419 0.000013 0.555261
222.651154 -194.631699 0.000010 0.543572
223.018143 -195.853455 0.000008 0.507225
217.484680 -176.756226 8.980293 0.123629
217.484680 -176.756226 8.018671 0.180209
217.484680 -176.756226 7.070551 0.173037
217.443161 -176.614410 6.155582 0.696757
217.466721 -176.694916 5.213177 0.709804
217.443161 -176.614410 4.297070 0.733486
217.466721 -176.694901 3.372151 0.733333
217.443161 -176.614410 2.458430 0.700114
217.466721 -176.694916 1.542943 0.723491
217.443161 -176.614410 0.623728 0.719738
218.461319 -180.091827 0.000031 0.541283
220.430069 -186.815826 0.000022 0.538354
221.526566 -190.560760 0.000016 0.520607
222.226578 -192.951599 0.000013 0.550195
222.713135 -194.613327 0.000010 0.546838
223.071594 -195.837601 0.000008 0.541680
217.686981 -176.756226 8.966223 0.100649
217.686981 -176.756226 8.006540 0.180392
217.686981 -176.756226 7.060330 0.178058
217.646530 -176.614410 6.147206 0.717342
217.669495 -176.694916 5.206700 0.709804
217.646530 -176.614410 4.292441 0.716335
217.669495 -176.694916 3.369385 0.739193
217.646530 -176.614410 2.457506 0.727642
217.669495 -176.694916 1.543864 0.752178
217.646530 -176.614426 0.626503 0.721569
218.624908 -180.044556 0.000032 0.533669
220.546661 -186.782135 0.000022 0.560891
221.616989 -190.534637 0.000017 0.529595
222.300308 -192.930298 0.000013 0.510048
222.775238 -194.595367 0.000010 0.540063
223.125137 -195.822128 0.000009 0.515999
217.888489 -176.756210 8.952549 0.110475
217.888489 -176.756226 7.994749 0.175616
217.888489 -176.756226 7.050398 0.190631
217.849106 -176.614410 6.139065 0.730175
217.871460 -176.694916 5.200406 0.728054
217.849106 -176.614410 4.287940 0.701946
217.871460 -176.694916 3.366697 0.751568
217.849106 -176.614410 2.456607 0.737560
217.871460 -176.694916 1.544760 0.726558
217.849106 -176.614426 0.629199 0.688594
218.788834 -179.998413 0.000032 0.530327
220.663498 -186.749252 0.000022 0.538140
221.707596 -190.509125 0.000016 0.556161
222.374176 -192.909515 0.000013 0.544137
222.837463 -194.577850 0.000010 0.492744
223.178802 -195.807037 0.000009 0.527001
218.089203 -176.756226 8.939264 0.109239
218.089203 -176.756226 7.983296 0.164233
218.089203 -176.756226 7.040748 0.189075
218.050888 -176.614410 6.131157 0.706859
218.072632 -176.694916 5.194290 0.727306
218.050888 -176.614410 4.283569 0.735485
218.072632 -176.694916 3.364085 0.740597
218.050888 -176.614410 2.455735 0.736736
218.072647 -176.694916 1.545629 0.696040
218.050888 -176.614426 0.631818 0.703731
218.953064 -179.953430 0.000032 0.540215
220.780548 -186.717194 0.000022 0.551888
221.798386 -190.484253 0.000016 0.533165
222.448181 -192.889236 0.000013 0.548119
222.899811 -194.560776 0.000010 0.515236
223.232559 -195.792297 0.000008 0.505379
218.288284 -176.752869 8.927237 0.148531
218.289169 -176.756226 7.972176 0.180392
218.289169 -176.756226 7.031380 0.129809
218.251907 -176.614410 6.123479 0.691478
218.273071 -176.694916 5.188354 0.725887
218.251923 -176.614410 4.279325 0.737987
218.273071 -176.694916 3.361550 0.738842
218.251923 -176.614410 2.454888 0.722866
218.273071 -176.694916 1.546474 0.727260
218.251923 -176.614426 0.634361 0.696208
219.117599 -179.909592 0.000032 0.549874
220.897827 -186.685928 0.000023 0.548821
221.889328 -190.460022 0.000017 0.536828
222.522324 -192.869476 0.000013 0.520821
222.962280 -194.544128 0.000011 0.554482
223.286423 -195.777954 0.000008 0.531106
218.472748 -176.694916 8.929706 0.726986
218.488403 -176.756210 7.961389 0.185397
218.488403 -176.756226 7.022293 0.199817
218.452209 -176.614410 6.116031 0.700069
218.472748 -176.694916 5.182595 0.714031
218.452209 -176.614410 4.275208 0.733333
218.472748 -176.694916 3.359092 0.727459
218.452209 -176.614410 2.454067 0.738964
218.472748 -176.694916 1.547293 0.722118
218.452209 -176.614426 0.636827 0.697047
219.282440 -179.866898 0.000032 0.533394
221.015320 -186.655502 0.000022 0.546670
221.980453 -190.436432 0.000017 0.522820
222.596619 -192.850235 0.000013 0.517586
223.024872 -194.527924 0.000011 0.522652
223.340378 -195.763977 0.000008 0.589929
218.671738 -176.694916 8.917547 0.736706
218.686920 -176.756226 7.950928 0.179217
218.686920 -176.756226 7.013480 0.160784
218.651779 -176.614410 6.108809 0.695888
218.671738 -176.694916 5.177011 0.733333
218.651779 -176.614410 4.271215 0.721569
218.671738 -176.694916 3.356707 0.731594
218.651779 -176.614410 2.453269 0.741176
218.671738 -176.694916 1.548088 0.726802
218.651779 -176.614426 0.639220 0.708568
219.447586 -179.825363 0.000032 0.541253
221.133026 -186.625900 0.000022 0.550088
222.071747 -190.413467 0.000017 0.556207
222.671036 -192.831512 0.000013 0.540368
223.087555 -194.512161 0.000011 0.525948
223.394440 -195.750381 0.000008 0.536797
218.870026 -176.694916 8.905766 0.724559
218.884766 -176.756226 7.940795 0.179843
218.884766 -176.756226 7.004941 0.160784
218.850662 -176.614410 6.101812 0.731868
218.870026 -176.694916 5.171600 0.718257
218.850662 -176.614410 4.267348 0.731304
218.870026 -176.694916 3.354396 0.733333
218.850662 -176.614410 2.452498 0.733333
218.870026 -176.694916 1.548857 0.740383
218.850677 -176.614426 0.641537 0.701808
219.613007 -179.784973 0.000032 0.537484
221.250931 -186.597107 0.000022 0.542947
222.163177 -190.391144 0.000017 0.566629
222.745575 -192.813324 0.000013 0.497444
223.150360 -194.496826 0.000011 0.527901
223.448593 -195.737152 0.000009 0.552804
219.067657 -176.694916 8.894361 0.741176
219.072617 -176.716217 7.939855 0.647059
219.072617 -176.716217 7.004153 0.709804
219.048889 -176.614410 6.095038 0.721889
219.067657 -176.694916 5.166362 0.727642
219.048889 -176.614410 4.263603 0.698039
219.067657 -176.694916 3.352159 0.746349
219.048889 -176.614410 2.451751 0.710033
219.067657 -176.694916 1.549602 0.733333
219.048889 -176.614410 0.643780 0.721019
219.778717 -179.745743 0.000033 0.547555
221.369034 -186.569153 0.000022 0.545678
222.254776 -190.369461 0.000017 0.561700
222.820251 -192.795639 0.000013 0.547219
223.213272 -194.481934 0.000011 0.538369
223.502838 -195.724319 0.000008 0.521263
219.264633 -176.694916 8.883327 0.739956
219.278473 -176.756210 7.921494 0.182742
219.272568 -176.730057 6.993562 0.577478
219.246460 -176.614410 6.088484 0.740261
219.264633 -176.694916 5.161296 0.721569
219.246460 -176.614410 4.259982 0.733333
219.264633 -176.694916 3.349995 0.721569
219.246460 -176.614410 2.451028 0.721569
219.264633 -176.694916 1.550323 0.751492
219.246475 -176.614426 0.645950 0.733867
219.944687 -179.707672 0.000033 0.535286
221.487335 -186.542023 0.000023 0.531350
222.346527 -190.348419 0.000018 0.553460
222.895035 -192.778488 0.000014 0.547066
223.276276 -194.467484 0.000011 0.556497
223.557159 -195.711853 0.000009 0.547875
219.460999 -176.694916 8.872667 0.721569
219.474396 -176.756210 7.912321 0.153841
219.460999 -176.694916 6.992373 0.733547
219.443420 -176.614410 6.082150 0.731640
219.460999 -176.694916 5.156399 0.709804
219.443420 -176.614410 4.256481 0.731640
219.460999 -176.694916 3.347904 0.733333
219.443420 -176.614410 2.450329 0.711269
219.460999 -176.694916 1.551019 0.733333
219.443420 -176.614410 0.648048 0.733333
220.110916 -179.670761 0.000033 0.542489
221.605820 -186.515717 0.000023 0.552514
222.438416 -190.328003 0.000017 0.551202
222.969955 -192.761856 0.000014 0.547433
223.339386 -194.453461 0.000011 0.547616
223.611588 -195.699768 0.000009 0.598978
219.639771 -176.614410 8.882978 0.718761
219.669708 -176.756226 7.903463 0.145571
219.639771 -176.614410 6.999864 0.698039
219.639771 -176.614410 6.076035 0.710262
219.639771 -176.614410 5.161136 0.733333
219.639771 -176.614410 4.253100 0.721569
219.639771 -176.614410 3.349927 0.733333
219.639771 -176.614410 2.449654 0.721569
219.639771 -176.614410 1.550346 0.733150
219.639771 -176.614410 0.650072 0.721752
220.277405 -179.635010 0.000033 0.544427
221.724487 -186.490234 0.000023 0.527337
222.530441 -190.308243 0.000017 0.544717
223.044983 -192.745743 0.000013 0.562921
223.402603 -194.439896 0.000011 0.571221
223.666077 -195.688065 0.000009 0.523507
219.851959 -176.694916 8.852438 0.737392
219.864456 -176.756226 7.894920 0.127291
219.851959 -176.694916 6.977677 0.709804
219.835556 -176.614410 6.070136 0.721569
219.851959 -176.694916 5.147108 0.731868
219.835556 -176.614410 4.249840 0.709804
219.851959 -176.694916 3.343937 0.730297
219.835556 -176.614410 2.449004 0.740597
219.851959 -176.694916 1.552341 0.752941
219.835556 -176.614410 0.652026 0.729335
220.444138 -179.600418 0.000033 0.534997
221.843323 -186.465576 0.000023 0.550500
222.622604 -190.289124 0.000017 0.493660
223.120117 -192.730148 0.000013 0.537026
223.465897 -194.426758 0.000011 0.580179
223.720657 -195.676743 0.000009 0.517205
220.046600 -176.694916 8.842869 0.749874
220.058655 -176.756226 7.886688 0.132387
220.046600 -176.694916 6.970726 0.733425
220.030777 -176.614410 6.064453 0.721569
220.046600 -176.694916 5.142714 0.726070
220.030777 -176.614410 4.246697 0.718624
220.046600 -176.694916 3.342060 0.721019
220.030777 -176.614410 2.448377 0.709804
220.046600 -176.694916 1.552966 0.723918
220.030777 -176.614410 0.653908 0.731548
220.611115 -179.567001 0.000033 0.531121
221.962326 -186.441742 0.000023 0.543206
222.714905 -190.270645 0.000017 0.549950
223.195358 -192.715088 0.000014 0.547204
223.529282 -194.414078 0.000011 0.561227
223.775314 -195.665802 0.000009 0.567056
220.240707 -176.694916 8.833658 0.731060
220.252304 -176.756226 7.878762 0.137255
220.240707 -176.694916 6.964036 0.709804
220.225464 -176.614410 6.058983 0.721569
220.240707 -176.694916 5.138484 0.721569
220.225464 -176.614410 4.243673 0.709804
220.240707 -176.694916 3.340254 0.715221
220.225464 -176.614410 2.447773 0.733013
220.240707 -176.694916 1.553568 0.727169
220.225464 -176.614410 0.655721 0.733333
220.778305 -179.534760 0.000033 0.547829
222.081512 -186.418762 0.000023 0.545403
222.807327 -190.252823 0.000018 0.554208
223.270706 -192.700562 0.000014 0.520760
223.592758 -194.401825 0.000011 0.550210
223.830048 -195.655243 0.000009 0.593591
220.434296 -176.694916 8.824804 0.709804
220.445450 -176.756226 7.871147 0.149020
220.434296 -176.694916 6.957604 0.709804
220.419632 -176.614410 6.053722 0.721569
220.434296 -176.694916 5.134417 0.730617
220.368942 -176.336044 4.263968 0.345098
220.368942 -176.336044 3.356437 0.327688
220.368942 -176.336029 2.451823 0.153750
220.368942 -176.336029 1.548177 0.145251
220.368912 -176.335831 0.643551 0.214710
220.945724 -179.503647 0.000033 0.536370
222.200836 -186.396606 0.000023 0.548562
222.899872 -190.235641 0.000018 0.539422
223.346146 -192.686539 0.000014 0.542107
223.656326 -194.390030 0.000011 0.546838
223.884857 -195.645065 0.000009 0.511162
220.627396 -176.694916 8.816307 0.733333
220.638123 -176.756226 7.863834 0.145800
220.627396 -176.694916 6.951432 0.709804
220.613312 -176.614410 6.048676 0.729656
220.627396 -176.694916 5.130515 0.729809
220.368927 -175.216980 4.354298 0.345098
220.368912 -175.216919 3.410562 0.345052
220.368912 -175.216919 2.469851 0.272267
220.368912 -175.216919 1.530148 0.168444
220.368912 -175.216919 0.589438 0.213703
221.113358 -179.473740 0.000034 0.541711
222.320313 -186.375275 0.000023 0.533028
222.992538 -190.219101 0.000018 0.572000
223.421692 -192.673065 0.000014 0.544564
223.719971 -194.378662 0.000011 0.565988
223.939728 -195.635269 0.000009 0.525338
220.820023 -176.694916 8.808161 0.709804
220.823593 -176.716232 7.865586 0.570367
220.820023 -176.694931 6.945512 0.716060
220.806519 -176.614410 6.043838 0.731167
220.820023 -176.694916 5.126772 0.733333
220.368912 -174.004898 4.452257 0.353353
220.368912 -174.004883 3.469250 0.334874
220.368912 -174.004883 2.489400 0.160876
220.368912 -174.004868 1.510599 0.153674
220.368912 -174.004868 0.530748 0.172229
221.281204 -179.445007 0.000033 0.538430
222.439941 -186.354782 0.000023 0.535531
223.085312 -190.203201 0.000017 0.544121
223.497330 -192.660110 0.000014 0.534844
223.783691 -194.367752 0.000011 0.514900
223.994675 -195.625870 0.000009 0.541451
221.012207 -176.694916 8.800364 0.709804
221.022034 -176.756226 7.850121 0.152605
221.012207 -176.694931 6.939849 0.709804
220.999283 -176.614410 6.039206 0.721569
221.012207 -176.694916 5.123193 0.722347
220.382858 -172.774414 4.551635 0.709804
220.382858 -172.774414 3.528792 0.709804
220.382858 -172.774414 2.509233 0.709804
220.382858 -172.774414 1.490766 0.709804
220.382858 -172.774414 0.471208 0.709804
221.449234 -179.417419 0.000033 0.560937
222.559708 -186.335144 0.000024 0.534005
223.178192 -190.187958 0.000018 0.558450
223.573044 -192.647675 0.000014 0.508782
223.847488 -194.357285 0.000011 0.540002
224.049683 -195.616837 0.000009 0.484688
221.203949 -176.694916 8.792919 0.709804
221.213348 -176.756226 7.843716 0.130785
221.203949 -176.694916 6.934441 0.709804
221.191605 -176.614410 6.034783 0.733333
221.203949 -176.694916 5.119772 0.733333
220.614151 -172.849411 4.542619 0.350195
220.614151 -172.849411 3.523390 0.325246
220.614151 -172.849411 2.507434 0.126101
220.614151 -172.849411 1.492566 0.204593
220.614151 -172.849411 0.476610 0.191485
221.617462 -179.391022 0.000034 0.541741
222.679611 -186.316315 0.000024 0.534661
223.271179 -190.173370 0.000018 0.531884
223.648849 -192.635788 0.000014 0.542428
223.911346 -194.347260 0.000011 0.567330
224.104736 -195.608200 0.000009 0.556817
221.395279 -176.694916 8.785816 0.709804
221.404251 -176.756226 7.837606 0.129625
221.395279 -176.694916 6.929283 0.710491
221.383514 -176.614410 6.030565 0.712978
221.395279 -176.694916 5.116510 0.731777
220.832932 -172.849426 4.539960 0.340414
220.832932 -172.849411 3.521798 0.343908
220.832932 -172.849411 2.506903 0.130373
220.832932 -172.849426 1.493097 0.225772
220.832932 -172.849426 0.478203 0.232029
221.785858 -179.365784 0.000034 0.532021
222.799637 -186.298340 0.000024 0.543221
223.364273 -190.159424 0.000018 0.508736
223.724747 -192.624420 0.000014 0.521843
223.975281 -194.337677 0.000011 0.527413
224.159866 -195.599930 0.000009 0.555718
221.586227 -176.694916 8.779061 0.709804
221.594757 -176.756210 7.831796 0.149142
221.586227 -176.694916 6.924375 0.730205
221.575027 -176.614410 6.026553 0.721569
221.586227 -176.694916 5.113408 0.716152
221.051270 -172.849411 4.537433 0.345098
221.051270 -172.849411 3.520283 0.338384
221.051270 -172.849411 2.506399 0.204898
221.051270 -172.849411 1.493601 0.185351
221.051270 -172.849411 0.479718 0.232776
221.954437 -179.341736 0.000033 0.544533
222.919800 -186.281189 0.000024 0.539132
223.457458 -190.146133 0.000018 0.503914
223.800705 -192.613571 0.000014 0.532280
224.039276 -194.328552 0.000011 0.542565
224.215057 -195.592056 0.000009 0.573098
221.776810 -176.694916 8.772649 0.709804
221.784897 -176.756226 7.826279 0.147509
221.776810 -176.694916 6.919719 0.731289
221.766174 -176.614410 6.022744 0.726116
221.776810 -176.694916 5.110464 0.715221
221.269196 -172.849411 4.535031 0.364706
221.269196 -172.849426 3.518844 0.345098
221.269196 -172.849426 2.505920 0.146944
221.269196 -172.849426 1.494080 0.154437
221.269196 -172.849426 0.481156 0.141955
222.123184 -179.318878 0.000035 0.546014
223.040070 -186.264893 0.000024 0.551751
223.550735 -190.133484 0.000018 0.553582
223.876755 -192.603271 0.000014 0.542168
224.103348 -194.319870 0.000012 0.564660
224.270294 -195.584579 0.000009 0.511864
221.967041 -176.694916 8.766579 0.752728
221.974686 -176.756226 7.821056 0.136217
221.967041 -176.694916 6.915308 0.709895
221.956970 -176.614410 6.019137 0.719539
221.967041 -176.694916 5.107675 0.709804
221.486710 -172.849426 4.532760 0.364706
221.486710 -172.849411 3.517483 0.344549
221.486710 -172.849426 2.505466 0.177462
221.486710 -172.849426 1.494534 0.168750
221.486710 -172.849426 0.482517 0.186221
222.292068 -179.297180 0.000034 0.539345
223.160446 -186.249435 0.000024 0.545556
223.644089 -190.121490 0.000018 0.559274
223.952866 -192.593491 0.000014 0.518166
224.167465 -194.311630 0.000012 0.549538
224.325577 -195.577469 0.000010 0.502144
222.156921 -176.694916 8.760847 0.733394
222.164154 -176.756210 7.816128 0.137255
222.156921 -176.694916 6.911145 0.723079
222.147446 -176.614410 6.015734 0.715404
222.156921 -176.694916 5.105043 0.737102
221.703842 -172.849411 4.530615 0.362951
221.703842 -172.849426 3.516197 0.336004
221.703842 -172.849426 2.505038 0.206043
221.703842 -172.849426 1.494962 0.169360
221.703842 -172.849426 0.483802 0.213733
222.461121 -179.276672 0.000034 0.542214
223.280930 -186.234818 0.000025 0.527306
223.737534 -190.110153 0.000018 0.561944
224.029037 -192.584244 0.000014 0.555520
224.231644 -194.303833 0.000011 0.540703
224.380905 -195.570755 0.000009 0.549142
222.346512 -176.694916 8.755456 0.733333
222.353302 -176.756226 7.811488 0.138308
222.346512 -176.694916 6.907228 0.718715
222.337601 -176.614410 6.012532 0.720150
222.346512 -176.694916 5.102567 0.712337
221.920624 -172.849411 4.528597 0.345098
221.920624 -172.849411 3.514988 0.339910
221.920624 -172.849426 2.504635 0.240177
221.920624 -172.849426 1.495364 0.187610
221.920624 -172.849426 0.485012 0.279316
222.630295 -179.257339 0.000034 0.536339
223.401520 -186.221039 0.000024 0.543877
223.831055 -190.099472 0.000018 0.554513
224.105270 -192.575531 0.000014 0.541192
224.295868 -194.296494 0.000012 0.538262
224.436295 -195.564438 0.000010 0.510140
222.535797 -176.694916 8.750401 0.726940
222.538010 -176.716217 7.815825 0.489891
222.535797 -176.694916 6.903556 0.709804
222.527451 -176.614410 6.009529 0.719875
222.535797 -176.694916 5.100245 0.718074
222.137070 -172.849426 4.526705 0.352941
222.137070 -172.849426 3.513854 0.335912
222.137070 -172.849426 2.504258 0.247120
222.137070 -172.849426 1.495742 0.210636
222.137070 -172.849426 0.486145 0.223163
222.799606 -179.239182 0.000034 0.538979
223.522202 -186.208099 0.000024 0.538338
223.924637 -190.089432 0.000018 0.539300
224.181580 -192.567352 0.000014 0.565591
224.360153 -194.289612 0.000012 0.546746
224.491714 -195.558487 0.000010 0.514138
222.724808 -176.694916 8.745681 0.732647
222.730743 -176.756226 7.803080 0.155093
222.724808 -176.694916 6.900128 0.709804
222.717041 -176.614410 6.006726 0.730114
222.724808 -176.694916 5.098078 0.722850
222.353195 -172.849426 4.524938 0.360662
222.353195 -172.849426 3.512795 0.336782
222.353195 -172.849426 2.503905 0.275242
222.353195 -172.849426 1.496095 0.217716
222.353195 -172.849426 0.487203 0.192157
222.969040 -179.222198 0.000034 0.543679
223.642960 -186.195999 0.000024 0.547356
224.018295 -190.080063 0.000019 0.526833
224.257919 -192.559708 0.000014 0.527337
224.424469 -194.283173 0.000012 0.529335
224.547180 -195.552933 0.000010 0.512673
222.913574 -176.694916 8.741299 0.731960
222.919067 -176.756210 7.799311 0.143374
222.913574 -176.694931 6.896943 0.709804
222.906357 -176.614410 6.004122 0.739681
222.913574 -176.694916 5.096065 0.739376
222.569046 -172.849426 4.523296 0.333333
222.569031 -172.849426 3.511814 0.345098
222.569046 -172.849426 2.503578 0.201968
222.569046 -172.849426 1.496422 0.137255
222.569046 -172.849426 0.488186 0.206516
223.138596 -179.206421 0.000034 0.554055
223.763809 -186.184738 0.000024 0.550958
224.112030 -190.071335 0.000019 0.527001
224.334335 -192.552597 0.000015 0.549981
224.488846 -194.277176 0.000012 0.525353
224.602676 -195.547760 0.000010 0.526314
223.107376 -176.758881 8.721172 0.680278
223.107162 -176.756210 7.795827 0.135042
223.102097 -176.694916 6.894002 0.709804
223.095459 -176.614410 6.001717 0.709804
223.102097 -176.694916 5.094205 0.735439
222.784607 -172.849426 4.521781 0.289952
222.784607 -172.849411 3.510905 0.289952
222.784607 -172.849426 2.503275 0.232044
222.784607 -172.849426 1.496725 0.134096
222.784607 -172.849426 0.489095 0.176104
223.308243 -179.191833 0.000035 0.529656
223.884735 -186.174332 0.000024 0.537392
224.205811 -190.063263 0.000018 0.515343
224.410782 -192.546021 0.000015 0.554101
224.553253 -194.271637 0.000012 0.539925
224.658218 -195.542984 0.000010 0.534264
223.295044 -176.756210 8.718134 0.389334
223.295029 -176.756210 7.792629 0.129412
223.290405 -176.694916 6.891302 0.709804
223.284332 -176.614410 5.999510 0.709804
223.290405 -176.694916 5.092498 0.730983
222.999939 -172.849411 4.520391 0.067796
222.999924 -172.849411 3.510072 0.067796
222.999939 -172.849426 2.502998 0.031373
222.999939 -172.849426 1.497002 0.031373
222.999924 -172.849411 0.489928 0.031373
223.477997 -179.178406 0.000035 0.538994
224.005722 -186.164780 0.000025 0.539086
224.299637 -190.055847 0.000018 0.527626
224.487289 -192.539963 0.000015 0.564996
224.617706 -194.266541 0.000012 0.517113
224.713791 -195.538589 0.000010 0.535393
223.480972 -176.730682 8.721165 0.494774
223.482712 -176.756226 7.789717 0.096742
223.478516 -176.694916 6.888844 0.709804
223.472992 -176.614410 5.997499 0.709804
223.478516 -176.694916 5.090943 0.733150
223.215027 -172.849411 4.519124 0.349416
223.215027 -172.849411 3.509313 0.352941
223.215027 -172.849411 2.502745 0.134020
223.215027 -172.849411 1.497255 0.203891
223.215027 -172.849426 0.490687 0.229938
223.647842 -179.166168 0.000035 0.540246
224.126785 -186.156052 0.000025 0.519402
224.393524 -190.049072 0.000018 0.536477
224.563812 -192.534454 0.000015 0.568338
224.682175 -194.261887 0.000012 0.526818
224.769379 -195.534592 0.000010 0.525216
223.667892 -176.718536 8.721167 0.642557
223.670212 -176.756226 7.787088 0.086275
223.666443 -176.694931 6.886623 0.709804
