# This PCD file was generated using the MATLABÂ® pcwrite function
# from Computer Vision ToolboxÂ®.
# .PCD v.7 - Point Cloud Data file format
VERSION .7
FIELDS x y z intensity
SIZE 4 4 4 4
TYPE F F F F
COUNT 1 1 1 1
WIDTH 1231
HEIGHT 1
VIEWPOINT 0 0 0 1 0 0 0
POINTS 1231
DATA ascii
nan nan nan 0.000000
151.623856 -152.273590 7.545630 0.427771
152.211823 -153.531204 6.726890 0.426413
152.169327 -153.440292 5.654355 0.445167
150.843384 -150.604233 4.347939 0.445930
151.539719 -152.093628 3.487520 0.454490
nan nan nan 0.000000
nan nan nan 0.000000
155.957962 -161.543869 -0.000015 0.532723
149.046295 -146.760422 -0.000021 0.529290
146.078827 -140.413254 -0.000014 0.546593
144.426102 -136.878220 -0.000010 0.558755
143.370987 -134.621414 -0.000008 0.530419
142.637634 -133.052856 -0.000006 0.548424
142.097336 -131.897202 -0.000004 0.554513
nan nan nan 0.000000
nan nan nan 0.000000
nan nan nan 0.000000
151.075500 -151.589050 6.394631 0.430213
152.397217 -154.468307 5.772683 0.446784
152.311279 -154.281113 4.672092 0.431540
151.340775 -152.166946 3.486680 0.447227
nan nan nan 0.000000
nan nan nan 0.000000
155.700073 -161.663345 -0.000015 0.545617
148.891785 -146.832016 -0.000021 0.543709
145.968689 -140.464264 -0.000014 0.546685
144.340683 -136.917786 -0.000010 0.530053
143.301346 -134.653671 -0.000007 0.531823
142.578979 -133.080032 -0.000006 0.560204
142.046753 -131.920639 -0.000004 0.531594
nan nan nan 0.000000
nan nan nan 0.000000
151.202057 -152.373337 7.530104 0.491035
nan nan nan 0.000000
152.121979 -154.414795 5.753970 0.430854
150.473572 -150.756729 4.346652 0.431418
nan nan nan 0.000000
nan nan nan 0.000000
nan nan nan 0.000000
155.441360 -161.781021 -0.000015 0.538750
148.736786 -146.902527 -0.000022 0.537270
145.858215 -140.514511 -0.000014 0.550652
144.255005 -136.956757 -0.000010 0.548150
143.231506 -134.685440 -0.000008 0.519020
142.520126 -133.106796 -0.000006 0.564324
141.996017 -131.943726 -0.000005 0.493812
nan nan nan 0.000000
nan nan nan 0.000000
nan nan nan 0.000000
150.549728 -151.422913 6.340120 0.440223
nan nan nan 0.000000
nan nan nan 0.000000
nan nan nan 0.000000
nan nan nan 0.000000
nan nan nan 0.000000
155.181839 -161.896881 -0.000015 0.538582
148.581284 -146.971939 -0.000022 0.541527
145.747375 -140.563995 -0.000015 0.528313
144.169052 -136.995132 -0.000010 0.547707
143.161438 -134.716721 -0.000008 0.541421
142.461090 -133.133148 -0.000006 0.521706
141.945114 -131.966446 -0.000005 0.517006
nan nan nan 0.000000
nan nan nan 0.000000
nan nan nan 0.000000
nan nan nan 0.000000
nan nan nan 0.000000
150.851898 -152.632416 4.499859 0.449317
nan nan nan 0.000000
nan nan nan 0.000000
nan nan nan 0.000000
154.921509 -162.010925 -0.000015 0.544915
148.425308 -147.040268 -0.000022 0.537850
145.636215 -140.612701 -0.000015 0.527611
144.082840 -137.032898 -0.000010 0.530785
143.091141 -134.747513 -0.000007 0.540597
142.401886 -133.159088 -0.000006 0.546807
141.894058 -131.988815 -0.000005 0.508461
nan nan nan 0.000000
nan nan nan 0.000000
nan nan nan 0.000000
nan nan nan 0.000000
nan nan nan 0.000000
nan nan nan 0.000000
nan nan nan 0.000000
nan nan nan 0.000000
nan nan nan 0.000000
154.660370 -162.123154 -0.000015 0.541314
148.268860 -147.107513 -0.000022 0.545708
145.524704 -140.660629 -0.000015 0.539330
143.996353 -137.070068 -0.000010 0.562966
143.020645 -134.777817 -0.000008 0.546807
142.342484 -133.184616 -0.000006 0.555871
141.842850 -132.010818 -0.000005 0.492332
nan nan nan 0.000000
nan nan nan 0.000000
nan nan nan 0.000000
nan nan nan 0.000000
nan nan nan 0.000000
nan nan nan 0.000000
nan nan nan 0.000000
nan nan nan 0.000000
nan nan nan 0.000000
154.398483 -162.233551 -0.000014 0.539727
148.111954 -147.173660 -0.000022 0.535760
145.412857 -140.707779 -0.000015 0.535241
143.909622 -137.106644 -0.000011 0.537820
142.949936 -134.807617 -0.000008 0.564828
142.282913 -133.209732 -0.000006 0.552514
141.791489 -132.032471 -0.000005 0.523476
nan nan nan 0.000000
nan nan nan 0.000000
nan nan nan 0.000000
nan nan nan 0.000000
nan nan nan 0.000000
nan nan nan 0.000000
nan nan nan 0.000000
nan nan nan 0.000000
nan nan nan 0.000000
154.135818 -162.342117 -0.000015 0.538140
147.954575 -147.238708 -0.000022 0.530251
145.300690 -140.754135 -0.000015 0.546670
143.822632 -137.142593 -0.000011 0.540963
142.879013 -134.836945 -0.000008 0.543252
142.223175 -133.234421 -0.000007 0.566537
141.739975 -132.053772 -0.000005 0.669276
nan nan nan 0.000000
nan nan nan 0.000000
nan nan nan 0.000000
nan nan nan 0.000000
nan nan nan 0.000000
nan nan nan 0.000000
nan nan nan 0.000000
nan nan nan 0.000000
nan nan nan 0.000000
153.872406 -162.448853 -0.000015 0.545708
147.796753 -147.302658 -0.000022 0.523064
145.188202 -140.799713 -0.000015 0.545907
143.735382 -137.177933 -0.000011 0.529702
142.807892 -134.865753 -0.000008 0.537926
142.163254 -133.258698 -0.000006 0.532464
141.688309 -132.074692 -0.000005 0.501183
nan nan nan 0.000000
nan nan nan 0.000000
nan nan nan 0.000000
nan nan nan 0.000000
nan nan nan 0.000000
nan nan nan 0.000000
nan nan nan 0.000000
nan nan nan 0.000000
nan nan nan 0.000000
153.608246 -162.553757 -0.000015 0.538506
147.638489 -147.365509 -0.000022 0.541619
145.075409 -140.844513 -0.000015 0.535256
143.647903 -137.212677 -0.000011 0.538994
142.736572 -134.894073 -0.000008 0.523339
142.103165 -133.282562 -0.000007 0.518502
141.636505 -132.095276 -0.000005 0.528328
nan nan nan 0.000000
nan nan nan 0.000000
nan nan nan 0.000000
nan nan nan 0.000000
nan nan nan 0.000000
nan nan nan 0.000000
nan nan nan 0.000000
nan nan nan 0.000000
nan nan nan 0.000000
153.343369 -162.656784 -0.000015 0.539742
147.479782 -147.427246 -0.000022 0.546899
144.962296 -140.888519 -0.000015 0.527886
143.560181 -137.246811 -0.000010 0.532418
142.665054 -134.921906 -0.000009 0.540963
142.042923 -133.306000 -0.000006 0.541070
141.584549 -132.115479 -0.000005 0.503792
nan nan nan 0.000000
nan nan nan 0.000000
nan nan nan 0.000000
nan nan nan 0.000000
nan nan nan 0.000000
nan nan nan 0.000000
nan nan nan 0.000000
nan nan nan 0.000000
nan nan nan 0.000000
153.077774 -162.757996 -0.000015 0.539101
147.320663 -147.487869 -0.000022 0.537438
144.848877 -140.931732 -0.000015 0.538384
143.472229 -137.280319 -0.000010 0.529213
142.593353 -134.949219 -0.000008 0.512444
141.982513 -133.329010 -0.000007 0.551141
141.532471 -132.135330 -0.000005 0.531823
nan nan nan 0.000000
nan nan nan 0.000000
nan nan nan 0.000000
nan nan nan 0.000000
nan nan nan 0.000000
nan nan nan 0.000000
nan nan nan 0.000000
nan nan nan 0.000000
nan nan nan 0.000000
152.811493 -162.857346 -0.000016 0.541482
147.161118 -147.547394 -0.000023 0.536828
144.735153 -140.974152 -0.000015 0.533639
143.384033 -137.313217 -0.000011 0.523613
142.521454 -134.976044 -0.000008 0.533837
141.921936 -133.351608 -0.000006 0.548012
141.480240 -132.154816 -0.000005 0.529458
nan nan nan 0.000000
nan nan nan 0.000000
nan nan nan 0.000000
nan nan nan 0.000000
nan nan nan 0.000000
nan nan nan 0.000000
nan nan nan 0.000000
nan nan nan 0.000000
nan nan nan 0.000000
152.544510 -162.954819 -0.000016 0.541329
147.001160 -147.605804 -0.000023 0.539666
144.621140 -141.015778 -0.000015 0.555673
143.295609 -137.345505 -0.000012 0.548928
142.449371 -135.002350 -0.000008 0.567712
141.861206 -133.373779 -0.000007 0.541054
141.427872 -132.173935 -0.000005 0.541588
nan nan nan 0.000000
nan nan nan 0.000000
nan nan nan 0.000000
nan nan nan 0.000000
nan nan nan 0.000000
nan nan nan 0.000000
nan nan nan 0.000000
nan nan nan 0.000000
nan nan nan 0.000000
152.276855 -163.050415 -0.000015 0.547280
146.840790 -147.663086 -0.000023 0.543099
144.506851 -141.056610 -0.000016 0.555032
143.206970 -137.377167 -0.000011 0.516091
142.377106 -135.028168 -0.000009 0.518227
141.800323 -133.395538 -0.000007 0.535286
141.375381 -132.192688 -0.000006 0.556100
nan nan nan 0.000000
nan nan nan 0.000000
nan nan nan 0.000000
nan nan nan 0.000000
nan nan nan 0.000000
nan nan nan 0.000000
nan nan nan 0.000000
nan nan nan 0.000000
nan nan nan 0.000000
152.008530 -163.144165 -0.000016 0.543999
146.680023 -147.719238 -0.000022 0.539330
144.392273 -141.096649 -0.000016 0.530663
143.118103 -137.408218 -0.000011 0.551583
142.304672 -135.053482 -0.000009 0.555276
141.739304 -133.416855 -0.000007 0.563317
141.322754 -132.211060 -0.000006 0.562966
nan nan nan 0.000000
nan nan nan 0.000000
nan nan nan 0.000000
nan nan nan 0.000000
nan nan nan 0.000000
nan nan nan 0.000000
nan nan nan 0.000000
nan nan nan 0.000000
nan nan nan 0.000000
151.739578 -163.236023 -0.000016 0.539849
146.518890 -147.774292 -0.000023 0.535485
144.277405 -141.135864 -0.000016 0.555611
143.029037 -137.438644 -0.000011 0.536660
142.232056 -135.078278 -0.000009 0.536034
141.678116 -133.437744 -0.000007 0.547494
141.270004 -132.229080 -0.000005 0.520058
nan nan nan 0.000000
nan nan nan 0.000000
nan nan nan 0.000000
nan nan nan 0.000000
nan nan nan 0.000000
nan nan nan 0.000000
nan nan nan 0.000000
nan nan nan 0.000000
nan nan nan 0.000000
151.469971 -163.325989 -0.000015 0.540810
146.357361 -147.828201 -0.000023 0.532464
144.162277 -141.174301 -0.000016 0.532921
142.939743 -137.468445 -0.000011 0.528374
142.159256 -135.102585 -0.000009 0.518242
141.616791 -133.458221 -0.000007 0.512642
141.217133 -132.246735 -0.000005 0.551369
nan nan nan 0.000000
nan nan nan 0.000000
nan nan nan 0.000000
nan nan nan 0.000000
nan nan nan 0.000000
nan nan nan 0.000000
nan nan nan 0.000000
nan nan nan 0.000000
nan nan nan 0.000000
151.199768 -163.414108 -0.000015 0.543389
146.195465 -147.880997 -0.000024 0.543954
144.046890 -141.211914 -0.000016 0.545602
142.850250 -137.497620 -0.000011 0.533196
142.086304 -135.126373 -0.000009 0.547860
141.555328 -133.478256 -0.000007 0.542824
141.164139 -132.264008 -0.000006 0.556710
nan nan nan 0.000000
nan nan nan 0.000000
nan nan nan 0.000000
nan nan nan 0.000000
nan nan nan 0.000000
nan nan nan 0.000000
nan nan nan 0.000000
nan nan nan 0.000000
nan nan nan 0.000000
150.928925 -163.500305 -0.000015 0.539239
146.033188 -147.932632 -0.000023 0.528893
143.931229 -141.248734 -0.000016 0.523125
142.760559 -137.526169 -0.000012 0.531655
142.013184 -135.149643 -0.000009 0.528008
141.493729 -133.497864 -0.000007 0.519966
141.111023 -132.280914 -0.000006 0.534813
nan nan nan 0.000000
nan nan nan 0.000000
nan nan nan 0.000000
nan nan nan 0.000000
nan nan nan 0.000000
nan nan nan 0.000000
nan nan nan 0.000000
nan nan nan 0.000000
nan nan nan 0.000000
150.657501 -163.584625 -0.000016 0.542611
145.870575 -147.983154 -0.000023 0.549126
143.815323 -141.284744 -0.000016 0.524285
142.670670 -137.554092 -0.000012 0.532280
141.939896 -135.172409 -0.000009 0.544137
141.431992 -133.517044 -0.000007 0.577081
141.057785 -132.297455 -0.000006 0.538918
151.982941 -169.005997 13.593550 0.642924
151.982925 -169.005981 11.996394 0.630610
151.982895 -169.005859 10.421644 0.625086
151.982834 -169.005676 8.865541 0.634562
151.982834 -169.005661 7.324511 0.625086
151.982834 -169.005646 5.795045 0.686961
151.982834 -169.005646 4.273771 0.642664
151.982834 -169.005661 2.757384 0.640803
151.982864 -169.005783 1.242615 0.635950
150.385513 -163.667053 -0.000015 0.540993
145.707611 -148.032547 -0.000023 0.539895
143.699173 -141.319931 -0.000016 0.531884
142.580582 -137.581390 -0.000012 0.564813
141.866455 -135.194656 -0.000009 0.520241
141.370117 -133.535797 -0.000007 0.549477
141.004440 -132.313614 -0.000006 0.584375
151.646210 -169.005524 13.569540 0.677211
151.646210 -169.005508 11.975694 0.637369
151.646240 -169.005585 10.404240 0.631571
151.646255 -169.005661 8.851394 0.659937
151.646255 -169.005646 7.313540 0.624537
151.646255 -169.005646 5.787226 0.647913
151.646255 -169.005646 4.269086 0.634211
151.646255 -169.005646 2.755822 0.623850
151.646240 -169.005585 1.244178 0.636271
150.112930 -163.747589 -0.000015 0.537301
145.544296 -148.080780 -0.000024 0.540215
143.582764 -141.354324 -0.000016 0.545007
142.490311 -137.608063 -0.000012 0.533089
141.792877 -135.216400 -0.000009 0.542550
141.308121 -133.554108 -0.000007 0.524407
140.950989 -132.329407 -0.000006 0.547005
151.311066 -169.005707 13.546366 0.646998
151.311066 -169.005707 11.955714 0.640070
151.311050 -169.005692 10.387389 0.633341
151.311050 -169.005646 8.837637 0.620310
151.311050 -169.005646 7.302874 0.620066
151.311035 -169.005630 5.779623 0.632685
151.311035 -169.005646 4.264531 0.624628
151.311035 -169.005646 2.754305 0.628916
151.311050 -169.005676 1.245695 0.609857
149.839813 -163.826202 -0.000016 0.542077
145.380646 -148.127884 -0.000024 0.537789
143.466125 -141.387894 -0.000016 0.547387
142.399857 -137.634094 -0.000012 0.551125
141.719131 -135.237625 -0.000009 0.514580
141.246002 -133.571991 -0.000008 0.523064
140.897415 -132.344833 -0.000006 0.591531
150.977234 -169.005890 13.523843 0.626795
150.977234 -169.005890 11.936290 0.635203
150.977203 -169.005783 10.371012 0.647562
150.977173 -169.005661 8.824274 0.645502
150.977158 -169.005646 7.292508 0.652644
150.977158 -169.005646 5.772234 0.619043
150.977158 -169.005646 4.260104 0.642695
150.977158 -169.005646 2.752831 0.629740
150.977203 -169.005768 1.247167 0.627985
149.566132 -163.902893 -0.000015 0.538689
145.216675 -148.173843 -0.000024 0.540856
143.349258 -141.420654 -0.000016 0.541314
142.309219 -137.659500 -0.000012 0.519066
141.645233 -135.258331 -0.000009 0.527687
141.183746 -133.589432 -0.000008 0.549737
140.843750 -132.359879 -0.000006 0.537545
150.644547 -169.005585 13.501839 0.655329
150.644547 -169.005585 11.917318 0.645731
150.644562 -169.005630 10.355057 0.617227
150.644562 -169.005646 8.811290 0.624704
150.644562 -169.005646 7.282438 0.615854
150.644562 -169.005630 5.765059 0.641749
150.644562 -169.005630 4.255805 0.664744
150.644562 -169.005646 2.751397 0.660502
150.644562 -169.005615 1.248602 0.631479
149.291931 -163.977692 -0.000015 0.538552
145.052399 -148.218658 -0.000024 0.535149
143.232162 -141.452591 -0.000016 0.547921
142.218399 -137.684265 -0.000012 0.538659
141.571213 -135.278534 -0.000010 0.540169
141.121384 -133.606445 -0.000008 0.515358
140.789963 -132.374542 -0.000006 0.556374
150.313248 -169.005768 13.480600 0.667872
150.313248 -169.005753 11.899008 0.654032
150.313232 -169.005692 10.339609 0.624765
150.313217 -169.005661 8.798688 0.639460
150.313217 -169.005646 7.272664 0.636027
150.313217 -169.005630 5.758090 0.630198
150.313217 -169.005630 4.251631 0.624292
150.313217 -169.005646 2.750008 0.637324
150.313232 -169.005707 1.249991 0.634928
149.017212 -164.050568 -0.000016 0.542092
144.887802 -148.262329 -0.000024 0.547387
143.114853 -141.483704 -0.000016 0.541390
142.127426 -137.708405 -0.000012 0.533608
141.497040 -135.298203 -0.000010 0.538399
141.058899 -133.623032 -0.000008 0.544045
140.736084 -132.388840 -0.000006 0.527810
149.983047 -169.005554 13.459903 0.642985
149.983047 -169.005554 11.881161 0.639780
149.983063 -169.005630 10.324597 0.640513
149.983078 -169.005646 8.786461 0.649989
149.983078 -169.005646 7.263180 0.633829
149.983063 -169.005615 5.751333 0.651011
149.983078 -169.005646 4.247581 0.632273
149.983078 -169.005646 2.748659 0.637980
149.983063 -169.005585 1.251342 0.634928
148.741989 -164.121506 -0.000015 0.541634
144.722900 -148.304840 -0.000024 0.540993
142.997330 -141.514023 -0.000016 0.546868
142.036270 -137.731903 -0.000012 0.505028
141.422729 -135.317368 -0.000010 0.543862
140.996292 -133.639175 -0.000008 0.530343
140.682114 -132.402756 -0.000006 0.535332
149.654129 -169.005707 13.439927 0.646006
149.654129 -169.005707 11.863937 0.641550
149.654114 -169.005661 10.310067 0.646998
149.654114 -169.005646 8.774607 0.623529
149.654099 -169.005646 7.253989 0.621027
149.654099 -169.005630 5.744781 0.631662
149.654099 -169.005646 4.243655 0.668498
149.654114 -169.005646 2.747351 0.624170
149.654114 -169.005707 1.252648 0.629114
148.466293 -164.190567 -0.000016 0.538155
144.557724 -148.346207 -0.000024 0.537713
142.879593 -141.543488 -0.000016 0.534585
141.944962 -137.754776 -0.000013 0.539651
141.348297 -135.335999 -0.000010 0.531579
140.933578 -133.654877 -0.000008 0.549477
140.628036 -132.416290 -0.000006 0.552514
149.326248 -169.005569 13.420499 0.625177
149.326248 -169.005569 11.847187 0.617792
149.326263 -169.005646 10.295978 0.627008
149.326263 -169.005646 8.763122 0.646922
149.326263 -169.005630 7.245081 0.655818
149.326263 -169.005630 5.738434 0.651255
149.326263 -169.005630 4.239853 0.631388
149.326263 -169.005646 2.746084 0.660456
149.326248 -169.005585 1.253916 0.644694
148.190109 -164.257675 -0.000016 0.537881
144.392242 -148.386414 -0.000024 0.536171
142.761658 -141.572159 -0.000016 0.525307
141.853500 -137.777008 -0.000013 0.541436
141.273727 -135.354126 -0.000010 0.542382
140.870758 -133.670135 -0.000008 0.501564
140.573868 -132.429459 -0.000006 0.543084
148.999527 -169.005707 13.401767 0.636545
148.999527 -169.005707 11.831032 0.622248
148.999512 -169.005646 10.282345 0.636606
148.999512 -169.005646 8.752007 0.632303
148.999512 -169.005630 7.236461 0.630259
148.999512 -169.005630 5.732288 0.663935
148.999512 -169.005630 4.236173 0.641688
148.999512 -169.005646 2.744859 0.625467
148.999527 -169.005707 1.255140 0.634836
147.913467 -164.322845 -0.000016 0.542092
144.226501 -148.425461 -0.000024 0.535363
142.643509 -141.599991 -0.000017 0.541131
141.761887 -137.798584 -0.000013 0.541650
141.199036 -135.371719 -0.000010 0.536156
140.807831 -133.684967 -0.000008 0.518669
140.519623 -132.442230 -0.000006 0.562600
148.673813 -169.005615 13.383588 0.626978
148.673828 -169.005615 11.815361 0.630732
148.673828 -169.005646 10.269156 0.626535
148.673828 -169.005630 8.741255 0.636713
148.673828 -169.005630 7.228125 0.635294
148.673828 -169.005615 5.726347 0.629389
148.673828 -169.005630 4.232612 0.625269
148.673828 -169.005646 2.743673 0.635493
148.673813 -169.005615 1.256328 0.629969
147.636383 -164.386093 -0.000016 0.541695
144.060486 -148.463364 -0.000025 0.532113
142.525177 -141.626999 -0.000017 0.535225
141.670105 -137.819534 -0.000013 0.531411
141.124222 -135.388794 -0.000010 0.534569
140.744812 -133.699356 -0.000008 0.539101
140.465271 -132.454636 -0.000006 0.558709
148.349167 -169.005676 13.366061 0.643565
148.349167 -169.005676 11.800248 0.657847
148.349152 -169.005646 10.256412 0.647791
148.349152 -169.005630 8.730867 0.634394
148.349152 -169.005615 7.220068 0.648066
148.349152 -169.005615 5.720603 0.655375
148.349152 -169.005615 4.229171 0.645029
148.349152 -169.005630 2.742525 0.632166
148.349167 -169.005722 1.257472 0.633188
147.358856 -164.447403 -0.000016 0.534340
143.894196 -148.500092 -0.000025 0.526284
142.406677 -141.653183 -0.000017 0.546304
141.578201 -137.839844 -0.000013 0.528756
141.049286 -135.405350 -0.000010 0.523186
140.681686 -133.713287 -0.000008 0.542992
140.410843 -132.466660 -0.000007 0.544610
148.025467 -169.005630 13.349114 0.625208
148.025467 -169.005646 11.785638 0.635904
148.025467 -169.005646 10.244108 0.633188
148.025467 -169.005646 8.720838 0.627298
148.025467 -169.005615 7.212288 0.624125
148.025467 -169.005630 5.715060 0.661860
148.025467 -169.005615 4.225848 0.648768
148.025467 -169.005646 2.741420 0.632975
148.025467 -169.005661 1.258580 0.635523
147.080902 -164.506775 -0.000016 0.544488
143.727676 -148.535675 -0.000025 0.535760
142.287979 -141.678528 -0.000017 0.537667
141.486145 -137.859497 -0.000013 0.548440
140.974243 -135.421387 -0.000010 0.524865
140.618454 -133.726807 -0.000008 0.517067
140.356339 -132.478317 -0.000007 0.565744
147.704773 -169.015701 13.335351 0.765484
147.702728 -169.005630 11.771550 0.645960
147.704773 -169.015701 10.234110 0.767803
147.702728 -169.005630 8.711164 0.630655
147.704773 -169.015701 7.205968 0.768627
147.702728 -169.005630 5.709712 0.644755
147.704773 -169.015701 4.223150 0.768627
147.702728 -169.005646 2.740352 0.645960
147.702728 -169.005600 1.259647 0.636164
146.802551 -164.564209 -0.000016 0.543877
143.560898 -148.570084 -0.000025 0.525002
142.169113 -141.703064 -0.000017 0.538125
141.393951 -137.878525 -0.000013 0.544976
140.899094 -135.436890 -0.000010 0.532616
140.555145 -133.739868 -0.000008 0.564034
140.301743 -132.489578 -0.000007 0.551690
147.393524 -169.070190 13.333519 0.678431
147.380905 -169.005630 11.757981 0.630838
147.393509 -169.070190 10.232778 0.678431
147.380890 -169.005630 8.701842 0.616983
147.393509 -169.070190 7.205126 0.678431
147.380905 -169.005630 5.704561 0.659754
147.393524 -169.070190 4.222790 0.678431
147.380905 -169.005646 2.739324 0.657694
147.380905 -169.005692 1.260675 0.644938
146.523804 -164.619705 -0.000016 0.542306
143.393890 -148.603333 -0.000025 0.541054
142.050079 -141.726761 -0.000017 0.534707
141.301636 -137.896896 -0.000013 0.534234
140.823837 -135.451874 -0.000010 0.564431
140.491745 -133.752487 -0.000008 0.535668
140.247070 -132.500458 -0.000007 0.496330
147.072098 -169.070190 13.318354 0.678431
147.059952 -169.005615 11.744923 0.626383
147.072098 -169.070190 10.221760 0.678431
147.059952 -169.005615 8.692873 0.615228
147.072098 -169.070175 7.198160 0.678431
147.059952 -169.005630 5.699604 0.661448
147.072098 -169.070190 4.219815 0.678431
147.059952 -169.005646 2.738335 0.646693
147.059952 -169.005646 1.261664 0.648356
146.244675 -164.673233 -0.000017 0.543145
143.226654 -148.635406 -0.000025 0.545251
141.930878 -141.749619 -0.000017 0.547860
141.209198 -137.914627 -0.000013 0.545129
140.748474 -135.466324 -0.000010 0.537179
140.428253 -133.764664 -0.000008 0.531838
140.192322 -132.510956 -0.000007 0.562692
146.751526 -169.070190 13.303778 0.678431
146.739838 -169.005630 11.732372 0.633600
146.751526 -169.070175 10.211172 0.678431
146.739838 -169.005630 8.684258 0.619532
146.751526 -169.070175 7.191467 0.678431
146.739838 -169.005646 5.694841 0.638376
146.751526 -169.070190 4.216957 0.678431
146.739838 -169.005646 2.737385 0.658930
146.739838 -169.005630 1.262615 0.625971
145.965179 -164.724823 -0.000017 0.540566
143.059189 -148.666321 -0.000026 0.533516
141.811523 -141.771652 -0.000018 0.539727
141.116638 -137.931717 -0.000013 0.538247
140.673004 -135.480255 -0.000010 0.551064
140.364670 -133.776398 -0.000008 0.534951
140.137512 -132.521072 -0.000007 0.544335
146.431747 -169.070175 13.289789 0.678431
146.420532 -169.005615 11.720329 0.646006
146.431747 -169.070160 10.201011 0.678431
146.420532 -169.005630 8.675986 0.612573
146.431747 -169.070175 7.185042 0.678431
146.420532 -169.005646 5.690269 0.646159
146.431747 -169.070175 4.214213 0.678431
146.420532 -169.005630 2.736471 0.632227
146.420532 -169.005615 1.263528 0.632654
145.685318 -164.774460 -0.000017 0.539635
142.891510 -148.696045 -0.000025 0.536645
141.692017 -141.792847 -0.000017 0.547662
141.023956 -137.948151 -0.000013 0.525322
140.597458 -135.493652 -0.000010 0.527520
140.301025 -133.787689 -0.000008 0.540658
140.082626 -132.530807 -0.000007 0.523308
146.112762 -169.070175 13.276381 0.678431
146.102005 -169.005615 11.708788 0.646006
146.112762 -169.070175 10.191275 0.678431
146.102005 -169.005615 8.668057 0.619791
146.112762 -169.070175 7.178885 0.678431
146.102020 -169.005646 5.685887 0.646647
146.112762 -169.070175 4.211584 0.678431
146.102020 -169.005630 2.735597 0.626459
146.102020 -169.005646 1.264403 0.632166
145.405136 -164.822144 -0.000017 0.539696
142.723648 -148.724609 -0.000026 0.531823
141.572357 -141.813202 -0.000018 0.541650
140.931152 -137.963943 -0.000013 0.542397
140.521805 -135.506531 -0.000010 0.535027
140.237289 -133.798523 -0.000009 0.550011
140.027679 -132.540161 -0.000007 0.530480
145.784225 -169.005615 13.247181 0.617426
145.784225 -169.005615 11.697745 0.661875
145.784225 -169.005615 10.170062 0.649912
145.784225 -169.005615 8.660475 0.625849
145.784225 -169.005630 7.165477 0.627115
145.784225 -169.005646 5.681697 0.644114
145.784225 -169.005630 4.205858 0.666026
145.784225 -169.005646 2.734762 0.632029
145.784225 -169.005646 1.265238 0.648875
145.124619 -164.867859 -0.000017 0.538994
142.555573 -148.752014 -0.000026 0.540200
141.452560 -141.832733 -0.000018 0.542382
140.838257 -137.979080 -0.000013 0.533578
140.446060 -135.518860 -0.000010 0.559808
140.173477 -133.808929 -0.000008 0.555093
139.972656 -132.549133 -0.000007 0.517143
145.467148 -169.005615 13.234949 0.664729
145.467148 -169.005615 11.687203 0.624079
145.467148 -169.005615 10.161180 0.669551
145.467148 -169.005615 8.653233 0.647272
145.467148 -169.005630 7.159860 0.659434
145.467148 -169.005646 5.677691 0.644678
145.467148 -169.005630 4.203459 0.655528
145.467148 -169.005646 2.733962 0.667628
145.472412 -169.040176 1.265467 0.142947
144.843796 -164.911636 -0.000017 0.543282
142.387314 -148.778229 -0.000026 0.535378
141.332642 -141.851425 -0.000018 0.543435
140.745239 -137.993576 -0.000013 0.547845
140.370239 -135.530685 -0.000011 0.512703
140.109604 -133.818878 -0.000008 0.545815
139.917572 -132.557709 -0.000007 0.552377
145.150742 -169.005600 13.223294 0.615930
145.150742 -169.005615 11.677151 0.638300
145.150742 -169.005615 10.152711 0.657984
145.150742 -169.005615 8.646330 0.632853
145.150742 -169.005615 7.154504 0.653971
145.150742 -169.005630 5.673876 0.670665
145.150742 -169.005630 4.201173 0.639200
145.150742 -169.005630 2.733200 0.659373
145.155746 -169.040176 1.266228 0.119097
144.562668 -164.953430 -0.000017 0.542306
142.218887 -148.803284 -0.000026 0.543450
141.212585 -141.869278 -0.000018 0.546990
140.652145 -138.007431 -0.000014 0.540337
140.294342 -135.541977 -0.000011 0.508003
140.045654 -133.828400 -0.000009 0.528466
139.862442 -132.565903 -0.000007 0.512673
144.834976 -169.005615 13.212212 0.616297
144.834976 -169.005630 11.667594 0.634882
144.834976 -169.005615 10.144659 0.630350
144.834976 -169.005615 8.639765 0.646097
144.834976 -169.005615 7.149414 0.637201
144.834976 -169.005630 5.670247 0.647364
144.834976 -169.005630 4.198999 0.625803
144.834976 -169.005630 2.732476 0.633997
144.839737 -169.040161 1.266954 0.135958
144.281250 -164.993271 -0.000017 0.541436
142.050278 -148.827148 -0.000026 0.538735
141.092422 -141.886292 -0.000018 0.552300
140.558945 -138.020615 -0.000013 0.523827
140.218369 -135.552734 -0.000011 0.548821
139.981659 -133.837448 -0.000009 0.553002
139.807251 -132.573730 -0.000007 0.503334
144.519806 -169.005615 13.201691 0.645258
144.519806 -169.005615 11.658523 0.637491
144.519806 -169.005615 10.137017 0.665141
144.519806 -169.005630 8.633535 0.639078
144.519806 -169.005615 7.144583 0.650172
144.519806 -169.005615 5.666802 0.637552
144.519806 -169.005615 4.196936 0.635218
144.519806 -169.005630 2.731790 0.654307
144.524338 -169.040161 1.267641 0.123064
143.999573 -165.031143 -0.000017 0.542489
141.881500 -148.849823 -0.000026 0.542916
140.972122 -141.902466 -0.000018 0.545754
140.465652 -138.033157 -0.000014 0.545495
140.142319 -135.562958 -0.000011 0.528801
139.917572 -133.846069 -0.000009 0.526360
139.751999 -132.581146 -0.000007 0.541054
144.205231 -169.005615 13.191736 0.649241
144.205231 -169.005630 11.649942 0.660075
144.205231 -169.005615 10.129786 0.659754
144.205231 -169.005615 8.627640 0.655451
144.205231 -169.005615 7.140009 0.666972
144.205231 -169.005615 5.663543 0.643931
144.205231 -169.005615 4.194983 0.666484
144.205231 -169.005630 2.731138 0.624979
144.205231 -169.005615 1.268861 0.623743
143.717621 -165.067047 -0.000017 0.536477
141.712585 -148.871353 -0.000026 0.533501
140.851730 -141.917786 -0.000018 0.527611
140.372269 -138.045059 -0.000014 0.533684
140.066193 -135.572647 -0.000011 0.537362
139.853455 -133.854233 -0.000009 0.550881
139.696716 -132.588196 -0.000008 0.545968
143.898727 -169.070160 13.198625 0.678431
143.891190 -169.005615 11.641841 0.651804
143.898727 -169.070160 10.134790 0.678431
143.891190 -169.005615 8.622078 0.658381
143.898727 -169.070175 7.143176 0.678431
143.891190 -169.005615 5.660469 0.664363
143.898727 -169.070190 4.196334 0.678431
143.891190 -169.005630 2.730524 0.639017
143.891190 -169.005615 1.269475 0.630900
143.435440 -165.100998 -0.000018 0.539849
141.543518 -148.891678 -0.000026 0.542718
140.731216 -141.932281 -0.000018 0.540169
140.278824 -138.056290 -0.000014 0.549966
139.990005 -135.581802 -0.000011 0.521492
139.789261 -133.861954 -0.000009 0.570275
139.641373 -132.594849 -0.000008 0.553643
143.584732 -169.070160 13.189778 0.678431
143.577652 -169.005615 11.634224 0.622721
143.584732 -169.070175 10.128366 0.678431
143.577652 -169.005615 8.616848 0.635294
143.584732 -169.070175 7.139112 0.678431
143.577652 -169.005615 5.657579 0.614130
143.584732 -169.070175 4.194599 0.678431
143.577667 -169.005615 2.729949 0.632532
143.577652 -169.005615 1.270052 0.645274
143.153030 -165.132965 -0.000018 0.539117
141.374313 -148.910828 -0.000026 0.545754
140.610626 -141.945938 -0.000018 0.547311
140.185287 -138.066879 -0.000014 0.533379
139.913757 -135.590439 -0.000011 0.521828
139.725021 -133.869232 -0.000009 0.557000
139.585983 -132.601120 -0.000008 0.517525
143.271240 -169.070160 13.181492 0.678431
143.264618 -169.005615 11.627089 0.640345
143.271240 -169.070175 10.122345 0.678431
143.264618 -169.005615 8.611948 0.617350
143.271240 -169.070160 7.135305 0.678431
143.264618 -169.005615 5.654870 0.661051
143.271240 -169.070175 4.192973 0.678431
143.264618 -169.005615 2.729407 0.653254
143.264618 -169.005615 1.270592 0.634440
142.870407 -165.162949 -0.000018 0.543343
141.204971 -148.928802 -0.000026 0.532570
140.489929 -141.958740 -0.000018 0.543435
140.091690 -138.076813 -0.000014 0.527962
139.837448 -135.598541 -0.000011 0.532280
139.660736 -133.876053 -0.000009 0.518212
139.530548 -132.606995 -0.000008 0.542916
142.958176 -169.070175 13.173762 0.678431
142.952011 -169.005615 11.620433 0.629648
142.958176 -169.070175 10.116731 0.678431
142.952011 -169.005615 8.607376 0.639643
142.958176 -169.070175 7.131757 0.678431
142.952011 -169.005615 5.652343 0.633890
142.958176 -169.070175 4.191458 0.678431
142.952011 -169.005615 2.728903 0.627497
142.952011 -169.005615 1.271096 0.631220
142.587570 -165.190979 -0.000018 0.542229
141.035507 -148.945587 -0.000026 0.541726
140.369141 -141.970703 -0.000018 0.535073
139.998016 -138.086090 -0.000014 0.549767
139.761078 -135.606110 -0.000011 0.542351
139.596405 -133.882416 -0.000009 0.548592
139.475082 -132.612488 -0.000008 0.544320
142.642883 -169.040192 13.159045 0.843626
142.639832 -169.005630 11.614258 0.621653
142.642883 -169.040176 10.106039 0.843626
142.639832 -169.005615 8.603133 0.611749
142.642883 -169.040176 7.124996 0.840925
142.639832 -169.005615 5.649998 0.648432
142.642883 -169.040192 4.188571 0.840925
142.639832 -169.005630 2.728435 0.661036
142.639832 -169.005630 1.271565 0.624491
142.304535 -165.217010 -0.000018 0.542901
140.865936 -148.961197 -0.000026 0.537667
140.248276 -141.981827 -0.000018 0.538750
139.904282 -138.094711 -0.000014 0.538750
139.684662 -135.613129 -0.000011 0.576211
139.532028 -133.888351 -0.000009 0.538674
139.419571 -132.617599 -0.000007 0.530785
142.330841 -169.040192 13.152427 0.854322
142.328033 -169.005630 11.608558 0.623026
142.330841 -169.040176 10.101231 0.853498
142.328033 -169.005615 8.599218 0.625254
142.330841 -169.040192 7.121958 0.846326
142.328033 -169.005630 5.647833 0.634287
142.330841 -169.040176 4.187274 0.846326
142.328033 -169.005630 2.728003 0.630976
142.328033 -169.005615 1.271997 0.634882
142.021347 -165.241089 -0.000018 0.542840
140.696259 -148.975601 -0.000026 0.543877
140.127350 -141.992111 -0.000019 0.537514
139.810486 -138.102692 -0.000014 0.532235
139.608200 -135.619629 -0.000011 0.555413
139.467606 -133.893814 -0.000009 0.548867
139.364029 -132.622330 -0.000008 0.530419
142.016586 -169.005630 13.137681 0.662165
142.016586 -169.005630 11.603328 0.618112
142.016586 -169.005630 10.090519 0.673915
142.016586 -169.005615 8.595626 0.614221
142.016586 -169.005615 7.115182 0.657206
142.016586 -169.005630 5.645848 0.634241
142.016586 -169.005615 4.184381 0.620401
142.016586 -169.005615 2.727607 0.622827
142.016586 -169.005615 1.272393 0.633265
141.737991 -165.263168 -0.000018 0.540978
140.526489 -148.988846 -0.000026 0.536629
140.006348 -142.001541 -0.000018 0.528283
139.716644 -138.110001 -0.000014 0.522316
139.531708 -135.625595 -0.000011 0.525261
139.403168 -133.898849 -0.000009 0.544472
139.308456 -132.626648 -0.000008 0.571160
141.705460 -169.005630 13.132167 0.661692
141.705460 -169.005615 11.598572 0.657160
141.705460 -169.005615 10.086513 0.635828
141.705460 -169.005615 8.592360 0.622797
141.705460 -169.005615 7.112651 0.660807
141.705460 -169.005615 5.644043 0.632212
141.705460 -169.005630 4.183300 0.620035
141.705460 -169.005630 2.727247 0.634668
141.705460 -169.005615 1.272754 0.634546
141.454483 -165.283264 -0.000018 0.541207
140.356628 -149.000900 -0.000026 0.535805
139.885269 -142.010132 -0.000019 0.540307
139.622757 -138.116669 -0.000014 0.528038
139.455154 -135.631027 -0.000011 0.543816
139.338669 -133.903412 -0.000009 0.547890
139.252853 -132.630600 -0.000008 0.549401
141.394638 -169.005630 13.127198 0.652399
141.394638 -169.005615 11.594290 0.636454
141.394638 -169.005615 10.082904 0.670497
141.394638 -169.005615 8.589420 0.632441
141.394638 -169.005615 7.110371 0.653666
141.394638 -169.005630 5.642417 0.635721
141.394638 -169.005630 4.182325 0.646418
141.394638 -169.005630 2.726922 0.669581
141.394638 -169.005615 1.273077 0.630625
141.170837 -165.301422 -0.000018 0.539071
140.186691 -149.011765 -0.000026 0.538735
139.764145 -142.017868 -0.000019 0.534844
139.528824 -138.122665 -0.000014 0.537530
139.378586 -135.635925 -0.000011 0.546838
139.274155 -133.907547 -0.000009 0.508278
139.197220 -132.634155 -0.000008 0.544564
141.084076 -169.005630 13.122778 0.657725
141.084076 -169.005615 11.590480 0.635401
141.084076 -169.005615 10.079694 0.636667
141.084076 -169.005615 8.586803 0.630198
141.084076 -169.005615 7.108341 0.645457
141.084076 -169.005630 5.640971 0.654215
141.084076 -169.005646 4.181458 0.633860
141.084076 -169.005630 2.726634 0.646830
141.084076 -169.005615 1.273366 0.625116
140.887085 -165.317551 -0.000018 0.539040
140.016678 -149.021439 -0.000026 0.543114
139.642975 -142.024765 -0.000019 0.540764
139.434845 -138.128021 -0.000014 0.539071
139.301971 -135.640274 -0.000011 0.576257
139.209610 -133.911224 -0.000010 0.557778
139.141571 -132.637329 -0.000008 0.551522
140.773743 -169.005630 13.118906 0.661189
140.773743 -169.005615 11.587138 0.631342
140.773743 -169.005630 10.076879 0.643839
140.773743 -169.005630 8.584509 0.647059
140.773743 -169.005630 7.106560 0.639796
140.773743 -169.005646 5.639703 0.646876
140.773743 -169.005646 4.180699 0.618204
140.773743 -169.005646 2.726381 0.645441
140.773743 -169.005615 1.273620 0.634974
140.603226 -165.331726 -0.000018 0.541756
139.846603 -149.029922 -0.000026 0.536248
139.521759 -142.030823 -0.000019 0.533562
139.340836 -138.132706 -0.000014 0.508980
139.225327 -135.644104 -0.000011 0.520287
139.145050 -133.914444 -0.000010 0.536797
139.085907 -132.640106 -0.000008 0.515297
140.463608 -169.005630 13.115573 0.675242
140.383179 -166.965424 11.143281 0.646601
140.383179 -166.965439 9.702946 0.648249
140.383179 -166.965439 8.279667 0.635294
140.383179 -166.965454 6.870145 0.627176
140.383179 -166.965454 5.471198 0.670283
140.383179 -166.965454 4.079741 0.673655
140.379807 -166.879883 2.691350 0.712352
140.390228 -167.144318 1.304320 0.686397
140.319260 -165.343933 -0.000019 0.538949
139.676468 -149.037231 -0.000027 0.531182
139.400497 -142.036026 -0.000019 0.544320
139.246780 -138.136749 -0.000014 0.532403
139.148666 -135.647400 -0.000011 0.521294
139.080460 -133.917206 -0.000010 0.523613
139.030212 -132.642487 -0.000008 0.536995
140.153641 -169.005630 13.112788 0.623438
140.089569 -167.029922 11.154928 0.678431
140.087799 -166.975433 9.702837 0.775570
140.089569 -167.029922 8.287663 0.678431
140.089569 -167.029922 6.876345 0.678431
140.089569 -167.029922 5.475616 0.678431
140.089569 -167.029922 4.082388 0.678431
140.084702 -166.879883 2.691177 0.716747
140.153641 -169.005615 1.274019 0.628336
140.035233 -165.354141 -0.000019 0.538506
139.506287 -149.043335 -0.000026 0.539925
139.279205 -142.040390 -0.000019 0.525032
139.152725 -138.140121 -0.000014 0.529717
139.071976 -135.650146 -0.000011 0.521492
139.015854 -133.919525 -0.000009 0.545388
138.974503 -132.644501 -0.000008 0.526528
139.843826 -169.005630 13.110544 0.686610
139.793549 -167.029922 11.153081 0.678431
139.792175 -166.975433 9.701281 0.777386
139.793549 -167.029922 8.286392 0.678431
139.793549 -167.029922 6.875360 0.678431
139.793549 -167.029922 5.474915 0.678431
139.793549 -167.029922 4.081966 0.678431
139.789734 -166.879883 2.691037 0.727123
139.843826 -169.005615 1.274166 0.627405
139.751129 -165.362350 -0.000018 0.541482
139.336075 -149.048279 -0.000027 0.533516
139.157883 -142.043884 -0.000019 0.537850
139.058624 -138.142853 -0.000014 0.534661
138.995270 -135.652374 -0.000011 0.506905
138.951233 -133.921402 -0.000010 0.554711
138.918777 -132.646103 -0.000008 0.531334
139.534103 -169.005615 13.108837 0.651179
139.497070 -166.998810 11.144955 0.137148
139.496643 -166.975433 9.700098 0.781094
139.497070 -166.998795 8.280812 0.117205
139.497070 -166.998810 6.871032 0.114626
139.497070 -166.998795 5.471829 0.109285
139.497070 -166.998779 4.080119 0.112505
139.494873 -166.879883 2.690932 0.698253
139.534103 -169.005630 1.274277 0.646555
139.466980 -165.368591 -0.000019 0.542763
139.165833 -149.052002 -0.000027 0.541299
139.036530 -142.046555 -0.000019 0.536355
138.964523 -138.144913 -0.000014 0.560693
138.918549 -135.654053 -0.000011 0.534096
138.886597 -133.922821 -0.000010 0.545739
138.863052 -132.647324 -0.000008 0.540352
139.224472 -169.005630 13.107679 0.621836
139.201813 -167.029922 11.150719 0.678431
139.201187 -166.975433 9.699293 0.768643
139.201813 -167.029907 8.284773 0.678431
139.201813 -167.029938 6.874105 0.678431
139.201813 -167.029922 5.474019 0.678431
139.201813 -167.029922 4.081430 0.678431
139.200089 -166.879883 2.690858 0.712978
139.224472 -169.005615 1.274353 0.622889
139.182800 -165.372849 -0.000019 0.538979
138.995560 -149.054565 -0.000027 0.539727
138.915176 -142.048370 -0.000019 0.552895
138.870407 -138.146317 -0.000014 0.527459
138.841827 -135.655212 -0.000012 0.555108
138.821960 -133.923782 -0.000010 0.547463
138.807312 -132.648163 -0.000008 0.552743
138.914902 -169.005630 13.107060 0.663249
138.906021 -167.029922 11.150209 0.678431
138.905777 -166.975433 9.698867 0.779232
138.906021 -167.029922 8.284424 0.678431
138.906021 -167.029922 6.873831 0.678431
138.906021 -167.029922 5.473825 0.678431
138.906021 -167.029922 4.081313 0.678431
138.905350 -166.879883 2.690821 0.724941
138.914902 -169.005630 1.274393 0.633936
138.898590 -165.375107 -0.000019 0.539391
138.825287 -149.055923 -0.000027 0.548455
138.793808 -142.049347 -0.000019 0.524636
138.776276 -138.147079 -0.000015 0.537072
138.765091 -135.655823 -0.000012 0.564431
138.757309 -133.924301 -0.000010 0.567849
138.751572 -132.648605 -0.000008 0.532403
138.605331 -169.005630 13.106982 0.647059
138.610245 -167.029922 11.150143 0.678431
138.610382 -166.975433 9.698814 0.781918
138.610245 -167.029922 8.284379 0.678431
138.610245 -167.029922 6.873798 0.678431
138.610245 -167.029938 5.473802 0.678431
138.610245 -167.029922 4.081300 0.678431
138.610626 -166.879913 2.690816 0.713878
138.605331 -169.005615 1.274399 0.634104
138.614365 -165.375397 -0.000019 0.542016
138.654999 -149.056091 -0.000027 0.551629
138.672440 -142.049469 -0.000019 0.539849
138.682144 -138.147171 -0.000015 0.515724
138.688354 -135.655899 -0.000012 0.552224
138.692657 -133.924377 -0.000010 0.527535
138.695831 -132.648666 -0.000008 0.560662
138.295761 -169.005630 13.107447 0.614572
138.314468 -167.029922 11.150527 0.678431
138.314987 -166.975433 9.699135 0.774716
138.314468 -167.029907 8.284641 0.678431
138.314468 -167.029922 6.874001 0.678431
138.314468 -167.029907 5.473946 0.678431
138.314468 -167.029922 4.081386 0.678431
138.315887 -166.879913 2.690845 0.708019
138.295425 -169.040161 1.273803 0.141909
138.330154 -165.373703 -0.000019 0.537972
138.484711 -149.055069 -0.000027 0.538048
138.551071 -142.048737 -0.000019 0.543038
138.588028 -138.146606 -0.000015 0.544320
138.611618 -135.655441 -0.000012 0.559701
138.628021 -133.923981 -0.000010 0.554559
138.640091 -132.648331 -0.000009 0.542168
137.986145 -169.005630 13.108451 0.670115
138.018646 -167.029922 11.151355 0.678431
138.019547 -166.975433 9.699831 0.800732
138.018646 -167.029922 8.285210 0.678431
138.018646 -167.029922 6.874444 0.678431
138.018646 -167.029922 5.474260 0.678431
138.018646 -167.029922 4.081575 0.678431
138.021118 -166.879913 2.690907 0.683528
137.985580 -169.040161 1.273737 0.122774
138.045959 -165.370026 -0.000019 0.538796
138.314438 -149.052872 -0.000027 0.539345
138.429703 -142.047165 -0.000019 0.547265
138.493896 -138.145386 -0.000015 0.520684
138.534882 -135.654449 -0.000012 0.516930
138.563370 -133.923141 -0.000010 0.548272
138.584366 -132.647614 -0.000009 0.545525
137.674942 -169.070190 13.126176 0.678431
137.722763 -167.029922 11.152633 0.678431
137.724045 -166.975449 9.700906 0.800534
137.722763 -167.029907 8.286085 0.678431
137.722763 -167.029922 6.875122 0.678431
137.722763 -167.029922 5.474744 0.678431
137.722763 -167.029922 4.081866 0.678431
137.726273 -166.879913 2.691005 0.709377
137.675644 -169.040161 1.273636 0.137072
137.761795 -165.364349 -0.000019 0.540978
138.144180 -149.049469 -0.000027 0.525505
138.308350 -142.044754 -0.000019 0.531731
138.399796 -138.143509 -0.000015 0.530755
138.458160 -135.652908 -0.000012 0.555932
138.498734 -133.921860 -0.000010 0.539696
138.528625 -132.646500 -0.000009 0.563409
137.364700 -169.070190 13.128267 0.678431
137.426788 -167.029922 11.154353 0.678431
137.428436 -166.975433 9.702351 0.781109
137.426788 -167.029907 8.287266 0.678431
137.426788 -167.029922 6.876039 0.678431
137.426788 -167.029922 5.475398 0.678431
137.426788 -167.029922 4.082256 0.678431
137.431351 -166.879898 2.691133 0.722484
137.365616 -169.040161 1.273499 0.131991
137.477692 -165.356705 -0.000019 0.540642
137.973953 -149.044891 -0.000027 0.536736
138.187027 -142.041473 -0.000019 0.528481
138.305695 -138.140976 -0.000015 0.530846
138.381454 -135.650848 -0.000012 0.524849
138.434113 -133.920120 -0.000010 0.510369
138.472900 -132.645004 -0.000009 0.532296
137.054337 -169.070190 13.130903 0.678431
137.130676 -167.029907 11.156516 0.678431
137.132706 -166.975433 9.704175 0.794369
137.130676 -167.029907 8.288754 0.678431
137.130676 -167.029907 6.877192 0.678431
137.130676 -167.029907 5.476220 0.678431
137.130676 -167.029922 4.082750 0.678431
137.136276 -166.879883 2.691297 0.705455
137.056747 -169.005615 1.273893 0.633524
137.193634 -165.347092 -0.000020 0.540856
137.803772 -149.039108 -0.000027 0.545144
138.065720 -142.037369 -0.000019 0.538079
138.211624 -138.137787 -0.000015 0.540413
138.304764 -135.648254 -0.000012 0.513283
138.369507 -133.917923 -0.000010 0.516991
138.417191 -132.643112 -0.000009 0.523308
136.743805 -169.070206 13.134084 0.678431
136.834412 -167.029907 11.159132 0.678431
136.836823 -166.975433 9.706376 0.767559
136.834412 -167.029922 8.290550 0.678431
136.834412 -167.029922 6.878585 0.678431
136.835739 -166.999908 5.474751 0.839216
136.834412 -167.029922 4.083345 0.678431
137.640839 -148.869492 2.396483 0.418692
136.746674 -169.005615 1.273686 0.644205
136.909653 -165.335464 -0.000020 0.539391
137.633621 -149.032150 -0.000027 0.540948
137.944458 -142.032410 -0.000019 0.539361
138.117569 -138.133942 -0.000015 0.509880
138.228088 -135.645111 -0.000012 0.558404
138.304901 -133.915283 -0.000010 0.536599
138.361496 -132.640823 -0.000009 0.552697
136.433075 -169.070175 13.137803 0.678431
136.537949 -167.029922 11.162200 0.678431
136.540756 -166.975449 9.708954 0.779721
136.537949 -167.029922 8.292658 0.678431
136.537949 -167.029922 6.880218 0.678431
136.539490 -166.999908 5.475912 0.838712
137.472778 -148.843979 3.189444 0.433783
137.497711 -148.358871 2.388249 0.440009
136.436401 -169.005630 1.273443 0.644068
136.625763 -165.321854 -0.000020 0.540948
137.463531 -149.024002 -0.000027 0.545846
137.823227 -142.026596 -0.000019 0.532052
138.023544 -138.129425 -0.000015 0.535882
138.151443 -135.641434 -0.000012 0.514580
138.240326 -133.912186 -0.000010 0.542901
138.305817 -132.638168 -0.000009 0.548348
136.125320 -169.015717 13.128406 0.761761
136.243042 -166.999908 11.159221 0.826459
136.244476 -166.975449 9.711910 0.779019
136.243042 -166.999908 8.290611 0.827405
136.243042 -166.999924 6.878633 0.843015
136.243042 -166.999924 5.477245 0.835065
137.300339 -148.897644 3.192540 0.433478
136.250061 -166.879883 2.691991 0.701808
136.125900 -169.005630 1.273164 0.635691
136.341965 -165.306274 -0.000020 0.539086
137.293503 -149.014664 -0.000027 0.530465
137.702026 -142.019943 -0.000019 0.525551
137.929565 -138.124268 -0.000015 0.536629
138.074829 -135.637238 -0.000012 0.527901
138.175781 -133.908646 -0.000010 0.489250
138.250168 -132.635101 -0.000009 0.550683
135.815155 -169.005615 13.130684 0.656306
135.948608 -166.965424 11.155715 0.634379
135.948608 -166.965439 9.713418 0.669612
135.948608 -166.965424 8.288204 0.642252
135.948608 -166.965424 6.876764 0.653712
135.948608 -166.965424 5.475913 0.652155
135.948608 -166.965424 4.082565 0.646326
135.954208 -166.879868 2.692289 0.715877
135.936600 -167.148956 1.303297 0.678019
136.058289 -165.288727 -0.000020 0.538643
137.123535 -149.004150 -0.000027 0.538933
137.580887 -142.012451 -0.000019 0.531502
137.835617 -138.118454 -0.000015 0.530480
137.998230 -135.632492 -0.000012 0.548577
138.111252 -133.904648 -0.000010 0.551171
138.194534 -132.631668 -0.000009 0.529961
135.504120 -169.005615 13.136040 0.636164
135.651169 -166.975449 11.162291 0.758434
135.651169 -166.975449 9.718957 0.774746
135.651169 -166.975449 8.292719 0.743664
136.959152 -148.916428 4.797302 0.440772
135.651169 -166.975433 5.478410 0.754269
136.933319 -149.273117 3.212125 0.429740
136.995758 -148.410995 2.389609 0.421912
135.504120 -169.005615 1.272500 0.644526
135.774750 -165.269180 -0.000020 0.540993
136.953644 -148.992432 -0.000027 0.544320
137.459808 -142.004105 -0.000019 0.541268
137.741714 -138.111984 -0.000015 0.611811
137.921677 -135.627213 -0.000012 0.561547
138.046768 -133.900208 -0.000010 0.527596
138.138916 -132.627838 -0.000009 0.578286
135.192764 -169.005615 13.141945 0.651484
135.349747 -167.029907 11.178951 0.678431
135.354065 -166.975449 9.723050 0.776974
135.349731 -167.029938 8.304165 0.678431
136.835663 -148.327362 4.730803 0.431281
136.828171 -148.421692 3.954140 0.451850
136.818375 -148.544983 3.176884 0.462562
136.818817 -148.539383 2.391923 0.435477
135.192764 -169.005615 1.272114 0.625254
135.491333 -165.247665 -0.000020 0.539879
136.783844 -148.979538 -0.000027 0.543755
137.338776 -141.994904 -0.000020 0.539498
137.647842 -138.104858 -0.000015 0.542885
137.845154 -135.621399 -0.000012 0.533989
137.982300 -133.895309 -0.000010 0.525490
138.083328 -132.623611 -0.000009 0.566567
134.881073 -169.005615 13.148397 0.657877
135.051926 -167.029922 11.184271 0.678431
135.056641 -166.975449 9.727524 0.778866
135.051926 -167.029938 8.307817 0.678431
136.645782 -148.599594 4.763822 0.431632
136.682129 -148.179413 3.935333 0.453223
136.619843 -148.899612 3.195053 0.440986
136.514282 -150.120300 2.418116 0.457420
134.881073 -169.005615 1.271693 0.626245
135.208099 -165.224182 -0.000021 0.538918
136.614151 -148.965454 -0.000027 0.533516
137.217819 -141.984879 -0.000020 0.534554
137.554047 -138.097076 -0.000015 0.537301
137.768692 -135.615067 -0.000012 0.582101
137.917877 -133.889969 -0.000010 0.532052
138.027786 -132.619003 -0.000009 0.539925
134.569000 -169.005615 13.155405 0.623072
134.758865 -166.975433 11.178221 0.780255
134.758865 -166.975449 9.732384 0.800290
134.758865 -166.975433 8.303661 0.777523
136.477066 -148.602493 4.765894 0.432273
136.538895 -147.941345 3.916945 0.446998
136.454697 -148.841583 3.192940 0.553307
136.435852 -149.043182 2.400676 0.538598
134.569000 -169.005615 1.271235 0.629252
134.925018 -165.198700 -0.000021 0.540597
136.444550 -148.950195 -0.000027 0.546304
137.096939 -141.973999 -0.000019 0.552209
137.460297 -138.088638 -0.000015 0.551629
137.692261 -135.608185 -0.000012 0.569406
137.853485 -133.884171 -0.000010 0.493767
137.972260 -132.613998 -0.000009 0.542779
