# This PCD file was generated using the MATLABÂ® pcwrite function
# from Computer Vision ToolboxÂ®.
# .PCD v.7 - Point Cloud Data file format
VERSION .7
FIELDS x y z intensity
SIZE 4 4 4 4
TYPE F F F F
COUNT 1 1 1 1
WIDTH 1284
HEIGHT 1
VIEWPOINT 0 0 0 1 0 0 0
POINTS 1284
DATA ascii
300.794434 74.550323 -0.000054 0.537667
316.849457 77.479294 -0.000032 0.537240
323.742371 78.736794 -0.000023 0.522087
327.581329 79.437149 -0.000017 0.544839
330.032166 79.884262 -0.000014 0.510033
331.735596 80.195023 -0.000012 0.538293
332.990570 80.423973 -0.000010 0.558633
nan nan nan 0.000000
nan nan nan 0.000000
nan nan nan 0.000000
nan nan nan 0.000000
nan nan nan 0.000000
nan nan nan 0.000000
nan nan nan 0.000000
nan nan nan 0.000000
nan nan nan 0.000000
300.744385 74.830116 -0.000054 0.546609
316.819489 77.646927 -0.000032 0.535363
323.721008 78.856270 -0.000023 0.522972
327.564758 79.529800 -0.000017 0.547723
330.018646 79.959801 -0.000014 0.527520
331.724213 80.258659 -0.000012 0.552377
332.980774 80.478844 -0.000010 0.499199
nan nan nan 0.000000
nan nan nan 0.000000
nan nan nan 0.000000
nan nan nan 0.000000
nan nan nan 0.000000
nan nan nan 0.000000
nan nan nan 0.000000
nan nan nan 0.000000
nan nan nan 0.000000
300.696320 75.110245 -0.000054 0.539879
316.790680 77.814758 -0.000032 0.534951
323.700470 78.975891 -0.000023 0.527367
327.548828 79.622574 -0.000018 0.524102
330.005676 80.035431 -0.000014 0.543206
331.713257 80.322372 -0.000012 0.611933
332.971344 80.533783 -0.000010 0.558434
nan nan nan 0.000000
nan nan nan 0.000000
nan nan nan 0.000000
nan nan nan 0.000000
nan nan nan 0.000000
nan nan nan 0.000000
nan nan nan 0.000000
nan nan nan 0.000000
nan nan nan 0.000000
300.650177 75.390701 -0.000054 0.549706
316.763031 77.982796 -0.000032 0.537331
323.680756 79.095657 -0.000023 0.559030
327.533569 79.715462 -0.000017 0.551110
329.993225 80.111153 -0.000014 0.513558
331.702789 80.386169 -0.000012 0.567483
332.962311 80.588791 -0.000010 0.548974
nan nan nan 0.000000
nan nan nan 0.000000
nan nan nan 0.000000
nan nan nan 0.000000
nan nan nan 0.000000
nan nan nan 0.000000
nan nan nan 0.000000
nan nan nan 0.000000
nan nan nan 0.000000
300.606049 75.671463 -0.000053 0.541512
316.736572 78.151009 -0.000031 0.541375
323.661926 79.215553 -0.000022 0.527520
327.518951 79.808441 -0.000017 0.550256
329.981293 80.186951 -0.000014 0.516503
331.692719 80.450027 -0.000011 0.568276
332.953644 80.643852 -0.000009 0.511040
nan nan nan 0.000000
nan nan nan 0.000000
nan nan nan 0.000000
nan nan nan 0.000000
nan nan nan 0.000000
nan nan nan 0.000000
nan nan nan 0.000000
nan nan nan 0.000000
nan nan nan 0.000000
300.563843 75.952545 -0.000053 0.543206
316.711304 78.319412 -0.000032 0.546273
323.643890 79.335587 -0.000022 0.512352
327.504944 79.901535 -0.000017 0.557717
329.969910 80.262840 -0.000014 0.527047
331.683136 80.513962 -0.000012 0.546609
332.945343 80.698975 -0.000010 0.544015
nan nan nan 0.000000
nan nan nan 0.000000
nan nan nan 0.000000
nan nan nan 0.000000
nan nan nan 0.000000
nan nan nan 0.000000
nan nan nan 0.000000
nan nan nan 0.000000
nan nan nan 0.000000
300.523621 76.233902 -0.000052 0.539315
316.687195 78.487984 -0.000031 0.532860
323.626709 79.455734 -0.000022 0.524025
327.491638 79.994713 -0.000017 0.524041
329.959045 80.338799 -0.000014 0.575601
331.673981 80.577957 -0.000011 0.561563
332.937469 80.754158 -0.000010 0.525277
nan nan nan 0.000000
nan nan nan 0.000000
nan nan nan 0.000000
nan nan nan 0.000000
nan nan nan 0.000000
nan nan nan 0.000000
nan nan nan 0.000000
nan nan nan 0.000000
nan nan nan 0.000000
300.485352 76.515541 -0.000052 0.541161
316.664276 78.656723 -0.000031 0.540169
323.610382 79.575996 -0.000022 0.550652
327.478973 80.087982 -0.000017 0.530800
329.948700 80.414841 -0.000013 0.523705
331.665283 80.642021 -0.000011 0.513375
332.929962 80.809395 -0.000010 0.524086
nan nan nan 0.000000
nan nan nan 0.000000
nan nan nan 0.000000
nan nan nan 0.000000
nan nan nan 0.000000
nan nan nan 0.000000
nan nan nan 0.000000
nan nan nan 0.000000
nan nan nan 0.000000
300.449066 76.797440 -0.000052 0.545144
316.642517 78.825615 -0.000031 0.534813
323.594879 79.696381 -0.000022 0.544533
327.466919 80.181343 -0.000017 0.527901
329.938904 80.490952 -0.000014 0.497047
331.657013 80.706139 -0.000011 0.545541
332.922852 80.864677 -0.000010 0.550759
nan nan nan 0.000000
nan nan nan 0.000000
nan nan nan 0.000000
nan nan nan 0.000000
nan nan nan 0.000000
nan nan nan 0.000000
nan nan nan 0.000000
nan nan nan 0.000000
nan nan nan 0.000000
300.414734 77.079575 -0.000051 0.538415
316.621948 78.994659 -0.000031 0.542565
323.580200 79.816864 -0.000022 0.547967
327.455566 80.274780 -0.000017 0.546944
329.929626 80.567123 -0.000013 0.522972
331.649200 80.770309 -0.000011 0.495537
332.916107 80.920013 -0.000010 0.521492
nan nan nan 0.000000
nan nan nan 0.000000
nan nan nan 0.000000
nan nan nan 0.000000
nan nan nan 0.000000
nan nan nan 0.000000
nan nan nan 0.000000
nan nan nan 0.000000
nan nan nan 0.000000
300.382355 77.361954 -0.000051 0.539101
316.602570 79.163841 -0.000030 0.540780
323.566376 79.937447 -0.000021 0.535348
327.444855 80.368301 -0.000016 0.526253
329.920898 80.643364 -0.000013 0.570443
331.641846 80.834541 -0.000011 0.533181
332.909760 80.975388 -0.000009 0.463172
nan nan nan 0.000000
nan nan nan 0.000000
nan nan nan 0.000000
nan nan nan 0.000000
nan nan nan 0.000000
nan nan nan 0.000000
nan nan nan 0.000000
nan nan nan 0.000000
nan nan nan 0.000000
300.351990 77.644547 -0.000051 0.537453
316.584351 79.333153 -0.000030 0.543114
323.553406 80.058121 -0.000021 0.531044
327.434784 80.461891 -0.000016 0.559243
329.912689 80.719658 -0.000013 0.542641
331.634918 80.898819 -0.000011 0.504738
332.903809 81.030815 -0.000009 0.531975
nan nan nan 0.000000
nan nan nan 0.000000
nan nan nan 0.000000
nan nan nan 0.000000
nan nan nan 0.000000
nan nan nan 0.000000
nan nan nan 0.000000
nan nan nan 0.000000
nan nan nan 0.000000
300.323547 77.927345 -0.000051 0.535958
316.567322 79.502586 -0.000030 0.546242
323.541260 80.178886 -0.000021 0.540780
327.425354 80.555550 -0.000016 0.538415
329.905029 80.796013 -0.000013 0.509209
331.628479 80.963142 -0.000011 0.511223
332.898224 81.086273 -0.000009 0.535744
nan nan nan 0.000000
nan nan nan 0.000000
nan nan nan 0.000000
nan nan nan 0.000000
nan nan nan 0.000000
nan nan nan 0.000000
nan nan nan 0.000000
nan nan nan 0.000000
nan nan nan 0.000000
300.297119 78.210335 -0.000050 0.536065
316.551483 79.672134 -0.000030 0.531319
323.529968 80.299728 -0.000022 0.542031
327.416626 80.649269 -0.000016 0.568994
329.897888 80.872414 -0.000013 0.535164
331.622437 81.027512 -0.000011 0.533425
332.893036 81.141777 -0.000009 0.521035
nan nan nan 0.000000
nan nan nan 0.000000
nan nan nan 0.000000
nan nan nan 0.000000
nan nan nan 0.000000
nan nan nan 0.000000
nan nan nan 0.000000
nan nan nan 0.000000
nan nan nan 0.000000
300.272644 78.493507 -0.000050 0.537835
316.536804 79.841789 -0.000030 0.528115
323.519531 80.420654 -0.000021 0.539925
327.408508 80.743042 -0.000016 0.519677
329.891266 80.948868 -0.000013 0.542901
331.616882 81.091919 -0.000011 0.576272
332.888245 81.197311 -0.000009 0.505150
nan nan nan 0.000000
nan nan nan 0.000000
nan nan nan 0.000000
nan nan nan 0.000000
nan nan nan 0.000000
nan nan nan 0.000000
nan nan nan 0.000000
nan nan nan 0.000000
nan nan nan 0.000000
300.250183 78.776833 -0.000050 0.547463
316.523346 80.011543 -0.000029 0.541238
323.509918 80.541641 -0.000021 0.569528
327.401062 80.836876 -0.000016 0.538186
329.885193 81.025360 -0.000013 0.521233
331.611786 81.156364 -0.000011 0.541939
332.883820 81.252876 -0.000009 0.556207
nan nan nan 0.000000
nan nan nan 0.000000
nan nan nan 0.000000
nan nan nan 0.000000
nan nan nan 0.000000
nan nan nan 0.000000
nan nan nan 0.000000
nan nan nan 0.000000
nan nan nan 0.000000
300.229675 79.060318 -0.000049 0.542229
316.511047 80.181389 -0.000029 0.544732
323.501160 80.662697 -0.000021 0.555734
327.394257 80.930763 -0.000016 0.510781
329.879669 81.101898 -0.000013 0.521263
331.607117 81.220840 -0.000010 0.528038
332.879791 81.308472 -0.000009 0.522271
nan nan nan 0.000000
nan nan nan 0.000000
nan nan nan 0.000000
nan nan nan 0.000000
nan nan nan 0.000000
nan nan nan 0.000000
nan nan nan 0.000000
nan nan nan 0.000000
nan nan nan 0.000000
300.211121 79.343933 -0.000049 0.542962
316.499969 80.351311 -0.000029 0.543359
323.493256 80.783813 -0.000021 0.541024
327.388123 81.024689 -0.000016 0.538216
329.874664 81.178467 -0.000013 0.514549
331.602905 81.285355 -0.000010 0.556588
332.876160 81.364098 -0.000009 0.536828
nan nan nan 0.000000
nan nan nan 0.000000
nan nan nan 0.000000
nan nan nan 0.000000
nan nan nan 0.000000
nan nan nan 0.000000
nan nan nan 0.000000
nan nan nan 0.000000
nan nan nan 0.000000
300.194580 79.627670 -0.000049 0.535271
316.490051 80.521317 -0.000029 0.546181
323.486176 80.904976 -0.000020 0.547906
327.382660 81.118660 -0.000015 0.522011
329.870178 81.255074 -0.000013 0.536324
331.599121 81.349892 -0.000010 0.524788
332.872925 81.419746 -0.000009 0.581567
375.477234 83.513748 10.684739 0.401984
375.477234 83.513748 9.488310 0.678431
375.161835 83.498657 8.251223 0.364172
375.161835 83.498657 7.096179 0.537057
375.477234 83.513748 5.988626 0.672694
375.477234 83.513748 4.842895 0.678431
375.434265 83.511688 3.701183 0.196536
375.161835 83.498657 2.562194 0.561944
375.161835 83.498657 1.437807 0.580728
375.161835 83.498657 0.312215 0.741451
365.209229 83.022522 -0.000002 0.549645
358.210724 82.687714 -0.000002 0.558694
354.312927 82.501244 -0.000001 0.536324
351.824554 82.382195 -0.000002 0.555169
350.095001 82.299454 -0.000001 0.528908
348.820770 82.238495 -0.000002 0.490547
375.317078 83.264954 10.641895 0.678431
375.317078 83.264954 9.451368 0.678431
375.003113 83.252129 8.220385 0.384268
375.003113 83.252129 7.071039 0.502220
375.317078 83.264954 5.968949 0.678431
375.317078 83.264954 4.828869 0.678431
375.211639 83.260643 3.689712 0.200381
375.003113 83.252129 2.559420 0.691402
375.003113 83.252129 1.440580 0.658152
375.003113 83.252129 0.320542 0.808911
365.216766 82.852402 -0.000003 0.535409
358.216095 82.566460 -0.000002 0.553796
354.317108 82.407211 -0.000002 0.554849
351.827942 82.305534 -0.000002 0.528054
350.097870 82.234871 -0.000001 0.565515
348.823242 82.182808 -0.000001 0.521080
374.845917 83.008011 10.521560 0.795239
374.845917 83.008003 9.347610 0.603769
374.845947 83.008011 8.190147 0.384405
374.845947 83.008011 7.046388 0.702663
374.845917 83.008011 5.913684 0.542931
374.845917 83.008011 4.789479 0.561502
374.845917 83.008003 3.671294 0.581094
374.845947 83.008011 2.556700 0.646830
374.845947 83.008003 1.443300 0.434455
374.845947 83.008011 0.328705 0.731228
365.223114 82.682236 -0.000002 0.543816
358.220642 82.445175 -0.000002 0.525628
354.320618 82.313148 -0.000001 0.564034
351.830811 82.228851 -0.000001 0.554177
350.100281 82.170273 -0.000001 0.516030
348.825317 82.127106 -0.000002 0.524559
374.690277 82.766243 10.480750 0.789136
374.690277 82.766243 9.312422 0.611734
374.690277 82.766235 8.160500 0.567651
374.690277 82.766235 7.022220 0.477775
374.690277 82.766235 5.894941 0.371832
374.690277 82.766235 4.776119 0.894759
374.690277 82.766235 3.663290 0.328038
374.690277 82.766243 2.554034 0.581460
374.690277 82.766243 1.445966 0.611872
374.690277 82.766243 0.336710 0.520775
365.228271 82.512032 -0.000002 0.557000
358.224304 82.323860 -0.000001 0.530083
354.323486 82.219063 -0.000001 0.536385
351.833130 82.152153 -0.000001 0.515251
350.102234 82.105652 -0.000001 0.448539
348.826996 82.071388 -0.000001 0.551217
374.536102 82.526764 10.440739 0.719844
374.536072 82.526764 9.277923 0.555535
374.536102 82.526764 8.131437 0.638743
374.536102 82.526764 6.998526 0.740566
374.536102 82.526764 5.876564 0.646387
374.536102 82.526764 4.763022 0.350225
374.536102 82.526764 3.655443 0.423484
374.536102 82.526764 2.551421 0.409110
374.536102 82.526764 1.448580 0.520806
374.536102 82.526764 0.344556 0.812741
365.232269 82.341789 -0.000003 0.535225
358.227173 82.202522 -0.000002 0.545953
354.325684 82.124962 -0.000002 0.528618
351.834930 82.075439 -0.000001 0.573388
350.103760 82.041023 -0.000001 0.540230
348.828308 82.015663 -0.000001 0.482902
374.383362 82.289528 10.401511 0.529839
374.383362 82.289528 9.244101 0.707927
374.383362 82.289520 8.102939 0.611719
374.383362 82.289520 6.975295 0.586557
374.383362 82.289520 5.858548 0.725734
374.383362 82.289528 4.750181 0.511696
374.383362 82.289520 3.647749 0.587930
374.383362 82.289520 2.548858 0.496025
374.383362 82.289520 1.451142 0.726680
374.383362 82.289520 0.352251 0.346532
365.235046 82.171532 -0.000002 0.536812
358.229156 82.081169 -0.000002 0.548424
354.327209 82.030846 -0.000001 0.511131
351.836182 81.998711 -0.000001 0.556451
350.104797 81.976379 -0.000001 0.545495
348.829224 81.959930 -0.000001 0.523644
374.432129 82.055649 10.413179 0.278233
374.432129 82.055649 9.254162 0.598383
374.232025 82.054466 8.075003 0.783642
374.231995 82.054466 6.952518 0.431693
374.432129 82.055649 5.863906 0.356985
374.432129 82.055649 4.754000 0.214771
374.432129 82.055649 3.650037 0.311055
374.232025 82.054466 2.546345 0.552850
374.232025 82.054466 1.453655 0.464729
374.232025 82.054466 0.359793 0.666438
365.236664 82.001251 -0.000002 0.534874
358.230286 81.959801 -0.000002 0.544594
354.328094 81.936714 -0.000001 0.532143
351.836914 81.921982 -0.000001 0.520790
350.105408 81.911736 -0.000002 0.558709
348.829742 81.904190 -0.000001 0.570092
374.387543 81.821213 10.401870 0.678431
374.387543 81.821220 9.244410 0.678431
374.082062 81.821541 8.047611 0.243717
374.082031 81.821541 6.930188 0.599420
374.387543 81.821213 5.858712 0.678431
374.387543 81.821220 4.750299 0.678431
374.281250 81.821327 3.642598 0.193362
374.082062 81.821541 2.543882 0.670726
374.082062 81.821541 1.456118 0.613565
374.082031 81.821541 0.367189 0.670542
365.237061 81.830963 -0.000002 0.541039
358.230591 81.838432 -0.000002 0.534493
354.328339 81.842590 -0.000001 0.544976
351.837097 81.845245 -0.000002 0.536507
350.105591 81.847092 -0.000002 0.543877
348.829865 81.848450 -0.000001 0.515557
374.237549 81.588249 10.364562 0.678431
374.237549 81.588249 9.212242 0.678431
373.933411 81.590691 8.020760 0.641489
373.933411 81.590698 6.908299 0.638773
374.237549 81.588249 5.841579 0.678431
374.237549 81.588249 4.738086 0.678431
374.131744 81.589096 3.635305 0.246754
373.933411 81.590698 2.541467 0.549249
373.933411 81.590698 1.458534 0.441489
373.933411 81.590698 0.374439 0.376593
365.236298 81.660683 -0.000002 0.530678
358.230042 81.717064 -0.000002 0.531289
354.327911 81.748466 -0.000002 0.527565
351.836731 81.768509 -0.000002 0.571008
350.105286 81.782440 -0.000002 0.532021
348.829620 81.792709 -0.000001 0.539528
374.088867 81.357330 10.327991 0.678431
374.088867 81.357330 9.180708 0.678431
373.786102 81.361877 7.994435 0.775860
373.786102 81.361877 6.886840 0.581155
374.088867 81.357330 5.824783 0.678431
374.088867 81.357330 4.726114 0.678431
373.983551 81.358910 3.628155 0.188357
373.786102 81.361877 2.539099 0.839414
373.786102 81.361877 1.460900 0.554421
373.786102 81.361885 0.381546 0.472496
365.234344 81.490410 -0.000002 0.549889
358.228638 81.595695 -0.000002 0.568048
354.326813 81.654343 -0.000002 0.531182
351.835846 81.691780 -0.000001 0.532616
350.104523 81.717796 -0.000001 0.526238
348.828979 81.736969 -0.000002 0.556039
373.941498 81.128410 10.292139 0.678431
373.941498 81.128410 9.149796 0.678431
373.640076 81.135048 7.968631 0.730495
373.640045 81.135048 6.865802 0.512413
373.941498 81.128410 5.808318 0.678431
373.941498 81.128410 4.714379 0.678431
373.640045 81.135048 3.611487 0.405447
373.640045 81.135048 2.536778 0.402197
373.640045 81.135048 1.463221 0.504387
373.640045 81.135048 0.388513 0.742077
365.231201 81.320152 -0.000003 0.530251
358.226379 81.474350 -0.000002 0.548684
354.325073 81.560226 -0.000002 0.503609
351.834442 81.615051 -0.000002 0.533928
350.103333 81.653160 -0.000001 0.506218
348.827942 81.681236 -0.000001 0.505501
373.495239 80.910141 10.181792 0.858473
373.495239 80.910149 9.054651 0.530373
373.495239 80.910141 7.943335 0.539864
373.495239 80.910141 6.845180 0.494499
373.495239 80.910149 5.757638 0.569467
373.495239 80.910141 4.678257 0.687953
373.495270 80.910141 3.604657 0.755917
373.495239 80.910141 2.534503 0.803189
373.495239 80.910141 1.465496 0.723568
373.495239 80.910141 0.395343 0.526421
365.226837 81.149918 -0.000003 0.552895
358.223297 81.353020 -0.000002 0.543221
354.322693 81.466133 -0.000001 0.559976
351.832458 81.538345 -0.000001 0.570016
350.101685 81.588531 -0.000001 0.547372
348.826538 81.625511 -0.000001 0.517433
373.351654 80.687134 10.147658 0.532784
373.351654 80.687134 9.025218 0.602472
373.351685 80.687134 7.918541 0.511513
373.351685 80.687134 6.824967 0.808530
373.351654 80.687134 5.741961 0.705394
373.351654 80.687134 4.667084 0.520653
373.351685 80.687134 3.597963 0.817700
373.351685 80.687134 2.532274 0.481529
373.351685 80.687134 1.467726 0.378408
373.351685 80.687134 0.402037 0.384756
365.221313 80.979729 -0.000002 0.537087
358.219360 81.231712 -0.000002 0.533364
354.319611 81.372055 -0.000001 0.538460
351.829987 81.461647 -0.000002 0.506340
350.099579 81.523918 -0.000002 0.553506
348.824707 81.569801 -0.000002 0.558724
373.209259 80.465965 10.114204 0.671672
373.209259 80.465965 8.996372 0.455879
373.209290 80.465958 7.894240 0.760357
373.209290 80.465965 6.805155 0.564752
373.209259 80.465965 5.726597 0.566674
373.209259 80.465965 4.656133 0.520775
373.209290 80.465965 3.591402 0.344671
373.209290 80.465965 2.530089 0.550072
373.209290 80.465965 1.469912 0.437247
373.209290 80.465965 0.408598 0.804211
365.214600 80.809570 -0.000002 0.537652
358.214539 81.110435 -0.000002 0.534951
354.315918 81.278000 -0.000002 0.522606
351.826965 81.384972 -0.000002 0.513771
350.097046 81.459320 -0.000002 0.566140
348.822510 81.514099 -0.000001 0.581674
373.068024 80.246590 10.081411 0.668254
373.068024 80.246590 8.968100 0.462608
373.068054 80.246590 7.870420 0.615228
373.068024 80.246590 6.785738 0.720623
373.068024 80.246590 5.711537 0.439887
373.068024 80.246590 4.645399 0.678431
373.068054 80.246590 3.584970 0.285145
373.068024 80.246590 2.527946 0.562005
373.068024 80.246590 1.472054 0.464515
373.068054 80.246590 0.415029 0.486458
365.206696 80.639473 -0.000003 0.540475
358.208923 80.989197 -0.000002 0.545800
354.311523 81.183968 -0.000001 0.544167
351.823395 81.308319 -0.000001 0.533776
350.094025 81.394745 -0.000001 0.520989
348.819916 81.458420 -0.000001 0.494926
372.977875 80.026131 10.061814 0.636820
372.977875 80.026123 8.951200 0.702159
372.927917 80.028969 7.847075 0.634745
372.927917 80.028976 6.766708 0.854017
372.977875 80.026123 5.702536 0.691463
372.977875 80.026131 4.638984 0.625177
372.927917 80.028976 3.578668 0.658549
372.927917 80.028976 2.525847 0.595972
372.927917 80.028976 1.474153 0.577935
372.927917 80.028976 0.421332 0.537041
365.197601 80.469429 -0.000003 0.540139
358.202454 80.867996 -0.000002 0.537865
354.306519 81.089973 -0.000001 0.501793
351.819305 81.231689 -0.000001 0.542565
350.090576 81.330193 -0.000001 0.507790
348.816956 81.402756 -0.000001 0.510689
373.082550 79.794281 10.091493 0.637064
373.082550 79.794281 8.976789 0.620676
372.788940 79.813065 7.824202 0.676616
372.788940 79.813065 6.748059 0.794461
373.082550 79.794281 5.716165 0.678431
373.082550 79.794281 4.648698 0.634562
372.788910 79.813072 3.572491 0.684092
372.788910 79.813065 2.523790 0.709041
372.788910 79.813065 1.476210 0.438010
372.788910 79.813072 0.427508 0.566537
365.187317 80.299454 -0.000002 0.538842
358.195099 80.746849 -0.000002 0.533883
354.300842 80.996017 -0.000002 0.559014
351.814667 81.155098 -0.000002 0.572000
350.086670 81.265663 -0.000002 0.569284
348.813599 81.347115 -0.000002 0.530083
372.943359 79.578079 10.060349 0.678431
372.943359 79.578079 8.949937 0.678431
372.651001 79.598839 7.801785 0.512306
372.651001 79.598839 6.729785 0.749874
372.943329 79.578079 5.701862 0.678431
372.943359 79.578079 4.638504 0.678431
372.651001 79.598839 3.566441 0.619287
372.651001 79.598839 2.521773 0.444465
372.651001 79.598839 1.478226 0.477226
372.651001 79.598839 0.433559 0.671473
365.175842 80.129555 -0.000003 0.549126
358.186951 80.625748 -0.000002 0.532708
354.294495 80.902107 -0.000001 0.535805
351.809509 81.078537 -0.000002 0.520027
350.082336 81.201157 -0.000002 0.496651
348.809845 81.291504 -0.000002 0.531548
372.805206 79.363533 10.029833 0.678431
372.805206 79.363525 8.923624 0.678431
372.514099 79.386238 7.779823 0.556069
372.514099 79.386238 6.711880 0.577935
372.805176 79.363525 5.687848 0.678431
372.805206 79.363525 4.628514 0.678431
372.514099 79.386238 3.560510 0.563317
372.514130 79.386238 2.519799 0.487449
372.514099 79.386238 1.480201 0.514107
372.514099 79.386238 0.439490 0.314672
365.163208 79.959740 -0.000003 0.542000
358.177917 80.504715 -0.000002 0.521660
354.287506 80.808235 -0.000001 0.521965
351.803802 81.002007 -0.000002 0.538643
350.077515 81.136688 -0.000001 0.523857
348.805695 81.235916 -0.000001 0.604059
372.668091 79.150581 9.999937 0.678431
372.668091 79.150581 8.897844 0.678431
372.378265 79.175232 7.758304 0.678737
372.378265 79.175232 6.694338 0.533150
372.668091 79.150581 5.674117 0.678431
372.668091 79.150581 4.618729 0.678431
372.378265 79.175232 3.554700 0.455955
372.378265 79.175232 2.517864 0.513542
372.378265 79.175232 1.482137 0.415656
372.378265 79.175232 0.445299 0.720287
365.149353 79.790016 -0.000003 0.549157
358.168060 80.383743 -0.000002 0.518151
354.279846 80.714424 -0.000002 0.544137
351.797546 80.925529 -0.000001 0.549691
350.072266 81.072258 -0.000001 0.527687
348.801147 81.180359 -0.000001 0.575540
372.243408 78.965775 9.898062 0.594018
372.243439 78.965775 8.810007 0.629831
372.243408 78.965782 7.737225 0.587961
372.243408 78.965782 6.677154 0.752590
372.243408 78.965782 5.627329 0.704387
372.243439 78.965775 4.585381 0.495277
372.243408 78.965782 3.549009 0.390066
372.243408 78.965782 2.515967 0.646113
372.243408 78.965782 1.484032 0.578851
372.243408 78.965782 0.450991 0.511894
365.134338 79.620392 -0.000003 0.549279
358.157349 80.262848 -0.000002 0.541741
354.271545 80.620659 -0.000002 0.547982
351.790802 80.849091 -0.000002 0.531411
350.066559 81.007858 -0.000001 0.509499
348.796234 81.124832 -0.000002 0.515129
372.109528 78.757843 9.869633 0.350454
372.109528 78.757843 8.785496 0.574014
372.109528 78.757843 7.716578 0.463783
372.109528 78.757843 6.660320 0.471092
372.109528 78.757843 5.614274 0.480537
372.109558 78.757843 4.576075 0.691890
372.109528 78.757843 3.543434 0.796399
372.109528 78.757843 2.514111 0.588785
372.109528 78.757843 1.485889 0.455329
372.109528 78.757843 0.456566 0.540642
365.118134 79.450882 -0.000003 0.533837
358.145813 80.142029 -0.000002 0.512535
354.262573 80.526955 -0.000002 0.518959
351.783478 80.772705 -0.000002 0.539849
350.060425 80.943504 -0.000001 0.527794
348.790955 81.069344 -0.000002 0.566278
371.976624 78.551399 9.841790 0.457237
371.976624 78.551399 8.761488 0.654917
371.976624 78.551399 7.696352 0.473045
371.976624 78.551399 6.643834 0.467094
371.976624 78.551399 5.601487 0.587671
371.976624 78.551399 4.566961 0.526284
371.976624 78.551399 3.537974 0.888823
371.976624 78.551399 2.512292 0.655589
371.976624 78.551399 1.487708 0.654124
371.976624 78.551399 0.462026 0.513573
365.100739 79.281487 -0.000003 0.544976
358.133423 80.021294 -0.000002 0.511009
354.252991 80.433319 -0.000002 0.536065
351.775665 80.696365 -0.000002 0.546532
350.053802 80.879196 -0.000001 0.490349
348.785248 81.013893 -0.000001 0.511177
371.844604 78.346390 9.814526 0.607385
371.844604 78.346390 8.737979 0.440314
371.844635 78.346390 7.676549 0.817044
371.844604 78.346390 6.627688 0.559014
371.844604 78.346390 5.588964 0.715572
371.844604 78.346390 4.558036 0.919234
371.844604 78.346390 3.532627 0.527840
371.844604 78.346390 2.510510 0.557992
371.844604 78.346390 1.489490 0.412253
371.844604 78.346390 0.467373 0.628443
365.082153 79.112221 -0.000003 0.547204
358.120178 79.900642 -0.000002 0.532799
354.242706 80.339752 -0.000002 0.542184
351.767273 80.620087 -0.000002 0.524651
350.046753 80.814934 -0.000002 0.568139
348.779175 80.958481 -0.000001 0.524147
371.713531 78.142792 9.787827 0.499840
371.713531 78.142799 8.714960 0.743160
371.713531 78.142792 7.657156 0.502129
371.713531 78.142792 6.611878 0.580316
371.713531 78.142792 5.576703 0.834638
371.713531 78.142792 4.549295 0.668254
371.713531 78.142792 3.527390 0.523842
371.713531 78.142792 2.508766 0.433524
371.713531 78.142792 1.491234 0.537148
371.713531 78.142792 0.472609 0.700130
365.062408 78.943077 -0.000003 0.535256
358.106079 79.780090 -0.000002 0.546227
354.231781 80.246262 -0.000002 0.517555
351.758392 80.543869 -0.000001 0.554955
350.039276 80.750717 -0.000002 0.522637
348.772705 80.903114 -0.000002 0.589868
371.600311 77.938416 9.765972 0.555062
371.600281 77.938416 8.696114 0.790478
371.583344 77.940575 7.638168 0.690272
371.583344 77.940575 6.596398 0.329747
371.600281 77.938416 5.566665 0.593866
371.600281 77.938416 4.542140 0.591012
371.583344 77.940575 3.522264 0.562860
371.583344 77.940575 2.507059 0.502464
371.583344 77.940575 1.492941 0.542489
371.583344 77.940575 0.477735 0.588968
365.041473 78.774086 -0.000003 0.535073
358.091187 79.659637 -0.000002 0.546304
354.220215 80.152847 -0.000002 0.542046
351.748962 80.467712 -0.000002 0.547585
350.031311 80.686562 -0.000002 0.567910
348.765839 80.847801 -0.000001 0.548730
371.735352 77.701851 9.807210 0.651347
371.735382 77.701851 8.731674 0.678431
371.454010 77.739700 7.619581 0.644175
371.454010 77.739700 6.581246 0.792279
371.735352 77.701851 5.585606 0.623163
371.735352 77.701851 4.555641 0.591989
371.454010 77.739700 3.517246 0.429282
371.454010 77.739700 2.505388 0.475120
371.454010 77.739700 1.494612 0.490349
371.454010 77.739700 0.482754 0.708965
365.019379 78.605240 -0.000003 0.549798
358.075409 79.539299 -0.000002 0.555795
354.208008 80.059517 -0.000002 0.566339
351.738983 80.391632 -0.000002 0.566049
350.022919 80.622459 -0.000002 0.539300
348.758606 80.792526 -0.000001 0.528923
371.605713 77.500450 9.781939 0.678431
371.605713 77.500450 8.709880 0.678431
371.325531 77.540131 7.601388 0.698421
371.325531 77.540138 6.566415 0.605020
371.605682 77.500458 5.573997 0.678431
371.605682 77.500458 4.547367 0.678431
371.325531 77.540131 3.512334 0.389868
371.325531 77.540138 2.503752 0.652171
371.325531 77.540138 1.496248 0.538811
371.325531 77.540131 0.487666 0.545983
364.996094 78.436562 -0.000002 0.533776
358.058807 79.419067 -0.000002 0.524819
354.195129 79.966270 -0.000001 0.538521
351.728485 80.315613 -0.000002 0.545098
350.014099 80.558418 -0.000001 0.557290
348.750977 80.737312 -0.000001 0.521416
371.476868 77.300339 9.757202 0.678431
371.476868 77.300346 8.688553 0.678431
371.197876 77.341843 7.583584 0.583856
371.197845 77.341850 6.551901 0.554238
371.476868 77.300346 5.562637 0.678431
371.476868 77.300346 4.539270 0.678431
371.197845 77.341850 3.507527 0.730877
371.197845 77.341843 2.502150 0.542916
371.197845 77.341843 1.497850 0.510719
371.197845 77.341850 0.492473 0.915160
364.971619 78.268036 -0.000002 0.538201
358.041382 79.298950 -0.000002 0.557595
354.181610 79.873123 -0.000002 0.521096
351.717468 80.239677 -0.000002 0.560815
350.004791 80.494446 -0.000002 0.513100
348.742981 80.682144 -0.000002 0.556756
371.348846 77.101494 9.733000 0.678431
371.348816 77.101494 8.667684 0.678431
371.071014 77.144806 7.566163 0.557961
371.070984 77.144806 6.537697 0.622187
371.348816 77.101494 5.551521 0.678431
371.348816 77.101494 4.531348 0.678431
371.071014 77.144806 3.502823 0.601602
371.070984 77.144806 2.500583 0.471214
371.070984 77.144806 1.499417 0.648554
371.070984 77.144806 0.497176 0.870665
364.945984 78.099693 -0.000003 0.547250
358.023102 79.178970 -0.000002 0.542641
354.167419 79.780067 -0.000002 0.557031
351.705902 80.163811 -0.000002 0.552071
349.995056 80.430534 -0.000001 0.488533
348.734589 80.627045 -0.000002 0.567575
371.221588 76.903870 9.709322 0.678431
371.221588 76.903870 8.647268 0.666667
370.944916 76.948982 7.549119 0.543984
370.944916 76.948982 6.523804 0.511131
371.221588 76.903870 5.540647 0.678431
371.221588 76.903870 4.523597 0.678431
370.944916 76.948982 3.498222 0.526818
370.944916 76.948982 2.499051 0.480659
370.944916 76.948982 1.500950 0.473960
370.944916 76.948982 0.501778 0.794339
364.919159 77.931534 -0.000003 0.535042
358.003998 79.059113 -0.000002 0.537499
354.152588 79.687111 -0.000002 0.532418
351.693817 80.088036 -0.000001 0.499443
349.984894 80.366692 -0.000002 0.548135
348.725800 80.571999 -0.000002 0.504936
370.819611 76.754341 9.616156 0.508934
370.819611 76.754341 8.566936 0.663249
370.819611 76.754349 7.532450 0.379675
370.819611 76.754341 6.510215 0.452811
370.819611 76.754341 5.497860 0.782559
370.819611 76.754349 4.493100 0.743267
370.819611 76.754349 3.493721 0.450889
370.819611 76.754349 2.497552 0.375097
370.819611 76.754349 1.502448 0.453880
370.819611 76.754349 0.506279 0.799222
364.891174 77.763565 -0.000003 0.540108
357.984039 78.939392 -0.000002 0.538384
354.137115 79.594261 -0.000002 0.560143
351.681213 80.012344 -0.000002 0.509331
349.974243 80.302925 -0.000002 0.558587
348.716644 80.517014 -0.000002 0.556542
370.695038 76.560867 9.593714 0.513420
370.695038 76.560860 8.547586 0.459220
370.695038 76.560867 7.516147 0.880293
370.695038 76.560867 6.496923 0.571298
370.695038 76.560860 5.487552 0.740780
370.695038 76.560860 4.485753 0.635340
370.695038 76.560867 3.489320 0.699153
370.695038 76.560867 2.496086 0.684459
370.695038 76.560867 1.503915 0.570809
370.695038 76.560867 0.510680 0.692500
364.862000 77.595795 -0.000003 0.530434
357.963257 78.819809 -0.000002 0.527962
354.121002 79.501526 -0.000002 0.534478
351.668060 79.936737 -0.000001 0.532204
349.963196 80.239235 -0.000002 0.522286
348.707092 80.462090 -0.000002 0.490929
370.571198 76.368507 9.571770 0.573632
370.571198 76.368507 8.528667 0.862425
370.571198 76.368515 7.500206 0.354330
370.571198 76.368507 6.483930 0.474937
370.571198 76.368507 5.477475 0.723186
370.571198 76.368507 4.478572 0.718059
370.571198 76.368515 3.485016 0.533455
370.571198 76.368507 2.494652 0.393652
370.571198 76.368507 1.505348 0.587564
370.571198 76.368507 0.514984 0.631174
364.831665 77.428230 -0.000003 0.535286
357.941620 78.700378 -0.000002 0.520256
354.104248 79.408905 -0.000002 0.533379
351.654388 79.861229 -0.000002 0.573770
349.951660 80.175613 -0.000002 0.545205
348.697174 80.407242 -0.000001 0.536583
370.448059 76.177254 9.550323 0.592691
370.448059 76.177254 8.510176 0.434180
370.448059 76.177254 7.484627 0.471061
370.448059 76.177254 6.471228 0.485725
370.448059 76.177254 5.467626 0.603189
370.448059 76.177254 4.471550 0.574746
370.448059 76.177254 3.480809 0.660136
370.448059 76.177254 2.493250 0.382147
370.448059 76.177254 1.506750 0.736141
370.448059 76.177254 0.519190 0.781323
364.800171 77.260887 -0.000003 0.546502
357.919159 78.581108 -0.000002 0.536065
354.086823 79.316399 -0.000002 0.540780
351.640198 79.785820 -0.000001 0.539345
349.939697 80.112083 -0.000002 0.536980
348.686859 80.352463 -0.000001 0.567590
370.325623 75.987068 9.529361 0.424506
370.325623 75.987068 8.492101 0.518410
370.325623 75.987076 7.469399 0.787213
370.325623 75.987076 6.458815 0.702525
370.325623 75.987076 5.457997 0.504509
370.325623 75.987068 4.464688 0.432807
370.325623 75.987076 3.476698 0.514702
370.325592 75.987076 2.491881 0.512276
370.325592 75.987076 1.508119 0.560098
370.325592 75.987076 0.523302 0.614786
364.767487 77.093765 -0.000003 0.546532
357.895874 78.461990 -0.000002 0.533913
354.068756 79.224022 -0.000002 0.546914
351.625488 79.710510 -0.000002 0.529564
349.927307 80.048637 -0.000002 0.503792
348.676178 80.297760 -0.000001 0.538537
370.351837 75.767387 9.546732 0.692485
370.351837 75.767387 8.507076 0.562158
370.203827 75.797935 7.454522 0.861372
370.203827 75.797935 6.446686 0.443809
370.351837 75.767387 5.465975 0.615869
370.351837 75.767387 4.470374 0.623346
370.203827 75.797935 3.472681 0.537789
370.203827 75.797928 2.490544 0.510048
370.203827 75.797928 1.509457 0.667582
370.203827 75.797935 0.527318 0.469856
364.733673 76.926872 -0.000003 0.551110
357.871765 78.343040 -0.000002 0.535653
354.050079 79.131767 -0.000002 0.533883
351.610229 79.635300 -0.000001 0.535241
349.914459 79.985283 -0.000001 0.508797
348.665100 80.243126 -0.000001 0.513985
370.351471 75.552383 9.557710 0.678431
370.351471 75.552383 8.516544 0.678431
370.082703 75.609810 7.439991 0.759533
370.082703 75.609810 6.434839 0.672526
370.351471 75.552383 5.471018 0.678431
370.351471 75.552383 4.473969 0.666667
370.082703 75.609810 3.468758 0.522759
370.082703 75.609810 2.489237 0.638697
370.082703 75.609810 1.510764 0.633982
370.082703 75.609810 0.531242 0.543374
364.698669 76.760223 -0.000003 0.549599
357.846832 78.224258 -0.000003 0.537850
354.030731 79.039650 -0.000002 0.554726
351.594452 79.560204 -0.000002 0.538384
349.901184 79.922012 -0.000002 0.548974
348.653625 80.188576 -0.000002 0.551141
370.229858 75.363533 9.537994 0.678431
370.229889 75.363533 8.499542 0.678431
369.962250 75.422676 7.425799 0.356542
369.962219 75.422676 6.423269 0.803998
370.229858 75.363533 5.461963 0.678431
370.229889 75.363533 4.467514 0.678431
369.962219 75.422676 3.464926 0.596582
369.962219 75.422684 2.487959 0.465370
369.962219 75.422684 1.512040 0.424155
369.962219 75.422676 0.535074 0.529519
364.662506 76.593826 -0.000003 0.542443
357.821045 78.105652 -0.000003 0.552193
354.010742 78.947670 -0.000002 0.532189
351.578156 79.485222 -0.000002 0.531075
349.887451 79.858841 -0.000001 0.518578
348.641785 80.134102 -0.000002 0.516258
370.108917 75.175659 9.518745 0.678431
370.108917 75.175659 8.482946 0.678431
369.842377 75.236511 7.411943 0.472465
369.842377 75.236511 6.411974 0.557366
370.108917 75.175659 5.453122 0.678431
370.108917 75.175659 4.461213 0.678431
369.842377 75.236511 3.461185 0.508019
369.842377 75.236511 2.486714 0.636378
369.842377 75.236511 1.513286 0.561334
369.842377 75.236511 0.538814 0.426169
364.625183 76.427681 -0.000003 0.546273
357.794434 77.987236 -0.000002 0.522942
353.990112 78.855827 -0.000002 0.548730
351.561340 79.410347 -0.000002 0.511727
349.873260 79.795761 -0.000002 0.534112
348.629578 80.079720 -0.000002 0.546471
369.988556 74.988724 9.499959 0.678431
369.988556 74.988724 8.466749 0.678431
369.723114 75.051285 7.398424 0.682277
369.723114 75.051285 6.400952 0.573144
369.988556 74.988724 5.444495 0.678431
369.988556 74.988724 4.455065 0.678431
369.723114 75.051285 3.457534 0.727703
369.723114 75.051285 2.485498 0.676234
369.723114 75.051285 1.514502 0.561395
369.723114 75.051285 0.542465 0.356329
364.586700 76.261795 -0.000003 0.539239
357.767029 77.869003 -0.000003 0.535271
353.968842 78.764137 -0.000002 0.547829
351.544006 79.335602 -0.000002 0.537209
349.858673 79.732788 -0.000001 0.530831
348.616974 80.025414 -0.000002 0.480140
369.868774 74.802719 9.481628 0.678431
369.868805 74.802719 8.450945 0.678431
369.604462 74.866966 7.385231 0.768750
369.604462 74.866974 6.390198 0.620844
369.868805 74.802719 5.436077 0.678431
369.868774 74.802719 4.449064 0.678431
369.604462 74.866974 3.453972 0.644114
369.604462 74.866974 2.484312 0.699641
369.604431 74.866974 1.515689 0.530739
369.604462 74.866974 0.546027 0.675013
364.547058 76.096191 -0.000003 0.551369
357.738770 77.750969 -0.000002 0.526040
353.946899 78.672592 -0.000001 0.551141
351.526123 79.260971 -0.000001 0.529381
349.843597 79.669914 -0.000002 0.517754
348.604004 79.971207 -0.000001 0.525261
369.486359 74.683548 9.395775 0.692180
369.486359 74.683548 8.376917 0.422492
369.486359 74.683548 7.372364 0.558190
369.486359 74.683548 6.379707 0.610361
369.486359 74.683548 5.396646 0.595224
369.486359 74.683540 4.420961 0.705043
369.486359 74.683548 3.450499 0.637873
369.486359 74.683548 2.483155 0.711818
369.486359 74.683548 1.516845 0.520607
369.486359 74.683548 0.549501 0.453819
364.506256 75.930862 -0.000003 0.546746
357.709686 77.633133 -0.000002 0.523827
353.924377 78.581207 -0.000002 0.543374
351.507751 79.186470 -0.000002 0.540475
349.828125 79.607147 -0.000002 0.547601
348.590637 79.917091 -0.000001 0.513512
369.368805 74.500992 9.378504 0.525353
369.368805 74.500992 8.362024 0.460365
369.368835 74.500992 7.359818 0.336309
369.368805 74.500992 6.369480 0.600275
369.368805 74.500992 5.388715 0.500969
369.368835 74.500992 4.415307 0.586709
369.368805 74.500992 3.447112 0.518990
369.368805 74.500992 2.482026 0.693416
369.368805 74.500992 1.517974 0.563592
369.368805 74.500992 0.552888 0.481178
364.464325 75.765823 -0.000003 0.535958
357.679779 77.515503 -0.000002 0.525338
353.901184 78.489975 -0.000002 0.522454
351.488861 79.112099 -0.000002 0.565362
349.812195 79.544495 -0.000002 0.555474
348.576904 79.863068 -0.000001 0.534188
369.251801 74.319275 9.361672 0.603647
369.251801 74.319275 8.347513 0.715068
369.251831 74.319275 7.347593 0.474876
369.251801 74.319275 6.359512 0.406348
369.251831 74.319275 5.380984 0.481361
369.251831 74.319275 4.409797 0.767559
369.251831 74.319275 3.443811 0.569574
369.251831 74.319275 2.480927 0.652506
369.251831 74.319275 1.519073 0.622553
369.251831 74.319275 0.556189 0.623972
364.421204 75.601082 -0.000003 0.543221
357.649078 77.398079 -0.000002 0.536843
353.877350 78.398911 -0.000002 0.533806
351.469421 79.037857 -0.000002 0.584924
349.795837 79.481949 -0.000001 0.517098
348.562805 79.809135 -0.000002 0.518868
369.135345 74.138374 9.345275 0.565866
369.135345 74.138374 8.333374 0.659220
369.135376 74.138374 7.335682 0.538125
369.135345 74.138374 6.349802 0.620417
369.135345 74.138374 5.373453 0.510979
369.135345 74.138374 4.404429 0.542794
369.135345 74.138374 3.440595 0.500740
369.135345 74.138374 2.479856 0.542153
369.135345 74.138374 1.520145 0.630411
369.135345 74.138374 0.559404 0.599573
364.376953 75.436646 -0.000003 0.534340
357.617523 77.280876 -0.000003 0.534798
353.852905 78.308022 -0.000002 0.552819
351.449493 78.963760 -0.000002 0.559945
349.779053 79.419525 -0.000002 0.530175
348.548309 79.755310 -0.000002 0.569986
369.019379 73.958275 9.329307 0.685542
369.019379 73.958275 8.319605 0.877485
369.019409 73.958267 7.324083 0.624613
369.019409 73.958275 6.340347 0.826459
369.019409 73.958275 5.366119 0.411399
369.019379 73.958275 4.399202 0.541665
369.019409 73.958275 3.437464 0.396765
369.019409 73.958267 2.478812 0.563882
369.019379 73.958275 1.521188 0.436561
369.019409 73.958275 0.562537 0.692821
364.331573 75.272522 -0.000003 0.538216
357.585175 77.163902 -0.000002 0.537346
353.827789 78.217300 -0.000002 0.546380
351.429047 78.889801 -0.000002 0.564721
349.761810 79.357216 -0.000002 0.550484
348.533478 79.701584 -0.000002 0.494057
368.903931 73.778946 9.313763 0.866911
368.903931 73.778946 8.306202 0.777478
368.903931 73.778938 7.312791 0.648035
368.903931 73.778946 6.331142 0.619669
368.903931 73.778946 5.358981 0.660990
368.903931 73.778946 4.394114 0.885512
368.903931 73.778938 3.434415 0.636530
368.903931 73.778946 2.477796 0.619699
368.903931 73.778946 1.522203 0.554726
368.903931 73.778946 0.565585 0.810224
364.285034 75.108719 -0.000004 0.526421
357.552002 77.047150 -0.000002 0.551659
353.802063 78.126755 -0.000002 0.562325
351.408051 78.815987 -0.000002 0.520424
349.744141 79.295029 -0.000002 0.547875
348.518219 79.647964 -0.000001 0.502266
369.029968 73.529152 9.361594 0.223468
369.029968 73.529152 8.347445 0.137148
368.788971 73.600365 7.301806 0.561044
368.788971 73.600365 6.322187 0.649531
369.029968 73.529144 5.380949 0.176776
369.029968 73.529144 4.409771 0.219867
368.788971 73.600365 3.431448 0.560891
368.788971 73.600365 2.476808 0.635340
368.788940 73.600365 1.523191 0.553445
368.788971 73.600365 0.568551 0.451957
364.237335 74.945244 -0.000004 0.538003
357.518005 76.930634 -0.000002 0.542245
353.775726 78.036392 -0.000002 0.558129
351.386566 78.742317 -0.000002 0.525673
349.726044 79.232964 -0.000001 0.522606
348.502625 79.594452 -0.000002 0.558190
368.930237 73.344986 9.350886 0.678431
368.841278 73.371956 8.318132 0.160784
368.674438 73.422508 7.291123 0.645670
368.674438 73.422508 6.313479 0.550301
368.930237 73.344986 5.376029 0.678431
368.930237 73.344986 4.406265 0.678431
368.674438 73.422508 3.428564 0.601236
368.674469 73.422508 2.475848 0.617853
368.674438 73.422516 1.524152 0.539895
368.674469 73.422508 0.571434 0.822873
364.188507 74.782112 -0.000003 0.539284
357.483215 76.814362 -0.000002 0.531945
353.748718 77.946213 -0.000002 0.624094
351.364563 78.668808 -0.000002 0.549676
349.707489 79.171036 -0.000001 0.504295
348.486633 79.541054 -0.000001 0.523674
368.815155 73.166214 9.336464 0.678431
368.726532 73.193741 8.305738 0.070832
368.560394 73.245369 7.280740 0.436637
368.560394 73.245369 6.305014 0.605081
368.815155 73.166214 5.369406 0.678431
368.815155 73.166214 4.401545 0.678431
368.560394 73.245369 3.425762 0.534417
368.560394 73.245369 2.474915 0.626505
368.560394 73.245369 1.525085 0.518364
368.560394 73.245369 0.574239 0.664393
364.138580 74.619316 -0.000004 0.537972
357.447601 76.698334 -0.000002 0.529519
353.721100 77.856224 -0.000002 0.553887
351.342072 78.595444 -0.000002 0.529427
349.688538 79.109230 -0.000002 0.495506
348.470276 79.487762 -0.000002 0.519524
368.700500 72.988129 9.322455 0.678431
368.446808 73.068901 8.256193 0.519371
368.446777 73.068909 7.270655 0.692775
368.446777 73.068909 6.296793 0.499001
368.700500 72.988129 5.362971 0.678431
368.700500 72.988129 4.396958 0.678431
368.446777 73.068909 3.423039 0.459983
368.446777 73.068909 2.474007 0.618952
368.446777 73.068909 1.525992 0.562692
368.446777 73.068909 0.576962 0.642557
364.087463 74.456879 -0.000004 0.540093
357.411194 76.582550 -0.000002 0.547707
353.692871 77.766434 -0.000002 0.525292
351.319031 78.522247 -0.000002 0.505547
349.669128 79.047562 -0.000002 0.533562
348.453552 79.434593 -0.000002 0.547555
368.586273 72.810715 9.308851 0.678431
368.333618 72.893112 8.244570 0.695857
368.333618 72.893112 7.260863 0.451835
368.333618 72.893112 6.288810 0.650874
368.586273 72.810722 5.356723 0.678431
368.586273 72.810722 4.392506 0.678431
368.333618 72.893112 3.420395 0.480201
368.333618 72.893112 2.473126 0.613977
368.333618 72.893112 1.526873 0.637934
368.333618 72.893112 0.579605 0.604288
364.035248 74.294800 -0.000004 0.543954
357.373962 76.467026 -0.000003 0.543786
353.664001 77.676842 -0.000002 0.518608
351.295502 78.449203 -0.000002 0.537865
349.649292 78.986031 -0.000002 0.531106
348.436462 79.381531 -0.000002 0.498558
368.384949 72.663177 9.272539 0.133181
368.220856 72.717957 8.233295 0.353414
368.220825 72.717957 7.251364 0.640055
368.220825 72.717964 6.281066 0.812024
368.384949 72.663177 5.340047 0.128237
368.384949 72.663177 4.380620 0.160784
368.220825 72.717957 3.417830 0.509361
368.220825 72.717957 2.472272 0.777584
368.220825 72.717957 1.527728 0.584451
368.220825 72.717957 0.582170 0.566171
363.981873 74.133087 -0.000004 0.540444
357.335938 76.351768 -0.000003 0.543938
353.634491 77.587456 -0.000002 0.537057
351.271454 78.376335 -0.000002 0.532052
349.629059 78.924637 -0.000002 0.535775
348.419006 79.328598 -0.000002 0.574136
368.108459 72.543434 9.216524 0.497719
368.108490 72.543427 8.222363 0.568338
368.108459 72.543427 7.242155 0.548745
368.108459 72.543434 6.273557 0.621241
368.108459 72.543434 5.314322 0.628061
368.108459 72.543434 4.362283 0.523171
368.108459 72.543434 3.415343 0.459541
368.108459 72.543434 2.471445 0.609400
368.108459 72.543434 1.528556 0.497108
368.108459 72.543434 0.584657 0.634287
363.927399 73.971756 -0.000003 0.536141
357.297119 76.236778 -0.000003 0.549386
353.604401 77.498276 -0.000002 0.537591
351.246887 78.303635 -0.000002 0.551812
349.608368 78.863388 -0.000001 0.518090
348.401154 79.275787 -0.000002 0.554437
367.996490 72.369507 9.204241 0.624338
367.996490 72.369499 8.211770 0.669718
367.996490 72.369507 7.233232 0.588098
367.996490 72.369499 6.266283 0.522148
367.996490 72.369507 5.308680 0.547448
367.996490 72.369507 4.358262 0.653254
367.996490 72.369507 3.412934 0.760845
367.996490 72.369507 2.470641 0.736400
367.996490 72.369507 1.529358 0.568872
367.996490 72.369507 0.587066 0.780713
363.871796 73.810806 -0.000004 0.541436
357.257477 76.122063 -0.000002 0.547448
353.573639 77.409309 -0.000002 0.538140
351.221832 78.231102 -0.000002 0.512215
349.587250 78.802284 -0.000001 0.502327
348.382965 79.223099 -0.000002 0.521111
367.884888 72.196167 9.192348 0.497475
367.884888 72.196159 8.201517 0.508553
367.884888 72.196159 7.224592 0.588159
367.884888 72.196159 6.259241 0.461555
367.884888 72.196159 5.303218 0.431479
367.884888 72.196159 4.354370 0.608972
367.884888 72.196159 3.410601 0.752178
367.884888 72.196159 2.469865 0.709728
367.884888 72.196159 1.530135 0.548424
367.884888 72.196159 0.589398 0.519844
363.815063 73.650253 -0.000003 0.548638
357.217041 76.007629 -0.000002 0.539651
353.542297 77.320557 -0.000002 0.514748
351.196289 78.158752 -0.000002 0.532006
349.565704 78.741325 -0.000002 0.531487
348.364380 79.170547 -0.000002 0.527123
367.773651 72.023376 9.180846 0.512856
367.773651 72.023376 8.191597 0.587930
367.773651 72.023376 7.216237 0.619455
367.773651 72.023384 6.252429 0.431662
367.773651 72.023384 5.297935 0.555337
367.773651 72.023376 4.350604 0.792691
367.773651 72.023376 3.408346 0.567330
367.773651 72.023376 2.469113 0.804654
367.773651 72.023376 1.530887 0.571221
367.773651 72.023376 0.591654 0.811292
363.757202 73.490097 -0.000004 0.536889
357.175781 75.893478 -0.000002 0.532357
353.510315 77.232033 -0.000002 0.541939
351.170197 78.086578 -0.000002 0.536049
349.543762 78.680527 -0.000002 0.560525
348.345459 79.118118 -0.000001 0.557595
367.662750 71.851143 9.169727 0.726452
367.662750 71.851143 8.182011 0.702007
367.662750 71.851143 7.208160 0.616449
367.662750 71.851143 6.245844 0.385855
367.662750 71.851143 5.292829 0.435630
367.662750 71.851143 4.346965 0.739254
367.662750 71.851143 3.406165 0.633494
367.662750 71.851143 2.468387 0.687465
367.662750 71.851143 1.531613 0.514855
367.662750 71.851143 0.593835 0.731426
363.698242 73.330345 -0.000003 0.530037
357.133759 75.779617 -0.000002 0.543099
353.477722 77.143723 -0.000002 0.539010
351.143646 78.014595 -0.000002 0.570275
349.521362 78.619881 -0.000002 0.567376
348.326141 79.065826 -0.000002 0.521462
367.552185 71.679428 9.158991 0.538262
367.552216 71.679428 8.172754 0.687907
367.552185 71.679428 7.200362 0.492439
367.552185 71.679428 6.239487 0.712474
367.552185 71.679428 5.287898 0.549111
367.552185 71.679428 4.343451 0.396872
367.552185 71.679428 3.404059 0.573007
367.552185 71.679428 2.467685 0.837156
367.552185 71.679428 1.532314 0.558083
367.552185 71.679428 0.595940 0.458610
363.638153 73.171013 -0.000004 0.546258
357.090942 75.666046 -0.000003 0.549493
353.444489 77.055649 -0.000002 0.544656
351.116547 77.942795 -0.000002 0.538231
349.498535 78.559387 -0.000002 0.557931
348.306488 79.013672 -0.000001 0.557763
367.441956 71.508224 9.148638 0.401236
367.441986 71.508217 8.163828 0.658976
367.441956 71.508224 7.192839 0.510094
367.441956 71.508224 6.233354 0.648753
367.441956 71.508224 5.283142 0.577890
367.441956 71.508224 4.340060 0.506477
367.441956 71.508224 3.402029 0.486946
367.441956 71.508224 2.467010 0.860487
367.441956 71.508224 1.532991 0.565087
367.441956 71.508224 0.597971 0.510628
363.576965 73.012100 -0.000004 0.543648
357.047333 75.552780 -0.000003 0.545663
353.410675 76.967812 -0.000002 0.551781
351.088989 77.871185 -0.000002 0.515160
349.475311 78.499062 -0.000002 0.549218
348.286438 78.961655 -0.000001 0.532723
367.332062 71.337502 9.138659 0.474845
367.332062 71.337494 8.155223 0.668208
367.332062 71.337502 7.185591 0.675074
367.332062 71.337502 6.227446 0.805234
367.332062 71.337502 5.278561 0.616571
367.332062 71.337502 4.336795 0.599649
367.332062 71.337502 3.400072 0.557961
367.332062 71.337502 2.466357 0.803372
367.332062 71.337502 1.533643 0.615396
367.332062 71.337502 0.599928 0.618250
363.514648 72.853622 -0.000003 0.531716
357.002930 75.439827 -0.000003 0.533303
353.376221 76.880203 -0.000002 0.533562
