# This PCD file was generated using the MATLABÂ® pcwrite function
# from Computer Vision ToolboxÂ®.
# .PCD v.7 - Point Cloud Data file format
VERSION .7
FIELDS x y z intensity
SIZE 4 4 4 4
TYPE F F F F
COUNT 1 1 1 1
WIDTH 1187
HEIGHT 1
VIEWPOINT 0 0 0 1 0 0 0
POINTS 1187
DATA ascii
-90.417717 185.336777 4.859851 0.615625
-90.417717 185.336792 4.465871 0.599924
-90.417717 185.336792 4.077423 0.655406
-90.417717 185.336792 3.693576 0.646845
-90.417717 185.336792 3.313439 0.686152
-90.417717 185.336792 2.936154 0.677562
-90.417725 185.336777 2.560889 0.638300
-90.417732 185.336777 2.186830 0.606394
-90.417740 185.336777 1.813170 0.624720
-90.417747 185.336777 1.439109 0.625223
-90.417755 185.336777 1.063843 0.615213
-90.417763 185.336777 0.686555 0.619959
-90.417763 185.336777 0.306416 0.616037
-90.009415 185.456299 -0.000013 0.541329
-88.347603 185.942719 -0.000010 0.560632
-87.123268 186.301086 -0.000009 0.537392
-90.446449 185.411484 4.861571 0.703395
-90.446442 185.411484 4.467355 0.649882
-90.446442 185.411484 4.078673 0.641657
-90.446442 185.411484 3.694595 0.657359
-90.446442 185.411484 3.314229 0.691295
-90.446449 185.411469 2.936717 0.699596
-90.446449 185.411469 2.561227 0.642649
-90.446457 185.411469 2.186942 0.612131
-90.446465 185.411469 1.813058 0.634714
-90.446472 185.411469 1.438772 0.650263
-90.446480 185.411469 1.063280 0.647257
-90.446487 185.411469 0.685766 0.618662
-90.446495 185.411469 0.305397 0.679576
-90.030716 185.530014 -0.000013 0.558343
-88.365547 186.004822 -0.000010 0.550439
-87.138741 186.354630 -0.000009 0.516503
-90.475204 185.486267 4.863432 0.640269
-90.475204 185.486267 4.468959 0.648341
-90.475204 185.486267 4.080025 0.644266
-90.475204 185.486267 3.695697 0.626581
-90.475204 185.486267 3.315084 0.633478
-90.475212 185.486267 2.937327 0.651301
-90.475220 185.486252 2.561592 0.625071
-90.475220 185.486252 2.187064 0.620661
-90.475235 185.486252 1.812936 0.642969
-90.475235 185.486252 1.438407 0.635126
-90.475243 185.486252 1.062670 0.657496
-90.475250 185.486252 0.684911 0.633967
-90.475258 185.486252 0.304295 0.676921
-90.051498 185.603882 -0.000013 0.513191
-88.383057 186.067047 -0.000010 0.523796
-87.153831 186.408295 -0.000009 0.541100
-90.504013 185.561142 4.865437 0.652873
-90.504005 185.561142 4.470687 0.664683
-90.504005 185.561142 4.081481 0.641825
-90.504013 185.561142 3.696884 0.699382
-90.504005 185.561142 3.316004 0.666758
-90.504013 185.561142 2.937983 0.677699
-90.504021 185.561142 2.561985 0.641108
-90.504028 185.561142 2.187195 0.612482
-90.504028 185.561142 1.812805 0.625513
-90.504044 185.561142 1.438014 0.671946
-90.504044 185.561142 1.062014 0.661997
-90.504051 185.561142 0.683991 0.618204
-90.504059 185.561142 0.303109 0.678080
-90.071762 185.677902 -0.000013 0.517632
-88.400131 186.129410 -0.000010 0.548409
-87.168556 186.462051 -0.000009 0.556451
-90.532852 185.636139 4.867583 0.646510
-90.532852 185.636139 4.472538 0.643183
-90.532852 185.636139 4.083040 0.644892
-90.532852 185.636139 3.698155 0.635676
-90.532852 185.636139 3.316990 0.655634
-90.532860 185.636139 2.938685 0.678431
-90.532860 185.636139 2.562406 0.646693
-90.532867 185.636139 2.187335 0.583764
-90.532875 185.636139 1.812665 0.621881
-90.532883 185.636139 1.437593 0.649607
-90.532890 185.636139 1.061311 0.641535
-90.532898 185.636139 0.683005 0.632166
-90.532898 185.636124 0.301838 0.646693
-90.091515 185.752045 -0.000013 0.538308
-88.416771 186.191879 -0.000010 0.508095
-87.182907 186.515915 -0.000009 0.558556
-90.561745 185.711258 4.869874 0.693080
-90.561745 185.711258 4.474513 0.644694
-90.561737 185.711258 4.084703 0.639826
-90.561737 185.711258 3.699511 0.652216
-90.561737 185.711258 3.318041 0.663493
-90.561737 185.711258 2.939434 0.665995
-90.561752 185.711258 2.562855 0.644388
-90.561752 185.711258 2.187485 0.646769
-90.561768 185.711243 1.812515 0.641032
-90.561768 185.711243 1.437144 0.641566
-90.561775 185.711243 1.060562 0.669718
-90.561783 185.711243 0.681953 0.616083
-90.561783 185.711243 0.300482 0.656321
-90.110748 185.826340 -0.000013 0.558556
-88.432976 186.254456 -0.000010 0.521218
-87.196869 186.569885 -0.000009 0.578576
-90.590683 185.786484 4.872306 0.660197
-90.590675 185.786484 4.476611 0.632563
-90.590675 185.786484 4.086471 0.649149
-90.590675 185.786484 3.700952 0.627344
-90.590675 185.786484 3.319160 0.640925
-90.590683 185.786484 2.940231 0.612619
-90.590683 185.786484 2.563332 0.599924
-90.590691 185.786484 2.187644 0.610773
-90.590698 185.786484 1.812356 0.606744
-90.590706 185.786484 1.436666 0.644633
-90.590714 185.786484 1.059766 0.655100
-90.590721 185.786484 0.680836 0.631815
-90.590721 185.786484 0.299041 0.668559
-90.129456 185.900757 -0.000013 0.541665
-88.448746 186.317154 -0.000010 0.547768
-87.210464 186.623932 -0.000009 0.582513
-90.619667 185.861862 4.874884 0.681682
-90.619667 185.861862 4.478833 0.670588
-90.619667 185.861862 4.088344 0.636683
-90.619659 185.861862 3.702479 0.628183
-90.619659 185.861862 3.320343 0.686168
-90.619667 185.861862 2.941075 0.651637
-90.619675 185.861847 2.563838 0.684245
-90.619675 185.861847 2.187812 0.626719
-90.619682 185.861847 1.812188 0.630518
-90.619690 185.861847 1.436161 0.666026
-90.619698 185.861847 1.058922 0.646769
-90.619705 185.861847 0.679652 0.629755
-90.619705 185.861847 0.297515 0.678126
-90.147659 185.975311 -0.000013 0.515572
-88.464066 186.379959 -0.000010 0.563226
-87.223686 186.678085 -0.000009 0.568490
-90.648705 185.937363 4.877607 0.640787
-90.648705 185.937363 4.481182 0.592813
-90.648705 185.937363 4.090322 0.630152
-90.648705 185.937363 3.704091 0.591379
-90.648705 185.937363 3.321594 0.686687
-90.648705 185.937363 2.941967 0.672724
-90.648712 185.937363 2.564372 0.645518
-90.648720 185.937363 2.187990 0.607416
-90.648727 185.937363 1.812010 0.595209
-90.648727 185.937347 1.435627 0.632349
-90.648735 185.937347 1.058031 0.596933
-90.648743 185.937347 0.678402 0.582757
-90.648743 185.937347 0.295903 0.618433
-90.165329 186.049973 -0.000013 0.536553
-88.478958 186.442871 -0.000010 0.508202
-87.236519 186.732330 -0.000009 0.541650
-90.677803 186.013016 4.880476 0.686107
-90.677803 186.013016 4.483655 0.620676
-90.677803 186.013016 4.092405 0.645914
-90.677803 186.013016 3.705790 0.599344
-90.677803 186.013016 3.322911 0.678630
-90.677803 186.013016 2.942905 0.660822
-90.677811 186.013016 2.564935 0.649790
-90.677811 186.013016 2.188177 0.612406
-90.677818 186.013016 1.811823 0.613367
-90.677826 186.013000 1.435065 0.680354
-90.677826 186.013000 1.057092 0.628840
-90.677834 186.013000 0.677085 0.657008
-90.677834 186.013000 0.294205 0.666453
-90.182472 186.124771 -0.000013 0.560876
-88.493408 186.505890 -0.000010 0.524651
-87.248978 186.786667 -0.000009 0.555108
-90.706955 186.088821 4.883490 0.656672
-90.706955 186.088821 4.486255 0.694606
-90.706955 186.088821 4.094595 0.635386
-90.706955 186.088821 3.707576 0.600839
-90.706955 186.088821 3.324296 0.639704
-90.706963 186.088821 2.943892 0.637598
-90.706963 186.088821 2.565526 0.616526
-90.706970 186.088821 2.188374 0.612314
-90.706970 186.088821 1.811626 0.614130
-90.706978 186.088821 1.434473 0.638193
-90.706985 186.088821 1.056105 0.603204
-90.706985 186.088806 0.675701 0.644190
-90.706985 186.088821 0.292420 0.668284
-90.199104 186.199692 -0.000013 0.531792
-88.507416 186.569000 -0.000010 0.559853
-87.261063 186.841080 -0.000009 0.530877
-90.736176 186.164795 4.886652 0.676905
-90.736176 186.164795 4.488981 0.663462
-90.736176 186.164795 4.096892 0.642649
-90.736176 186.164795 3.709448 0.622797
-90.736176 186.164795 3.325748 0.689906
-90.736183 186.164795 2.944928 0.697719
-90.736183 186.164795 2.566146 0.671717
-90.736183 186.164795 2.188581 0.641642
-90.736191 186.164780 1.811419 0.629877
-90.736191 186.164780 1.433853 0.618936
-90.736198 186.164780 1.055070 0.632944
-90.736198 186.164780 0.674249 0.667460
-90.736198 186.164780 0.290549 0.674479
-90.215210 186.274719 -0.000013 0.526833
-88.520981 186.632202 -0.000010 0.538628
-87.272758 186.895584 -0.000009 0.534066
-90.765457 186.240936 4.889963 0.615213
-90.765457 186.240936 4.491835 0.627573
-90.765457 186.240936 4.099297 0.583963
-90.765457 186.240936 3.711408 0.620584
-90.765457 186.240936 3.327268 0.641550
-90.765465 186.240936 2.946011 0.701762
-90.765465 186.240921 2.566795 0.664103
-90.765472 186.240921 2.188797 0.617517
-90.765472 186.240921 1.811203 0.628672
-90.765472 186.240921 1.433204 0.597299
-90.765480 186.240921 1.053987 0.628138
-90.765480 186.240921 0.672729 0.625559
-90.765472 186.240921 0.288589 0.651240
-90.230789 186.349854 -0.000012 0.560967
-88.534111 186.695511 -0.000010 0.501534
-87.284073 186.950165 -0.000008 0.547219
-90.794815 186.317245 4.893422 0.624430
-90.794815 186.317245 4.494817 0.681422
-90.794815 186.317245 4.101810 0.611994
-90.794815 186.317245 3.713457 0.620035
-90.794815 186.317245 3.328857 0.599207
-90.794815 186.317245 2.947144 0.661280
-90.794823 186.317245 2.567473 0.658442
-90.794823 186.317245 2.189023 0.641352
-90.794823 186.317245 1.810977 0.640818
-90.794823 186.317245 1.432526 0.623499
-90.794823 186.317245 1.052856 0.681788
-90.794823 186.317245 0.671142 0.675700
-90.794823 186.317245 0.286542 0.683543
-90.245842 186.425095 -0.000012 0.544030
-88.546791 186.758896 -0.000010 0.515557
-87.295013 187.004822 -0.000008 0.531823
-90.824234 186.393753 4.897030 0.658946
-90.824242 186.393753 4.497929 0.690303
-90.824234 186.393753 4.104431 0.606912
-90.824234 186.393753 3.715593 0.662165
-90.824234 186.393753 3.330514 0.607050
-90.824242 186.393753 2.948325 0.636835
-90.824242 186.393753 2.568181 0.673350
-90.824242 186.393753 2.189259 0.607187
-90.824242 186.393753 1.810741 0.626841
-90.824242 186.393753 1.431819 0.624964
-90.824242 186.393753 1.051675 0.681636
-90.824242 186.393753 0.669485 0.654292
-90.824234 186.393753 0.284406 0.681300
-90.260376 186.500443 -0.000012 0.528389
-88.559036 186.822372 -0.000010 0.528405
-87.305565 187.059555 -0.000009 0.559533
-90.853737 186.470459 4.900789 0.653635
-90.853737 186.470459 4.501170 0.686275
-90.853737 186.470459 4.107162 0.612222
-90.853737 186.470459 3.717819 0.660624
-90.853737 186.470459 3.332241 0.606439
-90.853737 186.470459 2.949555 0.664637
-90.853737 186.470444 2.568918 0.687251
-90.853737 186.470459 2.189504 0.612940
-90.853737 186.470459 1.810496 0.630060
-90.853737 186.470459 1.431082 0.616709
-90.853729 186.470459 1.050445 0.682841
-90.853729 186.470459 0.667760 0.663584
-90.853729 186.470459 0.282181 0.671717
-90.274376 186.575897 -0.000012 0.541268
-88.570831 186.885941 -0.000010 0.550927
-87.315735 187.114365 -0.000009 0.558038
-90.883316 186.547348 4.904700 0.625513
-90.883316 186.547348 4.504543 0.686290
-90.883316 186.547348 4.110002 0.612406
-90.883316 186.547348 3.720135 0.646723
-90.883316 186.547348 3.334036 0.612100
-90.883316 186.547348 2.950835 0.662364
-90.883316 186.547348 2.569685 0.686976
-90.883316 186.547348 2.189759 0.612940
-90.883308 186.547363 1.810241 0.630701
-90.883308 186.547363 1.430315 0.659617
-90.883301 186.547363 1.049166 0.657893
-90.883301 186.547363 0.665965 0.703426
-90.883301 186.547363 0.279867 0.684443
-90.287857 186.651443 -0.000012 0.494759
-88.582184 186.949585 -0.000010 0.530861
-87.325531 187.169235 -0.000009 0.541802
-90.912979 186.624466 4.908763 0.621881
-90.912979 186.624466 4.508046 0.683131
-90.912971 186.624466 4.112954 0.612268
-90.912979 186.624466 3.722542 0.649943
-90.912971 186.624466 3.335903 0.610849
-90.912979 186.624466 2.952166 0.619425
-90.912979 186.624466 2.570482 0.656321
-90.912971 186.624466 2.190025 0.611185
-90.912964 186.624466 1.809975 0.627649
-90.912956 186.624466 1.429518 0.653895
-90.912956 186.624466 1.047836 0.662379
-90.912949 186.624481 0.664100 0.694240
-90.912949 186.624481 0.277462 0.656565
-90.300804 186.727081 -0.000012 0.526085
-88.593094 187.013306 -0.000010 0.526787
-87.334930 187.224182 -0.000009 0.593851
-90.942719 186.701797 4.912980 0.633417
-90.942719 186.701797 4.511682 0.668025
-90.942719 186.701797 4.116017 0.645441
-90.942719 186.701797 3.725039 0.615106
-90.942719 186.701797 3.337839 0.611627
-90.942719 186.701797 2.953546 0.666148
-90.942726 186.701797 2.571310 0.649516
-90.942734 186.701797 2.190300 0.607309
-90.942741 186.701797 1.809699 0.628443
-90.942749 186.701797 1.428689 0.634623
-90.942757 186.701797 1.046451 0.662501
-90.942757 186.701797 0.662156 0.700267
-90.942757 186.701797 0.274955 0.647868
-90.313225 186.802795 -0.000012 0.513893
-88.603561 187.077103 -0.000010 0.554971
-87.343956 187.279190 -0.000008 0.558114
-90.972549 186.779373 4.917351 0.626795
-90.972549 186.779358 4.515451 0.629267
-90.972549 186.779358 4.119192 0.629740
-90.972549 186.779373 3.727627 0.608270
-90.972549 186.779373 3.339847 0.581689
-90.972557 186.779358 2.954977 0.646769
-90.972557 186.779358 2.572167 0.659419
-90.972565 186.779358 2.190586 0.582177
-90.972565 186.779358 1.809414 0.605722
-90.972572 186.779358 1.427832 0.625544
-90.972580 186.779358 1.045021 0.616159
-90.972572 186.779358 0.660150 0.628946
-90.972572 186.779358 0.272369 0.626841
-90.325119 186.878616 -0.000012 0.518669
-88.613579 187.140961 -0.000010 0.563027
-87.352592 187.334259 -0.000009 0.542153
-91.002472 186.857162 4.921877 0.634821
-91.002472 186.857162 4.519354 0.621653
-91.002472 186.857162 4.122481 0.660731
-91.002472 186.857162 3.730308 0.634806
-91.002472 186.857162 3.341926 0.586007
-91.002472 186.857162 2.956458 0.698863
-91.002480 186.857162 2.573054 0.681971
-91.002480 186.857162 2.190882 0.616464
-91.002480 186.857162 1.809118 0.635309
-91.002487 186.857162 1.426945 0.624277
-91.002487 186.857162 1.043540 0.638086
-91.002487 186.857162 0.658072 0.685237
-91.002487 186.857162 0.269690 0.669917
-90.336479 186.954498 -0.000012 0.530846
-88.623146 187.204910 -0.000010 0.543252
-87.360847 187.389389 -0.000008 0.549416
-91.032486 186.935211 4.926562 0.640558
-91.032486 186.935211 4.523393 0.614420
-91.032486 186.935211 4.125883 0.653361
-91.032486 186.935211 3.733082 0.624384
-91.032486 186.935211 3.344077 0.642710
-91.032494 186.935211 2.957992 0.646769
-91.032494 186.935211 2.573973 0.639567
-91.032494 186.935211 2.191188 0.614649
-91.032494 186.935211 1.808812 0.612543
-91.032494 186.935211 1.426027 0.595758
-91.032494 186.935211 1.042008 0.628626
-91.032486 186.935211 0.655923 0.664179
-91.032486 186.935211 0.266918 0.624033
-90.347305 187.030472 -0.000012 0.540566
-88.632271 187.268906 -0.000010 0.519768
-87.368713 187.444565 -0.000008 0.524605
-91.062607 187.013504 4.931405 0.656001
-91.062607 187.013504 4.527568 0.613138
-91.062607 187.013504 4.129401 0.668482
-91.062607 187.013504 3.735950 0.616358
-91.062599 187.013504 3.346302 0.627314
-91.062607 187.013504 2.959577 0.658625
-91.062607 187.013504 2.574923 0.679911
-91.062607 187.013504 2.191504 0.619974
-91.062599 187.013504 1.808496 0.646113
-91.062592 187.013519 1.425078 0.599405
-91.062592 187.013519 1.040424 0.626490
-91.062584 187.013519 0.653700 0.678431
-91.062584 187.013519 0.264053 0.655909
-90.357613 187.106506 -0.000012 0.534096
-88.640953 187.332962 -0.000010 0.529259
-87.376198 187.499817 -0.000008 0.570535
-91.092819 187.092072 4.936406 0.651148
-91.092819 187.092072 4.531880 0.587137
-91.092819 187.092072 4.133034 0.667155
-91.092819 187.092072 3.738912 0.624414
-91.092819 187.092072 3.348598 0.633600
-91.092827 187.092072 2.961214 0.657450
-91.092827 187.092072 2.575904 0.671122
-91.092834 187.092072 2.191831 0.642206
-91.092850 187.092072 1.808169 0.628031
-91.092850 187.092072 1.424094 0.618433
-91.092857 187.092072 1.038782 0.614115
-91.092857 187.092072 0.651397 0.669261
-91.092857 187.092072 0.261083 0.624033
-90.367378 187.182617 -0.000012 0.573419
-88.649185 187.397095 -0.000010 0.567163
-87.383293 187.555099 -0.000008 0.532357
-91.123138 187.170914 4.941568 0.653773
-91.123138 187.170914 4.536331 0.636713
-91.123138 187.170914 4.136784 0.683635
-91.123138 187.170914 3.741969 0.644221
-91.123138 187.170914 3.350970 0.630640
-91.123146 187.170914 2.962904 0.634638
-91.123146 187.170914 2.576916 0.653925
-91.123154 187.170914 2.192168 0.647166
-91.123154 187.170898 1.807832 0.626902
-91.123161 187.170898 1.423083 0.640284
-91.123161 187.170898 1.037094 0.659236
-91.123161 187.170898 0.649028 0.667063
-91.123161 187.170898 0.258029 0.630381
-90.376617 187.258804 -0.000012 0.545144
-88.656967 187.461273 -0.000010 0.539818
-87.390007 187.610428 -0.000008 0.587625
-91.153564 187.250031 4.946892 0.636027
-91.153572 187.250031 4.540923 0.646815
-91.153572 187.250031 4.140652 0.678996
-91.153572 187.250031 3.745121 0.632136
-91.153572 187.250031 3.353415 0.644404
-91.153572 187.250031 2.964647 0.651331
-91.153572 187.250031 2.577961 0.717830
-91.153580 187.250031 2.192516 0.613275
-91.153572 187.250031 1.807484 0.623987
-91.153572 187.250031 1.422039 0.643870
-91.153572 187.250031 1.035353 0.660594
-91.153572 187.250031 0.646585 0.670527
-91.153564 187.250031 0.254879 0.639063
-90.385330 187.335037 -0.000012 0.503258
-88.664299 187.525497 -0.000009 0.565316
-87.396332 187.665817 -0.000008 0.549844
-91.184113 187.329437 4.952380 0.696239
-91.184113 187.329437 4.545654 0.645365
-91.184113 187.329437 4.144639 0.626505
-91.184113 187.329437 3.748371 0.630472
-91.184113 187.329437 3.355935 0.638285
-91.184113 187.329437 2.966443 0.618906
-91.184113 187.329437 2.579037 0.670802
-91.184113 187.329437 2.192874 0.613413
-91.184105 187.329437 1.807126 0.633417
-91.184097 187.329437 1.420964 0.609247
-91.184097 187.329437 1.033558 0.642832
-91.184090 187.329437 0.644067 0.672786
-91.184090 187.329437 0.251631 0.626917
-90.393501 187.411346 -0.000012 0.551324
-88.671188 187.589783 -0.000010 0.560098
-87.402267 187.721237 -0.000008 0.516762
-91.214767 187.409134 4.958034 0.646571
-91.214767 187.409134 4.550529 0.657038
-91.214767 187.409134 4.148745 0.620432
-91.214767 187.409134 3.751719 0.655375
-91.214767 187.409134 3.358531 0.643381
-91.214767 187.409134 2.968294 0.612757
-91.214775 187.409134 2.580146 0.683330
-91.214783 187.409134 2.193244 0.613321
-91.214783 187.409134 1.806756 0.630747
-91.214790 187.409134 1.419853 0.617060
-91.214790 187.409134 1.031704 0.691814
-91.214790 187.409134 0.641466 0.646723
-91.214790 187.409134 0.248277 0.652979
-90.401138 187.487701 -0.000012 0.537301
-88.677628 187.654099 -0.000010 0.512489
-87.407822 187.776703 -0.000008 0.524392
-91.245537 187.489151 4.963852 0.597910
-91.245544 187.489151 4.555545 0.630152
-91.245544 187.489151 4.152972 0.615412
-91.245544 187.489151 3.755165 0.633082
-91.245544 187.489151 3.361204 0.661509
-91.245544 187.489151 2.970199 0.589578
-91.245544 187.489151 2.581287 0.639124
-91.245544 187.489151 2.193624 0.581903
-91.245544 187.489151 1.806376 0.630518
-91.245544 187.489151 1.418713 0.627298
-91.245544 187.489151 1.029801 0.696880
-91.245544 187.489151 0.638796 0.633707
-91.245544 187.489151 0.244835 0.606867
-90.408249 187.564102 -0.000012 0.542672
-88.683609 187.718475 -0.000010 0.530114
-87.412979 187.832214 -0.000008 0.538659
-91.276436 187.569489 4.969839 0.676768
-91.276443 187.569489 4.560707 0.639612
-91.276436 187.569489 4.157320 0.612924
-91.276443 187.569489 3.758711 0.670848
-91.276443 187.569489 3.363954 0.639887
-91.276443 187.569489 2.972158 0.639292
-91.276451 187.569489 2.582461 0.651865
-91.276443 187.569489 2.194015 0.614466
-91.276436 187.569489 1.805985 0.638148
-91.276428 187.569504 1.417540 0.655467
-91.276428 187.569504 1.027843 0.684459
-91.276421 187.569504 0.636049 0.640665
-91.276421 187.569504 0.241292 0.647471
-90.414825 187.640564 -0.000012 0.538338
-88.689148 187.782883 -0.000010 0.550896
-87.417755 187.887741 -0.000008 0.565789
-91.307465 187.650162 4.975996 0.614496
-91.307465 187.650162 4.566016 0.621973
-91.307465 187.650162 4.161793 0.600183
-91.307465 187.650162 3.762356 0.627894
-91.307465 187.650162 3.366781 0.641489
-91.307472 187.650162 2.974174 0.630243
-91.307472 187.650162 2.583669 0.639338
-91.307480 187.650162 2.194417 0.583261
-91.307480 187.650162 1.805582 0.645670
-91.307487 187.650162 1.416330 0.632486
-91.307480 187.650162 1.025825 0.645853
-91.307480 187.650162 0.633217 0.620508
-91.307480 187.650162 0.237642 0.641657
-90.420860 187.717056 -0.000011 0.538582
-88.694244 187.847336 -0.000010 0.521401
-87.422150 187.943314 -0.000008 0.521706
-91.338623 187.731171 4.982324 0.617792
-91.338623 187.731171 4.571473 0.640208
-91.338623 187.731171 4.166389 0.614771
-91.338623 187.731171 3.766104 0.696788
-91.338623 187.731171 3.369687 0.630365
-91.338631 187.731171 2.976245 0.660410
-91.338631 187.731171 2.584910 0.639948
-91.338623 187.731171 2.194831 0.613550
-91.338623 187.731171 1.805169 0.664286
-91.338623 187.731171 1.415091 0.650706
-91.338615 187.731171 1.023755 0.696956
-91.338615 187.731171 0.630314 0.628199
-91.338608 187.731171 0.233898 0.616297
-90.426369 187.793594 -0.000011 0.548821
-88.698883 187.911819 -0.000010 0.513512
-87.426147 187.998917 -0.000008 0.498283
-91.369911 187.812515 4.988824 0.620569
-91.369911 187.812515 4.577078 0.648539
-91.369911 187.812515 4.171112 0.646479
-91.369911 187.812515 3.769954 0.687312
-91.369911 187.812515 3.372673 0.616007
-91.369919 187.812515 2.978374 0.621225
-91.369919 187.812515 2.586185 0.623667
-91.369926 187.812515 2.195255 0.587839
-91.369934 187.812515 1.804744 0.639490
-91.369942 187.812515 1.413814 0.633570
-91.369934 187.812515 1.021625 0.684215
-91.369934 187.812515 0.627324 0.624720
-91.369934 187.812515 0.230043 0.624460
-90.431335 187.870163 -0.000011 0.532326
-88.703064 187.976334 -0.000010 0.512596
-87.429756 188.054535 -0.000007 0.561807
-91.401337 187.894241 4.995500 0.636027
-91.401337 187.894241 4.582834 0.686778
-91.401337 187.894241 4.175961 0.647364
-91.401337 187.894241 3.773907 0.694194
-91.401337 187.894241 3.375739 0.619623
-91.401344 187.894241 2.980559 0.638804
-91.401352 187.894241 2.587494 0.665324
-91.401344 187.894241 2.195692 0.619226
-91.401344 187.894241 1.804309 0.637324
-91.401344 187.894241 1.412506 0.648280
-91.401337 187.894241 1.019441 0.687709
-91.401337 187.894241 0.624261 0.618082
-91.401329 187.894241 0.226094 0.650202
-90.435776 187.946777 -0.000011 0.527581
-88.706810 188.040863 -0.000010 0.510628
-87.432983 188.110184 -0.000008 0.513298
-91.432907 187.976318 5.002353 0.632441
-91.432907 187.976318 4.588742 0.693385
-91.432907 187.976318 4.180938 0.624399
-91.432907 187.976318 3.777965 0.647288
-91.432907 187.976318 3.378886 0.663401
-91.432915 187.976318 2.982802 0.633844
-91.432922 187.976318 2.588838 0.656443
-91.432930 187.976318 2.196139 0.608576
-91.432930 187.976318 1.803861 0.632807
-91.432938 187.976318 1.411161 0.621118
-91.432930 187.976318 1.017197 0.656779
-91.432930 187.976318 0.621112 0.629770
-91.432930 187.976318 0.222032 0.682399
-90.439674 188.023422 -0.000011 0.543267
-88.710091 188.105438 -0.000010 0.533791
-87.435814 188.165863 -0.000008 0.548577
-91.464622 188.058777 5.009383 0.594018
-91.464622 188.058777 4.594804 0.678431
-91.464622 188.058777 4.186045 0.643229
-91.464630 188.058777 3.782129 0.659724
-91.464630 188.058777 3.382115 0.647913
-91.464630 188.058777 2.985103 0.634058
-91.464638 188.058777 2.590217 0.605722
-91.464630 188.058777 2.196599 0.589639
-91.464630 188.058777 1.803402 0.643015
-91.464630 188.058777 1.409784 0.608759
-91.464622 188.058777 1.014897 0.670985
-91.464622 188.058777 0.617886 0.636240
-91.464615 188.058777 0.217873 0.648722
-90.443047 188.100082 -0.000011 0.538033
-88.712929 188.170013 -0.000009 0.558602
-87.438255 188.221542 -0.000008 0.542550
-91.496490 188.141632 5.016594 0.616037
-91.496490 188.141632 4.601021 0.691279
-91.496490 188.141632 4.191284 0.642466
-91.496490 188.141632 3.786399 0.646784
-91.496490 188.141632 3.385426 0.665095
-91.496498 188.141632 2.987464 0.661677
-91.496506 188.141632 2.591631 0.655543
-91.496506 188.141632 2.197069 0.616236
-91.496513 188.141632 1.802930 0.656275
-91.496513 188.141632 1.408368 0.615885
-91.496513 188.141632 1.012535 0.658366
-91.496506 188.141632 0.614572 0.673381
-91.496506 188.141632 0.213599 0.683146
-90.445877 188.176758 -0.000011 0.542489
-88.715317 188.234619 -0.000009 0.562509
-87.440315 188.277252 -0.000008 0.564309
-91.528511 188.224899 5.023987 0.632410
-91.528511 188.224899 4.607397 0.663844
-91.528519 188.224899 4.196654 0.615213
-91.528519 188.224899 3.790777 0.620508
-91.528511 188.224899 3.388822 0.634195
-91.528519 188.224899 2.989883 0.647196
-91.528526 188.224899 2.593081 0.683757
-91.528519 188.224899 2.197552 0.659312
-91.528511 188.224899 1.802448 0.630549
-91.528511 188.224899 1.406919 0.629374
-91.528503 188.224899 1.010117 0.616587
-91.528503 188.224899 0.611179 0.629770
-91.528496 188.224899 0.209226 0.693675
-90.448174 188.253464 -0.000011 0.530190
-88.717247 188.299240 -0.000009 0.564569
-87.441986 188.332962 -0.000008 0.543526
-91.560692 188.308563 5.031565 0.686641
-91.560692 188.308563 4.613931 0.660990
-91.560699 188.308563 4.202159 0.613611
-91.560699 188.308563 3.795264 0.640696
-91.560692 188.308563 3.392302 0.644251
-91.560699 188.308563 2.992364 0.650645
-91.560707 188.308563 2.594567 0.648066
-91.560707 188.308563 2.198048 0.686580
-91.560707 188.308563 1.801952 0.654871
-91.560699 188.308563 1.405433 0.679408
-91.560699 188.308563 1.007635 0.672572
-91.560699 188.308563 0.607697 0.666270
-91.560692 188.308563 0.204736 0.682048
-90.449936 188.330185 -0.000011 0.550408
-88.718735 188.363876 -0.000010 0.542275
-87.443260 188.388687 -0.000008 0.578546
-91.593033 188.392654 5.039329 0.683787
-91.593040 188.392654 4.620625 0.613275
-91.593033 188.392654 4.207799 0.622492
-91.593040 188.392654 3.799862 0.650004
-91.593040 188.392654 3.395868 0.659220
-91.593048 188.392654 2.994906 0.640467
-91.593048 188.392654 2.596090 0.608667
-91.593056 188.392654 2.198555 0.653971
-91.593063 188.392654 1.801445 0.623972
-91.593063 188.392654 1.403909 0.706737
-91.593063 188.392654 1.005092 0.647730
-91.593056 188.392654 0.604130 0.614572
-91.593056 188.392654 0.200135 0.698741
-90.451157 188.406906 -0.000011 0.540002
-88.719765 188.428513 -0.000009 0.572274
-87.444153 188.444427 -0.000007 0.530785
-91.636314 188.477127 5.049980 0.754040
-91.636314 188.477127 4.629808 0.738354
-91.636322 188.477127 4.215536 0.740826
-91.636314 188.477127 3.806169 0.718776
-91.625549 188.477188 3.399521 0.680919
-91.625557 188.477188 2.997509 0.633555
-91.625565 188.477188 2.597650 0.646372
-91.625557 188.477188 2.199075 0.671626
-91.625549 188.477188 1.800926 0.625360
-91.625542 188.477188 1.402351 0.671672
-91.625542 188.477188 1.002491 0.658991
-91.625542 188.477188 0.600480 0.621134
-91.625534 188.477188 0.195430 0.683940
-90.451851 188.483643 -0.000011 0.542931
-88.720345 188.493164 -0.000009 0.529595
-87.444656 188.500168 -0.000008 0.533394
-91.727440 188.562271 5.072762 0.678431
-91.727440 188.562271 4.649452 0.678431
-91.727440 188.562271 4.232085 0.678431
-91.727440 188.562271 3.819661 0.678431
-91.658234 188.562164 3.403261 0.687922
-91.658241 188.562164 3.000175 0.632166
-91.658249 188.562164 2.599247 0.649882
-91.658241 188.562164 2.199606 0.689265
-91.658241 188.562164 1.800394 0.661555
-91.658241 188.562164 1.400753 0.689219
-91.658234 188.562164 0.999825 0.664149
-91.658234 188.562164 0.596739 0.675364
-91.658234 188.562164 0.190606 0.677211
-90.452003 188.560379 -0.000011 0.558450
-88.720474 188.557800 -0.000009 0.542962
-87.444763 188.555908 -0.000008 0.512123
-91.760483 188.648193 5.081146 0.678431
-91.760483 188.648193 4.656682 0.678431
-91.760483 188.648193 4.238175 0.678431
-91.760490 188.648193 3.824627 0.678431
-91.691093 188.647614 3.407091 0.690715
-91.691101 188.647614 3.002905 0.613321
-91.691109 188.647614 2.600883 0.636851
-91.691109 188.647614 2.200151 0.592752
-91.691109 188.647614 1.799849 0.633387
-91.691109 188.647614 1.399117 0.687343
-91.691101 188.647614 0.997095 0.613642
-91.691101 188.647614 0.592909 0.653437
-91.691101 188.647614 0.185667 0.636347
-90.451622 188.637115 -0.000011 0.574777
-88.720154 188.622452 -0.000009 0.550927
-87.444489 188.611649 -0.000007 0.497520
-91.793716 188.734589 5.089730 0.678431
-91.793716 188.734589 4.664082 0.678431
-91.793716 188.734589 4.244410 0.678431
-91.793716 188.734589 3.829708 0.678431
-91.724136 188.733521 3.411010 0.684291
-91.724144 188.733521 3.005698 0.613260
-91.724152 188.733521 2.602556 0.624002
-91.724152 188.733521 2.200709 0.677058
-91.724159 188.733521 1.799291 0.638102
-91.724159 188.733521 1.397443 0.687037
-91.724152 188.733521 0.994301 0.620752
-91.724152 188.733521 0.588989 0.662455
-91.724152 188.733521 0.180613 0.612604
-90.450706 188.713837 -0.000011 0.539025
-88.719376 188.687103 -0.000009 0.519326
-87.443817 188.667389 -0.000007 0.531929
-91.827133 188.821472 5.098511 0.678431
-91.827141 188.821472 4.671654 0.678431
-91.827133 188.821472 4.250789 0.678431
-91.827141 188.821472 3.834909 0.678431
-91.757370 188.819916 3.415020 0.630457
-91.757370 188.819916 3.008556 0.588235
-91.757378 188.819916 2.604269 0.657359
-91.757385 188.819916 2.201279 0.656001
-91.757393 188.819916 1.798721 0.633387
-91.757393 188.819916 1.395730 0.641337
-91.757385 188.819916 0.991442 0.589227
-91.757385 188.819916 0.584978 0.653468
-91.757378 188.819916 0.175441 0.617594
-90.449249 188.790573 -0.000011 0.550851
-88.718155 188.751740 -0.000009 0.506371
-87.442764 188.723129 -0.000007 0.555367
-91.860748 188.908859 5.107495 0.678431
-91.860748 188.908859 4.679399 0.678431
-91.860748 188.908859 4.257314 0.678431
-91.860748 188.908859 3.840229 0.678431
-91.790787 188.906799 3.419122 0.644846
-91.790787 188.906799 3.011480 0.613962
-91.790802 188.906799 2.606020 0.614633
-91.790810 188.906799 2.201863 0.664683
-91.790810 188.906799 1.798137 0.633234
-91.790810 188.906799 1.393978 0.675639
-91.790810 188.906799 0.988518 0.613275
-91.790802 188.906799 0.580876 0.645960
-91.790802 188.906799 0.170151 0.609751
-90.447266 188.867279 -0.000011 0.499275
-88.716476 188.816360 -0.000009 0.487297
-87.441322 188.778839 -0.000007 0.532433
-91.894554 188.996765 5.116683 0.678431
-91.894554 188.996765 4.687321 0.678431
-91.894554 188.996765 4.263988 0.678431
-91.894554 188.996765 3.845670 0.678431
-91.824402 188.994202 3.423319 0.612268
-91.824409 188.994202 3.014471 0.671153
-91.824417 188.994202 2.607812 0.623789
-91.824425 188.994202 2.202460 0.671855
-91.824432 188.994202 1.797540 0.641443
-91.824432 188.994202 1.392187 0.658824
-91.824425 188.994202 0.985528 0.645960
-91.824425 188.994202 0.576679 0.698268
-91.824417 188.994202 0.164741 0.627619
-90.444733 188.943970 -0.000011 0.549447
-88.714355 188.880981 -0.000008 0.554269
-87.439491 188.834564 -0.000008 0.561044
-91.928566 189.085175 5.126078 0.678431
-91.928558 189.085175 4.695422 0.678431
-91.928566 189.085175 4.270813 0.678431
-91.928566 189.085175 3.851233 0.678431
-91.858215 189.082123 3.427609 0.597726
-91.858223 189.082123 3.017529 0.609979
-91.858231 189.082123 2.609645 0.623941
-91.858238 189.082123 2.203070 0.663127
-91.858246 189.082123 1.796930 0.637690
-91.858246 189.082123 1.390355 0.631708
-91.858238 189.082123 0.982469 0.619684
-91.858238 189.082123 0.572389 0.688319
-91.858231 189.082123 0.159209 0.614191
-90.441673 189.020645 -0.000011 0.547295
-88.711777 188.945572 -0.000009 0.556848
-87.437263 188.890259 -0.000008 0.563836
-91.962776 189.174149 5.135684 0.678431
-91.962784 189.174149 4.703705 0.678431
-91.962776 189.174149 4.277791 0.678431
-91.962784 189.174149 3.856922 0.678431
-91.892242 189.170593 3.431995 0.612131
-91.892250 189.170593 3.020656 0.641215
-91.892250 189.170593 2.611518 0.618662
-91.892265 189.170593 2.203694 0.647120
-91.892265 189.170593 1.796306 0.632853
-91.892265 189.170593 1.388481 0.665156
-91.892258 189.170593 0.979343 0.643153
-91.892258 189.170593 0.568003 0.684581
-91.892258 189.170593 0.153553 0.643641
-90.438080 189.097305 -0.000010 0.512963
-88.708748 189.010147 -0.000009 0.506981
-87.434654 188.945938 -0.000007 0.580972
-91.997208 189.263657 5.145501 0.678431
-91.997208 189.263657 4.712170 0.678431
-91.997208 189.263657 4.284923 0.678431
-91.997208 189.263657 3.862736 0.678431
-91.926476 189.259598 3.436479 0.635950
-91.926476 189.259598 3.023851 0.653651
-91.926491 189.259598 2.613433 0.624933
-91.926498 189.259598 2.204332 0.661692
-91.926498 189.259598 1.795668 0.633738
-91.926498 189.259598 1.386567 0.661570
-91.926491 189.259598 0.976148 0.649805
-91.926491 189.259598 0.563520 0.665873
-91.926491 189.259598 0.147772 0.641611
-90.433945 189.173920 -0.000010 0.532769
-88.705269 189.074707 -0.000009 0.530144
-87.431656 189.001602 -0.000007 0.561868
-92.031853 189.353729 5.155536 0.678431
-92.031853 189.353729 4.720822 0.678431
-92.031853 189.353729 4.292211 0.678431
-92.031853 189.353729 3.868678 0.678431
-91.960930 189.349167 3.441061 0.607004
-91.960930 189.349167 3.027117 0.618372
-91.960938 189.349167 2.615389 0.625315
-91.960945 189.349167 2.204983 0.686259
-91.960945 189.349167 1.795017 0.631083
-91.960938 189.349167 1.384610 0.624994
-91.960938 189.349167 0.972882 0.661372
-91.960938 189.349167 0.558938 0.666972
-91.960930 189.349167 0.141864 0.591257
-90.429283 189.250519 -0.000010 0.574624
-88.701340 189.139236 -0.000009 0.514946
-87.428261 189.057236 -0.000007 0.524102
-92.066727 189.444397 5.165788 0.678431
-92.066727 189.444397 4.729662 0.678431
-92.066719 189.444397 4.299659 0.678431
-92.066727 189.444397 3.874750 0.678431
-91.995598 189.439316 3.445743 0.635294
-91.995605 189.439316 3.030454 0.675746
-91.995605 189.439316 2.617388 0.625925
-91.995613 189.439316 2.205649 0.661585
-91.995613 189.439316 1.794351 0.634165
-91.995613 189.439316 1.382611 0.677638
-91.995605 189.439316 0.969545 0.658885
-91.995605 189.439316 0.554256 0.691707
-91.995598 189.439316 0.135827 0.617090
-90.424088 189.327087 -0.000010 0.522622
-88.696953 189.203735 -0.000009 0.546975
-87.424484 189.112854 -0.000007 0.507256
-92.101822 189.535660 5.176265 0.678431
-92.101822 189.535660 4.738695 0.678431
-92.101822 189.535660 4.307269 0.678431
-92.101822 189.535660 3.880953 0.678431
-92.030502 189.530060 3.450527 0.629755
-92.030502 189.530060 3.033864 0.677562
-92.030510 189.530060 2.619431 0.641321
-92.030510 189.530060 2.206330 0.588617
-92.030510 189.530060 1.793670 0.605295
-92.030502 189.530060 1.380568 0.628733
-92.030502 189.530060 0.966136 0.640528
-92.030502 189.530060 0.549472 0.580575
-92.030495 189.530060 0.129659 0.595804
-90.418350 189.403610 -0.000010 0.526528
-88.692123 189.268204 -0.000009 0.567666
-87.420319 189.168442 -0.000007 0.534646
-92.126381 189.626602 5.184256 0.122606
-92.126381 189.626602 4.745586 0.105974
-92.126389 189.626602 4.313075 0.113741
-92.126389 189.626602 3.885687 0.116503
-92.065636 189.621414 3.455414 0.653986
-92.065643 189.621414 3.037347 0.648234
-92.065643 189.621414 2.621519 0.672511
-92.065659 189.621414 2.207025 0.700862
-92.065659 189.621414 1.792975 0.599100
-92.065659 189.621414 1.378481 0.597543
-92.065651 189.621414 0.962651 0.647166
-92.065643 189.621414 0.544585 0.652033
-92.065643 189.621414 0.123356 0.593881
-90.412079 189.480087 -0.000010 0.536904
-88.686844 189.332626 -0.000008 0.497749
-87.415764 189.223999 -0.000007 0.551064
-92.139389 189.716934 5.189507 0.827451
-92.139389 189.716934 4.750113 0.820920
-92.139389 189.716934 4.316888 0.839216
-92.172714 189.720016 3.893760 0.678431
-92.100998 189.713379 3.460404 0.675853
-92.101013 189.713379 3.040905 0.680690
-92.101021 189.713379 2.623650 0.614343
-92.101028 189.713379 2.207735 0.655406
-92.101021 189.713379 1.792265 0.612039
-92.101021 189.713379 1.376350 0.623285
-92.101021 189.713379 0.959094 0.668940
-92.101013 189.713379 0.539594 0.643961
-92.101013 189.713379 0.116922 0.683223
-90.405281 189.556519 -0.000010 0.542763
-88.681114 189.397018 -0.000009 0.573388
-87.410828 189.279510 -0.000007 0.529091
-92.208534 189.813141 5.209051 0.678431
-92.208534 189.813141 4.766965 0.678431
-92.208534 189.813141 4.331087 0.678431
-92.208542 189.813141 3.900370 0.678431
-92.143127 189.806641 3.466254 0.708553
-92.136635 189.805984 3.044538 0.693507
-92.136642 189.805984 2.625827 0.619074
-92.136642 189.805984 2.208460 0.638148
-92.136635 189.805984 1.791540 0.613046
-92.136635 189.805984 1.374173 0.624216
-92.136627 189.805984 0.955462 0.629419
-92.136627 189.805984 0.534497 0.629389
-92.136627 189.805984 0.110350 0.684871
-90.397949 189.632904 -0.000010 0.527596
-88.674934 189.461380 -0.000008 0.548730
-87.405502 189.335007 -0.000007 0.544121
-92.244614 189.906937 5.220449 0.678431
-92.244606 189.906937 4.776793 0.678431
-92.244614 189.906937 4.339366 0.678431
-92.244621 189.906937 3.907120 0.678431
-92.183746 189.900452 3.472009 0.747616
-92.172501 189.899246 3.048247 0.661753
-92.172508 189.899246 2.628049 0.645228
-92.172516 189.899246 2.209201 0.698573
-92.172516 189.899246 1.790800 0.635554
-92.172508 189.899246 1.371951 0.624811
-92.172501 189.899246 0.951752 0.633417
-92.172501 189.899246 0.529292 0.652903
-92.172501 189.899246 0.103638 0.663630
-90.390076 189.709229 -0.000010 0.548959
-88.668304 189.525681 -0.000008 0.567239
-87.399788 189.390457 -0.000007 0.538018
-92.249313 189.997803 5.224113 0.823407
-92.249321 189.997803 4.779953 0.819608
-92.249321 189.997803 4.342027 0.839582
-92.280952 190.001404 3.914012 0.678431
-92.219910 189.994461 3.477328 0.748928
-92.208633 189.993179 3.052035 0.634241
-92.208633 189.993179 2.630319 0.644480
-92.208633 189.993179 2.209956 0.676921
-92.208633 189.993179 1.790044 0.636667
-92.208633 189.993179 1.369681 0.628885
-92.208633 189.993179 0.947964 0.688518
-92.208626 189.993179 0.523978 0.655146
-92.208626 189.993179 0.096786 0.634104
-90.381676 189.785507 -0.000010 0.540063
-88.661224 189.589935 -0.000008 0.537453
-87.393684 189.445862 -0.000007 0.517693
-92.256340 190.089172 5.228523 0.780499
-92.256340 190.089172 4.783755 0.765362
-92.256340 190.089172 4.345231 0.766079
-92.256340 190.089172 3.911901 0.785931
-92.256332 190.089172 3.482759 0.751858
-92.245026 190.087799 3.055902 0.651408
-92.245026 190.087799 2.632636 0.601831
-92.245033 190.087799 2.210728 0.637293
-92.245026 190.087799 1.789272 0.619654
-92.245026 190.087799 1.367364 0.619394
-92.245026 190.087799 0.944098 0.642847
-92.245018 190.087799 0.518553 0.627878
-92.245018 190.087799 0.089791 0.618860
-90.372742 189.861725 -0.000010 0.530709
-88.653702 189.654144 -0.000008 0.519799
-87.387192 189.501221 -0.000007 0.555581
-92.281677 190.183121 5.237726 0.671412
-92.281677 190.183121 4.791689 0.669367
-92.281677 190.183121 4.351914 0.625086
-92.281677 190.183121 3.917350 0.654856
-92.281677 190.183121 3.486985 0.664546
-92.281685 190.183121 3.059849 0.654353
-92.281693 190.183121 2.635001 0.624430
-92.281693 190.183121 2.211515 0.663447
-92.281685 190.183121 1.788484 0.619440
-92.281685 190.183121 1.365000 0.598627
-92.281677 190.183121 0.940151 0.672679
-92.281677 190.183121 0.513015 0.614115
-92.281677 190.183121 0.082650 0.615549
-90.363281 189.937881 -0.000010 0.539086
-88.645729 189.718307 -0.000008 0.521599
-87.380318 189.556534 -0.000006 0.555947
-92.318619 190.279160 5.250033 0.621057
-92.318619 190.279160 4.802301 0.631266
-92.318611 190.279160 4.360855 0.650919
-92.318619 190.279160 3.924638 0.623484
-92.318619 190.279160 3.492637 0.668315
-92.318619 190.279160 3.063878 0.653895
-92.318626 190.279160 2.637414 0.637980
-92.318626 190.279160 2.212320 0.672557
-92.318626 190.279160 1.787680 0.592706
-92.318626 190.279160 1.362586 0.622202
-92.318619 190.279160 0.936122 0.660517
-92.318619 190.279160 0.507363 0.614893
-92.318611 190.279160 0.075362 0.617395
-90.353279 190.013962 -0.000010 0.537652
-88.637306 189.782410 -0.000008 0.538979
-87.373055 189.611801 -0.000006 0.594125
-92.355835 190.375946 5.262594 0.593347
-92.355835 190.375931 4.813132 0.643168
-92.355835 190.375931 4.369981 0.595117
-92.355835 190.375931 3.932077 0.637766
-92.355835 190.375931 3.498407 0.623209
-92.355843 190.375946 3.067990 0.616114
-92.355850 190.375946 2.639878 0.619211
-92.367233 190.377563 2.213328 0.788052
-92.367233 190.377563 1.786672 0.776471
-92.367233 190.377563 1.359557 0.781567
-92.367233 190.377563 0.931066 0.777310
-92.367233 190.377563 0.500270 0.778027
-92.367233 190.377563 0.066216 0.797955
-90.342751 190.089966 -0.000010 0.514336
-88.628433 189.846436 -0.000008 0.541894
-87.365402 189.667023 -0.000006 0.529961
-92.393356 190.473465 5.275414 0.643931
-92.393356 190.473465 4.824185 0.629694
-92.393349 190.473465 4.379292 0.591028
-92.393349 190.473465 3.939668 0.645838
-92.393349 190.473465 3.504294 0.682048
-92.393356 190.473465 3.072186 0.647562
-92.393364 190.473480 2.642392 0.627604
-92.478065 190.486115 2.215379 0.678431
-92.432602 190.479324 1.785373 0.129412
-92.432602 190.479324 1.355659 0.135027
-92.432602 190.479324 0.924560 0.181888
-92.421234 190.477631 0.492463 0.450980
-92.421234 190.477631 0.056149 0.450980
-90.331696 190.165909 -0.000010 0.535470
-88.619118 189.910416 -0.000008 0.537545
-87.357376 189.722183 -0.000006 0.509911
-92.431160 190.571777 5.288495 0.614939
-92.431160 190.571777 4.835464 0.625971
-92.431160 190.571777 4.388794 0.641810
-92.431160 190.571777 3.947415 0.672602
-92.431160 190.571777 3.510302 0.670130
-92.431168 190.571777 3.076468 0.650172
-92.431168 190.571777 2.644957 0.675044
-92.516121 190.585068 2.216239 0.678431
-92.470528 190.577942 1.784516 0.154879
-92.470520 190.577942 1.353086 0.128893
-92.470528 190.577942 0.920265 0.178164
-92.459129 190.576157 0.486442 0.450980
-92.459129 190.576157 0.048386 0.459983
-90.320107 190.241760 -0.000010 0.560678
-88.609360 189.974319 -0.000008 0.538109
-87.348953 189.777283 -0.000006 0.534936
-92.469276 190.670883 5.301841 0.615732
-92.469276 190.670883 4.846972 0.656931
-92.469276 190.670883 4.398490 0.632029
-92.469276 190.670883 3.955319 0.667475
-92.469276 190.670883 3.516431 0.613016
-92.469284 190.670883 3.080837 0.643854
-92.469292 190.670883 2.647575 0.672175
-92.554489 190.684814 2.217117 0.678431
-92.508759 190.677338 1.783641 0.123323
-92.508759 190.677338 1.350460 0.126467
-92.508759 190.677338 0.915883 0.176730
-92.497330 190.675461 0.480299 0.462745
-92.497330 190.675461 0.040465 0.453056
-90.307991 190.317535 -0.000010 0.545388
-88.599152 190.038162 -0.000008 0.508537
-87.340157 189.832321 -0.000006 0.503716
-92.507706 190.770798 5.315460 0.700557
-92.507706 190.770798 4.858716 0.652171
-92.507706 190.770798 4.408382 0.692531
-92.507706 190.770798 3.963384 0.643412
-92.507706 190.770798 3.522686 0.590539
-92.507713 190.770798 3.085295 0.625132
-92.507713 190.770798 2.650246 0.642130
-92.593170 190.785385 2.218013 0.678431
-92.547302 190.777557 1.782749 0.108934
-92.547302 190.777557 1.347781 0.150622
-92.547302 190.777557 0.911411 0.158114
-92.535835 190.775589 0.474031 0.451392
-92.535843 190.775604 0.032382 0.457420
-90.295341 190.393219 -0.000009 0.568521
-88.588493 190.101929 -0.000008 0.549859
-87.330971 189.887299 -0.000006 0.517586
-92.546455 190.871536 5.329354 0.666667
-92.546455 190.871536 4.870696 0.661707
-92.546455 190.871536 4.418475 0.681468
-92.546448 190.871536 3.971611 0.656779
-92.546455 190.871536 3.529067 0.614633
-92.546463 190.871536 3.089844 0.631251
-92.546463 190.871536 2.652972 0.639612
-92.632172 190.886780 2.218926 0.678431
-92.586166 190.878601 1.781838 0.130480
-92.586166 190.878601 1.345047 0.129412
-92.586166 190.878601 0.906849 0.163821
-92.574669 190.876556 0.467636 0.451530
-92.574669 190.876556 0.024137 0.461784
-90.282173 190.468811 -0.000010 0.541726
-88.577393 190.165604 -0.000007 0.547707
-87.321396 189.942215 -0.000006 0.558541
-92.585526 190.973145 5.343529 0.589319
-92.585533 190.973145 4.882916 0.652033
-92.585526 190.973145 4.428771 0.664378
-92.585533 190.973145 3.980006 0.651621
-92.585533 190.973145 3.535577 0.645335
-92.585533 190.973145 3.094483 0.600855
-92.585541 190.973145 2.655751 0.670390
-92.671509 190.989059 2.219858 0.678431
-92.625366 190.980515 1.780910 0.139528
-92.625366 190.980515 1.342259 0.136858
-92.625366 190.980515 0.902195 0.172610
-92.613831 190.978378 0.461112 0.461280
-92.613831 190.978378 0.015724 0.475898
-90.268471 190.544327 -0.000009 0.544228
-88.565849 190.229218 -0.000007 0.547448
-87.311447 189.997070 -0.000006 0.526192
-92.624939 191.075607 5.357989 0.621546
-92.624947 191.075607 4.895386 0.627634
-92.624939 191.075607 4.439277 0.622217
-92.624947 191.075607 3.988570 0.650874
-92.624939 191.075607 3.542219 0.612116
-92.624947 191.075607 3.099217 0.624262
-92.624954 191.075607 2.658587 0.625925
-92.711174 191.092194 2.220809 0.678431
-92.664894 191.083298 1.779962 0.139269
-92.664894 191.083298 1.339414 0.142580
-92.664894 191.083298 0.897447 0.162783
-92.653328 191.081070 0.454456 0.453559
-92.700699 191.090179 -0.000012 0.548150
-90.254242 190.619720 -0.000009 0.547936
-88.553864 190.292740 -0.000007 0.514076
-87.301109 190.051834 -0.000006 0.559670
-92.664696 191.178986 5.372740 0.650782
-92.664703 191.178986 4.908104 0.635935
-92.664703 191.178986 4.449992 0.640436
-92.664703 191.178986 3.997305 0.647959
-92.664703 191.178986 3.548994 0.625071
-92.664703 191.178986 3.104046 0.632395
-92.664711 191.178986 2.661481 0.681926
-92.751190 191.196243 2.221779 0.678431
-92.704773 191.186981 1.778996 0.138933
-92.704773 191.186981 1.336512 0.127901
-92.704773 191.186981 0.892604 0.154299
-92.693176 191.184662 0.447667 0.454307
-92.682594 191.182556 -0.000012 0.541085
-90.239487 190.695038 -0.000009 0.540780
-88.541435 190.356186 -0.000007 0.534112
-87.290390 190.106537 -0.000006 0.534920
-92.704803 191.283264 5.387786 0.633799
-92.704811 191.283264 4.921079 0.655589
-92.704811 191.283264 4.460922 0.654612
-92.704811 191.283264 4.006216 0.630198
-92.704811 191.283264 3.555904 0.628244
-92.704819 191.283264 3.108971 0.632563
-92.704819 191.283264 2.664431 0.656275
-92.791565 191.301208 2.222769 0.678431
-92.745010 191.291580 1.778009 0.138842
-92.745003 191.291580 1.333552 0.137102
-92.745003 191.291580 0.887663 0.163043
-92.733368 191.289169 0.440741 0.456748
-92.663857 191.274796 -0.000012 0.534051
-90.224205 190.770233 -0.000009 0.528771
-88.528564 190.419540 -0.000007 0.563058
-87.279297 190.161163 -0.000006 0.533486
-92.745277 191.388489 5.403136 0.607294
-92.745277 191.388489 4.934312 0.675486
-92.745285 191.388489 4.472071 0.590143
-92.745285 191.388489 4.015305 0.624720
-92.745277 191.388489 3.562953 0.559380
-92.745285 191.388489 3.113995 0.670848
-92.745293 191.388489 2.667442 0.612589
-92.832298 191.407120 2.223778 0.678431
-92.785599 191.397125 1.777004 0.180987
-92.785599 191.397125 1.330533 0.124819
-92.762833 191.392258 0.884533 0.462745
-92.773926 191.394623 0.433677 0.455558
-92.644470 191.366913 -0.000012 0.543038
-90.208405 190.845322 -0.000009 0.532815
-88.515251 190.482803 -0.000007 0.538949
-87.267815 190.215714 -0.000006 0.514366
-92.786118 191.494675 5.418791 0.652811
-92.786125 191.494690 4.947812 0.613092
-92.786125 191.494675 4.483444 0.674876
-92.786125 191.494690 4.024576 0.615900
-92.786125 191.494690 3.570143 0.643915
-92.786125 191.494690 3.119120 0.621088
-92.786133 191.494690 2.670512 0.682109
-92.797905 191.497284 2.223541 0.776471
-92.797905 191.497284 1.776458 0.784237
-92.797905 191.497284 1.328895 0.788251
-92.797905 191.497284 0.879890 0.783001
-92.797905 191.497284 0.428468 0.777676
-92.624435 191.458878 -0.000011 0.541573
-90.192078 190.920303 -0.000009 0.527535
-88.501495 190.545975 -0.000007 0.586358
-87.255951 190.270187 -0.000006 0.532815
-92.827339 191.601852 5.434760 0.651713
-92.827347 191.601852 4.961580 0.664836
-92.827347 191.601852 4.495044 0.661509
-92.827347 191.601852 4.034033 0.728893
-92.827347 191.601852 3.577477 0.650584
-92.827347 191.601852 3.124348 0.687984
-92.827354 191.601852 2.673644 0.669993
-92.827354 191.601852 2.224388 0.658030
-92.827354 191.601852 1.775612 0.660060
-92.827354 191.601852 1.326356 0.613275
-92.827347 191.601852 0.875652 0.665827
-92.827347 191.601852 0.422523 0.644190
-92.603767 191.550705 -0.000011 0.525078
-90.175224 190.995163 -0.000009 0.545907
-88.487297 190.609039 -0.000007 0.553368
-87.243713 190.324570 -0.000006 0.538430
-92.868950 191.710037 5.451048 0.625574
-92.868958 191.710037 4.975625 0.638956
-92.868958 191.710037 4.506875 0.655451
