# This PCD file was generated using the MATLAB® pcwrite function
# from Computer Vision Toolbox®.
# .PCD v.7 - Point Cloud Data file format
VERSION .7
FIELDS x y z intensity
SIZE 4 4 4 4
TYPE F F F F
COUNT 1 1 1 1
WIDTH 1215
HEIGHT 1
VIEWPOINT 0 0 0 1 0 0 0
POINTS 1215
DATA ascii
323.937561 -48.810310 1.731548 0.670222
323.937561 -48.810310 1.194068 0.670222
323.937561 -48.810314 0.654855 0.670222
323.856873 -48.747200 0.124527 0.807843
321.635742 -47.009945 0.000004 0.523095
319.673462 -45.475121 0.000005 0.579858
318.309601 -44.408363 0.000004 0.561700
317.304749 -43.622421 0.000005 0.552209
323.750885 -48.808403 6.072248 0.628519
323.750885 -48.808403 5.511245 0.715694
323.750885 -48.808403 4.958120 0.750835
323.750885 -48.808403 4.411546 0.365652
323.750885 -48.808403 3.870255 0.693629
323.830902 -48.871895 3.341400 0.678431
323.830902 -48.871895 2.803689 0.678431
323.830902 -48.871895 2.267705 0.678431
323.830902 -48.871895 1.732295 0.678431
323.830902 -48.871895 1.196311 0.678431
323.830902 -48.871895 0.658599 0.678431
323.750885 -48.808399 0.129746 0.839216
321.577515 -47.083885 0.000005 0.535958
319.625977 -45.535400 0.000005 0.547646
318.269592 -44.459145 0.000005 0.539422
317.270264 -43.666210 0.000005 0.550072
323.645508 -48.869270 6.061142 0.669749
323.645508 -48.869270 5.501672 0.870588
323.645508 -48.869270 4.950055 0.784085
323.645508 -48.869270 4.404971 0.372381
323.645508 -48.869270 3.865155 0.683299
323.724854 -48.933140 3.337742 0.678431
323.724854 -48.933140 2.801497 0.678431
323.724854 -48.933140 2.266975 0.678431
323.724854 -48.933140 1.733025 0.678431
323.724854 -48.933140 1.198502 0.678431
323.724854 -48.933144 0.662257 0.678431
323.645508 -48.869263 0.134846 0.807843
321.518738 -47.157413 0.000005 0.524575
319.578064 -45.595345 0.000005 0.509163
318.229218 -44.509644 0.000005 0.547997
317.235443 -43.709751 0.000005 0.518868
323.664948 -49.031261 6.090479 0.179736
323.664948 -49.031258 5.526964 0.094118
323.664948 -49.031258 4.971362 0.094118
323.540680 -48.929806 4.398546 0.468605
323.540680 -48.929810 3.860173 0.823438
323.619385 -48.994057 3.334168 0.678431
323.619385 -48.994057 2.799356 0.678431
323.619385 -48.994057 2.266262 0.678431
323.619385 -48.994057 1.733738 0.678431
323.619385 -48.994057 1.200643 0.678431
323.619385 -48.994061 0.665830 0.678431
323.540680 -48.929802 0.139828 0.586999
321.459473 -47.230534 0.000005 0.525856
319.529755 -45.654953 0.000005 0.547585
318.188507 -44.559864 0.000005 0.543694
317.200348 -43.753052 0.000005 0.510475
323.592499 -49.119293 6.090467 0.678431
323.592499 -49.119293 5.526956 0.678431
323.592499 -49.119293 4.971354 0.678431
323.436401 -48.990021 4.392273 0.607355
323.436401 -48.990025 3.855308 0.702449
323.493896 -49.037643 3.328492 0.090013
323.493896 -49.037647 2.795956 0.086275
323.493896 -49.037643 2.265129 0.094118
323.493896 -49.037643 1.734871 0.094118
323.493896 -49.037647 1.204044 0.062745
323.493896 -49.037643 0.671507 0.094118
323.436401 -48.990021 0.144693 0.310536
321.399658 -47.303238 0.000005 0.536538
319.480988 -45.714222 0.000005 0.554849
318.147461 -44.609798 0.000005 0.585840
317.164948 -43.796108 0.000005 0.526711
323.487457 -49.179951 6.079996 0.678431
323.487457 -49.179951 5.517926 0.678431
323.487457 -49.179951 4.963748 0.678431
323.332672 -49.049927 4.386147 0.667002
323.332672 -49.049927 3.850557 0.592309
323.410065 -49.114937 3.327273 0.678431
323.410065 -49.114937 2.795224 0.678431
323.410065 -49.114937 2.264886 0.678431
323.410065 -49.114937 1.735114 0.678431
323.410065 -49.114937 1.204775 0.678431
323.410065 -49.114937 0.672727 0.678431
323.312653 -49.033115 0.152449 0.746563
321.339386 -47.375519 0.000005 0.548791
319.431854 -45.773151 0.000005 0.545159
318.106049 -44.659443 0.000005 0.522728
317.129242 -43.838913 0.000005 0.542428
323.382965 -49.240303 6.069775 0.678431
323.382965 -49.240303 5.509113 0.678431
323.382965 -49.240303 4.956323 0.678431
323.229462 -49.109528 4.380170 0.776471
323.229462 -49.109531 3.845922 0.560784
323.306213 -49.174911 3.323947 0.678431
323.306213 -49.174911 2.793232 0.678431
323.306213 -49.174911 2.264222 0.564187
323.306213 -49.174911 1.735778 0.564187
323.306213 -49.174911 1.206767 0.564187
323.306213 -49.174911 0.676052 0.564187
323.229462 -49.109535 0.154078 0.382895
321.278595 -47.447384 0.000005 0.517174
319.382294 -45.831734 0.000005 0.558602
318.064270 -44.708797 0.000005 0.542916
317.093231 -43.881470 0.000005 0.567147
323.126770 -49.168831 6.009415 0.490486
323.126770 -49.168835 5.457069 0.497520
323.126770 -49.168831 4.912478 0.778164
323.126770 -49.168835 4.374338 0.806302
323.126770 -49.168835 3.841398 0.553658
323.202881 -49.234592 3.320704 0.678431
323.202850 -49.234592 2.791289 0.678431
323.202850 -49.234589 2.263575 0.678431
323.202850 -49.234589 1.736425 0.678431
323.202881 -49.234592 1.208711 0.678431
323.202881 -49.234596 0.679296 0.678431
323.167145 -49.203720 0.152464 0.538262
321.217285 -47.518818 0.000005 0.574121
319.332306 -45.889969 0.000005 0.550820
318.022186 -44.757862 0.000005 0.525078
317.056946 -43.923775 0.000005 0.560494
323.024567 -49.227856 5.999811 0.680644
323.024567 -49.227856 5.448787 0.498833
323.024567 -49.227856 4.905500 0.517647
323.024567 -49.227856 4.368649 0.891325
323.024567 -49.227856 3.836987 0.500526
323.100037 -49.293983 3.317539 0.678431
323.100037 -49.293987 2.789393 0.678431
323.100037 -49.293983 2.262944 0.678431
323.100037 -49.293983 1.737057 0.678431
323.100037 -49.293987 1.210606 0.678431
323.100037 -49.293983 0.682460 0.678431
323.080170 -49.276585 0.154508 0.349844
321.155487 -47.589825 0.000005 0.538354
319.281952 -45.947857 0.000006 0.521492
317.979736 -44.806625 0.000005 0.558907
317.020355 -43.965820 0.000006 0.558251
322.922852 -49.286598 5.990444 0.580392
322.922852 -49.286598 5.440712 0.741176
322.922852 -49.286598 4.898698 0.545617
322.922852 -49.286598 4.363103 0.784314
322.922852 -49.286598 3.832685 0.700008
322.997681 -49.353092 3.314454 0.678431
322.997681 -49.353092 2.787545 0.678431
322.997681 -49.353096 2.262327 0.678431
322.997681 -49.353096 1.737673 0.678431
322.997681 -49.353092 1.212455 0.678431
322.997681 -49.353092 0.685545 0.678431
322.977997 -49.335598 0.158829 0.294606
321.093201 -47.660393 0.000006 0.546151
319.231171 -46.005386 0.000006 0.542763
317.936981 -44.855095 0.000006 0.553338
316.983459 -44.007614 0.000005 0.547372
322.821625 -49.345066 5.981317 0.660655
322.821625 -49.345070 5.432841 0.828641
322.821625 -49.345070 4.892067 0.315953
322.821625 -49.345070 4.357697 0.870588
322.821625 -49.345070 3.828493 0.758190
322.895782 -49.411934 3.311447 0.678431
322.895782 -49.411930 2.785743 0.678431
322.895782 -49.411934 2.261728 0.678431
322.895782 -49.411934 1.738273 0.678431
322.895782 -49.411930 1.214257 0.678431
322.895782 -49.411934 0.688552 0.678431
322.876282 -49.394341 0.163041 0.228275
321.030426 -47.730530 0.000006 0.556954
319.179993 -46.062565 0.000006 0.524453
317.893860 -44.903267 0.000006 0.535348
316.946289 -44.049145 0.000006 0.546181
322.720825 -49.403275 5.972422 0.339529
322.720825 -49.403275 5.425173 0.738354
322.720825 -49.403275 4.885606 0.308385
322.720825 -49.403278 4.352431 0.891402
322.720825 -49.403275 3.824408 0.450462
322.776245 -49.453941 3.306505 0.129000
322.776245 -49.453941 2.782782 0.126467
322.776245 -49.453945 2.260741 0.127825
322.776245 -49.453945 1.739259 0.127169
322.776245 -49.453945 1.217217 0.145403
322.776245 -49.453945 0.693494 0.147311
322.775024 -49.452820 0.167144 0.179721
320.967163 -47.800224 0.000006 0.552087
319.128418 -46.119385 0.000006 0.538216
317.850403 -44.951134 0.000006 0.510811
316.908813 -44.090420 0.000006 0.553216
322.762115 -49.592518 6.012137 0.235660
322.762115 -49.592518 5.459415 0.297154
322.762115 -49.592518 4.914455 0.280049
322.620483 -49.461227 4.347302 0.515389
322.620483 -49.461227 3.820430 0.469947
322.693390 -49.528816 3.305665 0.678431
322.693390 -49.528816 2.782278 0.678431
322.693390 -49.528816 2.260573 0.678431
322.693390 -49.528816 1.739427 0.678431
322.693390 -49.528816 1.217721 0.678431
322.693390 -49.528820 0.694335 0.678431
322.674225 -49.511036 0.171140 0.251087
320.903412 -47.869480 0.000006 0.538705
319.076447 -46.175842 0.000006 0.548272
317.806610 -44.998695 0.000006 0.539040
316.871063 -44.131432 0.000006 0.520928
322.665161 -49.654839 6.005035 0.678431
322.665161 -49.654839 5.453293 0.678431
322.665161 -49.654839 4.909297 0.678431
322.520569 -49.518925 4.342310 0.474571
322.520569 -49.518925 3.816558 0.262608
322.592865 -49.586880 3.302887 0.678431
322.592865 -49.586880 2.780615 0.678431
322.592865 -49.586880 2.260019 0.678431
322.592865 -49.586880 1.739981 0.678431
322.592865 -49.586880 1.219385 0.678431
322.592865 -49.586880 0.697112 0.678431
322.573853 -49.569000 0.175031 0.124895
320.839172 -47.938282 0.000006 0.547997
319.024078 -46.231934 0.000006 0.562844
317.762512 -45.045952 0.000006 0.582986
316.833038 -44.172176 0.000006 0.545235
322.564423 -49.713020 5.996729 0.678431
322.564423 -49.713020 5.446131 0.678431
322.564423 -49.713020 4.903262 0.678431
322.421082 -49.576385 4.337452 0.619791
322.421082 -49.576385 3.812791 0.183322
322.492737 -49.644699 3.300185 0.678431
322.492737 -49.644699 2.778996 0.678431
322.492737 -49.644699 2.259480 0.678431
322.492737 -49.644699 1.740520 0.678431
322.492737 -49.644699 1.221004 0.678431
322.492737 -49.644699 0.699814 0.678431
322.473877 -49.626724 0.178816 0.202152
320.774475 -48.006641 0.000006 0.528618
318.971313 -46.287659 0.000006 0.557534
317.718048 -45.092903 0.000006 0.543740
316.794708 -44.212654 0.000006 0.554360
322.464081 -49.770958 5.988650 0.678431
322.464081 -49.770958 5.439165 0.678431
322.464081 -49.770958 4.897394 0.678431
322.321991 -49.633606 4.332726 0.532143
322.321991 -49.633606 3.809127 0.331090
322.393036 -49.702278 3.297557 0.678431
322.393036 -49.702278 2.777421 0.678431
322.393036 -49.702278 2.258955 0.678431
322.393036 -49.702278 1.741045 0.678431
322.393036 -49.702278 1.222579 0.678431
322.393036 -49.702278 0.702443 0.678431
322.374359 -49.684212 0.182497 0.096391
320.709290 -48.074543 0.000006 0.554986
318.918182 -46.343010 0.000006 0.595712
317.673279 -45.139534 0.000006 0.536431
316.756104 -44.252865 0.000006 0.527474
322.223328 -49.690605 5.931396 0.549020
322.223328 -49.690605 5.389798 0.725628
322.223328 -49.690605 4.855805 0.798413
322.223297 -49.690605 4.328135 0.689952
322.223297 -49.690601 3.805566 0.586908
322.293732 -49.759636 3.295002 0.678431
322.293732 -49.759632 2.775891 0.678431
322.293732 -49.759632 2.258446 0.678431
322.293732 -49.759632 1.741555 0.678431
322.293732 -49.759632 1.224109 0.678431
322.293732 -49.759632 0.704997 0.678431
322.275208 -49.741470 0.186075 0.104692
320.643616 -48.141987 0.000007 0.497993
318.864655 -46.397999 0.000006 0.525505
317.628204 -45.185856 0.000006 0.524910
316.717224 -44.292809 0.000006 0.585840
322.125000 -49.747375 5.923863 0.709804
322.125000 -49.747375 5.383303 0.312459
322.125000 -49.747375 4.850332 0.291371
322.125000 -49.747375 4.323674 0.703182
322.125000 -49.747375 3.802106 0.521645
322.194794 -49.816769 3.292522 0.678431
322.194794 -49.816769 2.774404 0.678431
322.194794 -49.816769 2.257950 0.460044
322.194794 -49.816769 1.742050 0.460044
322.194794 -49.816769 1.225595 0.460044
322.194794 -49.816769 0.707478 0.442405
322.176453 -49.798508 0.189551 0.094118
320.577484 -48.208973 0.000007 0.538537
318.810730 -46.452606 0.000007 0.597330
317.582764 -45.231865 0.000006 0.531777
316.678070 -44.332478 0.000006 0.515724
322.027069 -49.803932 5.916547 0.865202
322.027069 -49.803932 5.376996 0.527764
322.027069 -49.803936 4.845018 0.634745
322.027069 -49.803932 4.319343 0.843488
322.037445 -49.814404 3.800443 0.685954
322.096252 -49.873680 3.290112 0.678431
322.096252 -49.873680 2.772961 0.678431
322.096252 -49.873680 2.257469 0.678431
322.096252 -49.873680 1.742531 0.678431
322.096252 -49.873684 1.227039 0.678431
322.096252 -49.873684 0.709887 0.678431
322.078064 -49.855328 0.192925 0.062745
320.510895 -48.275494 0.000007 0.525612
318.756439 -46.506836 0.000007 0.528069
317.537048 -45.277550 0.000006 0.514519
316.638641 -44.371872 0.000007 0.547219
321.929504 -49.860283 5.909451 0.899641
321.929504 -49.860287 5.370877 0.447837
321.929504 -49.860287 4.839863 0.807843
321.929504 -49.860287 4.315140 0.742184
321.959595 -49.891045 3.800438 0.750195
321.988281 -49.920403 3.286629 0.234897
321.988312 -49.920403 2.770874 0.222522
321.988312 -49.920403 2.256774 0.223529
321.988312 -49.920403 1.743225 0.224537
321.988312 -49.920403 1.229126 0.225559
321.988281 -49.920403 0.713370 0.166354
321.980011 -49.911938 0.196200 0.062745
320.443848 -48.341553 0.000007 0.525093
318.701782 -46.560688 0.000007 0.537057
317.490967 -45.322922 0.000006 0.563317
316.598907 -44.410988 0.000007 0.569421
321.832275 -49.916435 5.902570 0.647669
321.832275 -49.916435 5.364944 0.473274
321.832275 -49.916435 4.834865 0.401434
321.832275 -49.916435 4.311065 0.407233
321.882324 -49.968346 3.800625 0.261845
321.900238 -49.986889 3.285508 0.678431
321.900238 -49.986889 2.770202 0.678431
321.900238 -49.986889 2.256551 0.678431
321.900238 -49.986889 1.743449 0.678431
321.900238 -49.986889 1.229798 0.678431
321.900238 -49.986889 0.714491 0.678431
321.878113 -49.963959 0.200077 0.062745
320.376343 -48.407135 0.000007 0.536904
318.646729 -46.614151 0.000007 0.565652
317.444611 -45.367962 0.000007 0.562753
316.558929 -44.449825 0.000007 0.559136
321.870087 -50.113998 5.944859 0.503792
321.870087 -50.113995 5.401406 0.503792
321.870087 -50.113995 4.865584 0.503792
321.735382 -49.972389 4.307117 0.474022
321.785004 -50.024559 3.797549 0.471656
321.802734 -50.043194 3.283312 0.678431
321.802734 -50.043198 2.768886 0.678431
321.802734 -50.043194 2.256112 0.678431
321.802734 -50.043194 1.743888 0.678431
321.802734 -50.043194 1.231113 0.678431
321.802734 -50.043194 0.716688 0.678431
321.785004 -50.024559 0.202451 0.134310
320.308350 -48.472252 0.000006 0.535714
318.591339 -46.667236 0.000007 0.553124
317.397919 -45.412682 0.000007 0.570993
316.518677 -44.488384 0.000007 0.515404
321.772308 -50.170464 5.938323 0.678431
321.772308 -50.170464 5.395771 0.678431
321.772308 -50.170464 4.860837 0.678431
321.638824 -50.028160 4.303294 0.516487
321.687988 -50.080585 3.794570 0.229648
321.705566 -50.099312 3.281186 0.678431
321.705566 -50.099312 2.767612 0.678431
321.705566 -50.099312 2.255688 0.678431
321.705566 -50.099312 1.744312 0.678431
321.705566 -50.099312 1.232388 0.678431
321.705566 -50.099312 0.718814 0.678431
321.692017 -50.084888 0.204751 0.099809
320.239929 -48.536888 0.000007 0.555673
318.535553 -46.719929 0.000007 0.514138
317.350922 -45.457073 0.000007 0.532036
316.478149 -44.526661 0.000007 0.558160
321.674835 -50.226749 5.931999 0.678431
321.674835 -50.226753 5.390319 0.678431
321.674835 -50.226749 4.856243 0.678431
321.542572 -50.083744 4.299596 0.504540
321.591309 -50.136429 3.791689 0.284337
321.608704 -50.155251 3.279129 0.678431
321.608704 -50.155247 2.766379 0.678431
321.608704 -50.155247 2.255277 0.678431
321.608704 -50.155247 1.744722 0.678431
321.608704 -50.155243 1.233620 0.678431
321.608704 -50.155247 0.720871 0.678431
321.599182 -50.144958 0.206974 0.062745
320.171051 -48.601044 0.000008 0.539574
318.479401 -46.772232 0.000008 0.513863
317.303619 -45.501137 0.000007 0.534737
316.437378 -44.564655 0.000007 0.557076
321.577698 -50.282852 5.925887 0.678431
321.577698 -50.282856 5.385049 0.678431
321.577698 -50.282856 4.851803 0.678431
321.446625 -50.139153 4.296021 0.477577
321.494904 -50.192097 3.788904 0.306813
321.512146 -50.211006 3.277140 0.666667
321.512146 -50.211006 2.765189 0.666667
321.512146 -50.211002 2.254880 0.666667
321.512146 -50.211002 1.745120 0.666667
321.512146 -50.211006 1.234812 0.666667
321.512146 -50.211006 0.722859 0.666667
321.506409 -50.204712 0.209131 0.294301
320.101715 -48.664715 0.000008 0.535485
318.422882 -46.824142 0.000007 0.546304
317.256012 -45.544872 0.000007 0.539345
316.396332 -44.602364 0.000007 0.550103
321.350952 -50.194393 5.871338 0.657176
321.350952 -50.194397 5.338014 0.603922
321.350952 -50.194393 4.812178 0.584466
321.350952 -50.194397 4.292570 0.434669
321.398804 -50.247593 3.786214 0.267643
321.398804 -50.247593 3.273124 0.094118
321.398804 -50.247589 2.762783 0.094118
321.398804 -50.247593 2.254079 0.094118
321.398804 -50.247589 1.745921 0.094118
321.398804 -50.247589 1.237217 0.094118
321.398804 -50.247589 0.726875 0.094118
321.398804 -50.247589 0.213786 0.031373
320.031952 -48.727905 0.000008 0.564080
318.365997 -46.875656 0.000008 0.522637
317.208099 -45.588268 0.000008 0.542702
316.355011 -44.639786 0.000007 0.531456
321.255585 -50.249470 5.865714 0.335836
321.255585 -50.249470 5.333165 0.420127
321.255585 -50.249470 4.808092 0.571817
321.255585 -50.249474 4.289239 0.559045
321.303009 -50.302925 3.783619 0.155093
321.319916 -50.322018 3.273368 0.678431
321.319916 -50.322014 2.762928 0.678431
321.319916 -50.322014 2.254128 0.678431
321.319916 -50.322018 1.745872 0.678431
321.319916 -50.322018 1.237072 0.678431
321.319916 -50.322018 0.726632 0.678431
321.319946 -50.322018 0.213445 0.438239
319.961761 -48.790607 0.000008 0.532143
318.308777 -46.926769 0.000007 0.495979
317.159882 -45.631332 0.000007 0.525872
316.313416 -44.676914 0.000007 0.543053
321.160492 -50.304390 5.860293 0.514870
321.160492 -50.304390 5.328491 0.463310
321.160492 -50.304390 4.804154 0.494423
321.160492 -50.304390 4.286030 0.663188
321.207458 -50.358097 3.781119 0.165759
321.224243 -50.377285 3.271582 0.678431
321.224243 -50.377285 2.761859 0.678431
321.224243 -50.377285 2.253771 0.678431
321.224243 -50.377285 1.746228 0.678431
321.224243 -50.377285 1.238141 0.678431
321.224243 -50.377285 0.728417 0.678431
321.224243 -50.377285 0.215949 0.401770
319.891113 -48.852814 0.000008 0.550072
318.251190 -46.977486 0.000008 0.585519
317.111359 -45.674057 0.000008 0.537255
316.271606 -44.713753 0.000008 0.507103
321.065643 -50.359158 5.855078 0.422034
321.065643 -50.359158 5.323994 0.752575
321.065643 -50.359158 4.800366 0.574975
321.065643 -50.359158 4.282941 0.418326
321.112183 -50.413120 3.778712 0.131502
321.128815 -50.432396 3.269865 0.678431
321.128815 -50.432396 2.760829 0.678431
321.128815 -50.432396 2.253429 0.678431
321.128815 -50.432396 1.746571 0.678431
321.128815 -50.432396 1.239170 0.678431
321.128815 -50.432396 0.730135 0.678431
321.128815 -50.432396 0.218359 0.541176
319.820038 -48.914532 0.000008 0.539864
318.193237 -47.027794 0.000008 0.555566
317.062561 -45.716446 0.000008 0.545693
316.229523 -44.750301 0.000008 0.527398
320.971069 -50.413780 5.850062 0.562448
320.971069 -50.413780 5.319669 0.741176
320.971069 -50.413780 4.796723 0.486473
320.971069 -50.413784 4.279971 0.444724
321.017151 -50.467999 3.776398 0.160479
321.033630 -50.487366 3.268213 0.678431
321.033630 -50.487366 2.759840 0.678431
321.033630 -50.487366 2.253099 0.678431
321.033630 -50.487366 1.746901 0.678431
321.033630 -50.487366 1.240160 0.678431
321.033630 -50.487366 0.731787 0.678431
321.033630 -50.487366 0.220677 0.489708
319.748535 -48.975746 0.000008 0.498650
318.134949 -47.077698 0.000008 0.517403
317.013428 -45.758488 0.000008 0.545617
316.187164 -44.786552 0.000008 0.526268
320.967468 -50.576530 5.880633 0.094118
320.967468 -50.576534 5.346029 0.094118
320.967468 -50.576534 4.818931 0.177691
320.876740 -50.468266 4.277119 0.776471
320.922394 -50.522736 3.774177 0.271839
320.938690 -50.542191 3.266626 0.601831
320.938690 -50.542191 2.758889 0.601831
320.938690 -50.542191 2.252782 0.610529
320.938690 -50.542191 1.747218 0.611032
320.938690 -50.542191 1.241111 0.606439
320.938690 -50.542191 0.733373 0.618448
320.938690 -50.542191 0.222903 0.441047
319.676605 -49.036465 0.000008 0.518120
318.076324 -47.127197 0.000008 0.509987
316.964050 -45.800190 0.000008 0.517662
316.144562 -44.822506 0.000008 0.544564
320.905365 -50.671150 5.888896 0.678431
320.905365 -50.671150 5.353153 0.678431
320.905365 -50.671150 4.824932 0.678431
320.782623 -50.522617 4.274385 0.776471
320.827820 -50.577339 3.772047 0.136416
320.837433 -50.588966 3.264264 0.243870
320.837433 -50.588966 2.757473 0.244587
320.837433 -50.588966 2.252311 0.245319
320.837433 -50.588966 1.747689 0.236332
320.837433 -50.588970 1.242526 0.237003
320.837433 -50.588966 0.735736 0.237690
320.837433 -50.588966 0.226218 0.166232
319.604279 -49.096676 0.000008 0.532677
318.017334 -47.176285 0.000008 0.550774
316.914337 -45.841545 0.000008 0.570291
316.101715 -44.858166 0.000008 0.530449
320.810272 -50.726055 5.884422 0.678431
320.810272 -50.726051 5.349296 0.678431
320.810272 -50.726051 4.821682 0.678431
320.688721 -50.576843 4.271769 0.489357
320.733490 -50.631813 3.770009 0.129656
320.749512 -50.651447 3.263650 0.678431
320.749512 -50.651443 2.757106 0.678431
320.749512 -50.651443 2.252188 0.678431
320.749512 -50.651443 1.747812 0.678431
320.749512 -50.651447 1.242894 0.678431
320.749512 -50.651451 0.736349 0.678431
320.749512 -50.651447 0.227078 0.422126
319.531494 -49.156384 0.000008 0.526970
317.958008 -47.224964 0.000008 0.527642
316.864380 -45.882549 0.000008 0.517174
316.058624 -44.893524 0.000008 0.589502
320.715424 -50.780834 5.880148 0.678431
320.715424 -50.780834 5.345610 0.678431
320.715424 -50.780834 4.818577 0.678431
320.595032 -50.630943 4.269269 0.771054
320.639404 -50.686169 3.768061 0.092348
320.655212 -50.705887 3.262260 0.678431
320.655243 -50.705887 2.756273 0.678431
320.655243 -50.705887 2.251911 0.678431
320.655243 -50.705891 1.748089 0.678431
320.655243 -50.705887 1.243727 0.678431
320.655243 -50.705887 0.737740 0.678431
320.655243 -50.705887 0.229029 0.512840
319.458313 -49.215580 0.000008 0.542535
317.898346 -47.273220 0.000008 0.537041
316.814117 -45.923206 0.000008 0.514458
316.015289 -44.928577 0.000008 0.557260
320.595673 -50.803795 5.865944 0.078553
320.595673 -50.803795 5.333363 0.132540
320.595673 -50.803799 4.808259 0.137255
320.501556 -50.684929 4.266886 0.663371
320.545471 -50.740402 3.766203 0.094759
320.545471 -50.740402 3.258862 0.094118
320.545471 -50.740406 2.754238 0.091279
320.545471 -50.740406 2.251233 0.086275
320.545471 -50.740406 1.748767 0.086275
320.545471 -50.740406 1.245762 0.074510
320.545471 -50.740402 0.741138 0.086275
320.545471 -50.740402 0.233796 0.094118
319.384705 -49.274261 0.000008 0.535195
317.838348 -47.321060 0.000009 0.481025
316.763550 -45.963512 0.000008 0.530724
315.971710 -44.963329 0.000008 0.504005
320.408264 -50.738800 5.824135 0.724590
320.408264 -50.738804 5.297315 0.275196
320.408264 -50.738804 4.777889 0.608957
320.408264 -50.738800 4.264617 0.730282
320.451752 -50.794525 3.764436 0.104875
320.467285 -50.814430 3.259672 0.678431
320.467285 -50.814430 2.754723 0.678431
320.467285 -50.814426 2.251394 0.678431
320.467285 -50.814426 1.748605 0.678431
320.467285 -50.814430 1.245277 0.678431
320.467285 -50.814430 0.740327 0.678431
320.467285 -50.814426 0.232660 0.593469
319.310730 -49.332432 0.000008 0.550362
317.778015 -47.368481 0.000008 0.520043
316.712738 -46.003464 0.000008 0.542351
315.927887 -44.997776 0.000008 0.506859
320.315155 -50.792576 5.820498 0.775341
320.315155 -50.792576 5.294178 0.526314
320.315155 -50.792572 4.775248 0.540993
320.315155 -50.792576 4.262463 0.775601
320.358215 -50.848549 3.762758 0.064332
320.373596 -50.868538 3.258474 0.678431
320.373596 -50.868538 2.754004 0.678431
320.373596 -50.868538 2.251155 0.678431
320.373596 -50.868538 1.748845 0.678431
320.373596 -50.868538 1.245995 0.678431
320.373596 -50.868534 0.741526 0.678431
320.373596 -50.868538 0.234341 0.678431
319.236298 -49.390083 0.000008 0.515541
317.717346 -47.415482 0.000009 0.539757
316.661621 -46.043056 0.000008 0.552956
315.883820 -45.031918 0.000009 0.550591
320.222229 -50.846245 5.817055 0.333883
320.222229 -50.846245 5.291208 0.478782
320.222229 -50.846245 4.772745 0.610193
320.222229 -50.846245 4.260423 0.372152
320.264862 -50.902466 3.761169 0.065629
320.280090 -50.922546 3.257339 0.678431
320.280090 -50.922543 2.753325 0.678431
320.280090 -50.922546 2.250929 0.678431
320.280090 -50.922546 1.749071 0.678431
320.280090 -50.922543 1.246675 0.678431
320.280090 -50.922546 0.742660 0.678431
320.280090 -50.922546 0.235932 0.666911
319.161499 -49.447212 0.000009 0.544778
317.656372 -47.462055 0.000009 0.528420
316.610260 -46.082294 0.000009 0.511894
315.839508 -45.065750 0.000009 0.589395
320.129456 -50.899822 5.813802 0.476081
320.129456 -50.899822 5.288404 0.404089
320.129456 -50.899818 4.770382 0.631678
320.129456 -50.899822 4.258497 0.473365
320.171661 -50.956291 3.759668 0.078828
320.186737 -50.976456 3.256268 0.678431
320.186737 -50.976460 2.752683 0.678431
320.186737 -50.976456 2.250715 0.678431
320.186737 -50.976456 1.749285 0.678431
320.186737 -50.976460 1.247317 0.678431
320.186737 -50.976456 0.743732 0.678431
320.186737 -50.976456 0.237436 0.642435
319.086304 -49.503822 0.000009 0.545937
317.595062 -47.508202 0.000009 0.545785
316.558594 -46.121174 0.000009 0.539223
315.794983 -45.099274 0.000009 0.530861
320.051941 -50.973804 5.817116 0.623941
320.051941 -50.973808 5.291262 0.425071
320.051941 -50.973812 4.772792 0.531136
320.036835 -50.953308 4.256684 0.505837
320.078613 -51.010025 3.758255 0.068376
320.078613 -51.010025 3.253197 0.094118
320.078613 -51.010025 2.750843 0.093202
320.078613 -51.010025 2.250102 0.081483
320.078613 -51.010021 1.749898 0.074510
320.078613 -51.010025 1.249157 0.094118
320.078613 -51.010021 0.746803 0.089906
320.078613 -51.010025 0.241745 0.062745
319.010712 -49.559898 0.000009 0.536049
317.533447 -47.553921 0.000009 0.530358
316.506683 -46.159687 0.000009 0.519158
315.750214 -45.132481 0.000009 0.507149
320.056580 -51.161324 5.855721 0.646662
320.056580 -51.161320 5.324546 0.657877
320.056580 -51.161320 4.800832 0.657877
319.944366 -51.006714 4.254984 0.647166
319.985718 -51.063671 3.756930 0.065080
320.000488 -51.084015 3.254313 0.678431
320.000488 -51.084015 2.751512 0.678431
320.000488 -51.084015 2.250325 0.678431
320.000488 -51.084015 1.749675 0.678431
320.000488 -51.084015 1.248488 0.678431
320.000488 -51.084019 0.745686 0.678431
320.000488 -51.084015 0.240178 0.645502
318.934723 -49.615448 0.000009 0.520928
317.471497 -47.599205 0.000009 0.550729
316.454498 -46.197838 0.000009 0.545525
315.705231 -45.165379 0.000009 0.527077
319.963074 -51.215317 5.853004 0.678431
319.963074 -51.215317 5.322206 0.678431
319.963074 -51.215317 4.798860 0.678431
319.852051 -51.060040 4.253396 0.715053
319.892944 -51.117249 3.755693 0.064210
319.907562 -51.137676 3.253430 0.678431
319.907562 -51.137676 2.750983 0.678431
319.907562 -51.137676 2.250149 0.678431
319.907562 -51.137676 1.749851 0.678431
319.907562 -51.137676 1.249017 0.678431
319.907562 -51.137676 0.746570 0.678431
319.907562 -51.137676 0.241418 0.593469
318.858337 -49.670471 0.000009 0.546334
317.409241 -47.644062 0.000009 0.532265
316.402039 -46.235630 0.000009 0.551858
315.660004 -45.197960 0.000009 0.524880
319.869720 -51.269241 5.850480 0.678431
319.869720 -51.269241 5.320030 0.678431
319.869720 -51.269241 4.797027 0.678431
319.759827 -51.113293 4.251920 0.774609
319.795715 -51.164246 3.753628 0.164889
319.814758 -51.191265 3.252608 0.678431
319.814758 -51.191265 2.750491 0.678431
319.814758 -51.191265 2.249985 0.678431
319.814758 -51.191265 1.750015 0.678431
319.814758 -51.191265 1.249509 0.678431
319.814758 -51.191265 0.747391 0.678431
319.814758 -51.191265 0.242570 0.678431
318.781586 -49.724953 0.000009 0.535744
317.346649 -47.688477 0.000009 0.524727
316.349335 -46.273048 0.000009 0.548455
315.614532 -45.230225 0.000010 0.540566
319.776459 -51.323093 5.848146 0.678431
319.776459 -51.323093 5.318017 0.678431
319.776459 -51.323097 4.795332 0.678431
319.667725 -51.166481 4.250555 0.462348
319.707794 -51.224182 3.753480 0.068910
319.722076 -51.244785 3.251850 0.678431
319.722076 -51.244785 2.750036 0.678431
319.722076 -51.244789 2.249834 0.678431
319.722076 -51.244789 1.750166 0.678431
319.722076 -51.244785 1.249964 0.678431
319.722076 -51.244789 0.748150 0.678431
319.722076 -51.244789 0.243634 0.671229
318.704437 -49.778900 0.000010 0.523720
317.283783 -47.732456 0.000009 0.547997
316.296356 -46.310097 0.000010 0.553536
315.568848 -45.262173 0.000009 0.539635
319.575745 -51.219604 5.798273 0.767147
319.575745 -51.219604 5.275014 0.542382
319.575745 -51.219604 4.759103 0.564172
319.575745 -51.219604 4.249302 0.752636
319.615356 -51.277550 3.752503 0.065324
319.629517 -51.298244 3.251153 0.670588
319.629517 -51.298244 2.749618 0.670588
319.629517 -51.298241 2.249694 0.670588
319.629517 -51.298241 1.750306 0.670588
319.629517 -51.298244 1.250381 0.670588
319.629517 -51.298244 0.748847 0.670588
319.629517 -51.298244 0.244613 0.651865
318.626923 -49.832310 0.000010 0.534768
317.220581 -47.775993 0.000010 0.519020
316.243103 -46.346779 0.000009 0.547417
315.522949 -45.293800 0.000009 0.555825
319.483856 -51.272671 5.796344 0.721920
319.483856 -51.272671 5.273351 0.345281
319.483856 -51.272671 4.757701 0.573220
319.483856 -51.272671 4.248159 0.712963
319.523041 -51.330868 3.751613 0.066743
319.523041 -51.330864 3.248462 0.094118
319.523041 -51.330864 2.748007 0.094118
319.523041 -51.330864 2.249157 0.092287
319.523041 -51.330864 1.750843 0.094118
319.523041 -51.330864 1.251993 0.079530
319.523041 -51.330864 0.751537 0.094118
319.523041 -51.330864 0.248387 0.066911
318.549072 -49.885174 0.000009 0.530205
317.157104 -47.819092 0.000009 0.527550
316.189636 -46.383087 0.000009 0.512016
315.476837 -45.325104 0.000010 0.520073
319.392059 -51.325695 5.794603 0.731868
319.392029 -51.325691 5.271850 0.360815
319.392029 -51.325687 4.756436 0.390143
319.392029 -51.325687 4.247127 0.666621
319.430450 -51.383553 3.750730 0.182071
319.444672 -51.404999 3.249944 0.678431
319.444672 -51.404995 2.748893 0.678431
319.444672 -51.404999 2.249453 0.678431
319.444672 -51.404999 1.750547 0.678431
319.444672 -51.404999 1.251106 0.678431
319.444672 -51.404999 0.750056 0.678431
319.444672 -51.404999 0.246309 0.678431
318.470825 -49.937492 0.000010 0.543221
317.093292 -47.861748 0.000010 0.566445
316.135895 -46.419022 0.000010 0.510613
315.430511 -45.356091 0.000009 0.583886
319.300323 -51.378662 5.793046 0.824308
319.300323 -51.378662 5.270508 0.294286
319.300323 -51.378662 4.755306 0.587060
319.300323 -51.378662 4.246205 0.753597
319.339050 -51.437927 3.750172 0.167224
319.352386 -51.458305 3.249431 0.678431
319.352386 -51.458305 2.748587 0.678431
319.352386 -51.458305 2.249351 0.678431
319.352386 -51.458302 1.750649 0.678431
319.352386 -51.458302 1.251413 0.678431
319.352386 -51.458305 0.750568 0.678431
319.352386 -51.458305 0.247028 0.678431
318.392212 -49.989265 0.000010 0.509102
317.029205 -47.903950 0.000010 0.529915
316.081909 -46.454578 0.000010 0.556909
315.383942 -45.386745 0.000010 0.598489
319.208679 -51.431591 5.791677 0.592889
319.208679 -51.431591 5.269327 0.646693
319.208679 -51.431591 4.754311 0.634043
319.208679 -51.431587 4.245394 0.564111
319.247650 -51.492142 3.749681 0.062745
319.260162 -51.511566 3.248980 0.678431
319.260162 -51.511566 2.748316 0.678431
319.260162 -51.511566 2.249261 0.678431
319.260162 -51.511566 1.750739 0.678431
319.260162 -51.511566 1.251683 0.678431
319.260162 -51.511566 0.751020 0.678431
319.260162 -51.511566 0.247661 0.678431
318.313232 -50.040489 0.000010 0.558465
316.964844 -47.945709 0.000010 0.524681
316.027649 -46.489761 0.000010 0.543221
315.337189 -45.417084 0.000010 0.517571
319.197449 -51.611282 5.828096 0.047547
319.197449 -51.611286 5.300730 0.047791
319.197449 -51.611282 4.780766 0.082170
319.117065 -51.484486 4.244693 0.606836
319.154602 -51.543659 3.748913 0.067933
319.167969 -51.564796 3.248590 0.381750
319.167969 -51.564793 2.748082 0.403067
319.167969 -51.564796 2.249183 0.403067
319.167969 -51.564796 1.750817 0.416922
319.167969 -51.564793 1.251917 0.416922
319.167969 -51.564793 0.751410 0.678431
319.167969 -51.564793 0.248209 0.675364
318.233887 -50.091156 0.000010 0.550362
316.900177 -47.987015 0.000010 0.547097
315.973175 -46.524559 0.000010 0.588098
315.290222 -45.447090 0.000010 0.579263
319.126190 -51.698627 5.837113 0.678431
319.126190 -51.698627 5.308504 0.678431
319.126190 -51.698627 4.787316 0.678431
319.025543 -51.537350 4.244102 0.781521
319.062622 -51.596767 3.748452 0.062745
319.075867 -51.617989 3.248261 0.678431
319.075867 -51.617989 2.747885 0.639109
319.075867 -51.617989 2.249117 0.639109
319.075867 -51.617989 1.750883 0.639109
319.075867 -51.617989 1.252114 0.639109
319.075867 -51.617989 0.751739 0.672923
319.075867 -51.617989 0.248670 0.667231
318.154236 -50.141273 0.000010 0.512047
316.835205 -48.027874 0.000010 0.535805
315.918457 -46.558979 0.000010 0.563287
315.243011 -45.476768 0.000010 0.677806
319.033539 -51.752129 5.836289 0.678431
319.033569 -51.752129 5.307794 0.678431
319.033569 -51.752132 4.786718 0.678431
318.934052 -51.590187 4.243620 0.469780
318.970703 -51.649853 3.748077 0.062745
318.983795 -51.671162 3.247993 0.678431
318.983795 -51.671158 2.747725 0.678431
318.983795 -51.671162 2.249064 0.678431
318.983795 -51.671162 1.750936 0.678431
318.983795 -51.671158 1.252275 0.678431
318.983795 -51.671158 0.752007 0.678431
318.983795 -51.671158 0.249046 0.648219
318.074188 -50.190830 0.000010 0.547448
316.769989 -48.068275 0.000010 0.516793
315.863495 -46.593014 0.000010 0.479194
315.195648 -45.506115 0.000010 0.577752
318.940948 -51.805611 5.835653 0.678431
318.940948 -51.805611 5.307244 0.678431
318.940948 -51.805611 4.786256 0.678431
318.842590 -51.643005 4.243247 0.354757
318.881500 -51.707344 3.748382 0.062745
318.891754 -51.724308 3.247786 0.499870
318.891785 -51.724312 2.747601 0.499870
318.891754 -51.724312 2.249022 0.490379
318.891754 -51.724312 1.750978 0.509804
318.891785 -51.724312 1.252399 0.490379
318.891785 -51.724312 0.752214 0.491142
318.891785 -51.724312 0.249337 0.530114
317.993835 -50.239826 0.000010 0.534295
316.704468 -48.108215 0.000010 0.522225
315.808289 -46.626667 0.000010 0.535058
315.148041 -45.535126 0.000010 0.544793
318.848358 -51.859081 5.835204 0.474998
318.848358 -51.859077 5.306857 0.405890
318.848358 -51.859081 4.785930 0.394125
318.751160 -51.695812 4.242985 0.552178
318.789825 -51.760761 3.748224 0.256382
318.799774 -51.777443 3.247639 0.541527
318.799774 -51.777447 2.747513 0.541527
318.799774 -51.777443 2.248993 0.541527
318.799774 -51.777443 1.751007 0.552560
318.799774 -51.777447 1.252487 0.538567
318.799774 -51.777447 0.752360 0.538567
318.799774 -51.777443 0.249542 0.538567
317.913116 -50.288261 0.000010 0.541604
316.638672 -48.147705 0.000010 0.491142
315.752869 -46.659931 0.000010 0.565560
315.100250 -45.563812 0.000010 0.544961
318.659729 -51.748604 5.787347 0.454963
318.659729 -51.748604 5.265594 0.469902
318.659729 -51.748604 4.751165 0.658961
318.659729 -51.748604 4.242830 0.432273
318.698059 -51.814022 3.748131 0.269062
318.707764 -51.830574 3.247553 0.678431
318.707764 -51.830570 2.747462 0.678431
318.707764 -51.830570 2.248976 0.678431
318.707764 -51.830570 1.751024 0.678431
318.707764 -51.830570 1.252538 0.678431
318.707764 -51.830574 0.752446 0.678431
318.707764 -51.830570 0.249662 0.651606
317.832062 -50.336136 0.000010 0.538933
316.572601 -48.186729 0.000010 0.526162
315.697205 -46.692810 0.000010 0.589609
315.052246 -45.592159 0.000010 0.527398
318.568329 -51.801392 5.787271 0.680171
318.568329 -51.801392 5.265529 0.472450
318.568329 -51.801392 4.751111 0.582116
318.568329 -51.801395 4.242787 0.680247
318.606232 -51.867138 3.748105 0.255451
318.615784 -51.883690 3.247529 0.678431
318.615784 -51.883694 2.747447 0.678431
318.615784 -51.883690 2.248971 0.678431
318.615784 -51.883690 1.751029 0.678431
318.615784 -51.883694 1.252553 0.678431
318.615784 -51.883694 0.752470 0.678431
318.615784 -51.883694 0.249697 0.650309
317.750702 -50.383438 0.000010 0.550912
316.506256 -48.225292 0.000010 0.507866
315.641296 -46.725300 0.000010 0.546899
315.004059 -45.620174 0.000010 0.524422
318.476929 -51.854183 5.787382 0.728954
318.476929 -51.854187 5.265625 0.415061
318.476929 -51.854183 4.751191 0.420630
318.476929 -51.854179 4.242851 0.704265
318.514313 -51.920105 3.748144 0.223957
318.523804 -51.936813 3.247565 0.678431
318.523804 -51.936813 2.747469 0.678431
318.523804 -51.936813 2.248978 0.678431
318.523804 -51.936813 1.751022 0.678431
318.523804 -51.936813 1.252531 0.678431
318.523804 -51.936813 0.752434 0.678431
318.523804 -51.936813 0.249646 0.648997
317.668976 -50.430168 0.000011 0.550317
316.439636 -48.263390 0.000011 0.541894
315.585205 -46.757393 0.000010 0.586343
314.955658 -45.647846 0.000011 0.482078
318.385498 -51.906979 5.787677 0.365087
318.385498 -51.906982 5.265878 0.394537
318.385498 -51.906982 4.751405 0.561822
318.385498 -51.906979 4.243026 0.365164
318.422302 -51.972927 3.748248 0.206073
318.431824 -51.989941 3.247662 0.519524
318.431824 -51.989941 2.747527 0.550530
318.431824 -51.989941 2.248998 0.550530
318.431824 -51.989941 1.751002 0.550530
318.431824 -51.989941 1.252473 0.550530
318.431824 -51.989941 0.752337 0.678431
318.431824 -51.989941 0.249510 0.648997
317.586945 -50.476334 0.000010 0.536889
316.372772 -48.301025 0.000010 0.560204
315.528839 -46.789104 0.000010 0.536110
314.907104 -45.675186 0.000010 0.529274
318.294067 -51.959785 5.788156 0.502602
318.294067 -51.959785 5.266291 0.807858
318.294067 -51.959785 4.751753 0.588083
318.294067 -51.959785 4.243310 0.525948
318.547821 -52.421967 3.800436 0.711742
319.920715 -54.922432 3.517159 0.678431
319.920715 -54.922432 2.908994 0.678431
319.920715 -54.922432 2.302781 0.678431
319.920715 -54.922432 1.697219 0.678431
319.920715 -54.922432 1.091006 0.678431
319.920715 -54.922432 0.482841 0.678431
318.744965 -52.781017 0.152441 0.710506
317.504608 -50.521923 0.000011 0.536110
316.305634 -48.338188 0.000010 0.527031
315.472290 -46.820412 0.000011 0.513069
314.858337 -45.702183 0.000011 0.534203
319.763641 -54.903439 6.611766 0.616114
319.763641 -54.903435 5.976439 0.482734
319.763641 -54.903435 5.350032 0.582849
319.763641 -54.903435 4.731043 0.608591
319.763641 -54.903435 4.118038 0.445335
319.808807 -54.987061 3.517425 0.678431
319.808807 -54.987061 2.909153 0.678431
319.808807 -54.987061 2.302834 0.678431
319.808807 -54.987061 1.697165 0.678431
319.808807 -54.987053 1.090847 0.678431
319.808807 -54.987057 0.482575 0.678431
319.276062 -54.000523 0.000011 0.534081
317.421936 -50.566933 0.000011 0.566644
316.238220 -48.374886 0.000011 0.530449
315.415527 -46.851330 0.000010 0.539193
314.809387 -45.728840 0.000011 0.563851
319.652283 -54.967758 6.612799 0.722866
319.652283 -54.967758 5.977329 0.651682
319.652283 -54.967758 5.350781 0.635493
319.652283 -54.967758 4.731655 0.552529
319.652283 -54.967754 4.118512 0.394141
319.696869 -55.051720 3.517765 0.678431
319.696838 -55.051712 2.909357 0.678431
319.696869 -55.051716 2.302902 0.678431
319.696838 -55.051712 1.697098 0.678431
319.696838 -55.051712 1.090643 0.678431
319.696838 -55.051712 0.482235 0.678431
319.169067 -54.057823 0.000011 0.525994
317.338959 -50.611374 0.000010 0.511421
316.170593 -48.411110 0.000011 0.581277
315.358521 -46.881844 0.000011 0.580941
314.760223 -45.755154 0.000011 0.552865
319.540833 -55.032108 6.614058 0.710231
319.540833 -55.032104 5.978415 0.423239
319.540833 -55.032108 5.351697 0.338170
319.540833 -55.032108 4.732401 0.560296
319.540833 -55.032112 4.119092 0.310430
319.584839 -55.116402 3.518179 0.678431
319.584839 -55.116398 2.909605 0.678431
319.584839 -55.116394 2.302985 0.678431
319.584839 -55.116394 1.697015 0.678431
319.584839 -55.116398 1.090395 0.678431
319.584839 -55.116398 0.481820 0.678431
319.061676 -54.114365 0.000010 0.536889
317.255676 -50.655228 0.000011 0.544335
316.102692 -48.446861 0.000011 0.545541
315.301331 -46.911964 0.000011 0.568811
314.710907 -45.781124 0.000011 0.514580
319.429352 -55.096497 6.615541 0.885252
319.429352 -55.096504 5.979695 0.506844
319.429352 -55.096504 5.352775 0.508339
319.429352 -55.096504 4.733280 0.697887
319.429352 -55.096497 4.119772 0.425681
319.472778 -55.181122 3.518667 0.678431
319.472778 -55.181122 2.909897 0.678431
319.472778 -55.181122 2.303083 0.678431
319.472778 -55.181122 1.696917 0.678431
319.472778 -55.181122 1.090102 0.678431
319.472778 -55.181122 0.481332 0.678431
318.953888 -54.170162 0.000011 0.574670
317.172089 -50.698498 0.000011 0.534874
316.034546 -48.482140 0.000011 0.539544
315.243896 -46.941685 0.000011 0.534615
314.661407 -45.806747 0.000011 0.582437
319.317780 -55.160938 6.617253 0.680415
319.317780 -55.160938 5.981170 0.709804
319.317780 -55.160934 5.354016 0.490303
319.317780 -55.160934 4.734293 0.630030
319.317780 -55.160934 4.120558 0.437400
319.349335 -55.223534 3.517177 0.067247
319.349335 -55.223534 2.909004 0.091112
319.349335 -55.223534 2.302785 0.086610
319.349335 -55.223534 1.697215 0.094118
319.349335 -55.223534 1.090995 0.090806
319.349335 -55.223534 0.482823 0.094118
318.845734 -54.225204 0.000011 0.527367
317.088196 -50.741180 0.000011 0.531868
315.966156 -48.516941 0.000011 0.585428
315.186279 -46.971004 0.000011 0.525261
314.611725 -45.832027 0.000011 0.538155
319.206116 -55.225418 6.619188 0.602197
319.206116 -55.225426 5.982840 0.417807
319.206116 -55.225422 5.355424 0.521904
319.206116 -55.225426 4.735440 0.543160
319.206116 -55.225422 4.121447 0.795514
319.248383 -55.310711 3.519868 0.678431
319.248383 -55.310715 2.910617 0.678431
319.248383 -55.310711 2.303322 0.678431
319.248383 -55.310711 1.696678 0.678431
319.248383 -55.310715 1.089383 0.678431
319.248383 -55.310711 0.480132 0.678431
318.737183 -54.279488 0.000011 0.530434
317.003998 -50.783287 0.000011 0.557397
315.897522 -48.551262 0.000011 0.495521
315.128479 -46.999920 0.000011 0.519692
314.561859 -45.856956 0.000011 0.532830
319.094330 -55.289967 6.621353 0.904112
319.094360 -55.289970 5.984705 0.568292
319.094360 -55.289970 5.356996 0.657923
319.094360 -55.289970 4.736721 0.672724
319.094330 -55.289963 4.122440 0.820813
319.136047 -55.375587 3.520579 0.569238
319.136047 -55.375587 2.911043 0.569238
319.136047 -55.375584 2.303464 0.600671
319.136047 -55.375584 1.696536 0.596536
319.136047 -55.375587 1.088957 0.596536
319.136047 -55.375587 0.479420 0.605631
318.628235 -54.333015 0.000011 0.534005
316.919525 -50.824795 0.000012 0.542809
315.828644 -48.585102 0.000011 0.542031
315.070465 -47.028427 0.000011 0.517388
314.511841 -45.881542 0.000011 0.556954
318.982483 -55.354576 6.623745 0.856947
318.982483 -55.354576 5.986767 0.638376
318.982483 -55.354576 5.358733 0.383276
318.982483 -55.354576 4.738137 0.695552
318.982483 -55.354576 4.123539 0.623209
319.023590 -55.440529 3.521366 0.678431
319.023590 -55.440529 2.911514 0.678431
319.023590 -55.440529 2.303621 0.678431
319.023590 -55.440529 1.696379 0.678431
319.023590 -55.440529 1.088485 0.678431
319.023590 -55.440529 0.478633 0.678431
318.518951 -54.385780 0.000011 0.518029
316.834747 -50.865723 0.000011 0.533364
315.759552 -48.618462 0.000012 0.527977
315.012238 -47.056534 0.000011 0.530327
314.461639 -45.905777 0.000011 0.548898
318.870483 -55.419250 6.626364 0.596139
318.870483 -55.419250 5.989026 0.864485
318.870483 -55.419250 5.360636 0.582773
318.870483 -55.419250 4.739688 0.622538
318.870483 -55.419250 4.124743 0.886305
318.911011 -55.505539 3.522228 0.678431
318.911011 -55.505539 2.912031 0.678431
318.911011 -55.505539 2.303793 0.678431
318.911011 -55.505539 1.696207 0.678431
318.911011 -55.505539 1.087969 0.678431
318.911011 -55.505539 0.477772 0.678431
318.409271 -54.437775 0.000012 0.532860
316.749695 -50.906044 0.000011 0.562875
315.690216 -48.651340 0.000011 0.579675
314.953827 -47.084232 0.000011 0.515663
314.411285 -45.929657 0.000011 0.557671
318.758362 -55.484005 6.629212 0.766964
318.758362 -55.484009 5.991483 0.687953
318.758362 -55.484009 5.362705 0.546349
318.758362 -55.484009 4.741375 0.441001
318.758362 -55.484009 4.126051 0.877012
318.798309 -55.570625 3.523166 0.678431
318.798309 -55.570629 2.912592 0.678431
318.798309 -55.570625 2.303980 0.678431
318.798309 -55.570625 1.696020 0.678431
318.798309 -55.570625 1.087407 0.678431
318.798309 -55.570625 0.476834 0.678431
318.299255 -54.489010 0.000011 0.546777
316.664368 -50.945778 0.000012 0.542443
315.620636 -48.683731 0.000011 0.546212
314.895203 -47.111519 0.000011 0.543053
314.360748 -45.953186 0.000011 0.566735
318.646088 -55.548843 6.632289 0.663905
318.646088 -55.548843 5.994135 0.370977
318.646088 -55.548843 5.364941 0.667903
318.646088 -55.548843 4.743198 0.509789
318.646088 -55.548843 4.127464 0.571420
318.685486 -55.635796 3.524178 0.678431
318.685486 -55.635796 2.913199 0.678431
318.685486 -55.635796 2.304182 0.678431
318.685486 -55.635796 1.695818 0.678431
318.685455 -55.635796 1.086801 0.678431
318.685486 -55.635796 0.475822 0.678431
318.188873 -54.539478 0.000011 0.524010
316.578766 -50.984921 0.000011 0.550759
315.550873 -48.715637 0.000011 0.503014
314.836426 -47.138401 0.000011 0.520729
314.310059 -45.976364 0.000011 0.506065
318.533661 -55.613770 6.635598 0.327520
318.533661 -55.613777 5.996989 0.827039
318.533661 -55.613770 5.367344 0.385687
318.533661 -55.613777 4.745157 0.588785
318.533661 -55.613770 4.128983 0.524086
318.574921 -55.706596 3.525763 0.381247
318.574921 -55.706604 2.914149 0.395087
318.574921 -55.706600 2.304499 0.393194
318.574921 -55.706600 1.695501 0.391318
318.574921 -55.706604 1.085850 0.389425
318.574921 -55.706596 0.474236 0.284627
318.078125 -54.589165 0.000012 0.545434
316.492889 -51.023453 0.000012 0.545419
315.480835 -48.747051 0.000012 0.540444
314.777435 -47.164867 0.000011 0.538293
314.259186 -45.999187 0.000011 0.538247
nan nan nan 0.000000
nan nan nan 0.000000
nan nan nan 0.000000
nan nan nan 0.000000
nan nan nan 0.000000
nan nan nan 0.000000
nan nan nan 0.000000
nan nan nan 0.000000
nan nan nan 0.000000
294.737549 -1.389378 0.000046 0.545830
301.262573 -16.346584 0.000011 0.337835
304.064148 -22.768585 0.000016 0.340246
305.624451 -26.345245 0.000013 0.546181
306.620575 -28.628635 0.000009 0.574884
307.312897 -30.215691 0.000007 0.530221
307.822998 -31.384954 0.000005 0.566735
nan nan nan 0.000000
nan nan nan 0.000000
nan nan nan 0.000000
nan nan nan 0.000000
nan nan nan 0.000000
nan nan nan 0.000000
nan nan nan 0.000000
nan nan nan 0.000000
nan nan nan 0.000000
294.998444 -1.276653 0.000046 0.538323
301.418884 -16.279037 0.000011 0.338033
304.175568 -22.720442 0.000016 0.339635
305.710846 -26.307911 0.000013 0.555169
306.691010 -28.598202 0.000009 0.575845
307.372253 -30.190046 0.000007 0.548959
307.874176 -31.362846 0.000005 0.544961
nan nan nan 0.000000
nan nan nan 0.000000
nan nan nan 0.000000
nan nan nan 0.000000
nan nan nan 0.000000
nan nan nan 0.000000
nan nan nan 0.000000
nan nan nan 0.000000
nan nan nan 0.000000
295.260132 -1.165752 0.000047 0.540017
301.575684 -16.212589 0.000011 0.339651
304.287292 -22.673082 0.000016 0.335531
305.797516 -26.271181 0.000013 0.565698
306.761658 -28.568258 0.000010 0.544472
307.431763 -30.164820 0.000007 0.539162
307.925476 -31.341095 0.000005 0.510521
nan nan nan 0.000000
nan nan nan 0.000000
nan nan nan 0.000000
nan nan nan 0.000000
nan nan nan 0.000000
293.239868 4.490105 5.829846 0.487755
nan nan nan 0.000000
nan nan nan 0.000000
nan nan nan 0.000000
295.522583 -1.056675 0.000047 0.542168
301.732910 -16.147242 0.000012 0.337423
304.399384 -22.626501 0.000016 0.335149
305.884430 -26.235058 0.000013 0.526238
306.832520 -28.538807 0.000010 0.529183
307.491455 -30.140007 0.000007 0.534447
307.976959 -31.319700 0.000005 0.552010
nan nan nan 0.000000
nan nan nan 0.000000
nan nan nan 0.000000
nan nan nan 0.000000
nan nan nan 0.000000
293.652252 4.339428 5.805645 0.456641
nan nan nan 0.000000
293.588165 4.498360 2.762303 0.484932
nan nan nan 0.000000
295.785797 -0.949455 0.000048 0.540612
301.890625 -16.082985 0.000011 0.335012
304.511780 -22.580702 0.000016 0.340124
305.971588 -26.199539 0.000013 0.536416
306.903564 -28.509853 0.000010 0.541756
307.551331 -30.115614 0.000007 0.556573
308.028564 -31.298668 0.000005 0.493233
nan nan nan 0.000000
nan nan nan 0.000000
nan nan nan 0.000000
nan nan nan 0.000000
293.735138 5.011208 7.407616 0.465080
294.004303 4.330254 5.794241 0.459709
294.010742 4.313942 4.272428 0.475425
