# This PCD file was generated using the MATLABÂ® pcwrite function
# from Computer Vision ToolboxÂ®.
# .PCD v.7 - Point Cloud Data file format
VERSION .7
FIELDS x y z intensity
SIZE 4 4 4 4
TYPE F F F F
COUNT 1 1 1 1
WIDTH 1250
HEIGHT 1
VIEWPOINT 0 0 0 1 0 0 0
POINTS 1250
DATA ascii
380.542755 -113.199463 6.115509 0.954940
380.549652 -113.160713 4.467707 0.741024
380.549652 -113.160736 2.821980 0.726513
380.549652 -113.160767 1.178019 0.729900
378.881165 -122.532974 -0.000040 0.543648
376.020844 -138.600143 -0.000026 0.541268
374.792786 -145.498306 -0.000021 0.542092
374.108856 -149.340195 -0.000018 0.537499
373.672211 -151.792953 -0.000009 0.338735
373.368713 -153.497681 -0.000008 0.340719
373.145111 -154.753632 -0.000006 0.329976
nan nan nan 0.000000
nan nan nan 0.000000
nan nan nan 0.000000
nan nan nan 0.000000
380.511536 -115.291969 7.536631 0.624674
380.511536 -115.291969 5.946236 0.644755
380.511536 -115.291962 4.364356 0.611002
380.511536 -115.291962 2.787556 0.603418
380.511536 -115.291962 1.212444 0.622110
379.160828 -122.583755 -0.000040 0.541558
376.188385 -138.630569 -0.000026 0.542229
374.912201 -145.519989 -0.000021 0.523903
374.201447 -149.357025 -0.000018 0.537133
373.747711 -151.806671 -0.000009 0.334569
373.432312 -153.509232 -0.000007 0.329824
373.199982 -154.763596 -0.000006 0.343481
nan nan nan 0.000000
nan nan nan 0.000000
nan nan nan 0.000000
nan nan nan 0.000000
380.549652 -116.871552 7.358884 0.724010
380.505585 -117.100563 5.800423 0.937255
380.549652 -116.871582 4.288448 0.731533
380.549652 -116.871613 2.762270 0.735653
380.549652 -116.871628 1.237729 0.740642
379.440094 -122.636505 -0.000040 0.538933
376.355713 -138.662170 -0.000026 0.543069
375.031464 -145.542511 -0.000021 0.536889
374.293945 -149.374481 -0.000018 0.553857
373.812714 -151.874939 0.010004 1.000000
373.495850 -153.521225 -0.000007 0.340230
373.254730 -154.773941 -0.000006 0.333043
nan nan nan 0.000000
nan nan nan 0.000000
nan nan nan 0.000000
nan nan nan 0.000000
380.549652 -118.532059 7.171426 0.744183
380.529602 -118.632454 5.677541 0.611765
380.549652 -118.532097 4.208396 0.750256
380.549652 -118.532127 2.735606 0.750622
380.549652 -118.532150 1.264394 0.744854
379.719025 -122.691193 -0.000039 0.538415
376.522827 -138.694931 -0.000027 0.541787
375.150574 -145.565872 -0.000021 0.528054
374.386322 -149.392609 -0.000018 0.521859
373.887634 -151.889633 0.010003 1.000000
373.559296 -153.533661 -0.000007 0.331075
373.309448 -154.784668 -0.000006 0.345434
nan nan nan 0.000000
nan nan nan 0.000000
nan nan nan 0.000000
380.249847 -121.528900 8.223659 0.530037
380.548920 -120.083954 6.996459 0.917464
380.548920 -120.083954 5.561227 0.914961
380.549652 -120.080444 4.133856 0.734646
380.549652 -120.080460 2.710777 0.739361
380.549652 -120.080490 1.289223 0.733333
379.997528 -122.747849 -0.000039 0.541680
376.689697 -138.728867 -0.000027 0.544793
375.269531 -145.590057 -0.000021 0.548913
374.478577 -149.411362 -0.000018 0.549828
373.973602 -151.850967 -0.000009 0.326390
373.622650 -153.546555 -0.000007 0.339178
373.364075 -154.795776 -0.000005 0.334142
nan nan nan 0.000000
nan nan nan 0.000000
nan nan nan 0.000000
380.249847 -122.926888 8.020739 0.531472
380.529663 -121.620941 6.822982 0.611765
380.529663 -121.620926 5.437582 0.611765
380.549652 -121.527740 4.064282 0.740642
380.549652 -121.527756 2.687602 0.729015
380.549652 -121.527779 1.312398 0.725948
380.275665 -122.806412 -0.000040 0.540917
376.856323 -138.763977 -0.000026 0.541115
375.388275 -145.615067 -0.000021 0.535302
374.570679 -149.430756 -0.000018 0.533989
374.048676 -151.866791 -0.000008 0.335103
373.685883 -153.559875 -0.000007 0.339361
373.418610 -154.807266 -0.000006 0.343740
nan nan nan 0.000000
nan nan nan 0.000000
nan nan nan 0.000000
380.496490 -123.123596 8.000018 0.504387
380.529694 -122.973709 6.670924 0.611765
380.529694 -122.973717 5.329203 0.611765
380.549652 -122.883698 3.999196 0.758007
380.549652 -122.883713 2.665922 0.743038
380.549622 -122.883736 1.334078 0.728115
380.549622 -122.883759 0.000807 0.754849
377.022705 -138.800232 -0.000026 0.546151
375.506866 -145.640915 -0.000021 0.544411
374.662628 -149.450806 -0.000018 0.544747
374.123688 -151.883087 -0.000016 0.509606
373.749054 -153.573639 -0.000007 0.339345
373.473083 -154.819138 -0.000006 0.333471
nan nan nan 0.000000
nan nan nan 0.000000
nan nan nan 0.000000
380.549652 -124.156754 7.852242 0.754345
380.508606 -124.336136 6.517488 0.952789
380.508575 -124.336136 5.219841 0.949020
380.549652 -124.156807 3.938180 0.736858
380.549652 -124.156830 2.645599 0.755810
380.549622 -124.156853 1.354403 0.752651
380.549622 -124.156860 0.061823 0.724071
377.188843 -138.837631 -0.000027 0.533684
375.625275 -145.667572 -0.000021 0.557229
374.754486 -149.471481 -0.000018 0.529793
374.198547 -151.899948 -0.000016 0.538384
373.801788 -153.633026 0.010003 1.000000
373.527466 -154.831390 -0.000006 0.333684
nan nan nan 0.000000
nan nan nan 0.000000
nan nan nan 0.000000
380.320251 -126.325348 7.531215 0.631037
380.320251 -126.325348 6.289689 0.611643
380.320251 -126.325348 5.057475 0.616815
380.320251 -126.325348 3.831862 0.609461
380.320251 -126.325348 2.610184 0.637339
380.320251 -126.325348 1.389815 0.621210
380.320251 -126.325348 0.168137 0.603677
377.354675 -138.876221 -0.000027 0.541024
375.743500 -145.695084 -0.000021 0.537423
374.846161 -149.492813 -0.000018 0.513954
374.273285 -151.917328 -0.000016 0.520989
373.864441 -153.647598 0.010002 1.000000
373.581757 -154.844009 -0.000005 0.331395
nan nan nan 0.000000
nan nan nan 0.000000
nan nan nan 0.000000
380.564301 -126.423447 7.525513 0.603937
380.564301 -126.423447 6.285266 0.619287
380.564301 -126.423462 5.054322 0.642191
380.564301 -126.423462 3.829972 0.628763
380.564301 -126.423454 2.609556 0.611521
380.564301 -126.423454 1.390444 0.625360
380.564301 -126.423462 0.170026 0.626764
377.520264 -138.915955 -0.000027 0.557504
375.861511 -145.723404 -0.000021 0.536400
374.937683 -149.514771 -0.000018 0.540810
374.347900 -151.935242 -0.000016 0.534463
373.927002 -153.662598 0.010002 1.000000
373.635956 -154.857025 -0.000005 0.336675
nan nan nan 0.000000
nan nan nan 0.000000
nan nan nan 0.000000
380.777435 -126.642479 7.501565 0.737499
380.777466 -126.642334 6.266709 0.726528
380.777496 -126.642197 5.041110 0.703243
380.777527 -126.642052 3.822064 0.726162
380.777588 -126.641907 2.606923 0.714946
380.777618 -126.641754 1.393074 0.738781
380.777649 -126.641617 0.177913 0.708705
377.685577 -138.956848 -0.000027 0.531624
375.979340 -145.752548 -0.000021 0.532952
375.029053 -149.537384 -0.000018 0.552529
374.422394 -151.953659 -0.000016 0.541466
374.000732 -153.633102 -0.000006 0.344961
373.690063 -154.870407 -0.000005 0.336400
nan nan nan 0.000000
nan nan nan 0.000000
nan nan nan 0.000000
381.044891 -126.642349 7.511377 0.715694
381.012207 -126.768814 6.259277 0.942763
381.012207 -126.768814 5.035801 0.922759
381.045013 -126.641930 3.825315 0.714946
381.045044 -126.641800 2.608006 0.714763
381.045074 -126.641655 1.391992 0.711391
381.045105 -126.641502 0.174664 0.697673
377.850586 -138.998901 -0.000027 0.536263
376.096954 -145.782516 -0.000021 0.536843
375.120270 -149.560623 -0.000018 0.537209
374.496735 -151.972610 -0.000016 0.536171
374.063354 -153.649078 -0.000006 0.335378
373.744080 -154.884171 -0.000005 0.342794
nan nan nan 0.000000
nan nan nan 0.000000
nan nan nan 0.000000
381.313324 -126.642242 7.521495 0.721263
381.307953 -126.662422 6.279747 0.611765
381.294678 -126.712418 5.046148 0.955306
381.313446 -126.641808 3.828665 0.731334
381.313477 -126.641678 2.609122 0.719921
381.313507 -126.641541 1.390876 0.739681
381.313568 -126.641388 0.171313 0.725170
378.015320 -139.042084 -0.000027 0.545846
376.214355 -145.813293 -0.000021 0.543679
375.211334 -149.584488 -0.000018 0.532540
374.570984 -151.992081 -0.000016 0.523079
374.125916 -153.665436 -0.000013 0.525994
373.787720 -154.936920 0.010003 1.000000
nan nan nan 0.000000
nan nan nan 0.000000
nan nan nan 0.000000
381.582764 -126.642120 7.531920 0.734966
381.577209 -126.662415 6.287814 0.611765
381.563538 -126.712418 5.051891 0.956359
381.582886 -126.641693 3.832118 0.753445
381.582916 -126.641571 2.610271 0.743496
381.582947 -126.641418 1.389725 0.756344
381.583008 -126.641281 0.167861 0.737408
378.179718 -139.086426 -0.000027 0.533165
376.331543 -145.844910 -0.000021 0.534554
375.302216 -149.609009 -0.000018 0.525292
374.645050 -152.012054 -0.000016 0.538018
374.188324 -153.682266 -0.000013 0.525963
373.841278 -154.951370 0.010004 1.000000
nan nan nan 0.000000
nan nan nan 0.000000
nan nan nan 0.000000
381.853241 -126.641975 7.542660 0.758129
381.841888 -126.682411 6.293731 0.278599
381.833466 -126.712418 5.057802 0.955139
381.853363 -126.641556 3.835675 0.740001
381.853394 -126.641457 2.611457 0.753109
381.853424 -126.641312 1.388542 0.766064
381.853485 -126.641159 0.164305 0.772732
378.343842 -139.131927 -0.000027 0.544259
376.448517 -145.877319 -0.000022 0.545327
375.392914 -149.634155 -0.000018 0.544472
374.719025 -152.032562 -0.000016 0.549554
374.250610 -153.699539 -0.000013 0.504875
373.894714 -154.966171 0.010000 1.000000
nan nan nan 0.000000
nan nan nan 0.000000
nan nan nan 0.000000
382.124786 -126.641846 7.553710 0.776471
382.118835 -126.662415 6.304671 0.611765
382.104431 -126.712418 5.063888 0.945922
382.124908 -126.641434 3.839333 0.776471
382.124939 -126.641342 2.612674 0.776471
382.124969 -126.641205 1.387323 0.754681
382.125000 -126.641052 0.160647 0.776471
378.507599 -139.178558 -0.000027 0.546136
376.565247 -145.910568 -0.000022 0.544228
375.483459 -149.659927 -0.000018 0.537926
374.792816 -152.053574 -0.000016 0.524834
374.312805 -153.717239 -0.000013 0.529778
373.948059 -154.981369 0.010002 1.000000
nan nan nan 0.000000
nan nan nan 0.000000
nan nan nan 0.000000
382.397430 -126.641701 7.565077 0.769574
382.391296 -126.662415 6.313462 0.611765
382.376495 -126.712418 5.070147 0.944106
382.397522 -126.641312 3.843096 0.764706
382.397552 -126.641228 2.613928 0.762387
382.397614 -126.641083 1.386069 0.764706
382.397644 -126.640938 0.156883 0.764706
378.671051 -139.226334 -0.000027 0.543862
376.681732 -145.944626 -0.000021 0.541207
375.573792 -149.686340 -0.000018 0.543511
374.866455 -152.075104 -0.000016 0.526879
374.374847 -153.735382 -0.000013 0.559380
374.012634 -154.958633 -0.000005 0.333944
nan nan nan 0.000000
nan nan nan 0.000000
nan nan nan 0.000000
382.671204 -126.641556 7.576763 0.764523
382.664856 -126.662415 6.322503 0.611765
382.649658 -126.712418 5.076581 0.919158
382.671295 -126.641190 3.846966 0.766155
382.671326 -126.641113 2.615217 0.766690
382.671356 -126.640968 1.384781 0.766735
382.671417 -126.640823 0.153015 0.764172
378.834167 -139.275253 -0.000027 0.531456
376.797974 -145.979492 -0.000022 0.530404
375.663940 -149.713379 -0.000018 0.537270
374.939972 -152.097153 -0.000016 0.549187
374.436768 -153.753952 -0.000013 0.510811
374.066040 -154.974640 -0.000004 0.332616
nan nan nan 0.000000
nan nan nan 0.000000
nan nan nan 0.000000
382.946136 -126.641418 7.588770 0.776471
382.939606 -126.662407 6.331794 0.611765
382.924011 -126.712418 5.083194 0.931182
382.946228 -126.641060 3.850941 0.763241
382.946259 -126.641006 2.616541 0.764981
382.946289 -126.640854 1.383456 0.776471
382.946350 -126.640709 0.149039 0.775280
378.996918 -139.325302 -0.000027 0.527001
376.914001 -146.015167 -0.000021 0.542489
375.753937 -149.741058 -0.000018 0.547189
375.013306 -152.119705 -0.000016 0.575265
374.498566 -153.772964 -0.000013 0.533822
374.119324 -154.991028 -0.000005 0.340200
nan nan nan 0.000000
nan nan nan 0.000000
nan nan nan 0.000000
383.222260 -126.641281 7.601103 0.739376
383.215515 -126.662407 6.341338 0.611765
383.199554 -126.712418 5.089986 0.936980
383.222382 -126.640930 3.855026 0.776471
383.222382 -126.640884 2.617900 0.776471
383.222443 -126.640732 1.382096 0.764797
383.222473 -126.640594 0.144956 0.776471
379.159332 -139.376480 -0.000027 0.535348
377.029755 -146.051651 -0.000022 0.547738
375.843689 -149.769348 -0.000018 0.554620
375.086517 -152.142776 -0.000016 0.521553
374.560211 -153.792389 -0.000013 0.522728
374.172485 -155.007751 -0.000011 0.558358
nan nan nan 0.000000
nan nan nan 0.000000
nan nan nan 0.000000
383.499634 -126.641136 7.613766 0.757534
383.492676 -126.662415 6.351134 0.611765
383.492676 -126.662407 5.101273 0.611765
383.499756 -126.640808 3.859220 0.764172
383.499756 -126.640762 2.619298 0.760311
383.499817 -126.640625 1.380700 0.761563
383.499847 -126.640472 0.140763 0.764706
379.321381 -139.428818 -0.000027 0.539193
377.145264 -146.088943 -0.000022 0.543893
375.933289 -149.798264 -0.000018 0.539467
375.159515 -152.166351 -0.000016 0.527611
374.621735 -153.812256 -0.000013 0.529747
374.225525 -155.024887 -0.000011 0.514931
nan nan nan 0.000000
nan nan nan 0.000000
nan nan nan 0.000000
383.778259 -126.640999 7.626758 0.764172
383.771118 -126.662415 6.361189 0.611765
383.771118 -126.662399 5.108439 0.611765
383.778381 -126.640678 3.863521 0.753445
383.778381 -126.640640 2.620730 0.758175
383.778442 -126.640511 1.379267 0.768154
383.778473 -126.640366 0.136461 0.764706
379.483063 -139.482269 -0.000027 0.559518
377.260498 -146.127045 -0.000021 0.532723
376.022644 -149.827820 -0.000018 0.541070
375.232391 -152.190430 -0.000016 0.535546
374.683136 -153.832550 -0.000013 0.555108
374.278442 -155.042374 -0.000011 0.545296
nan nan nan 0.000000
nan nan nan 0.000000
nan nan nan 0.000000
384.058228 -126.640869 7.640087 0.776471
384.033722 -126.712418 6.365424 0.946548
384.033722 -126.712410 5.111457 0.952178
384.058319 -126.640549 3.867936 0.776471
384.058350 -126.640503 2.622201 0.772793
384.058380 -126.640388 1.377797 0.776471
384.058441 -126.640236 0.132048 0.776471
379.644379 -139.536850 -0.000027 0.554040
377.375458 -146.165939 -0.000022 0.542947
376.111816 -149.857986 -0.000018 0.512489
375.305084 -152.215027 -0.000016 0.547890
374.744354 -153.853271 -0.000013 0.558114
374.331268 -155.060242 -0.000011 0.539223
nan nan nan 0.000000
nan nan nan 0.000000
nan nan nan 0.000000
384.339508 -126.640717 7.653757 0.764035
384.339508 -126.640686 6.384727 0.762524
384.339569 -126.640564 5.125227 0.751858
384.339600 -126.640427 3.872462 0.765530
384.339630 -126.640381 2.623709 0.776471
384.339661 -126.640274 1.376289 0.762448
384.339722 -126.640121 0.127522 0.757763
379.805298 -139.592560 -0.000027 0.544457
377.490173 -146.205643 -0.000022 0.540856
376.200775 -149.888779 -0.000018 0.545174
375.377594 -152.240128 -0.000016 0.533822
374.805450 -153.874420 -0.000013 0.521080
374.383942 -155.078476 -0.000011 0.517952
nan nan nan 0.000000
nan nan nan 0.000000
nan nan nan 0.000000
384.622192 -126.640579 7.667770 0.764706
384.622192 -126.640549 6.395595 0.758358
384.622223 -126.640442 5.132971 0.762081
384.622284 -126.640289 3.877102 0.760555
384.622284 -126.640244 2.625255 0.749996
384.622314 -126.640152 1.374744 0.763394
384.622375 -126.640007 0.122882 0.761212
379.965820 -139.649384 -0.000027 0.542000
377.604584 -146.246155 -0.000022 0.549584
376.289490 -149.920197 -0.000018 0.533715
375.449921 -152.265747 -0.000016 0.564736
374.866394 -153.895996 -0.000013 0.523751
374.436493 -155.097076 -0.000011 0.572808
nan nan nan 0.000000
nan nan nan 0.000000
nan nan nan 0.000000
384.906250 -126.640434 7.682130 0.776471
384.906281 -126.640404 6.406734 0.776471
384.906311 -126.640312 5.140907 0.752941
384.906372 -126.640167 3.881856 0.751156
384.906372 -126.640114 2.626839 0.776471
384.906403 -126.640030 1.373160 0.752941
384.906464 -126.639893 0.118127 0.754070
380.125946 -139.707321 -0.000027 0.530434
377.718689 -146.287445 -0.000022 0.548058
376.377991 -149.952225 -0.000019 0.525322
375.522095 -152.291855 -0.000016 0.517647
374.927185 -153.917999 -0.000013 0.554192
374.488892 -155.116043 -0.000012 0.504723
nan nan nan 0.000000
nan nan nan 0.000000
nan nan nan 0.000000
385.191803 -126.640289 7.696841 0.776471
385.191833 -126.640259 6.418142 0.776150
385.191864 -126.640175 5.149038 0.776333
385.191895 -126.640030 3.886728 0.761440
385.191925 -126.639984 2.628461 0.756252
385.191956 -126.639915 1.371537 0.776471
385.192017 -126.639771 0.113257 0.776471
380.285675 -139.766388 -0.000028 0.539269
377.832550 -146.329544 -0.000022 0.536385
376.466278 -149.984863 -0.000018 0.546166
375.594055 -152.318466 -0.000016 0.561685
374.987823 -153.940414 -0.000013 0.549645
374.541168 -155.135376 -0.000012 0.561273
nan nan nan 0.000000
nan nan nan 0.000000
nan nan nan 0.000000
385.478851 -126.640144 7.711907 0.753216
385.470337 -126.662445 6.427077 0.611765
385.470337 -126.662445 5.155400 0.611765
385.478943 -126.639908 3.891719 0.750912
385.478973 -126.639862 2.630124 0.763119
385.478973 -126.639801 1.369876 0.757839
385.479034 -126.639648 0.108268 0.758495
380.444946 -139.826569 -0.000028 0.539788
377.946075 -146.372437 -0.000022 0.539345
376.554352 -150.018127 -0.000019 0.531624
375.665833 -152.345581 -0.000016 0.509224
375.048309 -153.963257 -0.000013 0.549889
374.593323 -155.155075 -0.000012 0.535927
nan nan nan 0.000000
nan nan nan 0.000000
nan nan nan 0.000000
385.767426 -126.639999 7.727335 0.748226
385.758698 -126.662445 6.439014 0.611765
385.758698 -126.662445 5.163909 0.611765
385.767517 -126.639771 3.896827 0.738933
385.767548 -126.639732 2.631825 0.764111
385.767578 -126.639679 1.368174 0.754131
385.767609 -126.639526 0.103160 0.772564
380.603851 -139.887848 -0.000027 0.546914
378.059326 -146.416122 -0.000022 0.549783
376.642181 -150.052002 -0.000019 0.547417
375.737427 -152.373199 -0.000016 0.555200
375.108612 -153.986526 -0.000013 0.572595
374.645325 -155.175140 -0.000011 0.511604
nan nan nan 0.000000
nan nan nan 0.000000
nan nan nan 0.000000
386.057587 -126.639847 7.743126 0.753765
386.040649 -126.682419 6.448763 0.275563
386.040649 -126.682434 5.170856 0.285695
386.057678 -126.639648 3.902056 0.714748
386.057709 -126.639603 2.633566 0.776471
386.057709 -126.639557 1.366433 0.772824
386.057770 -126.639404 0.097931 0.714412
380.762268 -139.950256 -0.000028 0.534569
378.172272 -146.460587 -0.000022 0.539788
376.729767 -150.086487 -0.000019 0.536782
375.808838 -152.401321 -0.000016 0.544808
375.168762 -154.010208 -0.000013 0.554681
374.697205 -155.195572 -0.000011 0.539223
nan nan nan 0.000000
nan nan nan 0.000000
nan nan nan 0.000000
386.349365 -126.639709 7.759284 0.767025
386.340149 -126.662445 6.463742 0.611765
386.340149 -126.662445 5.181534 0.611765
386.349457 -126.639511 3.907406 0.672496
386.349457 -126.639465 2.635349 0.764492
386.349487 -126.639420 1.364651 0.764706
386.349548 -126.639282 0.092581 0.702373
380.920288 -140.013748 -0.000028 0.547936
378.284882 -146.505859 -0.000022 0.539071
376.817108 -150.121597 -0.000019 0.527855
375.880035 -152.429932 -0.000016 0.524376
375.228760 -154.034317 -0.000014 0.545983
374.748932 -155.216354 -0.000011 0.543740
nan nan nan 0.000000
nan nan nan 0.000000
nan nan nan 0.000000
386.642822 -126.639549 7.775819 0.764263
386.633331 -126.662445 6.476538 0.611765
386.633331 -126.662437 5.190654 0.611765
386.642883 -126.639374 3.912881 0.698390
386.642914 -126.639328 2.637172 0.751476
386.642914 -126.639282 1.362826 0.764706
386.642975 -126.639160 0.087107 0.713924
381.077850 -140.078339 -0.000028 0.554757
378.397186 -146.551895 -0.000021 0.537575
376.904175 -150.157303 -0.000019 0.554528
375.951050 -152.459045 -0.000016 0.554803
375.288574 -154.058853 -0.000013 0.534035
374.800507 -155.237503 -0.000011 0.560220
nan nan nan 0.000000
nan nan nan 0.000000
nan nan nan 0.000000
386.937958 -126.639404 7.792731 0.764614
386.928223 -126.662445 6.489625 0.611765
386.928223 -126.662437 5.199983 0.611765
386.938019 -126.639236 3.918481 0.715206
386.938049 -126.639191 2.639037 0.759976
386.938049 -126.639153 1.360961 0.776471
386.938110 -126.639023 0.081506 0.711635
381.234955 -140.144043 -0.000027 0.540597
378.509155 -146.598724 -0.000021 0.552819
376.991028 -150.193619 -0.000019 0.543069
376.021851 -152.488647 -0.000016 0.557092
375.348206 -154.083786 -0.000013 0.560678
374.851929 -155.259003 -0.000011 0.543206
nan nan nan 0.000000
nan nan nan 0.000000
nan nan nan 0.000000
387.234833 -126.639259 7.810024 0.775601
387.224854 -126.662445 6.503011 0.611765
387.224854 -126.662445 5.209523 0.611765
387.234894 -126.639099 3.924208 0.752071
387.234924 -126.639053 2.640946 0.776471
387.234924 -126.639008 1.359053 0.760250
387.234985 -126.638908 0.075781 0.728115
381.391602 -140.210846 -0.000027 0.530297
378.620789 -146.646332 -0.000022 0.543755
377.077606 -150.230545 -0.000019 0.561303
376.092438 -152.518753 -0.000016 0.535241
375.407684 -154.109146 -0.000013 0.563928
374.903198 -155.280869 -0.000011 0.528511
nan nan nan 0.000000
nan nan nan 0.000000
nan nan nan 0.000000
387.533508 -126.639114 7.827706 0.761303
387.514496 -126.682442 6.514185 0.278462
387.514496 -126.682442 5.217487 0.290196
387.533569 -126.638962 3.930064 0.762402
387.533600 -126.638916 2.642895 0.753292
387.533600 -126.638870 1.357103 0.752941
387.533661 -126.638779 0.069925 0.735103
381.547760 -140.278732 -0.000028 0.538155
378.732117 -146.694717 -0.000021 0.529137
377.163940 -150.268066 -0.000019 0.559380
376.162811 -152.549347 -0.000016 0.534157
375.466980 -154.134918 -0.000013 0.527672
374.954315 -155.303101 -0.000011 0.550805
nan nan nan 0.000000
nan nan nan 0.000000
nan nan nan 0.000000
387.834045 -126.638947 7.845784 0.737636
387.823517 -126.662445 6.530688 0.611765
387.823517 -126.662445 5.229249 0.611765
387.834076 -126.638832 3.936051 0.772045
387.834106 -126.638779 2.644890 0.758770
387.834137 -126.638733 1.355109 0.767742
387.834167 -126.638657 0.063940 0.757855
381.703461 -140.347702 -0.000028 0.542489
378.843079 -146.743881 -0.000022 0.544060
377.250000 -150.306198 -0.000019 0.522148
376.232971 -152.580429 -0.000016 0.549371
375.526093 -154.161102 -0.000014 0.549615
375.005280 -155.325668 -0.000011 0.503716
nan nan nan 0.000000
nan nan nan 0.000000
nan nan nan 0.000000
388.136444 -126.638802 7.864261 0.754253
388.125671 -126.662445 6.544989 0.611765
388.125671 -126.662445 5.239442 0.611765
388.136475 -126.638695 3.942168 0.770214
388.136505 -126.638641 2.646929 0.775235
388.136536 -126.638596 1.353071 0.776471
388.136566 -126.638535 0.057822 0.769390
381.858673 -140.417755 -0.000028 0.540536
378.953705 -146.793808 -0.000022 0.544945
377.335785 -150.344925 -0.000019 0.522454
376.302887 -152.612000 -0.000016 0.551904
375.584991 -154.187698 -0.000013 0.541253
375.056091 -155.348602 -0.000011 0.581979
nan nan nan 0.000000
nan nan nan 0.000000
nan nan nan 0.000000
388.440765 -126.638649 7.883142 0.720882
388.440796 -126.638626 6.562624 0.718929
388.440796 -126.638596 5.252014 0.691814
388.440796 -126.638550 3.948421 0.724285
388.440826 -126.638504 2.649010 0.729503
388.440857 -126.638458 1.350989 0.725505
388.440887 -126.638412 0.051571 0.755901
382.013367 -140.488907 -0.000028 0.546120
379.063965 -146.844513 -0.000022 0.532723
377.421326 -150.384247 -0.000019 0.524849
376.372620 -152.644058 -0.000016 0.559014
375.643738 -154.214706 -0.000014 0.516304
375.106720 -155.371887 -0.000011 0.531929
nan nan nan 0.000000
nan nan nan 0.000000
nan nan nan 0.000000
388.753845 -126.624161 7.904784 0.729778
388.747101 -126.638474 6.577585 0.709804
388.747101 -126.638443 5.262677 0.709316
388.747131 -126.638412 3.954809 0.728222
388.747162 -126.638367 2.651138 0.723247
388.747162 -126.638321 1.348861 0.702937
388.747192 -126.638275 0.045183 0.719402
382.167603 -140.561127 -0.000028 0.553353
379.173889 -146.895996 -0.000022 0.544991
377.506561 -150.424164 -0.000019 0.547112
376.442108 -152.676605 -0.000016 0.569284
375.702271 -154.242126 -0.000014 0.512520
375.157227 -155.395538 -0.000011 0.523415
nan nan nan 0.000000
nan nan nan 0.000000
nan nan nan 0.000000
388.755127 -127.262497 7.819396 0.742535
388.755096 -127.262543 6.513179 0.763363
388.761749 -127.248711 5.218026 0.745480
388.769135 -127.233353 3.928891 0.723018
388.769165 -127.233353 2.642505 0.739940
388.775574 -127.219994 1.357253 0.737163
388.783661 -127.203217 0.069464 0.717388
382.321289 -140.634415 -0.000028 0.543984
379.283447 -146.948227 -0.000022 0.532341
377.591522 -150.464676 -0.000019 0.540932
376.511383 -152.709625 -0.000016 0.500130
375.760651 -154.269958 -0.000013 0.548257
375.207520 -155.419525 -0.000011 0.537285
nan nan nan 0.000000
nan nan nan 0.000000
nan nan nan 0.000000
388.756775 -127.881813 7.736858 0.760830
388.756775 -127.881775 6.449177 0.757214
388.756744 -127.881851 5.171146 0.752331
388.760925 -127.873344 3.900432 0.758968
388.760925 -127.873337 2.633026 0.745113
388.760925 -127.873329 1.366974 0.761486
388.764709 -127.865570 0.099142 0.752148
382.474487 -140.708786 -0.000028 0.539971
379.392639 -147.001236 -0.000022 0.533837
377.676208 -150.505783 -0.000019 0.532937
376.580414 -152.743149 -0.000015 0.532113
375.818787 -154.298187 -0.000013 0.544579
375.257660 -155.443863 -0.000011 0.514656
nan nan nan 0.000000
nan nan nan 0.000000
nan nan nan 0.000000
388.873474 -128.252899 7.695177 0.714031
388.873474 -128.252899 6.416849 0.714031
388.873474 -128.252914 5.148108 0.684062
388.873474 -128.252899 3.886164 0.710719
388.873474 -128.252899 2.628272 0.713939
388.873474 -128.252899 1.371728 0.697795
388.873474 -128.252899 0.113835 0.715312
382.627167 -140.784225 -0.000028 0.552026
379.501434 -147.055008 -0.000022 0.536141
377.760590 -150.547485 -0.000018 0.530343
376.649200 -152.777130 -0.000016 0.529717
375.876740 -154.326828 -0.000013 0.553765
375.307648 -155.468567 -0.000011 0.520699
nan nan nan 0.000000
nan nan nan 0.000000
nan nan nan 0.000000
389.067627 -128.462708 7.680309 0.736400
389.067596 -128.462708 6.405315 0.733333
389.067596 -128.462723 5.139889 0.731624
389.067596 -128.462723 3.881239 0.721019
389.067596 -128.462723 2.626631 0.722118
389.067596 -128.462723 1.373368 0.741176
389.067596 -128.462723 0.118760 0.713939
382.779297 -140.860718 -0.000028 0.544320
379.609894 -147.109528 -0.000022 0.529885
377.844696 -150.589767 -0.000019 0.539864
376.717773 -152.811615 -0.000016 0.535210
375.934509 -154.355865 -0.000013 0.541726
375.357452 -155.493607 -0.000011 0.503471
nan nan nan 0.000000
nan nan nan 0.000000
nan nan nan 0.000000
389.260742 -128.671448 7.665791 0.722301
389.260742 -128.671448 6.394058 0.722835
389.260742 -128.671448 5.131865 0.722271
389.260742 -128.671448 3.876432 0.725856
389.260742 -128.671448 2.625031 0.704158
389.260742 -128.671448 1.374969 0.715312
389.260742 -128.671448 0.123567 0.680476
382.930908 -140.938263 -0.000028 0.542062
379.717926 -147.164810 -0.000022 0.536507
377.928497 -150.632645 -0.000019 0.552956
376.786072 -152.846558 -0.000016 0.518868
375.992065 -154.385315 -0.000013 0.547982
375.407074 -155.518997 -0.000012 0.533394
nan nan nan 0.000000
nan nan nan 0.000000
nan nan nan 0.000000
389.452881 -128.879120 7.651622 0.686870
389.452881 -128.879120 6.383067 0.716457
389.452881 -128.879120 5.124034 0.721096
389.452881 -128.879120 3.871740 0.713161
389.452881 -128.879135 2.623467 0.725628
389.452881 -128.879135 1.376532 0.712489
389.452881 -128.879120 0.128260 0.720897
383.081970 -141.016891 -0.000028 0.535515
379.825592 -147.220840 -0.000022 0.539300
378.011993 -150.676102 -0.000019 0.541711
376.854156 -152.881989 -0.000016 0.564263
376.049408 -154.415161 -0.000013 0.538888
375.456512 -155.544724 -0.000011 0.565240
nan nan nan 0.000000
nan nan nan 0.000000
nan nan nan 0.000000
389.644073 -129.085785 7.637797 0.712474
389.644073 -129.085770 6.372347 0.722560
389.644073 -129.085785 5.116391 0.734569
389.644073 -129.085785 3.867161 0.745052
389.644073 -129.085785 2.621943 0.734569
389.644073 -129.085785 1.378058 0.739101
389.644073 -129.085785 0.132838 0.716854
383.232452 -141.096558 -0.000028 0.542473
379.932861 -147.277618 -0.000022 0.540383
378.095184 -150.720139 -0.000019 0.541299
376.921967 -152.917892 -0.000016 0.557916
376.106537 -154.445404 -0.000013 0.531090
375.505798 -155.570801 -0.000011 0.544945
nan nan nan 0.000000
nan nan nan 0.000000
nan nan nan 0.000000
389.834351 -129.291428 7.624317 0.686030
389.834351 -129.291428 6.361891 0.684031
389.834351 -129.291428 5.108940 0.681453
389.834351 -129.291428 3.862696 0.684459
389.834351 -129.291428 2.620455 0.694957
389.834351 -129.291428 1.379544 0.697856
389.834351 -129.291428 0.137304 0.687099
383.382385 -141.177277 -0.000028 0.544411
380.039734 -147.335159 -0.000022 0.538705
378.178070 -150.764755 -0.000019 0.519677
376.989532 -152.954254 -0.000016 0.530098
376.163483 -154.476044 -0.000013 0.514534
375.554871 -155.597229 -0.000011 0.524010
nan nan nan 0.000000
nan nan nan 0.000000
nan nan nan 0.000000
390.023743 -129.496094 7.611171 0.723796
390.023712 -129.496109 6.351697 0.741939
390.023712 -129.496109 5.101672 0.700572
390.023712 -129.496109 3.858342 0.717006
390.023712 -129.496109 2.619005 0.731426
390.023712 -129.496109 1.380995 0.731426
390.023712 -129.496109 0.141657 0.723018
383.531769 -141.259033 -0.000028 0.533654
380.146210 -147.393433 -0.000022 0.537957
378.260620 -150.809952 -0.000019 0.558526
377.056854 -152.991104 -0.000016 0.538811
376.220184 -154.507080 -0.000013 0.566445
375.603760 -155.623993 -0.000011 0.600824
nan nan nan 0.000000
nan nan nan 0.000000
nan nan nan 0.000000
390.212219 -129.699844 7.598359 0.761242
390.212219 -129.699844 6.341761 0.768750
390.212219 -129.699844 5.094590 0.765530
390.212219 -129.699860 3.854100 0.758846
390.212219 -129.699860 2.617591 0.745861
390.212219 -129.699860 1.382408 0.765530
390.212219 -129.699860 0.145900 0.768704
383.680573 -141.341827 -0.000028 0.536339
380.252258 -147.452438 -0.000022 0.527428
378.342896 -150.855713 -0.000019 0.520165
377.123901 -153.028412 -0.000016 0.541817
376.276672 -154.538528 -0.000013 0.536568
375.652466 -155.651093 -0.000011 0.523949
nan nan nan 0.000000
nan nan nan 0.000000
nan nan nan 0.000000
390.464508 -129.789352 7.605224 0.719432
390.464478 -129.789352 6.347085 0.708156
390.464508 -129.789352 5.098386 0.697612
390.464508 -129.789352 3.856374 0.710445
390.464478 -129.789368 2.618350 0.712703
390.464478 -129.789368 1.381650 0.709804
390.464508 -129.789352 0.143626 0.710307
383.828796 -141.425674 -0.000028 0.539467
380.357910 -147.512207 -0.000022 0.537041
378.424805 -150.902069 -0.000019 0.542657
377.190704 -153.066193 -0.000016 0.523079
376.332947 -154.570343 -0.000013 0.588281
375.700989 -155.678543 -0.000011 0.537438
nan nan nan 0.000000
nan nan nan 0.000000
nan nan nan 0.000000
390.769409 -129.789352 7.627767 0.705165
390.769409 -129.789368 6.364566 0.728862
390.769409 -129.789368 5.110845 0.714672
390.769379 -129.789368 3.863839 0.721569
390.769409 -129.789368 2.620836 0.709926
390.769409 -129.789368 1.379164 0.698039
390.769379 -129.789368 0.136161 0.724880
383.976410 -141.510559 -0.000027 0.530495
380.463135 -147.572693 -0.000022 0.533745
378.506409 -150.948975 -0.000019 0.535210
377.257233 -153.104446 -0.000016 0.561105
376.388977 -154.602570 -0.000013 0.533837
375.749329 -155.706314 -0.000011 0.549493
nan nan nan 0.000000
nan nan nan 0.000000
nan nan nan 0.000000
391.076782 -129.789368 7.650767 0.729656
391.076782 -129.789368 6.382405 0.729656
391.076782 -129.789368 5.123560 0.729595
391.076782 -129.789368 3.871456 0.717693
391.076782 -129.789368 2.623373 0.730571
391.076782 -129.789368 1.376626 0.727840
391.076782 -129.789368 0.128543 0.730297
384.123444 -141.596451 -0.000027 0.536950
380.567932 -147.633926 -0.000022 0.536767
378.587677 -150.996460 -0.000019 0.526345
377.323486 -153.143158 -0.000015 0.517052
376.444824 -154.635178 -0.000013 0.511009
375.797455 -155.734436 -0.000011 0.520394
nan nan nan 0.000000
nan nan nan 0.000000
nan nan nan 0.000000
391.386688 -129.789368 7.674234 0.733608
391.386688 -129.789368 6.400605 0.727642
391.386688 -129.789368 5.136532 0.703731
391.386688 -129.789368 3.879227 0.727642
391.386688 -129.789368 2.625962 0.742489
391.386688 -129.789368 1.374038 0.703426
391.386688 -129.789368 0.120772 0.702205
384.269897 -141.683380 -0.000027 0.529259
380.672302 -147.695877 -0.000022 0.541009
378.668640 -151.044510 -0.000019 0.550057
377.389465 -153.182327 -0.000015 0.537346
376.500397 -154.668182 -0.000013 0.567208
375.845367 -155.762894 -0.000011 0.521935
nan nan nan 0.000000
nan nan nan 0.000000
393.596954 -126.667419 9.654432 0.244480
391.699219 -129.789368 7.698174 0.731411
391.699219 -129.789368 6.419171 0.721569
391.699219 -129.789368 5.149766 0.731212
391.699219 -129.789368 3.887156 0.725124
391.699219 -129.789368 2.628603 0.726329
391.699219 -129.789368 1.371397 0.725780
391.699219 -129.789368 0.112843 0.724788
384.415710 -141.771317 -0.000028 0.536828
380.776215 -147.758560 -0.000022 0.538201
378.749237 -151.093124 -0.000019 0.552148
377.455170 -153.221954 -0.000015 0.531426
376.555756 -154.701569 -0.000013 0.559503
375.893127 -155.791687 -0.000011 0.531060
nan nan nan 0.000000
nan nan nan 0.000000
393.375397 -127.585205 9.490976 0.232609
391.753540 -130.211807 7.648953 0.752041
391.753540 -130.211807 6.380998 0.752117
391.753540 -130.211807 5.122558 0.718502
391.753540 -130.211807 3.870856 0.751888
391.753540 -130.211807 2.623173 0.753170
391.753540 -130.211807 1.376827 0.749371
391.753540 -130.211807 0.129144 0.752636
384.560913 -141.860275 -0.000028 0.536904
380.879730 -147.821976 -0.000022 0.536843
378.829498 -151.142288 -0.000019 0.552239
377.520599 -153.262039 -0.000015 0.521675
376.610901 -154.735352 -0.000013 0.541207
375.940643 -155.820801 -0.000011 0.551904
nan nan nan 0.000000
nan nan nan 0.000000
393.164001 -128.463226 9.335012 0.209995
391.753540 -130.712173 7.585935 0.759655
391.753540 -130.712189 6.332124 0.757534
391.753540 -130.712189 5.087723 0.758541
391.753540 -130.712189 3.849985 0.765759
391.753540 -130.712189 2.616220 0.764111
391.753540 -130.712189 1.383779 0.755016
391.753540 -130.712189 0.150015 0.761624
384.705505 -141.950256 -0.000028 0.536889
380.982758 -147.886093 -0.000022 0.545708
378.909424 -151.192032 -0.000019 0.545419
377.585754 -153.302582 -0.000016 0.540688
376.665771 -154.769501 -0.000013 0.562448
375.987976 -155.850250 -0.000011 0.510430
nan nan nan 0.000000
nan nan nan 0.000000
392.962097 -129.304092 9.186047 0.210880
391.753540 -131.201553 7.524572 0.722332
391.733521 -131.233002 6.280247 0.611765
391.683563 -131.311432 5.043121 0.944778
391.753540 -131.201553 3.829662 0.715724
391.753540 -131.201553 2.609452 0.735866
391.753540 -131.201553 1.390548 0.704356
391.753540 -131.201553 0.170337 0.735668
384.849426 -142.041229 -0.000027 0.533074
381.085358 -147.950943 -0.000022 0.542916
378.988983 -151.242325 -0.000019 0.532998
377.650635 -153.343582 -0.000015 0.535866
376.720428 -154.804047 -0.000013 0.528893
376.035095 -155.880035 -0.000011 0.577020
nan nan nan 0.000000
nan nan nan 0.000000
392.769073 -130.110214 9.043634 0.223041
391.753540 -131.680313 7.464804 0.693309
391.737579 -131.705002 6.234801 0.268452
391.683563 -131.788498 5.010202 0.949157
391.753540 -131.680313 3.809868 0.721233
391.753540 -131.680313 2.602859 0.707637
391.753540 -131.680313 1.397142 0.709484
391.753540 -131.680313 0.190132 0.700069
384.992737 -142.133209 -0.000028 0.556222
381.187500 -148.016495 -0.000022 0.532769
379.068207 -151.293167 -0.000019 0.544778
377.715210 -153.385040 -0.000016 0.547311
376.774841 -154.838959 -0.000013 0.555093
376.082001 -155.910141 -0.000011 0.571466
nan nan nan 0.000000
nan nan nan 0.000000
392.584351 -130.883789 8.907362 0.202762
391.753540 -132.148834 7.406581 0.756710
391.733551 -132.179306 6.188835 0.611765
391.753540 -132.148834 4.988582 0.761898
391.753540 -132.148834 3.790585 0.774075
391.753540 -132.148834 2.596436 0.756664
391.753540 -132.148834 1.403564 0.776471
391.753540 -132.148834 0.209414 0.757168
385.135406 -142.226196 -0.000028 0.538247
381.289185 -148.082764 -0.000022 0.532418
379.147064 -151.344559 -0.000019 0.536904
377.779510 -153.426941 -0.000016 0.507240
376.828979 -154.874268 -0.000013 0.559197
376.128693 -155.940582 -0.000011 0.522499
nan nan nan 0.000000
nan nan nan 0.000000
392.407440 -131.626816 8.776850 0.243336
391.753540 -132.607498 7.349843 0.714794
391.733551 -132.637512 6.144876 0.611765
391.753540 -132.607513 4.957219 0.695903
391.753540 -132.607513 3.771794 0.701228
391.753540 -132.607513 2.590177 0.697688
391.753540 -132.607513 1.409824 0.698558
391.753540 -132.607513 0.228206 0.712795
385.277405 -142.320160 -0.000028 0.540734
381.390411 -148.149750 -0.000022 0.545953
379.225555 -151.396500 -0.000019 0.539376
377.843475 -153.469284 -0.000015 0.535149
376.882904 -154.909943 -0.000013 0.529915
376.175171 -155.971344 -0.000011 0.523888
nan nan nan 0.000000
nan nan nan 0.000000
392.237854 -132.341202 8.651743 0.240879
391.753540 -133.056671 7.294535 0.752026
391.713531 -133.115784 6.097921 0.281147
391.753540 -133.056702 4.926645 0.744518
391.753540 -133.056686 3.753477 0.762173
391.753540 -133.056686 2.584075 0.758495
391.753540 -133.056686 1.415925 0.761212
391.753540 -133.056686 0.246523 0.756924
385.418762 -142.415131 -0.000028 0.541222
381.491150 -148.217438 -0.000022 0.546960
379.303711 -151.449005 -0.000019 0.545922
377.907196 -153.512070 -0.000015 0.514366
376.936554 -154.945984 -0.000013 0.533486
376.221466 -156.002426 -0.000011 0.520897
nan nan nan 0.000000
nan nan nan 0.000000
392.075195 -133.028564 8.531737 0.240574
391.753540 -133.496674 7.240616 0.748898
391.733551 -133.525772 6.060253 0.611765
391.753540 -133.496674 4.896841 0.764843
391.753540 -133.496674 3.735620 0.753262
391.753540 -133.496674 2.578127 0.765103
391.753540 -133.496674 1.421874 0.764889
391.753540 -133.496674 0.264380 0.737484
385.559448 -142.511078 -0.000028 0.526513
381.591431 -148.285812 -0.000022 0.533135
379.381470 -151.502029 -0.000019 0.551186
377.970581 -153.555313 -0.000015 0.527413
376.989960 -154.982422 -0.000013 0.529671
376.267517 -156.033844 -0.000011 0.554620
nan nan nan 0.000000
nan nan nan 0.000000
391.453552 -134.357941 8.268475 0.501808
391.753540 -133.927811 7.188030 0.700374
391.747559 -133.936417 6.022327 0.949020
391.753540 -133.927811 4.867775 0.720958
391.753540 -133.927826 3.718204 0.734829
391.753540 -133.927826 2.572325 0.700633
391.753540 -133.927826 1.427674 0.742397
391.753540 -133.927826 0.281796 0.733074
385.699463 -142.608002 -0.000028 0.531914
381.691223 -148.354904 -0.000022 0.544854
379.458862 -151.555618 -0.000019 0.558709
378.033691 -153.598984 -0.000015 0.520836
377.043121 -155.019211 -0.000013 0.546136
376.313324 -156.065567 -0.000011 0.484855
nan nan nan 0.000000
nan nan nan 0.000000
391.453552 -134.774216 8.206498 0.499184
391.753571 -134.350418 7.136740 0.776471
391.753540 -134.350433 5.983755 0.765484
391.753540 -134.350433 4.839421 0.761990
391.753540 -134.350433 3.701218 0.776471
391.753540 -134.350433 2.566668 0.772381
391.753540 -134.350433 1.433333 0.776471
391.753540 -134.350433 0.298782 0.761578
385.838806 -142.705902 -0.000028 0.544793
381.790527 -148.424683 -0.000022 0.543359
379.535858 -151.609726 -0.000019 0.536110
378.096466 -153.643112 -0.000015 0.527062
377.096039 -155.056381 -0.000013 0.546334
376.358948 -156.097610 -0.000011 0.538613
nan nan nan 0.000000
nan nan nan 0.000000
391.453552 -135.182343 8.146038 0.500023
391.753571 -134.764771 7.086699 0.735637
391.753540 -134.764771 5.944946 0.714336
391.753540 -134.764771 4.811762 0.727504
391.753540 -134.764771 3.684643 0.724788
391.753540 -134.764771 2.561147 0.711101
391.753540 -134.764771 1.438853 0.725063
391.753540 -134.764771 0.315355 0.695155
385.977448 -142.804779 -0.000028 0.532998
381.889343 -148.495163 -0.000022 0.540291
379.612518 -151.664383 -0.000019 0.557137
378.158936 -153.687668 -0.000015 0.534722
377.148651 -155.093918 -0.000013 0.568139
376.404327 -156.129974 -0.000011 0.555550
nan nan nan 0.000000
nan nan nan 0.000000
391.453552 -135.582626 8.087032 0.509071
391.537231 -135.467850 6.983397 0.628901
391.537231 -135.467850 5.864833 0.629694
391.537231 -135.467865 4.754660 0.621912
391.537231 -135.467850 3.650432 0.627848
391.537231 -135.467850 2.549752 0.641611
391.537231 -135.467850 1.450249 0.631022
391.537231 -135.467850 0.349567 0.629099
386.115387 -142.904617 -0.000027 0.546548
381.987671 -148.566315 -0.000022 0.547387
379.688751 -151.719574 -0.000019 0.530373
378.221100 -153.732651 -0.000015 0.550683
377.201019 -155.131821 -0.000013 0.552361
376.449493 -156.162659 -0.000011 0.541665
nan nan nan 0.000000
nan nan nan 0.000000
391.453552 -135.975311 8.029445 0.503166
391.753540 -135.569794 6.990202 0.753536
391.753540 -135.569809 5.870110 0.762875
391.753540 -135.569809 4.758421 0.752850
391.753540 -135.569809 3.652686 0.759197
391.753540 -135.569809 2.550502 0.759564
391.753540 -135.569809 1.449498 0.757153
391.753540 -135.569809 0.347313 0.763470
386.252625 -143.005417 -0.000027 0.552010
382.085510 -148.638153 -0.000022 0.544564
379.764618 -151.775284 -0.000019 0.542046
378.282959 -153.778076 -0.000016 0.513603
377.253143 -155.170090 -0.000013 0.564981
376.494415 -156.195648 -0.000011 0.516640
nan nan nan 0.000000
nan nan nan 0.000000
391.541840 -136.243042 7.999980 0.513603
391.683563 -136.054230 6.926379 0.920562
391.699493 -136.033020 5.823665 0.932387
391.753540 -135.961014 4.732700 0.733074
391.753540 -135.961014 3.637275 0.732601
391.753540 -135.961014 2.545369 0.733288
391.753540 -135.961014 1.454632 0.733288
391.753540 -135.961014 0.362724 0.712917
386.389191 -143.107178 -0.000028 0.539467
382.182831 -148.710693 -0.000022 0.557275
379.840118 -151.831528 -0.000019 0.554559
378.344482 -153.823929 -0.000015 0.553460
377.304962 -155.208710 -0.000013 0.539361
376.539124 -156.228958 -0.000011 0.548318
nan nan nan 0.000000
nan nan nan 0.000000
391.725403 -136.381973 7.999962 0.508888
391.733521 -136.371307 6.893333 0.611765
391.733521 -136.371307 5.794984 0.611765
391.753540 -136.345016 4.707586 0.776471
391.753540 -136.345016 3.622228 0.776471
391.753540 -136.345001 2.540356 0.776471
391.753540 -136.345001 1.459643 0.776471
391.753540 -136.345016 0.377771 0.776471
386.524994 -143.209885 -0.000027 0.545464
382.279633 -148.783890 -0.000022 0.554742
379.915192 -151.888306 -0.000019 0.538827
378.405701 -153.870209 -0.000015 0.540063
377.356537 -155.247711 -0.000013 0.520699
376.583557 -156.262589 -0.000011 0.521508
nan nan nan 0.000000
393.763458 -134.120987 9.777246 0.210300
391.753571 -136.722015 7.953987 0.774441
391.713562 -136.773773 6.844165 0.272404
391.713562 -136.773758 5.756852 0.287343
391.753540 -136.722031 4.683057 0.763897
391.753540 -136.722031 3.607533 0.764706
391.753571 -136.722031 2.535462 0.760021
391.753571 -136.722031 1.464539 0.752941
391.753540 -136.722031 0.392467 0.761257
386.660126 -143.313538 -0.000027 0.542016
382.375916 -148.857758 -0.000022 0.538613
379.989868 -151.945602 -0.000019 0.533074
378.466583 -153.916916 -0.000015 0.544442
377.407837 -155.287064 -0.000013 0.530068
376.627808 -156.296509 -0.000011 0.518578
nan nan nan 0.000000
393.584320 -134.756958 9.645084 0.232502
391.753571 -137.092300 7.900819 0.717052
391.733551 -137.117828 6.805706 0.611765
391.733521 -137.117844 5.727025 0.611765
391.753540 -137.092300 4.659099 0.735775
391.753571 -137.092285 3.593178 0.721065
391.753540 -137.092300 2.530679 0.721340
391.753540 -137.092300 1.469320 0.717891
391.753571 -137.092285 0.406821 0.693401
386.794495 -143.418121 -0.000027 0.535409
382.471710 -148.932312 -0.000022 0.542443
380.064148 -152.003418 -0.000018 0.554406
378.527130 -153.964050 -0.000015 0.538659
377.458862 -155.326767 -0.000013 0.530816
376.671783 -156.330750 -0.000011 0.513497
nan nan nan 0.000000
393.412109 -135.370529 9.518028 0.234852
391.753571 -137.456024 7.848876 0.725200
391.713593 -137.506287 6.758649 0.276936
391.713593 -137.506302 5.690529 0.284886
391.753540 -137.456039 4.635692 0.721279
391.753540 -137.456039 3.579153 0.725963
391.753540 -137.456039 2.526009 0.718578
391.753540 -137.456039 1.473991 0.718700
391.753540 -137.456039 0.420846 0.705364
386.928162 -143.523651 -0.000027 0.536477
382.566956 -149.007538 -0.000022 0.541527
380.138031 -152.061752 -0.000019 0.551034
378.587372 -154.011612 -0.000015 0.522927
377.509583 -155.366821 -0.000013 0.555932
376.715546 -156.365295 -0.000011 0.505608
nan nan nan 0.000000
393.246429 -135.962921 9.395799 0.233539
391.753571 -137.813431 7.798119 0.766583
391.733551 -137.838257 6.722067 0.611765
391.733521 -137.838257 5.662158 0.611765
391.753540 -137.813446 4.612819 0.764294
391.753540 -137.813446 3.565450 0.755764
391.753571 -137.813431 2.521443 0.764446
391.753571 -137.813431 1.478556 0.757427
391.753540 -137.813431 0.434550 0.763607
387.061066 -143.630112 -0.000027 0.533257
382.661682 -149.083405 -0.000022 0.542397
380.211487 -152.120590 -0.000019 0.545083
378.647247 -154.059586 -0.000015 0.554376
377.560059 -155.407242 -0.000013 0.529503
376.759033 -156.400146 -0.000011 0.542184
nan nan nan 0.000000
393.086945 -136.535309 9.278130 0.210452
391.753571 -138.164703 7.748511 0.773190
391.713562 -138.213593 6.676986 0.264225
391.713562 -138.213593 5.627197 0.275471
391.753540 -138.164703 4.590464 0.761471
391.753540 -138.164719 3.552057 0.774823
391.753540 -138.164719 2.516982 0.775067
391.753540 -138.164719 1.483018 0.774792
391.753540 -138.164719 0.447943 0.758083
387.193207 -143.737488 -0.000028 0.543786
382.755890 -149.159943 -0.000022 0.551797
380.284546 -152.179947 -0.000019 0.526848
378.706818 -154.107971 -0.000015 0.555962
377.610229 -155.448013 -0.000013 0.510643
376.802307 -156.435287 -0.000011 0.668711
nan nan nan 0.000000
392.933289 -137.088730 9.164786 0.213916
391.753571 -138.510025 7.700026 0.716121
391.733551 -138.534149 6.642177 0.611765
391.733551 -138.534149 5.600202 0.611765
391.753540 -138.510040 4.568614 0.726085
391.753540 -138.510025 3.538965 0.716365
391.753571 -138.510025 2.512621 0.713237
391.753571 -138.510025 1.487378 0.725124
391.753571 -138.510025 0.461035 0.713451
387.324615 -143.845795 -0.000028 0.537804
382.849548 -149.237137 -0.000022 0.527840
380.357178 -152.239822 -0.000019 0.525490
378.766022 -154.156769 -0.000015 0.560998
377.660095 -155.489120 -0.000013 0.533852
376.845306 -156.470749 -0.000011 0.539284
nan nan nan 0.000000
392.785217 -137.624222 9.055538 0.243046
391.753571 -138.849594 7.652620 0.710262
391.683533 -138.932785 6.592050 0.937133
391.683533 -138.932785 5.561327 0.914137
391.753540 -138.849609 4.547251 0.691936
391.753540 -138.849609 3.526165 0.697444
391.753571 -138.849609 2.508359 0.696010
391.753571 -138.849609 1.491642 0.680644
391.753540 -138.849609 0.473835 0.678279
387.455261 -143.955017 -0.000027 0.539055
382.942688 -149.314987 -0.000022 0.535836
380.429413 -152.300186 -0.000019 0.520806
378.824890 -154.205994 -0.000015 0.538888
377.709717 -155.530594 -0.000013 0.503182
376.888092 -156.506500 -0.000011 0.534218
nan nan nan 0.000000
392.642395 -138.142670 8.950186 0.212039
391.753571 -139.183578 7.606267 0.719905
391.753571 -139.183594 6.570393 0.742458
391.753571 -139.183594 5.544529 0.730022
391.753540 -139.183594 4.526364 0.724590
391.753540 -139.183594 3.513651 0.730266
391.753540 -139.183594 2.504190 0.731548
391.753540 -139.183594 1.495810 0.723445
391.753571 -139.183594 0.486348 0.736156
387.585175 -144.065140 -0.000028 0.543114
383.035248 -149.393478 -0.000022 0.538781
380.501190 -152.361069 -0.000019 0.532280
378.883423 -154.255615 -0.000015 0.560037
377.759003 -155.572403 -0.000013 0.537881
376.930603 -156.542542 -0.000011 0.532692
nan nan nan 0.000000
392.504608 -138.644928 8.848533 0.218601
391.753571 -139.512146 7.560938 0.770703
391.753540 -139.512146 6.533439 0.766033
391.753571 -139.512146 5.515872 0.765621
391.753540 -139.512161 4.505937 0.754314
391.753540 -139.512146 3.501413 0.743481
391.753540 -139.512146 2.500113 0.758846
391.753540 -139.512146 1.499887 0.765850
391.753571 -139.512146 0.498587 0.760830
387.714264 -144.176178 -0.000027 0.555947
383.127258 -149.472610 -0.000022 0.557839
380.572571 -152.422440 -0.000019 0.546883
378.941620 -154.305649 -0.000015 0.571160
377.808044 -155.614548 -0.000013 0.584527
376.972870 -156.578888 -0.000011 0.545983
nan nan nan 0.000000
392.371582 -139.131836 8.750392 0.241733
391.753571 -139.835464 7.516602 0.760678
391.753571 -139.835464 6.497295 0.756573
391.753571 -139.835464 5.487840 0.761486
391.753540 -139.835464 4.485958 0.752987
391.753571 -139.835464 3.489442 0.758480
