# This PCD file was generated using the MATLABÂ® pcwrite function
# from Computer Vision ToolboxÂ®.
# .PCD v.7 - Point Cloud Data file format
VERSION .7
FIELDS x y z intensity
SIZE 4 4 4 4
TYPE F F F F
COUNT 1 1 1 1
WIDTH 1213
HEIGHT 1
VIEWPOINT 0 0 0 1 0 0 0
POINTS 1213
DATA ascii
nan nan nan 0.000000
nan nan nan 0.000000
nan nan nan 0.000000
nan nan nan 0.000000
nan nan nan 0.000000
nan nan nan 0.000000
286.297211 -104.666824 0.950000 0.459342
284.601532 -128.059677 -0.000022 0.542184
283.412811 -144.458618 0.010021 1.000000
282.915100 -151.324768 -0.000011 0.337392
282.632996 -155.216873 -0.000003 0.337835
282.452881 -157.701630 0.000001 0.338964
282.327698 -159.428619 0.000004 0.331884
282.235443 -160.700989 0.000006 0.340856
nan nan nan 0.000000
nan nan nan 0.000000
nan nan nan 0.000000
nan nan nan 0.000000
nan nan nan 0.000000
nan nan nan 0.000000
nan nan nan 0.000000
nan nan nan 0.000000
nan nan nan 0.000000
284.884918 -128.081223 -0.000021 0.539239
283.581787 -144.471252 0.010005 1.000000
283.036133 -151.333984 -0.000010 0.336675
282.726837 -155.224014 -0.000003 0.338109
282.529388 -157.707458 0.000002 0.340368
282.392151 -159.433533 0.000005 0.332616
282.291046 -160.705215 0.000005 0.337865
nan nan nan 0.000000
nan nan nan 0.000000
nan nan nan 0.000000
nan nan nan 0.000000
nan nan nan 0.000000
nan nan nan 0.000000
nan nan nan 0.000000
nan nan nan 0.000000
nan nan nan 0.000000
285.168182 -128.104736 -0.000021 0.543084
283.761169 -144.363571 -0.000012 0.547555
283.157074 -151.344025 -0.000009 0.336156
282.820648 -155.231812 -0.000002 0.337560
282.605865 -157.713806 0.000002 0.341741
282.456573 -159.438873 0.000005 0.343069
282.346588 -160.709824 0.000006 0.331014
nan nan nan 0.000000
nan nan nan 0.000000
nan nan nan 0.000000
nan nan nan 0.000000
nan nan nan 0.000000
nan nan nan 0.000000
nan nan nan 0.000000
nan nan nan 0.000000
nan nan nan 0.000000
285.451233 -128.130249 -0.000021 0.541955
283.930756 -144.378845 -0.000012 0.537606
283.277954 -151.354919 -0.000008 0.336660
282.914398 -155.240250 -0.000001 0.337896
282.682281 -157.720688 0.000003 0.339345
282.520966 -159.444672 0.000006 0.344488
282.402100 -160.714828 0.000006 0.340063
nan nan nan 0.000000
nan nan nan 0.000000
nan nan nan 0.000000
nan nan nan 0.000000
nan nan nan 0.000000
nan nan nan 0.000000
nan nan nan 0.000000
nan nan nan 0.000000
nan nan nan 0.000000
285.734131 -128.157700 -0.000021 0.546181
284.100250 -144.395294 -0.000012 0.529274
283.390076 -151.453049 0.009980 1.000000
283.008087 -155.249359 -0.000000 0.338735
282.758667 -157.728104 0.000004 0.335500
282.585297 -159.450928 0.000007 0.338888
282.457581 -160.720215 0.000006 0.332296
nan nan nan 0.000000
nan nan nan 0.000000
nan nan nan 0.000000
nan nan nan 0.000000
nan nan nan 0.000000
nan nan nan 0.000000
nan nan nan 0.000000
nan nan nan 0.000000
nan nan nan 0.000000
286.016815 -128.187149 -0.000022 0.539559
284.269623 -144.412933 -0.000012 0.538964
283.510162 -151.465744 0.010003 1.000000
283.101715 -155.259109 0.000000 0.338262
282.834991 -157.736069 0.000004 0.334844
282.649597 -159.457626 0.000007 0.336629
282.513031 -160.725983 0.000006 0.338888
nan nan nan 0.000000
nan nan nan 0.000000
nan nan nan 0.000000
nan nan nan 0.000000
nan nan nan 0.000000
nan nan nan 0.000000
nan nan nan 0.000000
292.152069 -77.213058 3.506325 0.160876
nan nan nan 0.000000
286.299286 -128.218552 -0.000022 0.543114
284.438873 -144.431763 -0.000012 0.542107
283.640106 -151.392670 -0.000005 0.340551
283.195251 -155.269516 0.000001 0.334966
282.911255 -157.744537 0.000005 0.336446
282.713867 -159.464767 0.000007 0.337041
282.568420 -160.732147 0.000006 0.332952
nan nan nan 0.000000
nan nan nan 0.000000
nan nan nan 0.000000
nan nan nan 0.000000
nan nan nan 0.000000
nan nan nan 0.000000
nan nan nan 0.000000
nan nan nan 0.000000
nan nan nan 0.000000
286.581543 -128.251953 -0.000022 0.537804
284.607971 -144.451767 -0.000011 0.549233
283.760651 -151.406906 -0.000007 0.539055
283.288727 -155.280579 0.000002 0.332647
282.987457 -157.753571 0.000006 0.338216
282.778046 -159.472366 0.000007 0.344457
282.623779 -160.738693 0.000006 0.335622
nan nan nan 0.000000
nan nan nan 0.000000
nan nan nan 0.000000
nan nan nan 0.000000
nan nan nan 0.000000
nan nan nan 0.000000
nan nan nan 0.000000
nan nan nan 0.000000
nan nan nan 0.000000
286.863556 -128.287308 -0.000021 0.540917
284.776947 -144.472946 -0.000012 0.544198
283.881073 -151.421997 -0.000007 0.537758
283.373505 -155.359055 0.009987 1.000000
283.063599 -157.763107 0.000006 0.338445
282.842194 -159.480408 0.000007 0.336461
282.679077 -160.745636 0.000007 0.331624
nan nan nan 0.000000
nan nan nan 0.000000
nan nan nan 0.000000
nan nan nan 0.000000
nan nan nan 0.000000
nan nan nan 0.000000
nan nan nan 0.000000
nan nan nan 0.000000
nan nan nan 0.000000
287.145325 -128.324631 -0.000021 0.540902
284.945740 -144.495316 -0.000012 0.532738
284.001404 -151.437943 -0.000008 0.542962
283.466370 -155.371399 0.009994 1.000000
283.139648 -157.773193 0.000007 0.334234
282.906281 -159.488907 0.000007 0.339330
282.734344 -160.752945 0.000007 0.346151
nan nan nan 0.000000
nan nan nan 0.000000
nan nan nan 0.000000
nan nan nan 0.000000
288.541168 -120.578743 7.588206 0.411627
288.478363 -121.017418 5.946659 0.413779
288.619476 -120.031677 4.413530 0.404913
nan nan nan 0.000000
nan nan nan 0.000000
287.426788 -128.363922 -0.000021 0.541985
285.114410 -144.518860 -0.000012 0.539162
284.121613 -151.454712 -0.000008 0.543801
283.568665 -155.317673 0.000004 0.336446
283.215668 -157.783798 0.000007 0.343191
282.970306 -159.497833 0.000007 0.335943
282.789551 -160.760651 0.000007 0.334173
nan nan nan 0.000000
nan nan nan 0.000000
nan nan nan 0.000000
289.118500 -119.018921 9.446911 0.420050
288.924774 -120.307999 7.625426 0.404807
nan nan nan 0.000000
289.054810 -119.442795 4.445257 0.405631
nan nan nan 0.000000
nan nan nan 0.000000
287.708008 -128.405167 -0.000021 0.545495
285.282867 -144.543564 -0.000012 0.543877
284.241699 -151.472336 -0.000007 0.541405
283.661804 -155.331345 0.000005 0.336034
283.291595 -157.794952 0.000008 0.335302
283.034271 -159.507217 0.000007 0.340536
282.844696 -160.768753 0.000007 0.339879
nan nan nan 0.000000
nan nan nan 0.000000
nan nan nan 0.000000
289.438049 -119.242844 9.421288 0.408209
289.228577 -120.573425 7.600562 0.404456
289.148193 -121.084206 5.949404 0.389319
289.391907 -119.535873 4.443254 0.372259
nan nan nan 0.000000
nan nan nan 0.000000
287.988922 -128.448395 -0.000021 0.539361
285.451202 -144.569458 -0.000011 0.544808
284.361664 -151.490784 -0.000008 0.530877
283.754822 -155.345596 -0.000005 0.531121
283.367432 -157.806610 0.000009 0.336736
283.098175 -159.517059 0.000008 0.338811
282.899811 -160.777222 0.000007 0.339910
nan nan nan 0.000000
nan nan nan 0.000000
nan nan nan 0.000000
289.470551 -121.196045 9.136007 0.415793
289.924591 -118.437195 7.855920 0.403449
289.510437 -120.953766 5.964686 0.402457
289.387756 -121.699203 4.338296 0.407507
nan nan nan 0.000000
nan nan nan 0.000000
288.269531 -128.493561 -0.000021 0.542763
285.619293 -144.596527 -0.000012 0.540871
284.481476 -151.510071 -0.000008 0.529946
283.847778 -155.360550 -0.000005 0.538293
283.434265 -157.873047 0.010010 1.000000
283.161987 -159.527328 0.000008 0.340490
282.954834 -160.786087 0.000007 0.340154
nan nan nan 0.000000
nan nan nan 0.000000
nan nan nan 0.000000
290.006958 -120.057083 9.315812 0.414466
289.783295 -121.359207 7.521729 0.416251
nan nan nan 0.000000
nan nan nan 0.000000
nan nan nan 0.000000
nan nan nan 0.000000
288.549805 -128.540710 -0.000021 0.537942
285.787231 -144.624771 -0.000012 0.544686
284.601166 -151.530212 -0.000007 0.530999
283.940582 -155.376160 -0.000005 0.541588
283.509583 -157.885605 0.009990 1.000000
283.225739 -159.538055 0.000008 0.337819
283.009796 -160.795334 0.000007 0.335775
nan nan nan 0.000000
nan nan nan 0.000000
nan nan nan 0.000000
290.161743 -121.146660 9.160583 0.395483
290.220367 -120.819008 7.591623 0.410407
nan nan nan 0.000000
290.207275 -120.892319 4.384180 0.400076
290.408325 -119.768715 2.812837 0.377157
290.384430 -119.902321 1.189383 0.380148
288.829773 -128.589813 -0.000021 0.544259
285.954956 -144.654175 -0.000012 0.542901
284.720703 -151.551178 -0.000007 0.548287
284.033295 -155.392426 -0.000005 0.549813
283.584778 -157.898865 0.010003 1.000000
283.289429 -159.549225 0.000008 0.329534
283.064697 -160.804962 0.000007 0.343801
nan nan nan 0.000000
nan nan nan 0.000000
nan nan nan 0.000000
290.630737 -120.468727 9.272005 0.404105
290.889099 -119.080917 7.802143 0.410574
299.821442 -71.101135 10.137189 0.682139
291.046844 -118.233734 4.520073 0.404562
299.848206 -70.957375 3.626344 0.674662
290.751740 -119.818886 1.186960 0.371206
289.109344 -128.640839 -0.000021 0.541054
286.122467 -144.684753 -0.000012 0.538796
284.840118 -151.572968 -0.000008 0.549142
284.125916 -155.409332 -0.000005 0.545693
283.669922 -157.858582 0.000009 0.341741
283.353027 -159.560822 0.000008 0.338796
283.119537 -160.814972 0.000007 0.340169
nan nan nan 0.000000
nan nan nan 0.000000
nan nan nan 0.000000
290.862274 -121.074051 9.190190 0.416693
291.100098 -119.844391 7.720375 0.410010
291.089691 -119.898102 6.072714 0.371481
300.405121 -71.731842 6.850239 0.678431
300.377594 -71.874161 3.613218 0.575280
300.377594 -71.874161 0.386780 0.675120
289.388580 -128.693832 -0.000021 0.541588
286.289795 -144.716507 -0.000012 0.539086
284.959351 -151.595596 -0.000008 0.537667
284.218384 -155.426880 -0.000005 0.545617
283.745331 -157.872879 0.000008 0.336431
283.416534 -159.572876 0.000008 0.330739
283.174316 -160.825363 0.000007 0.337148
nan nan nan 0.000000
300.870239 -72.917313 23.091608 0.665324
300.870239 -72.917305 19.769051 0.553475
291.242157 -120.900864 9.226290 0.406561
290.921631 -122.498276 7.416858 0.392523
300.870239 -72.917328 10.007305 0.473426
300.870239 -72.917336 6.797513 0.668055
300.898529 -72.776329 3.600382 0.677638
300.898529 -72.776337 0.399618 0.678431
289.667450 -128.748779 -0.000021 0.544060
286.456848 -144.749420 -0.000011 0.541222
285.078430 -151.619064 -0.000007 0.524437
284.310730 -155.445068 -0.000005 0.533379
283.820648 -157.887589 -0.000014 0.337545
283.479980 -159.585373 0.000008 0.331716
283.229004 -160.836136 0.000007 0.337682
301.382233 -73.803833 26.269573 0.538918
301.382263 -73.803810 22.926147 0.536492
301.382263 -73.803810 19.629656 0.683482
291.578491 -120.953888 9.228571 0.413748
301.382263 -73.803780 13.146251 0.616892
291.589539 -120.900780 6.000167 0.402441
301.382263 -73.803795 6.759881 0.695140
301.411285 -73.664177 3.587826 0.604807
301.411285 -73.664185 0.412172 0.587747
289.945923 -128.805679 -0.000020 0.540490
286.623688 -144.783508 -0.000012 0.533578
285.197357 -151.643356 -0.000008 0.535851
284.402954 -155.463913 -0.000005 0.555276
283.895813 -157.903015 -0.000004 0.521385
283.543304 -159.598312 0.000008 0.337209
283.283600 -160.847290 0.000007 0.338384
301.933319 -74.458122 26.137806 0.196353
301.933319 -74.458138 22.812521 0.261906
301.886322 -74.676544 19.493282 0.649424
292.052307 -120.369301 9.327955 0.412482
292.259644 -119.405922 7.796501 0.402380
292.277313 -119.323830 6.138342 0.407706
301.933319 -74.458130 6.734034 0.294102
301.916077 -74.538322 3.575542 0.550179
301.916077 -74.538322 0.424458 0.678431
290.223969 -128.864517 -0.000020 0.537987
286.790283 -144.818756 -0.000012 0.543023
285.316101 -151.668488 -0.000008 0.534737
284.495056 -155.483398 -0.000005 0.536507
283.970886 -157.918900 -0.000004 0.530602
283.606567 -159.611694 0.000008 0.337713
283.338135 -160.858826 0.000007 0.337911
302.382660 -75.536011 25.898108 0.620371
302.382660 -75.536034 22.605846 0.608972
302.382660 -75.536041 19.359816 0.618860
302.382660 -75.536041 16.152233 0.657542
292.622742 -119.393768 7.806798 0.405493
292.478149 -120.043518 6.084216 0.408194
302.382660 -75.536034 6.687026 0.669902
302.413147 -75.399033 3.563520 0.652140
302.413147 -75.399033 0.436478 0.652140
290.501617 -128.925293 -0.000020 0.542046
286.956635 -144.855164 -0.000012 0.539117
285.434662 -151.694427 -0.000008 0.532433
284.587006 -155.503525 -0.000005 0.550988
284.045837 -157.935303 -0.000004 0.550393
283.669708 -159.625519 0.000008 0.335729
283.392609 -160.870758 0.000007 0.329641
303.020447 -75.734650 25.884825 0.655924
303.020447 -75.734657 22.594397 0.714748
303.020447 -75.734634 19.350172 0.631846
303.020447 -75.734642 16.144367 0.687343
303.020447 -75.734642 12.969547 0.641093
292.518127 -121.421783 5.974713 0.409842
303.020447 -75.734634 6.684422 0.649256
303.041840 -75.641510 3.561923 0.094118
303.041840 -75.641510 0.438077 0.062745
290.778839 -128.987991 -0.000020 0.545586
287.122742 -144.892731 -0.000012 0.544320
285.553040 -151.721207 -0.000007 0.544549
284.678802 -155.524292 -0.000005 0.533593
284.120697 -157.952225 -0.000004 0.529534
283.732758 -159.639801 0.000010 0.338994
283.446960 -160.883057 0.000007 0.342107
303.813202 -75.276878 26.041653 0.556268
303.813202 -75.276878 22.729622 0.531106
303.813202 -75.276863 19.464094 0.493156
303.813202 -75.276871 16.237236 0.456260
303.813202 -75.276871 13.041569 0.587961
303.813202 -75.276878 9.869881 0.654368
303.813202 -75.276863 6.715180 0.538857
303.843384 -75.149597 3.572744 0.556756
303.843384 -75.149605 0.427256 0.493416
291.055603 -129.052643 -0.000020 0.538643
287.288544 -144.931473 -0.000011 0.535882
285.671234 -151.748810 -0.000007 0.555367
284.770477 -155.545700 -0.000005 0.523690
284.195404 -157.969681 -0.000004 0.517311
283.795746 -159.654404 -0.000011 0.337377
283.501251 -160.895721 0.000007 0.324681
298.942322 -98.008507 20.220255 0.372824
298.942322 -98.008530 17.710190 0.402274
298.942291 -98.008553 15.235363 0.399725
298.942322 -98.008530 12.789860 0.401358
298.942322 -98.008514 10.367988 0.410681
298.942322 -98.008530 7.964284 0.406149
298.942322 -98.008522 5.573454 0.401968
298.942291 -98.008667 3.190297 0.391333
298.942291 -98.008667 0.809701 0.395315
291.331909 -129.119202 -0.000020 0.540444
287.454102 -144.971359 -0.000011 0.552758
285.789215 -151.777252 -0.000007 0.535332
284.861969 -155.567749 -0.000005 0.536217
284.270020 -157.987656 -0.000003 0.535531
283.858582 -159.669540 -0.000011 0.337713
283.555450 -160.908783 0.000008 0.342550
298.876678 -100.346794 19.647844 0.399512
298.876678 -100.346809 17.216635 0.408606
298.876678 -100.346802 14.819567 0.403464
298.876678 -100.346794 12.450885 0.402914
298.876678 -100.346794 10.105098 0.401846
290.197632 -134.782684 4.865031 0.937255
298.876678 -100.346794 5.461188 0.411093
298.876617 -100.347092 3.152901 0.408194
298.876617 -100.347099 0.847099 0.399008
291.607758 -129.187698 -0.000020 0.540230
287.619385 -145.012405 -0.000011 0.542580
285.907013 -151.806488 -0.000007 0.543526
284.953339 -155.590439 -0.000005 0.542779
284.344482 -158.006149 -0.000003 0.511162
283.921326 -159.685150 -0.000007 0.331853
283.609528 -160.922226 0.000008 0.342061
298.815063 -102.542671 19.111132 0.401175
298.815063 -102.542679 16.753862 0.409766
298.815063 -102.542686 14.429688 0.403906
298.815063 -102.542679 12.133048 0.403586
298.815063 -102.542648 9.858603 0.436057
290.224243 -135.651306 4.796568 0.937255
298.815063 -102.542671 5.355927 0.415579
298.814941 -102.543114 3.117836 0.402167
298.814941 -102.543114 0.882164 0.423804
291.883118 -129.258133 -0.000020 0.539910
287.784363 -145.054596 -0.000011 0.543114
286.024597 -151.836563 -0.000007 0.536080
285.044525 -155.613754 -0.000005 0.533196
284.418823 -158.025162 -0.000003 0.545739
283.983948 -159.701141 -0.000011 0.341390
283.663544 -160.936035 0.000008 0.339330
298.806885 -104.422363 18.655277 0.304662
298.757080 -104.609024 16.319084 0.402426
298.757080 -104.609024 14.063403 0.436606
298.757080 -104.609016 11.834440 0.403906
298.757080 -104.609016 9.627017 0.400061
290.228790 -136.557480 4.724809 0.937255
298.757080 -104.609009 5.257031 0.397253
298.756927 -104.609612 3.084892 0.431159
298.756927 -104.609612 0.915108 0.422904
292.157959 -129.330460 -0.000020 0.540856
287.949036 -145.097946 -0.000011 0.534707
286.141968 -151.867462 -0.000007 0.529000
285.135559 -155.637711 -0.000005 0.519860
284.493042 -158.044693 -0.000003 0.552712
284.046478 -159.717590 -0.000012 0.339055
283.717438 -160.950226 0.000011 0.341222
298.733246 -106.444756 18.161469 0.283223
298.733246 -106.444763 15.935025 0.283223
298.733246 -106.444763 13.739848 0.281849
298.702393 -106.557159 11.553377 0.421851
298.702393 -106.557190 9.409039 0.378592
290.230072 -137.429459 4.655821 0.937255
298.702393 -106.557167 5.163947 0.396353
298.702209 -106.557877 3.053883 0.405280
298.702209 -106.557877 0.946116 0.389670
292.432312 -129.404709 -0.000020 0.543267
288.113403 -145.142426 -0.000011 0.528374
286.259125 -151.899170 -0.000007 0.543206
285.226410 -155.662308 -0.000005 0.528908
284.567108 -158.064743 -0.000003 0.518791
284.108887 -159.734512 -0.000005 0.339239
283.771271 -160.964722 -0.000009 0.339742
298.650757 -108.397171 17.684765 0.395773
298.739655 -108.081863 15.594752 0.678431
298.739655 -108.081863 13.453174 0.679301
298.800415 -107.866318 11.370183 0.445243
298.650757 -108.397156 9.203520 0.401266
290.226898 -138.273956 4.589039 0.963485
298.650757 -108.397141 5.076180 0.412650
298.650543 -108.397949 3.024648 0.405005
298.650543 -108.397949 0.975352 0.406867
292.706146 -129.480896 -0.000020 0.545159
288.277466 -145.188080 -0.000011 0.549096
286.376068 -151.931702 -0.000007 0.532876
285.317108 -155.687531 -0.000005 0.542947
284.641052 -158.085312 -0.000003 0.569177
284.171143 -159.751877 0.000002 0.340047
283.824982 -160.979660 -0.000010 0.332311
299.086853 -108.462814 17.698959 0.372702
299.109833 -108.383430 15.554090 0.678431
299.109833 -108.383438 13.418918 0.678431
299.109833 -108.383423 11.309035 0.678431
299.086853 -108.462814 9.210037 0.397498
290.203583 -139.147171 4.519669 1.000000
299.086853 -108.462807 5.078965 0.412482
299.086853 -108.462814 3.025589 0.406149
299.086853 -108.462814 0.974412 0.401755
292.979431 -129.558975 -0.000019 0.535882
288.441193 -145.234863 -0.000011 0.539727
286.492767 -151.965042 -0.000007 0.539178
285.407593 -155.713394 -0.000005 0.517647
284.714813 -158.106400 -0.000004 0.541619
284.233307 -159.769653 0.000007 0.343572
283.878571 -160.994980 -0.000007 0.337255
299.539520 -108.475525 17.727821 0.410117
299.563080 -108.396141 15.579006 0.678431
299.563080 -108.396156 13.439908 0.678431
299.563080 -108.396133 11.326149 0.678431
299.539520 -108.475517 9.223291 0.400870
290.164185 -140.033173 4.449047 0.937255
299.539520 -108.475525 5.084624 0.390890
299.539520 -108.475525 3.027474 0.404166
299.539520 -108.475525 0.972526 0.396948
293.252136 -129.638977 -0.000019 0.538964
288.604584 -145.282776 -0.000011 0.539239
286.609222 -151.999207 -0.000007 0.529625
285.497925 -155.739883 -0.000005 0.522103
284.788452 -158.127991 -0.000003 0.531792
284.295349 -159.787857 0.000008 0.328771
283.932068 -161.010666 -0.000007 0.332586
299.993866 -108.488266 17.757557 0.406302
300.018036 -108.408920 15.604676 0.678431
300.018036 -108.408936 13.461535 0.678431
300.018036 -108.408913 11.343781 0.555673
299.993866 -108.488266 9.236947 0.405142
290.163757 -140.749969 4.392755 0.937255
299.993866 -108.488266 5.090456 0.401511
299.993866 -108.488266 3.029418 0.396674
299.993866 -108.488266 0.970584 0.406592
293.524292 -129.720871 -0.000019 0.536583
288.767639 -145.331848 -0.000011 0.548791
286.725464 -152.034180 -0.000007 0.548745
285.588074 -155.767014 -0.000005 0.531182
284.861938 -158.150101 -0.000003 0.526986
284.357239 -159.806473 0.000006 0.332372
283.985443 -161.026718 -0.000010 0.343725
300.449982 -108.501068 17.788174 0.404837
300.474762 -108.421730 15.631112 0.678431
300.474762 -108.421738 13.483806 0.678431
300.474762 -108.421738 11.361936 0.582849
300.449982 -108.501060 9.251010 0.400626
290.263672 -141.113388 4.366696 0.937255
300.449982 -108.501068 5.096460 0.402594
300.449982 -108.501068 3.031416 0.415869
300.449982 -108.501068 0.968584 0.407156
293.795898 -129.804657 -0.000019 0.540520
288.930359 -145.382050 -0.000011 0.550042
286.841431 -152.069962 -0.000007 0.530602
285.678009 -155.794754 -0.000005 0.550912
284.935272 -158.172729 -0.000003 0.555947
284.419037 -159.825516 0.000003 0.340246
284.038696 -161.043152 -0.000010 0.335195
300.907867 -108.513931 17.819675 0.412161
300.933258 -108.434601 15.658317 0.678431
300.933258 -108.434601 13.506724 0.678462
300.933258 -108.434586 11.380621 0.606668
300.907867 -108.513916 9.265480 0.423865
290.263672 -141.774475 4.315012 0.937255
300.907867 -108.513931 5.102641 0.396216
300.907867 -108.513931 3.033476 0.396033
300.907867 -108.513931 0.966525 0.420371
294.066895 -129.890350 -0.000019 0.533791
289.092743 -145.433380 -0.000011 0.531258
286.957153 -152.106537 -0.000007 0.540063
285.767761 -155.823135 -0.000005 0.535760
285.008423 -158.195862 -0.000003 0.548714
284.480652 -159.845001 0.000001 0.330037
284.091827 -161.059982 -0.000003 0.328511
301.367615 -108.526825 17.852093 0.408896
301.393616 -108.447517 15.686297 0.678431
301.393616 -108.447525 13.530297 0.678462
301.367615 -108.526810 11.387457 0.395819
290.263672 -142.407349 5.178735 0.937255
290.263672 -142.407349 4.265644 0.937255
301.367615 -108.526825 5.108997 0.416709
301.367615 -108.526825 3.035591 0.404562
301.367615 -108.526825 0.964407 0.400519
294.337280 -129.977921 -0.000019 0.536385
289.254730 -145.485855 -0.000011 0.536721
287.072632 -152.143936 -0.000007 0.533516
285.857300 -155.852142 -0.000005 0.490517
285.081421 -158.219498 -0.000003 0.563516
284.542175 -159.864914 -0.000001 0.332235
284.144867 -161.077179 0.000003 0.333867
301.829285 -108.539780 17.885412 0.441077
301.855896 -108.460487 15.715066 0.678431
301.855896 -108.460495 13.554532 0.674556
301.829285 -108.539780 11.407189 0.403357
290.263672 -143.013840 5.112510 0.937255
290.263672 -143.013824 4.218442 0.937255
301.829285 -108.539764 5.115533 0.415137
293.835541 -132.367096 2.626504 0.824353
293.835541 -132.367081 1.373497 0.857939
293.835541 -132.367081 0.119146 0.703304
289.416382 -145.539444 -0.000011 0.552651
287.187836 -152.182144 -0.000007 0.541009
285.946655 -155.881775 -0.000005 0.552163
285.154266 -158.243652 -0.000003 0.548196
284.603546 -159.885269 0.000001 0.328145
284.197754 -161.094742 0.000008 0.343053
302.292908 -108.552788 17.919647 0.390158
302.320129 -108.473526 15.744621 0.678431
302.320129 -108.473511 13.579437 0.674556
302.292908 -108.552780 11.427464 0.384421
290.263672 -143.595596 5.049133 0.937255
290.393250 -143.218170 4.205991 0.937255
302.292908 -108.552780 5.122245 0.399817
293.835510 -133.190323 2.613747 0.823896
293.835541 -133.190323 1.386254 0.828595
293.835541 -133.190308 0.157444 0.697169
289.577637 -145.594177 -0.000011 0.541497
287.302765 -152.221161 -0.000007 0.516594
286.035797 -155.912018 -0.000005 0.516899
285.226929 -158.268311 -0.000003 0.543114
284.664734 -159.906067 0.000005 0.337163
284.250549 -161.112656 0.000008 0.333455
302.766266 -108.544006 17.960609 0.432807
302.766266 -108.544006 15.761839 0.469612
302.766266 -108.543999 13.593943 0.468101
302.758575 -108.565849 11.448288 0.432486
290.164154 -144.437653 4.953865 0.937255
290.570679 -143.279755 4.205992 0.878370
302.758575 -108.565842 5.129142 0.392889
293.835510 -133.980774 2.601527 0.818662
293.835510 -133.980759 1.398473 0.817884
293.835510 -133.980774 0.194129 0.699428
289.738495 -145.650024 -0.000010 0.539178
287.417419 -152.260956 -0.000007 0.530404
286.124725 -155.942886 -0.000005 0.527962
285.299438 -158.293488 -0.000003 0.503044
284.725800 -159.927277 0.000008 0.326726
284.303223 -161.130936 0.000006 0.333028
303.254761 -108.499748 18.011995 0.678431
303.254761 -108.499741 15.806151 0.678431
303.254761 -108.499741 13.631271 0.678431
303.226318 -108.578964 11.469666 0.405493
290.175385 -144.936951 4.900168 0.937255
290.747681 -143.342575 4.205994 0.878584
303.226318 -108.578979 5.136222 0.396887
293.835510 -134.740372 2.589813 0.809415
293.835510 -134.740372 1.410187 0.842481
293.835510 -134.740356 0.229295 0.685725
289.898956 -145.707001 -0.000010 0.544625
287.531799 -152.301559 -0.000007 0.531533
286.213409 -155.974380 -0.000005 0.532830
285.371735 -158.319153 -0.000003 0.532799
284.786743 -159.948883 0.000004 0.343771
284.355743 -161.149567 0.000003 0.341711
303.704224 -108.570343 18.033783 0.466026
303.704224 -108.570328 15.824933 0.500130
303.704224 -108.570335 13.647095 0.500130
303.696198 -108.592155 11.491605 0.400916
290.202972 -145.372711 4.854127 0.937255
290.924255 -143.406631 4.205995 0.879591
303.696228 -108.592155 5.143488 0.395514
293.835510 -135.470993 2.578575 0.818067
293.835510 -135.470993 1.421426 0.833555
293.835510 -135.470978 0.263035 0.688426
290.059021 -145.765091 -0.000010 0.543572
287.645874 -152.342972 -0.000007 0.544320
286.301910 -156.006485 -0.000005 0.539422
285.443878 -158.345337 -0.000003 0.524163
284.847504 -159.970932 0.000000 0.333715
284.408142 -161.168579 0.000001 0.338201
304.197968 -108.526222 18.087143 0.678431
304.197968 -108.526215 15.870946 0.678431
304.197968 -108.526215 13.685859 0.678431
304.168304 -108.605408 11.514110 0.388983
290.220093 -145.820587 4.806501 0.937255
291.100372 -143.471924 4.205996 0.879698
304.168304 -108.605408 5.150942 0.443381
293.835510 -136.174316 2.567783 0.820584
293.085724 -138.174789 1.467176 0.585443
293.085724 -138.174789 0.400385 0.223804
290.218689 -145.824295 -0.000010 0.540429
287.759674 -152.385162 -0.000007 0.536446
286.390167 -156.039215 -0.000005 0.545480
285.515808 -158.372009 -0.000003 0.550820
284.908142 -159.993393 -0.000002 0.338628
284.460419 -161.187943 -0.000001 0.338262
304.672943 -108.539551 18.126167 0.678431
304.672974 -108.539536 15.904595 0.678431
304.672974 -108.539543 13.714205 0.678431
304.642639 -108.618721 11.537188 0.448768
290.228729 -146.274445 4.758025 0.937255
291.276031 -143.538422 4.205997 0.936782
304.642639 -108.618729 5.158586 0.395621
293.835510 -136.851913 2.557414 0.846006
293.171173 -138.587433 1.472996 0.165560
293.171173 -138.587433 0.417857 0.117647
290.377930 -145.884613 -0.000010 0.527687
287.873199 -152.428162 -0.000007 0.553109
286.478180 -156.072571 -0.000004 0.552666
285.587585 -158.399200 -0.000003 0.535256
284.968567 -160.016312 0.000003 0.337972
284.512543 -161.207703 -0.000001 0.339681
305.150269 -108.552948 18.166166 0.678431
305.150269 -108.552933 15.939084 0.678431
305.150269 -108.552933 13.743264 0.678431
305.119354 -108.632095 11.560843 0.427237
290.228882 -146.733871 4.708738 0.937255
291.451202 -143.606186 4.205998 0.936782
305.119324 -108.632111 5.166419 0.435019
293.835510 -137.505234 2.547442 0.905882
293.412567 -138.587433 1.471570 0.175082
293.412567 -138.587433 0.413578 0.175006
290.536774 -145.946045 -0.000010 0.542336
287.986389 -152.471954 -0.000006 0.543786
286.565979 -156.106522 -0.000004 0.550759
285.659149 -158.426880 -0.000003 0.539757
285.028870 -160.039658 0.000009 0.337758
284.564514 -161.227814 0.000000 0.322438
305.630005 -108.566406 18.207163 0.678431
305.630005 -108.566391 15.974433 0.678431
305.630005 -108.566399 13.773043 0.678431
305.598419 -108.645531 11.585092 0.389334
290.228943 -147.177368 4.661285 0.937255
291.625916 -143.675156 4.205999 0.936629
293.835541 -138.135513 3.614702 0.905882
293.895752 -137.984558 2.540509 1.000000
293.655273 -138.587433 1.470112 0.192157
293.655273 -138.587433 0.409199 0.192157
290.695160 -146.008591 -0.000010 0.535775
288.099274 -152.516525 -0.000006 0.544198
286.653534 -156.141083 -0.000005 0.518380
285.730530 -158.455063 -0.000003 0.555306
285.088989 -160.063416 0.000013 0.332372
284.616364 -161.248291 0.000003 0.335378
306.112183 -108.579933 18.249159 0.678431
306.112183 -108.579910 16.010643 0.674510
306.112183 -108.579926 13.803551 0.574166
306.079956 -108.659058 11.609927 0.415030
290.230194 -147.602692 4.615956 0.968139
291.800110 -143.745331 4.206000 0.936629
293.963257 -138.430374 3.603612 0.905882
294.003662 -138.331131 2.535908 1.000000
294.023254 -138.282990 1.463241 0.223529
294.023254 -138.283005 0.388571 0.223529
290.853088 -146.072235 -0.000010 0.537713
288.211853 -152.561874 -0.000007 0.534127
286.740814 -156.176270 -0.000004 0.530709
285.801697 -158.483734 -0.000003 0.540856
285.148956 -160.087585 0.000013 0.337118
284.668060 -161.269135 0.000008 0.334768
306.596863 -108.593536 18.292170 0.678431
306.596893 -108.593521 16.047729 0.678431
306.564026 -108.672638 13.819204 0.417075
306.564026 -108.672638 11.635363 0.399252
290.222076 -148.036270 4.569467 1.000000
291.973846 -143.816711 4.206003 0.937255
294.210022 -138.430374 3.608221 0.905882
294.251221 -138.331131 2.537449 1.000000
294.304413 -138.202957 1.460280 0.352941
294.304413 -138.202957 0.379682 0.352941
291.010590 -146.136963 -0.000010 0.556786
288.324097 -152.608032 -0.000006 0.558541
286.827881 -156.212051 -0.000004 0.513817
285.872681 -158.512909 -0.000003 0.529580
285.208740 -160.112152 0.000013 0.340566
284.719635 -161.290329 0.000007 0.335927
307.084167 -108.607193 18.336208 0.678431
307.084167 -108.607193 16.085697 0.678431
307.050690 -108.686295 13.851153 0.382864
307.050690 -108.686287 11.661406 0.391730
290.205048 -148.476456 4.522008 1.000000
292.147064 -143.889328 4.206004 0.937255
294.458191 -138.430374 3.612935 0.905882
294.500214 -138.331131 2.539024 0.997772
294.554474 -138.202957 1.458698 0.352941
294.554474 -138.202957 0.374933 0.352941
291.167633 -146.202805 -0.000010 0.540017
288.436035 -152.654953 -0.000006 0.530114
286.914703 -156.248444 -0.000005 0.548974
285.943451 -158.542587 -0.000003 0.544671
285.268372 -160.137161 0.000013 0.338170
284.771027 -161.311874 0.000005 0.333684
307.574158 -108.620956 18.381281 0.678431
307.574158 -108.620941 16.124561 0.678431
307.540009 -108.700027 13.883853 0.406348
307.540009 -108.700027 11.688063 0.372396
290.177094 -148.927444 4.473037 0.937438
292.319794 -143.963135 4.206005 0.937255
294.707825 -138.430374 3.617756 0.905882
294.750671 -138.331131 2.540636 0.940856
294.806000 -138.202972 1.457080 0.223529
294.806000 -138.202972 0.370077 0.223529
291.324219 -146.269745 -0.000010 0.535164
288.547638 -152.702667 -0.000006 0.548058
287.001251 -156.285446 -0.000004 0.552987
286.014008 -158.572754 -0.000003 0.536126
285.327820 -160.162552 0.000011 0.339361
284.822296 -161.333771 0.000001 0.335119
308.066864 -108.634781 18.427414 0.678431
308.066864 -108.634766 16.164339 0.678431
308.032074 -108.713837 13.917315 0.403616
290.263641 -149.103394 5.169990 0.937255
290.163300 -149.331543 4.429786 0.937255
292.491974 -144.038162 4.206007 0.865141
294.958984 -138.430374 3.622685 0.905882
295.002655 -138.331131 2.542283 0.992187
295.072235 -138.172974 1.454890 0.352941
295.072235 -138.172974 0.363500 0.352941
291.480316 -146.337769 -0.000010 0.558785
288.658905 -152.751144 -0.000006 0.546105
287.087524 -156.323059 -0.000004 0.540444
286.084351 -158.603409 -0.000002 0.548348
285.387085 -160.188370 0.000008 0.332204
284.873413 -161.356033 -0.000001 0.337926
308.562378 -108.648682 18.474604 0.674510
308.562378 -108.648666 16.205032 0.678431
308.526917 -108.727722 13.951552 0.390341
290.263641 -149.468109 5.120545 0.937255
290.163727 -149.691010 4.392014 0.937255
292.663635 -144.114380 4.206008 0.865125
293.128021 -143.078461 3.377483 0.192157
295.256195 -138.331131 2.543966 0.977691
295.327087 -138.172989 1.453198 0.352941
295.327087 -138.172989 0.358419 0.352941
291.635956 -146.406891 -0.000010 0.544533
288.769836 -152.800415 -0.000006 0.541878
287.173553 -156.361252 -0.000004 0.552209
286.154480 -158.634552 -0.000002 0.555703
285.446167 -160.214600 0.000006 0.333089
284.924347 -161.378662 0.000001 0.336049
309.060760 -108.662666 18.522881 0.678431
309.060760 -108.662651 16.246653 0.488838
309.024658 -108.741684 13.986572 0.438010
290.263641 -149.821655 5.072766 0.937255
290.258850 -149.832153 4.381729 0.937255
292.834778 -144.191803 4.206009 0.865934
293.168945 -143.460068 3.361232 0.192157
295.511322 -138.331131 2.545687 0.937255
295.583527 -138.172989 1.451467 0.223529
295.583527 -138.172989 0.353226 0.223529
291.791107 -146.477081 -0.000010 0.546914
288.880402 -152.850449 -0.000006 0.556008
287.259338 -156.400055 -0.000004 0.554910
286.224396 -158.666183 -0.000002 0.575662
285.505066 -160.241241 0.000003 0.340688
284.975128 -161.401657 0.000005 0.344549
309.562103 -108.676727 18.572250 0.678431
309.525360 -108.755722 16.270403 0.393912
309.525330 -108.755745 14.022385 0.393317
290.163544 -150.379761 4.991364 0.937255
290.263641 -150.164536 4.347235 0.937255
293.005371 -144.270386 4.206011 0.937255
293.382294 -143.460083 3.365618 0.502800
293.490906 -143.226578 2.459095 0.937255
293.489746 -143.229080 1.540950 0.937255
293.490173 -143.228180 0.621817 0.937255
291.945740 -146.548370 -0.000010 0.539071
288.990631 -152.901260 -0.000006 0.537270
287.344818 -156.439468 -0.000004 0.533715
286.294098 -158.698303 -0.000002 0.529656
285.563782 -160.268280 -0.000003 0.336263
285.025726 -161.425018 0.000011 0.340154
310.066467 -108.690872 18.622726 0.678431
310.029053 -108.769852 16.313868 0.415900
310.029053 -108.769875 14.059007 0.391333
290.163513 -150.708710 4.947192 0.937255
290.263641 -150.497269 4.312584 0.937255
293.175385 -144.350204 4.206012 0.937255
293.597015 -143.460083 3.370100 0.192157
296.026489 -138.331131 2.549243 1.000000
296.101410 -138.172974 1.447893 0.352941
296.101410 -138.172974 0.342494 0.352941
292.099884 -146.620743 -0.000009 0.536812
289.100494 -152.952835 -0.000006 0.530816
287.430023 -156.479462 -0.000005 0.532418
286.363556 -158.730911 -0.000002 0.551110
285.602478 -160.337601 0.010001 1.000000
285.076172 -161.448700 0.000012 0.351034
310.573944 -108.705109 18.674328 0.678431
310.535889 -108.784073 16.358299 0.398901
310.535858 -108.784103 14.096437 0.390448
290.168915 -151.016769 4.906309 0.937255
290.263641 -150.820358 4.279050 0.937255
293.344849 -144.431183 4.206013 0.937255
296.238800 -138.430374 3.649006 0.905882
296.286652 -138.331131 2.551079 1.000000
296.372589 -138.152939 1.445683 0.223529
296.372589 -138.152939 0.335862 0.223529
292.253540 -146.694168 -0.000010 0.548882
289.210022 -153.005173 -0.000006 0.533089
287.514954 -156.520050 -0.000004 0.551507
286.432770 -158.764008 -0.000002 0.515221
285.660522 -160.365356 0.010002 1.000000
285.126465 -161.472733 0.000011 0.342718
311.045868 -108.798416 18.705029 0.401892
311.045868 -108.798386 16.403713 0.408301
311.045868 -108.798409 14.134696 0.395315
290.193268 -151.277573 4.873103 0.937255
290.263641 -151.134216 4.246582 0.937255
293.513763 -144.513336 4.206016 0.937255
296.499847 -138.430374 3.654617 0.905882
296.548553 -138.331131 2.552954 1.000000
296.611450 -138.202972 1.444709 0.352941
294.114380 -143.289795 0.611323 0.375555
292.406647 -146.768677 -0.000010 0.527276
289.319153 -153.058273 -0.000006 0.528847
287.599579 -156.561234 -0.000004 0.547875
286.501770 -158.797577 -0.000002 0.541817
285.718353 -160.393494 0.010003 1.000000
285.176605 -161.497131 0.000012 0.341939
311.559113 -108.812813 18.758854 0.421759
311.559113 -108.812790 16.450119 0.394095
311.559113 -108.812820 14.173792 0.406485
290.209503 -151.547668 4.838265 0.937255
290.263641 -151.439270 4.215133 0.937255
293.682098 -144.596680 4.206016 0.937255
296.762695 -138.430359 3.660349 0.905882
296.812256 -138.331131 2.554869 1.000000
296.876282 -138.202988 1.442787 0.352941
294.286377 -143.387085 0.611856 0.368444
292.559235 -146.844238 -0.000009 0.540688
289.427917 -153.112137 -0.000006 0.549340
287.683929 -156.603012 -0.000004 0.540810
286.570557 -158.831635 -0.000002 0.562722
285.776001 -160.422043 0.010003 1.000000
285.226563 -161.521866 0.000011 0.333303
312.075714 -108.827286 18.813850 0.396384
312.075745 -108.827286 16.497540 0.399512
312.075714 -108.827301 14.213744 0.405890
290.260956 -151.741211 4.816063 0.937255
290.347778 -151.570435 4.206013 0.937255
293.849823 -144.681213 4.206017 0.937255
297.027374 -138.430359 3.666201 0.905882
297.077820 -138.331146 2.556826 1.000000
297.132050 -138.224457 1.441217 0.223529
297.132050 -138.224457 0.322451 0.223529
292.711304 -146.920883 -0.000009 0.535302
289.536316 -153.166748 -0.000006 0.538293
287.767975 -156.645370 -0.000003 0.539422
286.639069 -158.866165 -0.000002 0.534905
285.833435 -160.450989 0.010003 1.000000
285.276337 -161.546951 0.000011 0.339559
312.595734 -108.841888 18.870028 0.432670
312.595734 -108.841888 16.545977 0.416205
312.595734 -108.841904 14.254549 0.423224
290.408569 -151.744293 4.825647 0.937255
290.466888 -151.631516 4.206012 0.937255
294.016968 -144.766891 4.206017 0.869032
297.293945 -138.430359 3.672176 0.905882
297.345245 -138.331146 2.558822 1.000000
297.376373 -138.270966 1.440070 0.352941
297.376373 -138.270966 0.319008 0.352941
292.862854 -146.998566 -0.000009 0.554849
289.644318 -153.222137 -0.000006 0.518898
287.851746 -156.688324 -0.000004 0.541726
286.707367 -158.901184 -0.000002 0.514794
285.911987 -160.439148 -0.000011 0.341238
285.325928 -161.572372 0.000009 0.343343
313.119293 -108.856583 18.927410 0.416571
313.119293 -108.856567 16.595455 0.385657
313.119263 -108.856598 14.296231 0.412192
290.557129 -151.747513 4.835415 0.937255
290.586243 -151.692230 4.206169 0.937255
294.183502 -144.853745 4.206018 0.869261
297.562439 -138.430359 3.678276 0.905882
295.096527 -143.118103 2.472350 0.949020
295.096527 -143.118103 1.527650 0.937255
295.096527 -143.118103 0.581937 0.932616
293.013824 -147.077332 -0.000009 0.535363
289.751923 -153.278259 -0.000005 0.528313
287.935211 -156.731857 -0.000004 0.530327
286.775391 -158.936661 -0.000002 0.566781
285.969299 -160.469055 -0.000011 0.337285
285.375366 -161.598145 0.000007 0.328954
313.646423 -108.871376 18.986017 0.399268
313.646423 -108.871368 16.645988 0.415030
313.646393 -108.871391 14.338806 0.436240
290.706970 -151.750366 4.845456 0.937255
290.738068 -151.692230 4.214355 0.937255
294.349426 -144.941757 4.206019 0.869612
297.832916 -138.430359 3.684503 0.905882
295.272095 -143.217102 2.472266 0.926314
295.272095 -143.217102 1.527734 0.937255
295.272095 -143.217087 0.582190 0.937255
293.164246 -147.157135 -0.000009 0.531838
289.859131 -153.335144 -0.000005 0.553216
288.018372 -156.775970 -0.000003 0.540764
286.843170 -158.972626 -0.000002 0.529503
286.026428 -160.499359 -0.000011 0.344915
285.424622 -161.624268 0.000005 0.347051
314.177246 -108.886276 19.045864 0.441321
314.177246 -108.886261 16.697590 0.427176
314.177246 -108.886284 14.382282 0.398886
290.836639 -151.792236 4.849122 0.937255
290.891052 -151.692230 4.222711 0.937255
294.514740 -145.030930 4.206020 0.937255
298.105408 -138.430359 3.690860 0.905882
295.501465 -143.217087 2.474048 0.930663
298.192139 -138.270966 1.433813 0.352941
295.430634 -143.347290 0.584122 0.939467
293.314117 -147.237991 -0.000009 0.537087
289.965942 -153.392776 -0.000006 0.536217
288.101196 -156.820663 -0.000003 0.548211
286.910706 -159.009064 -0.000002 0.544625
286.083313 -160.530045 -0.000010 0.338918
285.473663 -161.650726 0.000005 0.339925
314.711823 -108.901276 19.106972 0.396887
314.711853 -108.901260 16.750280 0.405081
314.711823 -108.901283 14.426671 0.440513
290.989868 -151.792236 4.860054 0.973404
291.045166 -151.692230 4.231239 0.937255
294.679443 -145.121246 4.206021 0.937255
298.380005 -138.430359 3.697346 0.905882
295.723145 -143.234161 2.475547 0.905882
295.736603 -143.209793 1.523997 0.937255
295.592102 -143.471069 0.585638 0.975845
293.463409 -147.319885 -0.000009 0.527687
290.072357 -153.451141 -0.000005 0.534615
288.183716 -156.865921 -0.000004 0.529183
286.977997 -159.045959 -0.000002 0.519783
286.139984 -160.561142 -0.000010 0.340337
285.522552 -161.677521 0.000000 0.346014
315.250336 -108.916382 19.169359 0.393774
315.250336 -108.916382 16.804070 0.400916
315.250305 -108.916397 14.471985 0.392630
291.144287 -151.792236 4.871210 0.937255
291.200500 -151.692230 4.239942 0.937255
294.843506 -145.212692 4.206024 0.937255
298.656708 -138.430359 3.703968 0.905882
295.951233 -143.242462 2.477247 0.937255
295.835419 -143.448410 1.526620 0.937255
295.835754 -143.447845 0.578812 0.290196
293.612152 -147.402817 -0.000009 0.537972
290.178375 -153.510254 -0.000005 0.524575
288.265930 -156.911774 -0.000003 0.521996
287.045013 -159.083344 -0.000002 0.532357
286.196442 -160.592621 -0.000010 0.332799
285.551666 -161.739456 0.009997 1.000000
315.792786 -108.931595 19.233047 0.395163
315.792786 -108.931595 16.858986 0.398077
315.792786 -108.931602 14.518251 0.394995
291.299927 -151.792236 4.882595 0.937255
291.357086 -151.692230 4.248823 0.937255
295.006897 -145.305298 4.206025 0.937255
298.935608 -138.430359 3.710724 0.905882
296.180786 -143.251068 2.478976 0.937255
296.068024 -143.448425 1.524743 0.941909
296.068054 -143.448395 0.573208 0.963973
293.154907 -148.546143 0.100036 0.611215
290.283966 -153.570099 -0.000005 0.522759
288.347839 -156.958191 -0.000003 0.532937
287.111786 -159.121185 -0.000002 0.554528
286.252686 -160.624512 -0.000010 0.332631
285.599915 -161.766815 0.010000 1.000000
316.339294 -108.946945 19.298052 0.394202
316.339294 -108.946922 16.915039 0.396689
316.339294 -108.946953 14.565474 0.404425
291.456818 -151.792236 4.894212 0.937255
291.514893 -151.692230 4.257886 0.937255
295.169647 -145.399063 4.206026 0.882658
299.216736 -138.430359 3.717619 0.905882
296.413330 -143.257553 2.480784 0.937255
296.302490 -143.448425 1.522828 0.968627
296.302490 -143.448425 0.567460 0.968627
293.295166 -148.626770 0.100024 0.609812
290.389130 -153.630692 -0.000006 0.529686
288.429382 -157.005173 -0.000003 0.555489
287.178284 -159.159454 -0.000010 0.339818
286.308716 -160.656784 -0.000010 0.336446
285.647980 -161.794510 0.010001 1.000000
316.834534 -109.056320 19.337086 0.378561
316.834534 -109.056305 16.948692 0.429648
316.834534 -109.056335 14.593823 0.403342
291.614960 -151.792236 4.906066 0.937255
291.673981 -151.692230 4.267133 0.937255
295.331757 -145.493942 4.206027 0.882658
299.500153 -138.430359 3.724653 0.905882
296.656738 -143.248703 2.482922 0.937255
299.594238 -138.270950 1.422498 0.352941
296.525513 -143.471054 0.562884 0.920577
293.238129 -149.041718 0.131749 0.233082
290.493866 -153.692017 -0.000005 0.538811
288.510620 -157.052734 -0.000003 0.561624
287.244507 -159.198227 -0.000009 0.332769
286.364502 -160.689438 -0.000010 0.337728
285.695831 -161.822540 0.010004 1.000000
316.806854 -110.042114 19.121319 0.409186
316.806885 -110.042084 16.762653 0.388067
316.806854 -110.042114 14.437094 0.403357
291.774414 -151.792282 4.918151 0.937255
291.834412 -151.692230 4.276568 0.937255
293.405975 -149.071106 3.873215 0.937255
293.408966 -149.066101 3.122608 0.937255
293.408051 -149.067657 2.373906 0.937255
293.407501 -149.068558 1.626111 0.937255
293.407501 -149.068558 0.877532 0.937255
293.337311 -149.185638 0.137734 0.233173
290.598175 -153.754059 -0.000005 0.539635
288.591522 -157.100845 -0.000004 0.538308
287.282166 -159.284668 0.010008 1.000000
286.420074 -160.722488 -0.000009 0.338460
285.743500 -161.850891 0.010007 1.000000
316.779877 -111.003738 18.911667 0.394324
316.779877 -111.003708 16.581884 0.440848
316.779877 -111.003731 14.284802 0.392035
291.935577 -151.791718 4.930586 0.937255
291.996185 -151.692230 4.286194 0.937255
295.653961 -145.687088 4.206029 0.937255
300.074097 -138.430359 3.739152 0.905882
297.149841 -143.231232 2.487316 1.000000
300.171173 -138.270966 1.417643 0.352941
297.003754 -143.471069 0.550803 0.956024
293.522949 -149.185654 0.129862 0.223529
290.702057 -153.816833 -0.000005 0.548409
288.672089 -157.149536 -0.000003 0.527413
287.347504 -159.324158 0.010008 1.000000
286.475403 -160.755936 -0.000009 0.336706
285.790955 -161.879593 0.010008 1.000000
316.730103 -111.979996 18.696745 0.454353
316.753571 -111.942078 16.406193 0.402472
316.753540 -111.942108 14.136782 0.401709
292.097900 -151.791473 4.943215 0.937255
292.159302 -151.692230 4.296013 0.937255
295.814026 -145.785339 4.206031 0.937255
300.364716 -138.430359 3.746622 0.905882
300.426086 -138.331146 2.583701 0.997543
300.455902 -138.282990 1.415373 0.223529
297.245911 -143.471069 0.544579 0.942535
293.850220 -148.959335 0.100008 0.660960
290.805481 -153.880341 -0.000005 0.531411
288.752289 -157.198776 -0.000003 0.543587
287.412567 -159.364105 0.010008 1.000000
286.530487 -160.789749 -0.000009 0.336309
285.859253 -161.874603 -0.000009 0.340917
316.811584 -112.724945 18.549204 0.678431
316.774902 -112.783295 16.254459 0.637736
316.727844 -112.858200 13.992861 0.415259
292.261475 -151.791519 4.956048 0.937255
292.323883 -151.692230 4.306029 0.937255
295.973419 -145.884705 4.206033 0.888731
300.657867 -138.430344 3.754242 0.905882
300.720215 -138.331146 2.586247 0.997543
300.757996 -138.270996 1.412590 0.352941
300.757996 -138.270996 0.236511 0.352941
293.987549 -149.044830 0.099998 0.667506
290.908478 -153.944565 -0.000005 0.538552
288.832153 -157.248596 -0.000003 0.530953
287.477356 -159.404510 0.010008 1.000000
286.585327 -160.823959 -0.000008 0.333516
285.906555 -161.904099 -0.000009 0.332830
316.786438 -113.621704 18.356056 0.678431
316.786438 -113.621704 16.102806 0.678431
316.702728 -113.752838 13.852893 0.421683
292.425629 -151.792938 4.968897 0.937255
292.489899 -151.692230 4.316248 0.937255
296.132111 -145.985168 4.206035 0.886458
300.953583 -138.430359 3.762015 0.905882
301.016907 -138.331146 2.588845 0.997543
301.055298 -138.270996 1.409987 0.352941
301.055298 -138.270996 0.228697 0.352941
294.124237 -149.131363 0.099997 0.661204
291.011017 -154.009491 -0.000005 0.534615
288.911682 -157.298950 -0.000003 0.526955
287.541870 -159.445343 0.010008 1.000000
286.639954 -160.858551 -0.000008 0.337957
285.953674 -161.933914 -0.000008 0.336980
316.761841 -114.497841 18.168142 0.678431
316.761841 -114.497849 15.940780 0.678431
316.761841 -114.497849 13.744696 0.678431
292.592407 -151.792496 4.982337 0.937255
292.657379 -151.692230 4.326671 0.937255
296.290070 -146.086792 4.206032 0.937255
301.251984 -138.430359 3.769944 0.905882
301.316254 -138.331146 2.591495 0.997421
301.355255 -138.270996 1.407333 0.352941
301.355255 -138.270996 0.220726 0.352941
294.260315 -149.218811 0.099991 0.644388
291.113098 -154.075150 -0.000005 0.522988
288.990845 -157.349869 -0.000003 0.522271
287.636017 -159.440460 -0.000008 0.338689
286.694336 -160.893524 -0.000008 0.339788
286.000549 -161.964066 -0.000008 0.335363
316.737823 -115.354118 17.985264 0.678431
316.737823 -115.354126 15.783095 0.678431
316.737823 -115.354126 13.611851 0.678431
292.826416 -151.692230 5.013767 0.937255
292.826416 -151.692230 4.337302 0.937255
296.447327 -146.189529 4.206029 0.937255
301.553070 -138.430344 3.778032 0.905882
301.618347 -138.331146 2.594198 0.997421
301.657928 -138.270996 1.404624 0.352941
301.657928 -138.270996 0.212596 0.352941
294.395752 -149.307297 0.099994 0.645441
291.214722 -154.141510 -0.000005 0.537987
289.069672 -157.401337 -0.000003 0.538582
287.700256 -159.482422 -0.000008 0.336645
286.748474 -160.928864 -0.000008 0.344778
286.047211 -161.994553 -0.000008 0.335103
316.630798 -116.316299 17.769577 0.385214
316.714325 -116.191299 15.629595 0.678431
316.714325 -116.191284 13.482532 0.678431
292.996979 -151.692230 5.027751 0.937255
292.996979 -151.692230 4.348146 0.937255
296.603851 -146.293365 4.206024 0.937255
301.856934 -138.430359 3.786282 0.905882
301.923218 -138.331146 2.596954 0.967895
301.963409 -138.270996 1.401862 0.352941
301.963409 -138.270996 0.204303 0.352941
294.530579 -149.396713 0.099997 0.615427
291.315887 -154.208588 -0.000005 0.520577
289.148132 -157.453354 -0.000003 0.537179
287.764221 -159.524826 -0.000007 0.341176
286.802338 -160.964600 -0.000008 0.331579
286.093658 -162.025360 -0.000008 0.337240
316.607880 -117.133118 17.596640 0.388479
316.607880 -117.133102 15.448013 0.430167
316.691345 -117.010040 13.356612 0.678431
293.169159 -151.692230 5.042012 0.937255
293.169159 -151.692230 4.359208 0.937255
296.759644 -146.398285 4.206022 0.937255
302.163666 -138.430344 3.794696 0.905882
302.230927 -138.331146 2.599766 0.967895
302.271729 -138.270981 1.399044 0.352941
302.271729 -138.270996 0.195844 0.352941
294.664734 -149.487091 0.100000 0.628748
291.416565 -154.276367 -0.000004 0.526268
289.226196 -157.505920 -0.000002 0.612345
287.827881 -159.567673 -0.000007 0.334569
286.855957 -161.000702 -0.000007 0.335286
