# This PCD file was generated using the MATLABÂ® pcwrite function
# from Computer Vision ToolboxÂ®.
# .PCD v.7 - Point Cloud Data file format
VERSION .7
FIELDS x y z intensity
SIZE 4 4 4 4
TYPE F F F F
COUNT 1 1 1 1
WIDTH 1168
HEIGHT 1
VIEWPOINT 0 0 0 1 0 0 0
POINTS 1168
DATA ascii
185.571320 -188.888596 -0.000006 0.342046
185.152100 -190.568604 -0.000004 0.338537
184.843231 -191.806351 -0.000003 0.338308
nan nan nan 0.000000
nan nan nan 0.000000
nan nan nan 0.000000
nan nan nan 0.000000
204.516785 -115.468727 11.987402 0.607507
204.509125 -115.498558 9.116000 0.678431
204.516708 -115.469063 6.264989 0.607080
204.516785 -115.468758 3.420653 0.606851
204.509125 -115.498543 0.579850 0.678431
193.042313 -160.122818 -0.000025 0.542992
188.980713 -175.928894 -0.000020 0.548943
187.236923 -182.715057 -0.000011 0.527520
186.265701 -186.494675 0.000011 0.332052
185.645706 -188.907440 -0.000005 0.339635
185.214767 -190.584473 -0.000004 0.336110
184.897263 -191.820038 -0.000003 0.342519
nan nan nan 0.000000
nan nan nan 0.000000
nan nan nan 0.000000
nan nan nan 0.000000
205.143692 -115.468796 12.005589 0.591318
205.135818 -115.498581 9.128961 0.678431
205.143616 -115.469109 6.272757 0.586419
205.143707 -115.468773 3.423242 0.582589
205.135834 -115.498543 0.577263 0.678431
193.317337 -160.194504 -0.000026 0.537102
189.145508 -175.971848 -0.000020 0.547738
187.354370 -182.745682 -0.000011 0.538750
186.356766 -186.518463 0.000017 0.338354
185.719955 -188.926834 0.000001 0.336690
185.277328 -190.600784 -0.000004 0.338628
184.951202 -191.834106 -0.000003 0.330846
nan nan nan 0.000000
nan nan nan 0.000000
nan nan nan 0.000000
nan nan nan 0.000000
205.753433 -115.540482 12.015791 0.635706
205.749832 -115.553711 9.137634 0.591196
205.772812 -115.469193 6.280759 0.607965
205.772934 -115.468750 3.425907 0.608896
205.772964 -115.468658 0.574090 0.608164
193.591858 -160.268112 -0.000026 0.542458
189.309982 -176.015945 -0.000020 0.547692
187.471603 -182.777115 -0.000011 0.547906
186.447678 -186.542831 0.000016 0.339681
185.794052 -188.946747 0.000008 0.333288
185.339767 -190.617523 -0.000005 0.335164
185.005051 -191.848541 -0.000003 0.342351
nan nan nan 0.000000
nan nan nan 0.000000
nan nan nan 0.000000
nan nan nan 0.000000
206.152679 -116.370209 11.935977 0.736385
206.404434 -115.469231 9.158575 0.611978
206.404419 -115.469284 6.289001 0.620127
206.404572 -115.468758 3.428655 0.621378
206.717880 -114.347443 0.552293 0.586892
193.865860 -160.343643 -0.000026 0.537194
189.474136 -176.061203 -0.000020 0.541833
187.588608 -182.809357 -0.000011 0.534768
186.538422 -186.567841 0.000016 0.337224
185.868027 -188.967163 0.000013 0.340963
185.402084 -190.634735 0.000000 0.337728
185.058792 -191.863358 -0.000003 0.338415
nan nan nan 0.000000
nan nan nan 0.000000
nan nan nan 0.000000
nan nan nan 0.000000
nan nan nan 0.000000
207.038498 -115.469337 9.172731 0.612177
207.038483 -115.469406 6.297482 0.612192
207.038666 -115.468765 3.431483 0.611978
207.350708 -114.381325 0.550006 0.096361
194.139328 -160.421082 -0.000025 0.538537
189.637985 -176.107605 -0.000021 0.547646
187.705383 -182.842438 -0.000011 0.524483
186.628998 -186.593491 0.000015 0.341756
185.941864 -188.988068 0.000013 0.337438
185.464279 -190.652359 0.000005 0.335805
185.112427 -191.878525 -0.000006 0.344060
nan nan nan 0.000000
nan nan nan 0.000000
200.028336 -141.432266 13.024629 0.727245
199.970184 -141.629730 10.957063 0.726055
199.970184 -141.629730 8.946575 0.733974
199.801666 -142.201904 6.902266 0.316182
199.970184 -141.629730 4.966456 0.718212
199.970184 -141.629730 2.988113 0.725826
200.028336 -141.432281 1.008519 0.745449
194.412231 -160.500458 -0.000025 0.545022
189.801498 -176.155136 -0.000021 0.536812
187.821930 -182.876312 -0.000011 0.537530
186.719391 -186.619751 0.000014 0.337499
186.015549 -189.009491 0.000013 0.329824
185.526352 -190.670441 0.000010 0.328786
185.165939 -191.894119 -0.000000 0.342382
nan nan nan 0.000000
nan nan nan 0.000000
199.970154 -143.087402 12.733008 0.742123
199.970154 -143.087372 10.749864 0.712489
199.970139 -143.087402 8.785881 0.709728
199.796677 -143.661545 6.787459 0.148043
199.970154 -143.087402 4.897834 0.720439
199.970154 -143.087387 2.965256 0.734768
200.028336 -142.894806 1.031453 0.750851
194.684601 -160.581696 -0.000025 0.542123
189.964676 -176.203827 -0.000020 0.529046
187.938232 -182.911011 -0.000011 0.546242
186.790115 -186.711075 0.009994 1.000000
186.089081 -189.031418 0.000012 0.334386
185.588303 -190.688919 0.000011 0.336721
185.219345 -191.910065 0.000003 0.332815
nan nan nan 0.000000
199.970123 -144.479202 14.452470 0.712306
199.970123 -144.479218 12.490834 0.725841
199.970123 -144.479218 10.552434 0.711192
199.970123 -144.479218 8.632769 0.741497
199.794846 -145.045059 6.678936 0.639399
199.970123 -144.479202 4.832449 0.724941
199.970123 -144.479218 2.943475 0.715358
199.970123 -144.479218 1.056525 0.732143
194.956390 -160.664841 -0.000025 0.541024
190.127518 -176.253632 -0.000021 0.536812
188.054306 -182.946518 -0.000011 0.541543
186.879684 -186.738480 0.009994 1.000000
186.162460 -189.053864 0.000012 0.337957
185.650116 -190.707825 0.000011 0.339620
185.272644 -191.926392 0.000007 0.330846
nan nan nan 0.000000
199.970123 -145.809586 14.178298 0.710613
199.970108 -145.809601 12.259852 0.709804
199.970108 -145.809601 10.364132 0.709804
199.970123 -145.809586 8.486733 0.723934
199.970123 -145.809586 6.623421 0.734371
199.970108 -145.809601 4.770086 0.725307
199.970108 -145.809601 2.922704 0.743313
199.970108 -145.809601 1.077298 0.723690
195.227570 -160.749893 -0.000025 0.539147
190.290009 -176.304596 -0.000021 0.550118
188.170105 -182.982834 -0.000011 0.545327
186.989410 -186.702362 0.000012 0.334051
186.235672 -189.076828 0.000011 0.337270
185.711807 -190.727173 0.000011 0.343114
185.325836 -191.943069 0.000010 0.331487
nan nan nan 0.000000
199.970184 -147.082489 13.916555 0.761700
200.028336 -146.903656 12.073564 0.732921
200.028336 -146.903656 10.212261 0.736889
200.028336 -146.903656 8.368952 0.735088
200.028320 -146.903656 6.539472 0.724529
199.914703 -147.253143 4.701735 0.718441
199.970184 -147.082504 2.902870 0.734676
199.970184 -147.082504 1.097129 0.717891
195.498169 -160.836823 -0.000025 0.544366
190.452133 -176.356674 -0.000021 0.537163
188.285660 -183.019958 -0.000011 0.538796
187.079025 -186.731140 0.000012 0.338857
186.308731 -189.100296 0.000010 0.336553
185.773346 -190.746948 0.000010 0.341802
185.378906 -191.960129 0.000009 0.323308
nan nan nan 0.000000
200.028336 -148.127411 13.706103 0.717784
200.028336 -148.127426 11.862041 0.731640
200.028336 -148.127426 10.039825 0.730526
200.028320 -148.127441 8.235218 0.720928
200.028336 -148.127426 6.444153 0.754040
200.028336 -148.127426 4.662680 0.741299
199.970154 -148.302170 2.883913 0.736446
199.970154 -148.302170 1.116088 0.729213
195.768158 -160.925659 -0.000025 0.538125
190.613892 -176.409897 -0.000021 0.552438
188.400955 -183.057892 -0.000011 0.523674
187.168488 -186.760437 -0.000008 0.520897
186.381622 -189.124283 0.000010 0.339193
185.834763 -190.767151 0.000009 0.337530
185.431854 -191.977539 0.000009 0.344427
nan nan nan 0.000000
200.028320 -149.300888 13.465907 0.721263
199.796783 -149.980621 11.529027 0.119051
199.796707 -149.980835 9.768307 0.251896
198.351929 -154.222122 7.509194 0.209674
198.363144 -154.189224 5.929530 0.297246
198.363144 -154.189194 4.354346 0.297246
199.970154 -149.471680 2.865776 0.709804
199.970154 -149.471680 1.134226 0.745190
196.037506 -161.016373 -0.000025 0.539940
190.775269 -176.464233 -0.000021 0.551766
188.515976 -183.096634 -0.000011 0.547906
187.257690 -186.790482 -0.000009 0.540017
186.454361 -189.148758 0.000009 0.332540
185.896027 -190.787781 0.000009 0.342412
185.484680 -191.995331 0.000008 0.338552
nan nan nan 0.000000
200.028320 -150.427246 13.235905 0.721019
199.818359 -151.029816 11.349809 0.735302
199.796707 -151.091949 9.612478 0.213336
198.355743 -155.227219 7.400016 0.107454
198.416153 -155.053864 5.863915 0.266438
198.409164 -155.073944 4.313989 0.279011
199.970123 -150.594269 2.848408 0.725124
199.970123 -150.594269 1.151593 0.734386
196.306229 -161.108963 -0.000025 0.539208
190.936279 -176.519714 -0.000021 0.535851
188.630737 -183.136169 -0.000011 0.539803
187.346680 -186.821136 -0.000009 0.544656
186.526901 -189.173752 0.000009 0.341375
185.957153 -190.808838 0.000009 0.333639
185.537384 -192.013489 0.000008 0.340017
nan nan nan 0.000000
200.028320 -151.509338 13.015479 0.730892
200.028320 -151.509323 11.280216 0.723308
199.796738 -152.159317 9.463150 0.185901
198.383972 -156.124344 7.303755 0.113405
198.407730 -156.057678 5.786057 0.247059
198.404907 -156.065598 4.267972 0.248600
199.970154 -151.672592 2.831764 0.712520
199.970154 -151.672592 1.168236 0.723171
196.574295 -161.203400 -0.000025 0.541817
191.096878 -176.576309 -0.000021 0.537499
188.745209 -183.176498 -0.000011 0.547845
187.435471 -186.852417 -0.000009 0.529854
186.599274 -189.199249 0.000008 0.337789
186.018127 -190.830322 0.000008 0.339498
185.589966 -192.032013 0.000007 0.337469
199.970154 -152.709549 14.487671 0.726390
199.970154 -152.709549 12.767342 0.709590
200.028320 -152.549835 11.102092 0.732708
199.796738 -153.185730 9.319906 0.140703
198.400589 -157.019302 7.207538 0.299870
198.403214 -157.012100 5.712303 0.241779
198.402618 -157.013733 4.224111 0.260029
200.028290 -152.549927 2.818580 0.721645
199.970154 -152.709534 1.184200 0.694484
196.841690 -161.299744 -0.000025 0.541573
191.257095 -176.634018 -0.000021 0.536858
188.859390 -183.217636 -0.000011 0.525261
187.524017 -186.884323 -0.000009 0.552132
186.671478 -189.225266 0.000008 0.335302
186.078949 -190.852219 0.000007 0.329625
185.642410 -192.050903 0.000007 0.332601
199.970169 -153.707458 14.253095 0.727626
199.796768 -154.173462 12.457695 0.180392
199.970169 -153.707474 10.900766 0.711360
199.796738 -154.173523 9.182402 0.150225
198.372101 -158.001984 7.100317 0.129412
198.370514 -158.006226 5.634883 0.129412
198.372757 -158.000198 4.178127 0.129412
200.028290 -153.551270 2.803202 0.726940
199.970169 -153.707458 1.199525 0.733333
197.108398 -161.397949 -0.000025 0.539742
191.416885 -176.692841 -0.000021 0.532738
188.973297 -183.259567 -0.000011 0.539300
187.612350 -186.916840 -0.000009 0.536400
186.743484 -189.251770 0.000007 0.340337
186.139618 -190.874557 0.000007 0.341192
185.694717 -192.070160 0.000007 0.334646
199.796799 -155.124786 13.905514 0.203784
199.797272 -155.123535 12.265672 0.263844
199.970169 -154.668640 10.737068 0.720699
199.796814 -155.124756 9.050335 0.129412
198.408020 -158.778625 7.018145 0.296803
198.408127 -158.778351 5.576707 0.244602
198.409851 -158.773804 4.143196 0.244282
200.028290 -154.515762 2.788431 0.711147
199.970169 -154.668640 1.214247 0.735439
197.374435 -161.497986 -0.000025 0.539055
191.576279 -176.752792 -0.000021 0.549111
189.086899 -183.302292 -0.000011 0.545739
187.700455 -186.949982 -0.000008 0.536629
186.815308 -189.278778 0.000006 0.333257
186.200134 -190.897308 0.000006 0.326833
185.746887 -192.089783 0.000007 0.336324
199.796783 -156.041962 13.691042 0.178851
199.796753 -156.041992 12.080450 0.170764
199.970200 -155.595093 10.579705 0.711131
199.970200 -155.595093 8.994428 0.717388
198.403931 -159.630844 6.926454 0.280659
198.407394 -159.621918 5.512117 0.235294
198.408615 -159.618790 4.104421 0.223850
200.028290 -155.445419 2.774228 0.726528
199.970200 -155.595093 1.228399 0.721019
197.639755 -161.599899 -0.000025 0.543053
191.735245 -176.813843 -0.000021 0.533791
189.200195 -183.345810 -0.000011 0.535302
187.788330 -186.983734 -0.000008 0.520119
186.867081 -189.357498 0.010000 1.000000
186.260483 -190.920486 0.000006 0.331807
185.798920 -192.109756 0.000006 0.333516
199.909286 -156.642654 13.561247 0.698634
199.796783 -156.926620 11.902576 0.141970
199.970184 -156.488907 10.428293 0.709804
199.970200 -156.488892 8.870993 0.735744
198.398193 -160.457077 6.837722 0.280003
198.399719 -160.453201 5.448431 0.235142
198.394073 -160.467484 4.065344 0.211765
200.028290 -156.342255 2.760565 0.732097
199.970200 -156.488907 1.242016 0.748394
197.904343 -161.703674 -0.000024 0.546807
191.893784 -176.876007 -0.000021 0.546593
189.313187 -183.390121 -0.000011 0.530358
187.875961 -187.018097 -0.000009 0.554238
186.938156 -189.385361 0.010000 1.000000
186.320663 -190.944092 0.000005 0.335149
185.850815 -192.130112 0.000006 0.342580
200.028320 -157.207947 13.440865 0.737835
199.796783 -157.780685 11.731319 0.139284
199.970184 -157.351746 10.282535 0.711650
199.970184 -157.351746 8.752165 0.732555
198.407623 -161.217056 6.756956 0.318807
198.408768 -161.214233 5.390771 0.235645
198.405365 -161.222656 4.031108 0.234684
200.028290 -157.208008 2.747411 0.730892
199.970184 -157.351730 1.255124 0.721294
198.168228 -161.809265 -0.000024 0.537346
192.051880 -176.939285 -0.000021 0.541878
189.425873 -183.435211 -0.000011 0.533181
187.963348 -187.053070 -0.000009 0.525948
187.029633 -189.362808 0.000004 0.339223
186.380692 -190.968109 0.000005 0.331792
185.902573 -192.150818 0.000005 0.328328
200.028305 -158.044327 13.246904 0.733333
199.796753 -158.605820 11.566330 0.146242
200.028305 -158.044327 10.169860 0.733333
199.970184 -158.185287 8.637691 0.732815
198.407455 -161.974640 6.676262 0.274907
198.406006 -161.978165 5.332694 0.217823
198.405258 -161.979980 3.996662 0.283513
200.028290 -158.044403 2.734741 0.730022
199.970184 -158.185287 1.267753 0.734356
198.431351 -161.916718 -0.000024 0.541100
192.209518 -177.003662 -0.000021 0.533379
189.538239 -183.481110 -0.000011 0.529702
188.050491 -187.088654 -0.000009 0.547967
187.100677 -189.391815 0.000004 0.339071
186.440536 -190.992538 0.000004 0.335561
185.954178 -192.171890 0.000005 0.336629
200.028320 -158.852829 13.059950 0.733333
199.853806 -159.267746 11.439093 0.741176
200.028305 -158.852844 10.034057 0.732418
199.970169 -158.991074 8.527350 0.709804
198.404175 -162.714401 6.597555 0.303746
198.405075 -162.712280 5.277098 0.235264
198.406876 -162.707977 3.963677 0.388235
200.028290 -158.852905 2.722527 0.727291
199.970169 -158.991074 1.279925 0.737118
198.693726 -162.025970 -0.000024 0.542123
192.366714 -177.069122 -0.000021 0.539757
189.650284 -183.527771 -0.000011 0.545647
188.137390 -187.124832 -0.000009 0.536416
187.171539 -189.421265 -0.000007 0.572473
186.500214 -191.017395 0.000004 0.342138
186.005630 -192.193314 0.000005 0.328786
199.970108 -159.770691 12.842634 0.698924
200.028305 -159.634964 11.380822 0.731731
200.028305 -159.634979 9.903065 0.739544
198.357758 -163.530563 7.814060 0.121599
198.407501 -163.414566 6.523566 0.295567
198.404861 -163.420731 5.223622 0.235294
198.405655 -163.418884 3.931506 0.358343
200.028275 -159.635040 2.710748 0.708339
199.970108 -159.770691 1.291668 0.715480
198.955338 -162.137070 -0.000024 0.546334
192.523468 -177.135696 -0.000021 0.539559
189.761993 -183.575211 -0.000011 0.555077
188.224030 -187.161636 -0.000009 0.544823
187.242172 -189.451248 -0.000007 0.547982
186.559723 -191.042664 0.000003 0.335134
186.056946 -192.215103 0.000004 0.319905
199.970108 -160.525162 12.669205 0.725246
200.028305 -160.392044 11.230770 0.733013
199.796738 -160.921814 9.671450 0.088899
198.359131 -164.210602 7.721571 0.119402
198.404205 -164.107498 6.450262 0.310002
198.402557 -164.111252 5.171590 0.242191
198.410843 -164.092316 3.901248 0.254002
200.028290 -160.392090 2.699378 0.720485
199.970123 -160.525162 1.302998 0.710170
199.216156 -162.250000 -0.000024 0.541451
192.679733 -177.203339 -0.000022 0.540825
189.873383 -183.623428 -0.000011 0.542992
188.310410 -187.199036 -0.000009 0.534874
187.312592 -189.481750 -0.000006 0.527184
186.619049 -191.068344 0.000003 0.330312
186.108093 -192.237259 0.000003 0.331899
199.970123 -161.255920 12.501740 0.723339
200.028305 -161.125305 11.085880 0.721569
199.930954 -161.343842 9.611052 0.721477
198.356766 -164.877670 7.630902 0.118868
198.404373 -164.770798 6.380459 0.294240
198.405746 -164.767731 5.122447 0.240513
198.403992 -164.771652 3.870579 0.235050
200.028275 -161.125351 2.688401 0.721599
199.970123 -161.255905 1.313938 0.715297
199.476181 -162.364746 -0.000024 0.542611
192.835526 -177.272095 -0.000021 0.532265
189.984421 -183.672440 -0.000011 0.531167
188.396515 -187.237030 -0.000009 0.557702
187.382782 -189.512726 -0.000007 0.551934
186.678192 -191.094452 0.000002 0.331228
186.159088 -192.259750 0.000003 0.347265
199.970123 -161.964127 12.339948 0.720653
199.970123 -161.964111 10.915494 0.733333
200.028305 -161.835938 9.536652 0.723980
198.360321 -165.511093 7.545421 0.109560
198.401321 -165.420746 6.312120 0.287892
198.403336 -165.416306 5.073864 0.258701
198.401611 -165.420120 3.841475 0.250233
200.028290 -161.835983 2.677795 0.711986
199.970123 -161.964127 1.324507 0.723247
199.735397 -162.481323 -0.000024 0.540398
192.990829 -177.341934 -0.000021 0.529686
190.095108 -183.722214 -0.000011 0.538796
188.482376 -187.275635 -0.000009 0.558297
187.452774 -189.544189 -0.000007 0.548074
186.737152 -191.120956 0.000002 0.335790
186.209930 -192.282608 0.000003 0.334676
199.970139 -162.650864 12.183556 0.728313
199.970139 -162.650848 10.780649 0.726894
200.028305 -162.525024 9.422657 0.724895
198.356689 -166.140884 7.460264 0.121935
198.406219 -166.033737 6.248241 0.278660
198.407120 -166.031799 5.028111 0.247059
198.407562 -166.030853 3.814320 0.192157
200.028275 -162.525085 2.667543 0.716289
199.970139 -162.650864 1.334724 0.715084
200.028275 -162.525101 -0.004061 0.737926
193.145645 -177.412857 -0.000021 0.537926
190.205460 -183.772751 -0.000011 0.540703
188.567947 -187.314835 -0.000008 0.541878
187.522537 -189.576157 -0.000007 0.529946
186.795929 -191.147873 0.000001 0.342260
186.260605 -192.305832 0.000003 0.334920
200.028305 -163.193619 12.066511 0.733761
199.970139 -163.317154 10.650236 0.733333
200.028275 -163.193665 9.312403 0.722850
198.357040 -166.743439 7.379288 0.122515
198.410950 -166.628937 6.186422 0.277073
198.409653 -166.631683 4.983622 0.248325
198.412338 -166.625977 3.787923 0.192157
200.028290 -163.193665 2.657629 0.722850
199.970139 -163.317154 1.344605 0.696040
200.028275 -163.193680 0.025705 0.724697
193.299973 -177.484848 -0.000021 0.540581
190.315445 -183.824081 -0.000011 0.534722
188.653259 -187.354630 -0.000009 0.552712
187.592087 -189.608597 -0.000007 0.559319
186.834793 -191.217102 0.010003 1.000000
186.311127 -192.329391 0.000002 0.326848
200.028305 -163.842682 11.919660 0.721569
199.970154 -163.963989 10.524051 0.726558
199.970154 -163.963989 9.181261 0.731563
198.375671 -167.290283 7.307203 0.114061
198.404083 -167.230972 6.123523 0.266667
198.404831 -167.229431 4.939182 0.235294
198.406097 -167.226776 3.761132 0.179904
200.028275 -163.842728 2.648034 0.740078
199.970154 -163.963989 1.354165 0.730968
200.028275 -163.842743 0.054507 0.734127
193.453781 -177.557922 -0.000021 0.553811
190.425079 -183.876160 -0.000011 0.555840
188.738266 -187.395020 -0.000009 0.530114
187.661392 -189.641525 -0.000007 0.539559
186.892914 -191.244675 0.009994 1.000000
186.361481 -192.353317 0.000002 0.335698
200.028305 -164.473114 11.777497 0.745724
199.970154 -164.592270 10.401892 0.727749
199.970154 -164.592270 9.078344 0.709804
198.402084 -167.805710 7.240079 0.194553
198.404236 -167.801270 6.064467 0.276646
198.402985 -167.803864 4.896714 0.235294
198.402695 -167.804443 3.735511 0.179675
200.028290 -164.473145 2.638747 0.746014
199.970154 -164.592270 1.363421 0.723735
200.028275 -164.473160 0.082388 0.734768
193.607086 -177.632065 -0.000021 0.553414
190.534348 -183.929001 -0.000011 0.536095
188.823013 -187.436020 -0.000008 0.559228
187.730469 -189.674942 -0.000007 0.562539
186.950790 -191.272720 0.010005 1.000000
186.411652 -192.377579 0.000002 0.337804
200.028305 -165.085739 11.639822 0.729351
199.970154 -165.202820 10.283583 0.738384
199.970154 -165.202820 8.978674 0.721569
198.410751 -168.342682 7.169185 0.251560
198.409256 -168.345703 6.008531 0.215702
198.410187 -168.343826 4.857252 0.192355
198.400940 -168.362427 3.710880 0.152560
200.028290 -165.085785 2.629753 0.734722
199.970154 -165.202820 1.372385 0.718074
200.028275 -165.085785 0.109390 0.734371
193.759857 -177.707275 -0.000021 0.550698
190.643234 -183.982605 -0.000011 0.543984
188.907455 -187.477585 -0.000008 0.562249
187.799316 -189.708832 -0.000006 0.547951
187.008499 -191.301147 0.010008 1.000000
186.461670 -192.402206 0.000001 0.342718
200.028305 -165.681396 11.506421 0.721569
200.028290 -165.681427 10.196789 0.722850
199.970154 -165.796463 8.882100 0.731106
198.408997 -168.885513 7.097076 0.321569
198.406815 -168.889847 5.952436 0.266514
198.407806 -168.887878 4.817281 0.243015
198.373047 -168.956665 3.684165 0.116030
200.028290 -165.681427 2.621039 0.734493
199.970154 -165.796448 1.381070 0.708644
200.028275 -165.681442 0.135552 0.732479
193.912109 -177.783554 -0.000021 0.541787
190.751740 -184.036972 -0.000011 0.532189
188.991623 -187.519745 -0.000008 0.537896
187.867935 -189.743210 -0.000006 0.555322
187.086914 -191.288605 -0.000000 0.331899
186.511505 -192.427170 0.000001 0.331914
200.028305 -166.260818 11.377115 0.732860
200.028290 -166.260834 10.085299 0.724880
199.970154 -166.373901 8.788491 0.731884
198.372971 -169.480194 7.016060 0.131044
198.373352 -169.479446 5.890258 0.119295
198.372513 -169.481079 4.772634 0.117647
198.357864 -169.509567 3.659627 0.117647
200.028275 -166.260849 2.612592 0.696666
199.970154 -166.373901 1.389488 0.738949
200.028275 -166.260864 0.160912 0.731670
194.063812 -177.860886 -0.000021 0.534585
190.859879 -184.092102 -0.000011 0.533043
189.075485 -187.562500 -0.000009 0.526848
187.936295 -189.778046 -0.000007 0.558541
187.144516 -191.317963 -0.000001 0.338613
186.561172 -192.452484 0.000000 0.337438
200.028290 -166.824722 11.251722 0.728969
200.028290 -166.824738 9.977179 0.716152
199.970154 -166.935898 8.697710 0.720302
198.407425 -169.923691 6.960012 0.284153
198.406586 -169.925293 5.846488 0.247059
198.405807 -169.926773 4.741446 0.235294
198.360809 -170.012817 3.637746 0.128313
200.028290 -166.824738 2.604399 0.729198
199.970154 -166.935883 1.397652 0.692134
200.028275 -166.824753 0.185504 0.727565
194.214981 -177.939285 -0.000021 0.543984
190.967621 -184.147980 -0.000011 0.566873
189.159042 -187.605835 -0.000009 0.533440
188.004410 -189.813385 -0.000006 0.554360
187.201904 -191.347702 -0.000005 0.547677
186.610657 -192.478149 0.000000 0.342580
200.028290 -167.373779 11.130076 0.731151
199.796783 -167.808960 9.765831 0.165728
199.970154 -167.483063 8.609653 0.733639
198.411896 -170.412323 6.896212 0.290700
198.408875 -170.417999 5.796476 0.255634
198.410233 -170.415451 4.706177 0.219944
198.361038 -170.507935 3.616238 0.118700
200.028275 -167.373779 2.596454 0.740795
199.970154 -167.483047 1.405572 0.724605
200.028275 -167.373779 0.209361 0.717983
194.365601 -178.018738 -0.000021 0.538903
191.074966 -184.204605 -0.000011 0.542519
189.242294 -187.649750 -0.000008 0.510628
188.072281 -189.849182 -0.000007 0.561013
187.259094 -191.377869 -0.000005 0.550454
186.659958 -192.504150 -0.000000 0.330190
199.970184 -168.015991 10.981439 0.733333
199.796783 -168.336548 9.665420 0.133791
199.970184 -168.015991 8.524205 0.733333
198.511505 -170.712494 6.863958 0.133425
198.511505 -170.712509 5.772202 0.122820
192.812103 -181.248413 3.706443 0.508019
192.848572 -181.181000 3.026167 0.516472
200.028275 -167.908600 2.588742 0.730816
199.970184 -168.015991 1.413257 0.718441
200.028275 -167.908600 0.232514 0.701167
194.515656 -178.099243 -0.000021 0.531823
191.181931 -184.261978 -0.000011 0.537072
189.325241 -187.694244 -0.000008 0.527245
188.139908 -189.885452 -0.000006 0.520058
187.316055 -191.408432 -0.000005 0.537667
186.709076 -192.530502 -0.000000 0.347799
199.970184 -168.535416 10.867214 0.733333
199.796783 -168.850662 9.567940 0.137423
199.970184 -168.535416 8.441231 0.702129
198.772766 -170.712509 6.882515 0.123018
198.772766 -170.712509 5.786594 0.129412
193.135864 -180.961258 3.739825 0.507759
198.772766 -170.712494 3.617022 0.121279
200.028275 -168.429779 2.581254 0.727199
199.970184 -168.535416 1.420719 0.710948
200.028275 -168.429779 0.254992 0.716442
194.665146 -178.180786 -0.000021 0.533974
191.288467 -184.320099 -0.000011 0.542977
189.407867 -187.739319 -0.000009 0.530892
188.207275 -189.922211 -0.000007 0.527382
187.372803 -191.439392 -0.000005 0.583886
186.758011 -192.557190 -0.000001 0.340826
199.970169 -169.041840 10.756277 0.735164
199.796783 -169.351913 9.473264 0.185672
200.028290 -168.937897 8.382313 0.712886
193.315567 -180.943405 5.162725 0.521721
199.036026 -170.712509 5.801281 0.117647
193.062073 -181.396790 3.705660 0.504784
193.056747 -181.406296 3.021397 0.504799
200.028275 -168.937912 2.573982 0.721569
199.970169 -169.041840 1.427966 0.738460
200.028275 -168.937912 0.276822 0.682460
194.814072 -178.263367 -0.000021 0.546548
191.394623 -184.378952 -0.000011 0.534096
189.490189 -187.784973 -0.000008 0.545327
188.274384 -189.959412 -0.000006 0.528481
187.429352 -191.470734 -0.000005 0.582467
186.806763 -192.584213 -0.000002 0.332555
199.970154 -169.535767 10.648499 0.715038
199.796722 -169.840912 9.381256 0.173709
193.052826 -181.706940 5.735051 0.505699
193.523819 -180.878220 5.186318 0.505882
193.371979 -181.145401 4.435770 0.505882
192.797104 -182.156891 3.640698 0.506386
193.087189 -181.646500 3.011853 0.510796
200.028275 -169.433502 2.566917 0.725780
199.970154 -169.535767 1.435007 0.729290
200.028275 -169.433502 0.298032 0.720104
194.962418 -178.346985 -0.000021 0.549081
191.500351 -184.438553 -0.000011 0.531685
189.572189 -187.831207 -0.000008 0.534234
188.341232 -189.997101 -0.000006 0.518380
187.485657 -191.502487 -0.000005 0.512078
186.855316 -192.611588 -0.000002 0.330449
199.970154 -170.017685 10.543756 0.726070
193.137665 -181.846573 6.416395 0.515099
200.028290 -169.917038 8.227417 0.720989
193.746902 -180.791809 5.213891 0.530968
193.494308 -181.229141 4.434406 0.509010
192.943558 -182.182648 3.644836 0.515740
193.350403 -181.478271 3.025452 0.513695
200.028275 -169.917053 2.560052 0.735119
199.970154 -170.017685 1.441850 0.765393
200.028275 -169.917068 0.318644 0.713664
195.110168 -178.431641 -0.000021 0.530983
191.605667 -184.498901 -0.000011 0.540093
189.653870 -187.877991 -0.000008 0.530846
188.407806 -190.035248 -0.000007 0.541558
187.541763 -191.534622 -0.000005 0.534264
186.883713 -192.673874 0.009999 1.000000
199.970139 -170.488113 10.441924 0.709804
199.796738 -170.783539 9.204960 0.158572
194.236893 -180.255844 6.071456 0.523919
199.838425 -170.712524 6.960629 0.118639
193.585693 -181.365280 4.426163 0.507591
193.082962 -182.221802 3.647814 0.514290
193.927582 -180.782822 3.069245 0.505882
200.028275 -170.389069 2.553377 0.728466
199.970154 -170.488098 1.448503 0.734249
200.028275 -170.389069 0.338682 0.712673
195.257324 -178.517334 -0.000021 0.551293
191.710541 -184.559982 -0.000010 0.547539
189.735199 -187.925354 -0.000009 0.551568
188.474121 -190.073868 -0.000006 0.527962
187.597626 -191.567154 -0.000005 0.569696
186.931625 -192.701813 0.010007 1.000000
199.970139 -170.947464 10.342895 0.721569
193.477463 -181.834198 6.455850 0.505196
193.719559 -181.428284 5.839919 0.531044
199.970139 -170.947464 6.940584 0.699733
193.745422 -181.384918 4.433575 0.512779
193.498306 -181.799255 3.694973 0.507347
193.200668 -182.298325 2.986983 0.516793
200.028275 -170.849976 2.546885 0.723980
199.970139 -170.947449 1.454971 0.733333
200.028275 -170.849976 0.358171 0.721569
195.403885 -178.604050 -0.000021 0.543343
191.815002 -184.621780 -0.000010 0.543221
189.816223 -187.973282 -0.000009 0.535653
188.540161 -190.112946 -0.000006 0.547005
187.653259 -191.600067 -0.000005 0.504417
186.979355 -192.730057 0.010009 1.000000
194.018097 -181.219864 7.369431 0.505882
193.775162 -181.620819 6.528472 0.514473
193.520477 -182.041168 5.725676 0.502235
193.641876 -181.840805 5.072031 0.512627
193.869812 -181.464615 4.433090 0.536248
193.722916 -181.707047 3.710942 0.506920
193.464722 -182.133194 3.000619 0.521263
200.028275 -171.300232 2.540570 0.714168
199.970139 -171.396194 1.461265 0.733333
200.028275 -171.300232 0.377129 0.733333
195.549789 -178.691849 -0.000014 0.527733
191.919022 -184.684311 -0.000010 0.535058
189.896896 -188.021790 -0.000008 0.564157
188.605927 -190.152481 -0.000006 0.544106
187.708664 -191.633377 -0.000005 0.551629
187.026901 -192.758636 0.010007 1.000000
194.014496 -181.511200 7.306680 0.529412
194.735443 -180.339844 6.872685 0.499489
193.625046 -182.143982 5.719626 0.523552
193.679764 -182.055069 5.047835 0.515724
194.091644 -181.385864 4.454123 0.505882
193.836456 -181.800507 3.709255 0.510170
194.202789 -181.205276 3.058423 0.506645
200.028275 -171.740219 2.534426 0.740627
199.970123 -171.834686 1.467390 0.733288
200.028275 -171.740219 0.395576 0.733333
195.695114 -178.780594 -0.000015 0.544366
192.022614 -184.747559 -0.000011 0.530785
189.977219 -188.070847 -0.000008 0.530312
188.671417 -190.192474 -0.000006 0.536004
187.763840 -191.667068 -0.000005 0.544030
187.074265 -192.787491 0.009993 1.000000
194.296921 -181.338440 7.380746 0.524056
193.557999 -182.520462 6.338411 0.508095
193.729218 -182.246567 5.713755 0.506081
193.909607 -181.958008 5.078042 0.518227
193.558655 -182.519409 4.310983 0.502068
193.870193 -182.021057 3.695344 0.524575
194.379257 -181.206757 3.062930 0.506050
200.028275 -172.170349 2.528445 0.722484
199.970139 -172.263336 1.473350 0.709804
200.028275 -172.170349 0.413533 0.717891
195.839828 -178.870361 -0.000015 0.534279
192.125748 -184.811539 -0.000010 0.531334
190.057220 -188.120453 -0.000008 0.541161
188.736633 -190.232925 -0.000006 0.560754
187.818787 -191.701157 -0.000005 0.552636
187.142532 -192.782913 0.000003 0.335653
193.859283 -182.307556 7.116922 0.505882
193.602234 -182.712418 6.308424 0.519463
193.656128 -182.627533 5.648017 0.517861
194.130371 -181.880569 5.105216 0.530343
193.978561 -182.119675 4.375643 0.511879
193.678680 -182.592010 3.647363 0.518364
194.527054 -181.255753 3.064764 0.507607
200.028275 -172.590958 2.522621 0.740200
199.970139 -172.682510 1.479153 0.712795
200.028275 -172.590958 0.431016 0.724697
195.983902 -178.961121 -0.000015 0.533028
192.228439 -184.876236 -0.000010 0.563806
190.136856 -188.170639 -0.000008 0.540154
188.801559 -190.273819 -0.000006 0.555535
187.873474 -191.735611 -0.000005 0.530495
187.189697 -192.812622 0.000003 0.333989
194.060349 -182.258881 7.154334 0.512245
194.115128 -182.173904 6.466097 0.505425
193.925888 -182.467438 5.699007 0.506950
194.277618 -181.921875 5.111826 0.515801
193.743286 -182.750641 4.299911 0.507530
193.505676 -183.119186 3.603307 0.501976
193.506516 -183.117905 2.960684 0.502708
200.028275 -173.002426 2.516950 0.731029
199.970154 -173.092590 1.484806 0.724605
200.028275 -173.002426 0.448043 0.732555
196.127350 -179.052902 -0.000015 0.523888
192.330673 -184.941650 -0.000010 0.531151
190.216141 -188.221375 -0.000008 0.540398
188.866196 -190.315170 -0.000006 0.551797
187.927933 -191.770462 -0.000005 0.534356
187.236649 -192.842667 0.000003 0.335424
194.262497 -182.212372 7.191692 0.505882
194.378296 -182.035492 6.522134 0.533593
194.117477 -182.433884 5.723120 0.510658
194.395340 -182.009460 5.110446 0.514336
194.263107 -182.211426 4.384509 0.505882
193.735367 -183.017578 3.620555 0.513481
193.712692 -183.052216 2.968908 0.505882
200.028275 -173.405075 2.511424 0.724865
199.970154 -173.493866 1.490312 0.721569
200.028275 -173.405075 0.464631 0.709026
196.270142 -179.145660 -0.000015 0.538598
192.432465 -185.007782 -0.000010 0.527733
190.295074 -188.272644 -0.000008 0.512108
188.930542 -190.356979 -0.000006 0.551980
187.982147 -191.805679 -0.000005 0.520974
187.283386 -192.873032 0.000003 0.326116
194.655655 -181.882263 7.314943 0.511254
199.970154 -173.886673 8.656298 0.739773
194.131943 -182.670197 5.688676 0.518563
194.163376 -182.622894 5.015542 0.500526
194.001404 -182.866562 4.305018 0.515648
194.130997 -182.671600 3.662097 0.513069
193.994766 -182.876556 2.983742 0.518074
195.640381 -180.400757 2.376327 0.511574
199.970154 -173.886673 1.495678 0.709804
200.028275 -173.799240 0.480795 0.731258
196.412277 -179.239441 -0.000014 0.550042
192.533768 -185.074600 -0.000010 0.532753
190.373657 -188.324478 -0.000008 0.554604
188.994598 -190.399231 -0.000006 0.516274
188.036118 -191.841278 -0.000005 0.529534
187.329926 -192.903717 0.000000 0.330510
194.534149 -182.327148 7.205417 0.483665
195.782684 -180.476883 6.970394 0.503426
194.246521 -182.753387 5.687701 0.506111
194.611099 -182.213120 5.103002 0.506828
193.702271 -183.559937 4.219594 0.525277
193.780182 -183.444489 3.593435 0.511955
194.229324 -182.778900 2.994141 0.505211
195.943161 -180.239090 2.381282 0.513909
199.970154 -174.271317 1.500908 0.736263
200.028259 -174.185211 0.496550 0.722118
196.553772 -179.334198 -0.000014 0.546487
192.634613 -185.142151 -0.000010 0.554711
190.451859 -188.376862 -0.000008 0.543328
189.058365 -190.441940 -0.000006 0.538323
188.089828 -191.877243 -0.000005 0.525277
187.376251 -192.934723 -0.000003 0.338598
194.888245 -182.066940 7.309187 0.572457
194.504166 -182.627640 6.430994 0.514870
194.347839 -182.855850 5.682647 0.505882
194.726517 -182.303055 5.101597 0.494575
193.941986 -183.448334 4.245714 0.511604
194.049805 -183.290955 3.616276 0.507805
196.155151 -180.217453 3.151398 0.520409
196.030136 -180.399948 2.379906 0.510414
199.970154 -174.648102 1.506007 0.731502
200.028275 -174.563263 0.511909 0.730953
196.694595 -179.429947 -0.000014 0.544366
192.734985 -185.210388 -0.000010 0.551781
190.529709 -188.429779 -0.000008 0.503395
189.121811 -190.485077 -0.000006 0.559594
188.143280 -191.913589 -0.000005 0.521096
187.422348 -192.966064 -0.000004 0.549630
195.612976 -181.283813 7.573747 0.509270
194.942337 -182.248337 6.552171 0.510430
194.448730 -182.958252 5.677741 0.506050
194.221069 -183.285690 4.939044 0.511864
194.290894 -183.185257 4.293423 0.505882
194.064117 -183.511414 3.602065 0.509255
195.750031 -181.086716 3.104947 0.495674
196.635178 -179.813690 2.393425 0.518502
199.970169 -175.017258 1.510978 0.726116
200.028275 -174.933685 0.526886 0.721569
196.834732 -179.526672 -0.000014 0.551141
192.834885 -185.279327 -0.000010 0.530510
190.607178 -188.483246 -0.000008 0.557610
189.184967 -190.528671 -0.000006 0.524330
188.196487 -191.950317 -0.000005 0.549645
187.468231 -192.997726 -0.000004 0.492943
194.775269 -182.740295 7.154544 0.505653
196.192291 -180.732361 6.975232 0.510323
195.058655 -182.338715 5.833742 0.521279
200.028259 -175.296783 6.403875 0.734844
194.272507 -183.452682 4.267012 0.519585
194.011703 -183.822250 3.578725 0.507118
195.554825 -181.635635 3.077357 0.576303
195.469696 -181.756271 2.356446 0.595758
195.416885 -181.831100 1.645052 0.570230
195.434814 -181.805710 0.932868 0.595636
195.390457 -181.868561 0.225208 0.588266
192.934280 -185.348969 -0.000010 0.540963
190.684265 -188.537247 -0.000008 0.550820
189.247818 -190.572693 -0.000006 0.557610
188.249451 -191.987411 -0.000005 0.537820
187.513885 -193.029694 -0.000004 0.542763
194.987900 -182.690125 7.195646 0.509850
194.965744 -182.721069 6.471665 0.509422
195.243256 -182.333588 5.853966 0.534752
194.188492 -183.806274 4.873164 0.507332
194.020264 -184.041153 4.195022 0.512825
194.983124 -182.696777 3.700091 0.535088
195.571060 -181.875916 3.068199 0.537758
195.583206 -181.858948 2.356153 0.607187
195.565506 -181.883667 1.644344 0.572366
195.619736 -181.807953 0.927694 0.598703
195.529663 -181.933716 0.222948 0.583932
193.033203 -185.419296 -0.000010 0.547082
190.760986 -188.591797 -0.000008 0.519448
189.310364 -190.617157 -0.000006 0.547509
188.302139 -192.024872 -0.000005 0.525948
187.559311 -193.061996 -0.000003 0.532494
195.225006 -182.610199 7.246637 0.501915
194.983032 -182.943130 6.434956 0.511910
194.846527 -183.130920 5.694075 0.503349
195.131088 -182.739410 5.083313 0.513191
195.208527 -182.632874 4.406388 0.506844
194.278793 -183.912018 3.585493 0.510323
194.819275 -183.168411 2.995096 0.501625
194.590942 -183.482574 2.325107 0.510872
199.970169 -176.081711 1.525176 0.726162
200.028275 -176.001785 0.569654 0.732326
197.251099 -179.822678 -0.000014 0.541329
193.131638 -185.490311 -0.000010 0.552697
190.837311 -188.646866 -0.000007 0.530449
189.372589 -190.662064 -0.000006 0.541650
188.354553 -192.062698 -0.000005 0.519203
187.604523 -193.094620 -0.000003 0.528511
195.140549 -182.971069 7.161203 0.505882
196.107315 -181.660309 6.801953 0.504784
194.957184 -183.219666 5.692941 0.511345
194.885056 -183.317474 4.992568 0.513802
199.970154 -176.423004 5.306404 0.734478
194.673630 -183.604111 3.624989 0.507424
194.871429 -183.335938 2.989969 0.502724
194.672348 -183.605850 2.324266 0.505440
199.970169 -176.423004 1.529682 0.721706
200.028244 -176.344254 0.583230 0.734524
197.388489 -179.923279 -0.000014 0.534356
193.229553 -185.562012 -0.000010 0.524300
190.913269 -188.702484 -0.000008 0.540841
189.434509 -190.707397 -0.000006 0.508736
188.406723 -192.100891 -0.000005 0.538582
187.649490 -193.127548 -0.000004 0.552880
195.490906 -182.742996 7.259402 0.545678
194.925934 -183.497894 6.331207 0.506279
194.931244 -183.490814 5.650523 0.505440
194.843048 -183.608643 4.954181 0.506737
195.024780 -183.365829 4.325981 0.505852
194.674057 -183.834442 3.609850 0.512520
196.881744 -180.884567 3.145537 0.503258
197.277283 -180.356064 2.392375 0.507958
200.017273 -176.694916 1.532794 0.727459
200.077545 -176.614395 0.592438 0.732509
197.525177 -180.024841 -0.000014 0.537850
193.326981 -185.634384 -0.000010 0.538338
190.988815 -188.758606 -0.000008 0.537041
189.496109 -190.753159 -0.000006 0.547265
188.458618 -192.139435 -0.000004 0.536721
187.694229 -193.160797 -0.000004 0.480415
195.659882 -182.762848 7.280908 0.505882
195.107910 -183.489746 6.356273 0.513405
195.040100 -183.579071 5.649624 0.505882
194.991852 -183.642578 4.963449 0.502159
196.880173 -181.155838 4.657486 0.504555
195.223831 -183.337097 3.669550 0.521737
194.825134 -183.862137 2.967910 0.524880
194.726395 -183.992188 2.319735 0.517296
200.267548 -176.694916 1.530329 0.732280
200.328705 -176.614395 0.585011 0.726024
197.661148 -180.127350 -0.000014 0.543420
193.423904 -185.707458 -0.000010 0.536675
191.063980 -188.815277 -0.000007 0.547326
189.557373 -190.799347 -0.000006 0.533913
188.510239 -192.178360 -0.000004 0.526650
187.738739 -193.194351 -0.000003 0.557107
200.582535 -176.614395 9.253342 0.721569
194.937012 -183.942291 6.256210 0.518303
195.126831 -183.695908 5.642326 0.538415
195.054459 -183.789856 4.951737 0.512291
195.079681 -183.757126 4.293950 0.512337
195.025650 -183.827255 3.627755 0.504860
195.033295 -183.817322 2.975872 0.506996
200.582535 -176.614395 2.473850 0.721569
200.520493 -176.694916 1.527814 0.729564
200.582535 -176.614395 0.577435 0.718212
197.796402 -180.230804 -0.000014 0.543191
193.520294 -185.781204 -0.000009 0.542611
191.138748 -188.872467 -0.000007 0.547692
189.618332 -190.845978 -0.000005 0.546685
188.561584 -192.217636 -0.000004 0.472938
187.783020 -193.228210 -0.000003 0.532906
196.072723 -182.712646 7.353983 0.510292
195.464645 -183.490646 6.403139 0.506584
195.966568 -182.848465 5.857820 0.505882
195.117615 -183.934647 4.940513 0.515038
194.852646 -184.273651 4.230993 0.507378
195.010071 -184.072235 3.611101 0.513069
194.708679 -184.457840 2.941235 0.512566
197.871689 -180.411011 2.397570 0.505882
200.776169 -176.694916 1.525249 0.733333
200.839111 -176.614395 0.569708 0.740353
197.930939 -180.335190 -0.000014 0.532311
193.616196 -185.855606 -0.000010 0.544503
191.213120 -188.930176 -0.000007 0.545037
189.678955 -190.893021 -0.000005 0.540597
188.612656 -192.257263 -0.000005 0.537865
187.827057 -193.262390 -0.000003 0.548623
196.394775 -182.546646 7.436556 0.507561
195.649460 -183.486633 6.428514 0.522759
195.225052 -184.021896 5.606596 0.517647
196.145859 -182.860580 5.160046 0.514794
196.195084 -182.798508 4.459862 0.508232
195.494507 -183.682053 3.660809 0.505959
194.915787 -184.411926 2.949300 0.504784
200.986053 -176.756210 2.476088 0.264469
201.034653 -176.694916 1.522632 0.732326
201.098511 -176.614395 0.561825 0.720928
198.064743 -180.440521 -0.000013 0.538750
193.711563 -185.930679 -0.000010 0.524926
191.287079 -188.988388 -0.000007 0.551827
189.739258 -190.940475 -0.000005 0.563073
188.663452 -192.297256 -0.000004 0.546578
187.870865 -193.296860 -0.000003 0.525704
201.360794 -176.614395 9.373934 0.719081
196.531921 -182.617905 6.694061 0.505882
195.252991 -184.207947 5.583315 0.517647
196.152390 -183.089752 5.134089 0.514061
195.367615 -184.065430 4.286570 0.510857
195.156937 -184.327362 3.602192 0.469001
195.124573 -184.367599 2.957403 0.505379
195.281967 -184.171906 2.323016 0.505608
201.296021 -176.694916 1.519964 0.733288
201.360794 -176.614395 0.553784 0.718990
198.197800 -180.546783 -0.000014 0.543481
193.806396 -186.006409 -0.000010 0.536797
191.360626 -189.047134 -0.000007 0.528817
189.799210 -190.988373 -0.000006 0.542458
188.713974 -192.337601 -0.000004 0.532586
187.914413 -193.331650 -0.000003 0.548653
196.522629 -182.869293 7.393649 0.507027
196.394333 -183.026535 6.606780 0.515297
195.920486 -183.607315 5.744688 0.509560
195.928848 -183.597046 5.054744 0.513390
195.257874 -184.419418 4.246980 0.541543
195.193314 -184.498550 3.593162 0.506752
197.113037 -182.145660 3.103713 0.505882
197.353333 -181.851166 2.373861 0.525383
201.560333 -176.694916 1.517241 0.743847
201.626022 -176.614395 0.545582 0.721569
198.330109 -180.653976 -0.000013 0.536034
193.900711 -186.082825 -0.000009 0.551568
191.433762 -189.106384 -0.000007 0.550271
189.858841 -191.036667 -0.000005 0.549783
188.764206 -192.378296 -0.000004 0.553674
187.957733 -193.366730 -0.000003 0.561685
196.752563 -182.827255 7.438354 0.505882
196.913330 -182.632996 6.743615 0.526055
196.917450 -182.628006 5.997533 0.522881
195.782043 -183.999954 4.994742 0.502052
196.295807 -183.379150 4.415250 0.512856
195.599380 -184.220657 3.631905 0.511650
195.242279 -184.652145 2.950228 0.492821
197.428040 -182.011047 2.372616 0.508659
201.827682 -176.694916 1.514463 0.728054
201.894318 -176.614395 0.537214 0.728878
198.461685 -180.762100 -0.000014 0.531975
193.994476 -186.159882 -0.000010 0.540017
191.506485 -189.166153 -0.000007 0.515846
189.918121 -191.085388 -0.000006 0.538338
188.814148 -192.419342 -0.000004 0.546654
188.000793 -193.402130 -0.000003 0.540642
202.165726 -176.614395 9.501951 0.716457
197.017517 -182.747345 6.739050 0.509026
196.429535 -183.447815 5.826102 0.504601
196.176743 -183.748962 5.060827 0.505882
196.331512 -183.564575 4.401493 0.533333
195.258179 -184.843216 3.574780 0.507713
195.259750 -184.841339 2.943638 0.494667
197.555817 -182.106079 2.372760 0.506569
202.098129 -176.694916 1.511630 0.732448
202.165710 -176.614395 0.528678 0.722026
198.592484 -180.871124 -0.000013 0.535973
194.087708 -186.237579 -0.000009 0.537850
191.578796 -189.226410 -0.000007 0.527321
189.977066 -191.134521 -0.000005 0.554513
188.863815 -192.460724 -0.000004 0.506355
188.043610 -193.437820 -0.000003 0.529183
202.440323 -176.614395 9.546359 0.726665
197.388000 -182.548508 6.823505 0.505882
202.319565 -176.756226 7.447855 0.137255
196.246277 -183.889496 5.051569 0.526802
196.362625 -183.752853 4.387263 0.506950
195.658066 -184.580383 3.612407 0.505074
197.027176 -182.972305 3.069815 0.505470
197.534500 -182.376434 2.369156 0.509544
202.371765 -176.694916 1.508739 0.712062
202.440308 -176.614395 0.519968 0.722026
198.722534 -180.981064 -0.000013 0.542962
194.180389 -186.315948 -0.000009 0.550942
191.650681 -189.287186 -0.000007 0.539712
190.035675 -191.184067 -0.000005 0.551019
188.913177 -192.502472 -0.000004 0.520012
188.086182 -193.473801 -0.000003 0.540261
202.718216 -176.614395 9.591669 0.733242
202.648682 -176.694901 8.522847 0.735821
202.595734 -176.756226 7.480564 0.109606
196.312775 -184.032242 5.041912 0.506508
196.394104 -183.938049 4.373446 0.534234
197.282242 -182.909546 3.803098 0.514000
197.120331 -183.097046 3.068142 0.506050
202.595734 -176.756226 2.492885 0.528267
202.648682 -176.694916 1.505789 0.727993
202.718201 -176.614395 0.511082 0.752712
198.851807 -181.091904 -0.000013 0.537514
194.272537 -186.394943 -0.000010 0.542016
191.722137 -189.348450 -0.000007 0.524392
190.093918 -191.234009 -0.000005 0.535210
188.962265 -192.544540 -0.000004 0.557946
188.128494 -193.510086 -0.000003 0.534524
202.999466 -176.614395 9.637899 0.721889
202.928955 -176.694901 8.562570 0.733333
202.875259 -176.756210 7.513943 0.094118
196.380493 -184.172211 5.032837 0.517906
197.149521 -183.294113 4.486374 0.512642
196.730194 -183.772903 3.719977 0.516091
196.139160 -184.447769 2.986439 0.505394
197.479843 -182.916931 2.361877 0.508553
202.928955 -176.694916 1.502779 0.732921
202.999451 -176.614395 0.502015 0.733333
198.980286 -181.203659 -0.000013 0.541344
194.364120 -186.474594 -0.000010 0.541268
191.793167 -189.410217 -0.000007 0.521660
190.151825 -191.284363 -0.000005 0.543389
189.011032 -192.586975 -0.000004 0.539925
188.170563 -193.546661 -0.000003 0.516167
203.284180 -176.614395 9.685072 0.733333
203.212677 -176.694901 8.603102 0.720653
203.158218 -176.756210 7.547998 0.172549
197.635849 -182.973770 5.289339 0.521859
197.243561 -183.415436 4.483061 0.516320
197.411057 -183.226868 3.790483 0.505882
198.373993 -182.142700 3.143990 0.508247
198.007416 -182.555420 2.372025 0.506889
203.212677 -176.694901 1.499708 0.752941
203.284180 -176.614410 0.492763 0.721111
199.108002 -181.316299 -0.000013 0.544060
194.455154 -186.554871 -0.000009 0.537408
191.863754 -189.472488 -0.000007 0.528206
190.209381 -191.335129 -0.000005 0.525399
189.059525 -192.629730 -0.000004 0.524865
188.212372 -193.583542 -0.000003 0.571572
203.572464 -176.614380 9.733214 0.731060
203.499924 -176.694901 8.644464 0.701442
203.444717 -176.756195 7.582752 0.131594
203.561081 -176.627014 6.577015 0.728374
203.572449 -176.614395 5.551619 0.741772
197.228363 -183.657455 3.754181 0.523629
196.437225 -184.535767 2.992931 0.519295
203.444702 -176.756210 2.502075 0.567864
203.499924 -176.694901 1.496575 0.737224
203.572449 -176.614410 0.483321 0.721981
199.234924 -181.429810 -0.000012 0.549706
194.545609 -186.635788 -0.000009 0.543877
191.933914 -189.535248 -0.000007 0.539437
190.266571 -191.386292 -0.000005 0.498299
189.107712 -192.672836 -0.000004 0.525154
188.253906 -193.620697 -0.000003 0.510826
203.864380 -176.614395 9.782339 0.752407
203.790833 -176.694901 8.686676 0.698039
203.734833 -176.756210 7.618219 0.141436
203.790833 -176.694901 6.592453 0.727916
197.433151 -183.654724 4.477204 0.507698
197.316772 -183.782135 3.751479 0.503166
203.790833 -176.694901 3.520957 0.709804
203.734833 -176.756210 2.505265 0.416297
203.790833 -176.694901 1.493376 0.709804
203.864365 -176.614395 0.473686 0.764431
199.361053 -181.544220 -0.000013 0.550988
194.635513 -186.717331 -0.000009 0.529091
192.003632 -189.598480 -0.000006 0.521599
190.323410 -191.437836 -0.000005 0.491493
189.155594 -192.716263 -0.000004 0.554452
188.295197 -193.658157 -0.000002 0.509316
204.160034 -176.614395 9.832479 0.733333
204.085449 -176.694901 8.729755 0.715923
204.028671 -176.756195 7.654416 0.174472
204.085449 -176.694901 6.622041 0.707500
197.525375 -183.776367 4.474088 0.514839
197.368286 -183.945953 3.744453 0.512886
204.085449 -176.694901 3.530756 0.709804
204.160034 -176.614410 2.511683 0.723125
204.085449 -176.694901 1.490112 0.712886
204.160034 -176.614395 0.463852 0.740078
199.486389 -181.659515 -0.000013 0.536370
194.724838 -186.799500 -0.000009 0.535531
192.072906 -189.662216 -0.000006 0.505440
190.379883 -191.489792 -0.000005 0.586557
189.203171 -192.760040 -0.000004 0.520439
188.336227 -193.695892 -0.000003 0.558663
204.459549 -176.614395 9.883659 0.738659
204.326340 -176.756195 8.755569 0.094118
204.459549 -176.614395 7.726765 0.752941
204.383911 -176.694901 6.652240 0.721386
197.617767 -183.897324 4.471164 0.503960
197.237549 -184.302048 3.715791 0.507622
204.383926 -176.694901 3.540758 0.709804
204.459549 -176.614395 2.515027 0.721202
204.383926 -176.694901 1.486781 0.709804
204.459549 -176.614395 0.453815 0.733333
199.610901 -181.775665 -0.000013 0.521065
194.813583 -186.882309 -0.000009 0.560372
192.141739 -189.726410 -0.000007 0.545235
