# This PCD file was generated using the MATLABÂ® pcwrite function
# from Computer Vision ToolboxÂ®.
# .PCD v.7 - Point Cloud Data file format
VERSION .7
FIELDS x y z intensity
SIZE 4 4 4 4
TYPE F F F F
COUNT 1 1 1 1
WIDTH 1197
HEIGHT 1
VIEWPOINT 0 0 0 1 0 0 0
POINTS 1197
DATA ascii
116.895683 -89.193901 0.000013 0.522179
117.742233 -86.850929 0.000010 0.553185
118.330620 -85.222473 0.000009 0.566857
118.764122 -84.022697 0.000007 0.494575
115.814758 -91.849670 6.095027 0.678431
115.814758 -91.849670 5.530888 0.678431
115.814758 -91.849678 4.974669 0.678431
116.196693 -90.815247 4.261469 0.693263
115.996658 -91.357025 3.820302 0.711406
115.996658 -91.357018 3.297420 0.719005
115.315559 -93.201675 2.873941 0.439460
115.315559 -93.201668 2.291106 0.432914
115.315559 -93.201668 1.708894 0.294118
115.315559 -93.201668 1.126059 0.272114
115.315559 -93.201675 0.541345 0.258824
115.455658 -92.822235 0.000016 0.539315
116.807266 -89.161606 0.000013 0.551278
117.670158 -86.824600 0.000010 0.529549
118.269905 -85.200287 0.000009 0.570321
118.711761 -84.003571 0.000008 0.565164
115.815102 -91.525345 6.018886 0.678431
115.815102 -91.525352 5.465235 0.678431
115.815102 -91.525352 4.919358 0.678431
116.147957 -90.642883 4.240042 0.698131
115.996658 -91.044006 3.786565 0.737041
115.913803 -91.263680 3.292625 0.618372
115.315567 -92.849747 2.857743 0.507378
115.315567 -92.849747 2.285710 0.382208
115.315567 -92.849747 1.714290 0.223529
115.315567 -92.849747 1.142257 0.431052
115.315567 -92.849754 0.568380 0.627771
115.341949 -92.779800 0.000016 0.533455
116.719086 -89.128693 0.000013 0.550423
117.598267 -86.797775 0.000010 0.531121
118.209335 -85.177689 0.000009 0.543709
118.659538 -83.984085 0.000007 0.540291
115.815437 -91.212845 5.945711 0.678431
115.815437 -91.212845 5.402141 0.678431
115.815437 -91.212845 4.866202 0.678431
116.053780 -90.594070 4.238252 0.678111
115.996658 -90.742371 3.754140 0.724376
115.810974 -91.224434 3.292622 0.617197
115.315567 -92.510612 2.842175 0.553185
115.315567 -92.510612 2.280525 0.413443
115.315567 -92.510612 1.719476 0.223529
115.315567 -92.510612 1.157825 0.566201
115.315567 -92.510612 0.594365 0.691936
115.315567 -92.510612 0.027872 0.554864
116.631126 -89.095169 0.000013 0.546349
117.526566 -86.770439 0.000010 0.532052
118.148926 -85.154663 0.000009 0.523278
118.607452 -83.964226 0.000008 0.509209
115.815765 -90.911507 5.875340 0.678431
115.815765 -90.911514 5.341464 0.678431
115.815765 -90.911514 4.815084 0.678431
115.955612 -90.555862 4.238251 0.677714
115.950096 -90.569893 3.737592 0.774960
115.708435 -91.184471 3.292618 0.607492
115.315575 -92.183563 2.827202 0.577707
115.315575 -92.183563 2.275537 0.379736
115.315575 -92.183563 1.724463 0.257176
115.315575 -92.183563 1.172798 0.610483
115.315575 -92.183563 0.619355 0.657191
115.315575 -92.183563 0.062934 0.631617
116.543404 -89.061028 0.000013 0.518563
117.455048 -86.742607 0.000010 0.568246
118.088676 -85.131210 0.000009 0.502785
118.555511 -83.944008 0.000007 0.541543
115.721588 -90.856178 5.871167 0.678431
115.721588 -90.856178 5.337866 0.678431
115.721588 -90.856178 4.812054 0.678431
115.857651 -90.517120 4.238276 0.687495
115.836472 -90.569893 3.742418 0.690990
115.606155 -91.143829 3.292617 0.618173
115.315575 -91.867920 2.812790 0.644266
115.315575 -91.867920 2.270737 0.425986
115.315575 -91.867920 1.729263 0.251270
115.315575 -91.867920 1.187209 0.611765
115.315575 -91.867920 0.643409 0.660594
115.315575 -91.867920 0.096681 0.665782
116.455925 -89.026276 0.000013 0.553338
117.383736 -86.714279 0.000010 0.540002
118.028595 -85.107346 0.000009 0.528771
118.503700 -83.923431 0.000007 0.504311
115.607323 -90.850517 5.880606 0.678431
115.607323 -90.850517 5.346006 0.678431
115.607323 -90.850525 4.818911 0.678431
115.760101 -90.477364 4.238246 0.678309
115.722221 -90.569893 3.747355 0.772519
115.504166 -91.102470 3.292615 0.605982
115.315582 -91.563072 2.798911 0.667094
115.315582 -91.563072 2.266114 0.523354
115.315582 -91.563072 1.733886 0.285283
115.315582 -91.563072 1.201088 0.594491
115.315582 -91.563080 0.666574 0.668086
115.315582 -91.563080 0.129182 0.654078
116.368698 -88.990921 0.000012 0.529793
117.312622 -86.685448 0.000010 0.534844
117.968689 -85.083061 0.000009 0.547799
118.452042 -83.902496 0.000007 0.531243
115.492485 -90.844833 5.890282 0.678431
115.492485 -90.844833 5.354348 0.678431
115.492485 -90.844833 4.825939 0.678431
115.662773 -90.437073 4.238240 0.658198
115.607300 -90.569893 3.752407 0.697414
115.402466 -91.060410 3.292615 0.601129
115.307686 -91.287361 2.786542 0.664057
115.307686 -91.287361 2.261994 0.518746
115.307686 -91.287361 1.738007 0.311452
115.307686 -91.287361 1.213457 0.606104
115.307686 -91.287361 0.687218 0.633371
115.307686 -91.287361 0.158147 0.671077
116.281708 -88.954948 0.000012 0.575067
117.241707 -86.656128 0.000010 0.544686
117.908943 -85.058357 0.000009 0.551553
118.400536 -83.881187 0.000007 0.543313
115.377075 -90.839119 5.900196 0.678431
115.377075 -90.839119 5.362896 0.678431
115.377075 -90.839119 4.833140 0.678431
115.565804 -90.395920 4.238204 0.720790
115.491722 -90.569893 3.757574 0.759930
115.301056 -91.017639 3.292614 0.601663
115.186203 -91.287361 2.788861 0.645548
115.186203 -91.287361 2.262766 0.550515
115.186203 -91.287361 1.737234 0.311025
115.186203 -91.287361 1.211138 0.636759
115.186203 -91.287361 0.683348 0.669062
115.186203 -91.287361 0.152717 0.664546
116.194984 -88.918373 0.000013 0.561929
117.171005 -86.626312 0.000010 0.568750
117.849380 -85.033234 0.000009 0.544686
118.349174 -83.859535 0.000007 0.568505
115.261070 -90.833374 5.910352 0.678431
115.261070 -90.833374 5.371654 0.678431
115.261070 -90.833374 4.840517 0.678431
115.452606 -90.392143 4.244322 0.698039
115.375443 -90.569893 3.762857 0.729976
115.199928 -90.974213 3.292618 0.589715
115.063995 -91.287354 2.791233 0.604105
115.063995 -91.287354 2.263556 0.518257
115.063995 -91.287354 1.736444 0.310170
115.063995 -91.287354 1.208767 0.551644
115.063995 -91.287354 0.679390 0.650553
115.063995 -91.287361 0.147164 0.664332
116.108505 -88.881195 0.000013 0.527993
117.100510 -86.596001 0.000010 0.525200
117.789986 -85.007706 0.000009 0.560174
118.297966 -83.837509 0.000007 0.573693
115.144447 -90.827599 5.920752 0.678431
115.144447 -90.827599 5.380621 0.678431
115.144455 -90.827591 4.848072 0.678431
115.339729 -90.386215 4.250238 0.666667
115.258469 -90.569893 3.768259 0.768658
115.099136 -90.930023 3.292617 0.589837
114.941040 -91.287354 2.793657 0.582605
114.941040 -91.287354 2.264363 0.580026
114.941040 -91.287354 1.735636 0.309743
114.941040 -91.287354 1.206342 0.580530
114.941040 -91.287354 0.675343 0.657328
114.941040 -91.287354 0.141486 0.697795
116.022293 -88.843414 0.000013 0.549889
117.030228 -86.565201 0.000010 0.512871
117.730774 -84.981750 0.000008 0.531777
118.246910 -83.815140 0.000007 0.564965
115.027206 -90.821793 5.931401 0.678431
115.027199 -90.821793 5.389802 0.678431
115.027206 -90.821793 4.855807 0.678431
115.226334 -90.380058 4.256263 0.656886
115.140762 -90.569885 3.773780 0.740444
114.998642 -90.885139 3.292617 0.601617
114.817329 -91.287354 2.796135 0.630060
114.817329 -91.287354 2.265189 0.549447
114.817329 -91.287354 1.734811 0.308888
114.817329 -91.287354 1.203864 0.609384
114.817329 -91.287354 0.671207 0.631830
114.817329 -91.287354 0.135682 0.713390
115.936348 -88.805023 0.000013 0.542321
116.960159 -86.533905 0.000010 0.541070
117.671745 -84.955391 0.000008 0.541619
118.196014 -83.792404 0.000007 0.532662
114.909309 -90.815956 5.942300 0.678431
114.909309 -90.815948 5.399199 0.678431
114.909309 -90.815948 4.863725 0.678431
115.112198 -90.374146 4.262476 0.709804
115.022308 -90.569885 3.779424 0.738598
114.898476 -90.839554 3.292616 0.585489
114.692833 -91.287354 2.798669 0.628534
114.692833 -91.287354 2.266032 0.482353
114.692833 -91.287354 1.733967 0.308034
114.692833 -91.287354 1.201331 0.611765
114.692833 -91.287354 0.666979 0.657786
114.692833 -91.287354 0.129751 0.670344
115.850677 -88.766045 0.000013 0.538308
116.890312 -86.502129 0.000010 0.553994
117.612907 -84.928619 0.000009 0.554345
118.145279 -83.769325 0.000008 0.520897
114.790756 -90.810081 5.953452 0.678431
114.790756 -90.810081 5.408816 0.678431
114.790756 -90.810081 4.871826 0.678431
114.997818 -90.367371 4.268700 0.662531
114.903099 -90.569893 3.785191 0.711681
114.798599 -90.793320 3.292620 0.619562
114.567535 -91.287354 2.801257 0.617838
114.567535 -91.287354 2.266895 0.517311
114.567535 -91.287354 1.733105 0.330510
114.567535 -91.287354 1.198743 0.560372
114.567535 -91.287354 0.662659 0.623529
114.567535 -91.287354 0.123690 0.693599
115.765274 -88.726463 0.000013 0.546746
116.820694 -86.469864 0.000010 0.522744
117.554245 -84.901436 0.000008 0.484520
118.094704 -83.745888 0.000007 0.548302
114.671532 -90.804176 5.964862 0.678431
114.671532 -90.804176 5.418653 0.678431
114.671532 -90.804176 4.880114 0.678431
114.879623 -90.367226 4.276163 0.680919
114.783104 -90.569893 3.791083 0.735042
114.699074 -90.746338 3.292620 0.606882
114.441422 -91.287354 2.803901 0.664286
114.441422 -91.287354 2.267776 0.462074
114.441422 -91.287354 1.732224 0.315648
114.441422 -91.287354 1.196099 0.611765
114.441422 -91.287354 0.658246 0.601587
114.441422 -91.287354 0.117498 0.626169
115.680145 -88.686295 0.000012 0.540093
116.751297 -86.437111 0.000010 0.516854
117.495789 -84.873840 0.000009 0.552117
118.044296 -83.722092 0.000007 0.535210
114.551598 -90.798241 5.976532 0.678431
114.551605 -90.798233 5.428716 0.678431
114.551605 -90.798233 4.888592 0.678431
114.760468 -90.367432 4.283846 0.667033
114.662308 -90.569893 3.797101 0.709804
114.599876 -90.698669 3.292619 0.604486
114.314461 -91.287354 2.806602 0.668360
114.314461 -91.287354 2.268676 0.578485
114.314461 -91.287354 1.731325 0.314702
114.314461 -91.287354 1.193398 0.611765
114.314461 -91.287354 0.653737 0.612039
114.314461 -91.287354 0.111172 0.612039
115.595306 -88.645523 0.000012 0.531868
116.682129 -86.403870 0.000010 0.532799
117.437515 -84.845840 0.000009 0.554421
117.994049 -83.697952 0.000007 0.543435
114.443687 -90.766472 5.981263 0.160784
114.443680 -90.766479 5.432796 0.160784
114.443687 -90.766479 4.892028 0.160784
114.640694 -90.367249 4.291628 0.682887
114.540695 -90.569893 3.803249 0.709804
114.500992 -90.650345 3.292623 0.635187
114.186638 -91.287354 2.809362 0.643198
114.186638 -91.287354 2.269594 0.439216
114.186638 -91.287354 1.730406 0.223529
114.186638 -91.287354 1.190638 0.567895
114.186638 -91.287354 0.649132 0.647059
114.186638 -91.287354 0.104711 0.608820
115.510750 -88.604164 0.000012 0.539315
116.613197 -86.370155 0.000010 0.539101
117.379440 -84.817436 0.000008 0.546014
117.943977 -83.673462 0.000007 0.585809
114.312447 -90.780563 5.999072 0.205798
114.312439 -90.780563 5.448153 0.205676
114.312439 -90.780563 4.904966 0.205676
114.519928 -90.367401 4.299632 0.709117
114.418243 -90.569893 3.809528 0.678431
114.402473 -90.601288 3.292622 0.615656
114.098114 -91.207344 2.807781 0.674708
114.098114 -91.207344 2.269068 0.685328
114.098114 -91.207344 1.730932 0.666667
114.098114 -91.207344 1.192219 0.709651
114.098114 -91.207352 0.651769 0.709209
114.098114 -91.207344 0.108411 0.679164
115.426491 -88.562210 0.000012 0.549462
116.544510 -86.335960 0.000010 0.550347
117.321571 -84.788620 0.000008 0.552560
117.894081 -83.648621 0.000007 0.534951
114.180092 -90.794617 6.017195 0.678431
114.180099 -90.794617 5.463777 0.678431
114.180099 -90.794617 4.918129 0.678431
114.398491 -90.367203 4.307745 0.678965
114.294922 -90.569893 3.815938 0.721492
114.304298 -90.551552 3.292621 0.620127
113.802444 -91.533714 2.828649 0.678431
113.802444 -91.533714 2.276019 0.678431
113.802444 -91.533714 1.723981 0.678431
113.802444 -91.533707 1.171352 0.678431
113.802444 -91.533707 0.616941 0.678431
113.802444 -91.533714 0.059547 0.678431
115.342522 -88.519684 0.000012 0.534813
116.476051 -86.301277 0.000010 0.511757
117.263901 -84.759415 0.000008 0.507027
117.844353 -83.623428 0.000007 0.540002
114.053909 -90.794617 6.031675 0.678431
114.053909 -90.794617 5.476263 0.678431
114.053917 -90.794617 4.928647 0.678431
114.276031 -90.367302 4.316081 0.682490
114.170731 -90.569893 3.822484 0.717891
114.170723 -90.569893 3.298976 0.698421
113.669731 -91.533714 2.831635 0.678431
113.669724 -91.533714 2.277014 0.678431
113.669724 -91.533714 1.722986 0.678431
113.669731 -91.533707 1.168365 0.678431
113.669724 -91.533714 0.611956 0.678431
113.669731 -91.533714 0.052552 0.678431
115.258850 -88.476555 0.000012 0.555108
116.407845 -86.266129 0.000010 0.526955
117.206436 -84.729790 0.000008 0.528862
117.794807 -83.597893 0.000007 0.582177
113.926811 -90.794617 6.046457 0.678431
113.926811 -90.794617 5.489009 0.678431
113.926811 -90.794617 4.939387 0.678431
114.152695 -90.367386 4.324587 0.667063
114.045624 -90.569893 3.829166 0.709804
114.045624 -90.569893 3.303738 0.714000
113.536049 -91.533714 2.834684 0.678431
113.536049 -91.533714 2.278029 0.678431
113.536049 -91.533714 1.721971 0.678431
113.536049 -91.533714 1.165315 0.678431
113.536049 -91.533707 0.606867 0.678431
113.536049 -91.533707 0.045412 0.678431
115.175484 -88.432854 0.000012 0.548806
116.339882 -86.230499 0.000010 0.565362
117.149178 -84.699776 0.000009 0.572488
117.745438 -83.572006 0.000007 0.535714
113.798767 -90.794617 6.061548 0.678431
113.798759 -90.794617 5.502020 0.678431
113.798767 -90.794617 4.950348 0.678431
114.028450 -90.367432 4.333263 0.698985
113.919594 -90.569893 3.835988 0.723964
113.919594 -90.569893 3.308600 0.703960
113.401375 -91.533714 2.837797 0.678431
113.401375 -91.533714 2.279066 0.678431
113.401375 -91.533714 1.720934 0.678431
113.401375 -91.533707 1.162203 0.678431
113.401375 -91.533707 0.601671 0.678431
113.401375 -91.533707 0.038123 0.678431
115.092422 -88.388565 0.000012 0.555840
116.272171 -86.194397 0.000010 0.512978
117.092133 -84.669365 0.000008 0.533471
117.696251 -83.545784 0.000007 0.533074
113.669754 -90.794617 6.076950 0.678431
113.669754 -90.794617 5.515301 0.678431
113.669754 -90.794617 4.961536 0.678431
113.903427 -90.367188 4.342072 0.688823
113.792610 -90.569893 3.842950 0.741924
113.792610 -90.569893 3.313563 0.754101
113.265686 -91.533707 2.840974 0.678431
113.265686 -91.533707 2.280124 0.678431
113.265686 -91.533707 1.719875 0.678431
113.265686 -91.533707 1.159026 0.678431
113.265686 -91.533707 0.596368 0.678431
113.265686 -91.533707 0.030683 0.678431
115.009682 -88.343704 0.000013 0.531380
116.204712 -86.157822 0.000010 0.529931
117.035301 -84.638550 0.000009 0.516732
117.647247 -83.519211 0.000007 0.555749
113.539749 -90.794617 6.092671 0.678431
113.539749 -90.794617 5.528855 0.678431
113.539757 -90.794617 4.972956 0.678431
113.777313 -90.367210 4.351106 0.675395
113.664658 -90.569893 3.850056 0.725414
113.664658 -90.569885 3.318628 0.754940
113.128960 -91.533714 2.844217 0.678431
113.128960 -91.533714 2.281204 0.678431
113.128960 -91.533714 1.718795 0.678431
113.128960 -91.533707 1.155783 0.678431
113.128960 -91.533707 0.590956 0.678431
113.128960 -91.533707 0.023090 0.678431
114.927246 -88.298264 0.000012 0.573190
116.137505 -86.120773 0.000010 0.535073
116.978683 -84.607338 0.000008 0.551934
117.598427 -83.492310 0.000007 0.567575
113.408737 -90.794617 6.108714 0.678431
113.408737 -90.794617 5.542688 0.678431
113.408745 -90.794617 4.984610 0.678431
113.650215 -90.367218 4.360323 0.666667
113.535706 -90.569893 3.857308 0.731914
113.535706 -90.569893 3.323797 0.727199
112.991165 -91.533707 2.847527 0.678431
112.991165 -91.533707 2.282307 0.678431
112.991165 -91.533707 1.717693 0.678431
112.991165 -91.533707 1.152473 0.678431
112.991165 -91.533707 0.585433 0.678431
112.991173 -91.533707 0.015341 0.678431
114.845131 -88.252243 0.000012 0.541329
116.070564 -86.083260 0.000010 0.532113
116.922295 -84.575737 0.000009 0.503044
117.549805 -83.465057 0.000007 0.526284
113.276688 -90.794617 6.125084 0.678431
113.276688 -90.794617 5.556804 0.678431
113.276688 -90.794617 4.996501 0.678431
113.522125 -90.367203 4.369725 0.647059
113.405739 -90.569893 3.864708 0.724392
113.405739 -90.569885 3.329072 0.721325
112.973747 -91.322189 2.838921 0.690181
112.973747 -91.322189 2.279441 0.709804
112.973740 -91.322189 1.720559 0.652186
112.973747 -91.322189 1.161079 0.666667
112.973740 -91.322197 0.599796 0.695460
112.973747 -91.322189 0.035492 0.709804
114.763344 -88.205658 0.000012 0.551446
116.003891 -86.045288 0.000010 0.530587
116.866119 -84.543739 0.000009 0.529610
117.501366 -83.437469 0.000007 0.555566
113.143578 -90.794617 6.141788 0.678431
113.143578 -90.794617 5.571206 0.678431
113.143578 -90.794617 5.008635 0.678431
113.392891 -90.367386 4.379353 0.647059
113.274719 -90.569893 3.872260 0.661250
113.274719 -90.569893 3.334453 0.703304
112.902725 -91.207352 2.835786 0.674662
112.902725 -91.207359 2.278396 0.678065
112.902725 -91.207359 1.721604 0.648814
112.902725 -91.207352 1.164214 0.666667
112.902725 -91.207352 0.605028 0.690883
112.902725 -91.207352 0.042833 0.698772
114.681877 -88.158501 0.000012 0.517159
115.937477 -86.006836 0.000010 0.551415
116.810165 -84.511353 0.000008 0.554025
117.453125 -83.409538 0.000007 0.542596
113.026077 -90.766457 6.150632 0.160784
113.026077 -90.766464 5.578834 0.160784
113.026077 -90.766464 5.015060 0.160784
113.262733 -90.367332 4.389136 0.703227
113.142632 -90.569893 3.879965 0.679149
113.142632 -90.569893 3.339945 0.708522
112.717224 -91.287338 2.843794 0.323095
112.717224 -91.287338 2.281064 0.611765
112.717224 -91.287338 1.718936 0.647059
112.717224 -91.287338 1.156206 0.465309
112.717224 -91.287338 0.591663 0.272053
112.717224 -91.287338 0.024081 0.392187
114.600746 -88.110779 0.000012 0.545968
115.871338 -85.967934 0.000010 0.549447
116.754448 -84.478577 0.000008 0.537911
117.405083 -83.381279 0.000007 0.521813
112.874062 -90.794617 6.176222 0.678431
112.874062 -90.794617 5.600896 0.678431
112.874062 -90.794617 5.033648 0.678431
113.131500 -90.367279 4.399116 0.681605
113.009445 -90.569885 3.887825 0.678431
113.009438 -90.569893 3.345548 0.714488
112.577232 -91.287346 2.847322 0.332479
112.577232 -91.287346 2.282239 0.507378
112.577232 -91.287346 1.717761 0.557595
112.577232 -91.287346 1.152678 0.466865
112.577232 -91.287346 0.585774 0.348379
112.577232 -91.287338 0.015819 0.227909
114.519951 -88.062485 0.000013 0.526375
115.805473 -85.928566 0.000010 0.533089
116.698952 -84.445404 0.000008 0.569345
117.357231 -83.352684 0.000007 0.528313
112.737602 -90.794617 6.193962 0.678431
112.737602 -90.794617 5.616192 0.678431
112.737610 -90.794609 5.046535 0.678431
112.999062 -90.367378 4.409324 0.687984
112.875130 -90.569893 3.895845 0.709804
112.875130 -90.569893 3.351264 0.783581
112.436066 -91.287346 2.850921 0.329900
112.436066 -91.287346 2.283438 0.581003
112.436066 -91.287346 1.716562 0.613016
112.436066 -91.287346 1.149078 0.491585
112.436066 -91.287346 0.579766 0.348867
112.436066 -91.287346 0.007390 0.205020
114.439491 -88.013634 0.000012 0.547433
115.739876 -85.888741 0.000010 0.550652
116.643700 -84.411858 0.000008 0.542214
117.309586 -83.323753 0.000007 0.574548
112.599968 -90.794617 6.212060 0.678431
112.599968 -90.794617 5.631796 0.678431
112.599968 -90.794609 5.059680 0.678431
112.865593 -90.367302 4.419708 0.664042
112.739662 -90.569885 3.904026 0.693874
112.739662 -90.569893 3.357095 0.720974
112.293678 -91.287354 2.854594 0.201801
112.293678 -91.287346 2.284661 0.604425
112.293678 -91.287346 1.715339 0.611765
112.293678 -91.287354 1.145406 0.590295
112.293678 -91.287346 0.573637 0.426383
112.293686 -91.287346 -0.001209 0.223529
114.359375 -87.964226 0.000012 0.534447
115.674561 -85.848457 0.000010 0.522683
116.588669 -84.377914 0.000008 0.552331
117.262146 -83.294487 0.000007 0.519524
112.461136 -90.794617 6.230523 0.678431
112.461136 -90.794617 5.647716 0.678431
112.461136 -90.794617 5.073092 0.678431
112.730881 -90.367363 4.430324 0.704234
112.603012 -90.569885 3.912371 0.709804
112.603012 -90.569893 3.363043 0.715404
112.150055 -91.287346 2.858340 0.198596
112.150055 -91.287346 2.285908 0.603922
112.150055 -91.287346 1.714091 0.649760
112.150055 -91.287346 1.141660 0.560296
112.150055 -91.287354 0.567385 0.416678
112.196442 -91.213875 0.000015 0.548486
114.279610 -87.914253 0.000012 0.514809
115.609535 -85.807716 0.000010 0.529122
116.533890 -84.343597 0.000008 0.549691
117.214905 -83.264900 0.000007 0.504295
112.321075 -90.794617 6.249354 0.678431
112.321083 -90.794609 5.663953 0.678431
112.321083 -90.794609 5.086772 0.678431
112.595055 -90.367287 4.441130 0.673381
112.465157 -90.569893 3.920884 0.709804
112.465157 -90.569893 3.369111 0.708156
112.005165 -91.287354 2.862161 0.223926
112.005165 -91.287354 2.287182 0.604425
112.005165 -91.287354 1.712818 0.647059
112.005165 -91.287346 1.137839 0.558923
112.005165 -91.287354 0.561007 0.487572
112.094040 -91.148727 0.000015 0.542672
114.200195 -87.863724 0.000012 0.536767
115.544792 -85.766525 0.000010 0.535866
116.479340 -84.308899 0.000008 0.485924
117.167877 -83.234978 0.000007 0.583352
112.179764 -90.794609 6.268564 0.678431
112.179764 -90.794609 5.680516 0.678431
112.179764 -90.794609 5.100725 0.678431
112.184593 -90.787186 4.526489 0.254078
112.326065 -90.569885 3.929568 0.733639
112.326065 -90.569893 3.375300 0.725292
111.858963 -91.287354 2.866059 0.224475
111.858963 -91.287354 2.288480 0.552941
111.858963 -91.287354 1.711520 0.529931
111.858963 -91.287354 1.133941 0.621363
111.858963 -91.287354 0.554502 0.511635
111.992104 -91.082855 0.000015 0.549279
114.121132 -87.812645 0.000012 0.523003
115.480339 -85.724884 0.000010 0.554879
116.425041 -84.273811 0.000008 0.562814
117.121056 -83.204727 0.000007 0.540703
112.037155 -90.794601 6.288156 0.678431
112.037155 -90.794609 5.697412 0.678431
112.037148 -90.794609 5.114960 0.678431
112.037148 -90.794617 4.539407 0.674266
112.185699 -90.569885 3.938426 0.704433
112.185699 -90.569893 3.381613 0.786145
111.711433 -91.287354 2.870034 0.168139
111.711433 -91.287354 2.289804 0.622400
111.711441 -91.287354 1.710196 0.594491
111.711433 -91.287354 1.129966 0.655573
111.711433 -91.287361 0.547866 0.527077
111.890617 -91.016289 0.000015 0.550057
114.042427 -87.761017 0.000012 0.552377
115.416176 -85.682793 0.000010 0.554849
116.370987 -84.238350 0.000008 0.534615
117.074448 -83.174149 0.000007 0.538949
111.893219 -90.794609 6.308142 0.678431
111.893219 -90.794609 5.714644 0.678431
111.893211 -90.794609 5.129478 0.678431
111.893219 -90.794609 4.551242 0.678431
112.044029 -90.569885 3.947460 0.713314
112.044029 -90.569893 3.388053 0.733852
111.679832 -91.112579 2.863748 0.185901
111.679832 -91.112579 2.287710 0.618753
111.679832 -91.112579 1.712290 0.642237
111.679832 -91.112579 1.136251 0.579477
111.679832 -91.112579 0.558358 0.491753
111.789604 -90.949005 0.000015 0.532418
113.964088 -87.708832 0.000012 0.536065
115.352310 -85.640259 0.000010 0.554864
116.317177 -84.202515 0.000008 0.537987
117.028053 -83.143250 0.000007 0.520150
111.756798 -90.781593 6.324584 0.187015
111.756798 -90.781593 5.728819 0.187015
111.756798 -90.781593 5.141419 0.187015
111.756798 -90.781593 4.560978 0.187015
111.901024 -90.569893 3.956675 0.714427
111.901024 -90.569893 3.394621 0.718105
111.679825 -90.894585 2.854877 0.291508
111.679817 -90.894585 2.284756 0.596887
111.679817 -90.894585 1.715245 0.626291
111.679825 -90.894577 1.145123 0.568078
111.679825 -90.894585 0.573164 0.329091
111.689056 -90.881020 0.000015 0.520409
113.886116 -87.656105 0.000012 0.541772
115.288742 -85.597275 0.000010 0.535592
116.263626 -84.166306 0.000008 0.554284
116.981880 -83.112030 0.000007 0.543267
111.679825 -90.680984 6.314717 0.652567
111.679825 -90.680984 5.720311 0.688914
111.679832 -90.680984 5.134252 0.675715
111.679825 -90.680984 4.555134 0.654902
111.756653 -90.569893 3.966074 0.707454
111.756653 -90.569893 3.401320 0.739345
111.679810 -90.681007 2.846227 0.406027
111.679810 -90.681007 2.281874 0.487678
111.679810 -90.681007 1.718126 0.575082
111.679810 -90.681007 1.153773 0.561364
111.679810 -90.681007 0.587602 0.333440
111.679810 -90.681007 0.018384 0.242298
113.808502 -87.602844 0.000012 0.523049
115.225479 -85.553848 0.000010 0.533867
116.210327 -84.129723 0.000008 0.552605
116.935921 -83.080482 0.000007 0.542214
111.679817 -90.471695 6.271704 0.684077
111.679817 -90.471687 5.683223 0.685389
111.679817 -90.471687 5.103006 0.666667
111.679817 -90.471687 4.529661 0.693217
111.610886 -90.569893 3.975661 0.709270
111.610886 -90.569885 3.408152 0.748302
111.610886 -90.569893 2.843683 0.723552
111.610886 -90.569885 2.281027 0.686000
111.610886 -90.569885 1.718973 0.757824
111.610886 -90.569893 1.156316 0.773922
111.610886 -90.569893 0.591847 0.709438
111.610886 -90.569893 0.024339 0.722942
113.731277 -87.549034 0.000012 0.540078
115.162514 -85.509987 0.000010 0.556771
116.157280 -84.092766 0.000008 0.527138
116.890182 -83.048622 0.000007 0.537102
111.608002 -90.367302 6.260741 0.709758
111.608002 -90.367302 5.673771 0.692790
111.608002 -90.367302 5.095043 0.666667
111.608002 -90.367302 4.523170 0.690272
111.463684 -90.569885 3.985438 0.736507
111.463684 -90.569893 3.415121 0.713054
111.463684 -90.569893 2.847859 0.709804
111.463684 -90.569885 2.282418 0.739940
111.463684 -90.569885 1.717582 0.777188
111.463684 -90.569893 1.152141 0.691783
111.463684 -90.569893 0.584878 0.748211
111.463684 -90.569893 0.014562 0.728130
113.654419 -87.494690 0.000012 0.562768
115.099861 -85.465675 0.000010 0.541100
116.104500 -84.055435 0.000008 0.508812
116.844673 -83.016434 0.000007 0.736965
111.315002 -90.569901 6.344761 0.737301
111.315002 -90.569893 5.746216 0.690410
111.315002 -90.569893 5.156076 0.741131
111.315002 -90.569893 4.572925 0.627726
111.315002 -90.569893 3.995411 0.671489
111.315002 -90.569893 3.422230 0.713970
111.315002 -90.569893 2.852118 0.709804
111.315002 -90.569893 2.283836 0.685969
111.315002 -90.569893 1.716164 0.777920
111.315002 -90.569893 1.147882 0.697810
111.315002 -90.569893 0.577770 0.728725
111.315002 -90.569893 0.004590 0.690196
113.577950 -87.439804 0.000012 0.529061
115.037521 -85.420937 0.000010 0.533089
116.051979 -84.017746 0.000008 0.569131
116.799385 -82.983932 0.000007 0.551827
111.164818 -90.569893 6.366907 0.732433
111.164818 -90.569893 5.765312 0.753552
111.164818 -90.569893 5.172163 0.731029
111.164818 -90.569893 4.586040 0.687190
111.164818 -90.569893 4.005582 0.712428
111.164818 -90.569893 3.429479 0.694926
111.164818 -90.569893 2.856461 0.729229
111.164825 -90.569885 2.285283 0.684901
111.164825 -90.569885 1.714717 0.727962
111.164818 -90.569893 1.143539 0.700114
111.164818 -90.569893 0.570521 0.704311
111.193596 -90.530663 0.000015 0.530053
113.501862 -87.384392 0.000012 0.574105
114.975487 -85.375763 0.000009 0.549783
115.999718 -83.979683 0.000008 0.539788
116.754326 -82.951118 0.000007 0.493828
111.013092 -90.569893 6.389496 0.693141
111.013092 -90.569893 5.784788 0.765194
111.013092 -90.569893 5.188573 0.742031
111.013092 -90.569893 4.599417 0.770474
111.013092 -90.569893 4.015957 0.752514
111.013092 -90.569893 3.436873 0.691646
111.013092 -90.569885 2.860891 0.722377
111.013092 -90.569893 2.286759 0.770825
111.013092 -90.569893 1.713241 0.799420
111.013092 -90.569885 1.139108 0.690196
111.013092 -90.569893 0.563126 0.680797
111.095993 -90.458527 0.000015 0.525277
113.426163 -87.328445 0.000012 0.531975
114.913780 -85.330154 0.000009 0.542809
115.947731 -83.941261 0.000008 0.562402
116.709503 -82.917992 0.000007 0.570871
110.859772 -90.569893 6.412537 0.685863
110.859772 -90.569893 5.804655 0.732631
110.859772 -90.569893 5.205309 0.733333
110.859772 -90.569893 4.613062 0.715068
110.859772 -90.569893 4.026538 0.695171
110.859772 -90.569893 3.444416 0.714305
110.859772 -90.569893 2.865410 0.731289
110.859772 -90.569893 2.288264 0.683452
110.859772 -90.569893 1.711736 0.722698
110.859772 -90.569893 1.134590 0.678431
110.859772 -90.569893 0.555584 0.708751
110.998894 -90.385712 0.000015 0.530907
113.350853 -87.271980 0.000012 0.546090
114.852386 -85.284119 0.000010 0.518608
115.896011 -83.902481 0.000008 0.495048
116.664902 -82.884544 0.000007 0.586908
110.704826 -90.569893 6.436037 0.679789
110.704826 -90.569893 5.824919 0.720684
110.704834 -90.569893 5.222380 0.712566
110.704826 -90.569893 4.626979 0.736217
110.704826 -90.569893 4.037332 0.737774
110.704834 -90.569893 3.452108 0.727871
110.704834 -90.569885 2.870019 0.750179
110.704834 -90.569885 2.289799 0.684749
110.704834 -90.569885 1.710201 0.698695
110.704834 -90.569885 1.129981 0.738201
110.704834 -90.569893 0.547891 0.738170
110.902298 -90.312225 0.000014 0.547036
113.275940 -87.214981 0.000011 0.527001
114.791321 -85.237656 0.000010 0.553094
115.844559 -83.863335 0.000008 0.495521
116.620544 -82.850800 0.000007 0.541314
110.548218 -90.569893 6.460008 0.776928
110.548218 -90.569893 5.845588 0.735622
110.548218 -90.569893 5.239793 0.711254
110.548218 -90.569893 4.641173 0.697658
110.548218 -90.569893 4.048341 0.722133
110.548218 -90.569893 3.459955 0.714031
110.548225 -90.569885 2.874720 0.738445
110.548225 -90.569885 2.291365 0.726940
110.548225 -90.569885 1.708635 0.688975
110.548225 -90.569885 1.125280 0.685786
110.548218 -90.569893 0.540045 0.698268
110.806221 -90.238060 0.000015 0.540475
113.201431 -87.157463 0.000012 0.537957
114.730576 -85.190765 0.000009 0.548043
115.793388 -83.823830 0.000008 0.560830
116.576416 -82.816734 0.000006 0.564279
110.389900 -90.569893 6.484459 0.689555
110.389900 -90.569893 5.866670 0.678431
110.389900 -90.569893 5.257555 0.687694
110.389900 -90.569893 4.655654 0.735637
110.389900 -90.569893 4.059570 0.723552
110.389900 -90.569893 3.467959 0.738842
110.389900 -90.569893 2.879516 0.712398
110.389900 -90.569885 2.292963 0.723690
110.389900 -90.569893 1.707037 0.709529
110.389900 -90.569893 1.120484 0.698116
110.389900 -90.569893 0.532040 0.714260
110.710670 -90.163231 0.000015 0.528481
113.127327 -87.099426 0.000012 0.538125
114.670158 -85.143448 0.000010 0.521660
115.742485 -83.783974 0.000008 0.589380
116.532532 -82.782364 0.000007 0.499855
110.229828 -90.569893 6.509400 0.777386
110.229828 -90.569893 5.888176 0.764553
110.229828 -90.569893 5.275673 0.754635
110.229828 -90.569893 4.670424 0.792203
110.229828 -90.569893 4.071025 0.783627
110.229828 -90.569893 3.476124 0.759243
110.229828 -90.569893 2.884408 0.700618
110.229828 -90.569885 2.294592 0.734371
110.229828 -90.569885 1.705408 0.724254
110.229828 -90.569893 1.115592 0.728710
110.229828 -90.569893 0.523876 0.764401
110.615639 -90.087730 0.000015 0.547753
113.053627 -87.040878 0.000012 0.539147
114.610077 -85.095718 0.000009 0.552239
115.691872 -83.743759 0.000008 0.507561
116.488884 -82.747696 0.000007 0.500465
110.067955 -90.569893 6.534844 0.737194
110.067955 -90.569893 5.910114 0.782406
110.067963 -90.569893 5.294153 0.686091
110.067955 -90.569893 4.685492 0.674937
110.067955 -90.569893 4.082710 0.734401
110.067955 -90.569893 3.484452 0.731456
110.067963 -90.569885 2.889397 0.715389
110.067963 -90.569893 2.296254 0.721569
110.067963 -90.569893 1.703746 0.724330
110.067963 -90.569885 1.110602 0.758740
110.067955 -90.569893 0.515547 0.733333
110.521133 -90.011574 0.000015 0.549172
112.980339 -86.981812 0.000012 0.535393
114.550331 -85.047569 0.000010 0.526131
115.641533 -83.703194 0.000008 0.564202
116.445488 -82.712715 0.000007 0.522103
109.904236 -90.569901 6.560800 0.709804
109.904243 -90.569893 5.932493 0.674739
109.904243 -90.569893 5.313008 0.714672
109.904243 -90.569893 4.700861 0.750561
109.904243 -90.569893 4.094630 0.696208
109.904243 -90.569893 3.492949 0.733394
109.904243 -90.569893 2.894488 0.726345
109.904243 -90.569893 2.297950 0.693233
109.904243 -90.569893 1.702050 0.717983
109.904243 -90.569893 1.105512 0.734569
109.904243 -90.569893 0.507051 0.726787
110.427170 -89.934761 0.000014 0.534218
112.907455 -86.922241 0.000011 0.558068
114.490913 -84.999001 0.000009 0.548333
115.591484 -83.662277 0.000008 0.565698
116.402328 -82.677437 0.000006 0.530221
109.738632 -90.569893 6.587277 0.735058
109.738632 -90.569893 5.955324 0.690196
109.738632 -90.569893 5.332243 0.733333
109.738632 -90.569893 4.716543 0.682109
109.738632 -90.569893 4.106792 0.678431
109.738632 -90.569893 3.501616 0.682414
109.738632 -90.569893 2.899681 0.738033
109.738632 -90.569893 2.299680 0.733761
109.738632 -90.569893 1.700320 0.734264
109.738632 -90.569893 1.100318 0.716564
109.738632 -90.569893 0.498383 0.732296
110.333740 -89.857285 0.000015 0.541268
112.834999 -86.862160 0.000011 0.558587
114.431847 -84.950020 0.000010 0.533074
115.541718 -83.621010 0.000008 0.521172
116.359421 -82.641853 0.000007 0.537774
109.571083 -90.569893 6.614292 0.685008
109.571083 -90.569893 5.978617 0.720195
109.571083 -90.569893 5.351867 0.728603
109.571083 -90.569893 4.732540 0.721645
109.571083 -90.569893 4.119199 0.678431
109.571083 -90.569893 3.510459 0.678431
109.571083 -90.569893 2.904979 0.696422
109.571083 -90.569893 2.301445 0.699443
109.571083 -90.569893 1.698556 0.705959
109.571083 -90.569893 1.095020 0.728466
109.571083 -90.569893 0.489540 0.709804
110.240860 -89.779160 0.000015 0.559579
112.762970 -86.801567 0.000012 0.537636
114.373123 -84.900627 0.000010 0.568963
115.492241 -83.579399 0.000008 0.529992
116.316765 -82.605972 0.000007 0.558099
109.401535 -90.569901 6.641855 0.683787
109.401535 -90.569893 6.002382 0.724788
109.401535 -90.569893 5.371889 0.721370
109.401535 -90.569901 4.748862 0.720165
109.401535 -90.569901 4.131858 0.709804
109.401535 -90.569893 3.519481 0.712612
109.401535 -90.569893 2.910386 0.741176
109.401535 -90.569893 2.303245 0.736004
109.401535 -90.569893 1.696755 0.692073
109.401535 -90.569893 1.089615 0.715755
109.401543 -90.569893 0.480518 0.712200
110.148514 -89.700394 0.000014 0.537774
112.691353 -86.740486 0.000011 0.542641
114.314743 -84.850830 0.000009 0.535637
115.443062 -83.537445 0.000008 0.547387
116.274353 -82.569801 0.000007 0.516045
109.229950 -90.569893 6.669976 0.709804
109.229950 -90.569893 6.026629 0.695827
109.229950 -90.569893 5.392316 0.733333
109.229942 -90.569901 4.765515 0.709804
109.229942 -90.569901 4.144773 0.678431
109.229942 -90.569901 3.528687 0.709804
109.229950 -90.569893 2.915900 0.681514
109.229950 -90.569885 2.305082 0.724147
109.229950 -90.569893 1.694918 0.713664
109.229950 -90.569893 1.084099 0.709804
109.229942 -90.569893 0.471313 0.678431
110.056725 -89.620987 0.000014 0.519463
112.620163 -86.678902 0.000011 0.549813
114.256706 -84.800621 0.000009 0.538155
115.394173 -83.495148 0.000008 0.548760
116.232201 -82.533333 0.000007 0.560876
109.056252 -90.569893 6.698671 0.727123
109.056252 -90.569893 6.051372 0.678431
109.056252 -90.569893 5.413161 0.729931
109.056252 -90.569893 4.782509 0.775631
109.056252 -90.569901 4.157951 0.747509
109.056252 -90.569893 3.538080 0.715785
109.056259 -90.569893 2.921529 0.698695
109.056259 -90.569893 2.306957 0.727779
109.056259 -90.569893 1.693043 0.692546
109.056259 -90.569885 1.078472 0.698360
109.056259 -90.569893 0.461919 0.686824
109.965500 -89.540939 0.000014 0.525505
112.549416 -86.616814 0.000011 0.519005
114.199028 -84.750008 0.000009 0.550515
115.345573 -83.452507 0.000008 0.533074
116.190300 -82.496567 0.000007 0.499290
108.880409 -90.569893 6.727953 0.703059
108.880409 -90.569893 6.076621 0.713817
108.880409 -90.569893 5.434432 0.709804
108.880409 -90.569893 4.799850 0.709804
108.880409 -90.569893 4.171400 0.732921
108.880409 -90.569893 3.547665 0.717937
108.880409 -90.569893 2.927271 0.698039
108.880417 -90.569885 2.308869 0.728557
108.880417 -90.569885 1.691130 0.699596
108.880417 -90.569893 1.072728 0.678431
108.880417 -90.569893 0.452334 0.690196
109.874832 -89.460251 0.000014 0.515709
112.479103 -86.554237 0.000011 0.537881
114.141708 -84.698997 0.000009 0.541894
115.297279 -83.409531 0.000008 0.493950
116.148659 -82.459511 0.000007 0.508782
108.702347 -90.569893 6.757836 0.740520
108.702347 -90.569893 6.102387 0.721523
108.702347 -90.569901 5.456140 0.736797
108.702347 -90.569901 4.817546 0.714488
108.702347 -90.569901 4.185124 0.683299
108.702347 -90.569893 3.557447 0.775128
108.702347 -90.569893 2.933132 0.723827
108.702347 -90.569893 2.310822 0.721477
108.702347 -90.569893 1.689178 0.721477
108.702347 -90.569893 1.066867 0.713130
108.702347 -90.569893 0.442552 0.715740
109.784729 -89.378937 0.000014 0.535653
112.409218 -86.491180 0.000011 0.524819
114.084740 -84.647583 0.000009 0.529931
115.249290 -83.366219 0.000007 0.537194
116.107277 -82.422165 0.000007 0.554421
108.522011 -90.569893 6.788334 0.721874
108.522011 -90.569893 6.128683 0.713634
108.522011 -90.569901 5.478294 0.687617
108.522011 -90.569901 4.835607 0.742458
108.522011 -90.569901 4.199131 0.686061
108.522011 -90.569893 3.567431 0.704143
108.522011 -90.569893 2.939114 0.794278
108.522018 -90.569893 2.312814 0.698039
108.522018 -90.569885 1.687186 0.712291
108.522011 -90.569893 1.060886 0.724330
108.522011 -90.569893 0.432569 0.801038
109.695198 -89.296997 0.000014 0.525673
112.339783 -86.427628 0.000011 0.516136
114.028130 -84.595779 0.000009 0.539727
115.201599 -83.322571 0.000008 0.490379
116.066154 -82.384529 0.000007 0.580377
108.339340 -90.569893 6.819463 0.700252
108.339340 -90.569893 6.155522 0.708522
108.339340 -90.569893 5.500905 0.712444
108.339340 -90.569901 4.854040 0.751492
108.339340 -90.569901 4.213427 0.709453
108.339340 -90.569901 3.577621 0.706447
108.339340 -90.569893 2.945218 0.783764
108.339340 -90.569893 2.314847 0.699184
108.339340 -90.569893 1.685152 0.717266
108.339340 -90.569893 1.054781 0.726787
108.339340 -90.569893 0.422379 0.789593
109.606239 -89.214432 0.000014 0.524346
112.270798 -86.363594 0.000011 0.548928
113.971893 -84.543571 0.000009 0.547631
115.154213 -83.278595 0.000008 0.541573
116.025299 -82.346611 0.000006 0.548669
108.154266 -90.569893 6.851236 0.679850
108.154266 -90.569893 6.182918 0.718990
108.154266 -90.569901 5.523985 0.734142
108.154259 -90.569901 4.872856 0.647059
108.154259 -90.569901 4.228020 0.726375
108.154266 -90.569901 3.588022 0.724559
108.154266 -90.569893 2.951450 0.737743
108.154266 -90.569893 2.316923 0.688777
108.154266 -90.569893 1.683076 0.717876
108.154266 -90.569893 1.048550 0.726131
108.154266 -90.569893 0.411978 0.733333
109.517853 -89.131248 0.000014 0.534646
112.202248 -86.299088 0.000011 0.566857
113.916008 -84.490982 0.000009 0.569421
115.107140 -83.234283 0.000008 0.498817
115.984711 -82.308403 0.000006 0.514504
107.966728 -90.569893 6.883671 0.723964
107.966736 -90.569893 6.210885 0.752544
107.966736 -90.569901 5.547546 0.695109
107.966728 -90.569901 4.892064 0.726574
107.966728 -90.569901 4.242916 0.758663
107.966728 -90.569893 3.598639 0.722972
107.966736 -90.569893 2.957811 0.696590
107.966736 -90.569893 2.319042 0.685649
107.966736 -90.569893 1.680957 0.682872
107.966736 -90.569893 1.042189 0.721569
107.966736 -90.569893 0.401361 0.709560
109.430061 -89.047447 0.000013 0.549874
112.134163 -86.234093 0.000011 0.533364
113.860504 -84.438004 0.000009 0.529778
115.060379 -83.189651 0.000008 0.517052
115.944389 -82.269920 0.000006 0.515435
107.776665 -90.569893 6.916782 0.682155
107.776657 -90.569893 6.239435 0.679026
107.776657 -90.569893 5.571599 0.685893
107.776657 -90.569901 4.911672 0.709804
107.776657 -90.569901 4.258123 0.690990
107.776657 -90.569901 3.609478 0.710765
107.776657 -90.569901 2.964306 0.703593
107.776665 -90.569893 2.321206 0.702800
107.776665 -90.569885 1.678794 0.678508
107.776665 -90.569893 1.035694 0.738628
107.776665 -90.569893 0.390522 0.675181
109.342850 -88.963036 0.000014 0.527657
112.066528 -86.168625 0.000011 0.522377
113.805359 -84.384636 0.000009 0.549737
115.013924 -83.144691 0.000007 0.485618
115.904335 -82.231148 0.000006 0.578576
107.583984 -90.569893 6.950590 0.691417
107.583984 -90.569901 6.268586 0.737942
107.583984 -90.569901 5.596157 0.717632
107.583984 -90.569901 4.931693 0.733364
107.583984 -90.569901 4.273650 0.784100
107.583984 -90.569901 3.620545 0.724147
107.583984 -90.569893 2.970936 0.693309
107.583992 -90.569893 2.323414 0.747921
107.583992 -90.569885 1.676586 0.756237
107.583992 -90.569893 1.029064 0.692195
107.583984 -90.569893 0.379456 0.678431
109.256226 -88.878021 0.000014 0.511803
111.999352 -86.102692 0.000011 0.510475
113.750595 -84.330879 0.000009 0.547646
114.967789 -83.099403 0.000007 0.527428
115.864555 -82.192108 0.000007 0.525841
107.388634 -90.569893 6.985109 0.750164
107.388634 -90.569901 6.298350 0.752895
107.388626 -90.569901 5.621233 0.710338
107.388626 -90.569901 4.952135 0.679850
107.388626 -90.569901 4.289503 0.718898
107.388634 -90.569901 3.631844 0.726558
107.388634 -90.569893 2.977707 0.716472
107.388634 -90.569893 2.325670 0.717357
107.388634 -90.569893 1.674331 0.702007
107.388634 -90.569893 1.022294 0.704509
107.388634 -90.569893 0.368156 0.677943
109.170204 -88.792397 0.000014 0.534707
111.932632 -86.036285 0.000011 0.523720
113.696213 -84.276749 0.000009 0.569268
114.921967 -83.053795 0.000007 0.574228
115.825050 -82.152779 0.000007 0.508934
107.190529 -90.569893 7.020360 0.700298
107.190521 -90.569901 6.328745 0.733516
107.190521 -90.569901 5.646839 0.701228
107.190521 -90.569901 4.973010 0.730861
107.190521 -90.569901 4.305693 0.698177
107.190521 -90.569901 3.643383 0.693095
107.190521 -90.569901 2.984620 0.705165
107.190529 -90.569893 2.327972 0.751202
107.190536 -90.569885 1.672028 0.670161
107.190529 -90.569893 1.015380 0.737728
107.190529 -90.569893 0.356617 0.750957
109.084778 -88.706184 0.000013 0.548882
111.866386 -85.969421 0.000011 0.533562
113.642204 -84.222237 0.000009 0.514076
114.876465 -83.007874 0.000008 0.552224
115.785812 -82.113190 0.000006 0.546395
106.989594 -90.569893 7.056362 0.760983
107.076431 -90.485634 6.333652 0.709804
107.076340 -90.485725 5.650996 0.682658
107.076462 -90.485611 4.976375 0.693187
107.031151 -90.529572 4.315565 0.674250
106.989586 -90.569901 3.655169 0.692851
106.989586 -90.569901 2.991681 0.694377
106.989594 -90.569893 2.330324 0.754849
106.989594 -90.569893 1.669676 0.678920
106.989594 -90.569893 1.008319 0.703868
106.989594 -90.569893 0.344832 0.743496
108.999962 -88.619370 0.000013 0.528359
111.800598 -85.902100 0.000011 0.555535
113.588577 -84.167351 0.000009 0.538216
114.831284 -82.961632 0.000007 0.519127
115.746857 -82.073318 0.000006 0.540856
106.785744 -90.569893 7.093133 0.723278
106.997482 -90.367310 6.328200 0.704784
106.997482 -90.367310 5.646379 0.651728
106.997482 -90.367310 4.972635 0.686610
106.989891 -90.374573 4.306612 0.678553
106.785736 -90.569901 3.667205 0.690349
106.785744 -90.569901 2.998893 0.713756
106.785744 -90.569893 2.332726 0.756451
106.785744 -90.569893 1.667274 0.709804
106.785744 -90.569893 1.001107 0.732830
106.785751 -90.569893 0.332795 0.716258
108.915756 -88.531967 0.000014 0.521263
111.735291 -85.834312 0.000010 0.543252
113.535332 -84.112091 0.000008 0.537438
114.786430 -82.915077 0.000007 0.581979
115.708183 -82.033173 0.000006 0.538979
106.578896 -90.569893 7.130695 0.712123
106.286636 -90.845634 6.510661 0.181247
106.266907 -90.864250 5.805033 0.678431
106.266907 -90.864250 5.101974 0.678431
106.793617 -90.367310 4.322406 0.680308
106.578888 -90.569901 3.679502 0.697734
106.578888 -90.569901 3.006260 0.728954
106.578896 -90.569893 2.335180 0.758297
106.578896 -90.569893 1.664820 0.670283
106.578896 -90.569893 0.993740 0.718273
106.578896 -90.569893 0.320499 0.709361
108.832153 -88.443977 0.000013 0.545937
111.670464 -85.766075 0.000011 0.545296
113.482475 -84.056458 0.000008 0.532296
114.741905 -82.868210 0.000007 0.528283
115.669792 -81.992760 0.000006 0.581827
106.368965 -90.569893 7.169069 0.697353
106.082840 -90.836098 6.541374 0.160784
106.052589 -90.864243 5.833491 0.678431
106.052589 -90.864243 5.125175 0.678431
106.586723 -90.367294 4.339773 0.706813
106.368958 -90.569901 3.692062 0.695750
106.368965 -90.569901 3.013786 0.730465
106.368965 -90.569893 2.337687 0.756268
106.368965 -90.569893 1.662313 0.675242
106.368965 -90.569893 0.986215 0.696773
106.368965 -90.569893 0.307938 0.689174
108.749168 -88.355408 0.000013 0.555917
111.606102 -85.697388 0.000010 0.556176
113.430016 -84.000465 0.000008 0.525170
114.697701 -82.821037 0.000007 0.529992
115.631676 -81.952087 0.000006 0.563043
106.155861 -90.569893 7.208279 0.822248
105.865692 -90.836105 6.575823 0.191302
105.835022 -90.864243 5.862569 0.678431
105.835022 -90.864243 5.148879 0.678431
106.376724 -90.367271 4.357517 0.684825
106.155853 -90.569901 3.704897 0.725246
106.155861 -90.569901 3.021475 0.755993
106.155861 -90.569893 2.340249 0.762264
106.155861 -90.569893 1.659752 0.647059
106.155861 -90.569893 0.978524 0.696818
106.155861 -90.569893 0.295103 0.654063
108.666809 -88.266258 0.000013 0.537850
111.542229 -85.628250 0.000010 0.505425
113.377945 -83.944099 0.000008 0.570916
114.653831 -82.773552 0.000007 0.566247
115.593849 -81.911140 0.000006 0.574380
144.008591 -56.130302 9.610550 0.494118
143.777161 -56.339661 8.494701 0.478492
143.962601 -56.171906 7.517093 0.485008
144.288696 -55.876892 6.562926 0.484840
144.690033 -55.513817 5.600998 0.478981
143.786118 -56.331558 4.466667 0.468940
144.201508 -55.955772 3.505402 0.468635
145.087189 -55.154522 2.520987 0.494118
nan nan nan 0.000000
151.666962 -49.202072 0.000035 0.533776
139.565338 -60.149925 0.000021 0.540276
134.369614 -64.850296 0.000015 0.546929
131.475861 -67.468163 0.000011 0.537041
129.628433 -69.139450 0.000009 0.561990
128.344406 -70.301064 0.000007 0.540444
127.398384 -71.156883 0.000006 0.574105
143.856796 -56.549942 9.512020 0.494209
144.027908 -56.397308 8.526669 0.453315
144.209137 -56.235641 7.542715 0.465019
144.573013 -55.911049 6.590914 0.494469
144.408096 -56.058159 5.535022 0.671641
144.335068 -56.123306 4.511562 0.494148
144.078918 -56.351791 3.487921 0.494118
143.403473 -56.954330 2.480808 0.492821
144.379730 -56.083466 1.497784 0.694408
144.366562 -56.095215 0.493144 0.735454
139.679138 -60.276604 0.000021 0.544076
134.450729 -64.940582 0.000015 0.532067
131.538757 -67.538185 0.000011 0.528023
129.679718 -69.196533 0.000009 0.499992
128.387604 -70.349152 0.000007 0.513634
127.435638 -71.198357 0.000006 0.510597
144.191986 -56.533943 9.577528 0.485588
144.786209 -56.011276 8.704552 0.494789
144.155411 -56.566116 7.495526 0.465263
144.648071 -56.132774 6.577440 0.469306
145.260513 -55.594078 5.643828 0.484733
144.598038 -56.176788 4.524796 0.438621
143.933746 -56.761086 3.469249 0.491173
145.152710 -55.688911 2.515965 0.474769
nan nan nan 0.000000
152.045349 -49.626251 0.000035 0.536950
139.792053 -60.404068 0.000021 0.542275
134.531189 -65.031441 0.000015 0.554788
131.601166 -67.608643 0.000012 0.559808
129.730591 -69.253975 0.000009 0.516518
128.430466 -70.397552 0.000007 0.536400
127.472595 -71.240082 0.000006 0.556405
144.650604 -56.415749 9.683524 0.494118
144.388535 -56.643040 8.550100 0.475807
144.139435 -56.859070 7.458270 0.491936
144.915237 -56.186241 6.602070 0.480232
143.851501 -57.108799 5.407112 0.497017
143.896469 -57.069798 4.433301 0.494118
144.402679 -56.630768 3.490812 0.460548
145.147812 -55.984535 2.512722 0.475120
nan nan nan 0.000000
152.232315 -49.840298 0.000035 0.541665
139.904053 -60.532326 0.000022 0.540124
134.611038 -65.122849 0.000015 0.555901
131.663086 -67.679543 0.000012 0.543023
129.781067 -69.311768 0.000009 0.553155
128.472992 -70.446236 0.000007 0.541863
127.509262 -71.282059 0.000006 0.527428
nan nan nan 0.000000
144.593582 -56.746277 8.569109 0.480995
144.560471 -56.774593 7.526351 0.460700
145.185028 -56.240517 6.627141 0.495491
144.536255 -56.795303 5.490337 0.482811
144.714783 -56.642635 4.507000 0.461982
144.430634 -56.885616 3.483682 0.500435
144.818237 -56.554169 2.502553 0.471351
nan nan nan 0.000000
152.417755 -50.055672 0.000036 0.544549
140.015182 -60.661358 0.000021 0.540520
134.690247 -65.214813 0.000015 0.558114
131.724518 -67.750862 0.000011 0.523140
129.831146 -69.369919 0.000009 0.512886
128.515182 -70.495224 0.000008 0.497169
127.545639 -71.324303 0.000006 0.564324
nan nan nan 0.000000
nan nan nan 0.000000
nan nan nan 0.000000
nan nan nan 0.000000
144.577072 -57.037930 5.475851 0.485191
144.682205 -56.949287 4.488690 0.479744
144.216949 -57.341557 3.461182 0.479698
145.127121 -56.574181 2.506194 0.482933
nan nan nan 0.000000
