# This PCD file was generated using the MATLABÂ® pcwrite function
# from Computer Vision ToolboxÂ®.
# .PCD v.7 - Point Cloud Data file format
VERSION .7
FIELDS x y z intensity
SIZE 4 4 4 4
TYPE F F F F
COUNT 1 1 1 1
WIDTH 1213
HEIGHT 1
VIEWPOINT 0 0 0 1 0 0 0
POINTS 1213
DATA ascii
370.546082 111.736000 0.000005 0.551263
385.677765 99.831924 8.822533 0.420188
385.677765 99.831917 7.882648 0.584421
385.677765 99.831924 6.955955 0.486336
385.677765 99.831924 6.040238 0.613550
385.677765 99.831924 5.133373 0.709804
385.677765 99.831924 4.233313 0.685695
385.677765 99.831924 3.338072 0.678431
385.677765 99.831924 2.445705 0.541268
385.677765 99.831924 1.554295 0.544610
385.677765 99.831924 0.661928 0.763394
383.436005 101.585037 0.000034 0.554391
377.916962 105.901039 0.000021 0.533211
374.843109 108.304855 0.000014 0.542702
372.880737 109.839485 0.000010 0.534264
371.516785 110.906120 0.000007 0.549477
370.511902 111.691971 0.000005 0.483162
385.574341 99.671265 8.827078 0.638468
385.574341 99.671265 7.886568 0.519585
385.574341 99.671265 6.959258 0.510903
385.574341 99.671265 6.042932 0.482780
385.574341 99.671265 5.135463 0.841550
385.574341 99.671265 4.234801 0.676677
385.574341 99.671265 3.338964 0.525429
385.574341 99.671265 2.446002 0.596277
385.574341 99.671265 1.553998 0.548180
385.574341 99.671265 0.661036 0.841093
383.330627 101.451271 0.000034 0.543404
377.841858 105.805695 0.000021 0.534905
374.784882 108.230911 0.000014 0.545068
372.833252 109.779205 0.000010 0.562631
371.476776 110.855339 0.000007 0.515496
370.477386 111.648178 0.000005 0.512337
385.470764 99.510384 8.831966 0.600763
385.470764 99.510384 7.890780 0.554009
385.470764 99.510384 6.962808 0.586389
385.470764 99.510384 6.045825 0.778149
385.470764 99.510384 5.137707 0.778927
385.470764 99.510384 4.236401 0.614664
385.470734 99.510391 3.339921 0.472282
385.470734 99.510391 2.446321 0.778622
385.470734 99.510391 1.553679 0.379461
385.470764 99.510391 0.660078 0.708766
383.224335 101.318237 0.000034 0.536446
377.766113 105.710884 0.000022 0.539666
374.726135 108.157372 0.000014 0.560555
372.785339 109.719261 0.000010 0.522454
371.436432 110.804832 0.000007 0.500175
370.442596 111.604637 0.000005 0.538094
385.367004 99.349266 8.837194 0.626108
385.367035 99.349258 7.895287 0.729412
385.367004 99.349266 6.966604 0.398520
385.367004 99.349266 6.048920 0.432517
385.367004 99.349266 5.140106 0.490455
385.367004 99.349266 4.238111 0.552514
385.367004 99.349266 3.340946 0.546517
385.367004 99.349274 2.446663 0.853422
385.367004 99.349266 1.553337 0.415091
385.367004 99.349274 0.659053 0.644816
383.117126 101.185951 0.000033 0.532219
377.689667 105.616592 0.000021 0.546593
374.666870 108.084244 0.000014 0.536675
372.737030 109.659645 0.000010 0.522225
371.395721 110.754608 0.000007 0.535012
370.407501 111.561333 0.000005 0.528862
385.263123 99.187881 8.842764 0.628748
385.263123 99.187889 7.900087 0.671153
385.263123 99.187897 6.970648 0.561364
385.263123 99.187889 6.052219 0.366293
385.263123 99.187897 5.142664 0.371664
385.263123 99.187889 4.239935 0.611399
385.263123 99.187897 3.342038 0.475731
385.263123 99.187897 2.447026 0.898650
385.263123 99.187897 1.552973 0.558831
385.263123 99.187897 0.657960 0.696635
383.008972 101.054413 0.000033 0.540154
377.612610 105.522842 0.000022 0.557610
374.607086 108.011536 0.000014 0.536385
372.688293 109.600372 0.000010 0.529351
371.354675 110.704674 0.000007 0.556832
370.372101 111.518272 0.000005 0.554299
385.159058 99.026245 8.848675 0.639078
385.159058 99.026245 7.905186 0.520928
385.159058 99.026245 6.974943 0.510536
385.159058 99.026245 6.055719 0.823133
385.159058 99.026245 5.145379 0.405127
385.159058 99.026245 4.241870 0.917967
385.159058 99.026245 3.343198 0.499580
385.159058 99.026245 2.447413 0.903502
385.159058 99.026245 1.552587 0.583246
385.159058 99.026245 0.656801 0.759960
382.899902 100.923637 0.000034 0.551843
377.534882 105.429626 0.000021 0.522057
374.546783 107.939247 0.000014 0.539910
372.639160 109.541435 0.000010 0.561791
371.313263 110.655022 0.000007 0.537514
370.336395 111.475464 0.000005 0.557565
385.252228 98.696129 8.919895 0.678431
385.054810 98.864311 7.910581 0.410193
385.054779 98.864319 6.979488 0.741176
385.183533 98.754631 6.084514 0.160784
385.252228 98.696136 5.178089 0.678431
385.252228 98.696136 4.265183 0.678431
385.054779 98.864319 3.344425 0.525399
385.054779 98.864319 2.447821 0.870588
385.054779 98.864319 1.552178 0.534920
385.054779 98.864319 0.655574 0.819913
382.789948 100.793633 0.000034 0.549996
377.456482 105.336967 0.000021 0.534020
374.485992 107.867386 0.000014 0.531945
372.589600 109.482849 0.000010 0.527871
371.271515 110.605667 0.000007 0.514031
370.300415 111.432907 0.000005 0.562905
385.146790 98.532356 8.926559 0.678431
384.950348 98.702072 7.916275 0.561639
384.950348 98.702072 6.984284 0.349813
385.078430 98.591393 6.088446 0.160784
385.146790 98.532356 5.181149 0.678431
385.146790 98.532356 4.267365 0.678431
384.950317 98.702080 3.345720 0.518273
384.950317 98.702080 2.448253 0.769940
384.950317 98.702080 1.551747 0.599847
384.950317 98.702080 0.654279 0.580392
382.679077 100.664391 0.000034 0.547601
377.377472 105.244843 0.000021 0.539925
374.424713 107.795944 0.000014 0.536507
372.539612 109.424614 0.000010 0.535103
371.229431 110.556595 0.000007 0.557351
370.264099 111.390602 0.000005 0.538170
385.041138 98.368256 8.933575 0.678431
384.845673 98.539520 7.922266 0.550805
384.845673 98.539520 6.989332 0.590417
384.973145 98.427834 6.092588 0.160784
385.041138 98.368256 5.184372 0.678431
385.041138 98.368256 4.269662 0.678431
384.845673 98.539520 3.347083 0.471763
384.845673 98.539520 2.448708 0.551614
384.845673 98.539520 1.551293 0.512551
384.845673 98.539520 0.652916 0.611765
382.567291 100.535934 0.000033 0.537102
377.297791 105.153282 0.000021 0.543420
374.362915 107.724930 0.000014 0.526284
372.489258 109.366722 0.000010 0.575830
371.186981 110.507828 0.000007 0.563516
370.227509 111.348549 0.000005 0.598138
384.935242 98.203827 8.940945 0.678431
384.740814 98.376625 7.928560 0.750118
384.740784 98.376625 6.994635 0.563790
384.867615 98.263931 6.096939 0.160784
384.935242 98.203819 5.187757 0.678431
384.935242 98.203819 4.272075 0.678431
384.740784 98.376625 3.348515 0.618814
384.740784 98.376633 2.449184 0.637324
384.740784 98.376625 1.550816 0.545830
384.740784 98.376625 0.651485 0.895125
382.454620 100.408249 0.000033 0.532586
377.217499 105.062286 0.000021 0.534951
374.300659 107.654358 0.000014 0.584802
372.438477 109.309181 0.000010 0.570352
371.144196 110.459358 0.000007 0.532036
370.190643 111.306747 0.000005 0.560494
384.829163 98.039024 8.948668 0.678431
384.635681 98.213371 7.935157 0.511055
384.635681 98.213379 7.000192 0.483848
384.761871 98.099670 6.101497 0.160784
384.829163 98.039017 5.191303 0.678431
384.829163 98.039024 4.274602 0.674388
384.635681 98.213379 3.350015 0.522698
384.635681 98.213379 2.449683 0.640803
384.635681 98.213379 1.550316 0.521187
384.635681 98.213379 0.649984 0.867887
382.341064 100.281357 0.000034 0.531060
377.136536 104.971840 0.000021 0.538125
374.237885 107.584213 0.000014 0.550042
372.387299 109.251999 0.000010 0.554528
371.101105 110.411179 0.000007 0.530892
370.153473 111.265213 0.000005 0.554925
384.722809 97.873856 8.956745 0.444373
384.530334 98.049751 7.942059 0.566445
384.530334 98.049759 7.006007 0.723537
384.655853 97.935036 6.106266 0.160784
384.722809 97.873848 5.195015 0.451118
384.722809 97.873848 4.277247 0.447639
384.530334 98.049759 3.351584 0.473335
384.530334 98.049759 2.450206 0.869718
384.530334 98.049759 1.549794 0.426871
384.530334 98.049751 0.648414 0.553063
382.226624 100.155258 0.000034 0.540368
377.054993 104.881966 0.000021 0.544289
374.174622 107.514511 0.000014 0.534325
372.335754 109.195175 0.000010 0.527962
371.057648 110.363312 0.000007 0.491371
370.115997 111.223938 0.000005 0.595407
384.424744 97.885742 8.899797 0.515618
384.424744 97.885742 7.949266 0.670787
384.424744 97.885750 7.012079 0.495888
384.424744 97.885742 6.085995 0.472297
384.424744 97.885742 5.168859 0.580392
384.424744 97.885742 4.258605 0.917723
384.424744 97.885750 3.353225 0.514900
384.424744 97.885750 2.450753 0.832120
384.424744 97.885750 1.549247 0.420142
384.424744 97.885742 0.646774 0.692073
382.111328 100.029968 0.000033 0.528756
376.972778 104.792664 0.000021 0.544564
374.110870 107.445259 0.000015 0.555718
372.283783 109.138718 0.000010 0.554711
371.013855 110.315742 0.000007 0.545693
370.078247 111.182922 0.000005 0.520592
384.318909 97.721329 8.908516 0.424125
384.318909 97.721321 7.956783 0.621851
384.318878 97.721329 7.018412 0.471473
384.318909 97.721329 6.091156 0.726986
384.318909 97.721321 5.172863 0.515160
384.318878 97.721329 4.261458 0.681498
384.318878 97.721329 3.354934 0.489174
384.318878 97.721329 2.451322 0.877638
384.318909 97.721329 1.548678 0.568856
384.318878 97.721329 0.645065 0.867155
381.995117 99.905487 0.000034 0.543160
376.889984 104.703934 0.000021 0.553017
374.046661 107.376442 0.000014 0.551385
372.231415 109.082619 0.000010 0.553033
370.969757 110.268486 0.000007 0.476005
370.040222 111.142174 0.000005 0.512856
384.212769 97.556488 8.917592 0.443626
384.212769 97.556488 7.964609 0.539223
384.212769 97.556488 7.025005 0.571878
384.212769 97.556488 6.096532 0.316457
384.212769 97.556480 5.177032 0.445350
384.212769 97.556488 4.264430 0.864485
384.212769 97.556488 3.356715 0.487144
384.212769 97.556488 2.451915 0.724269
384.212769 97.556488 1.548085 0.565713
384.212769 97.556488 0.643285 0.769574
381.878052 99.781822 0.000034 0.547982
376.806549 104.615791 0.000021 0.545815
373.981934 107.308083 0.000014 0.524926
372.178680 109.026894 0.000010 0.547158
370.925323 110.221535 0.000007 0.516640
370.001892 111.101692 0.000005 0.518318
384.106354 97.391205 8.927032 0.471901
384.106354 97.391205 7.972746 0.819776
384.106354 97.391205 7.031862 0.566232
384.106354 97.391205 6.102121 0.476967
384.106354 97.391205 5.181367 0.474510
384.106354 97.391205 4.267519 0.616205
384.106354 97.391212 3.358566 0.482673
384.106354 97.391205 2.452532 0.870588
384.106354 97.391205 1.547468 0.575860
384.106354 97.391205 0.641434 0.728985
381.760162 99.658966 0.000033 0.557351
376.722504 104.528229 0.000021 0.543633
373.916748 107.240173 0.000014 0.535637
372.125519 108.971527 0.000010 0.499504
370.880554 110.174889 0.000007 0.550729
369.963318 111.061478 0.000005 0.506111
383.999634 97.225464 8.936833 0.647410
383.999634 97.225464 7.981201 0.746532
383.999634 97.225464 7.038984 0.485863
383.999634 97.225464 6.107926 0.613169
383.999634 97.225464 5.185868 0.650782
383.999634 97.225456 4.270729 0.570016
383.999634 97.225464 3.360489 0.480568
383.999634 97.225464 2.453172 0.603220
383.999634 97.225464 1.546827 0.586175
383.999634 97.225464 0.639511 0.561639
381.641388 99.536942 0.000033 0.537087
376.637848 104.441254 0.000021 0.538216
373.851105 107.172722 0.000014 0.550072
372.071991 108.916542 0.000010 0.508782
370.835449 110.128571 0.000007 0.533822
369.924438 111.021530 0.000005 0.529686
383.892609 97.059242 8.947002 0.703761
383.892609 97.059242 7.989970 0.596933
383.892609 97.059242 7.046371 0.896056
383.892609 97.059235 6.113949 0.646052
383.892609 97.059242 5.190538 0.760296
383.892639 97.059235 4.274057 0.557610
383.892609 97.059250 3.362483 0.486931
383.892609 97.059242 2.453836 0.518700
383.892609 97.059242 1.546163 0.484932
383.892609 97.059250 0.637516 0.572198
381.521759 99.415749 0.000033 0.532235
376.552582 104.354874 0.000021 0.540291
373.784973 107.105728 0.000015 0.538109
372.018097 108.861931 0.000010 0.537438
370.790039 110.082558 0.000007 0.531334
369.885254 110.981865 0.000005 0.572854
383.785278 96.892525 8.957544 0.601038
383.785278 96.892525 7.999057 0.626978
383.785278 96.892532 7.054026 0.620050
383.785278 96.892525 6.120191 0.613886
383.785278 96.892525 5.195379 0.592889
383.785278 96.892525 4.277509 0.533303
383.785278 96.892532 3.364551 0.831159
383.785278 96.892532 2.454525 0.684184
383.785278 96.892532 1.545474 0.572534
383.785278 96.892532 0.635449 0.580774
381.401306 99.295395 0.000033 0.534463
376.466736 104.269096 0.000021 0.543954
373.718384 107.039207 0.000014 0.550774
371.963806 108.807693 0.000010 0.536263
370.744324 110.036865 0.000007 0.551095
369.845825 110.942467 0.000005 0.550637
383.862000 96.536835 9.034497 0.678431
383.677612 96.725296 8.008465 0.659831
383.677612 96.725296 7.061954 0.628962
383.754395 96.646835 6.142935 0.535973
383.862000 96.536842 5.230721 0.678431
383.862000 96.536842 4.302697 0.678431
383.677612 96.725296 3.366690 0.869825
383.677612 96.725296 2.455238 0.696406
383.677612 96.725296 1.544762 0.463584
383.677612 96.725296 0.633309 0.595422
381.279999 99.175888 0.000033 0.540490
376.380280 104.183914 0.000021 0.534539
373.651337 106.973145 0.000014 0.526421
371.909149 108.753838 0.000010 0.534203
370.698273 109.991493 0.000007 0.550958
369.806122 110.903343 0.000005 0.562722
383.752960 96.367485 9.045889 0.678431
383.569611 96.557526 8.018196 0.642542
383.569580 96.557533 7.070150 0.595254
383.614502 96.510994 6.142928 0.610101
383.752960 96.367485 5.235954 0.678431
383.752960 96.367485 4.306427 0.678431
383.569580 96.557533 3.368904 0.682643
383.569580 96.557533 2.455975 0.828870
383.569611 96.557533 1.544025 0.508583
383.569611 96.557533 0.631096 0.592050
381.157867 99.057236 0.000033 0.545907
376.293213 104.099335 0.000021 0.532326
373.583832 106.907547 0.000014 0.537820
371.854126 108.700363 0.000010 0.545724
370.651886 109.946442 0.000007 0.526833
369.766144 110.864502 0.000005 0.543420
383.643555 96.197571 9.057662 0.678431
383.461243 96.389206 8.028255 0.696544
383.461243 96.389214 7.078624 0.563241
383.473663 96.376129 6.142921 0.591028
383.643555 96.197571 5.241362 0.678431
383.643555 96.197571 4.310282 0.678431
383.461243 96.389214 3.371192 0.749996
383.461243 96.389214 2.456738 0.673167
383.461243 96.389214 1.543262 0.401816
383.461243 96.389214 0.628808 0.634562
381.034912 98.939423 0.000033 0.540856
376.205566 104.015373 0.000021 0.537514
373.515869 106.842430 0.000014 0.533165
371.798706 108.647278 0.000010 0.523186
370.605225 109.901718 0.000007 0.541360
369.725891 110.825935 0.000005 0.549828
383.533783 96.027084 9.069823 0.678431
383.352478 96.220329 8.038639 0.496712
383.352478 96.220329 7.087374 0.507897
383.352478 96.220329 6.147376 0.634821
383.533783 96.027084 5.246945 0.678431
383.533783 96.027084 4.314261 0.678431
383.352478 96.220329 3.373554 0.614679
383.352478 96.220329 2.457524 0.886580
383.352478 96.220329 1.542476 0.587243
383.352478 96.220329 0.626446 0.595193
380.911133 98.822487 0.000033 0.535073
376.117371 103.932022 0.000021 0.537240
373.447449 106.777786 0.000014 0.524132
371.742920 108.594582 0.000010 0.541146
370.558228 109.857323 0.000007 0.548837
369.685364 110.787659 0.000005 0.554742
383.423645 95.856003 9.082367 0.678431
383.243378 96.050842 8.049358 0.518257
383.243378 96.050850 7.096403 0.455283
383.243378 96.050850 6.154737 0.538903
383.423645 95.856003 5.252709 0.678431
383.423645 95.856003 4.318369 0.678431
383.243378 96.050858 3.375991 0.531853
383.243378 96.050850 2.458336 0.887251
383.243378 96.050850 1.541663 0.635493
383.243378 96.050850 0.624008 0.542092
380.786560 98.706413 0.000033 0.541955
376.028564 103.849289 0.000021 0.518151
373.378571 106.713631 0.000014 0.553155
371.686798 108.542274 0.000010 0.542611
370.510925 109.813255 0.000007 0.543236
369.644592 110.749657 0.000005 0.523461
383.250763 95.752625 9.072140 0.206958
383.133881 95.880753 8.060409 0.590951
383.133850 95.880753 7.105715 0.523659
383.133850 95.880760 6.162326 0.495140
383.250763 95.752632 5.248010 0.160784
383.250763 95.752625 4.315020 0.198703
383.133850 95.880753 3.378505 0.593668
383.133850 95.880760 2.459174 0.870588
383.133850 95.880760 1.540826 0.569665
383.133850 95.880753 0.621494 0.564141
380.661163 98.591209 0.000033 0.542336
375.939178 103.767181 0.000021 0.539666
373.309265 106.649948 0.000014 0.547311
371.630280 108.490356 0.000010 0.556283
370.463318 109.769516 0.000007 0.525231
369.603546 110.711945 0.000004 0.533700
383.023956 95.710037 9.041904 0.561959
383.023956 95.710030 8.071796 0.701717
383.023956 95.710037 7.115306 0.342992
383.023956 95.710037 6.170148 0.485939
383.023956 95.710030 5.234124 0.421897
383.023956 95.710037 4.305123 0.593194
383.023956 95.710037 3.381096 0.320623
383.023956 95.710037 2.460036 0.611765
383.023956 95.710037 1.539964 0.559060
383.023956 95.710037 0.618904 0.504845
380.534943 98.476883 0.000033 0.544137
375.849243 103.685692 0.000021 0.545937
373.239502 106.586746 0.000014 0.526787
371.573395 108.438843 0.000010 0.549737
370.415405 109.726112 0.000007 0.530480
369.562225 110.674522 0.000005 0.546960
382.913605 95.538658 9.055508 0.517906
382.913605 95.538651 8.083527 0.550912
382.913605 95.538658 7.125188 0.734737
382.913605 95.538658 6.178204 0.377462
382.913605 95.538658 5.240372 0.483818
382.913605 95.538658 4.309576 0.580331
382.913605 95.538658 3.383764 0.723247
382.913605 95.538658 2.460925 0.486397
382.913605 95.538658 1.539075 0.496880
382.913605 95.538658 0.616236 0.551659
380.407959 98.363441 0.000033 0.540276
375.758698 103.604836 0.000021 0.550469
373.169312 106.524040 0.000014 0.552865
371.516174 108.387718 0.000010 0.530861
370.367188 109.683044 0.000007 0.530709
369.520660 110.637390 0.000005 0.586160
382.802856 95.366608 9.069508 0.808438
382.802856 95.366608 8.095596 0.736828
382.802856 95.366615 7.135359 0.899809
382.802856 95.366615 6.186494 0.571496
382.802856 95.366615 5.246800 0.558923
382.802856 95.366615 4.314158 0.552560
382.802856 95.366615 3.386509 0.875273
382.802826 95.366623 2.461839 0.549081
382.802856 95.366623 1.538160 0.613718
382.802856 95.366615 0.613491 0.678080
380.280182 98.250893 0.000033 0.533639
375.667633 103.524612 0.000021 0.539956
373.098663 106.461823 0.000014 0.533059
371.458588 108.336998 0.000010 0.556954
370.318665 109.640320 0.000007 0.539437
369.478821 110.600540 0.000005 0.564263
382.691620 95.193878 9.083908 0.298283
382.691620 95.193878 8.108014 0.707576
382.691620 95.193878 7.145820 0.556603
382.691620 95.193886 6.195022 0.721569
382.691620 95.193878 5.253416 0.505608
382.691620 95.193878 4.318871 0.855680
382.691620 95.193878 3.389333 0.574807
382.691620 95.193878 2.462780 0.721569
382.691620 95.193878 1.537219 0.353613
382.691620 95.193878 0.610666 0.605188
380.151611 98.139229 0.000033 0.530251
375.575989 103.445030 0.000021 0.538552
373.027588 106.400108 0.000014 0.546014
371.400665 108.286682 0.000010 0.529259
370.269867 109.597923 0.000007 0.566201
369.436737 110.563995 0.000005 0.571481
382.579956 95.020424 9.098715 0.506203
382.579956 95.020424 8.120782 0.528038
382.579956 95.020432 7.156576 0.725155
382.579956 95.020432 6.203789 0.860655
382.579956 95.020424 5.260215 0.770642
382.579956 95.020424 4.323719 0.784924
382.579956 95.020432 3.392238 0.740856
382.579956 95.020432 2.463748 0.749004
382.579956 95.020432 1.536252 0.708263
382.579956 95.020432 0.607762 0.756756
380.022278 98.028473 0.000033 0.538689
375.483826 103.366089 0.000021 0.529625
372.956116 106.338882 0.000014 0.532586
371.342377 108.236771 0.000010 0.559182
370.220764 109.555878 0.000006 0.549157
369.394409 110.527740 0.000004 0.554665
382.467804 94.846237 9.113932 0.801648
382.467804 94.846237 8.133901 0.739086
382.467804 94.846245 7.167628 0.527291
382.467804 94.846245 6.212801 0.854719
382.467804 94.846237 5.267203 0.606394
382.467804 94.846237 4.328700 0.355612
382.467804 94.846245 3.395222 0.540978
382.467804 94.846245 2.464742 0.791485
382.467804 94.846245 1.535258 0.606592
382.467804 94.846245 0.604778 0.467094
379.892151 97.918625 0.000033 0.531380
375.391083 103.287788 0.000021 0.519646
372.884186 106.278160 0.000014 0.531914
371.283752 108.187263 0.000010 0.530358
370.171356 109.514175 0.000007 0.525200
369.351807 110.491783 0.000005 0.540780
382.527039 94.463379 9.197128 0.678431
382.355164 94.671295 8.147377 0.776471
382.355164 94.671303 7.178983 0.523217
382.355164 94.671303 6.222058 0.702022
382.527008 94.463379 5.305413 0.678431
382.527039 94.463379 4.355934 0.678431
382.355164 94.671303 3.398288 0.580362
382.355164 94.671303 2.465764 0.750881
382.355164 94.671303 1.534237 0.570001
382.355164 94.671303 0.601712 0.552178
379.761292 97.809685 0.000033 0.543435
375.297791 103.210144 0.000021 0.520088
372.811829 106.217941 0.000014 0.560220
371.224762 108.138176 0.000010 0.541299
370.121674 109.472816 0.000007 0.549035
369.308990 110.456116 0.000005 0.542260
382.412811 94.285988 9.213329 0.678431
382.242035 94.495575 8.161215 0.770428
382.242035 94.495575 7.190639 0.536583
382.242035 94.495575 6.231561 0.696696
382.412811 94.285988 5.312854 0.678431
382.412811 94.285988 4.361237 0.678431
382.242035 94.495575 3.401434 0.558785
382.242035 94.495575 2.466811 0.751339
382.242035 94.495575 1.533189 0.633265
382.242035 94.495575 0.598565 0.585367
379.629669 97.701660 0.000032 0.541527
375.203979 103.133148 0.000021 0.531670
372.739075 106.158226 0.000014 0.551736
371.165436 108.089493 0.000010 0.517098
370.071716 109.431801 0.000007 0.513420
369.265900 110.420753 0.000004 0.576074
382.298096 94.107796 9.229954 0.678431
382.128387 94.319054 8.175416 0.494972
382.128387 94.319046 7.202605 0.561624
382.128387 94.319054 6.241315 0.597147
382.298096 94.107788 5.320490 0.678431
382.298096 94.107788 4.366680 0.678431
382.128387 94.319061 3.404665 0.386374
382.128387 94.319061 2.467888 0.605234
382.128387 94.319061 1.532113 0.549020
382.128387 94.319061 0.595335 0.542245
379.497284 97.594559 0.000032 0.535424
375.109619 103.056808 0.000020 0.534508
372.665894 106.099030 0.000014 0.516793
371.105774 108.041229 0.000010 0.540993
370.021454 109.391144 0.000007 0.564065
369.222565 110.385696 0.000005 0.513176
382.182831 93.928764 9.247014 0.678431
382.014191 94.141708 8.189985 0.562921
382.014191 94.141708 7.214879 0.703487
382.014191 94.141708 6.251319 0.330327
382.182831 93.928757 5.328324 0.678431
382.182831 93.928764 4.372263 0.678431
382.014191 94.141708 3.407979 0.693843
382.014191 94.141708 2.468991 0.577844
382.014191 94.141708 1.531009 0.477073
382.014191 94.141708 0.592021 0.445228
379.364136 97.488380 0.000032 0.543481
375.014740 102.981133 0.000020 0.543557
372.592316 106.040337 0.000014 0.539178
371.045807 107.993385 0.000010 0.560937
369.970917 109.350830 0.000007 0.522698
369.178986 110.350945 0.000005 0.506142
382.066986 93.748878 9.264505 0.678431
381.899475 93.963501 8.204927 0.416876
381.899475 93.963501 7.227466 0.690562
381.899475 93.963501 6.261583 0.745876
382.067017 93.748878 5.336358 0.678431
382.067017 93.748878 4.377989 0.678431
381.899475 93.963509 3.411378 0.722789
381.899475 93.963509 2.470124 0.643900
381.899475 93.963509 1.529877 0.547265
381.899475 93.963509 0.588622 0.775006
379.230286 97.383133 0.000032 0.542626
374.919312 102.906120 0.000021 0.541268
372.518311 105.982162 0.000014 0.533761
370.985474 107.945953 0.000010 0.543389
369.920074 109.310875 0.000007 0.479850
369.135162 110.316490 0.000005 0.531258
381.892731 93.643372 9.258656 0.300984
381.784180 93.784439 8.220243 0.709072
381.784180 93.784439 7.240370 0.654902
381.784180 93.784447 6.272102 0.528008
381.892731 93.643372 5.333670 0.323430
381.892731 93.643372 4.376075 0.342016
381.784180 93.784439 3.414861 0.602289
381.784180 93.784447 2.471284 0.528740
381.784180 93.784447 1.528717 0.386694
381.784180 93.784439 0.585138 0.651453
379.095703 97.278824 0.000032 0.528466
374.823395 102.831779 0.000021 0.532265
372.443909 105.924500 0.000013 0.547524
370.924805 107.898956 0.000010 0.575677
369.868988 109.271278 0.000007 0.535515
369.091095 110.282341 0.000004 0.544991
381.668335 93.604477 9.232275 0.442939
381.668304 93.604477 8.235941 0.418906
381.668304 93.604477 7.253594 0.498360
381.668304 93.604477 6.282885 0.509483
381.668335 93.604477 5.321557 0.672190
381.668304 93.604477 4.367440 0.537392
381.668304 93.604477 3.418432 0.615976
381.668304 93.604485 2.472473 0.684352
381.668304 93.604477 1.527527 0.652842
381.668304 93.604477 0.581567 0.776471
378.960358 97.175461 0.000032 0.541222
374.726929 102.758095 0.000020 0.543648
372.369110 105.867363 0.000014 0.547387
370.863831 107.852371 0.000010 0.515312
369.817596 109.232033 0.000007 0.566491
369.046783 110.248505 0.000004 0.564385
381.551880 93.423592 9.250929 0.582422
381.551849 93.423599 8.252026 0.505318
381.551849 93.423599 7.267145 0.415137
381.551849 93.423599 6.293930 0.618296
381.551880 93.423592 5.330123 0.695033
381.551880 93.423592 4.373546 0.561486
381.551849 93.423599 3.422090 0.465812
381.551849 93.423599 2.473692 0.755215
381.551849 93.423599 1.526308 0.587076
381.551849 93.423599 0.577909 0.364706
378.824310 97.073044 0.000032 0.525093
374.629974 102.685104 0.000020 0.544396
372.293915 105.810753 0.000013 0.540490
370.802521 107.806221 0.000009 0.542855
369.765961 109.193153 0.000007 0.528252
369.002258 110.214981 0.000004 0.550134
381.434784 93.241768 9.270035 0.690806
381.434814 93.241768 8.268497 0.611444
381.434784 93.241776 7.281022 0.787549
381.434784 93.241776 6.305243 0.597665
381.434814 93.241760 5.338897 0.864134
381.434814 93.241768 4.379800 0.591501
381.434784 93.241776 3.425837 0.490074
381.434784 93.241776 2.474940 0.742123
381.434784 93.241776 1.525060 0.576837
381.434784 93.241776 0.574162 0.467475
378.687561 96.971581 0.000032 0.550484
374.532501 102.612785 0.000020 0.534554
372.218323 105.754662 0.000013 0.554360
370.740906 107.760498 0.000010 0.551095
369.714050 109.154633 0.000006 0.523415
368.957489 110.181770 0.000005 0.541299
381.317108 93.058975 9.289595 0.601038
381.317108 93.058975 8.285364 0.582498
381.317108 93.058975 7.295231 0.594141
381.317108 93.058983 6.316827 0.608621
381.317108 93.058975 5.347880 0.619501
381.317108 93.058975 4.386203 0.678431
381.317108 93.058983 3.429674 0.533578
381.317108 93.058983 2.476218 0.746822
381.317108 93.058975 1.523782 0.634470
381.317108 93.058983 0.570325 0.580392
378.550110 96.871078 0.000032 0.542336
374.434540 102.541145 0.000020 0.537942
372.142334 105.699104 0.000014 0.552163
370.678955 107.715202 0.000010 0.570596
369.661865 109.116470 0.000007 0.570153
368.912506 110.148865 0.000005 0.538018
381.198792 92.875183 9.309620 0.531533
381.198792 92.875175 8.302631 0.543313
381.198761 92.875191 7.309776 0.780774
381.198792 92.875191 6.328685 0.583520
381.198792 92.875175 5.357078 0.506950
381.198792 92.875183 4.392756 0.589456
381.198761 92.875198 3.433601 0.398291
381.198761 92.875191 2.477526 0.601831
381.198761 92.875198 1.522475 0.548760
381.198761 92.875198 0.566399 0.610056
378.411957 96.771530 0.000032 0.557473
374.336060 102.470192 0.000020 0.530358
372.065979 105.644081 0.000014 0.546715
370.616699 107.670349 0.000010 0.555154
369.609406 109.078682 0.000006 0.562722
368.867279 110.116280 0.000005 0.522194
381.079803 92.690369 9.330110 0.649958
381.079803 92.690369 8.320299 0.584924
381.079773 92.690384 7.324662 0.575540
381.079773 92.690384 6.340820 0.524605
381.079803 92.690369 5.366488 0.771664
381.079803 92.690369 4.399466 0.800549
381.079773 92.690384 3.437619 0.591913
381.079773 92.690384 2.478864 0.574075
381.079773 92.690384 1.521136 0.477333
381.079773 92.690384 0.562379 0.679133
378.273132 96.672943 0.000031 0.547585
374.237091 102.399933 0.000020 0.526589
371.989227 105.589584 0.000014 0.541695
370.554138 107.625923 0.000010 0.518669
369.556702 109.041252 0.000006 0.549676
368.821808 110.084015 0.000005 0.522393
381.118744 92.276062 9.420743 0.678431
381.118744 92.276062 8.398445 0.652689
380.960114 92.504517 7.339893 0.544610
380.960114 92.504517 6.353237 0.615808
381.118744 92.276062 5.408113 0.678431
381.118744 92.276062 4.429133 0.678431
380.960114 92.504517 3.441732 0.762173
380.960114 92.504517 2.480234 0.635782
380.960114 92.504517 1.519766 0.545937
380.960114 92.504517 0.558267 0.652140
378.133575 96.575340 0.000032 0.537179
374.137634 102.330360 0.000020 0.535271
371.912079 105.535629 0.000013 0.558221
370.491241 107.581932 0.000009 0.511742
369.503723 109.004196 0.000006 0.555184
368.776154 110.052063 0.000004 0.509270
380.997253 92.087364 9.442392 0.678431
380.997253 92.087364 8.417112 0.667308
380.839783 92.317581 7.355474 0.609094
380.839752 92.317589 6.365938 0.833173
380.997253 92.087364 5.418055 0.678431
380.997253 92.087364 4.436220 0.678431
380.839783 92.317581 3.445939 0.756741
380.839783 92.317581 2.481635 0.697475
380.839783 92.317581 1.518365 0.475608
380.839752 92.317581 0.554061 0.579156
377.993378 96.478714 0.000032 0.542351
374.037720 102.261490 0.000020 0.545266
371.834595 105.482224 0.000013 0.532830
370.428070 107.538391 0.000009 0.525292
369.450500 108.967514 0.000007 0.565621
368.730255 110.020432 0.000005 0.513787
380.875031 91.897545 9.464535 0.678431
380.875031 91.897545 8.436204 0.678431
380.718689 92.129547 7.371407 0.532143
380.718689 92.129539 6.378929 0.672435
380.875031 91.897545 5.428225 0.678431
380.875031 91.897537 4.443468 0.678431
380.718689 92.129547 3.450241 0.553567
380.718689 92.129547 2.483068 0.735882
380.718689 92.129547 1.516932 0.716197
380.718689 92.129547 0.549759 0.647486
377.852478 96.383064 0.000031 0.530312
373.937286 102.193314 0.000020 0.540536
371.756714 105.429344 0.000013 0.499733
370.364594 107.495285 0.000009 0.570871
369.397003 108.931198 0.000006 0.518730
368.684143 109.989120 0.000004 0.552148
380.752075 91.706589 9.487173 0.678431
380.752075 91.706589 8.455725 0.678431
380.596924 91.940376 7.387700 0.786038
380.596893 91.940376 6.392209 0.502617
380.752075 91.706589 5.438622 0.678431
380.752075 91.706581 4.450880 0.678431
380.596893 91.940376 3.454640 0.476616
380.596893 91.940376 2.484533 0.761624
380.596924 91.940376 1.515466 0.586480
380.596893 91.940376 0.545360 0.243381
377.710938 96.288399 0.000031 0.544137
373.836395 102.125847 0.000020 0.539773
371.678467 105.377014 0.000013 0.544411
370.300812 107.452629 0.000009 0.552987
369.343262 108.895264 0.000006 0.572473
368.637787 109.958130 0.000005 0.553063
380.574829 91.596382 9.485800 0.160784
380.574829 91.596390 8.454538 0.115602
380.474365 91.750038 7.404356 0.484260
380.474365 91.750046 6.405787 0.409812
380.574829 91.596375 5.437992 0.160784
380.574829 91.596375 4.450429 0.110780
380.474365 91.750046 3.459136 0.714611
380.474365 91.750046 2.486032 0.651804
380.474365 91.750046 1.513969 0.549050
380.474365 91.750046 0.540864 0.422065
377.568756 96.194725 0.000032 0.540017
373.735046 102.059074 0.000020 0.527733
371.599854 105.325241 0.000013 0.531487
370.236725 107.410416 0.000009 0.527443
369.289276 108.859695 0.000006 0.492897
368.591248 109.927467 0.000004 0.524529
380.351074 91.558487 9.463261 0.394873
380.351074 91.558487 8.435104 0.543633
380.351044 91.558517 7.421378 0.733425
380.351044 91.558525 6.419666 0.487907
380.351074 91.558502 5.427638 0.556985
380.351074 91.558495 4.443051 0.395071
380.351044 91.558517 3.463733 0.717891
380.351044 91.558525 2.487562 0.712123
380.351044 91.558517 1.512438 0.629252
380.351074 91.558517 0.536267 0.553338
377.425903 96.102036 0.000031 0.541100
373.633240 101.993019 0.000019 0.543694
371.520905 105.274010 0.000013 0.558328
370.172333 107.368652 0.000009 0.564172
369.235046 108.824509 0.000006 0.576989
368.544495 109.897125 0.000004 0.548119
380.226990 91.365761 9.487206 0.551369
380.226990 91.365768 8.455752 0.640284
380.226959 91.365784 7.438776 0.463478
380.226959 91.365784 6.433849 0.821500
380.226990 91.365768 5.438638 0.532006
380.226990 91.365768 4.450889 0.437354
380.226959 91.365784 3.468430 0.654536
380.226959 91.365784 2.489127 0.498634
380.226959 91.365784 1.510873 0.422004
380.226959 91.365784 0.531570 0.679606
377.282410 96.010368 0.000031 0.523873
373.530945 101.927673 0.000020 0.549432
371.441559 105.223335 0.000013 0.548318
370.107666 107.327339 0.000009 0.554498
369.180573 108.789711 0.000006 0.547204
368.497498 109.867119 0.000004 0.554192
380.102081 91.171783 9.511675 0.674510
380.102081 91.171776 8.476851 0.674784
380.102051 91.171783 7.456552 0.481086
380.102051 91.171783 6.448340 0.498192
380.102081 91.171776 5.449875 0.638422
380.102081 91.171776 4.458899 0.523003
380.102051 91.171791 3.473229 0.676051
380.102051 91.171783 2.490725 0.356802
380.102051 91.171791 1.509274 0.507698
380.102051 91.171791 0.526771 0.688411
377.138275 95.919693 0.000031 0.546319
373.428223 101.863045 0.000019 0.536370
371.361908 105.173210 0.000013 0.552926
370.042725 107.286476 0.000009 0.535943
369.125854 108.755280 0.000006 0.562203
368.450317 109.837433 0.000004 0.539452
379.976349 90.976517 9.536673 0.556619
379.976349 90.976517 8.498405 0.491417
379.976349 90.976517 7.474712 0.665705
379.976349 90.976517 6.463145 0.560388
379.976349 90.976517 5.461356 0.504051
379.976349 90.976517 4.467082 0.628336
379.976349 90.976524 3.478132 0.626413
379.976349 90.976517 2.492359 0.473350
379.976349 90.976517 1.507641 0.582818
379.976349 90.976517 0.521867 0.555734
376.993500 95.830025 0.000031 0.540963
373.325043 101.799133 0.000019 0.528054
371.281891 105.123650 0.000013 0.561563
369.977478 107.246071 0.000009 0.542885
369.070892 108.721245 0.000006 0.543450
368.402954 109.808083 0.000005 0.579538
379.849762 90.779938 9.562210 0.590372
379.849762 90.779938 8.520422 0.748119
379.849762 90.779930 7.493265 0.385901
379.849792 90.779930 6.478270 0.369390
379.849762 90.779938 5.473084 0.743343
379.849762 90.779938 4.475441 0.594034
379.849762 90.779938 3.483140 0.631754
379.849762 90.779930 2.494027 0.381292
379.849762 90.779930 1.505973 0.513130
379.849762 90.779930 0.516858 0.646281
376.848114 95.741371 0.000031 0.541192
373.221405 101.735954 0.000020 0.523873
371.201508 105.074638 0.000013 0.521737
369.911987 107.206116 0.000009 0.576135
369.015686 108.687584 0.000006 0.503502
368.355347 109.779068 0.000004 0.554025
379.722321 90.582008 9.588290 0.549020
379.722321 90.582008 8.542909 0.441718
379.722351 90.582001 7.512209 0.417258
379.722351 90.582001 6.493713 0.521737
379.722351 90.582001 5.485063 0.782940
379.722351 90.582001 4.483978 0.580392
379.722351 90.582001 3.488256 0.646159
379.722351 90.582001 2.495731 0.407507
379.722351 90.582001 1.504269 0.513466
379.722351 90.582001 0.511744 0.732357
376.702118 95.653732 0.000031 0.541268
373.117340 101.673492 0.000020 0.543374
371.120819 105.026199 0.000013 0.551690
369.846191 107.166626 0.000009 0.524269
368.960266 108.654312 0.000006 0.539727
368.307556 109.750381 0.000005 0.548699
379.739685 90.134125 9.687094 0.678431
379.739685 90.134125 8.628101 0.678431
379.594025 90.382690 7.531556 0.484871
379.594025 90.382690 6.509487 0.542657
379.739685 90.134125 5.530439 0.678431
379.739685 90.134125 4.516322 0.678431
379.593994 90.382690 3.493479 0.550561
379.594025 90.382690 2.497471 0.442802
379.594025 90.382690 1.502529 0.538506
379.594025 90.382690 0.506520 0.676722
376.555511 95.567116 0.000030 0.525017
373.012848 101.611748 0.000019 0.544152
371.039764 104.978317 0.000013 0.534142
369.780121 107.127602 0.000009 0.544884
368.904602 108.621429 0.000006 0.507561
368.259552 109.722023 0.000004 0.587457
379.609222 89.931496 9.714548 0.678431
379.609253 89.931488 8.651775 0.678431
379.464783 90.181961 7.551311 0.585931
379.464783 90.181961 6.525591 0.609552
379.609222 89.931496 5.543048 0.678431
379.609222 89.931496 4.525308 0.678431
379.464783 90.181961 3.498814 0.534813
379.464783 90.181961 2.499247 0.509712
379.464783 90.181961 1.500753 0.644968
379.464783 90.181961 0.501186 0.943679
376.408295 95.481537 0.000031 0.538125
372.907928 101.550743 0.000019 0.539010
370.958405 104.931007 0.000013 0.535531
369.713776 107.089027 0.000009 0.555322
368.848724 108.588936 0.000006 0.496605
368.211365 109.694008 0.000004 0.539986
379.477844 89.727402 9.742579 0.678431
379.477844 89.727394 8.675943 0.678431
379.334595 89.979790 7.571482 0.582757
379.334595 89.979790 6.542034 0.518822
379.477844 89.727402 5.555921 0.678431
379.477844 89.727402 4.534483 0.678431
379.334595 89.979790 3.504259 0.612161
379.334595 89.979790 2.501062 0.607858
379.334595 89.979790 1.498939 0.491249
379.334595 89.979790 0.495740 0.754116
376.260498 95.396973 0.000031 0.524239
372.802582 101.490471 0.000019 0.564828
370.876678 104.884270 0.000013 0.533928
369.647156 107.050926 0.000009 0.556390
368.792603 108.556839 0.000006 0.548592
368.162994 109.666328 0.000004 0.554574
379.345459 89.521812 9.771191 0.678431
379.345459 89.521805 8.700617 0.678431
379.203491 89.776123 7.592072 0.752941
379.203491 89.776131 6.558819 0.575311
379.345459 89.521820 5.569061 0.678431
379.345459 89.521820 4.543850 0.678431
379.203491 89.776123 3.509819 0.470069
379.203491 89.776131 2.502913 0.320943
379.203491 89.776131 1.497087 0.479026
379.203491 89.776131 0.490181 0.807843
376.112122 95.313438 0.000030 0.542672
372.696808 101.430939 0.000019 0.545815
370.794678 104.838097 0.000013 0.503151
369.580292 107.013283 0.000008 0.520699
368.736267 108.525124 0.000006 0.535882
368.114410 109.638985 0.000004 0.506188
379.140900 89.444366 9.763338 0.770916
379.140900 89.444366 8.693844 0.460166
379.071381 89.570946 7.613088 0.862379
379.071381 89.570946 6.575955 0.764782
379.140900 89.444366 5.565456 0.480262
379.140900 89.444366 4.541279 0.503334
379.071381 89.570946 3.515493 0.422492
379.071381 89.570946 2.504803 0.732250
379.071381 89.570946 1.495196 0.555856
379.071381 89.570946 0.484507 0.682048
375.963135 95.230957 0.000030 0.531991
372.590637 101.372147 0.000019 0.540398
370.712311 104.792503 0.000013 0.557046
369.513153 106.976112 0.000009 0.541970
368.679718 108.493813 0.000006 0.532555
368.065643 109.611984 0.000004 0.543526
378.938263 89.364220 9.756695 0.570214
378.938263 89.364220 8.688116 0.684962
378.938293 89.364212 7.634541 0.667643
378.938293 89.364212 6.593443 0.701518
378.938263 89.364220 5.562406 0.676310
378.938263 89.364220 4.539105 0.555917
378.938293 89.364212 3.521285 0.783291
378.938293 89.364212 2.506733 0.353780
378.938293 89.364212 1.493267 0.544976
378.938293 89.364212 0.478714 0.665324
375.813599 95.149513 0.000030 0.540627
372.484039 101.314102 0.000019 0.533227
370.629669 104.747482 0.000013 0.516365
369.445770 106.939407 0.000009 0.542931
368.622925 108.462891 0.000006 0.504311
368.016693 109.585320 0.000004 0.579416
378.804138 89.155884 9.786835 0.441123
378.804138 89.155884 8.714103 0.501060
378.804138 89.155869 7.656436 0.459327
378.804138 89.155884 6.611290 0.380240
378.804138 89.155884 5.576247 0.557336
378.804138 89.155884 4.548971 0.549218
378.804138 89.155884 3.527196 0.434455
378.804138 89.155869 2.508703 0.353948
378.804138 89.155876 1.491298 0.425696
378.804138 89.155876 0.472803 0.735515
375.663483 95.069122 0.000030 0.553124
372.377075 101.256798 0.000019 0.535454
370.546692 104.703041 0.000013 0.549081
369.378143 106.903183 0.000009 0.533730
368.565948 108.432365 0.000006 0.598627
367.967560 109.559006 0.000004 0.518242
378.668945 88.945915 9.817592 0.681453
378.668945 88.945908 8.740623 0.410300
378.668976 88.945900 7.678778 0.383581
378.668945 88.945908 6.629504 0.499443
378.668945 88.945915 5.590373 0.749218
378.668945 88.945915 4.559039 0.618921
378.668945 88.945908 3.533227 0.737011
378.668976 88.945908 2.510711 0.397086
378.668945 88.945908 1.489289 0.538933
378.668945 88.945908 0.466772 0.680766
375.512817 94.989769 0.000030 0.537896
372.269684 101.200241 0.000019 0.539849
370.463409 104.659172 0.000012 0.549294
369.310242 106.867424 0.000008 0.517342
368.508759 108.402245 0.000006 0.555032
367.918243 109.533028 0.000004 0.566751
378.532684 88.734268 9.848975 0.464347
378.532684 88.734268 8.767683 0.580118
378.532684 88.734253 7.701573 0.450843
378.532684 88.734253 6.648090 0.488411
378.532684 88.734268 5.604786 0.601083
378.532684 88.734268 4.569312 0.748257
378.532684 88.734261 3.539383 0.539513
378.532684 88.734253 2.512762 0.454978
378.532684 88.734261 1.487238 0.639078
378.532684 88.734261 0.460616 0.569268
375.361603 94.911469 0.000030 0.524590
372.161896 101.144432 0.000019 0.523461
370.379822 104.615891 0.000013 0.528237
369.242096 106.832138 0.000009 0.567895
368.451324 108.372513 0.000006 0.541802
367.868744 109.507401 0.000004 0.580453
378.395325 88.520905 9.880999 0.663127
378.395325 88.520905 8.795296 0.520485
378.395325 88.520889 7.724837 0.431739
378.395325 88.520889 6.667054 0.534722
378.395325 88.520905 5.619493 0.485267
378.395325 88.520905 4.579794 0.722423
378.395325 88.520889 3.545664 0.794171
378.395325 88.520897 2.514853 0.626398
378.395325 88.520897 1.485147 0.429709
378.395325 88.520889 0.454336 0.509453
375.209839 94.834229 0.000030 0.534051
372.053741 101.089378 0.000018 0.542275
370.295929 104.573196 0.000013 0.553063
369.173706 106.797333 0.000008 0.525429
368.393738 108.343193 0.000006 0.560220
367.819061 109.482117 0.000004 0.509712
378.389832 88.037521 9.988674 0.678431
378.389832 88.037514 8.888138 0.678431
378.256836 88.305771 7.748570 0.463661
378.256836 88.305771 6.686403 0.806394
378.389832 88.037521 5.668945 0.678431
378.389832 88.037514 4.615043 0.678431
378.256805 88.305771 3.552072 0.622415
378.256836 88.305771 2.516988 0.380041
378.256805 88.305779 1.483012 0.479225
378.256836 88.305771 0.447928 0.656291
375.057556 94.758049 0.000029 0.527260
371.945190 101.035080 0.000018 0.549020
370.211731 104.531090 0.000013 0.519005
369.105072 106.763000 0.000008 0.526329
368.335907 108.314270 0.000006 0.554284
367.769226 109.457176 0.000004 0.518273
378.248840 87.818542 10.022326 0.678431
378.248840 87.818542 8.917150 0.678431
378.117157 88.088844 7.772783 0.561090
378.117157 88.088852 6.706143 0.500648
378.248840 87.818542 5.684400 0.678431
378.248840 87.818542 4.626058 0.678431
378.117157 88.088844 3.558610 0.586709
378.117157 88.088852 2.519166 0.505486
378.117157 88.088852 1.480835 0.468956
378.117157 88.088852 0.441390 0.499580
374.904724 94.682938 0.000029 0.554726
371.836243 100.981552 0.000019 0.538018
370.127258 104.489571 0.000012 0.567697
369.036224 106.729156 0.000009 0.488685
368.277893 108.285759 0.000006 0.491920
367.719177 109.432594 0.000004 0.560967
378.106659 87.597687 10.056656 0.678431
378.106659 87.597687 8.946753 0.678431
377.976318 87.870079 7.797487 0.531670
377.976318 87.870079 6.726281 0.696834
378.106659 87.597702 5.700166 0.678431
378.106659 87.597687 4.637295 0.678431
377.976318 87.870087 3.565279 0.645579
377.976318 87.870087 2.521387 0.517647
377.976318 87.870087 1.478613 0.404166
377.976318 87.870079 0.434720 0.554101
374.751404 94.608894 0.000029 0.549096
371.726959 100.928780 0.000019 0.553689
370.042511 104.448639 0.000012 0.511757
368.967102 106.695786 0.000008 0.546120
368.219666 108.257645 0.000006 0.498665
367.668976 109.408356 0.000004 0.553338
377.963257 87.374939 10.091675 0.462867
377.963257 87.374939 8.976948 0.552560
377.834229 87.649414 7.822688 0.657130
377.834229 87.649414 6.746825 0.565393
377.963226 87.374947 5.716249 0.552392
377.963257 87.374947 4.648758 0.569436
377.834229 87.649422 3.572083 0.457008
377.834229 87.649422 2.523653 0.635828
377.834229 87.649422 1.476347 0.427649
377.834229 87.649422 0.427917 0.730098
374.597534 94.535927 0.000030 0.533852
371.617310 100.876762 0.000018 0.536736
369.957458 104.408302 0.000012 0.546334
368.897766 106.662903 0.000008 0.537591
368.161255 108.229942 0.000005 0.528908
367.618622 109.384468 0.000004 0.550851
377.706360 87.393364 10.060325 0.616144
377.706360 87.393356 8.949917 0.747143
377.690918 87.426819 7.848393 0.775097
377.690918 87.426819 6.767781 0.783368
377.706360 87.393356 5.701853 0.790066
377.706360 87.393356 4.638496 0.553185
377.690918 87.426819 3.579023 0.586496
377.690918 87.426819 2.525966 0.580636
377.690918 87.426819 1.474035 0.423285
377.690918 87.426826 0.420976 0.463813
374.443176 94.464027 0.000029 0.537408
371.507294 100.825516 0.000018 0.524666
369.872131 104.368568 0.000012 0.547662
368.828217 106.630508 0.000008 0.554818
368.102661 108.202652 0.000006 0.509056
367.568085 109.360931 0.000004 0.506371
377.546326 87.202225 10.087196 0.621927
377.546326 87.202217 8.973085 0.578836
377.546326 87.202240 7.874614 0.471809
377.546326 87.202240 6.789157 0.605707
377.546326 87.202209 5.714193 0.444709
377.546326 87.202209 4.647293 0.535943
377.546326 87.202232 3.586103 0.707530
377.546326 87.202240 2.528324 0.868101
377.546326 87.202240 1.471676 0.572015
377.546326 87.202240 0.413896 0.583459
374.288330 94.393211 0.000029 0.533745
371.396912 100.775047 0.000018 0.550072
369.786530 104.329422 0.000012 0.575875
368.758423 106.598595 0.000009 0.541573
368.043854 108.175766 0.000006 0.513054
367.517395 109.337753 0.000004 0.526497
377.400421 86.975601 10.124016 0.680003
377.400421 86.975601 9.004832 0.429694
377.400421 86.975616 7.901362 0.555642
377.400421 86.975616 6.810963 0.530144
377.400421 86.975601 5.731105 0.715999
377.400421 86.975609 4.659345 0.462745
377.400421 86.975616 3.593324 0.652110
377.400421 86.975624 2.530729 0.703288
377.400421 86.975624 1.469271 0.524330
377.400421 86.975624 0.406675 0.584131
374.132965 94.323471 0.000029 0.539635
371.286163 100.725342 0.000018 0.549310
369.700653 104.290871 0.000012 0.543282
368.688416 106.567169 0.000008 0.579095
367.984894 108.149292 0.000006 0.497078
367.466553 109.314926 0.000004 0.487480
377.253174 86.746902 10.161573 0.757916
377.253174 86.746902 9.037216 0.599985
377.253174 86.746925 7.928643 0.740902
377.253174 86.746918 6.833204 0.818875
377.253174 86.746902 5.748354 0.515297
377.253174 86.746902 4.671639 0.587030
377.253174 86.746918 3.600691 0.650874
377.253174 86.746918 2.533183 0.853788
377.253174 86.746918 1.466818 0.554665
377.253174 86.746925 0.399309 0.683970
373.977142 94.254829 0.000028 0.539055
371.175110 100.676414 0.000018 0.529030
369.614502 104.252930 0.000012 0.528862
368.618195 106.536240 0.000008 0.506508
367.925720 108.123230 0.000006 0.517845
367.415527 109.292458 0.000004 0.521889
377.104553 86.516068 10.199881 0.751019
377.104553 86.516068 9.070248 0.297551
377.104553 86.516083 7.956470 0.529717
377.104553 86.516083 6.855889 0.730678
377.104553 86.516075 5.765945 0.512459
377.104553 86.516068 4.684179 0.532448
377.104553 86.516083 3.608203 0.535119
377.104553 86.516083 2.535685 0.542260
377.104553 86.516083 1.464315 0.439963
377.104553 86.516083 0.391796 0.611337
373.820831 94.187271 0.000028 0.536797
371.063690 100.628265 0.000018 0.558770
369.528107 104.215584 0.000012 0.552666
368.547760 106.505791 0.000008 0.545342
367.866394 108.097580 0.000005 0.529534
367.364380 109.270340 0.000004 0.490623
377.075195 85.995644 10.317028 0.678431
377.075195 85.995636 9.171259 0.678431
376.954529 86.283051 7.984854 0.704997
376.954529 86.283058 6.879027 0.633738
377.075195 85.995636 5.819749 0.678431
377.075195 85.995636 4.722527 0.678431
377.033203 86.095612 3.625854 0.244266
376.954529 86.283066 2.538237 0.678233
376.954529 86.283066 1.461762 0.709804
376.954529 86.283051 0.384133 0.518715
373.664063 94.120804 0.000029 0.531762
370.951965 100.580887 0.000018 0.547173
369.441437 104.178848 0.000012 0.531380
368.477112 106.475838 0.000008 0.528298
367.806854 108.072350 0.000005 0.559915
367.313049 109.248581 0.000004 0.533745
376.922272 85.758148 10.357258 0.678431
376.922272 85.758148 9.205942 0.678431
376.803070 86.047783 8.013803 0.683345
376.803040 86.047783 6.902627 0.630533
376.922272 85.758141 5.838226 0.678431
376.922272 85.758141 4.735695 0.678431
376.880798 85.858887 3.633718 0.229282
376.803040 86.047791 2.540841 0.506844
376.803040 86.047791 1.459159 0.494118
376.803040 86.047791 0.376317 0.512093
373.506805 94.055443 0.000028 0.530022
370.839874 100.534302 0.000018 0.535088
369.354523 104.142715 0.000012 0.558419
368.406250 106.446381 0.000008 0.513787
367.747162 108.047531 0.000006 0.521675
367.261566 109.227188 0.000004 0.548791
376.767883 85.518333 10.398290 0.678431
376.767883 85.518333 9.241322 0.678431
376.650085 85.810219 8.043327 0.504997
376.650085 85.810219 6.926699 0.706493
376.767883 85.518326 5.857069 0.678431
376.767883 85.518333 4.749126 0.678431
376.726898 85.619843 3.641739 0.176654
376.650085 85.810219 2.543497 0.610346
376.650085 85.810226 1.456504 0.458579
376.650085 85.810226 0.368345 0.506264
373.349121 93.991173 0.000028 0.542748
370.727478 100.488495 0.000018 0.533669
