# This PCD file was generated using the MATLABÂ® pcwrite function
# from Computer Vision ToolboxÂ®.
# .PCD v.7 - Point Cloud Data file format
VERSION .7
FIELDS x y z intensity
SIZE 4 4 4 4
TYPE F F F F
COUNT 1 1 1 1
WIDTH 1190
HEIGHT 1
VIEWPOINT 0 0 0 1 0 0 0
POINTS 1190
DATA ascii
406.657043 -92.427422 0.838828 0.731548
406.657013 -92.427422 0.575649 0.733547
406.657043 -92.427422 0.309317 0.717968
406.657013 -92.427422 0.039191 0.725124
406.600098 -92.427422 3.964758 0.720104
406.600098 -92.427422 3.694088 0.656580
406.600098 -92.427422 3.427220 0.704356
406.600098 -92.427422 3.163511 0.692531
406.600098 -92.427422 2.902351 0.699016
406.600098 -92.427422 2.643151 0.687984
406.600098 -92.427422 2.385339 0.692424
406.600098 -92.427422 2.128354 0.696590
406.600098 -92.427422 1.871645 0.701259
406.600098 -92.427422 1.614661 0.687495
406.600098 -92.427422 1.356849 0.663890
406.600098 -92.427422 1.097649 0.714168
406.600098 -92.427422 0.836489 0.719982
406.600098 -92.427422 0.572780 0.690028
406.600098 -92.427422 0.305912 0.685115
406.600098 -92.427422 0.035242 0.686931
406.542938 -92.427422 3.968821 0.760616
406.542938 -92.427422 3.697591 0.741817
406.542938 -92.427422 3.430171 0.743343
406.542938 -92.427422 3.165916 0.761563
406.542938 -92.427422 2.904217 0.758267
406.542938 -92.427422 2.644480 0.760616
406.542938 -92.427422 2.386135 0.764157
406.542938 -92.427422 2.128620 0.754620
406.542938 -92.427422 1.871380 0.759106
406.542938 -92.427422 1.613864 0.764706
406.542938 -92.427422 1.355519 0.764309
406.542938 -92.427422 1.095783 0.746624
406.542938 -92.427422 0.834084 0.763256
406.542938 -92.427422 0.569830 0.764706
406.542938 -92.427422 0.302410 0.764218
406.542938 -92.427422 0.031180 0.756390
406.485535 -92.427422 3.972995 0.764706
406.485535 -92.427422 3.701191 0.755474
406.485535 -92.427422 3.433203 0.752941
406.485535 -92.427422 3.168388 0.764706
406.485535 -92.427422 2.906134 0.759518
406.485535 -92.427422 2.645847 0.753628
406.485535 -92.427422 2.386954 0.749401
406.485535 -92.427422 2.128893 0.741176
406.485535 -92.427422 1.871107 0.742336
406.485535 -92.427422 1.613046 0.764706
406.485535 -92.427422 1.354152 0.753017
406.485535 -92.427422 1.093866 0.749722
406.485535 -92.427422 0.831612 0.758404
406.485535 -92.427422 0.566798 0.764706
406.485535 -92.427422 0.298809 0.751751
406.485535 -92.427422 0.027005 0.760159
406.427887 -92.427422 3.977284 0.757900
406.427887 -92.427422 3.704889 0.730434
406.427887 -92.427422 3.436318 0.759091
406.427887 -92.427422 3.170929 0.759030
406.427887 -92.427422 2.908104 0.757946
406.427887 -92.427422 2.647251 0.753994
406.427887 -92.427422 2.387795 0.745846
406.427887 -92.427422 2.129173 0.762722
406.427887 -92.427422 1.870827 0.757427
406.427887 -92.427422 1.612204 0.760891
406.427887 -92.427422 1.352748 0.756130
406.427887 -92.427422 1.091896 0.744289
406.427887 -92.427422 0.829071 0.747967
406.427887 -92.427422 0.563682 0.756329
406.427887 -92.427422 0.295111 0.752010
406.427887 -92.427422 0.022716 0.759518
406.369965 -92.427422 3.981689 0.730419
406.369965 -92.427422 3.708687 0.721569
406.369965 -92.427422 3.439518 0.735393
406.369965 -92.427422 3.173537 0.732891
406.369965 -92.427422 2.910127 0.734661
406.369965 -92.427422 2.648693 0.733333
406.369965 -92.427422 2.388659 0.728923
406.369965 -92.427422 2.129461 0.733333
406.369965 -92.427422 1.870539 0.730388
406.369965 -92.427422 1.611341 0.725155
406.369965 -92.427422 1.351307 0.735027
406.369965 -92.427422 1.089873 0.739467
406.369965 -92.427422 0.826463 0.721294
406.369965 -92.427422 0.560482 0.721080
406.369965 -92.427422 0.291313 0.741176
406.369965 -92.427422 0.018311 0.733333
406.311798 -92.427422 3.986211 0.731731
406.311798 -92.427422 3.712585 0.707103
406.311798 -92.427422 3.442803 0.707103
406.311798 -92.427422 3.176215 0.696361
406.311798 -92.427422 2.912204 0.696361
406.311798 -92.427422 2.650173 0.731304
406.311798 -92.427422 2.389546 0.707103
406.311798 -92.427422 2.129756 0.696284
406.311798 -92.427422 1.870244 0.720516
406.311798 -92.427422 1.610454 0.731212
406.311798 -92.427422 1.349827 0.706981
406.311798 -92.427422 1.087797 0.696513
406.311798 -92.427422 0.823785 0.731212
406.311798 -92.427422 0.557198 0.722560
406.311798 -92.427422 0.287415 0.706981
406.311798 -92.427422 0.013790 0.731212
406.253387 -92.427422 3.990849 0.763439
406.253357 -92.427422 3.716586 0.756939
406.253387 -92.427422 3.446173 0.763882
406.253387 -92.427422 3.178962 0.764706
406.253387 -92.427422 2.914334 0.750027
406.253387 -92.427422 2.651692 0.757977
406.253387 -92.427422 2.390456 0.758968
406.253387 -92.427422 2.130059 0.758083
406.253387 -92.427422 1.869941 0.765667
406.253387 -92.427422 1.609544 0.751156
406.253387 -92.427422 1.348308 0.759747
406.253387 -92.427422 1.085666 0.748760
406.253387 -92.427422 0.821038 0.764706
406.253387 -92.427422 0.553828 0.764706
406.253387 -92.427422 0.283414 0.762875
406.253387 -92.427422 0.009151 0.764019
406.194672 -92.427422 3.995609 0.763104
406.194672 -92.427422 3.720689 0.761807
406.194672 -92.427422 3.449629 0.753216
406.194672 -92.427422 3.181780 0.764706
406.194672 -92.427422 2.916520 0.765835
406.194672 -92.427422 2.653250 0.764706
406.194672 -92.427422 2.391389 0.755840
406.194672 -92.427422 2.130370 0.757305
406.194672 -92.427422 1.869630 0.758679
406.194672 -92.427422 1.608611 0.756756
406.194672 -92.427422 1.346750 0.754971
406.194672 -92.427422 1.083481 0.755978
406.194672 -92.427422 0.818220 0.764706
406.194672 -92.427422 0.550371 0.754681
406.194672 -92.427422 0.279312 0.764706
406.194672 -92.427422 0.004392 0.753628
406.135651 -92.427422 4.000488 0.743206
406.135651 -92.427422 3.724896 0.733288
406.135651 -92.427422 3.453173 0.724269
406.135651 -92.427422 3.184669 0.712566
406.135651 -92.427422 2.918761 0.713283
406.135651 -92.427422 2.654847 0.726879
406.135651 -92.427422 2.392346 0.742184
406.135651 -92.427422 2.130689 0.742184
406.135651 -92.427422 1.869311 0.730785
406.135651 -92.427422 1.607654 0.742184
406.135651 -92.427422 1.345153 0.721462
406.135651 -92.427422 1.081240 0.712551
406.135651 -92.427422 0.815331 0.713191
406.135651 -92.427422 0.546827 0.724269
406.135651 -92.427422 0.275104 0.741176
406.136322 -92.425591 -0.000001 0.499779
406.076385 -92.427422 4.005488 0.733532
406.076385 -92.427422 3.729208 0.734478
406.076385 -92.427422 3.456806 0.740551
406.076385 -92.427422 3.187631 0.714672
406.076385 -92.427422 2.921057 0.737499
406.076385 -92.427422 2.656484 0.734600
406.076385 -92.427422 2.393327 0.741176
406.076385 -92.427422 2.131016 0.737926
406.076385 -92.427422 1.868985 0.727535
406.076385 -92.427422 1.606673 0.736156
406.076385 -92.427422 1.343516 0.731029
406.076385 -92.427422 1.078943 0.721569
406.076385 -92.427422 0.812369 0.740063
406.076385 -92.427422 0.543194 0.739178
406.076385 -92.427422 0.270792 0.725109
406.083832 -92.406822 -0.000001 0.561379
406.016785 -92.427422 4.010612 0.772519
406.016785 -92.427422 3.733626 0.772244
406.016785 -92.427422 3.460528 0.767239
406.016785 -92.427422 3.190665 0.744213
406.016785 -92.427422 2.923411 0.747250
406.016785 -92.427422 2.658161 0.771160
406.016785 -92.427422 2.394332 0.744213
406.016785 -92.427422 2.131350 0.773434
406.016785 -92.427422 1.868650 0.742184
406.016785 -92.427422 1.605668 0.747250
406.016785 -92.427422 1.341839 0.747082
406.016785 -92.427422 1.076589 0.746990
406.016785 -92.427422 0.809335 0.744869
406.016785 -92.427422 0.539471 0.770397
406.016785 -92.427422 0.266374 0.744213
406.031464 -92.387688 -0.000001 0.524666
405.956879 -92.427422 4.015862 0.752392
405.956879 -92.427422 3.738153 0.764706
405.956879 -92.427422 3.464342 0.764706
405.956879 -92.427422 3.193774 0.753063
405.956879 -92.427422 2.925822 0.753613
405.956879 -92.427422 2.659880 0.765286
405.956879 -92.427422 2.395361 0.760021
405.956879 -92.427422 2.131693 0.764706
405.956879 -92.427422 1.868307 0.763928
405.956879 -92.427422 1.604638 0.764706
405.956879 -92.427422 1.340120 0.753765
405.956879 -92.427422 1.074179 0.740658
405.956879 -92.427422 0.806226 0.760067
405.956879 -92.427422 0.535658 0.752941
405.956879 -92.427422 0.261848 0.763760
405.979248 -92.368187 -0.000001 0.523018
405.896667 -92.427422 4.021237 0.752941
405.896667 -92.427422 3.742787 0.764706
405.896667 -92.427422 3.468246 0.759060
405.896667 -92.427422 3.196957 0.756893
405.896667 -92.427422 2.928290 0.764035
405.896667 -92.427422 2.661639 0.760159
405.896667 -92.427422 2.396416 0.752941
405.896667 -92.427422 2.132044 0.747478
405.896667 -92.427422 1.867956 0.763165
405.896667 -92.427422 1.603584 0.764706
405.896667 -92.427422 1.338361 0.764706
405.896667 -92.427422 1.071710 0.764706
405.896667 -92.427422 0.803043 0.759976
405.896667 -92.427422 0.531754 0.764706
405.896667 -92.427422 0.257213 0.733333
405.927185 -92.348312 -0.000001 0.523796
405.836151 -92.427422 4.026740 0.665537
405.836151 -92.427422 3.747532 0.686748
405.836151 -92.427422 3.472244 0.687617
405.836151 -92.427422 3.200216 0.684169
405.836151 -92.427422 2.930818 0.684260
405.836151 -92.427422 2.663440 0.684169
405.836151 -92.427422 2.397495 0.700618
405.836151 -92.427422 2.132404 0.691524
405.836151 -92.427422 1.867596 0.628443
405.836151 -92.427422 1.602505 0.690898
405.836151 -92.427422 1.336559 0.658213
405.836151 -92.427422 1.069182 0.684092
405.836151 -92.427422 0.799784 0.678431
405.836151 -92.427422 0.527756 0.687495
405.836151 -92.427422 0.252469 0.678431
405.875244 -92.328087 -0.000001 0.550057
405.775269 -92.427422 4.032373 0.691630
405.775269 -92.427422 3.752388 0.733333
405.775269 -92.427422 3.476335 0.721843
405.775269 -92.427422 3.203551 0.730480
405.775269 -92.427422 2.933404 0.721477
405.775269 -92.427422 2.665284 0.721843
405.775269 -92.427422 2.398600 0.726696
405.775269 -92.427422 2.132772 0.733547
405.775269 -92.427422 1.867228 0.729397
405.775269 -92.427422 1.601400 0.712047
405.775269 -92.427422 1.334716 0.699138
405.775269 -92.427422 1.066596 0.700252
405.775269 -92.427422 0.796449 0.698680
405.775269 -92.427422 0.523665 0.721340
405.775269 -92.427422 0.247612 0.697627
405.823425 -92.307495 -0.000001 0.540230
405.714050 -92.427422 4.038136 0.756939
405.714050 -92.427422 3.757358 0.749813
405.714050 -92.427422 3.480522 0.759762
405.714050 -92.427422 3.206964 0.762127
405.714050 -92.427422 2.936051 0.752941
405.714050 -92.427422 2.667171 0.761349
405.714050 -92.427422 2.399730 0.756252
405.714050 -92.427422 2.133148 0.759289
405.714050 -92.427422 1.866852 0.762112
405.714050 -92.427422 1.600270 0.760708
405.714050 -92.427422 1.332829 0.760433
405.714050 -92.427422 1.063949 0.773068
405.714050 -92.427422 0.793036 0.747387
405.714050 -92.427422 0.519478 0.752270
405.714050 -92.427422 0.242643 0.756939
405.771790 -92.286545 -0.000001 0.549187
405.652496 -92.427422 4.044032 0.771878
405.652496 -92.427422 3.762442 0.764706
405.652496 -92.427422 3.484805 0.759197
405.652496 -92.427422 3.210456 0.764706
405.652496 -92.427422 2.938759 0.750210
405.652496 -92.427422 2.669101 0.763348
405.652496 -92.427422 2.400886 0.764706
405.652496 -92.427422 2.133533 0.761212
405.652496 -92.427422 1.866467 0.752941
405.652496 -92.427422 1.599113 0.752941
405.652496 -92.427422 1.330899 0.753079
405.652496 -92.427422 1.061241 0.747433
405.652496 -92.427422 0.789544 0.759335
405.652496 -92.427422 0.515195 0.764706
405.652496 -92.427422 0.237558 0.761517
405.720276 -92.265228 -0.000001 0.533593
405.590576 -92.427422 4.050063 0.752941
405.590576 -92.427422 3.767642 0.764706
405.590576 -92.427422 3.489185 0.757061
405.590576 -92.427422 3.214028 0.764294
405.590576 -92.427422 2.941529 0.754925
405.590576 -92.427422 2.671075 0.753613
405.590576 -92.427422 2.402069 0.748867
405.590576 -92.427422 2.133927 0.748211
405.590576 -92.427422 1.866073 0.752941
405.590576 -92.427422 1.597931 0.763424
405.590576 -92.427422 1.328925 0.752941
405.590576 -92.427422 1.058471 0.761624
405.590576 -92.427422 0.785972 0.740322
405.590576 -92.427422 0.510815 0.764706
405.590576 -92.427422 0.232359 0.764263
405.668915 -92.243561 -0.000001 0.552300
405.528259 -92.427422 4.056230 0.719356
405.528259 -92.427422 3.772959 0.733333
405.528290 -92.427422 3.493665 0.693309
405.528259 -92.427422 3.217680 0.728420
405.528290 -92.427422 2.944361 0.711727
405.528290 -92.427422 2.673094 0.728420
405.528290 -92.427422 2.403279 0.734157
405.528290 -92.427422 2.134330 0.721569
405.528290 -92.427422 1.865670 0.701289
405.528290 -92.427422 1.596721 0.724514
405.528290 -92.427422 1.326906 0.729152
405.528290 -92.427422 1.055639 0.741176
405.528259 -92.427422 0.782320 0.722255
405.528290 -92.427422 0.506335 0.732403
405.528259 -92.427422 0.227041 0.716197
405.617706 -92.221527 -0.000001 0.574273
405.465607 -92.427422 4.062534 0.635477
405.465607 -92.427422 3.778395 0.692607
405.465607 -92.427422 3.498245 0.657053
405.465607 -92.427422 3.221413 0.694896
405.465607 -92.427422 2.947257 0.685374
405.465607 -92.427422 2.675158 0.692607
405.465607 -92.427422 2.404515 0.686610
405.465607 -92.427422 2.134742 0.636072
405.465607 -92.427422 1.865258 0.680186
405.465607 -92.427422 1.595485 0.686931
405.465607 -92.427422 1.324842 0.664057
405.465607 -92.427422 1.052743 0.701106
405.465607 -92.427422 0.778587 0.703059
405.465607 -92.427422 0.501755 0.666545
405.465607 -92.427422 0.221605 0.652506
405.566650 -92.199142 -0.000001 0.572747
405.402527 -92.427422 4.068979 0.765026
405.402527 -92.427422 3.783952 0.769146
405.402527 -92.427422 3.502927 0.753475
405.402527 -92.427422 3.225230 0.763577
405.402527 -92.427422 2.950217 0.756664
405.402527 -92.427422 2.677267 0.754971
405.402527 -92.427422 2.405779 0.760250
405.402527 -92.427422 2.135163 0.763577
405.402527 -92.427422 1.864837 0.755673
405.402527 -92.427422 1.594221 0.764706
405.402527 -92.427422 1.322733 0.754116
405.402527 -92.427422 1.049783 0.764706
405.402527 -92.427422 0.774771 0.751431
405.402527 -92.427422 0.497073 0.756252
405.402527 -92.427422 0.216048 0.753994
405.515778 -92.176399 -0.000001 0.561791
405.339081 -92.427422 4.075567 0.711513
405.339081 -92.427422 3.789631 0.761852
405.339081 -92.427422 3.507711 0.764706
405.339081 -92.427422 3.229130 0.764706
405.339081 -92.427422 2.953242 0.756848
405.339081 -92.427422 2.679423 0.764706
405.339081 -92.427422 2.407071 0.769100
405.339081 -92.427422 2.135593 0.750179
405.339081 -92.427422 1.864407 0.761166
405.339081 -92.427422 1.592929 0.768750
405.339081 -92.427422 1.320577 0.748959
405.339081 -92.427422 1.046758 0.759152
405.339081 -92.427422 0.770870 0.733333
405.339081 -92.427422 0.492289 0.758968
405.339081 -92.427422 0.210369 0.758724
405.465027 -92.153305 -0.000001 0.489204
405.275208 -92.427422 4.082296 0.678431
405.275208 -92.427422 3.795435 0.694789
405.275208 -92.427422 3.512600 0.696361
405.275208 -92.427422 3.233116 0.707103
405.275208 -92.427422 2.956333 0.696361
405.275208 -92.427422 2.681626 0.704540
405.275208 -92.427422 2.408391 0.707103
405.275208 -92.427422 2.136033 0.696361
405.275208 -92.427422 1.863967 0.692561
405.275208 -92.427422 1.591609 0.690196
405.275208 -92.427422 1.318373 0.716854
405.275208 -92.427422 1.043667 0.696361
405.275208 -92.427422 0.766884 0.699794
405.275208 -92.427422 0.487400 0.691051
405.275208 -92.427422 0.204565 0.696361
405.414459 -92.129852 -0.000001 0.548547
405.210907 -92.427422 4.089173 0.703578
405.210907 -92.427422 3.801364 0.724468
405.210938 -92.427422 3.517595 0.730434
405.210938 -92.427422 3.237188 0.724056
405.210938 -92.427422 2.959491 0.724056
405.210938 -92.427422 2.683877 0.724376
405.210938 -92.427422 2.409740 0.723598
405.210938 -92.427422 2.136482 0.728511
405.210938 -92.427422 1.863518 0.693202
405.210938 -92.427422 1.590260 0.734890
405.210938 -92.427422 1.316122 0.728710
405.210938 -92.427422 1.040509 0.733440
405.210938 -92.427422 0.762812 0.721645
405.210938 -92.427422 0.482405 0.696513
405.210938 -92.427422 0.198637 0.741176
405.364075 -92.106049 -0.000001 0.480659
405.146210 -92.427422 4.096198 0.763745
405.146210 -92.427422 3.807421 0.739620
405.146210 -92.427422 3.522698 0.737530
405.146210 -92.427422 3.241348 0.734005
405.146210 -92.427422 2.962717 0.762264
405.146210 -92.427422 2.686177 0.772427
405.146210 -92.427422 2.411117 0.776471
405.146210 -92.427422 2.136941 0.752941
405.146210 -92.427422 1.863059 0.741176
405.146210 -92.427422 1.588882 0.776471
405.146210 -92.427422 1.313823 0.760388
405.146210 -92.427422 1.037283 0.764706
405.146210 -92.427422 0.758652 0.768200
405.146210 -92.427422 0.477302 0.768338
405.146210 -92.427422 0.192579 0.753033
405.313812 -92.081894 -0.000001 0.544961
405.081055 -92.427422 4.103373 0.718135
405.081055 -92.427422 3.813607 0.740505
405.081055 -92.427422 3.527910 0.760403
405.081055 -92.427422 3.245597 0.763333
405.081055 -92.427422 2.966012 0.765621
405.081055 -92.427422 2.688525 0.743053
405.081055 -92.427422 2.412524 0.752941
405.081055 -92.427422 2.137410 0.764126
405.081055 -92.427422 1.862590 0.764706
405.081055 -92.427422 1.587475 0.751980
405.081055 -92.427422 1.311474 0.764080
405.081055 -92.427422 1.033988 0.764706
405.081055 -92.427422 0.754403 0.751125
405.081055 -92.427422 0.472090 0.759930
405.081055 -92.427422 0.186393 0.754223
405.263763 -92.057388 -0.000001 0.530434
405.015442 -92.427422 4.110700 0.767254
405.015442 -92.427422 3.819925 0.737163
405.015442 -92.427422 3.533233 0.753475
405.015442 -92.427422 3.249936 0.764477
405.015442 -92.427422 2.969378 0.770443
405.015442 -92.427422 2.690924 0.769574
405.015442 -92.427422 2.413961 0.770443
405.015442 -92.427422 2.137888 0.741176
405.015442 -92.427422 1.862111 0.764340
405.015442 -92.427422 1.586038 0.764340
405.015442 -92.427422 1.309076 0.744350
405.015442 -92.427422 1.030623 0.764340
405.015442 -92.427422 0.750064 0.747250
405.015442 -92.427422 0.466768 0.753307
405.015442 -92.427422 0.180076 0.770397
405.213867 -92.032539 -0.000001 0.549538
404.949371 -92.427422 4.118182 0.725307
404.949371 -92.427422 3.826376 0.712154
404.949371 -92.427422 3.538668 0.714061
404.949371 -92.427422 3.254367 0.737270
404.949371 -92.427422 2.972814 0.739620
404.949371 -92.427422 2.693373 0.738964
404.949371 -92.427422 2.415429 0.739620
404.949371 -92.427422 2.138377 0.738628
404.949371 -92.427422 1.861622 0.737804
404.949371 -92.427422 1.584571 0.739620
404.949371 -92.427422 1.306627 0.712154
404.949371 -92.427422 1.027186 0.730907
404.949371 -92.427422 0.745633 0.702007
404.949371 -92.427422 0.461332 0.739620
404.949371 -92.427422 0.173624 0.714748
405.164154 -92.007339 -0.000001 0.540658
404.882843 -92.427422 4.125821 0.703456
404.882843 -92.427422 3.832963 0.678431
404.882843 -92.427422 3.544217 0.678431
404.882843 -92.427422 3.258891 0.678431
404.882843 -92.427422 2.976322 0.682872
404.882843 -92.427422 2.695874 0.703838
404.882843 -92.427422 2.416927 0.702693
404.882843 -92.427422 2.138876 0.715694
404.882843 -92.427422 1.861124 0.716670
404.882843 -92.427422 1.583073 0.702693
404.882843 -92.427422 1.304126 0.703944
404.882843 -92.427422 1.023678 0.678935
404.882843 -92.427422 0.741109 0.671321
404.882843 -92.427422 0.455783 0.707134
404.882843 -92.427422 0.167037 0.702693
405.114594 -91.981789 -0.000001 0.573388
404.815796 -92.427422 4.133620 0.764706
404.815796 -92.427422 3.839688 0.761120
404.815796 -92.427422 3.549883 0.776471
404.815796 -92.427422 3.263509 0.754726
404.815796 -92.427422 2.979904 0.763653
404.815796 -92.427422 2.698427 0.764706
404.815796 -92.427422 2.418457 0.753948
404.815796 -92.427422 2.139386 0.762936
404.815796 -92.427422 1.860614 0.758770
404.815796 -92.427422 1.581543 0.754223
404.815796 -92.427422 1.301573 0.754803
404.815796 -92.427422 1.020096 0.772595
404.815796 -92.427422 0.736491 0.756222
404.815796 -92.427422 0.450118 0.764706
404.815796 -92.427422 0.160312 0.762264
405.065247 -91.955894 -0.000001 0.544274
404.748291 -92.427422 4.141582 0.764385
404.748291 -92.427422 3.846553 0.752941
404.748291 -92.427422 3.555665 0.774639
404.748291 -92.427422 3.268224 0.750500
404.748291 -92.427422 2.983560 0.756802
404.748291 -92.427422 2.701033 0.763882
404.748291 -92.427422 2.420018 0.764706
404.748291 -92.427414 2.139906 0.751904
404.748291 -92.427414 1.860094 0.763882
404.748291 -92.427422 1.579982 0.733333
404.748291 -92.427422 1.298967 0.763531
404.748291 -92.427422 1.016440 0.765667
404.748291 -92.427422 0.731776 0.764706
404.748291 -92.427422 0.444335 0.775555
404.748291 -92.427422 0.153448 0.758541
405.016052 -91.929657 -0.000001 0.553964
404.680237 -92.427422 4.149707 0.709804
404.680237 -92.427422 3.853559 0.741176
404.680237 -92.427422 3.561568 0.717830
404.680237 -92.427422 3.273036 0.721569
404.680237 -92.427422 2.987292 0.708721
404.680237 -92.427422 2.703693 0.724285
404.680237 -92.427422 2.421612 0.728542
404.680237 -92.427422 2.140437 0.698039
404.680237 -92.427422 1.859563 0.728847
404.680237 -92.427422 1.578388 0.702403
404.680237 -92.427422 1.296307 0.734203
404.680237 -92.427422 1.012708 0.728847
404.680237 -92.427422 0.726964 0.741176
404.680237 -92.427422 0.438432 0.709804
404.680237 -92.427422 0.146441 0.709804
404.967072 -91.903076 -0.000001 0.574380
404.611694 -92.427422 4.158001 0.681941
404.611694 -92.427422 3.860710 0.679820
404.611694 -92.427422 3.567593 0.679774
404.611694 -92.427422 3.277948 0.680278
404.611694 -92.427422 2.991101 0.689021
404.611694 -92.427422 2.706408 0.679271
404.611694 -92.427422 2.423239 0.667826
404.611694 -92.427422 2.140979 0.641764
404.611694 -92.427422 1.859021 0.649760
404.611694 -92.427422 1.576761 0.694728
404.611694 -92.427422 1.293592 0.679271
404.611694 -92.427422 1.008899 0.679271
404.611694 -92.427422 0.722053 0.679591
404.611694 -92.427422 0.432407 0.679271
404.611694 -92.427422 0.139290 0.690532
404.918243 -91.876160 -0.000001 0.527428
404.542603 -92.427422 4.166465 0.761303
404.542603 -92.427422 3.868007 0.757900
404.542603 -92.427422 3.573741 0.764706
404.542603 -92.427422 3.282959 0.766125
404.542603 -92.427422 2.994988 0.759380
404.542603 -92.427422 2.709178 0.737621
404.542603 -92.427422 2.424899 0.759335
404.542603 -92.427422 2.141532 0.743984
404.542603 -92.427422 1.858468 0.764706
404.542603 -92.427422 1.575101 0.757122
404.542603 -92.427422 1.290822 0.764706
404.542603 -92.427422 1.005012 0.764706
404.542603 -92.427422 0.717040 0.752575
404.542603 -92.427422 0.426259 0.753674
404.542603 -92.427422 0.131993 0.759335
404.869629 -91.848892 -0.000001 0.528023
404.472961 -92.427422 4.175101 0.764675
404.472961 -92.427422 3.875455 0.764706
404.472961 -92.427422 3.580015 0.764630
404.472961 -92.427422 3.288074 0.746670
404.472961 -92.427422 2.998955 0.751934
404.472961 -92.427422 2.712006 0.764675
404.472961 -92.427422 2.426592 0.753201
404.472961 -92.427422 2.142096 0.758068
404.472961 -92.427422 1.857904 0.773434
404.472961 -92.427422 1.573408 0.764782
404.472961 -92.427422 1.287994 0.760876
404.472961 -92.427422 1.001045 0.761395
404.472961 -92.427422 0.711926 0.761532
404.472961 -92.427422 0.419985 0.757031
404.472961 -92.427422 0.124546 0.764675
404.821198 -91.821297 -0.000000 0.530877
404.402771 -92.427422 4.183915 0.692302
404.402771 -92.427422 3.883053 0.665568
404.402771 -92.427422 3.586416 0.670436
404.402771 -92.427422 3.293293 0.680552
404.402771 -92.427422 3.003002 0.696635
404.402771 -92.427422 2.714890 0.694591
404.402771 -92.427422 2.428321 0.703716
404.402771 -92.427422 2.142672 0.695232
404.402771 -92.427422 1.857328 0.665568
404.402771 -92.427422 1.571679 0.689998
404.402771 -92.427422 1.285109 0.696941
404.402771 -92.427422 0.996998 0.693034
404.402771 -92.427422 0.706707 0.684062
404.402771 -92.427422 0.413584 0.696941
404.402771 -92.427422 0.116947 0.675746
404.772980 -91.793358 -0.000001 0.502937
404.332001 -92.427422 4.192906 0.659617
404.332001 -92.427422 3.890806 0.679561
404.332001 -92.427422 3.592948 0.680781
404.332001 -92.427422 3.298618 0.689647
404.332001 -92.427422 3.007132 0.687510
404.332001 -92.427422 2.717834 0.678431
404.332001 -92.427422 2.430084 0.697124
404.332001 -92.427422 2.143259 0.719539
404.332001 -92.427422 1.856741 0.708339
404.332001 -92.427422 1.569916 0.712169
404.332001 -92.427422 1.282166 0.702022
404.332001 -92.427422 0.992868 0.689647
404.332001 -92.427422 0.701382 0.688167
404.332001 -92.427422 0.407052 0.686320
404.332001 -92.427422 0.109194 0.692531
404.724915 -91.765083 -0.000001 0.524025
404.260620 -92.427422 4.202081 0.752941
404.260620 -92.427422 3.898717 0.764523
404.260620 -92.427422 3.599613 0.757076
404.260620 -92.427422 3.304051 0.745464
404.260620 -92.427422 3.011346 0.762722
404.260620 -92.427422 2.720837 0.752941
404.260620 -92.427422 2.431884 0.748348
404.260620 -92.427422 2.143858 0.760571
404.260620 -92.427422 1.856142 0.754543
404.260620 -92.427422 1.568116 0.758038
404.260620 -92.427422 1.279163 0.764706
404.260620 -92.427422 0.988654 0.743816
404.260620 -92.427422 0.695950 0.763790
404.260620 -92.427422 0.400388 0.756527
404.260620 -92.427422 0.101283 0.754726
404.677094 -91.736481 -0.000001 0.544701
404.188660 -92.427422 4.211441 0.763378
404.188660 -92.427422 3.906787 0.741115
404.188660 -92.427422 3.606411 0.746853
404.188660 -92.427422 3.309594 0.749401
404.188660 -92.427422 3.015644 0.763378
404.188660 -92.427422 2.723901 0.761700
404.188660 -92.427422 2.433719 0.764706
404.188660 -92.427422 2.144470 0.757427
404.188660 -92.427422 1.855530 0.763424
404.188660 -92.427422 1.566281 0.753353
404.188660 -92.427422 1.276099 0.752941
404.188660 -92.427422 0.984356 0.733333
404.188660 -92.427422 0.690407 0.754131
404.188660 -92.427422 0.393589 0.764706
404.188660 -92.427422 0.093214 0.759197
404.629456 -91.707535 -0.000001 0.529137
404.116089 -92.427422 4.220987 0.696056
404.116089 -92.427422 3.915019 0.711635
404.116089 -92.427422 3.613347 0.698894
404.116089 -92.427422 3.315247 0.704845
404.116089 -92.427422 3.020029 0.711635
404.116089 -92.427422 2.727026 0.696803
404.116089 -92.427422 2.435592 0.707195
404.116089 -92.427422 2.145093 0.694728
404.116089 -92.427422 1.854906 0.701534
404.116089 -92.427422 1.564408 0.678279
404.116089 -92.427422 1.272974 0.703365
404.116089 -92.427422 0.979971 0.698940
404.116089 -92.427422 0.684753 0.701534
404.116089 -92.427422 0.386653 0.731151
404.116089 -92.427422 0.084981 0.694728
404.582001 -91.678261 -0.000001 0.538399
404.042877 -92.427422 4.230727 0.678431
404.042877 -92.427422 3.923417 0.678431
404.042877 -92.427422 3.620422 0.694820
404.042877 -92.427422 3.321015 0.697154
404.042877 -92.427422 3.024502 0.678431
404.042877 -92.427422 2.730214 0.703120
404.042877 -92.427422 2.437502 0.683253
404.042877 -92.427422 2.145730 0.678431
404.042877 -92.427422 1.854270 0.697047
404.042877 -92.427422 1.562498 0.678431
404.042877 -92.427422 1.269786 0.679164
404.042877 -92.427422 0.975498 0.707530
404.042877 -92.427422 0.678985 0.678431
404.042877 -92.427422 0.379578 0.697047
404.042877 -92.427422 0.076583 0.678431
404.534790 -91.648659 -0.000000 0.506783
403.968994 -92.427422 4.240663 0.761807
403.968994 -92.427422 3.931984 0.757015
403.968994 -92.427422 3.627639 0.754086
403.968994 -92.427422 3.326899 0.759106
403.968994 -92.427422 3.029066 0.761486
403.968994 -92.427422 2.733467 0.754025
403.968994 -92.427422 2.439451 0.763195
403.968994 -92.427422 2.146379 0.752941
403.968994 -92.427422 1.853621 0.771527
403.968994 -92.427414 1.560549 0.764706
403.968994 -92.427422 1.266533 0.764660
403.968994 -92.427422 0.970935 0.764706
403.968994 -92.427422 0.673101 0.759655
403.968994 -92.427422 0.372361 0.764706
403.968994 -92.427422 0.068016 0.741176
404.487762 -91.618729 -0.000001 0.551019
403.894470 -92.427422 4.250798 0.755795
403.894470 -92.427422 3.940722 0.754177
403.894470 -92.427422 3.635001 0.763928
403.894470 -92.427422 3.332901 0.748852
403.894470 -92.427422 3.033720 0.752941
403.894470 -92.427422 2.736784 0.753033
403.894470 -92.427422 2.441438 0.761883
403.894470 -92.427422 2.147041 0.752911
403.894470 -92.427422 1.852959 0.764675
403.894470 -92.427422 1.558562 0.759609
403.894470 -92.427422 1.263216 0.763241
403.894470 -92.427422 0.966280 0.743175
403.894470 -92.427422 0.667100 0.758206
403.894470 -92.427422 0.364999 0.764477
403.894470 -92.427422 0.059278 0.765927
404.440948 -91.588470 -0.000001 0.503685
403.819275 -92.427422 4.261135 0.716381
403.819275 -92.427422 3.949635 0.727260
403.819275 -92.427422 3.642510 0.729000
403.819275 -92.427422 3.339022 0.725338
403.819275 -92.427422 3.038467 0.715496
403.819275 -92.427422 2.740168 0.710307
403.819275 -92.427422 2.443466 0.721569
403.819275 -92.427422 2.147716 0.698039
403.819275 -92.427422 1.852284 0.720760
403.819275 -92.427422 1.556534 0.718074
403.819275 -92.427422 1.259832 0.726558
403.819275 -92.427422 0.961533 0.721569
403.819275 -92.427422 0.660978 0.715450
403.819275 -92.427422 0.357491 0.719738
403.819275 -92.427422 0.050366 0.721569
404.394348 -91.557877 -0.000001 0.503441
403.743347 -92.427422 4.271678 0.674006
403.743347 -92.427422 3.958726 0.698039
403.743347 -92.427422 3.650169 0.678431
403.743347 -92.427422 3.345266 0.697658
403.743347 -92.427422 3.043310 0.697353
403.743347 -92.427422 2.743619 0.697353
403.743347 -92.427422 2.445534 0.697353
403.743347 -92.427422 2.148405 0.697353
403.743347 -92.427422 1.851595 0.669215
403.743347 -92.427422 1.554466 0.638926
403.743347 -92.427422 1.256380 0.538308
403.743347 -92.427422 0.956690 0.565759
403.743347 -92.427422 0.654734 0.573831
403.743347 -92.427422 0.349831 0.677333
403.743347 -92.427422 0.041274 0.677943
404.347961 -91.526970 -0.000001 0.571969
403.666748 -92.427422 4.282433 0.759441
403.666748 -92.427422 3.967999 0.762585
403.666748 -92.427422 3.657981 0.764706
403.666748 -92.427422 3.351635 0.761837
403.666748 -92.427422 3.048249 0.756756
403.666748 -92.427422 2.747140 0.759380
403.666748 -92.427422 2.447643 0.758633
403.666748 -92.427422 2.149108 0.756527
403.666748 -92.427422 1.850892 0.764706
403.666748 -92.427422 1.552357 0.759380
403.666748 -92.427422 1.252860 0.746685
403.666748 -92.427422 0.951751 0.759380
403.666748 -92.427422 0.648365 0.751614
403.666748 -92.427422 0.342019 0.759380
403.666748 -92.427422 0.032001 0.767712
404.301788 -91.495735 -0.000001 0.524544
403.589386 -92.427422 4.293402 0.760769
403.589386 -92.427422 3.977458 0.763653
403.589386 -92.427422 3.665949 0.759884
403.589386 -92.427422 3.358130 0.756848
403.589386 -92.427422 3.053287 0.764706
403.589386 -92.427422 2.750730 0.755199
403.589386 -92.427414 2.449794 0.755199
403.589386 -92.427422 2.149824 0.754681
403.589386 -92.427422 1.850176 0.750729
403.589386 -92.427422 1.550206 0.764019
403.589386 -92.427422 1.249270 0.753765
403.589386 -92.427422 0.946713 0.755566
403.589386 -92.427422 0.641870 0.756481
403.589386 -92.427422 0.334051 0.764706
403.589386 -92.427422 0.022542 0.766964
404.255829 -91.464180 -0.000001 0.535180
403.511292 -92.427422 4.304589 0.729198
403.511292 -92.427422 3.987104 0.747646
403.511292 -92.427422 3.674076 0.733333
403.511292 -92.427422 3.364756 0.737621
403.511292 -92.427422 3.058425 0.721691
403.511292 -92.427422 2.754392 0.725841
403.511292 -92.427422 2.451988 0.727352
403.511292 -92.427422 2.150555 0.734356
403.511292 -92.427422 1.849445 0.716976
403.511292 -92.427422 1.548012 0.721569
403.511292 -92.427422 1.245607 0.732845
403.511292 -92.427422 0.941575 0.728222
403.511292 -92.427422 0.635244 0.733440
403.511292 -92.427422 0.325924 0.738476
403.511292 -92.427422 0.012896 0.736202
404.210114 -91.432304 -0.000001 0.555550
403.432404 -92.427422 4.316000 0.758968
403.432404 -92.427422 3.996943 0.761532
403.432404 -92.427422 3.682365 0.749615
403.432404 -92.427422 3.371514 0.763516
403.432404 -92.427422 3.063666 0.757565
403.432404 -92.427422 2.758128 0.775387
403.432404 -92.427422 2.454226 0.762875
403.432404 -92.427422 2.151301 0.771832
403.432404 -92.427422 1.848699 0.756893
403.432404 -92.427422 1.545774 0.759472
403.432404 -92.427422 1.241872 0.768841
403.432404 -92.427422 0.936334 0.758541
403.432404 -92.427422 0.628487 0.745815
403.432404 -92.427422 0.317635 0.757244
403.432404 -92.427422 0.003057 0.764706
404.164612 -91.400108 -0.000001 0.521950
403.352753 -92.427422 4.327640 0.752575
403.352753 -92.427422 4.006978 0.764706
403.352753 -92.427422 3.690820 0.752972
403.352753 -92.427422 3.378406 0.775830
403.352753 -92.427422 3.069011 0.764706
403.352753 -92.427422 2.761938 0.752941
403.352753 -92.427422 2.456509 0.752941
403.352753 -92.427422 2.152061 0.764706
403.352753 -92.427422 1.847939 0.753307
403.352753 -92.427422 1.543491 0.762356
403.352753 -92.427422 1.238062 0.752941
403.352753 -92.427422 0.930989 0.750942
403.352753 -92.427422 0.621595 0.764706
403.352753 -92.427422 0.309180 0.764706
403.371674 -92.401245 -0.000001 0.532769
404.119324 -91.367599 -0.000000 0.533257
403.272278 -92.427422 4.339510 0.697063
403.272278 -92.427422 4.017214 0.716793
403.272278 -92.427422 3.699443 0.697063
403.272278 -92.427422 3.385436 0.697063
403.272278 -92.427422 3.074463 0.690074
403.272278 -92.427422 2.765824 0.690074
403.272278 -92.427422 2.458837 0.690074
403.272278 -92.427422 2.152836 0.690074
403.272278 -92.427422 1.847164 0.697185
403.272278 -92.427422 1.541163 0.707103
403.272278 -92.427422 1.234176 0.650690
403.272278 -92.427422 0.925537 0.697185
403.272278 -92.427422 0.614565 0.697185
403.272278 -92.427422 0.300558 0.690150
403.319427 -92.363174 -0.000001 0.507240
404.074280 -91.334770 -0.000001 0.551003
403.190948 -92.427422 4.351617 0.694560
403.190948 -92.427422 4.027653 0.731929
403.190948 -92.427422 3.708238 0.700664
403.190948 -92.427422 3.392605 0.707668
403.190979 -92.427414 3.080023 0.709804
403.190948 -92.427422 2.769787 0.699321
403.190979 -92.427422 2.461212 0.698039
403.190948 -92.427422 2.153627 0.707942
403.190948 -92.427422 1.846373 0.700664
403.190979 -92.427422 1.538788 0.709804
403.190948 -92.427422 1.230213 0.709804
403.190979 -92.427414 0.919977 0.700664
403.190948 -92.427422 0.607395 0.700664
403.190948 -92.427422 0.291762 0.699840
403.267426 -92.324738 -0.000001 0.522423
404.029449 -91.301636 -0.000001 0.536934
403.108826 -92.427422 4.363967 0.763790
403.108826 -92.427422 4.038301 0.766537
403.108826 -92.427422 3.717208 0.761791
403.108826 -92.427422 3.399918 0.760067
403.108826 -92.427422 3.085695 0.759747
403.108826 -92.427422 2.773829 0.762783
403.108826 -92.427422 2.463634 0.771832
403.108826 -92.427422 2.154434 0.752575
403.108826 -92.427422 1.845566 0.764675
403.108826 -92.427422 1.536366 0.753109
403.108826 -92.427422 1.226170 0.744854
403.108826 -92.427422 0.914305 0.756725
403.108826 -92.427422 0.600082 0.753079
403.108826 -92.427422 0.282792 0.760204
403.215729 -92.285942 -0.000001 0.527260
403.984863 -91.268181 -0.000001 0.546197
403.025787 -92.427422 4.376564 0.760800
403.025787 -92.427422 4.049163 0.758633
403.025787 -92.427422 3.726358 0.761669
403.025787 -92.427422 3.407378 0.755840
403.025787 -92.427422 3.091480 0.761791
403.025787 -92.427422 2.777953 0.759289
403.025787 -92.427422 2.466104 0.764706
403.025787 -92.427422 2.155257 0.733333
403.025787 -92.427422 1.844743 0.752941
403.025787 -92.427422 1.533896 0.758450
403.025787 -92.427422 1.222047 0.764706
403.025787 -92.427422 0.908520 0.764431
403.025787 -92.427422 0.592622 0.758358
403.025787 -92.427422 0.273641 0.764706
403.164276 -92.246788 -0.000001 0.588052
403.940521 -91.234421 -0.000001 0.608103
402.941864 -92.427422 4.389411 0.699413
402.941864 -92.427422 4.060241 0.734951
402.941864 -92.427422 3.735692 0.729183
402.941864 -92.427422 3.414987 0.733333
402.941864 -92.427422 3.097380 0.733333
402.941864 -92.427422 2.782159 0.731884
402.941864 -92.427422 2.468624 0.737636
402.941864 -92.427422 2.156096 0.680323
402.941864 -92.427422 1.843903 0.732876
402.941864 -92.427422 1.531376 0.722622
402.941864 -92.427422 1.217841 0.740841
402.941864 -92.427422 0.902619 0.736873
402.941864 -92.427422 0.585014 0.721569
402.941864 -92.427422 0.264309 0.717037
403.113129 -92.207268 -0.000001 0.553704
403.896393 -91.200348 -0.000001 0.518166
402.857025 -92.427422 4.402517 0.739712
402.857025 -92.427422 4.071541 0.772107
402.857025 -92.427422 3.745212 0.768338
402.857025 -92.427422 3.422748 0.756710
402.857025 -92.427422 3.103400 0.774258
402.857025 -92.427422 2.786449 0.753445
402.857025 -92.427422 2.471195 0.758404
402.857025 -92.427422 2.156953 0.745586
402.857025 -92.427422 1.843047 0.743343
402.857025 -92.427422 1.528805 0.743389
402.857025 -92.427422 1.213551 0.745342
402.857025 -92.427422 0.896600 0.771328
402.857025 -92.427422 0.577252 0.776471
402.857025 -92.427422 0.254788 0.770306
403.062225 -92.167397 -0.000001 0.492287
403.852509 -91.165970 -0.000000 0.510842
402.771271 -92.427422 4.415886 0.746319
402.771271 -92.427422 4.083068 0.746807
402.771271 -92.427422 3.754923 0.771344
402.771271 -92.427422 3.430665 0.752941
402.771271 -92.427422 3.109540 0.756588
402.771271 -92.427422 2.790825 0.763745
402.771271 -92.427422 2.473816 0.758206
402.771271 -92.427422 2.157826 0.753857
402.771271 -92.427422 1.842174 0.763195
402.771271 -92.427422 1.526183 0.764706
402.771271 -92.427422 1.209175 0.764446
402.771271 -92.427422 0.890460 0.765393
402.771271 -92.427422 0.569336 0.741176
402.771271 -92.427422 0.245077 0.724834
403.011627 -92.127174 -0.000001 0.580667
403.808868 -91.131287 -0.000001 0.543069
402.684540 -92.427422 4.429523 0.700130
402.684540 -92.427422 4.094827 0.702449
402.684540 -92.427422 3.764830 0.693217
402.684540 -92.427422 3.438740 0.734127
402.684540 -92.427422 3.115803 0.698039
402.684540 -92.427422 2.795289 0.714855
402.684540 -92.427422 2.476491 0.714855
402.684540 -92.427422 2.158717 0.714443
402.684540 -92.427422 1.841283 0.698985
402.684540 -92.427422 1.523509 0.697429
402.684540 -92.427422 1.204711 0.648768
402.684540 -92.427422 0.884197 0.704219
402.684540 -92.427422 0.561260 0.690547
402.684540 -92.427422 0.235171 0.697505
402.961304 -92.086594 -0.000001 0.540078
403.765472 -91.096298 -0.000000 0.558083
402.596802 -92.427422 4.443436 0.697856
402.596802 -92.427422 4.106822 0.708919
402.596802 -92.427422 3.774935 0.740276
402.596802 -92.427422 3.446979 0.740276
402.596802 -92.427422 3.122192 0.721019
402.596802 -92.427422 2.799843 0.740383
402.596802 -92.427422 2.479219 0.721019
402.596802 -92.427422 2.159626 0.740383
402.596802 -92.427422 1.840374 0.739376
402.596802 -92.427414 1.520780 0.720928
402.596802 -92.427422 1.200157 0.735561
402.596802 -92.427422 0.877808 0.740703
402.596802 -92.427422 0.553021 0.708888
402.596802 -92.427422 0.225065 0.732830
402.911255 -92.045670 -0.000000 0.520104
403.722351 -91.061005 -0.000000 0.569635
402.508057 -92.427422 4.457627 0.761700
402.508057 -92.427422 4.119060 0.743664
402.508057 -92.427422 3.785245 0.754345
402.508057 -92.427422 3.455384 0.764706
402.508057 -92.427422 3.128710 0.747890
402.508057 -92.427422 2.804489 0.775555
402.508057 -92.427422 2.482003 0.752941
402.508057 -92.427422 2.160553 0.750118
402.508057 -92.427422 1.839447 0.752941
402.508057 -92.427422 1.517997 0.764706
402.508057 -92.427422 1.195511 0.755169
402.508057 -92.427422 0.871290 0.776471
402.508057 -92.427422 0.544616 0.757763
402.508057 -92.427422 0.214756 0.751522
402.861511 -92.004387 -0.000001 0.538643
403.679443 -91.025414 -0.000001 0.600336
402.418274 -92.427422 4.472107 0.703365
402.418274 -92.427422 4.131545 0.717586
402.418274 -92.427422 3.795763 0.699077
402.418274 -92.427422 3.463958 0.720470
402.418274 -92.427422 3.135361 0.722911
402.418274 -92.427422 2.809228 0.703975
402.418274 -92.427422 2.484843 0.685664
402.418274 -92.427422 2.161499 0.709743
402.418274 -92.427422 1.838501 0.714031
402.418274 -92.427422 1.515157 0.713298
402.418274 -92.427422 1.190771 0.686198
402.418274 -92.427422 0.864639 0.726162
402.418274 -92.427414 0.536042 0.703365
402.418274 -92.427422 0.204237 0.721538
402.812042 -91.962769 -0.000000 0.556435
403.636780 -90.989525 -0.000000 0.529061
402.327423 -92.427422 4.486881 0.713298
402.327423 -92.427422 4.144282 0.691234
402.327423 -92.427422 3.806494 0.685039
402.327423 -92.427422 3.472707 0.691234
402.327423 -92.427422 3.142146 0.682414
402.327423 -92.427422 2.814065 0.689555
402.327423 -92.427422 2.487740 0.684245
402.327423 -92.427422 2.162464 0.678431
402.327423 -92.427422 1.837536 0.690242
402.327423 -92.427422 1.512259 0.690578
402.327423 -92.427422 1.185935 0.687861
402.327423 -92.427422 0.857854 0.709804
402.327423 -92.427422 0.527293 0.687861
402.327423 -92.427422 0.193505 0.684337
402.762848 -91.920799 -0.000001 0.527153
403.594391 -90.953339 -0.000001 0.515679
402.235474 -92.427422 4.501954 0.756710
402.235474 -92.427422 4.157279 0.764675
402.235474 -92.427422 3.817444 0.776013
402.235474 -92.427422 3.481633 0.741451
402.235474 -92.427422 3.149068 0.759609
402.235474 -92.427422 2.818999 0.756497
402.235474 -92.427422 2.490697 0.752987
402.235474 -92.427422 2.163449 0.754223
402.235474 -92.427422 1.836551 0.765743
402.235474 -92.427422 1.509303 0.741146
402.235474 -92.427422 1.181001 0.776196
402.235474 -92.427414 0.850932 0.764706
402.235474 -92.427422 0.518367 0.754299
402.235474 -92.427422 0.182556 0.764538
402.713989 -91.878487 -0.000001 0.534432
403.552246 -90.916862 -0.000000 0.495140
402.142395 -92.427422 4.517335 0.751064
402.142395 -92.427422 4.170541 0.739925
402.142395 -92.427422 3.828617 0.740887
402.142395 -92.427422 3.490742 0.746029
402.142395 -92.427422 3.156132 0.746029
402.142395 -92.427422 2.824033 0.744671
402.142395 -92.427422 2.493713 0.746029
402.142395 -92.427422 2.164453 0.736156
402.142395 -92.427422 1.835546 0.738430
402.142395 -92.427414 1.506287 0.749508
402.142395 -92.427422 1.175966 0.745144
402.142395 -92.427422 0.843868 0.736858
402.142395 -92.427422 0.509259 0.751064
402.142395 -92.427422 0.171384 0.739513
402.665405 -91.835838 -0.000001 0.560861
403.510345 -90.880089 -0.000001 0.539284
402.048157 -92.427422 4.533031 0.699290
402.048157 -92.427422 4.184074 0.711757
402.048157 -92.427422 3.840018 0.721523
402.048157 -92.427422 3.500036 0.713405
402.048157 -92.427422 3.163341 0.691524
402.048157 -92.427422 2.829171 0.711192
402.048157 -92.427422 2.496791 0.717662
402.048157 -92.427422 2.165479 0.707301
402.048157 -92.427422 1.834521 0.684947
402.048157 -92.427422 1.503209 0.702007
402.048157 -92.427422 1.170828 0.709087
402.048157 -92.427422 0.836659 0.713756
402.048157 -92.427422 0.499964 0.704982
402.048157 -92.427414 0.159982 0.702129
402.617126 -91.792854 -0.000000 0.518685
403.468719 -90.843018 -0.000001 0.517845
401.952759 -92.427422 4.549048 0.755535
401.952759 -92.427422 4.197886 0.759121
401.952759 -92.427422 3.851653 0.758724
401.952759 -92.427422 3.509521 0.759655
401.952759 -92.427422 3.170697 0.752941
401.952759 -92.427422 2.834414 0.758923
401.952759 -92.427422 2.499933 0.764706
401.952759 -92.427414 2.166525 0.758724
401.952759 -92.427422 1.833475 0.760174
401.952759 -92.427422 1.500067 0.761929
401.952759 -92.427422 1.165585 0.765423
401.952759 -92.427422 0.829303 0.752941
401.952759 -92.427422 0.490478 0.754971
401.952759 -92.427422 0.148347 0.767468
402.569122 -91.749527 -0.000001 0.559808
403.427338 -90.805664 -0.000001 0.591058
401.856110 -92.427422 4.565394 0.746120
401.856110 -92.427422 4.211980 0.745449
401.856110 -92.427422 3.863528 0.747631
401.856110 -92.427422 3.519202 0.748440
401.856110 -92.427422 3.178205 0.744808
401.856110 -92.427414 2.839766 0.748440
401.856110 -92.427422 2.503139 0.744808
401.856110 -92.427422 2.167593 0.748501
401.856110 -92.427422 1.832407 0.752071
401.856110 -92.427422 1.496861 0.748440
401.856110 -92.427414 1.160234 0.741131
401.856110 -92.427422 0.821795 0.741176
401.856110 -92.427422 0.480798 0.748074
401.856110 -92.427422 0.136473 0.748440
402.521454 -91.705872 -0.000001 0.584680
403.386230 -90.768021 -0.000000 0.484504
401.758240 -92.427422 4.582079 0.698039
401.758240 -92.427422 4.226366 0.663493
401.758240 -92.427422 3.875648 0.699550
401.758240 -92.427422 3.529083 0.716426
401.758240 -92.427422 3.185867 0.700801
401.758240 -92.427422 2.845227 0.700801
401.758240 -92.427414 2.506411 0.699413
401.758240 -92.427422 2.168683 0.711162
401.758240 -92.427422 1.831317 0.712291
401.758240 -92.427422 1.493589 0.698619
401.758240 -92.427422 1.154773 0.706218
401.758240 -92.427422 0.814133 0.695735
401.758240 -92.427422 0.470917 0.689281
401.758240 -92.427422 0.124353 0.661555
402.474091 -91.661880 -0.000001 0.495918
403.345398 -90.730087 -0.000000 0.528481
401.659058 -92.427422 4.599111 0.762707
401.659058 -92.427422 4.241051 0.764706
401.659058 -92.427422 3.888019 0.727047
401.659058 -92.427422 3.539168 0.752941
401.659058 -92.427422 3.193689 0.764569
401.659058 -92.427422 2.850802 0.764538
401.659058 -92.427422 2.509752 0.764706
401.659058 -92.427422 2.169796 0.753674
401.659058 -92.427422 1.830204 0.762402
401.659058 -92.427422 1.490248 0.764706
401.659058 -92.427414 1.149198 0.764706
401.659058 -92.427422 0.806311 0.753582
401.659058 -92.427422 0.460832 0.764706
401.659058 -92.427422 0.111981 0.741176
402.427002 -91.617561 -0.000000 0.551125
403.304810 -90.691879 -0.000000 0.538293
401.558563 -92.427422 4.616495 0.666346
401.558563 -92.427422 4.256041 0.666773
401.558563 -92.427422 3.900647 0.678523
401.558563 -92.427422 3.549463 0.678859
401.558563 -92.427422 3.201673 0.678431
401.558563 -92.427422 2.856493 0.678431
401.558563 -92.427422 2.513161 0.678584
401.558563 -92.427414 2.170932 0.647898
401.558563 -92.427414 1.829069 0.678431
401.558563 -92.427422 1.486839 0.678431
401.558563 -92.427422 1.143507 0.678813
401.558563 -92.427422 0.798327 0.647669
401.558563 -92.427422 0.450537 0.677638
401.558563 -92.427422 0.099352 0.647852
402.380249 -91.572914 -0.000001 0.505165
403.264496 -90.653381 -0.000000 0.544610
401.456696 -92.427422 4.634244 0.725612
401.456696 -92.427422 4.271345 0.682506
401.456696 -92.427422 3.913540 0.707179
401.456696 -92.427422 3.559974 0.704417
401.456696 -92.427422 3.209825 0.734524
401.456696 -92.427422 2.862303 0.714183
401.456696 -92.427422 2.516642 0.742367
401.456696 -92.427422 2.172091 0.738430
401.456696 -92.427422 1.827909 0.713359
401.456696 -92.427422 1.483358 0.713649
401.456696 -92.427422 1.137697 0.714199
401.456696 -92.427422 0.790175 0.685710
401.456696 -92.427422 0.440026 0.714015
401.456696 -92.427422 0.086460 0.714870
402.333801 -91.527939 -0.000000 0.574990
403.224457 -90.614601 -0.000001 0.548455
401.353455 -92.427422 4.652365 0.762539
401.353455 -92.427422 4.286969 0.762539
401.353455 -92.427422 3.926703 0.656748
401.353455 -92.427422 3.570705 0.765896
401.353455 -92.427422 3.218147 0.753902
401.353455 -92.427422 2.868234 0.764706
401.353455 -92.427422 2.520196 0.758801
401.353455 -92.427414 2.173275 0.756405
401.353455 -92.427422 1.826725 0.756848
401.353455 -92.427422 1.479804 0.762829
401.353455 -92.427422 1.131765 0.764111
401.353455 -92.427422 0.781853 0.758724
401.353455 -92.427422 0.429295 0.764706
401.353455 -92.427422 0.073296 0.677821
402.287689 -91.482651 -0.000001 0.524697
403.184662 -90.575546 -0.000001 0.526802
401.248749 -92.427422 4.670869 0.714076
401.248749 -92.427422 4.302924 0.709804
401.248749 -92.427422 3.940145 0.724834
401.248749 -92.427422 3.581662 0.721569
401.248749 -92.427422 3.226645 0.704570
401.248749 -92.427422 2.874292 0.722210
401.248749 -92.427422 2.523825 0.723827
401.248749 -92.427422 2.174484 0.704570
401.248749 -92.427422 1.825516 0.695460
401.248749 -92.427422 1.476175 0.686290
401.248749 -92.427422 1.125708 0.724834
401.248749 -92.427422 0.773355 0.721569
401.248749 -92.427422 0.418338 0.709804
401.248749 -92.427422 0.059856 0.718334
402.241882 -91.437027 -0.000000 0.601999
403.145172 -90.536217 -0.000001 0.554452
401.142609 -92.427422 4.689764 0.733333
401.142609 -92.427422 4.319215 0.773526
401.142609 -92.427422 3.953870 0.762432
401.142609 -92.427422 3.592852 0.763470
401.142609 -92.427422 3.235323 0.744717
401.142609 -92.427422 2.880477 0.758358
401.142609 -92.427422 2.527531 0.771435
401.142609 -92.427422 2.175718 0.753307
401.142609 -92.427414 1.824282 0.744121
401.142609 -92.427414 1.472469 0.768978
401.142609 -92.427414 1.119523 0.763241
401.142609 -92.427422 0.764677 0.760204
401.142609 -92.427422 0.407148 0.747845
401.142609 -92.427422 0.046130 0.773526
402.196381 -91.391098 -0.000000 0.531975
403.105957 -90.496613 -0.000000 0.534066
401.034912 -92.427422 4.709061 0.752636
401.034912 -92.427422 4.335855 0.755352
