# This PCD file was generated using the MATLABÂ® pcwrite function
# from Computer Vision ToolboxÂ®.
# .PCD v.7 - Point Cloud Data file format
VERSION .7
FIELDS x y z intensity
SIZE 4 4 4 4
TYPE F F F F
COUNT 1 1 1 1
WIDTH 1267
HEIGHT 1
VIEWPOINT 0 0 0 1 0 0 0
POINTS 1267
DATA ascii
nan nan nan 0.000000
-108.413506 182.864960 -0.000015 0.535653
-94.792900 173.875793 -0.000010 0.535241
-88.945091 170.016418 -0.000007 0.535821
-85.688179 167.866959 -0.000005 0.537423
-83.608917 166.494705 -0.000004 0.513909
-82.163757 165.540955 -0.000003 0.585504
-81.099030 164.838257 -0.000002 0.541894
nan nan nan 0.000000
nan nan nan 0.000000
nan nan nan 0.000000
nan nan nan 0.000000
nan nan nan 0.000000
nan nan nan 0.000000
nan nan nan 0.000000
nan nan nan 0.000000
nan nan nan 0.000000
-108.256126 183.101639 -0.000015 0.543069
-94.698608 174.017593 -0.000010 0.536934
-88.877884 170.117493 -0.000007 0.549767
-85.636055 167.945343 -0.000005 0.528298
-83.566429 166.558609 -0.000004 0.538918
-82.127960 165.594788 -0.000003 0.569741
-81.068161 164.884674 -0.000002 0.557549
nan nan nan 0.000000
nan nan nan 0.000000
nan nan nan 0.000000
nan nan nan 0.000000
nan nan nan 0.000000
nan nan nan 0.000000
nan nan nan 0.000000
nan nan nan 0.000000
nan nan nan 0.000000
-108.097107 183.337204 -0.000016 0.540047
-94.603325 174.158722 -0.000010 0.533165
-88.809975 170.218079 -0.000007 0.536782
-85.583389 168.023346 -0.000005 0.538399
-83.523491 166.622208 -0.000004 0.559579
-82.091789 165.648361 -0.000003 0.525795
-81.036972 164.930878 -0.000002 0.498878
nan nan nan 0.000000
nan nan nan 0.000000
nan nan nan 0.000000
nan nan nan 0.000000
nan nan nan 0.000000
nan nan nan 0.000000
nan nan nan 0.000000
nan nan nan 0.000000
nan nan nan 0.000000
-107.936432 183.571655 -0.000016 0.542107
-94.507057 174.299179 -0.000009 0.530648
-88.741364 170.318192 -0.000006 0.538735
-85.530174 168.100998 -0.000005 0.546914
-83.480110 166.685516 -0.000004 0.569360
-82.055237 165.701691 -0.000003 0.509941
-81.005463 164.976852 -0.000002 0.547601
nan nan nan 0.000000
nan nan nan 0.000000
nan nan nan 0.000000
nan nan nan 0.000000
nan nan nan 0.000000
nan nan nan 0.000000
nan nan nan 0.000000
nan nan nan 0.000000
nan nan nan 0.000000
-107.774139 183.804977 -0.000016 0.535271
-94.409821 174.438980 -0.000010 0.547601
-88.672050 170.417831 -0.000006 0.525261
-85.476425 168.178268 -0.000005 0.524422
-83.436295 166.748505 -0.000004 0.563516
-82.018326 165.754761 -0.000003 0.553109
-80.973625 165.022614 -0.000003 0.602258
nan nan nan 0.000000
nan nan nan 0.000000
nan nan nan 0.000000
nan nan nan 0.000000
nan nan nan 0.000000
nan nan nan 0.000000
nan nan nan 0.000000
nan nan nan 0.000000
nan nan nan 0.000000
-107.610207 184.037140 -0.000016 0.535042
-94.311607 174.578094 -0.000010 0.542184
-88.602051 170.516983 -0.000007 0.558129
-85.422134 168.255157 -0.000005 0.530053
-83.392029 166.811188 -0.000004 0.530434
-81.981033 165.807571 -0.000003 0.547951
-80.941475 165.068161 -0.000003 0.529641
nan nan nan 0.000000
nan nan nan 0.000000
nan nan nan 0.000000
nan nan nan 0.000000
nan nan nan 0.000000
nan nan nan 0.000000
nan nan nan 0.000000
nan nan nan 0.000000
nan nan nan 0.000000
-107.444656 184.268173 -0.000016 0.538735
-94.212433 174.716507 -0.000010 0.523033
-88.531357 170.615646 -0.000007 0.552499
-85.367310 168.331680 -0.000005 0.529534
-83.347336 166.873566 -0.000004 0.528572
-81.943382 165.860123 -0.000003 0.558831
-80.909012 165.113464 -0.000003 0.545296
nan nan nan 0.000000
nan nan nan 0.000000
nan nan nan 0.000000
nan nan nan 0.000000
nan nan nan 0.000000
nan nan nan 0.000000
nan nan nan 0.000000
nan nan nan 0.000000
nan nan nan 0.000000
-107.277504 184.498047 -0.000016 0.539223
-94.112274 174.854233 -0.000010 0.544411
-88.459976 170.713806 -0.000007 0.527993
-85.311951 168.407806 -0.000005 0.524758
-83.302208 166.935623 -0.000004 0.554803
-81.905357 165.912415 -0.000003 0.507195
-80.876228 165.158554 -0.000003 0.582605
nan nan nan 0.000000
nan nan nan 0.000000
nan nan nan 0.000000
nan nan nan 0.000000
nan nan nan 0.000000
nan nan nan 0.000000
nan nan nan 0.000000
nan nan nan 0.000000
nan nan nan 0.000000
-107.108749 184.726746 -0.000016 0.545708
-94.011169 174.991257 -0.000010 0.541680
-88.387909 170.811462 -0.000007 0.539910
-85.256058 168.483551 -0.000005 0.511727
-83.256645 166.997375 -0.000004 0.530449
-81.866974 165.964432 -0.000003 0.558618
-80.843132 165.203400 -0.000003 0.505333
nan nan nan 0.000000
nan nan nan 0.000000
nan nan nan 0.000000
nan nan nan 0.000000
nan nan nan 0.000000
nan nan nan 0.000000
nan nan nan 0.000000
nan nan nan 0.000000
nan nan nan 0.000000
-106.938416 184.954254 -0.000017 0.541054
-93.909103 175.127563 -0.000010 0.531075
-88.315170 170.908615 -0.000007 0.522789
-85.199646 168.558899 -0.000005 0.541299
-83.210655 167.058807 -0.000004 0.558907
-81.828232 166.016174 -0.000004 0.539025
-80.809723 165.248016 -0.000002 0.542214
nan nan nan 0.000000
nan nan nan 0.000000
nan nan nan 0.000000
nan nan nan 0.000000
nan nan nan 0.000000
nan nan nan 0.000000
nan nan nan 0.000000
nan nan nan 0.000000
nan nan nan 0.000000
-106.766495 185.180573 -0.000017 0.537301
-93.806099 175.263153 -0.000010 0.547829
-88.241753 171.005264 -0.000007 0.513893
-85.142700 168.633850 -0.000005 0.493935
-83.164230 167.119904 -0.000004 0.551537
-81.789124 166.067657 -0.000003 0.599176
-80.776001 165.292404 -0.000002 0.473518
nan nan nan 0.000000
nan nan nan 0.000000
nan nan nan 0.000000
nan nan nan 0.000000
nan nan nan 0.000000
nan nan nan 0.000000
nan nan nan 0.000000
nan nan nan 0.000000
nan nan nan 0.000000
-106.592987 185.405685 -0.000017 0.549294
-93.702148 175.398041 -0.000010 0.542596
-88.167656 171.101395 -0.000007 0.547219
-85.085243 168.708405 -0.000005 0.554894
-83.117386 167.180679 -0.000004 0.551308
-81.749657 166.118866 -0.000003 0.587549
-80.741974 165.336563 -0.000002 0.551522
nan nan nan 0.000000
nan nan nan 0.000000
nan nan nan 0.000000
nan nan nan 0.000000
nan nan nan 0.000000
nan nan nan 0.000000
nan nan nan 0.000000
nan nan nan 0.000000
nan nan nan 0.000000
-106.417900 185.629578 -0.000017 0.540383
-93.597252 175.532181 -0.000010 0.543801
-88.092888 171.197006 -0.000007 0.541955
-85.027260 168.782547 -0.000005 0.535637
-83.070122 167.241135 -0.000004 0.511986
-81.709831 166.169785 -0.000003 0.563241
-80.707642 165.380463 -0.000003 0.563088
nan nan nan 0.000000
nan nan nan 0.000000
nan nan nan 0.000000
nan nan nan 0.000000
nan nan nan 0.000000
nan nan nan 0.000000
nan nan nan 0.000000
nan nan nan 0.000000
nan nan nan 0.000000
-106.241272 185.852249 -0.000017 0.537346
-93.491425 175.665588 -0.000010 0.540993
-88.017471 171.292099 -0.000008 0.553414
-84.968765 168.856293 -0.000005 0.545464
-83.022430 167.301254 -0.000004 0.532631
-81.669662 166.220428 -0.000003 0.560906
-80.672997 165.424133 -0.000003 0.518395
nan nan nan 0.000000
nan nan nan 0.000000
nan nan nan 0.000000
nan nan nan 0.000000
nan nan nan 0.000000
nan nan nan 0.000000
nan nan nan 0.000000
nan nan nan 0.000000
nan nan nan 0.000000
-106.063087 186.073669 -0.000016 0.536858
-93.384666 175.798248 -0.000010 0.533562
-87.941368 171.386658 -0.000007 0.533532
-84.909752 168.929626 -0.000005 0.529000
-82.974319 167.361038 -0.000004 0.532937
-81.629128 166.270798 -0.000004 0.518776
-80.638046 165.467560 -0.000002 0.554833
nan nan nan 0.000000
nan nan nan 0.000000
nan nan nan 0.000000
nan nan nan 0.000000
nan nan nan 0.000000
nan nan nan 0.000000
nan nan nan 0.000000
nan nan nan 0.000000
nan nan nan 0.000000
-105.883362 186.293854 -0.000016 0.541360
-93.276985 175.930176 -0.000010 0.543420
-87.864624 171.480682 -0.000007 0.550652
-84.850227 169.002548 -0.000005 0.561837
-82.925797 167.420471 -0.000004 0.563134
-81.588249 166.320877 -0.000003 0.518334
-80.602798 165.510742 -0.000002 0.523552
nan nan nan 0.000000
nan nan nan 0.000000
nan nan nan 0.000000
nan nan nan 0.000000
nan nan nan 0.000000
nan nan nan 0.000000
nan nan nan 0.000000
nan nan nan 0.000000
nan nan nan 0.000000
-105.702110 186.512772 -0.000017 0.539956
-93.168396 176.061340 -0.000010 0.548058
-87.787224 171.574158 -0.000007 0.545419
-84.790199 169.075058 -0.000005 0.537865
-82.876862 167.479584 -0.000005 0.543648
-81.547020 166.370682 -0.000003 0.536690
-80.567253 165.553680 -0.000003 0.498024
nan nan nan 0.000000
nan nan nan 0.000000
nan nan nan 0.000000
nan nan nan 0.000000
nan nan nan 0.000000
nan nan nan 0.000000
nan nan nan 0.000000
nan nan nan 0.000000
nan nan nan 0.000000
-105.519341 186.730438 -0.000018 0.544991
-93.058884 176.191742 -0.000010 0.538186
-87.709167 171.667114 -0.000007 0.529900
-84.729660 169.147141 -0.000005 0.539452
-82.827515 167.538345 -0.000005 0.547707
-81.505447 166.420181 -0.000004 0.574609
-80.531403 165.596375 -0.000003 0.577111
nan nan nan 0.000000
nan nan nan 0.000000
nan nan nan 0.000000
nan nan nan 0.000000
nan nan nan 0.000000
nan nan nan 0.000000
nan nan nan 0.000000
nan nan nan 0.000000
nan nan nan 0.000000
-105.335045 186.946793 -0.000017 0.542275
-92.948463 176.321381 -0.000010 0.541802
-87.630463 171.759506 -0.000007 0.567590
-84.668633 169.218796 -0.000005 0.543343
-82.777756 167.596771 -0.000005 0.586862
-81.463524 166.469391 -0.000003 0.540932
-80.495262 165.638809 -0.000003 0.542138
-98.335289 181.233673 9.935299 0.640620
-98.335297 181.233688 8.842117 0.647837
-98.335297 181.233688 7.764280 0.637720
-98.335304 181.233688 6.699211 0.629068
-98.335304 181.233688 5.644434 0.649744
-98.335312 181.233704 4.597572 0.661738
-98.335312 181.233688 3.556314 0.634684
-98.335350 181.233734 2.518402 0.624414
-98.335335 181.233719 1.481599 0.678752
-98.326042 181.225632 0.444289 0.624887
-92.837135 176.450226 -0.000010 0.541085
-87.551117 171.851349 -0.000007 0.533181
-84.607094 169.290024 -0.000006 0.520165
-82.727585 167.654831 -0.000004 0.526299
-81.421265 166.518326 -0.000004 0.517098
-80.458817 165.680984 -0.000002 0.543069
-98.065697 181.290741 9.893925 0.714290
-98.065697 181.290741 8.806440 0.637964
-98.065689 181.290741 7.734223 0.644648
-98.065697 181.290741 6.674707 0.625788
-98.065704 181.290756 5.625432 0.636423
-98.065697 181.290741 4.584026 0.656138
-98.065697 181.290741 3.548199 0.632563
-98.065689 181.290741 2.515697 0.628794
-98.065704 181.290756 1.484302 0.696910
-98.065712 181.290771 0.451800 0.636088
-92.724922 176.578323 -0.000011 0.539559
-87.471138 171.942642 -0.000008 0.552483
-84.545067 169.360825 -0.000006 0.551202
-82.677017 167.712555 -0.000004 0.513497
-81.378662 166.566940 -0.000004 0.549584
-80.422089 165.722916 -0.000003 0.522042
-97.834999 181.379547 9.865502 0.639872
-97.834991 181.379547 8.781932 0.624079
-97.835007 181.379547 7.713579 0.649943
-97.835007 181.379547 6.657877 0.646601
-97.835007 181.379547 5.612378 0.648066
-97.835007 181.379547 4.574723 0.644907
-97.835007 181.379547 3.542625 0.673335
-97.835007 181.379547 2.513841 0.627237
-97.835007 181.379547 1.486159 0.674556
-97.835007 181.379547 0.457375 0.648844
-92.611809 176.705612 -0.000010 0.545632
-87.390518 172.033371 -0.000008 0.535714
-84.482544 169.431183 -0.000006 0.544442
-82.626053 167.769913 -0.000005 0.544427
-81.335716 166.615265 -0.000004 0.522011
-80.385063 165.764587 -0.000003 0.555276
-97.605980 181.467743 9.837675 0.635325
-97.605972 181.467743 8.757939 0.637919
-97.605980 181.467743 7.693365 0.586465
-97.605980 181.467743 6.641397 0.631983
-97.605988 181.467743 5.599598 0.611765
-97.605980 181.467743 4.565614 0.624002
-97.605988 181.467743 3.537167 0.632181
-97.605988 181.467743 2.512023 0.619379
-97.605980 181.467743 1.487977 0.641535
-97.605957 181.467712 0.462834 0.664836
-92.497818 176.832108 -0.000010 0.537652
-87.309265 172.123535 -0.000007 0.529931
-84.419525 169.501114 -0.000005 0.521920
-82.574677 167.826920 -0.000005 0.560296
-81.292442 166.663300 -0.000004 0.574578
-80.347748 165.805984 -0.000003 0.548623
-97.378548 181.555298 9.810419 0.629267
-97.378540 181.555298 8.734434 0.638025
-97.378548 181.555298 7.673564 0.660136
-97.378540 181.555298 6.625254 0.645579
-97.378540 181.555298 5.587077 0.626078
-97.378540 181.555298 4.556690 0.661219
-97.378540 181.555298 3.531820 0.664240
-97.378555 181.555313 2.510243 0.623041
-97.378555 181.555298 1.489757 0.659205
-97.378494 181.555252 0.468182 0.669306
-92.382942 176.957809 -0.000010 0.546578
-87.227394 172.213120 -0.000007 0.542702
-84.356026 169.570587 -0.000005 0.540536
-82.522911 167.883560 -0.000005 0.534813
-81.248833 166.711014 -0.000004 0.569436
-80.310143 165.847137 -0.000003 0.563622
-97.152451 181.642044 9.783651 0.627420
-97.152458 181.642059 8.711361 0.633417
-97.152466 181.642059 7.654123 0.647974
-97.152458 181.642059 6.609406 0.643656
-97.152466 181.642059 5.574786 0.588602
-97.152466 181.642059 4.547930 0.664912
-97.152466 181.642059 3.526572 0.660990
-97.152458 181.642059 2.508493 0.618341
-97.152458 181.642059 1.491506 0.667948
-97.152466 181.642059 0.473428 0.625269
-92.267189 177.082703 -0.000010 0.545525
-87.144890 172.302155 -0.000008 0.559304
-84.292046 169.639633 -0.000006 0.519081
-82.470749 167.939850 -0.000005 0.543542
-81.204880 166.758438 -0.000004 0.574456
-80.272255 165.888016 -0.000003 0.590509
-96.928078 181.728378 9.757507 0.645869
-96.859055 181.663055 8.668289 0.705425
-96.928078 181.728378 7.635128 0.676692
-96.928078 181.728378 6.593921 0.624933
-96.928078 181.728378 5.562778 0.621485
-96.928078 181.728378 4.539371 0.621653
-96.928085 181.728394 3.521444 0.628992
-96.928078 181.728378 2.506786 0.675975
-96.928078 181.728378 1.493214 0.654337
-96.928078 181.728378 0.478556 0.675624
-92.150574 177.206802 -0.000011 0.549477
-87.061768 172.390594 -0.000008 0.552956
-84.227585 169.708221 -0.000006 0.555062
-82.418198 167.995758 -0.000005 0.535607
-81.160614 166.805542 -0.000004 0.507408
-80.234077 165.928635 -0.000003 0.498741
-96.756561 181.863434 9.749745 0.678431
-96.636658 181.748367 8.646229 0.732982
-96.756554 181.863434 7.629489 0.678431
-96.756554 181.863434 6.589324 0.678431
-96.756554 181.863434 5.559212 0.678431
-96.756554 181.863434 4.536829 0.678431
-96.713127 181.821762 3.516964 0.784680
-96.756546 181.863434 2.506279 0.678431
-96.756546 181.863434 1.493722 0.678431
-96.713127 181.821762 0.483035 0.794705
-92.033089 177.330063 -0.000011 0.540688
-86.978035 172.478455 -0.000008 0.546075
-84.162643 169.776367 -0.000005 0.554314
-82.365257 168.051315 -0.000005 0.545571
-81.116013 166.852341 -0.000003 0.524010
-80.195618 165.968994 -0.000003 0.551247
-96.534592 181.948807 9.724627 0.678431
-96.416138 181.833527 8.624763 0.717113
-96.534592 181.948807 7.611245 0.678431
-96.534592 181.948807 6.574450 0.678431
-96.534592 181.948807 5.547677 0.678431
-96.534592 181.948807 4.528607 0.678431
-96.491600 181.906967 3.512048 0.794858
-96.534592 181.948807 2.504638 0.678431
-96.534592 181.948807 1.495362 0.678431
-96.491592 181.906967 0.487952 0.779629
-91.914749 177.452515 -0.000011 0.536370
-86.893684 172.565720 -0.000007 0.529473
-84.097229 169.844040 -0.000006 0.534005
-82.311928 168.106491 -0.000005 0.539193
-81.071083 166.898819 -0.000004 0.520211
-80.156883 166.009079 -0.000003 0.547875
-96.314056 182.033630 9.700047 0.678431
-96.196709 181.917816 8.603662 0.697200
-96.314049 182.033630 7.593389 0.678431
-96.314049 182.033630 6.559894 0.678431
-96.314049 182.033630 5.536387 0.678431
-96.314049 182.033630 4.520560 0.678431
-96.271484 181.991623 3.507236 0.795407
-96.314049 182.033630 2.503032 0.678431
-96.314049 182.033630 1.496968 0.678431
-96.271484 181.991623 0.492763 0.788174
-91.795555 177.574127 -0.000011 0.544030
-86.808731 172.652405 -0.000007 0.535332
-84.031342 169.911270 -0.000006 0.498482
-82.258217 168.161285 -0.000004 0.533288
-81.025833 166.944992 -0.000004 0.538430
-80.117867 166.048889 -0.000003 0.523980
-96.094894 182.117920 9.675994 0.678431
-95.978722 182.001648 8.583033 0.705028
-96.094894 182.117920 7.575916 0.678431
-96.094902 182.117935 6.545651 0.678431
-96.094894 182.117920 5.525341 0.678431
-96.094894 182.117920 4.512689 0.678431
-96.052750 182.075745 3.502528 0.785718
-96.094894 182.117920 2.501461 0.678431
-96.094894 182.117920 1.498540 0.678431
-96.052750 182.075745 0.497472 0.796292
-91.675514 177.694901 -0.000011 0.535241
-86.723175 172.738495 -0.000008 0.536629
-83.964989 169.978027 -0.000006 0.531121
-82.204124 168.215729 -0.000005 0.540597
-80.980255 166.990845 -0.000004 0.505577
-80.078568 166.088425 -0.000003 0.536843
-95.877106 182.201706 9.652465 0.678431
-95.762146 182.085037 8.562871 0.719539
-95.877106 182.201706 7.558825 0.678431
-95.877098 182.201691 6.531717 0.678431
-95.877098 182.201691 5.514535 0.678431
-95.877098 182.201691 4.504985 0.678431
-95.835381 182.159363 3.497921 0.795895
-95.877098 182.201706 2.499923 0.678431
-95.877098 182.201706 1.500077 0.678431
-95.835381 182.159363 0.502077 0.788449
-91.554634 177.814850 -0.000011 0.539757
-86.637016 172.823975 -0.000008 0.534386
-83.898170 170.044327 -0.000006 0.548989
-82.149651 168.269775 -0.000004 0.545419
-80.934372 167.036377 -0.000004 0.525216
-80.039001 166.127686 -0.000003 0.551156
-95.660629 182.284958 9.629448 0.678431
-95.546661 182.167664 8.543077 0.720989
-95.660629 182.284958 7.542106 0.678431
-95.660629 182.284958 6.518087 0.678431
-95.660622 182.284958 5.503964 0.678431
-95.660629 182.284958 4.497451 0.678431
-95.619324 182.242462 3.493416 0.785306
-95.660622 182.284958 2.498419 0.678431
-95.660622 182.284958 1.501580 0.678431
-95.619324 182.242462 0.506583 0.809308
-91.432922 177.933945 -0.000011 0.531228
-86.550262 172.908859 -0.000008 0.537972
-83.830887 170.110168 -0.000006 0.496330
-82.094803 168.323441 -0.000005 0.549142
-80.888161 167.081589 -0.000004 0.544213
-79.999161 166.166672 -0.000003 0.555718
-95.445435 182.367737 9.606941 0.678431
-95.332687 182.250061 8.523794 0.698116
-95.445435 182.367737 7.525755 0.678431
-95.445442 182.367737 6.504758 0.678431
-95.445435 182.367722 5.493627 0.678431
-95.445435 182.367737 4.490083 0.678431
-95.404549 182.325058 3.489010 0.780713
-95.445435 182.367737 2.496950 0.678431
-95.445435 182.367737 1.503051 0.678431
-95.404549 182.325058 0.510989 0.765240
-91.310379 178.052185 -0.000011 0.543252
-86.462921 172.993134 -0.000008 0.545968
-83.763153 170.175522 -0.000006 0.580179
-82.039581 168.376724 -0.000005 0.546761
-80.841637 167.126480 -0.000004 0.549172
-79.959045 166.205368 -0.000003 0.558343
-95.191025 182.407181 9.570171 0.761303
-95.119995 182.332001 8.504950 0.716289
-95.191025 182.407181 7.499046 0.776547
-95.191025 182.407181 6.482983 0.763470
-95.191025 182.407181 5.476740 0.760723
-95.191025 182.407181 4.478047 0.772992
-95.191032 182.407181 3.484703 0.781735
-95.191025 182.407166 2.494548 0.770535
-95.191025 182.407181 1.505453 0.767483
-95.191025 182.407181 0.515297 0.796811
-91.187012 178.169556 -0.000011 0.532357
-86.375000 173.076813 -0.000009 0.559609
-83.694962 170.240402 -0.000006 0.506874
-81.983994 168.429611 -0.000005 0.558145
-80.794800 167.171051 -0.000004 0.568490
-79.918663 166.243790 -0.000003 0.557488
-94.972000 182.481613 9.546228 0.656931
-94.908508 182.413467 8.486525 0.737881
-94.972015 182.481628 7.481658 0.673381
-94.972008 182.481613 6.468804 0.651667
-94.972023 182.481628 5.465747 0.623667
-94.972015 182.481628 4.470211 0.615274
-94.972000 182.481613 3.480007 0.679835
-94.972015 182.481628 2.492983 0.696880
-94.971878 182.481476 1.507020 0.656275
-94.971657 182.481232 0.520018 0.630198
-91.062836 178.286072 -0.000011 0.531472
-86.286484 173.159851 -0.000008 0.543221
-83.626320 170.304810 -0.000006 0.523217
-81.928032 168.482117 -0.000005 0.566354
-80.747658 167.215286 -0.000004 0.558419
-79.878014 166.281937 -0.000004 0.510643
-94.706947 182.503983 9.505250 0.649363
-94.698250 182.494522 8.468534 0.702358
-94.886543 182.699448 7.500186 0.640253
-94.706940 182.503983 6.444536 0.651331
-94.886536 182.699432 5.477459 0.647501
-94.886536 182.699448 4.478560 0.674846
-94.706947 182.503983 3.471970 0.640558
-94.886536 182.699448 2.494650 0.664607
-94.706947 182.503983 1.509694 0.512688
-94.687126 182.482407 0.529469 0.660441
-90.937843 178.401733 -0.000011 0.539528
-86.197403 173.242279 -0.000008 0.545388
-83.557228 170.368744 -0.000006 0.553780
-81.871704 168.534241 -0.000005 0.554528
-80.700211 167.259186 -0.000004 0.550195
-79.837097 166.319794 -0.000003 0.548104
-95.099358 183.248657 9.709300 0.663981
-94.492058 182.578354 8.451895 0.692546
-95.099312 183.248611 7.600098 0.642878
-95.099373 183.248672 6.565376 0.620020
-95.099335 183.248627 5.540634 0.632761
-95.099335 183.248627 4.523587 0.647135
-95.099342 183.248642 3.511987 0.648219
-95.099274 183.248566 2.503634 0.640177
-95.099350 183.248657 1.496364 0.627924
-94.478561 182.563446 0.533434 0.668544
-90.812042 178.516510 -0.000011 0.555001
-86.107742 173.324081 -0.000008 0.530678
-83.487694 170.432190 -0.000006 0.544671
-81.815018 168.585953 -0.000005 0.545312
-80.652451 167.302765 -0.000004 0.568490
-79.795921 166.357361 -0.000004 0.548165
-94.289650 182.664810 9.464921 0.656519
-94.312958 182.690903 8.444096 0.707485
-95.161880 183.641144 7.660811 0.739055
-94.289650 182.664810 6.420657 0.661479
-95.065033 183.532745 5.562292 0.678431
-95.161880 183.641144 4.550944 0.745708
-94.289650 182.664810 3.464060 0.630655
-95.061462 183.528748 2.506629 0.779263
-94.289650 182.664810 1.512328 0.515236
-94.270660 182.643555 0.537339 0.661372
-90.685455 178.630402 -0.000011 0.549233
-86.017509 173.405258 -0.000008 0.535119
-83.417709 170.495132 -0.000005 0.540246
-81.757973 168.637283 -0.000005 0.552392
-80.604385 167.345993 -0.000004 0.528862
-79.754478 166.394638 -0.000003 0.487434
-95.022552 183.811569 9.801634 0.678431
-94.151260 182.822464 8.442174 0.799268
-95.022552 183.811554 7.667183 0.678431
-95.022552 183.811554 6.620053 0.678431
-94.849846 183.615509 5.552987 0.678431
-95.022552 183.811569 4.553816 0.678431
-95.022552 183.811569 3.530098 0.678431
-94.846313 183.611496 2.505306 0.789197
-95.022552 183.811569 1.490331 0.678431
-94.063705 182.723068 0.541165 0.655985
-90.558075 178.743408 -0.000012 0.550576
-85.926712 173.485794 -0.000008 0.540261
-83.347298 170.557602 -0.000006 0.530556
-81.700569 168.688202 -0.000005 0.529076
-80.556030 167.388901 -0.000004 0.572519
-79.712784 166.431641 -0.000003 0.502190
-94.806671 183.894608 9.781688 0.678431
-93.955452 182.914566 8.429304 0.794217
-94.806671 183.894608 7.652694 0.678431
-94.806671 183.894608 6.608241 0.678431
-94.635765 183.697845 5.543901 0.678431
-94.806679 183.894608 4.547286 0.678431
-94.806671 183.894608 3.526187 0.678431
-94.632278 183.693817 2.504013 0.789715
-94.806671 183.894608 1.491634 0.678431
-93.857895 182.802261 0.544893 0.647822
-90.429901 178.855515 -0.000012 0.534630
-85.835358 173.565704 -0.000008 0.526940
-83.276451 170.619583 -0.000006 0.572183
-81.642807 168.738724 -0.000005 0.527153
-80.507370 167.431458 -0.000004 0.561303
-79.670830 166.468338 -0.000003 0.545007
-94.591858 183.977203 9.762215 0.678431
-93.797935 183.050140 8.429259 0.785885
-94.591866 183.977203 7.638549 0.678431
-94.591858 183.977203 6.596709 0.678431
-94.422775 183.779755 5.535034 0.678431
-94.591866 183.977203 4.540912 0.678431
-94.591866 183.977203 3.522367 0.678431
-94.419319 183.775726 2.502753 0.800031
-94.591866 183.977203 1.492907 0.678431
-93.652962 182.880859 0.548544 0.645823
-90.300949 178.966736 -0.000012 0.541650
-85.743446 173.644974 -0.000008 0.546166
-83.205170 170.681061 -0.000006 0.535317
-81.584702 168.788849 -0.000005 0.538476
-80.458412 167.473694 -0.000004 0.535546
-79.628616 166.504745 -0.000003 0.507897
-93.528397 183.053040 9.413298 0.647730
-93.528427 183.053070 8.392035 0.643473
-93.528412 183.053055 7.385095 0.613092
-93.528397 183.053040 6.390082 0.616358
-93.528427 183.053070 5.404697 0.666423
-93.528412 183.053055 4.426697 0.630259
-93.528397 183.053040 3.453935 0.651072
-93.528427 183.053070 2.484300 0.661494
-93.528137 183.052734 1.515708 0.640421
-93.527870 183.052414 0.546104 0.636774
-90.171219 179.077042 -0.000011 0.541299
-85.650986 173.723602 -0.000008 0.528725
-83.133461 170.742035 -0.000006 0.555642
-81.526237 168.838547 -0.000005 0.505623
-80.409164 167.515564 -0.000004 0.537591
-79.586151 166.540848 -0.000003 0.527886
-93.314095 183.118561 9.391384 0.627924
-93.314102 183.118561 8.373131 0.613916
-93.314102 183.118561 7.369174 0.640253
-93.314102 183.118561 6.377108 0.609461
-93.314102 183.118561 5.394629 0.621836
-93.314095 183.118561 4.419522 0.642298
-93.314102 183.118561 3.449638 0.644373
-93.314026 183.118469 2.482865 0.664347
-93.314026 183.118469 1.517135 0.621668
-93.314026 183.118469 0.550367 0.622202
-90.040726 179.186447 -0.000011 0.541680
-85.557983 173.801590 -0.000008 0.541314
-83.061333 170.802505 -0.000006 0.519692
-81.467438 168.887848 -0.000005 0.559136
-80.359627 167.557098 -0.000004 0.549691
-79.543434 166.576660 -0.000003 0.549142
-93.154518 183.248825 9.391068 0.678431
-93.118103 183.204453 8.360461 0.725017
-93.154518 183.248840 7.368945 0.678431
-93.118103 183.204468 6.368406 0.776471
-93.154518 183.248840 5.394485 0.678431
-93.154518 183.248840 4.419420 0.678431
-93.118103 183.204468 3.446756 0.785046
-93.154518 183.248825 2.482846 0.678431
-93.154518 183.248840 1.517153 0.678431
-93.118103 183.204468 0.553243 0.788449
-89.909477 179.294937 -0.000012 0.530694
-85.464432 173.878906 -0.000008 0.548394
-82.988777 170.862473 -0.000006 0.529427
-81.408295 168.936737 -0.000005 0.539055
-80.309792 167.598282 -0.000004 0.566873
-79.500473 166.612183 -0.000003 0.574945
-92.952431 183.326569 9.374187 0.678431
-92.916405 183.282028 8.345930 0.709636
-92.952431 183.326569 7.356681 0.678431
-92.916405 183.282043 6.358427 0.805081
-92.952431 183.326569 5.386731 0.678431
-92.952431 183.326569 4.413893 0.678431
-92.916405 183.282043 3.443451 0.802930
-92.952431 183.326569 2.481744 0.678431
-92.952438 183.326569 1.518256 0.678431
-92.916405 183.282043 0.556549 0.784451
-89.777466 179.402512 -0.000011 0.546868
-85.370338 173.955582 -0.000008 0.532937
-82.915810 170.921936 -0.000006 0.536278
-81.348808 168.985214 -0.000005 0.543847
-80.259674 167.639130 -0.000004 0.543023
-79.457260 166.647385 -0.000003 0.550103
-92.751251 183.403931 9.357737 0.678431
-92.753113 183.406281 8.344763 0.766384
-92.751259 183.403946 7.344731 0.678431
-92.715622 183.359268 6.348706 0.772854
-92.751259 183.403946 5.379176 0.678431
-92.751251 183.403931 4.408508 0.678431
-92.715622 183.359253 3.440230 0.785306
-92.751251 183.403931 2.480669 0.678431
-92.751251 183.403931 1.519331 0.678431
-92.715622 183.359253 0.559768 0.796078
-89.644714 179.509155 -0.000011 0.546365
-85.275719 174.031601 -0.000008 0.535729
-82.842430 170.980896 -0.000006 0.508736
-81.288986 169.033279 -0.000005 0.530205
-80.209282 167.679611 -0.000004 0.534417
-79.413803 166.682297 -0.000003 0.524163
-92.550964 183.480972 9.341717 0.678431
-92.563705 183.497177 8.334757 0.122576
-92.550964 183.480972 7.333094 0.678431
-92.515717 183.436142 6.339236 0.762432
-92.550964 183.480972 5.371819 0.678431
-92.550964 183.480972 4.403264 0.678431
-92.515717 183.436142 3.437096 0.776486
-92.550964 183.480972 2.479623 0.678431
-92.550964 183.480972 1.520377 0.678431
-92.515717 183.436142 0.562905 0.796811
-89.511215 179.614868 -0.000012 0.541833
-85.180573 174.106949 -0.000008 0.532494
-82.768639 171.039322 -0.000006 0.512642
-81.228828 169.080917 -0.000005 0.575799
-80.158600 167.719757 -0.000004 0.498360
-79.370102 166.716904 -0.000003 0.578820
-92.351532 183.557678 9.326124 0.678431
-92.351532 183.557678 8.316860 0.678431
-92.351532 183.557678 7.321766 0.678431
-92.316681 183.512695 6.330019 0.729839
-92.351540 183.557678 5.364657 0.678431
-92.351532 183.557678 4.398160 0.678431
-92.316681 183.512711 3.434043 0.782071
-92.351540 183.557693 2.478604 0.678431
-92.351540 183.557693 1.521396 0.678431
-92.316673 183.512695 0.565957 0.795956
-89.376991 179.719666 -0.000012 0.531975
-85.084900 174.181625 -0.000008 0.537743
-82.694435 171.097244 -0.000006 0.537621
-81.168335 169.128143 -0.000005 0.540215
-80.107635 167.759537 -0.000004 0.542214
-79.326164 166.751205 -0.000003 0.588342
-92.152939 183.634064 9.310951 0.678431
-92.152939 183.634064 8.303778 0.678431
-92.152946 183.634064 7.310746 0.678431
-92.118469 183.588943 6.321053 0.775998
-92.152946 183.634064 5.357689 0.678431
-92.152946 183.634064 4.393194 0.678431
-92.118469 183.588928 3.431073 0.782513
-92.152946 183.634064 2.477613 0.678431
-92.152946 183.634064 1.522387 0.678431
-92.118469 183.588928 0.568927 0.767590
-89.242035 179.823502 -0.000012 0.546136
-84.988708 174.255646 -0.000008 0.536324
-82.619835 171.154648 -0.000006 0.564675
-81.107521 169.174927 -0.000005 0.553216
-80.056404 167.798950 -0.000004 0.559792
-79.281990 166.785202 -0.000003 0.546334
-91.955162 183.710144 9.296198 0.678431
-91.955162 183.710144 8.291058 0.678431
-91.955162 183.710144 7.300028 0.678431
-91.921066 183.664856 6.312331 0.772442
-91.955162 183.710144 5.350913 0.678431
-91.955162 183.710144 4.388365 0.678431
-91.921066 183.664856 3.428185 0.777935
-91.955162 183.710144 2.476649 0.678431
-91.955162 183.710144 1.523351 0.678431
-91.921074 183.664856 0.571815 0.794217
-89.106354 179.926407 -0.000012 0.556954
-84.892006 174.328995 -0.000008 0.534524
-82.544838 171.211533 -0.000006 0.544625
-81.046379 169.221298 -0.000005 0.561303
-80.004890 167.838013 -0.000004 0.535241
-79.237572 166.818878 -0.000004 0.563546
-91.758163 183.785919 9.281858 0.678431
-91.758163 183.785904 8.278692 0.678431
-91.758163 183.785904 7.289613 0.678431
-91.724449 183.740479 6.303854 0.782376
-91.758171 183.785919 5.344328 0.678431
-91.758163 183.785919 4.383670 0.678431
-91.724457 183.740479 3.425378 0.784482
-91.758163 183.785919 2.475713 0.678431
-91.758163 183.785919 1.524288 0.678431
-91.724457 183.740479 0.574622 0.787671
-88.969955 180.028351 -0.000012 0.544289
-84.794785 174.401657 -0.000008 0.536522
-82.469444 171.267883 -0.000006 0.548150
-80.984917 169.267242 -0.000005 0.548867
-79.953110 167.876724 -0.000004 0.553948
-79.192924 166.852249 -0.000004 0.504936
-91.528595 183.815796 9.253780 0.776471
-91.528603 183.815811 8.254485 0.794339
-91.528603 183.815811 7.269219 0.789242
-91.528603 183.815811 6.295620 0.786419
-91.528603 183.815811 5.331433 0.776471
-91.528603 183.815811 4.374480 0.788968
-91.528603 183.815811 3.422651 0.778088
-91.528603 183.815811 2.473878 0.777203
-91.528603 183.815811 1.526122 0.789822
-91.528603 183.815811 0.577349 0.795666
-88.832848 180.129349 -0.000012 0.543877
-84.697067 174.473633 -0.000008 0.537560
-82.393661 171.323715 -0.000006 0.544747
-80.923134 169.312759 -0.000005 0.540536
-79.901062 167.915070 -0.000004 0.511894
-79.148048 166.885315 -0.000003 0.530221
-91.327461 183.882477 9.237700 0.672023
-91.327454 183.882477 8.240618 0.630610
-91.327454 183.882477 7.257534 0.657298
-91.327454 183.882477 6.286096 0.639872
-91.327454 183.882477 5.324046 0.628199
-91.327454 183.882477 4.369215 0.636805
-91.327454 183.882477 3.419496 0.655543
-91.327454 183.882477 2.472827 0.664759
-91.327454 183.882477 1.527173 0.649744
-91.327454 183.882477 0.580504 0.631067
-88.695045 180.229385 -0.000012 0.551492
-84.598839 174.544937 -0.000008 0.560479
-82.317482 171.378998 -0.000006 0.531533
-80.861031 169.357834 -0.000005 0.558404
-79.848747 167.953049 -0.000004 0.554986
-79.102936 166.918060 -0.000003 0.577264
-91.133194 183.957306 9.224635 0.619074
-91.133194 183.957306 8.229352 0.624842
-91.133186 183.957306 7.248044 0.638651
-91.133186 183.957306 6.278359 0.656901
-91.133194 183.957306 5.318046 0.654612
-91.133194 183.957306 4.364938 0.636942
-91.133194 183.957306 3.416934 0.647059
-91.133179 183.957291 2.471973 0.653117
-91.133163 183.957275 1.528027 0.659586
-91.133163 183.957275 0.583068 0.635081
-88.556541 180.328461 -0.000012 0.538766
-84.500130 174.615540 -0.000008 0.541131
-82.240921 171.433762 -0.000006 0.539315
-80.798615 169.402481 -0.000005 0.556390
-79.796165 167.990662 -0.000004 0.497246
-79.057594 166.950485 -0.000003 0.541909
-90.939430 184.031601 9.211884 0.632395
-90.939423 184.031601 8.218359 0.626856
-90.939423 184.031601 7.238781 0.621439
-90.939423 184.031601 6.270808 0.647532
-90.939423 184.031601 5.312190 0.635370
-90.939423 184.031601 4.360765 0.640330
-90.939423 184.031601 3.414433 0.672435
-90.939430 184.031601 2.471141 0.670207
-90.939445 184.031631 1.528858 0.668833
-90.939445 184.031631 0.585565 0.640253
-88.417358 180.426559 -0.000012 0.540352
-84.400925 174.685471 -0.000008 0.545174
-82.163986 171.487991 -0.000006 0.525673
-80.735893 169.446686 -0.000005 0.574823
-79.743317 168.027893 -0.000004 0.544732
-79.012039 166.982605 -0.000003 0.551522
-90.746513 184.105896 9.199606 0.630762
-90.746521 184.105896 8.207775 0.619257
-90.746513 184.105896 7.229865 0.655100
-90.746513 184.105896 6.263538 0.638148
-90.746513 184.105896 5.306551 0.646159
-90.746513 184.105896 4.356746 0.633356
-90.746513 184.105896 3.412025 0.641886
-90.746513 184.105896 2.470338 0.643442
-90.746521 184.105896 1.529661 0.635843
-90.746513 184.105896 0.587974 0.645945
-88.277481 180.523682 -0.000012 0.542367
-84.301231 174.754700 -0.000008 0.537957
-82.086670 171.541687 -0.000006 0.552224
-80.672867 169.490448 -0.000005 0.547555
-79.690224 168.064774 -0.000004 0.522393
-78.966255 167.014404 -0.000004 0.555932
-90.554268 184.179977 9.187733 0.639887
-90.554276 184.179977 8.197536 0.636988
-90.554268 184.179962 7.221238 0.616678
-90.554268 184.179977 6.256506 0.647166
-90.554276 184.179977 5.301098 0.642420
-90.554268 184.179977 4.352858 0.608576
-90.554268 184.179962 3.409697 0.624079
-90.554276 184.179977 2.469564 0.594614
-90.554253 184.179947 1.530437 0.635828
-90.554245 184.179932 0.590305 0.646937
-88.136940 180.619827 -0.000012 0.532769
-84.201057 174.823227 -0.000009 0.534417
-82.008980 171.594833 -0.000006 0.549432
-80.609528 169.533783 -0.000005 0.545144
-79.636864 168.101273 -0.000004 0.543618
-78.920242 167.045868 -0.000003 0.550500
-90.362648 184.253815 9.176247 0.629252
-90.362656 184.253815 8.187634 0.626841
-90.362656 184.253815 7.212897 0.640696
-90.362656 184.253815 6.249705 0.601358
-90.362656 184.253815 5.295825 0.598901
-90.362656 184.253815 4.349100 0.609384
-90.362656 184.253815 3.407444 0.643839
-90.362663 184.253830 2.468813 0.615702
-90.362633 184.253784 1.531188 0.636332
-90.362610 184.253754 0.592560 0.646159
-87.995728 180.714996 -0.000012 0.532097
-84.100403 174.891052 -0.000008 0.531151
-81.930923 171.647446 -0.000007 0.550698
-80.545898 169.576660 -0.000005 0.581979
-79.583252 168.137405 -0.000004 0.530877
-78.874016 167.077026 -0.000003 0.538582
-90.171631 184.327423 9.165148 0.633371
-90.171638 184.327423 8.178062 0.635493
-90.171638 184.327423 7.204834 0.614328
-90.171631 184.327423 6.243132 0.642908
-90.171638 184.327423 5.290726 0.639323
-90.171631 184.327423 4.345466 0.608118
-90.171631 184.327423 3.405267 0.663584
-90.171646 184.327438 2.468089 0.620615
-90.171616 184.327393 1.531913 0.632349
-90.171577 184.327332 0.594738 0.674617
-87.853851 180.809174 -0.000012 0.536217
-83.999283 174.958176 -0.000009 0.539513
-81.852501 171.699493 -0.000007 0.560647
-80.481964 169.619110 -0.000005 0.545113
-79.529388 168.173157 -0.000004 0.557961
-78.827576 167.107849 -0.000003 0.555154
-90.168793 184.689941 9.240761 0.628092
-90.169067 184.690353 8.243366 0.651408
-90.169083 184.690384 7.259856 0.648005
-90.169098 184.690399 6.287993 0.630915
-90.169113 184.690430 5.325519 0.635706
-90.169106 184.690414 4.370265 0.625483
-90.169106 184.690414 3.420125 0.653437
-90.168907 184.690109 2.473031 0.656336
-90.168472 184.689438 1.526982 0.670726
-90.168045 184.688782 0.579970 0.649943
-87.711327 180.902359 -0.000012 0.546014
-83.897697 175.024597 -0.000008 0.533455
-81.773712 171.751007 -0.000007 0.621653
-80.417740 169.661102 -0.000005 0.568902
-79.475281 168.208527 -0.000004 0.534325
-78.780922 167.138351 -0.000004 0.564981
-90.531219 185.631958 9.488305 0.651789
-90.531212 185.631958 8.456699 0.670817
-90.531204 185.631943 7.439575 0.641001
-90.531227 185.631989 6.434507 0.639506
-90.531242 185.632004 5.439147 0.652918
-90.531235 185.631989 4.451253 0.655238
-90.531235 185.631989 3.468648 0.653346
-90.531082 185.631760 2.489196 0.637400
-90.530594 185.630981 1.510820 0.652720
-90.530121 185.630249 0.531453 0.649454
-87.568146 180.994537 -0.000011 0.544823
-83.795654 175.090302 -0.000009 0.545159
-81.694572 171.801956 -0.000006 0.543893
-80.353218 169.702637 -0.000005 0.518959
-79.420929 168.243530 -0.000004 0.553079
-78.734055 167.168533 -0.000004 0.545129
-90.919113 186.640396 9.753670 0.629084
-90.919075 186.640335 8.685492 0.651423
-90.918991 186.640213 7.632301 0.657145
-90.919006 186.640228 6.591619 0.630457
-90.919014 186.640259 5.560995 0.637400
-90.919014 186.640244 4.538100 0.639857
-90.919014 186.640259 3.520682 0.659800
-90.918938 186.640121 2.506530 0.658701
-90.918434 186.639328 1.493486 0.653468
-90.918159 186.638885 0.479396 0.650767
-87.424339 181.085724 -0.000012 0.545510
-83.693146 175.155289 -0.000009 0.549462
-81.615082 171.852371 -0.000006 0.540612
-80.288414 169.743729 -0.000005 0.532158
-79.366325 168.278152 -0.000004 0.539498
-78.686981 167.198380 -0.000004 0.531182
-91.335464 187.722900 10.038912 0.650507
-91.335434 187.722855 8.931439 0.653941
-91.335281 187.722595 7.839476 0.667674
-91.335281 187.722595 6.760514 0.658915
-91.335289 187.722626 5.691979 0.646525
-91.335289 187.722610 4.631458 0.644221
-91.335297 187.722626 3.576617 0.621485
-91.335289 187.722626 2.525164 0.635737
-91.334869 187.721924 1.474850 0.635447
-91.334816 187.721848 0.423426 0.639704
-87.279892 181.175903 -0.000012 0.539391
-83.590195 175.219574 -0.000009 0.533165
-81.535233 171.902206 -0.000006 0.546029
-80.223320 169.784363 -0.000005 0.541588
-79.311493 168.312393 -0.000005 0.538705
-78.639702 167.227905 -0.000007 0.336904
-91.970879 189.195160 10.436434 0.678431
-91.783562 188.888000 9.196509 0.611399
-91.970879 189.195160 8.128309 0.678431
-91.970871 189.195145 6.995974 0.678431
-91.783478 188.887848 5.833181 0.632944
-91.970879 189.195160 4.761613 0.678431
-91.970879 189.195160 3.654599 0.678431
-91.783463 188.887833 2.545248 0.623880
-91.783295 188.887558 1.454756 0.649714
-91.783295 188.887558 0.363100 0.641947
-87.134819 181.265076 -0.000012 0.539895
-83.486794 175.283127 -0.000009 0.540139
-81.455040 171.951508 -0.000006 0.542779
-80.157944 169.824554 -0.000005 0.520226
-79.256409 168.346237 -0.000004 0.530968
-78.592216 167.257095 -0.000007 0.334569
-92.267166 190.145569 10.678539 0.647822
-92.267174 190.145569 9.482967 0.643671
-92.267166 190.145569 8.304176 0.642557
-92.267357 190.145874 7.139403 0.658381
-92.267494 190.146118 5.985852 0.620157
-92.267502 190.146118 4.840918 0.647059
-92.267502 190.146118 3.702114 0.652338
-92.267242 190.145691 2.566958 0.629786
-92.267258 190.145706 1.433042 0.646097
-92.267250 190.145706 0.297910 0.641123
-86.989120 181.353226 -0.000012 0.538964
-83.382950 175.345963 -0.000009 0.544289
-81.374504 172.000229 -0.000006 0.524025
-80.092293 169.864273 -0.000005 0.546563
-79.201103 168.379700 -0.000004 0.562097
-78.544525 167.285950 -0.000007 0.339071
-92.791260 191.508087 11.038944 0.646555
-92.791260 191.508087 9.793718 0.643198
-92.791260 191.508087 8.565979 0.650599
-92.791260 191.508087 7.352777 0.648981
-92.791321 191.508194 6.151316 0.647135
-92.791328 191.508194 4.958852 0.618814
-92.791336 191.508209 3.772774 0.655238
-92.791412 191.508331 2.590505 0.628153
-92.791420 191.508362 1.409495 0.648829
-92.791420 191.508362 0.227218 0.641978
-86.842812 181.440353 -0.000012 0.538003
-83.278671 175.408066 -0.000009 0.532311
-81.293633 172.048401 -0.000006 0.511467
-80.026360 169.903534 -0.000005 0.510521
-79.145554 168.412781 -0.000004 0.563561
-78.476311 167.280090 0.009999 1.000000
-93.360809 192.988770 11.431066 0.635142
-93.392670 193.043549 10.145509 0.758465
-93.360802 192.988754 8.850817 0.626184
-93.392670 193.043549 7.594388 0.762432
-93.392708 193.043610 6.338690 0.739940
-93.392662 193.043549 5.092395 0.766598
-93.392670 193.043549 3.852785 0.758129
-93.360771 192.988693 2.616116 0.651576
-93.360748 192.988663 1.383885 0.628870
-93.360779 192.988724 0.150331 0.643580
-86.695908 181.526474 -0.000012 0.552422
-83.173958 175.469437 -0.000008 0.549767
-81.212425 172.095993 -0.000007 0.535729
-79.960159 169.942337 -0.000005 0.532876
-79.089783 168.445480 -0.000005 0.540032
-78.428467 167.308151 0.009995 1.000000
-93.981796 194.603394 11.859126 0.632563
-93.981781 194.603363 10.500908 0.663661
-93.981789 194.603378 9.161766 0.649714
-93.981796 194.603394 7.838480 0.630167
-93.981796 194.603394 6.527985 0.643015
-93.981796 194.603394 5.227323 0.632578
-93.981796 194.603394 3.933625 0.645121
-93.981773 194.603348 2.644081 0.650797
-93.981743 194.603302 1.355920 0.633631
-93.981812 194.603424 0.066374 0.653864
-86.548401 181.611557 -0.000012 0.546471
-83.068825 175.530075 -0.000008 0.547494
-81.130890 172.143021 -0.000006 0.541573
-79.893684 169.980682 -0.000005 0.558175
-79.033783 168.477783 -0.000004 0.523278
-78.380432 167.335876 0.009991 1.000000
-93.928299 195.068512 11.953840 0.635752
-93.928307 195.068527 10.582581 0.630289
-93.928307 195.068527 9.230570 0.653727
-93.928307 195.068527 7.894570 0.644450
-93.928307 195.068527 6.571486 0.634241
-93.928307 195.068527 5.258328 0.649653
-93.928314 195.068542 3.952202 0.619852
-93.928314 195.068542 2.650270 0.613138
-94.661934 196.371765 1.325258 0.630823
-93.928307 195.068527 0.047799 0.579202
-86.400299 181.695602 -0.000012 0.550057
-82.963264 175.589981 -0.000008 0.542000
-81.049026 172.189484 -0.000006 0.531548
-79.826950 170.018555 -0.000005 0.520302
-78.977570 168.509705 -0.000009 0.346929
-78.332176 167.363220 0.010000 1.000000
-93.666870 195.169067 11.943908 0.647059
-93.666870 195.169067 10.574014 0.664134
-93.666870 195.169083 9.223354 0.636423
-93.666870 195.169067 7.888688 0.647059
-93.666870 195.169083 6.566925 0.650599
-93.666878 195.169083 5.255076 0.626627
-93.666878 195.169083 3.950253 0.643290
-93.666878 195.169098 2.649621 0.654963
-95.410110 198.317017 1.291496 0.627420
-93.666870 195.169083 0.049747 0.603922
-86.251617 181.778625 -0.000012 0.539590
-82.857292 175.649155 -0.000008 0.533425
-80.966843 172.235367 -0.000006 0.542916
-79.759949 170.055969 -0.000005 0.540475
-78.921120 168.541214 -0.000008 0.336980
-78.303108 167.425201 -0.000006 0.338384
-93.405945 195.269440 11.934482 0.641642
-93.405937 195.269424 10.565881 0.674464
-93.405945 195.269440 9.216503 0.637568
-93.405945 195.269440 7.883104 0.634974
-93.405945 195.269440 6.562593 0.665934
-93.405945 195.269440 5.251990 0.636255
-93.405952 195.269440 3.948404 0.629877
-93.405952 195.269455 2.649004 0.668666
-96.237030 200.467102 1.254143 0.624506
-93.405945 195.269440 0.051596 0.634562
-86.102364 181.860596 -0.000012 0.535775
-82.750916 175.707581 -0.000008 0.520577
-80.884338 172.280685 -0.000006 0.530159
-79.692688 170.092911 -0.000005 0.519631
-78.842300 168.531647 0.009997 1.000000
-78.254250 167.452042 -0.000006 0.337484
-93.145493 195.369598 11.925549 0.647059
-93.145493 195.369598 10.558184 0.644236
-93.145493 195.369598 9.210016 0.624491
-93.145500 195.369598 7.877818 0.647059
-93.145508 195.369598 6.558493 0.645426
-93.145508 195.369614 5.249066 0.637430
-93.145508 195.369614 3.946653 0.629084
-93.145508 195.369629 2.648421 0.642512
-97.156013 202.856567 1.212593 0.628885
-93.145500 195.369598 0.053348 0.560983
-85.952545 181.941528 -0.000012 0.538277
-82.644127 175.765259 -0.000008 0.533745
-80.801521 172.325424 -0.000006 0.510933
-79.625175 170.129379 -0.000005 0.504875
-78.785713 168.562241 0.009993 1.000000
-78.205200 167.478531 -0.000006 0.337469
-92.885498 195.469589 11.917119 0.648997
-92.885506 195.469589 10.550916 0.648386
-92.885506 195.469589 9.203892 0.636820
-92.885506 195.469589 7.872825 0.655726
-92.885513 195.469604 6.554620 0.655436
-92.885513 195.469604 5.246308 0.623529
-92.885513 195.469604 3.944999 0.628443
-92.885513 195.469620 2.647870 0.667643
-98.364204 205.871246 1.159751 0.711131
-92.885506 195.469604 0.055000 0.567452
-85.802155 182.021408 -0.000012 0.533104
-82.536934 175.822205 -0.000008 0.537987
-80.718391 172.369583 -0.000006 0.539712
-79.557404 170.165375 -0.000005 0.543038
-78.728889 168.592392 0.010001 1.000000
-78.155975 167.504669 -0.000006 0.334386
-92.625946 195.569427 11.909186 0.635935
-92.625946 195.569427 10.544075 0.671672
-92.625946 195.569427 9.198132 0.638086
-92.625946 195.569427 7.868127 0.619394
-92.625946 195.569427 6.550977 0.651728
-92.625946 195.569427 5.243711 0.622065
-92.625954 195.569427 3.943443 0.630991
-92.625961 195.569443 2.647352 0.644785
-92.757339 195.823166 1.347972 0.608713
-92.625946 195.569427 0.056557 0.502571
-85.651207 182.100235 -0.000012 0.527184
-82.429352 175.878387 -0.000008 0.533791
-80.634956 172.413147 -0.000006 0.531106
-79.489388 170.200897 -0.000005 0.334234
-78.693184 168.663315 -0.000008 0.334783
-78.106567 167.530487 -0.000006 0.332799
-92.366783 195.669098 11.901746 0.641230
-92.366783 195.669098 10.537660 0.647059
-92.366783 195.669098 9.192727 0.657374
-92.366783 195.669098 7.863720 0.631342
-92.366791 195.669098 6.547560 0.639918
-92.366791 195.669113 5.241277 0.656031
-92.366798 195.669128 3.941985 0.641199
-92.366798 195.669128 2.646866 0.641978
-92.496803 195.924530 1.348444 0.664790
-92.366791 195.669113 0.058015 0.576547
-85.499725 182.178009 -0.000012 0.550378
-82.321381 175.933823 -0.000008 0.538399
-80.551216 172.456146 -0.000006 0.565621
-79.396179 170.186935 0.010001 1.000000
-78.635666 168.692841 -0.000008 0.342321
-78.056976 167.555939 -0.000006 0.330755
-92.295998 196.144440 12.000061 0.708263
-92.995682 197.543121 10.960206 0.678431
-92.798462 197.148865 9.468496 0.734462
-92.995689 197.543121 8.153929 0.678431
-92.743103 197.038208 6.707678 0.763851
-92.995697 197.543137 5.401692 0.678431
-92.995697 197.543137 4.038098 0.678431
-92.299576 196.151581 2.653419 0.722484
-94.202805 199.956161 1.276968 0.658274
-92.648911 196.849915 -0.000019 0.540261
-85.347694 182.254730 -0.000012 0.545800
-82.213020 175.988495 -0.000009 0.543404
-80.467178 172.498550 -0.000007 0.518135
-79.328018 170.221359 0.009996 1.000000
-78.577950 168.721970 -0.000008 0.342321
-78.007210 167.581055 -0.000006 0.337301
nan nan nan 0.000000
-93.887840 200.014648 11.524041 0.631434
-93.887833 200.014633 10.023719 0.781552
-93.887848 200.014664 8.541174 0.619562
-93.887833 200.014633 7.072951 0.779309
-93.887894 200.014771 5.615759 0.734417
-93.887848 200.014648 4.166348 0.794018
-93.416359 199.055481 2.704111 0.714916
-95.912300 204.133179 1.203303 0.652415
-92.394287 196.976181 -0.000019 0.535470
-85.195137 182.330399 -0.000012 0.535454
-82.104286 176.042419 -0.000009 0.529229
-80.382851 172.540375 -0.000007 0.543618
-79.259628 170.255310 0.009990 1.000000
-78.520035 168.750687 -0.000008 0.344945
-77.957275 167.605820 -0.000006 0.336080
nan nan nan 0.000000
nan nan nan 0.000000
-95.568130 204.202087 10.842599 0.108629
-94.717056 202.439697 8.918433 0.702434
-95.568146 204.202118 7.590685 0.119112
-94.720932 202.447723 5.825015 0.702647
-95.568153 204.202133 4.387440 0.109438
-94.721535 202.448975 2.763385 0.702327
nan nan nan 0.000000
-92.138771 197.100662 -0.000018 0.542321
-85.042053 182.404968 -0.000012 0.542916
-81.995178 176.095581 -0.000009 0.528435
-80.298233 172.581604 -0.000006 0.529381
-79.214874 170.338211 -0.000004 0.332067
-78.461914 168.779007 -0.000007 0.331380
-77.907158 167.630234 -0.000006 0.336706
nan nan nan 0.000000
nan nan nan 0.000000
nan nan nan 0.000000
nan nan nan 0.000000
nan nan nan 0.000000
nan nan nan 0.000000
nan nan nan 0.000000
nan nan nan 0.000000
nan nan nan 0.000000
-91.882401 197.223358 -0.000017 0.540642
-84.888451 182.478485 -0.000012 0.535317
-81.885696 176.147980 -0.000009 0.530343
-80.213326 172.622238 -0.000006 0.519722
-79.145653 170.371323 -0.000001 0.336767
-78.403603 168.806915 -0.000008 0.335912
-77.856880 167.654297 -0.000006 0.330236
nan nan nan 0.000000
nan nan nan 0.000000
nan nan nan 0.000000
nan nan nan 0.000000
nan nan nan 0.000000
nan nan nan 0.000000
nan nan nan 0.000000
nan nan nan 0.000000
nan nan nan 0.000000
-91.625183 197.344269 -0.000017 0.540841
-84.734344 182.550934 -0.000012 0.536171
