# This PCD file was generated using the MATLABÂ® pcwrite function
# from Computer Vision ToolboxÂ®.
# .PCD v.7 - Point Cloud Data file format
VERSION .7
FIELDS x y z intensity
SIZE 4 4 4 4
TYPE F F F F
COUNT 1 1 1 1
WIDTH 1209
HEIGHT 1
VIEWPOINT 0 0 0 1 0 0 0
POINTS 1209
DATA ascii
395.616882 115.269119 16.307053 0.539986
396.101196 115.546677 13.159931 0.610834
396.102356 115.547325 9.954353 0.254429
396.102356 115.547333 6.765786 0.290791
396.102356 115.547333 3.587461 0.319051
391.389221 112.846306 0.501431 0.033402
347.255890 87.554169 0.000012 0.338186
333.096802 79.439819 0.000025 0.551583
327.017944 75.956123 0.000018 0.545892
323.632324 74.015877 0.000014 0.557275
321.470886 72.777191 0.000011 0.520088
319.968597 71.916252 0.000009 0.544778
318.861786 71.281952 0.000008 0.533761
394.835571 114.055573 25.839174 0.649409
394.835419 114.055481 22.555002 0.700206
394.835449 114.055496 19.316986 0.530007
394.835571 114.055557 16.117331 0.597986
394.835449 114.055496 12.948564 0.484565
395.247620 114.287888 9.842390 0.123064
395.247589 114.287888 6.698702 0.189197
395.247589 114.287888 3.565114 0.159823
390.691864 111.719154 0.520467 0.094118
347.396362 87.307098 0.000010 0.338964
333.180969 79.291786 0.000025 0.542199
327.077942 75.850609 0.000018 0.534707
323.678833 73.934044 0.000014 0.542626
321.508820 72.710480 0.000011 0.532204
320.000549 71.860054 0.000009 0.513359
318.889343 71.233498 0.000008 0.532357
394.074646 112.873718 25.528330 0.634531
394.549927 113.137344 22.404396 0.678431
394.549927 113.137329 19.190092 0.678431
394.074646 112.873718 15.933249 0.586221
394.074646 112.873718 12.805814 0.596887
394.653503 113.194809 9.756123 0.175860
394.653503 113.194794 6.647021 0.248295
394.653503 113.194794 3.547902 0.253361
391.445801 111.415527 0.512125 0.891844
347.535126 87.059059 0.000009 0.337804
333.264069 79.143166 0.000025 0.542214
327.137177 75.744682 0.000018 0.544213
323.724792 73.851891 0.000014 0.554467
321.546265 72.643501 0.000011 0.556939
320.032104 71.803627 0.000009 0.515206
318.916534 71.184845 0.000008 0.559091
393.333282 111.722229 25.226589 0.540368
393.333282 111.722229 22.026844 0.580667
393.333160 111.722168 18.871996 0.542855
393.333252 111.722229 15.754563 0.528267
393.333282 111.722229 12.667239 0.532525
393.906830 112.035156 9.656651 0.678431
393.906860 112.035156 6.587421 0.678431
393.906860 112.035172 3.528048 0.678431
392.053772 111.024139 0.506495 0.886809
347.672150 86.810059 0.000007 0.338186
333.346161 78.993965 0.000026 0.544991
327.195679 75.638336 0.000018 0.545144
323.770172 73.769417 0.000014 0.510201
321.583252 72.576271 0.000011 0.522469
320.063263 71.746986 0.000009 0.573312
318.943420 71.136002 0.000008 0.538949
392.610687 110.599869 24.933615 0.763226
392.610687 110.599869 21.774223 0.491356
393.077545 110.850357 18.755600 0.678431
392.610657 110.599854 15.581059 0.517632
392.610657 110.599854 12.532678 0.622751
393.179138 110.904884 9.560070 0.678431
393.179169 110.904900 6.529555 0.678431
393.179138 110.904884 3.508775 0.678431
392.610535 110.599792 0.501786 0.593210
347.807434 86.560097 0.000006 0.338064
333.427185 78.844200 0.000026 0.532021
327.253418 75.531593 0.000018 0.546090
323.814972 73.686630 0.000013 0.538888
321.619781 72.508781 0.000011 0.541115
320.094025 71.690125 0.000009 0.565789
318.969940 71.086975 0.000008 0.449195
391.905731 109.505249 24.648926 0.612802
391.906006 109.505386 21.528826 0.510704
391.905762 109.505264 18.452408 0.613519
391.905975 109.505379 15.412522 0.610574
391.905975 109.505379 12.401967 0.664225
392.469513 109.802704 9.466251 0.689738
392.469543 109.802704 6.473344 0.678431
392.469513 109.802704 3.490050 0.678431
391.905884 109.505341 0.520378 0.679011
347.940918 86.309196 0.000005 0.338079
333.507172 78.693871 0.000026 0.532509
327.310455 75.424446 0.000018 0.551217
323.859161 73.603539 0.000013 0.550774
321.655823 72.441040 0.000011 0.537606
320.124390 71.633057 0.000009 0.507973
318.996124 71.037773 0.000008 0.517220
391.677429 108.675720 24.501932 0.678431
391.218567 108.437698 21.290377 0.520165
391.677429 108.675713 18.345621 0.678431
391.677399 108.675705 15.325429 0.574624
391.218567 108.437706 12.274961 0.520119
391.777100 108.727417 9.375074 0.678431
391.777100 108.727417 6.418715 0.678431
391.777100 108.727425 3.471855 0.678431
391.218506 108.437668 0.538444 0.661616
348.072693 86.057373 0.000004 0.338949
333.586121 78.542984 0.000026 0.544793
327.366699 75.316902 0.000018 0.524147
323.902802 73.520134 0.000014 0.560616
321.691376 72.373047 0.000012 0.557641
320.154358 71.575775 0.000009 0.552422
319.021973 70.988380 0.000008 0.536080
390.547668 107.395706 24.103636 0.638407
390.547729 107.395729 21.058601 0.613535
390.547668 107.395706 18.056299 0.647608
390.547668 107.395706 15.089563 0.568139
390.547699 107.395721 12.151506 0.556130
391.101654 107.678169 9.286474 0.678431
391.101624 107.678162 6.365629 0.678431
391.101624 107.678162 3.454172 0.678431
390.547668 107.395691 0.556005 0.620645
348.202728 85.804642 0.000002 0.338338
333.663971 78.391556 0.000026 0.534096
327.422211 75.208969 0.000018 0.541070
323.945862 73.436424 0.000014 0.535592
321.726471 72.304802 0.000011 0.523140
320.183929 71.518280 0.000009 0.522332
319.047455 70.938805 0.000008 0.518730
390.343933 106.604553 23.968693 0.678431
389.892761 106.378441 20.833233 0.540246
390.343933 106.604546 17.958269 0.678431
390.343933 106.604538 15.009649 0.678431
389.892761 106.378433 12.031466 0.511177
390.442139 106.653748 9.200315 0.678431
390.442139 106.653755 6.314011 0.678431
390.442139 106.653748 3.436978 0.678431
389.892700 106.378418 0.573080 0.453056
348.330933 85.550995 0.000002 0.337926
333.740814 78.239586 0.000026 0.538430
327.476959 75.100655 0.000018 0.545876
323.988312 73.352417 0.000014 0.550591
321.761108 72.236320 0.000011 0.563226
320.213104 71.460587 0.000009 0.506691
319.072601 70.889061 0.000007 0.335531
389.253021 105.384872 23.588034 0.610224
389.253052 105.384888 20.614025 0.535210
389.253021 105.384872 17.681763 0.702617
389.253052 105.384888 14.784232 0.543023
389.253082 105.384903 11.914709 0.647089
389.564423 105.538208 9.095168 0.164828
389.564423 105.538208 6.251014 0.137530
389.564423 105.538208 3.415991 0.160784
389.253052 105.384880 0.589687 0.487785
348.457428 85.296471 0.000000 0.338872
333.816559 78.087090 0.000026 0.544259
327.530975 74.991959 0.000018 0.540795
324.030182 73.268120 0.000014 0.527550
321.795227 72.167595 0.000012 0.540383
320.241852 71.402687 0.000010 0.544305
319.097412 70.839142 0.000007 0.339223
389.071930 104.628876 23.464209 0.678431
388.628052 104.414146 20.400757 0.499962
388.628052 104.414146 17.502092 0.583078
389.071960 104.628883 14.710904 0.678431
388.628052 104.414146 11.801108 0.600824
389.168457 104.675568 9.034964 0.678431
389.168427 104.675568 6.214943 0.678431
389.168457 104.675568 3.403979 0.678431
388.628052 104.414154 0.605846 0.593301
348.582092 85.041069 -0.000001 0.338430
333.891174 77.934013 0.000034 0.337682
327.584198 74.882881 0.000018 0.533837
324.071472 73.183533 0.000014 0.538827
321.828888 72.098640 0.000011 0.535988
320.270233 71.344589 0.000009 0.550668
319.121857 70.789047 0.000008 0.333913
388.016937 103.465225 23.099901 0.594232
388.017181 103.465340 20.193184 0.561044
388.017181 103.465347 17.327225 0.570092
388.016968 103.465240 14.495163 0.451560
388.017212 103.465355 11.690552 0.592157
388.016968 103.465240 8.906921 0.560784
388.016968 103.465240 6.138227 0.641550
388.016968 103.465240 3.378424 0.525490
388.016968 103.465240 0.621576 0.540993
348.705017 84.784805 -0.000003 0.338506
333.855255 77.728416 0.009978 1.000000
327.636658 74.773445 0.000018 0.549020
324.112183 73.098656 0.000014 0.526909
321.862061 72.029442 0.000012 0.529397
320.298157 71.286301 0.000009 0.537896
319.109924 70.721657 0.010004 1.000000
387.856659 102.741486 22.986345 0.678431
387.704865 102.670654 20.059042 0.200015
387.419922 102.537682 17.156992 0.690730
387.856689 102.741486 14.427915 0.678431
387.419922 102.537689 11.582921 0.446662
387.856689 102.741493 8.869747 0.678431
387.704834 102.670639 6.107724 0.258946
387.419617 102.537537 3.363114 0.705592
387.419617 102.537537 0.636887 0.578576
348.826111 84.527679 -0.000004 0.338079
334.037292 77.626396 0.000038 0.338415
327.688385 74.663635 0.000018 0.536522
324.152283 73.013496 0.000014 0.524285
321.894775 71.960022 0.000011 0.555581
320.325714 71.227821 0.000006 0.339651
319.133545 70.671478 0.010002 1.000000
386.835571 101.630264 22.637363 0.576974
386.835571 101.630264 19.794317 0.722622
386.835724 101.630341 16.991217 0.548974
386.835571 101.630264 14.221251 0.596475
386.835754 101.630341 11.478110 0.583078
386.835571 101.630264 8.755510 0.609110
386.835571 101.630249 6.047509 0.673121
386.835449 101.630203 3.348205 0.557015
386.835449 101.630203 0.651795 0.616724
348.945435 84.269722 -0.000005 0.338415
334.108765 77.471832 0.000037 0.337194
327.739319 74.553474 0.000018 0.547036
324.191772 72.928062 0.000014 0.520790
321.926971 71.890373 0.000011 0.523964
320.352844 71.169144 0.000006 0.335256
319.156830 70.621147 0.010000 1.000000
386.604248 100.895554 22.508530 0.114900
386.604309 100.895569 19.683241 0.159228
386.264160 100.742599 16.829748 0.653223
386.604248 100.895554 14.144955 0.202991
386.264191 100.742599 11.376023 0.580392
386.604248 100.895554 8.713338 0.164309
386.604248 100.895554 6.022243 0.162814
386.263916 100.742470 3.333684 0.552514
386.263916 100.742477 0.666317 0.669215
348.876953 83.927284 0.010012 1.000000
334.179169 77.316788 0.000035 0.337026
327.789490 74.442963 0.000018 0.546487
324.230682 72.842354 0.000014 0.526558
321.958710 71.820496 0.000011 0.511559
320.337341 71.091278 0.010008 1.000000
319.179779 70.570648 0.009996 1.000000
385.704773 99.873741 22.198559 0.661570
385.704590 99.873650 19.415913 0.692531
385.704773 99.873734 16.672428 0.673915
385.704590 99.873657 13.961363 0.482521
385.704773 99.873734 11.276559 0.496925
385.704590 99.873657 8.611852 0.499565
385.704590 99.873657 5.961439 0.652064
385.704498 99.873611 3.319535 0.638911
385.704498 99.873611 0.680465 0.623957
349.177673 83.750900 0.000045 0.538857
334.248505 77.161263 0.000034 0.335866
327.838898 74.332100 0.000018 0.553536
324.269012 72.756371 0.000014 0.544106
321.989990 71.750427 0.000001 0.340475
320.363556 71.032532 0.010005 1.000000
319.238831 70.536087 0.000009 0.336782
385.157104 99.023071 21.987494 0.508949
385.156952 99.023010 19.233936 0.670054
385.157074 99.023064 16.519110 0.486610
385.156952 99.023003 13.836378 0.563287
385.157104 99.023071 11.179624 0.773358
385.156952 99.023010 8.542768 0.678904
385.156952 99.023010 5.920047 0.532937
385.156830 99.022949 3.305745 0.543862
385.156830 99.022949 0.694253 0.449546
349.291534 83.490494 0.000045 0.547494
334.316681 77.005226 0.000037 0.338109
327.887787 74.221016 -0.000017 0.335424
324.306702 72.670128 0.000014 0.555825
322.020721 71.680115 0.000001 0.336370
320.389343 70.973602 0.010000 1.000000
319.261139 70.485016 0.000009 0.339742
384.620728 98.189964 21.781748 0.545815
385.041290 98.368637 19.155266 0.678431
384.620697 98.189957 16.369654 0.741360
385.041321 98.368637 13.782351 0.678431
384.620697 98.189964 11.085132 0.550118
385.041290 98.368637 8.512897 0.678431
385.041290 98.368637 5.902152 0.678431
384.620453 98.189850 3.292306 0.589837
384.620453 98.189850 0.707693 0.591104
349.403564 83.229301 0.000045 0.540276
334.383820 76.848732 0.000037 0.338872
327.935608 74.109467 -0.000016 0.335836
324.343811 72.583626 0.000015 0.336385
322.000366 71.588104 0.010003 1.000000
320.457275 70.932579 0.000006 0.337682
319.283112 70.433784 0.000009 0.343328
384.095215 97.373787 21.581146 0.586145
384.095276 97.373795 18.883610 0.471992
384.095215 97.373772 16.223927 0.742275
384.095245 97.373795 13.595772 0.538079
384.095215 97.373779 10.992997 0.618128
384.095276 97.373802 8.409768 0.557290
384.095276 97.373795 5.840360 0.643488
384.094971 97.373672 3.279201 0.586023
384.094971 97.373680 0.720799 0.568383
349.513763 82.967323 0.000045 0.544686
334.449829 76.691772 0.000038 0.338277
327.902344 73.964119 0.009998 1.000000
324.318207 72.470985 0.009995 1.000000
322.029999 71.517731 0.010000 1.000000
320.482361 70.872986 0.000005 0.336583
319.304749 70.382401 0.000009 0.336202
383.580261 96.573967 21.385502 0.655940
383.886841 96.699173 18.786434 0.160784
383.580261 96.573952 16.081814 0.665904
383.886841 96.699181 13.529035 0.209995
383.580261 96.573959 10.903147 0.606485
383.886841 96.699181 8.372875 0.142763
383.886841 96.699181 5.818256 0.144869
383.580017 96.573860 3.266420 0.550134
383.580017 96.573860 0.733580 0.561852
349.622131 82.704597 0.000045 0.542153
334.514771 76.534363 0.000036 0.337606
328.028961 73.885391 -0.000016 0.336217
324.353851 72.384377 0.010006 1.000000
322.109985 71.467926 0.000002 0.340017
320.506989 70.813225 0.000005 0.332464
319.325989 70.330872 0.000010 0.333227
383.075470 95.789917 21.194651 0.655741
383.075378 95.789886 18.550335 0.744366
383.075470 95.789925 15.943184 0.554314
383.075378 95.789879 13.366872 0.545449
383.075470 95.789917 10.815494 0.588205
383.075378 95.789886 8.283240 0.612284
383.075378 95.789886 5.764553 0.568475
383.075256 95.789825 3.253952 0.523796
383.075256 95.789825 0.746047 0.565805
349.728668 82.441109 0.000045 0.538125
334.578644 76.376503 0.000034 0.334691
328.074463 73.772873 -0.000016 0.336934
324.388885 72.297523 0.010016 1.000000
322.138733 71.396790 0.000002 0.329625
320.531250 70.753296 0.000005 0.341665
319.346893 70.279198 0.000010 0.343465
382.580505 95.021118 21.008446 0.535149
382.580322 95.021057 18.389759 0.593515
382.580505 95.021118 15.807919 0.545129
382.580353 95.021065 13.256596 0.517052
382.580322 95.021057 10.729956 0.511650
382.580353 95.021072 8.222281 0.461814
382.580322 95.021057 5.728031 0.435874
382.580292 95.021042 3.241788 0.432242
382.580261 95.021034 0.758212 0.527733
349.833374 82.176888 0.000045 0.538293
334.641388 76.218201 0.000033 0.338842
328.119171 73.660034 -0.000015 0.336873
324.486176 72.235077 0.000013 0.334920
322.167023 71.325447 0.000003 0.340322
320.555054 70.693192 0.000005 0.327077
319.367432 70.227371 0.000010 0.335729
382.095001 94.267075 20.826723 0.501396
382.501129 94.423096 18.327076 0.683513
382.094971 94.267067 15.675912 0.520684
382.501160 94.423111 13.213545 0.678218
382.501160 94.423111 10.696574 0.512261
382.094910 94.267029 8.162800 0.534127
382.501160 94.423111 5.713773 0.678431
382.094788 94.266991 3.229917 0.515526
382.094788 94.266991 0.770084 0.656718
349.936218 81.911942 0.000045 0.540688
334.702972 76.059448 0.000036 0.337926
328.163086 73.546890 -0.000015 0.337209
324.520233 72.147331 0.000013 0.337987
322.194794 71.253906 0.000002 0.336645
320.578461 70.632927 0.000005 0.332403
319.387604 70.175415 0.000010 0.338872
381.618683 93.527267 20.649345 0.678538
381.618530 93.527199 18.080130 0.664942
381.618652 93.527252 15.547062 0.638560
381.618530 93.527199 13.043938 0.756512
381.618500 93.527191 10.565033 0.651621
381.618591 93.527222 8.104734 0.642084
381.618500 93.527191 5.657600 0.617975
381.618469 93.527184 3.218327 0.502037
381.618469 93.527191 0.781671 0.512642
350.037231 81.646286 0.000045 0.539818
334.763489 75.900284 0.000036 0.337530
328.206238 73.433434 -0.000015 0.340673
324.553680 72.059349 0.000013 0.331502
322.222046 71.182182 0.000003 0.341985
320.601410 70.572502 0.000005 0.325246
319.407410 70.123306 0.000010 0.338247
381.151245 92.801224 20.476164 0.620859
381.151062 92.801163 17.930807 0.546487
381.151031 92.801147 15.421228 0.552056
381.151031 92.801155 12.941379 0.569986
381.151062 92.801155 10.485497 0.606638
381.151123 92.801193 8.048047 0.603662
381.151031 92.801147 5.623633 0.525444
381.151031 92.801147 3.207015 0.517357
381.151031 92.801155 0.792985 0.742596
350.136383 81.379929 0.000045 0.538674
334.822876 75.740692 0.000036 0.337575
328.248566 73.319687 -0.000015 0.336629
324.586517 71.971130 0.000013 0.338598
322.248810 71.110268 0.000003 0.335653
320.623962 70.511909 0.000005 0.343008
319.426849 70.071068 0.000010 0.340566
380.692383 92.088524 20.307058 0.539437
381.090363 92.231934 17.876408 0.678431
380.991028 92.196152 15.356194 0.179553
380.692383 92.088531 12.841271 0.543770
381.090363 92.231941 10.456522 0.678340
380.692261 92.088486 7.992690 0.736767
381.090363 92.231934 5.611263 0.678431
380.692200 92.088455 3.195967 0.536202
380.692200 92.088455 0.804031 0.595117
350.233673 81.112892 0.000045 0.539651
334.881195 75.580711 0.000034 0.337545
328.290100 73.205650 -0.000015 0.339132
324.618744 71.882690 0.000012 0.337682
322.275085 71.038170 0.000003 0.327138
320.646118 70.451172 0.000005 0.330541
319.445923 70.018692 0.000011 0.340963
380.241791 91.388702 20.141893 0.622141
380.241760 91.388702 17.642624 0.561242
380.241760 91.388695 15.178445 0.687434
380.241821 91.388718 12.743463 0.614466
380.241760 91.388702 10.331997 0.562966
380.241699 91.388680 7.938628 0.566354
380.241760 91.388702 5.558084 0.610391
380.241638 91.388657 3.185179 0.524437
380.241638 91.388657 0.814821 0.698665
350.329102 80.845184 0.000045 0.546563
334.938385 75.420319 0.000032 0.337942
328.330841 73.091316 -0.000014 0.338766
324.650360 71.794029 0.000012 0.338689
322.300842 70.965881 0.000003 0.336904
320.667816 70.390274 0.000005 0.334234
319.464630 69.966187 0.000011 0.338293
379.799133 90.701324 19.980520 0.752529
379.799255 90.701370 17.503521 0.584894
379.799133 90.701324 15.061228 0.498390
379.799286 90.701378 12.647916 0.608057
379.799133 90.701324 10.257885 0.547356
379.799194 90.701347 7.885815 0.662882
379.799133 90.701332 5.526435 0.685222
379.799103 90.701317 3.174638 0.591592
379.799103 90.701317 0.825360 0.600107
350.422607 80.576797 0.000045 0.539345
334.994446 75.259529 0.000031 0.338872
328.370789 72.976707 -0.000014 0.338933
324.681335 71.705147 0.000012 0.333913
322.326111 70.893425 0.000003 0.335958
320.689087 70.329231 0.000005 0.337423
319.482971 69.913551 0.000011 0.337484
379.754913 90.157639 19.926117 0.660822
379.364502 90.026123 17.367598 0.571115
379.754913 90.157631 15.021703 0.678431
379.364532 90.026131 12.554569 0.643732
379.754913 90.157639 10.232900 0.678431
379.364441 90.026108 7.834216 0.565484
379.754913 90.157639 5.515765 0.678431
379.364380 90.026077 3.164341 0.581430
379.364380 90.026077 0.835658 0.582803
350.514282 80.307777 0.000045 0.541756
335.049377 75.098351 0.000029 0.336477
328.409943 72.861824 -0.000013 0.337942
324.711700 71.616051 0.000012 0.333288
322.350861 70.820786 0.000004 0.335927
320.709930 70.268036 0.000005 0.333944
319.500977 69.860786 0.000011 0.337118
378.937134 89.362518 19.668839 0.625025
378.937317 89.362579 17.234779 0.636316
378.937103 89.362518 14.834813 0.605829
378.937317 89.362587 12.463348 0.618830
378.937134 89.362526 10.114738 0.742382
378.937225 89.362564 7.783790 0.503136
378.937103 89.362518 5.465306 0.583185
378.937164 89.362534 3.154277 0.619928
378.937164 89.362534 0.845722 0.600748
350.604065 80.038124 0.000045 0.540047
335.103088 74.936760 0.000036 0.338552
328.448303 72.746666 -0.000013 0.335836
324.741425 71.526741 0.000011 0.338750
322.375092 70.747978 0.000004 0.341955
320.730347 70.206696 0.000005 0.339467
319.518585 69.807899 0.000011 0.335409
378.517303 88.710350 19.518303 0.552697
378.517395 88.710381 17.104967 0.628199
378.517303 88.710350 14.725471 0.667887
378.517395 88.710388 12.374189 0.617716
378.517303 88.710350 10.045603 0.527611
378.517334 88.710358 7.734508 0.514031
378.517303 88.710350 5.435783 0.527871
378.517242 88.710335 3.144442 0.656397
378.517242 88.710335 0.855558 0.586938
350.691956 79.767853 0.000045 0.538827
335.155792 74.774834 0.000035 0.337362
328.485840 72.631248 -0.000013 0.334798
324.770538 71.437233 0.000012 0.338201
322.398834 70.675011 0.000004 0.336538
320.750366 70.145218 0.000005 0.340795
319.535828 69.754890 0.000012 0.342214
378.487488 88.189293 19.471687 0.661463
378.104553 88.069168 16.978071 0.554253
378.487457 88.189285 14.691600 0.661448
378.104553 88.069176 12.287036 0.539010
378.487488 88.189285 10.024192 0.661891
378.104523 88.069153 7.686337 0.657145
378.487457 88.189285 5.426640 0.667979
378.104401 88.069122 3.134829 0.643549
378.104431 88.069130 0.865171 0.698344
350.777985 79.496971 0.000045 0.543923
335.207336 74.612549 0.000033 0.337713
328.522552 72.515564 -0.000013 0.339467
324.799042 71.347519 0.000011 0.336614
322.422058 70.601868 0.000004 0.332662
320.769928 70.083603 0.000005 0.334051
319.552673 69.701767 0.000012 0.321324
378.079132 87.555077 19.326960 0.678431
377.698578 87.438606 16.854008 0.570459
378.079132 87.555077 14.586475 0.678431
377.698608 87.438614 12.201829 0.622644
378.079132 87.555084 9.957726 0.678431
377.698517 87.438599 7.639233 0.515602
378.079132 87.555077 5.398255 0.678431
377.698456 87.438576 3.125428 0.559655
377.698456 87.438568 0.874572 0.546502
350.862122 79.225494 0.000045 0.538338
335.257751 74.449898 0.000032 0.339574
328.558472 72.399628 -0.000011 0.336843
324.826904 71.257607 0.000010 0.334249
322.444763 70.528572 0.000004 0.333013
320.789063 70.021851 0.000005 0.331762
319.569183 69.648521 0.000012 0.333074
377.299072 86.818336 19.086536 0.661601
377.299255 86.818382 16.732697 0.678630
377.299072 86.818336 14.411823 0.733806
377.299255 86.818390 12.118510 0.657771
377.299072 86.818336 9.847303 0.531853
377.299194 86.818367 7.593177 0.620127
377.299072 86.818336 5.351102 0.694972
377.299133 86.818344 3.116236 0.670512
377.299133 86.818344 0.883762 0.660853
350.944336 78.953445 0.000045 0.544076
335.307037 74.286903 0.000030 0.336156
328.593567 72.283447 -0.000011 0.333623
324.854126 71.167511 0.000010 0.339345
322.466949 70.455116 0.000004 0.337224
320.807770 69.959976 0.000004 0.343023
319.585297 69.595161 0.000012 0.333700
377.134033 86.274384 19.008369 0.592081
376.906372 86.208176 16.614056 0.471855
377.134003 86.274376 14.355042 0.608179
376.906403 86.208176 12.037030 0.511711
377.134033 86.274384 9.811407 0.478721
376.906311 86.208153 7.548136 0.570520
377.134033 86.274384 5.335773 0.591791
376.906250 86.208138 3.107248 0.639811
376.906250 86.208138 0.892752 0.503182
351.024658 78.680824 0.000045 0.539681
335.355164 74.123566 0.000029 0.339696
328.627869 72.167023 -0.000011 0.334890
324.880737 71.077217 0.000010 0.335348
322.488647 70.381508 0.000004 0.339544
320.826019 69.897957 0.000004 0.336660
319.601074 69.541695 0.000012 0.335958
376.893677 85.713600 18.911745 0.678431
376.519775 85.607681 16.498009 0.454688
376.893677 85.713593 14.284854 0.678431
376.519775 85.607681 11.957328 0.511467
376.893677 85.713600 9.767029 0.678431
376.519714 85.607658 7.504082 0.563058
376.893677 85.713593 5.316820 0.678431
376.519653 85.607643 3.098458 0.582040
376.519653 85.607643 0.901544 0.421958
351.103058 78.407639 0.000045 0.540078
335.402161 73.959892 0.000027 0.336126
328.661377 72.050362 -0.000011 0.338399
324.906708 70.986740 0.000010 0.341009
322.509827 70.307747 0.000005 0.333959
320.843872 69.835823 0.000004 0.335393
319.616455 69.488113 0.000012 0.337896
376.139221 85.016624 18.682745 0.671153
376.139221 85.016617 16.384491 0.601129
376.139221 85.016617 14.118505 0.683192
376.139221 85.016617 11.879357 0.719768
376.139221 85.016624 9.661855 0.608011
376.139160 85.016602 7.460982 0.675944
376.139221 85.016617 5.271909 0.496605
376.139099 85.016586 3.089854 0.719219
376.139099 85.016586 0.910144 0.607340
351.179565 78.133926 0.000045 0.543267
335.448029 73.795906 0.000026 0.338415
328.694031 71.933472 -0.000011 0.340917
324.932037 70.896088 0.000009 0.334447
322.530487 70.233849 0.000005 0.336400
320.861267 69.773560 0.000004 0.336522
319.631439 69.434433 0.000011 0.338750
375.764587 84.434731 18.553936 0.534493
375.764587 84.434723 16.273422 0.627344
375.764587 84.434723 14.024939 0.529381
375.764587 84.434723 11.803079 0.676600
375.764557 84.434723 9.602695 0.590814
375.764526 84.434708 7.418819 0.717998
375.764587 84.434731 5.246645 0.523171
375.764465 84.434692 3.081439 0.573083
375.764465 84.434692 0.918559 0.533471
351.254150 77.859680 0.000045 0.541726
335.492737 73.631592 0.000024 0.339086
328.725891 71.816353 -0.000010 0.334569
324.956757 70.805260 0.000009 0.335256
322.550598 70.159805 0.000005 0.329778
320.878235 69.711182 0.000004 0.337865
319.646088 69.380646 0.000011 0.340688
375.762909 83.957489 18.522957 0.678431
375.395630 83.861710 16.164740 0.637308
375.762909 83.957489 14.002437 0.678431
375.395630 83.861710 11.728436 0.624018
375.762909 83.957489 9.588471 0.678431
375.395569 83.861694 7.377560 0.634836
375.762909 83.957481 5.240570 0.668879
375.395538 83.861679 3.073207 0.688670
375.395538 83.861679 0.926793 0.713222
351.326843 77.584923 0.000045 0.543862
335.536316 73.466980 0.000023 0.337758
328.756927 71.699013 -0.000010 0.335683
324.980835 70.714264 0.000009 0.337606
322.570251 70.085617 0.000005 0.334310
320.894775 69.648682 0.000004 0.336797
319.660339 69.326759 0.000011 0.339788
375.397461 83.389847 18.398893 0.678431
375.032257 83.297333 16.058380 0.395895
375.397461 83.389847 13.912316 0.678431
375.032288 83.297333 11.655393 0.632929
375.397430 83.389847 9.531491 0.678431
375.032227 83.297325 7.337183 0.631983
375.397461 83.389847 5.216238 0.678431
375.032166 83.297310 3.065146 0.392554
375.032166 83.297310 0.934852 0.513710
351.397614 77.309662 0.000045 0.538933
335.578735 73.302063 0.000021 0.335958
328.787140 71.581467 -0.000010 0.335256
325.004272 70.623100 0.000008 0.339193
322.589325 70.011299 0.000005 0.341665
320.910858 69.586067 0.000004 0.334371
319.674194 69.272774 0.000011 0.335027
374.674316 82.741348 18.183811 0.498054
374.674316 82.741341 15.954288 0.542489
374.674316 82.741348 13.756080 0.613535
374.674316 82.741341 11.583896 0.563729
374.674316 82.741341 9.432713 0.500282
374.674255 82.741325 7.297662 0.746593
374.674347 82.741348 5.174056 0.629419
374.674225 82.741318 3.057260 0.584985
374.674225 82.741318 0.942738 0.504173
351.466431 77.033913 0.000046 0.541192
335.619873 73.136826 0.000028 0.338628
328.816528 71.463707 -0.000010 0.337453
325.027069 70.531776 0.000009 0.339849
322.607910 69.936844 0.000005 0.340597
320.926514 69.523346 0.000004 0.336690
319.687714 69.218689 0.000011 0.334325
374.321594 82.193489 18.065630 0.588449
374.321594 82.193489 15.852391 0.577081
374.321625 82.193497 13.670237 0.623072
374.321594 82.193489 11.513912 0.447105
374.321594 82.193497 9.378438 0.661662
374.321564 82.193481 7.258979 0.644465
374.321594 82.193497 5.150877 0.616358
374.321503 82.193474 3.049541 0.589380
374.321503 82.193474 0.950459 0.671916
351.533325 76.757690 0.000046 0.538857
335.659973 72.971336 0.000026 0.338552
328.845093 71.345741 -0.000009 0.339345
325.049225 70.440292 0.000009 0.333349
322.625977 69.862267 0.000005 0.338888
320.941742 69.460510 0.000004 0.340200
319.700836 69.164513 0.000011 0.343786
374.332977 81.736557 18.042240 0.678431
373.973969 81.653564 15.752642 0.626917
374.332977 81.736557 13.653240 0.678431
373.973969 81.653564 11.445402 0.472251
374.332977 81.736557 9.367697 0.678431
373.973938 81.653549 7.221108 0.646235
374.332977 81.736557 5.146291 0.678431
373.973877 81.653542 3.041983 0.486931
373.973877 81.653542 0.958017 0.637415
351.598328 76.481010 0.000046 0.541665
335.698944 72.805565 0.000025 0.338216
328.872864 71.227585 -0.000009 0.339223
325.070740 70.348656 0.000008 0.338918
322.643524 69.787560 0.000006 0.339025
320.956512 69.397575 0.000004 0.341833
319.713562 69.110252 0.000011 0.338842
373.988312 81.201241 17.928314 0.678431
373.631287 81.121330 15.654974 0.601144
373.988312 81.201241 13.570481 0.678431
373.631287 81.121330 11.378324 0.584421
373.988312 81.201241 9.315369 0.678431
373.631256 81.121323 7.184029 0.588495
373.988312 81.201241 5.123946 0.678431
373.631226 81.121315 3.034584 0.604486
373.631226 81.121315 0.965416 0.610803
351.661346 76.203880 0.000047 0.539620
335.736725 72.639526 0.000023 0.338460
328.899780 71.109238 -0.000009 0.334112
325.091614 70.256874 0.000009 0.338476
322.660553 69.712738 0.000006 0.341512
320.970856 69.334541 0.000004 0.326162
319.725952 69.055893 0.000011 0.341527
373.293335 80.596550 17.725731 0.478614
373.293427 80.596573 15.559340 0.665461
373.293335 80.596550 13.423322 0.630182
373.293427 80.596573 11.312643 0.632776
373.293304 80.596550 9.222328 0.663600
373.293396 80.596565 7.147723 0.611749
373.293335 80.596550 5.084215 0.562554
373.293365 80.596558 3.027339 0.666438
373.293365 80.596558 0.972663 0.608209
351.722473 75.926315 0.000046 0.540475
335.773376 72.473236 0.000022 0.337209
328.925873 70.990707 -0.000009 0.336202
325.111877 70.164948 0.000008 0.333822
322.677063 69.637802 0.000006 0.338903
320.984772 69.271408 0.000004 0.337087
319.737915 69.001457 0.000011 0.331167
372.960205 80.079079 17.617126 0.444694
372.960266 80.079086 15.465689 0.709834
372.960205 80.079079 13.344431 0.664179
372.960266 80.079094 11.248322 0.733364
372.960205 80.079079 9.172453 0.451102
372.960205 80.079086 7.112167 0.620127
372.960175 80.079079 5.062913 0.572259
372.960205 80.079079 3.020241 0.692195
372.960205 80.079079 0.979757 0.593301
351.781647 75.648338 0.000046 0.542687
335.808838 72.306686 0.000021 0.337453
328.951141 70.871994 -0.000009 0.336248
325.131470 70.072884 0.000008 0.337758
322.693024 69.562744 0.000006 0.337804
320.998230 69.208176 0.000004 0.337758
319.749542 68.946938 0.000011 0.337621
372.631653 79.568687 17.510767 0.482628
372.860809 79.614960 15.424466 0.228016
372.983032 79.639648 13.332402 0.678431
372.631653 79.568687 11.185330 0.499336
372.983032 79.639648 9.164848 0.678431
372.631592 79.568680 7.077348 0.678859
372.983032 79.639648 5.059665 0.678431
372.631592 79.568680 3.013294 0.697292
372.631592 79.568680 0.986706 0.627573
351.838837 75.369949 0.000046 0.543725
335.843140 72.139893 0.000019 0.337514
328.975586 70.753113 -0.000009 0.338949
325.150421 69.980690 0.000008 0.333043
322.708466 69.487579 0.000006 0.338979
321.011230 69.144852 0.000004 0.335332
319.760742 68.892342 0.000011 0.335988
372.307434 79.065163 17.406586 0.692271
372.606873 79.123451 15.350019 0.200580
372.656952 79.133202 13.256279 0.678431
372.307465 79.065163 11.123632 0.482643
372.656952 79.133202 9.116716 0.678431
372.307404 79.065155 7.043243 0.572625
372.656952 79.133202 5.039114 0.678431
372.307404 79.065155 3.006487 0.805478
372.307404 79.065155 0.993513 0.610559
351.894135 75.091171 0.000046 0.540230
335.876251 71.972862 0.000018 0.338323
328.913757 70.617424 0.010004 1.000000
325.168732 69.888359 0.000008 0.333577
322.723389 69.412308 0.000006 0.342519
321.023804 69.081436 0.000004 0.331136
319.771606 68.837662 0.000011 0.336309
371.987579 78.568329 17.304523 0.577829
371.987488 78.568321 15.196122 0.477882
371.987488 78.568321 13.117342 0.653834
371.987579 78.568336 11.063192 0.630213
371.987518 78.568321 9.028875 0.598962
371.987549 78.568329 7.009837 0.549981
371.987518 78.568321 5.001602 0.678584
371.987549 78.568329 2.999819 0.757076
371.987549 78.568329 1.000181 0.657328
351.947479 74.812012 0.000046 0.540047
335.908234 71.805611 0.000017 0.337636
328.936523 70.498825 0.009993 1.000000
325.186401 69.795898 0.000008 0.335409
322.737793 69.336937 0.000006 0.333852
321.035950 69.017937 0.000005 0.333928
319.782074 68.782913 0.000011 0.338048
371.671875 78.078018 17.204544 0.671336
371.671875 78.078018 15.109935 0.669429
371.671875 78.078011 13.044726 0.699016
371.671875 78.078018 11.003986 0.561837
371.671875 78.078018 8.982967 0.500771
371.671875 78.078011 6.977109 0.567285
371.671875 78.078018 4.981997 0.589197
371.671844 78.078011 2.993289 0.617395
371.671844 78.078011 1.006712 0.570352
351.998871 74.532486 0.000046 0.539971
335.939026 71.638130 0.000016 0.336919
329.043915 70.395470 -0.000008 0.339117
325.203400 69.703323 0.000008 0.338216
322.751678 69.261467 0.000007 0.340230
321.047638 68.954353 0.000005 0.334981
319.792145 68.728088 0.000010 0.328695
371.360291 77.594048 17.106600 0.570916
371.704254 77.653564 15.100877 0.645670
371.704285 77.653564 13.037103 0.666941
371.360291 77.594048 10.945984 0.612757
371.704285 77.653564 8.978144 0.659220
371.360291 77.594040 6.945049 0.549264
371.704285 77.653564 4.979936 0.674647
371.360260 77.594040 2.986889 0.820401
371.360260 77.594040 1.013110 0.552636
352.048279 74.252609 0.000046 0.540063
335.968689 71.470444 0.000014 0.336507
329.065002 70.275948 -0.000008 0.335714
325.219788 69.610634 0.000008 0.335729
322.765015 69.185898 0.000006 0.341772
321.058868 68.890694 0.000005 0.331029
319.801849 68.673195 0.000011 0.336843
371.052673 77.116241 17.010632 0.546059
371.394836 77.172989 15.017651 0.678431
371.275757 77.153244 12.945016 0.144640
371.052673 77.116241 10.889153 0.537514
371.394867 77.172997 8.933813 0.678431
371.052643 77.116241 6.913633 0.655634
371.394867 77.172997 4.961007 0.678431
371.052612 77.116234 2.980621 0.763500
371.052612 77.116234 1.019380 0.627451
352.095764 73.972389 0.000046 0.539696
335.997131 71.302559 0.000013 0.337484
329.085297 70.156281 -0.000008 0.338598
325.235504 69.517822 0.000008 0.337682
322.777832 69.110237 0.000007 0.337514
321.069672 68.826958 0.000004 0.344503
319.811157 68.618240 0.000011 0.339696
370.748901 76.644455 16.916595 0.618067
370.748810 76.644440 14.861636 0.588220
370.748901 76.644455 12.835562 0.652018
370.748901 76.644455 10.833467 0.671901
370.748840 76.644440 8.850714 0.669306
370.748901 76.644447 6.882853 0.628687
370.748810 76.644440 4.925518 0.543633
370.748871 76.644447 2.974476 0.610819
370.748871 76.644447 1.025522 0.471077
352.141296 73.691849 0.000046 0.541604
336.024414 71.134476 0.000012 0.337926
329.104706 70.036476 -0.000008 0.335698
325.250580 69.424911 0.000008 0.335119
322.790131 69.034492 0.000007 0.340887
321.080017 68.763138 0.000005 0.328542
319.820068 68.563217 0.000011 0.333867
370.448914 76.178513 16.824455 0.718608
370.448822 76.178497 14.782185 0.468772
370.448914 76.178513 12.768629 0.566384
370.448853 76.178505 10.778890 0.550362
370.448853 76.178505 8.808393 0.548455
370.448883 76.178513 6.852690 0.725124
370.448822 76.178505 4.907445 0.609400
370.448883 76.178513 2.968458 0.766598
370.448883 76.178513 1.031542 0.445243
352.184845 73.411003 0.000046 0.546105
336.050537 70.966202 0.000011 0.337636
329.123322 69.916542 -0.000007 0.336904
325.265015 69.331894 0.000007 0.341161
322.801880 68.958664 0.000007 0.339818
321.089935 68.699257 0.000005 0.328969
319.828613 68.508133 0.000011 0.340108
370.152588 75.718277 16.734154 0.689555
370.372375 75.750015 14.752304 0.226505
370.152618 75.718277 12.703038 0.511986
370.372375 75.750008 10.758365 0.242161
370.372375 75.750015 8.792477 0.123095
370.152588 75.718277 6.823133 0.555093
370.372375 75.750015 4.900650 0.197543
370.152588 75.718277 2.962559 0.721202
370.152557 75.718277 1.037442 0.655634
352.226440 73.129852 0.000047 0.538064
336.075470 70.797760 0.000009 0.337728
329.141083 69.796478 -0.000008 0.337804
325.278778 69.238785 0.000007 0.335866
322.813110 68.882759 0.000007 0.334371
321.099396 68.635307 0.000005 0.337301
319.836761 68.452988 0.000011 0.336049
369.859833 75.263580 16.645658 0.656474
370.195129 75.309608 14.701134 0.678431
369.859863 75.263580 12.638750 0.641978
370.098999 75.296417 10.708830 0.238880
370.195129 75.309608 8.765219 0.678431
369.859833 75.263580 6.794162 0.673106
370.195129 75.309608 4.889009 0.678431
369.859833 75.263580 2.956778 0.638376
369.859833 75.263580 1.043222 0.464363
352.266083 72.848419 0.000047 0.544030
335.978333 70.612541 0.010014 1.000000
329.158020 69.676285 -0.000007 0.339345
325.291901 69.145576 0.000007 0.340475
322.823822 68.806770 0.000007 0.334249
321.108429 68.571289 0.000005 0.338125
319.844543 68.397797 0.000010 0.340658
369.570587 74.814301 16.558922 0.588190
369.570618 74.814308 14.553261 0.590814
369.570587 74.814301 12.575743 0.563989
369.570618 74.814308 10.621660 0.690272
369.570618 74.814308 8.686460 0.712108
369.570587 74.814301 6.765772 0.761486
369.570618 74.814308 4.855375 0.467857
369.570557 74.814301 2.951110 0.685435
369.570557 74.814301 1.048888 0.447044
352.303741 72.566719 0.000046 0.539940
336.121826 70.460358 0.000007 0.337972
329.174103 69.555984 -0.000007 0.339315
325.237671 69.043594 0.009988 1.000000
322.833984 68.730713 0.000007 0.333120
321.116974 68.507210 0.000005 0.340520
319.851929 68.342545 0.000010 0.337087
369.284729 74.370285 16.473919 0.466697
369.284668 74.370285 14.479950 0.610422
369.284729 74.370285 12.513995 0.574899
369.284668 74.370285 10.571309 0.540856
369.284698 74.370285 8.647408 0.514168
369.284698 74.370285 6.737943 0.790845
369.284668 74.370285 4.838701 0.569268
369.284698 74.370285 2.945559 0.669383
369.284698 74.370285 1.054443 0.569894
352.339447 72.284760 0.000047 0.541665
336.142975 70.291389 0.000028 0.538643
329.189331 69.435577 -0.000007 0.338018
325.249359 68.950668 0.009997 1.000000
322.843628 68.654579 0.000008 0.337285
321.125122 68.443077 0.000004 0.334615
319.858948 68.287247 0.000010 0.342397
369.002136 73.931412 16.390587 0.743542
369.002045 73.931404 14.408089 0.711299
369.002167 73.931412 12.453465 0.566934
369.002075 73.931404 10.521955 0.685115
369.002075 73.931404 8.609133 0.414328
369.002136 73.931412 6.710668 0.676783
369.002045 73.931404 4.822353 0.661204
369.002136 73.931412 2.940113 0.679133
369.002136 73.931412 1.059886 0.637308
352.373169 72.002563 0.000047 0.539071
336.163177 70.122314 0.000028 0.528481
329.203735 69.315063 -0.000007 0.336614
325.327393 68.865433 0.000008 0.340719
322.852753 68.578392 0.000007 0.340291
321.132782 68.378883 0.000005 0.335988
319.865570 68.231895 0.000010 0.337972
368.722809 73.497536 16.308907 0.485008
369.051605 73.533348 14.409113 0.560143
368.722778 73.497536 12.394128 0.652873
369.051605 73.533348 10.522658 0.476738
369.051605 73.533348 8.609678 0.562905
368.722809 73.497536 6.683929 0.520150
369.051605 73.533348 4.822588 0.523705
368.722778 73.497536 2.934778 0.589807
368.722778 73.497536 1.065222 0.769512
352.404968 71.720139 0.000046 0.542351
336.182190 69.953094 0.000027 0.531624
329.217316 69.194450 -0.000007 0.337072
325.337891 68.771896 0.000008 0.338079
322.861298 68.502136 0.000008 0.338567
321.140015 68.314644 0.000005 0.329976
319.871796 68.176506 0.000010 0.344457
368.446594 73.068535 16.228836 0.818998
368.773804 73.101868 14.339675 0.678431
368.446594 73.068535 12.335965 0.449943
368.773773 73.101868 10.474965 0.678431
368.773773 73.101868 8.572689 0.676310
368.446594 73.068535 6.657719 0.515663
368.773773 73.101868 4.806793 0.678431
368.446594 73.068535 2.929547 0.625544
368.446594 73.068535 1.070453 0.776333
352.434753 71.437492 0.000046 0.542809
336.200043 69.783752 0.000028 0.540612
329.230042 69.073753 -0.000007 0.338933
325.347778 68.678284 0.000008 0.337667
322.869354 68.425819 0.000008 0.338521
321.146790 68.250351 0.000005 0.335622
319.877625 68.121071 0.000010 0.331548
368.173462 72.644287 16.150352 0.533379
368.173462 72.644287 14.200971 0.601465
368.173462 72.644287 12.278949 0.720180
368.173462 72.644287 10.379702 0.548989
368.173462 72.644287 8.498808 0.636774
368.173431 72.644287 6.632025 0.538186
368.173462 72.644287 4.775242 0.665217
368.173462 72.644287 2.924420 0.570764
368.173462 72.644287 1.075580 0.750423
352.462555 71.154648 0.000046 0.541192
336.216705 69.614281 0.000028 0.551431
329.241913 68.952957 -0.000006 0.336934
325.356995 68.584610 0.000008 0.336324
322.876862 68.349457 0.000008 0.342947
321.153107 68.186012 0.000005 0.336492
319.883087 68.065598 0.000010 0.339986
367.903290 72.224678 16.073395 0.541848
367.903320 72.224686 14.134623 0.506111
367.903290 72.224678 12.223054 0.618677
367.903290 72.224678 10.334134 0.529274
367.903320 72.224686 8.463470 0.579461
367.903290 72.224678 6.606836 0.529702
367.903290 72.224678 4.760149 0.629679
367.903290 72.224678 2.919393 0.482353
367.903290 72.224678 1.080607 0.536339
352.488373 70.871613 0.000047 0.543313
336.232178 69.444710 0.000028 0.540124
329.252930 68.832092 -0.000006 0.339040
325.365540 68.490868 0.000008 0.330724
322.883850 68.273033 0.000008 0.334356
321.158997 68.121635 0.000005 0.334051
319.888153 68.010086 0.000010 0.336629
367.636047 71.809586 15.997962 0.546441
367.636047 71.809586 14.069573 0.465339
367.636047 71.809586 12.168254 0.465248
367.636047 71.809586 10.289460 0.453040
367.636047 71.809586 8.428823 0.488609
367.636047 71.809586 6.582142 0.469215
367.636047 71.809586 4.745355 0.661799
367.636047 71.809586 2.914464 0.641367
367.636047 71.809586 1.085535 0.481254
352.512268 70.588409 0.000046 0.540246
336.246490 69.275024 0.000028 0.540581
329.263123 68.711151 -0.000006 0.337514
325.373444 68.397072 0.000008 0.339498
322.890289 68.196571 0.000008 0.336751
321.164398 68.057213 0.000005 0.331609
319.892822 67.954544 0.000010 0.340688
367.371613 71.398903 15.924005 0.574594
367.371643 71.398903 14.005806 0.598230
367.371613 71.398903 12.114532 0.609354
367.371643 71.398903 10.245663 0.604486
367.371643 71.398903 8.394856 0.543679
367.371643 71.398903 6.557934 0.593576
367.371643 71.398903 4.730852 0.643931
367.371613 71.398895 2.909634 0.494575
367.371613 71.398895 1.090367 0.547021
352.534119 70.305046 0.000047 0.540703
336.259613 69.105247 0.000028 0.543770
329.272461 68.590141 -0.000006 0.336294
325.380676 68.303223 0.000009 0.338460
322.896179 68.120064 0.000008 0.333043
321.169373 67.992760 0.000005 0.335698
319.897125 67.898964 0.000010 0.330373
367.109985 70.992508 15.851494 0.620203
367.109985 70.992508 13.943284 0.484657
367.109985 70.992508 12.061861 0.640955
367.109985 70.992508 10.202724 0.475624
367.109985 70.992508 8.361555 0.617578
367.109955 70.992508 6.534197 0.521447
367.109985 70.992508 4.716630 0.632090
367.109985 70.992508 2.904896 0.704082
367.109985 70.992508 1.095103 0.544030
352.554047 70.021530 0.000047 0.538827
336.271545 68.935379 0.000028 0.546624
329.280975 68.469063 -0.000006 0.338537
325.387268 68.209328 0.000009 0.340673
322.901550 68.043518 0.000008 0.330816
321.173920 67.928268 0.000005 0.334142
319.901031 67.843361 0.000010 0.336782
366.851013 70.590309 15.780403 0.627909
366.851013 70.590309 13.881988 0.601755
366.851013 70.590309 12.010220 0.689586
366.851013 70.590309 10.160625 0.572610
366.851044 70.590309 8.328908 0.585443
366.851044 70.590309 6.510929 0.371695
366.851044 70.590309 4.702688 0.611765
366.851013 70.590309 2.900252 0.451453
366.851013 70.590309 1.099748 0.693690
352.571991 69.737892 0.000046 0.543664
336.282257 68.765434 0.000028 0.546624
329.288635 68.347931 -0.000006 0.340627
325.393219 68.115387 0.000009 0.327260
322.906403 67.966934 0.000008 0.330602
321.177979 67.863747 0.000005 0.338537
319.904541 67.787727 0.000010 0.342443
366.594696 70.192200 15.710705 0.547112
366.594696 70.192200 13.821887 0.614649
366.594696 70.192200 11.959592 0.571649
366.594696 70.192200 10.119349 0.581933
366.594727 70.192200 8.296896 0.525841
366.594696 70.192200 6.488113 0.530053
366.594696 70.192200 4.689015 0.492088
366.594696 70.192200 2.895698 0.572732
366.594727 70.192200 1.104301 0.456870
352.587921 69.454132 0.000046 0.543023
336.291840 68.595421 0.000028 0.538216
329.295441 68.226753 -0.000006 0.340139
325.398499 68.021408 0.000009 0.339132
322.910706 67.890320 0.000008 0.339727
321.181610 67.799202 0.000005 0.333379
319.907684 67.732079 0.000010 0.335744
366.622711 69.810951 15.713021 0.596521
366.622711 69.810959 13.823883 0.601236
366.622711 69.810959 11.961272 0.591501
366.622711 69.810959 10.120720 0.585260
366.622742 69.810959 8.297958 0.637812
366.622711 69.810959 6.488871 0.511131
366.622711 69.810959 4.689471 0.501625
366.622711 69.810959 2.895849 0.545800
366.622711 69.810959 1.104149 0.588647
352.601898 69.170265 0.000046 0.539132
336.300201 68.425346 0.000028 0.531914
329.301392 68.105530 -0.000006 0.333822
325.403107 67.927391 0.000009 0.340887
322.914490 67.813675 0.000009 0.331640
321.184784 67.734634 0.000005 0.332158
319.910400 67.676399 0.000010 0.339666
367.183105 69.450165 15.849456 0.716960
367.183075 69.450165 13.941518 0.521935
367.183105 69.450165 12.060379 0.689525
367.183075 69.450165 10.201515 0.566644
367.183105 69.450165 8.360616 0.712139
367.183105 69.450165 6.533531 0.582040
367.183105 69.450165 4.716228 0.496239
367.183105 69.450165 2.904762 0.597375
367.183105 69.450165 1.095237 0.683757
352.613892 68.886307 0.000045 0.542489
336.307373 68.255211 0.000027 0.538109
329.306519 67.984268 -0.000006 0.339696
325.407074 67.833351 0.000008 0.335225
322.917725 67.737007 0.000009 0.345663
321.141266 67.668259 0.010000 1.000000
319.912750 67.620712 0.000010 0.340978
367.754761 69.082108 15.989317 0.629084
367.754730 69.082108 14.062112 0.586511
367.754761 69.082108 12.161978 0.528466
367.754730 69.082100 10.284337 0.608789
367.754761 69.082108 8.424850 0.491493
367.754761 69.082108 6.579316 0.541161
367.754761 69.082108 4.743659 0.616693
367.754761 69.082108 2.913901 0.499809
367.754761 69.082108 1.086099 0.613474
352.623871 68.602272 0.000045 0.540871
336.313354 68.085037 0.000028 0.541299
329.310791 67.862968 -0.000007 0.339483
325.410400 67.739281 0.000009 0.334798
322.920410 67.660316 0.000009 0.334203
321.143555 67.603973 0.009996 1.000000
319.914734 67.565002 0.000010 0.338293
368.338104 68.706520 16.132729 0.549157
368.747314 68.716637 14.274179 0.678431
368.338104 68.706520 12.266154 0.629038
368.747314 68.716637 10.429987 0.678431
368.747345 68.716637 8.537808 0.678431
368.338135 68.706520 6.626260 0.649012
368.747345 68.716637 4.791895 0.678431
368.338135 68.706520 2.923268 0.570886
368.338135 68.706520 1.076730 0.598901
352.631897 68.318184 0.000046 0.539940
336.318176 67.914825 0.000028 0.534417
329.314209 67.741646 -0.000006 0.336095
325.413055 67.645195 0.000009 0.341421
322.922577 67.583611 0.000009 0.336110
321.145386 67.539673 0.009994 1.000000
319.916290 67.509285 0.000010 0.342382
368.933594 68.323128 16.279819 0.687388
369.347198 68.330467 14.401943 0.678431
368.933594 68.323128 12.372998 0.727153
369.347168 68.330467 10.517731 0.678431
369.347168 68.330467 8.605854 0.678798
368.933594 68.323128 6.674407 0.649439
369.347198 68.330467 4.820957 0.678431
368.933624 68.323135 2.932878 0.660151
368.933624 68.323135 1.067121 0.728908
352.637939 68.034035 0.000046 0.539315
336.321777 67.744576 0.000027 0.529686
329.316803 67.620300 -0.000006 0.335958
325.415039 67.551086 0.000009 0.337133
322.924194 67.506897 0.000009 0.334890
321.192993 67.476181 0.000006 0.342397
319.917480 67.453552 0.000010 0.340520
369.541626 67.931656 16.430714 0.582956
369.541687 67.931656 14.442716 0.779400
369.541626 67.931656 12.482611 0.634791
369.541687 67.931656 10.545737 0.603571
369.541687 67.931656 8.627575 0.454826
369.541626 67.931656 6.723803 0.574166
369.541656 67.931656 4.830230 0.428977
369.541626 67.931656 2.942737 0.616587
369.541626 67.931656 1.057264 0.430991
352.641968 67.749855 0.000046 0.539055
336.324219 67.574310 0.000027 0.544137
329.318512 67.498947 -0.000006 0.336675
325.416382 67.456963 0.000010 0.335348
322.925293 67.430168 0.000009 0.343786
321.193909 67.411537 0.000006 0.340459
319.918274 67.397820 0.000010 0.334020
370.162689 67.531807 16.585546 0.592508
370.162720 67.531807 14.576217 0.712123
370.162689 67.531807 12.595083 0.566918
370.162720 67.531807 10.637427 0.619974
370.162720 67.531807 8.698685 0.363287
370.162689 67.531807 6.774487 0.726299
370.162720 67.531807 4.860598 0.569696
370.162689 67.531807 2.952850 0.655634
370.162689 67.531807 1.047150 0.578241
352.644043 67.465652 0.000046 0.544228
336.325439 67.404030 0.000027 0.535180
329.319397 67.377579 -0.000007 0.335134
325.417084 67.362839 0.000010 0.337407
322.925842 67.353432 0.000009 0.335088
321.194366 67.346893 0.000006 0.337392
319.918671 67.342079 0.000010 0.333272
370.797211 67.123260 16.744461 0.412863
371.224274 67.121895 14.805466 0.678431
370.797241 67.123260 12.710522 0.616693
371.075836 67.122368 10.772860 0.273381
371.224274 67.121895 8.820793 0.678431
370.797241 67.123260 6.826507 0.659251
371.224274 67.121895 4.912742 0.678431
370.797241 67.123260 2.963232 0.429908
370.797241 67.123260 1.036767 0.580026
352.644135 67.181450 0.000046 0.541146
336.325500 67.233749 0.000027 0.535302
329.319427 67.256203 -0.000006 0.339193
