# This PCD file was generated using the MATLAB® pcwrite function
# from Computer Vision Toolbox®.
# .PCD v.7 - Point Cloud Data file format
VERSION .7
FIELDS x y z intensity
SIZE 4 4 4 4
TYPE F F F F
COUNT 1 1 1 1
WIDTH 1308
HEIGHT 1
VIEWPOINT 0 0 0 1 0 0 0
POINTS 1308
DATA ascii
323.910339 -34.022472 0.000009 0.584543
322.187012 -34.190243 0.000008 0.555016
320.917328 -34.313843 0.000006 0.559319
nan nan nan 0.000000
nan nan nan 0.000000
nan nan nan 0.000000
nan nan nan 0.000000
nan nan nan 0.000000
nan nan nan 0.000000
nan nan nan 0.000000
nan nan nan 0.000000
nan nan nan 0.000000
353.515686 -31.425957 0.000035 0.546639
337.262939 -32.893692 0.000025 0.338018
330.285004 -33.523846 0.000015 0.546593
326.398651 -33.874809 0.000012 0.544839
323.917511 -34.098873 0.000009 0.527062
322.193054 -34.254604 0.000007 0.536675
320.922516 -34.369343 0.000006 0.535195
nan nan nan 0.000000
nan nan nan 0.000000
nan nan nan 0.000000
nan nan nan 0.000000
nan nan nan 0.000000
nan nan nan 0.000000
nan nan nan 0.000000
nan nan nan 0.000000
nan nan nan 0.000000
353.540253 -31.709105 0.000035 0.542062
337.277771 -33.063328 0.000014 0.337194
330.295502 -33.644760 0.000015 0.531518
326.406769 -33.968586 0.000012 0.530480
323.924164 -34.175320 0.000009 0.506539
322.198639 -34.319012 0.000008 0.525231
320.927399 -34.424870 -0.000005 0.341100
nan nan nan 0.000000
nan nan nan 0.000000
nan nan nan 0.000000
nan nan nan 0.000000
nan nan nan 0.000000
nan nan nan 0.000000
nan nan nan 0.000000
nan nan nan 0.000000
nan nan nan 0.000000
353.562866 -31.992416 0.000035 0.536950
337.291443 -33.233063 0.000004 0.337972
330.305176 -33.765747 0.000015 0.532433
326.414276 -34.062416 0.000011 0.546456
323.930267 -34.251816 0.000009 0.560647
322.203766 -34.383453 0.000007 0.554910
320.931824 -34.480438 -0.000005 0.322133
nan nan nan 0.000000
nan nan nan 0.000000
nan nan nan 0.000000
nan nan nan 0.000000
nan nan nan 0.000000
nan nan nan 0.000000
nan nan nan 0.000000
nan nan nan 0.000000
nan nan nan 0.000000
353.583496 -32.275875 0.000035 0.541711
337.303894 -33.402889 -0.000005 0.337743
330.313965 -33.886795 0.000015 0.535576
326.421082 -34.156296 0.000011 0.538750
323.935822 -34.328346 0.000009 0.541909
322.208466 -34.447929 0.000007 0.494636
320.935852 -34.536034 -0.000004 0.333303
nan nan nan 0.000000
nan nan nan 0.000000
nan nan nan 0.000000
nan nan nan 0.000000
nan nan nan 0.000000
nan nan nan 0.000000
nan nan nan 0.000000
nan nan nan 0.000000
nan nan nan 0.000000
353.602112 -32.559475 0.000035 0.543145
337.315002 -33.572815 0.000001 0.338979
330.321930 -34.007904 0.000015 0.543465
326.427277 -34.250221 0.000011 0.542565
323.940857 -34.404919 0.000009 0.547784
322.212708 -34.512440 0.000007 0.582238
320.899628 -34.594135 0.010004 1.000000
nan nan nan 0.000000
nan nan nan 0.000000
nan nan nan 0.000000
nan nan nan 0.000000
nan nan nan 0.000000
nan nan nan 0.000000
nan nan nan 0.000000
nan nan nan 0.000000
nan nan nan 0.000000
353.618774 -32.843201 0.000035 0.543938
337.324890 -33.742813 0.000008 0.337484
330.329041 -34.129066 0.000015 0.535836
326.432800 -34.344189 0.000011 0.536095
323.945343 -34.481522 0.000009 0.547173
322.216492 -34.576977 0.000008 0.560327
320.902863 -34.649506 0.010007 1.000000
nan nan nan 0.000000
nan nan nan 0.000000
nan nan nan 0.000000
nan nan nan 0.000000
nan nan nan 0.000000
nan nan nan 0.000000
nan nan nan 0.000000
nan nan nan 0.000000
nan nan nan 0.000000
353.633453 -33.127029 0.000035 0.534997
337.333923 -33.912861 -0.000010 0.339117
330.335297 -34.250275 0.000015 0.528634
326.437653 -34.438190 0.000011 0.534142
323.949310 -34.558155 0.000009 0.527016
322.219818 -34.641537 0.000007 0.556008
320.905762 -34.704891 0.010005 1.000000
nan nan nan 0.000000
nan nan nan 0.000000
nan nan nan 0.000000
nan nan nan 0.000000
nan nan nan 0.000000
nan nan nan 0.000000
nan nan nan 0.000000
nan nan nan 0.000000
nan nan nan 0.000000
353.646149 -33.410957 0.000035 0.545525
337.341492 -34.082977 -0.000007 0.337835
330.340729 -34.371525 0.000015 0.532570
326.441864 -34.532223 0.000011 0.543587
323.952728 -34.634815 0.000009 0.544213
322.222717 -34.706120 0.000008 0.529488
320.908234 -34.760300 0.010003 1.000000
nan nan nan 0.000000
nan nan nan 0.000000
nan nan nan 0.000000
nan nan nan 0.000000
nan nan nan 0.000000
nan nan nan 0.000000
nan nan nan 0.000000
nan nan nan 0.000000
nan nan nan 0.000000
353.656860 -33.694962 0.000035 0.540871
337.348022 -34.253136 -0.000018 0.339498
330.345306 -34.492805 0.000015 0.539605
326.445404 -34.626282 0.000011 0.534981
323.955627 -34.711494 0.000009 0.510002
322.225159 -34.770721 0.000007 0.538445
320.950226 -34.814358 0.000000 0.338903
nan nan nan 0.000000
nan nan nan 0.000000
nan nan nan 0.000000
nan nan nan 0.000000
nan nan nan 0.000000
nan nan nan 0.000000
nan nan nan 0.000000
nan nan nan 0.000000
nan nan nan 0.000000
353.665588 -33.979042 0.000035 0.534844
337.353302 -34.423344 -0.000022 0.338201
330.349243 -34.614117 -0.000008 0.340475
326.448303 -34.720367 0.000011 0.546242
323.957977 -34.788197 0.000009 0.543084
322.227142 -34.835339 0.000007 0.536645
320.951935 -34.870071 0.000001 0.338033
nan nan nan 0.000000
nan nan nan 0.000000
nan nan nan 0.000000
nan nan nan 0.000000
nan nan nan 0.000000
nan nan nan 0.000000
nan nan nan 0.000000
nan nan nan 0.000000
nan nan nan 0.000000
353.672333 -34.263172 0.000035 0.544396
337.357269 -34.593582 -0.000014 0.338476
330.352173 -34.735451 -0.000015 0.334493
326.450531 -34.814468 0.000011 0.524376
323.959808 -34.864910 0.000009 0.538705
322.228668 -34.899971 0.000007 0.563958
320.953247 -34.925800 0.000002 0.339956
nan nan nan 0.000000
nan nan nan 0.000000
nan nan nan 0.000000
nan nan nan 0.000000
nan nan nan 0.000000
nan nan nan 0.000000
nan nan nan 0.000000
nan nan nan 0.000000
nan nan nan 0.000000
353.677124 -34.547340 0.000035 0.539010
337.360107 -34.763847 -0.000013 0.338964
330.267151 -34.857964 0.010001 1.000000
326.452118 -34.908585 0.000011 0.539254
323.961090 -34.941635 0.000009 0.536324
322.229858 -34.964607 -0.000012 0.325536
320.954193 -34.981533 0.000003 0.332067
nan nan nan 0.000000
nan nan nan 0.000000
nan nan nan 0.000000
nan nan nan 0.000000
nan nan nan 0.000000
nan nan nan 0.000000
nan nan nan 0.000000
nan nan nan 0.000000
nan nan nan 0.000000
353.679901 -34.831535 0.000035 0.541573
337.361786 -34.934124 -0.000015 0.335622
330.268280 -34.978718 0.010005 1.000000
326.453033 -35.002705 0.000011 0.539483
323.961853 -35.018368 0.000009 0.539101
322.230469 -35.029251 -0.000013 0.334981
320.954742 -35.037273 0.000004 0.332143
nan nan nan 0.000000
nan nan nan 0.000000
nan nan nan 0.000000
nan nan nan 0.000000
nan nan nan 0.000000
nan nan nan 0.000000
nan nan nan 0.000000
nan nan nan 0.000000
nan nan nan 0.000000
353.680664 -35.115746 0.000035 0.538827
337.362244 -35.104412 -0.000014 0.337652
330.355682 -35.099545 -0.000009 0.335943
326.453278 -35.096832 0.000011 0.532677
323.962067 -35.095104 0.000009 0.550271
322.230652 -35.093899 -0.000013 0.338445
320.954895 -35.093014 0.000005 0.327764
nan nan nan 0.000000
nan nan nan 0.000000
nan nan nan 0.000000
nan nan nan 0.000000
nan nan nan 0.000000
nan nan nan 0.000000
347.405121 -35.351791 3.691717 0.434913
nan nan nan 0.000000
nan nan nan 0.000000
353.679504 -35.399956 0.000034 0.547311
337.361572 -35.274696 -0.000016 0.336934
330.355286 -35.220913 -0.000021 0.335851
326.452881 -35.190960 0.000011 0.551476
323.961731 -35.171837 0.000009 0.529519
322.184021 -35.158192 0.010004 1.000000
320.954651 -35.148754 0.000005 0.341817
nan nan nan 0.000000
nan nan nan 0.000000
nan nan nan 0.000000
nan nan nan 0.000000
nan nan nan 0.000000
nan nan nan 0.000000
nan nan nan 0.000000
nan nan nan 0.000000
nan nan nan 0.000000
353.676331 -35.684147 0.000034 0.540703
337.359741 -35.444973 -0.000022 0.340215
330.353882 -35.342278 -0.000016 0.338079
326.451843 -35.285080 0.000011 0.551873
323.960876 -35.248569 0.000009 0.551629
322.183289 -35.222511 0.010007 1.000000
320.954010 -35.204494 0.000007 0.337148
nan nan nan 0.000000
nan nan nan 0.000000
nan nan nan 0.000000
nan nan nan 0.000000
nan nan nan 0.000000
nan nan nan 0.000000
347.217773 -35.828644 3.682856 0.456657
nan nan nan 0.000000
nan nan nan 0.000000
353.671173 -35.968307 0.000034 0.536751
337.356628 -35.615231 -0.000021 0.337850
330.351379 -35.463623 0.000020 0.340490
326.450134 -35.379192 0.000011 0.520226
323.959503 -35.325291 0.000009 0.516487
322.182098 -35.286823 0.010008 1.000000
320.953003 -35.260223 0.000007 0.333501
nan nan nan 0.000000
nan nan nan 0.000000
nan nan nan 0.000000
nan nan nan 0.000000
nan nan nan 0.000000
nan nan nan 0.000000
348.077759 -36.092510 3.725417 0.488930
nan nan nan 0.000000
nan nan nan 0.000000
353.664032 -36.252434 0.000034 0.543084
337.352295 -35.785465 -0.000016 0.337957
330.348358 -35.584957 0.000014 0.341131
326.447754 -35.473293 0.000011 0.539818
323.957581 -35.402004 0.000009 0.564752
322.226868 -35.352459 -0.000013 0.342123
320.951599 -35.315948 0.000008 0.334936
nan nan nan 0.000000
nan nan nan 0.000000
nan nan nan 0.000000
nan nan nan 0.000000
nan nan nan 0.000000
344.729034 -36.218586 4.605706 0.454719
347.905884 -36.331734 3.717356 0.434119
nan nan nan 0.000000
nan nan nan 0.000000
353.654907 -36.536491 0.000034 0.537224
337.346832 -35.955662 -0.000015 0.336980
330.344543 -35.706264 0.000005 0.336797
326.444946 -35.567379 -0.000019 0.337148
323.955200 -35.478703 -0.000009 0.342855
322.224792 -35.417072 -0.000013 0.336950
320.949829 -35.371662 0.000008 0.337652
nan nan nan 0.000000
nan nan nan 0.000000
nan nan nan 0.000000
348.104034 -36.584446 7.216301 0.446571
345.184479 -36.460049 5.709287 0.460456
346.033051 -36.496204 4.713438 0.426764
nan nan nan 0.000000
nan nan nan 0.000000
nan nan nan 0.000000
353.643799 -36.820484 0.000034 0.541558
337.340149 -36.125816 -0.000016 0.338064
330.339813 -35.827545 0.000003 0.336629
326.441254 -35.661434 -0.000018 0.338155
323.952209 -35.555378 -0.000008 0.341131
322.222260 -35.481670 -0.000012 0.341146
320.947632 -35.427361 0.000006 0.337316
nan nan nan 0.000000
nan nan nan 0.000000
nan nan nan 0.000000
347.808136 -36.815575 7.174037 0.448997
349.765137 -36.912651 6.238091 0.467597
nan nan nan 0.000000
nan nan nan 0.000000
nan nan nan 0.000000
nan nan nan 0.000000
353.630707 -37.104401 0.000034 0.535348
337.332336 -36.295929 -0.000017 0.337667
330.334259 -35.948792 -0.000001 0.337469
326.369507 -35.752121 0.009996 1.000000
323.893707 -35.629311 0.010004 1.000000
322.219299 -35.546253 -0.000012 0.330983
320.945068 -35.483044 0.000006 0.333471
nan nan nan 0.000000
nan nan nan 0.000000
nan nan nan 0.000000
347.826569 -37.060516 7.178692 0.542290
345.387817 -36.922470 5.735289 0.440558
345.686707 -36.939388 4.686873 0.432349
nan nan nan 0.000000
nan nan nan 0.000000
nan nan nan 0.000000
353.615631 -37.388210 0.000033 0.546624
337.323334 -36.465973 -0.000019 0.336690
330.327850 -36.069992 -0.000003 0.341863
326.364502 -35.845646 0.009999 1.000000
323.889648 -35.705555 0.010004 1.000000
322.215851 -35.610809 -0.000011 0.336385
320.942139 -35.538708 0.000004 0.335637
nan nan nan 0.000000
nan nan nan 0.000000
nan nan nan 0.000000
347.741425 -37.299324 7.168211 0.427588
345.641449 -37.165741 5.766092 0.432563
346.536652 -37.222687 4.757834 0.463828
346.775726 -37.237896 3.664102 0.441459
nan nan nan 0.000000
nan nan nan 0.000000
353.598602 -37.671913 0.000033 0.540490
337.313110 -36.635956 -0.000017 0.337850
330.320557 -36.191147 -0.000003 0.337865
326.426208 -35.943417 -0.000006 0.334585
323.939972 -35.785263 -0.000005 0.333455
322.211975 -35.675339 -0.000011 0.338247
320.938782 -35.594349 0.000003 0.341756
nan nan nan 0.000000
nan nan nan 0.000000
nan nan nan 0.000000
347.232727 -37.507236 7.094986 0.450278
345.121124 -37.358105 5.707849 0.446571
349.326324 -37.655094 4.988436 0.439948
346.590179 -37.461861 3.655745 0.438437
346.823883 -37.478363 2.555355 0.435920
nan nan nan 0.000000
353.579559 -37.955482 0.000033 0.534997
337.301727 -36.805859 -0.000019 0.337606
330.312439 -36.312244 -0.000005 0.340566
326.419891 -36.037331 -0.000004 0.338354
323.934845 -35.861824 -0.000004 0.332204
322.207642 -35.739841 -0.000011 0.339239
320.935059 -35.649967 0.000002 0.338643
nan nan nan 0.000000
nan nan nan 0.000000
nan nan nan 0.000000
345.157074 -37.586586 6.788805 0.440711
345.163239 -37.587063 5.714627 0.447272
nan nan nan 0.000000
346.182404 -37.666199 3.636508 0.519890
347.076996 -37.735657 2.559797 0.447730
nan nan nan 0.000000
353.558533 -38.238918 0.000033 0.543252
337.289154 -36.975685 -0.000021 0.336477
330.303497 -36.433285 -0.000006 0.337530
326.412903 -36.131203 -0.000002 0.326589
323.929138 -35.938351 -0.000003 0.341405
322.202881 -35.804314 -0.000010 0.328756
320.930939 -35.705555 0.000001 0.324178
nan nan nan 0.000000
nan nan nan 0.000000
nan nan nan 0.000000
345.738220 -37.861977 6.878032 0.435264
nan nan nan 0.000000
346.061523 -37.889351 4.723022 0.451164
345.485260 -37.840557 3.603065 0.455558
348.122101 -38.063824 2.577277 0.457740
nan nan nan 0.000000
353.535553 -38.522190 0.000033 0.538796
337.275391 -37.145412 -0.000022 0.336934
330.293671 -36.554256 -0.000007 0.336980
326.405273 -36.225021 0.000001 0.341833
323.922943 -36.014835 -0.000003 0.336675
322.197632 -35.868752 -0.000010 0.342336
320.926453 -35.761116 -0.000000 0.340810
nan nan nan 0.000000
nan nan nan 0.000000
nan nan nan 0.000000
346.062073 -38.122219 6.929273 0.534615
345.083832 -38.032509 5.709850 0.426581
345.949646 -38.111908 4.715486 0.438224
341.944000 -37.744560 3.429352 0.439216
347.899231 -38.290703 2.573971 0.452201
nan nan nan 0.000000
353.510590 -38.805305 0.000033 0.544045
337.260406 -37.315041 -0.000021 0.335668
330.283051 -36.675163 -0.000010 0.338430
326.397003 -36.318783 0.000003 0.341833
323.916168 -36.091274 0.000001 0.335271
322.191956 -35.933147 -0.000010 0.334615
320.921539 -35.816643 -0.000001 0.343893
nan nan nan 0.000000
nan nan nan 0.000000
350.099487 -38.754044 8.788720 0.439445
345.294281 -38.279518 6.818110 0.431174
345.453033 -38.295193 5.754994 0.420935
345.678802 -38.317490 4.694977 0.440757
349.969879 -38.741241 3.826505 0.457877
348.088623 -38.555462 2.577465 0.433692
nan nan nan 0.000000
353.483643 -39.088234 0.000033 0.538827
337.244049 -37.484539 -0.000002 0.337392
330.271484 -36.795982 -0.000006 0.337041
326.388062 -36.412487 0.000005 0.339834
323.908905 -36.167664 0.000002 0.339605
322.185822 -35.997505 -0.000009 0.333135
320.916260 -35.872135 -0.000002 0.334585
nan nan nan 0.000000
nan nan nan 0.000000
nan nan nan 0.000000
nan nan nan 0.000000
nan nan nan 0.000000
348.893860 -38.888397 4.961991 0.508339
343.493469 -38.317005 3.507869 0.432456
348.198547 -38.814831 2.579687 0.510002
nan nan nan 0.000000
353.454712 -39.370972 0.000034 0.544091
337.226593 -37.653927 0.000008 0.337667
330.259155 -36.916725 -0.000005 0.334890
326.378479 -36.506126 0.000006 0.335668
323.901062 -36.243999 0.000005 0.339696
322.179260 -36.061817 -0.000010 0.334462
320.910583 -35.927586 -0.000003 0.345602
nan nan nan 0.000000
350.387024 -39.310730 10.132520 0.457374
349.919098 -39.257912 8.765724 0.436042
nan nan nan 0.000000
nan nan nan 0.000000
349.829590 -39.247810 5.041467 0.454856
343.272186 -38.507668 3.498081 0.430335
343.050751 -38.482670 2.495356 0.440162
nan nan nan 0.000000
353.423828 -39.653496 0.000034 0.536950
337.208130 -37.823208 0.000004 0.337758
330.245911 -37.037373 -0.000001 0.337835
326.368256 -36.599693 0.000007 0.337224
323.892731 -36.320278 0.000007 0.331090
322.172211 -36.126083 -0.000010 0.338048
320.904541 -35.982998 -0.000004 0.328191
nan nan nan 0.000000
346.628998 -39.124722 9.321659 0.422797
343.642914 -38.766548 7.621044 0.435142
347.460266 -39.224430 7.152751 0.459205
343.178711 -38.710869 5.500089 0.421958
345.698547 -39.013119 4.702786 0.431296
343.083191 -38.699413 3.489948 0.449256
348.359741 -39.332317 2.583258 0.417899
nan nan nan 0.000000
353.390961 -39.935802 0.000034 0.538598
337.188446 -37.992355 0.000003 0.336431
330.231873 -37.157928 0.000000 0.337270
326.357361 -36.693192 0.000007 0.339498
323.883850 -36.396500 0.000009 0.338231
322.164734 -36.190300 -0.000010 0.339590
320.898102 -36.038368 -0.000005 0.326925
348.897461 -39.651459 11.071571 0.435904
345.528259 -39.223450 9.088322 0.445869
343.242218 -38.933044 7.552402 0.423560
347.804871 -39.512657 7.208722 0.481178
344.540863 -39.098015 5.661070 0.449271
350.133942 -39.808533 5.071722 0.435096
343.720184 -38.993759 3.522777 0.423728
343.069397 -38.911091 2.496495 0.412192
nan nan nan 0.000000
353.356140 -40.217865 0.000034 0.544442
337.167480 -38.161339 0.000010 0.338079
330.216949 -37.278378 0.000005 0.338094
326.345825 -36.786606 0.000008 0.329656
323.874420 -36.472652 0.000012 0.337163
322.156830 -36.254459 -0.000010 0.334493
320.891266 -36.093689 -0.000006 0.345724
nan nan nan 0.000000
345.035797 -39.388573 8.987476 0.447074
343.521210 -39.185410 7.608683 0.433280
nan nan nan 0.000000
344.713593 -39.345352 5.684460 0.470329
348.546051 -39.859421 4.943156 0.525521
346.427246 -39.575211 3.658347 0.453834
352.222168 -40.352520 2.648065 0.433433
411.431885 -48.294647 0.374356 0.568872
353.319366 -40.499691 0.000033 0.540703
337.145325 -38.330173 0.000022 0.336996
330.201233 -37.398727 0.000008 0.339757
326.333618 -36.879940 0.000011 0.337255
323.864471 -36.548744 0.000013 0.335805
322.148468 -36.318562 -0.000010 0.339971
320.884064 -36.148964 -0.000008 0.339208
344.561951 -39.549744 9.991805 0.425925
344.734772 -39.574158 8.928535 0.440558
343.267944 -39.366966 7.567534 0.436988
344.076111 -39.481117 6.659887 0.431876
347.366119 -39.945831 5.996181 0.440894
349.945404 -40.310154 5.061867 0.453727
343.640503 -39.419590 3.521678 0.454658
348.902252 -40.162807 2.593821 0.446525
351.680145 -40.555187 1.360270 0.454871
353.280579 -40.781246 0.000033 0.542855
337.122162 -38.498878 0.000016 0.338491
330.184601 -37.518955 0.000015 0.331853
326.320770 -36.973190 0.000011 0.342245
323.854004 -36.624763 0.000012 0.335790
322.139648 -36.382607 -0.000011 0.327092
320.876465 -36.204185 -0.000008 0.337270
nan nan nan 0.000000
344.960541 -39.834061 8.984838 0.525139
343.178070 -39.569584 7.556636 0.448508
343.998474 -39.691311 6.652958 0.441398
347.271057 -40.176888 5.989167 0.431922
344.570160 -39.776138 4.619393 0.432364
345.289795 -39.882915 3.605129 0.433768
350.583679 -40.668407 2.622238 0.581811
400.983276 -48.146553 0.543999 0.583886
353.239868 -41.062523 0.000033 0.543969
337.097534 -38.667374 0.000033 0.337377
330.167206 -37.639072 0.000013 0.340597
326.307251 -37.066341 0.000013 0.339666
323.843048 -36.700710 0.000006 0.337102
322.130371 -36.446587 -0.000011 0.332998
320.868469 -36.259350 -0.000008 0.336507
nan nan nan 0.000000
346.742462 -40.339676 9.381733 0.427558
343.067993 -39.768227 7.542265 0.400137
nan nan nan 0.000000
345.656097 -40.170727 5.805381 0.423713
349.303711 -40.738003 5.014968 0.492302
346.019135 -40.227188 3.643094 0.428000
347.228149 -40.415215 2.567328 0.529503
396.535370 -48.083450 0.616112 0.585519
353.197174 -41.343510 0.000032 0.542687
337.072510 -38.835808 -0.000012 0.338155
330.148987 -37.759068 0.000013 0.338933
326.293121 -37.159405 0.000012 0.342580
323.831543 -36.776577 0.000003 0.334066
322.120667 -36.510502 -0.000011 0.333288
320.860107 -36.314461 -0.000008 0.333303
nan nan nan 0.000000
345.954620 -40.453255 9.217546 0.436713
346.448242 -40.533554 8.171562 0.429099
344.156677 -40.160767 6.686848 0.445579
345.549255 -40.387306 5.797156 0.530480
344.623260 -40.236671 4.629499 0.437430
392.834595 -48.079582 5.975050 0.559899
347.153320 -40.648254 2.566719 0.575860
350.977875 -41.270428 1.369873 0.440772
353.152496 -41.624191 0.000033 0.537209
337.045685 -39.003971 -0.000007 0.336812
330.129944 -37.878929 0.000012 0.338094
326.278412 -37.252373 0.000003 0.328969
323.819489 -36.852364 0.000000 0.340307
322.110504 -36.574348 -0.000011 0.335363
320.851349 -36.369511 -0.000008 0.333455
348.591919 -41.137844 11.050508 0.440162
346.294678 -40.747650 9.300425 0.451118
345.278046 -40.574974 7.962759 0.573617
343.719177 -40.310200 6.626470 0.433829
352.968719 -41.881252 6.667335 0.436210
349.311951 -41.260136 5.022509 0.458457
346.047821 -40.705719 3.648259 0.436622
347.781860 -41.000252 2.577810 0.552605
352.821167 -41.856186 1.338547 0.432151
353.105896 -41.904549 0.000032 0.537072
336.897369 -39.151501 0.010006 1.000000
330.110016 -37.998657 0.000012 0.337346
326.263000 -37.345230 -0.000001 0.331136
323.806946 -36.928062 -0.000003 0.335088
322.099915 -36.638123 -0.000011 0.329503
320.842194 -36.424496 -0.000009 0.340749
349.011932 -41.468369 11.168315 0.428641
342.505371 -40.316425 8.478129 0.437903
343.330017 -40.462425 7.610015 0.560571
345.942627 -40.924965 6.967018 0.442908
349.447174 -41.545425 6.261566 0.445243
352.049042 -42.006069 5.254091 0.457252
342.680878 -40.347496 3.482277 0.434363
352.943512 -42.164429 2.664288 0.398428
351.172363 -41.850861 1.365145 0.429557
353.057343 -42.184582 0.000033 0.540734
336.988342 -39.339672 0.000020 0.545754
330.089294 -38.118244 0.000009 0.335714
326.246918 -37.437977 -0.000004 0.339254
323.793854 -37.003677 -0.000009 0.338933
322.088867 -36.701817 -0.000011 0.328542
320.832672 -36.479420 -0.000009 0.349157
nan nan nan 0.000000
348.699890 -41.670704 9.846710 0.443442
343.387085 -40.691811 7.627656 0.519783
348.402740 -41.615955 7.344353 0.484489
nan nan nan 0.000000
346.757385 -41.312790 4.817002 0.552407
342.729370 -40.570625 3.486570 0.540124
345.731323 -41.123741 2.545120 0.597360
347.291840 -41.411266 1.428914 0.572808
347.125610 -41.380638 0.293821 0.583246
336.958069 -39.507248 0.000019 0.543618
330.067749 -38.237686 0.000008 0.338369
326.230164 -37.530602 0.000000 0.338643
323.780212 -37.079193 -0.000012 0.336660
322.077362 -36.765438 -0.000011 0.333471
320.822754 -36.534275 -0.000009 0.330724
348.623718 -41.914360 11.092923 0.435386
nan nan nan 0.000000
343.193115 -40.874504 7.599102 0.438270
346.305847 -41.470539 7.034675 0.435920
349.281311 -42.040279 6.253117 0.435401
341.679596 -40.584698 4.396780 0.422675
342.113190 -40.667725 3.457700 0.585367
345.665710 -41.347961 2.544742 0.575952
346.913177 -41.586826 1.434474 0.662669
346.835876 -41.572025 0.306074 0.564416
336.926636 -39.674603 0.000020 0.546715
330.045349 -38.356968 0.000007 0.336629
326.212769 -37.623108 0.000003 0.335653
323.766052 -37.154610 -0.000012 0.338643
322.065430 -36.828972 -0.000010 0.341558
320.812469 -36.589058 -0.000009 0.334340
nan nan nan 0.000000
342.566101 -40.968929 8.517044 0.436530
343.466400 -41.147846 7.657435 0.424903
nan nan nan 0.000000
376.969666 -47.805862 9.506490 0.413733
341.105316 -40.678631 4.352037 0.556695
341.465759 -40.750267 3.427259 0.430732
346.532806 -41.757221 2.559952 0.607462
346.707703 -41.791977 1.437131 0.525582
346.677612 -41.785999 0.311692 0.532677
336.894012 -39.841736 0.000019 0.534310
330.022095 -38.476093 0.000008 0.334401
326.194733 -37.715488 0.000006 0.341848
323.751343 -37.229927 -0.000011 0.332921
322.053040 -36.892426 -0.000010 0.332219
320.801819 -36.643768 -0.000010 0.345068
345.866974 -41.863976 10.413165 0.462181
346.702698 -42.036125 9.438436 0.445212
nan nan nan 0.000000
nan nan nan 0.000000
346.200165 -41.932602 5.903032 0.638407
340.960968 -40.853355 4.343279 0.454917
341.847595 -41.035999 3.448429 0.419791
342.869965 -41.246605 2.499547 0.445396
346.650269 -42.025322 1.437295 0.583856
346.598145 -42.014587 0.313291 0.506523
336.860260 -40.008636 0.000019 0.529473
329.997986 -38.595047 0.000012 0.336233
326.176056 -37.807747 0.000006 0.335485
323.736145 -37.305138 -0.000012 0.335103
322.040222 -36.955788 -0.000009 0.331685
320.790741 -36.698402 -0.000010 0.344472
nan nan nan 0.000000
346.209259 -42.176731 9.340359 0.441779
nan nan nan 0.000000
348.911224 -42.753014 7.451220 0.423987
346.555359 -42.250549 5.950533 0.485969
340.490784 -40.957081 4.307292 0.459907
341.966309 -41.271782 3.456514 0.438956
342.708191 -41.430016 2.497571 0.441642
346.736237 -42.289127 1.435032 0.579599
346.613098 -42.262863 0.310070 0.577401
336.825317 -40.175297 0.000019 0.537606
329.973083 -38.713833 0.000013 0.337392
326.156738 -37.899876 0.000005 0.334279
323.720398 -37.380245 -0.000012 0.331060
322.026947 -37.019062 -0.000009 0.333425
320.779297 -36.752960 -0.000010 0.337133
346.956482 -42.584530 10.717720 0.444266
346.383301 -42.458092 9.389980 0.444694
349.966492 -43.248520 8.893497 0.569299
348.507172 -42.926601 7.398107 0.445518
348.472992 -42.919060 6.182428 0.555032
344.853516 -42.120632 4.677113 0.468132
347.796753 -42.769882 3.752038 0.569039
346.523102 -42.488930 2.562253 0.565316
371.412476 -47.979343 1.020667 0.547707
347.227325 -42.644272 0.276608 0.596933
336.789215 -40.341705 0.000019 0.541756
329.947327 -38.832436 0.000016 0.336324
326.136780 -37.991863 0.000005 0.340780
323.704132 -37.455235 -0.000012 0.338842
322.013245 -37.082237 -0.000009 0.338552
320.767487 -36.807434 -0.000010 0.346761
344.349213 -42.239468 10.061544 0.429526
346.526642 -42.735764 9.433311 0.436210
343.937500 -42.145634 7.779154 0.434928
345.648743 -42.535664 6.971680 0.434852
348.944031 -43.286747 6.244562 0.574289
344.079224 -42.177937 4.616192 0.423117
342.627991 -41.847160 3.494347 0.423713
371.406433 -48.406490 2.980767 0.589639
371.406433 -48.406490 1.019235 0.561242
352.662781 -44.134342 0.000032 0.538827
336.751953 -40.507866 0.000019 0.553796
329.920746 -38.950863 0.000017 0.339315
326.116180 -38.083706 0.000008 0.335225
323.687347 -37.530113 -0.000012 0.339071
321.999084 -37.145321 -0.000009 0.343557
320.755310 -36.861828 -0.000010 0.328664
344.259399 -42.449154 10.051479 0.439216
344.405579 -42.483543 8.974723 0.432547
346.413727 -42.956024 8.251369 0.498314
343.746887 -42.328571 6.689910 0.555444
350.121582 -43.828415 6.390597 0.458976
343.093872 -42.174923 4.537422 0.426520
342.568329 -42.051281 3.493754 0.443626
371.400360 -48.834900 2.982250 0.580270
371.400360 -48.834900 1.017750 0.615991
352.598663 -44.411221 0.000032 0.544030
336.713531 -40.673752 0.000019 0.534874
329.893372 -39.069099 0.000017 0.336996
326.094940 -38.175404 0.000009 0.337652
323.670013 -37.604870 -0.000013 0.340200
321.984497 -37.208298 -0.000008 0.344549
320.742737 -36.916130 -0.000011 0.322591
344.182587 -42.661430 10.045124 0.425925
344.362732 -42.705147 8.976848 0.455802
343.838837 -42.578014 7.779691 0.471473
343.329895 -42.454521 6.634092 0.429908
343.157135 -42.412590 5.573477 0.564095
341.423309 -41.991867 4.400707 0.438483
343.954681 -42.606129 3.566331 0.435676
371.394287 -49.264645 2.983788 0.557275
371.394287 -49.264645 1.016212 0.571313
352.532623 -44.687656 0.000032 0.542763
336.673950 -40.839382 0.000019 0.540993
329.865143 -39.187149 0.000018 0.335882
326.073059 -38.266953 0.000010 0.338628
323.652191 -37.679508 -0.000013 0.338643
321.969482 -37.271179 -0.000008 0.335500
320.729767 -36.970348 -0.000011 0.344366
348.255341 -43.911015 11.110556 0.462440
344.345001 -42.933174 8.984909 0.417212
343.299316 -42.671680 7.688449 0.566705
342.849579 -42.559219 6.568625 0.448264
371.388153 -49.695747 8.927353 0.598321
348.804199 -44.048271 5.028673 0.569619
349.951477 -44.335167 3.872704 0.433890
371.388153 -49.695747 2.985377 0.582208
371.388153 -49.695747 1.014622 0.541634
352.464630 -44.963615 0.000031 0.535729
336.633240 -41.004723 0.000019 0.544640
329.836121 -39.304996 0.000018 0.337667
326.050537 -38.358349 0.000010 0.336767
323.633850 -37.754013 -0.000013 0.339284
321.954010 -37.333950 -0.000007 0.330037
320.716431 -37.024471 -0.000012 0.327672
nan nan nan 0.000000
345.266571 -43.403614 9.202826 0.428611
346.159393 -43.633518 8.235924 0.456321
343.333466 -42.905846 6.650845 0.436164
342.340912 -42.650269 5.489015 0.436606
349.429779 -44.475628 5.087011 0.460060
349.381134 -44.463104 3.847091 0.443412
371.382019 -50.128265 2.987023 0.630915
371.382019 -50.128265 1.012978 0.628580
352.394714 -45.239094 0.000031 0.547021
336.591339 -41.169769 0.000019 0.539696
329.806274 -39.422634 0.000018 0.334981
326.027374 -38.449585 0.000008 0.339727
323.614960 -37.828392 -0.000012 0.337865
321.938110 -37.396610 -0.000007 0.337011
320.702728 -37.078503 -0.000012 0.336645
nan nan nan 0.000000
343.753357 -43.243542 8.877878 0.452674
342.531677 -42.919853 7.564446 0.435538
344.297943 -43.387833 6.807341 0.421271
342.392120 -42.882877 5.501480 0.423560
341.688995 -42.696575 4.436038 0.498375
341.773132 -42.718868 3.463809 0.438346
371.375854 -50.562248 2.988720 0.647181
371.375854 -50.562248 1.011281 0.578286
352.322876 -45.514076 0.000031 0.543389
336.548309 -41.334526 0.000019 0.541329
329.775574 -39.540062 0.000019 0.338689
326.003601 -38.540657 0.000007 0.335225
323.595551 -37.902637 -0.000012 0.335088
321.921783 -37.459160 -0.000007 0.346563
320.688629 -37.132435 -0.000012 0.343786
nan nan nan 0.000000
344.205231 -43.597069 8.991943 0.448875
344.070496 -43.560356 7.865093 0.433402
341.496979 -42.859230 6.385736 0.452842
342.441772 -43.116631 5.513974 0.427253
341.777039 -42.935532 4.448093 0.556695
345.404175 -43.923706 3.651440 0.534554
371.369690 -50.997749 2.990470 0.623499
371.369690 -50.997749 1.009529 0.603128
352.249146 -45.788551 0.000031 0.546319
336.504120 -41.498978 0.000019 0.548882
329.744080 -39.657272 0.000019 0.338888
325.979187 -38.631565 0.000006 0.334859
323.575653 -37.976746 -0.000012 0.332570
321.904999 -37.521591 -0.000006 0.329595
320.674164 -37.186264 -0.000011 0.338872
nan nan nan 0.000000
343.598755 -43.661987 8.869418 0.429603
342.444031 -43.338715 7.569092 0.426535
nan nan nan 0.000000
344.213928 -43.834202 5.732465 0.450492
341.878235 -43.180317 4.461437 0.439429
345.336517 -44.148476 3.651175 0.550881
371.363464 -51.434826 2.992277 0.607523
371.363464 -51.434826 1.007723 0.569558
352.173462 -46.062508 0.000031 0.539025
336.458771 -41.663116 0.000019 0.533150
329.711792 -39.774269 0.000017 0.338506
325.954132 -38.722298 0.000005 0.337087
323.555206 -38.050713 -0.000012 0.330098
321.887787 -37.583908 -0.000006 0.322316
320.659332 -37.239998 -0.000010 0.338155
nan nan nan 0.000000
343.817596 -43.955933 8.932213 0.436561
nan nan nan 0.000000
343.959076 -43.996613 6.782928 0.444984
343.799316 -43.950684 5.690236 0.445167
343.486389 -43.860710 4.603518 0.485801
346.468018 -44.717922 3.712288 0.435599
371.357269 -51.873512 2.994139 0.594125
371.357269 -51.873512 1.005862 0.600336
352.095886 -46.335926 0.000031 0.545342
336.412292 -41.826935 0.000019 0.548226
329.678680 -39.891037 0.000014 0.337926
325.928436 -38.812851 0.000005 0.336736
323.534271 -38.124535 -0.000012 0.335424
321.870117 -37.646099 -0.000005 0.334890
320.644104 -37.293621 -0.000010 0.331594
nan nan nan 0.000000
343.725830 -44.162487 8.925661 0.518547
347.607605 -45.307892 8.571086 0.431373
343.682281 -44.149635 6.749853 0.442863
350.028748 -46.022297 6.444931 0.425788
343.398621 -44.065937 4.601315 0.566323
343.912262 -44.217506 3.584867 0.450813
371.351013 -52.313881 2.996056 0.580453
371.351013 -52.313881 1.003944 0.574731
352.016418 -46.608803 0.000031 0.539300
336.364685 -41.990425 0.000018 0.526818
329.644775 -40.007572 0.000012 0.338704
325.902130 -38.903229 0.000003 0.341039
323.512817 -38.198212 -0.000011 0.335576
321.852051 -37.708168 -0.000005 0.333272
320.628510 -37.347141 -0.000010 0.343694
nan nan nan 0.000000
343.465332 -44.317528 8.881340 0.453056
342.128784 -43.912991 7.543239 0.434882
343.544861 -44.341606 6.738479 0.434745
343.549194 -44.342918 5.675408 0.413443
346.030609 -45.093975 4.832226 0.435554
343.840149 -44.430977 3.584474 0.453193
371.344727 -52.755955 2.998029 0.600793
371.344727 -52.755955 1.001971 0.567849
351.935059 -46.881111 0.000031 0.542077
336.315918 -42.153576 0.000019 0.545510
329.610077 -40.123882 0.000002 0.336004
325.875275 -38.993439 -0.000010 0.338094
323.490845 -38.271732 -0.000011 0.335698
321.833527 -37.770107 -0.000004 0.338552
320.612549 -37.400547 -0.000010 0.336538
nan nan nan 0.000000
nan nan nan 0.000000
343.947174 -44.699944 7.901544 0.443732
344.776855 -44.957409 6.939973 0.447990
343.226257 -44.476242 5.644383 0.444877
343.509033 -44.563992 4.621811 0.458152
347.741272 -45.877304 3.788534 0.427817
371.338440 -53.199818 3.000060 0.548135
371.338440 -53.199818 0.999942 0.540627
351.851746 -47.152840 0.000031 0.536538
336.266022 -42.316387 0.000018 0.565560
329.574554 -40.239929 -0.000001 0.337911
325.847717 -39.083447 -0.000015 0.333593
323.468353 -38.345100 -0.000011 0.336248
321.814575 -37.831917 -0.000004 0.334173
320.596222 -37.453842 -0.000010 0.338598
nan nan nan 0.000000
347.517975 -46.072998 9.829695 0.437125
347.600464 -46.099236 8.612040 0.441367
343.594513 -44.825405 6.766780 0.432547
343.250336 -44.715961 5.655288 0.433967
348.503601 -46.386410 5.057303 0.435126
347.859497 -46.181595 3.798555 0.442161
371.332123 -53.645512 3.002146 0.574304
371.332123 -53.645512 0.997854 0.581369
351.766571 -47.423988 0.000031 0.538781
336.214996 -42.478844 0.000018 0.532738
329.538177 -40.355728 -0.000003 0.336309
325.819489 -39.173241 -0.000012 0.337194
323.445343 -38.418308 -0.000011 0.337728
321.795227 -37.893593 -0.000004 0.336843
320.579529 -37.507019 -0.000009 0.344045
nan nan nan 0.000000
347.203827 -46.236862 9.775953 0.424247
375.127319 -55.331203 13.894540 0.399817
343.805450 -45.130051 6.810411 0.427955
342.634064 -44.748543 5.588949 0.439292
343.070404 -44.890656 4.595652 0.462928
349.251434 -46.903740 3.874518 0.453117
371.325775 -54.093086 3.004290 0.525185
371.325775 -54.093086 0.995709 0.623102
351.679504 -47.694542 0.000031 0.544671
336.162811 -42.640938 0.000019 0.547997
329.501099 -40.471291 -0.000013 0.337606
325.726501 -39.241962 0.009992 1.000000
323.421844 -38.491352 -0.000009 0.334234
321.775391 -37.955132 -0.000003 0.337072
320.562439 -37.560081 -0.000009 0.336721
nan nan nan 0.000000
347.268829 -46.523483 9.808662 0.473335
373.620575 -55.309875 13.632939 0.604379
343.435059 -45.245201 6.763577 0.449210
347.765778 -46.689178 6.219525 0.423346
342.878326 -45.059574 4.585030 0.423972
371.319397 -54.542603 5.021640 0.574975
371.319397 -54.542603 3.006495 0.569833
371.319397 -54.542603 0.993505 0.601022
351.590546 -47.964462 0.000031 0.540352
336.109528 -42.802666 0.000019 0.538918
329.463104 -40.586567 -0.000013 0.338949
325.697235 -39.330917 0.009989 1.000000
323.397827 -38.564232 -0.000009 0.338811
321.755157 -38.016529 -0.000002 0.336370
320.544983 -37.613022 -0.000008 0.333730
nan nan nan 0.000000
347.068390 -46.721786 9.781328 0.436683
346.005280 -46.359055 8.351152 0.438087
343.338074 -45.448994 6.759606 0.524880
342.080933 -45.020050 5.538463 0.454810
345.140045 -46.063828 4.787071 0.446235
344.333557 -45.788654 3.627989 0.463676
371.312988 -54.994125 3.008757 0.603189
371.312988 -54.994125 0.991243 0.600473
351.499725 -48.233772 0.000031 0.547036
336.055084 -42.964020 0.000018 0.545769
329.424286 -40.701565 -0.000010 0.341634
325.667328 -39.419678 0.009984 1.000000
323.373260 -38.636940 -0.000006 0.336812
321.734497 -38.077785 -0.000002 0.338827
320.527161 -37.665840 -0.000008 0.343786
nan nan nan 0.000000
346.957062 -46.949329 9.774632 0.422049
345.906647 -46.582722 8.347464 0.420233
343.746338 -45.828743 6.835231 0.428031
345.648071 -46.492470 5.981639 0.439841
344.935181 -46.243664 4.776003 0.454368
370.796814 -55.269787 5.008879 0.550210
371.306580 -55.447693 3.011077 0.548775
371.306580 -55.447693 0.988922 0.587579
351.407013 -48.502434 0.000030 0.548989
335.999542 -43.124985 0.000019 0.541848
329.384674 -40.816288 -0.000008 0.337377
325.700409 -39.530426 -0.000016 0.338003
323.348236 -38.709473 -0.000003 0.334554
321.713409 -38.138897 -0.000002 0.335683
320.508972 -37.718533 -0.000008 0.337407
334.318054 -42.705719 7.677594 0.858701
334.318054 -42.705723 6.895438 0.461143
334.318054 -42.705723 6.124261 0.790951
334.318054 -42.705723 5.362218 0.528298
334.318054 -42.705723 4.607540 0.454459
334.318054 -42.705723 3.858525 0.671565
334.404602 -42.736599 3.118033 0.086275
334.404602 -42.736599 2.372411 0.086275
334.404602 -42.736599 1.627589 0.095628
334.404602 -42.736599 0.881966 0.095003
334.318054 -42.705723 0.141475 0.376562
329.344177 -40.930710 0.000003 0.338659
325.669098 -39.619186 -0.000015 0.337377
323.322662 -38.781830 -0.000001 0.337377
321.691895 -38.199856 0.000000 0.339223
320.490448 -37.771095 -0.000008 0.344045
334.139313 -42.808956 7.644252 0.743984
334.139313 -42.808956 6.866688 0.507561
334.139313 -42.808956 6.100042 0.743481
334.139313 -42.808960 5.342474 0.350393
334.139313 -42.808956 4.592227 0.591470
334.139313 -42.808960 3.847611 0.588617
334.255737 -42.851421 3.113069 0.678431
334.255737 -42.851425 2.370758 0.678431
334.255737 -42.851425 1.629242 0.678431
334.255737 -42.851421 0.886931 0.678431
334.139313 -42.808960 0.152389 0.805142
329.302979 -41.044868 0.000006 0.336080
325.637146 -39.707726 -0.000015 0.338857
323.296631 -38.854012 0.000000 0.343313
321.669952 -38.260666 0.000001 0.333150
320.471527 -37.823528 -0.000007 0.341085
333.962646 -42.910992 7.611572 0.526513
334.001923 -42.925632 6.847565 0.184329
334.001923 -42.925632 6.083930 0.686244
334.001923 -42.925629 5.329338 0.365423
334.001923 -42.925632 4.582040 0.649088
333.962646 -42.910992 3.836913 0.554406
334.047729 -42.942699 3.105032 0.094118
334.047699 -42.942699 2.368081 0.094118
334.047729 -42.942699 1.631919 0.094118
334.047729 -42.942699 0.894967 0.094118
334.047729 -42.942699 0.155642 0.231250
329.260956 -41.158733 0.000009 0.340230
325.604553 -39.796043 -0.000014 0.332128
323.270081 -38.926010 -0.000000 0.341070
321.647583 -38.321320 0.000003 0.339086
320.452240 -37.875832 -0.000007 0.334356
333.787964 -43.011856 7.579537 0.580392
334.016968 -43.099026 6.863809 0.524727
334.016968 -43.099026 6.097614 0.486976
334.016968 -43.099026 5.340496 0.537621
334.016968 -43.099022 4.590693 0.537621
333.787994 -43.011856 3.826426 0.634089
333.902466 -43.055435 3.100307 0.678431
333.902466 -43.055435 2.366507 0.678431
333.902466 -43.055435 1.633493 0.678431
333.902466 -43.055435 0.899693 0.678431
333.872345 -43.043972 0.166170 0.209735
329.218140 -41.272305 0.000012 0.337865
325.571381 -39.884129 -0.000014 0.331670
323.243042 -38.997818 -0.000000 0.341436
321.624786 -38.381817 0.000004 0.339544
320.432587 -37.927994 -0.000007 0.335332
333.615295 -43.111572 7.548133 0.661158
333.842407 -43.199844 6.836433 0.678431
333.842407 -43.199844 6.074552 0.678431
333.842407 -43.199844 5.321694 0.678431
333.842407 -43.199844 4.576112 0.678431
333.615295 -43.111580 3.816147 0.471595
333.728851 -43.155708 3.094114 0.678431
333.728851 -43.155708 2.364444 0.678431
333.728851 -43.155708 1.635556 0.678431
333.728851 -43.155708 0.905885 0.678431
333.698975 -43.144100 0.176491 0.094118
329.174561 -41.385574 0.000016 0.340871
325.537598 -39.971981 -0.000013 0.336690
323.215485 -39.069443 -0.000001 0.338888
321.601563 -38.442150 0.000006 0.335271
320.412567 -37.980019 -0.000007 0.329549
333.444550 -43.210186 7.517349 0.319066
333.444550 -43.210186 6.757267 0.615732
333.444550 -43.210186 6.007857 0.868376
333.444550 -43.210190 5.267323 0.371038
333.444550 -43.210190 4.533945 0.595636
333.444550 -43.210190 3.806070 0.540719
333.527527 -43.243111 3.086478 0.086275
333.527527 -43.243111 2.361901 0.086183
333.527527 -43.243111 1.638099 0.074510
333.527527 -43.243111 0.913522 0.086275
333.527527 -43.243111 0.186610 0.086275
329.130219 -41.498554 0.000013 0.336751
325.503174 -40.059597 -0.000013 0.338857
323.187439 -39.140869 -0.000002 0.333516
321.577911 -38.502323 0.000007 0.341238
320.392181 -38.031906 -0.000007 0.341176
333.275665 -43.307716 7.487174 0.613169
333.275665 -43.307716 6.731249 0.371328
333.275665 -43.307716 5.985938 0.386831
333.275665 -43.307716 5.249453 0.507225
333.275665 -43.307716 4.520086 0.664195
333.275665 -43.307716 3.796192 0.674037
333.387360 -43.352928 3.082093 0.678431
333.387360 -43.352928 2.360440 0.678431
333.387360 -43.352928 1.639560 0.678431
333.387360 -43.352928 0.917907 0.678431
333.357971 -43.341038 0.196526 0.094118
329.085083 -41.611229 0.000007 0.335363
325.468170 -40.146965 -0.000012 0.338140
323.158905 -39.212097 -0.000002 0.337270
321.553864 -38.562328 0.000008 0.338201
320.371460 -38.083645 -0.000007 0.329213
333.108612 -43.404190 7.457590 0.679286
333.108612 -43.404190 6.705739 0.857847
333.108612 -43.404190 5.964448 0.358206
333.108643 -43.404190 5.231934 0.884932
333.108612 -43.404190 4.506499 0.316945
333.190247 -43.437897 3.793749 0.140871
333.219360 -43.449928 3.076259 0.643046
333.219360 -43.449928 2.358496 0.645060
333.219360 -43.449928 1.641503 0.646937
333.219360 -43.449928 0.923741 0.646754
333.199005 -43.441509 0.205475 0.094118
329.039185 -41.723576 0.000006 0.337148
325.432526 -40.234093 -0.000012 0.338689
323.129852 -39.283123 -0.000002 0.342519
321.486633 -38.604504 0.010001 1.000000
320.350372 -38.135242 -0.000007 0.340322
332.943359 -43.499630 7.428585 0.500526
333.141235 -43.582966 6.727101 0.094118
333.141205 -43.582966 5.982442 0.171969
333.141205 -43.582966 5.246603 0.173251
333.141205 -43.582966 4.517876 0.236576
333.024323 -43.533726 3.784215 0.208896
333.053192 -43.545898 3.070539 0.678431
333.053192 -43.545898 2.356592 0.678431
333.053223 -43.545898 1.643408 0.678431
333.053223 -43.545898 0.929460 0.678431
333.053223 -43.545898 0.213213 0.309804
328.992462 -41.835598 0.000005 0.334813
325.396210 -40.320930 0.000002 0.336553
323.100311 -39.353943 -0.000000 0.331930
321.461853 -38.663864 0.010006 1.000000
320.328888 -38.186687 -0.000007 0.332647
332.779846 -43.594070 7.400150 0.715160
332.997742 -43.687645 6.707430 0.678431
332.997742 -43.687641 5.965870 0.678431
332.997742 -43.687641 5.233093 0.678431
332.997742 -43.687641 4.507399 0.619608
332.860107 -43.628548 3.774869 0.218585
332.888794 -43.640858 3.064932 0.678431
332.888794 -43.640862 2.354724 0.678431
332.888794 -43.640862 1.645276 0.678431
332.888794 -43.640858 0.935068 0.678431
332.888794 -43.640862 0.222571 0.445594
328.944977 -41.947292 0.000003 0.337942
325.359375 -40.407562 -0.000001 0.337011
323.070282 -39.424561 -0.000000 0.337743
321.436676 -38.723057 0.010007 1.000000
320.307098 -38.237984 -0.000007 0.337057
332.618011 -43.687531 7.372272 0.593027
332.618011 -43.687531 6.632177 0.631342
332.618011 -43.687527 5.902471 0.852155
332.618011 -43.687527 5.181409 0.566278
332.618011 -43.687523 4.467314 0.615167
332.697632 -43.722382 3.765706 0.092653
332.726074 -43.734825 3.059433 0.678431
332.726074 -43.734825 2.352892 0.678431
332.726074 -43.734825 1.647107 0.678431
332.726074 -43.734825 0.940566 0.678431
332.726074 -43.734825 0.231748 0.678431
328.896698 -42.058651 0.000002 0.337118
325.321960 -40.493927 -0.000005 0.337285
323.039734 -39.494957 0.000001 0.336019
321.453491 -38.800636 0.000009 0.339345
320.284912 -38.289124 -0.000006 0.337835
332.457825 -43.780025 7.344936 0.327337
332.457825 -43.780029 6.608607 0.578775
332.457825 -43.780029 5.882614 0.905882
332.457825 -43.780025 5.165220 0.755489
332.457825 -43.780025 4.454760 0.531029
332.536804 -43.815258 3.756722 0.072053
332.565002 -43.827843 3.054043 0.678431
332.565002 -43.827839 2.351097 0.678431
332.565002 -43.827839 1.648903 0.678431
332.565002 -43.827839 0.945956 0.678431
332.565002 -43.827839 0.240745 0.678431
328.847656 -42.169674 0.000001 0.338491
325.283936 -40.580029 -0.000005 0.337636
323.008728 -39.565147 0.000001 0.333669
321.427368 -38.859768 0.000008 0.344930
320.262390 -38.340111 -0.000007 0.328740
332.299255 -43.871593 7.318136 0.624720
332.299255 -43.871597 6.585498 0.925978
332.299255 -43.871597 5.863147 0.450874
332.299255 -43.871597 5.149350 0.606989
332.299255 -43.871597 4.442452 0.677760
332.377625 -43.907200 3.747914 0.074510
332.377594 -43.907200 3.047249 0.062745
332.377594 -43.907196 2.348834 0.094118
332.377594 -43.907196 1.651166 0.094118
332.377594 -43.907200 0.952751 0.086275
332.377625 -43.907200 0.252085 0.086275
328.797821 -42.280331 0.000003 0.337789
325.245270 -40.665859 -0.000005 0.335149
322.977234 -39.635120 0.000000 0.343221
321.400818 -38.918716 0.000008 0.337789
320.239502 -38.390938 -0.000007 0.337133
332.142273 -43.962254 7.291860 0.834806
332.254517 -44.014221 6.589560 0.905882
332.254517 -44.014221 5.866568 0.378958
332.254517 -44.014221 5.152139 0.807843
332.254517 -44.014221 4.444615 0.619333
332.247742 -44.011078 3.741787 0.492317
332.247742 -44.011078 3.043577 0.666667
332.247742 -44.011078 2.347610 0.666667
332.247742 -44.011078 1.652389 0.666667
332.247742 -44.011078 0.956422 0.666667
332.247742 -44.011078 0.258213 0.678431
328.747192 -42.390644 0.000006 0.335714
325.206055 -40.751419 -0.000006 0.339269
322.945221 -39.704868 0.000001 0.334417
321.373901 -38.977482 0.000006 0.338186
320.216248 -38.441605 -0.000007 0.341970
331.986816 -44.052032 7.266101 0.388235
332.196014 -44.150650 6.590580 0.678431
332.196014 -44.150650 5.867428 0.678431
332.196014 -44.150650 5.152840 0.678431
331.986816 -44.052032 4.418553 0.545113
332.091431 -44.101349 3.733308 0.520653
332.091431 -44.101349 3.038497 0.678431
332.091431 -44.101349 2.345918 0.678431
332.091431 -44.101349 1.654081 0.678431
332.091431 -44.101349 0.961502 0.678431
332.091431 -44.101349 0.266692 0.678431
328.695801 -42.500599 0.000008 0.334539
325.166199 -40.836704 -0.000007 0.333516
322.912750 -39.774395 0.000000 0.334432
321.346527 -39.036057 0.000004 0.330327
320.192657 -38.492111 -0.000007 0.340047
331.856964 -44.152508 7.247541 0.430228
332.040375 -44.240532 6.568563 0.678431
332.040375 -44.240528 5.848878 0.678431
332.040375 -44.240532 5.137718 0.678431
331.832886 -44.140942 4.406956 0.257069
331.936646 -44.190742 3.724995 0.460380
331.936646 -44.190742 3.033516 0.678431
331.936646 -44.190742 2.344259 0.678431
331.936646 -44.190742 1.655740 0.678431
331.936646 -44.190742 0.966483 0.678431
331.936646 -44.190742 0.275005 0.678431
328.565399 -42.572628 0.009997 1.000000
325.125763 -40.921703 -0.000008 0.330861
322.879791 -39.843689 -0.000000 0.333455
321.318756 -39.094440 0.000002 0.357321
320.168732 -38.542446 -0.000007 0.341207
331.680389 -44.229012 7.216084 0.645716
331.680389 -44.229012 6.497505 0.538201
331.680389 -44.229012 5.789014 0.776471
331.680389 -44.229012 5.088915 0.430381
331.680389 -44.229012 4.395582 0.670970
331.783295 -44.279282 3.716842 0.589456
331.783295 -44.279285 3.028632 0.678431
331.783295 -44.279282 2.342633 0.647059
331.783295 -44.279282 1.657367 0.647059
331.783295 -44.279285 0.971367 0.647059
331.783295 -44.279282 0.283158 0.678431
328.512695 -42.681290 0.010004 1.000000
325.084747 -41.006424 -0.000008 0.337209
322.846344 -39.912758 -0.000001 0.336553
321.290588 -39.152626 0.000001 0.314763
320.144409 -38.592617 -0.000007 0.337362
331.529327 -44.316246 7.191805 0.745937
331.529327 -44.316250 6.476572 0.647059
331.529327 -44.316246 5.771377 0.397940
331.529327 -44.316250 5.074538 0.421317
331.529327 -44.316250 4.384432 0.587488
331.631409 -44.367001 3.708851 0.589868
331.631409 -44.367001 3.023844 0.678431
331.631409 -44.367001 2.341038 0.678431
331.631409 -44.367001 1.658962 0.678431
331.631409 -44.367001 0.976155 0.678431
331.631409 -44.367001 0.291149 0.678431
328.537079 -42.828285 0.000012 0.337530
325.043121 -41.090855 -0.000008 0.328496
322.812439 -39.981586 -0.000001 0.339574
321.262024 -39.210617 -0.000001 0.338766
320.119781 -38.642612 -0.000007 0.346548
331.379669 -44.402687 7.168004 0.599268
331.379669 -44.402687 6.456048 0.391959
331.379669 -44.402687 5.754088 0.523735
331.379669 -44.402687 5.060442 0.352941
331.379669 -44.402687 4.373500 0.834287
331.480896 -44.453915 3.701016 0.678431
331.480896 -44.453915 3.019151 0.678431
331.480896 -44.453915 2.339474 0.678431
331.480896 -44.453915 1.660526 0.678431
331.480896 -44.453915 0.980849 0.678431
331.480896 -44.453915 0.298983 0.678431
328.482635 -42.936768 0.000013 0.525536
325.000946 -41.174992 -0.000009 0.339101
322.778015 -40.050179 -0.000002 0.331823
321.233032 -39.268410 -0.000004 0.339467
320.094788 -38.692436 -0.000007 0.346822
331.389923 -44.569973 7.189343 0.286885
331.389923 -44.569973 6.474448 0.255512
331.389923 -44.569973 5.769589 0.293248
331.389923 -44.569973 5.073080 0.062745
331.231354 -44.488335 4.362782 0.903014
331.331787 -44.540035 3.693336 0.678431
331.331787 -44.540035 3.014549 0.678431
331.331787 -44.540035 2.337941 0.678431
331.331787 -44.540035 1.662059 0.678431
