# This PCD file was generated using the MATLABÂ® pcwrite function
# from Computer Vision ToolboxÂ®.
# .PCD v.7 - Point Cloud Data file format
VERSION .7
FIELDS x y z intensity
SIZE 4 4 4 4
TYPE F F F F
COUNT 1 1 1 1
WIDTH 1337
HEIGHT 1
VIEWPOINT 0 0 0 1 0 0 0
POINTS 1337
DATA ascii
nan nan nan 0.000000
nan nan nan 0.000000
nan nan nan 0.000000
21.613972 13.263729 5.669108 0.463249
nan nan nan 0.000000
nan nan nan 0.000000
44.598557 -11.755808 -0.000048 0.537606
55.639366 -23.774118 -0.000031 0.547219
60.379532 -28.933960 -0.000024 0.540398
63.019547 -31.807705 -0.000019 0.555795
64.704956 -33.642338 -0.000017 0.565942
65.876381 -34.917477 -0.000015 0.594980
66.739433 -35.856937 -0.000014 0.590707
nan nan nan 0.000000
nan nan nan 0.000000
nan nan nan 0.000000
nan nan nan 0.000000
nan nan nan 0.000000
nan nan nan 0.000000
nan nan nan 0.000000
nan nan nan 0.000000
nan nan nan 0.000000
44.808540 -11.564270 -0.000047 0.539117
55.765167 -23.659349 -0.000031 0.549798
60.469200 -28.852161 -0.000024 0.548348
63.089085 -31.744268 -0.000019 0.535302
64.761650 -33.590622 -0.000017 0.532357
65.924141 -34.873905 -0.000015 0.553307
66.780617 -35.819370 -0.000014 0.541253
nan nan nan 0.000000
nan nan nan 0.000000
nan nan nan 0.000000
nan nan nan 0.000000
nan nan nan 0.000000
nan nan nan 0.000000
nan nan nan 0.000000
nan nan nan 0.000000
nan nan nan 0.000000
45.019848 -11.374180 -0.000048 0.541115
55.891769 -23.545464 -0.000031 0.526360
60.559437 -28.770990 -0.000023 0.533806
63.159065 -31.681316 -0.000019 0.537011
64.818703 -33.539303 -0.000017 0.558740
65.972206 -34.830673 -0.000015 0.552392
66.822060 -35.782093 -0.000014 0.541009
nan nan nan 0.000000
nan nan nan 0.000000
nan nan nan 0.000000
nan nan nan 0.000000
nan nan nan 0.000000
nan nan nan 0.000000
nan nan nan 0.000000
nan nan nan 0.000000
nan nan nan 0.000000
45.232483 -11.185591 -0.000046 0.543145
56.019161 -23.432467 -0.000031 0.551263
60.650234 -28.690451 -0.000024 0.560204
63.229488 -31.618856 -0.000019 0.518639
64.876106 -33.488380 -0.000017 0.532448
66.020569 -34.787773 -0.000015 0.580011
66.863762 -35.745102 -0.000014 0.501610
nan nan nan 0.000000
nan nan nan 0.000000
nan nan nan 0.000000
nan nan nan 0.000000
nan nan nan 0.000000
nan nan nan 0.000000
nan nan nan 0.000000
nan nan nan 0.000000
nan nan nan 0.000000
45.446426 -10.998472 -0.000047 0.536706
56.147346 -23.320362 -0.000031 0.532158
60.741600 -28.610550 -0.000023 0.528374
63.300339 -31.556887 -0.000019 0.553002
64.933876 -33.437866 -0.000016 0.505165
66.069237 -34.745213 -0.000015 0.518151
66.905716 -35.708405 -0.000014 0.530785
nan nan nan 0.000000
nan nan nan 0.000000
nan nan nan 0.000000
nan nan nan 0.000000
nan nan nan 0.000000
nan nan nan 0.000000
nan nan nan 0.000000
nan nan nan 0.000000
nan nan nan 0.000000
45.661674 -10.812874 -0.000046 0.540749
56.276306 -23.209160 -0.000030 0.531136
60.833519 -28.531292 -0.000023 0.564569
63.371628 -31.495419 -0.000019 0.572000
64.991982 -33.387753 -0.000016 0.534890
66.118195 -34.702995 -0.000015 0.557855
66.947929 -35.672005 -0.000014 0.534249
nan nan nan 0.000000
nan nan nan 0.000000
nan nan nan 0.000000
nan nan nan 0.000000
nan nan nan 0.000000
11.879059 29.642818 9.659689 0.486793
11.315456 30.310390 6.632162 0.504768
nan nan nan 0.000000
nan nan nan 0.000000
45.878212 -10.628771 -0.000046 0.542473
56.406044 -23.098858 -0.000030 0.540993
60.925987 -28.452671 -0.000023 0.545022
63.443340 -31.434446 -0.000019 0.546838
65.050446 -33.338047 -0.000016 0.585092
66.167450 -34.661121 -0.000015 0.493278
66.990402 -35.635899 -0.000013 0.585153
nan nan nan 0.000000
nan nan nan 0.000000
nan nan nan 0.000000
nan nan nan 0.000000
11.404907 31.231869 12.921802 0.485649
11.312225 31.343220 9.796394 0.487053
11.527756 31.084278 6.654598 0.480293
nan nan nan 0.000000
nan nan nan 0.000000
46.096024 -10.446180 -0.000046 0.543572
56.536545 -22.989462 -0.000030 0.539605
61.018997 -28.374699 -0.000023 0.542901
63.515472 -31.373974 -0.000019 0.569055
65.109253 -33.288750 -0.000016 0.556085
66.216988 -34.619587 -0.000014 0.591134
67.033119 -35.600086 -0.000014 0.517189
nan nan nan 0.000000
nan nan nan 0.000000
nan nan nan 0.000000
nan nan nan 0.000000
11.641705 31.988125 12.971511 0.493858
12.552872 30.877773 9.702170 0.488457
21.630787 19.815361 5.911673 0.428321
13.142956 30.158695 3.521913 0.499718
12.191292 31.318394 0.453540 0.684779
46.315117 -10.265125 -0.000046 0.537987
56.667809 -22.880981 -0.000030 0.536507
61.112556 -28.297382 -0.000022 0.530129
63.588032 -31.314011 -0.000019 0.542718
65.168404 -33.239864 -0.000016 0.547524
66.266823 -34.578403 -0.000014 0.508125
67.076088 -35.564575 -0.000014 0.520104
93.789612 -68.496643 10.621775 0.477653
nan nan nan 0.000000
93.741379 -68.437027 8.248989 0.477073
92.860634 -67.348335 6.886637 0.490806
93.370384 -67.978439 5.883029 0.493355
93.551613 -68.202454 4.791257 0.474632
111.493317 -90.380280 5.073775 0.672557
111.646706 -90.569878 3.027852 0.713512
111.646706 -90.569878 0.972149 0.704173
97.746162 -73.387360 0.000007 0.533928
87.482201 -60.700031 0.000005 0.532372
83.075493 -55.252884 0.000004 0.532753
80.621193 -52.219109 0.000003 0.543374
79.054329 -50.282303 0.000003 0.520943
77.965294 -48.936146 0.000003 0.556359
77.162949 -47.944363 0.000003 0.509651
93.806435 -68.903137 10.703798 0.474006
93.258469 -68.216034 9.314932 0.472755
92.972496 -67.857452 8.079159 0.485634
93.063797 -67.971939 6.977630 0.471305
93.546715 -68.577469 5.949460 0.489570
94.296097 -69.517120 4.913527 0.463966
111.085831 -90.569870 5.068501 0.728191
111.085831 -90.569870 3.022103 0.715785
111.085831 -90.569870 0.977897 0.721874
97.524582 -73.565338 0.000007 0.544457
87.349442 -60.806667 0.000005 0.547967
82.980865 -55.328892 0.000004 0.548165
80.547806 -52.278053 0.000003 0.543679
78.994499 -50.330357 0.000003 0.549569
77.914894 -48.976631 0.000003 0.566354
77.119492 -47.979271 0.000003 0.598810
93.262329 -68.603523 10.560354 0.487312
93.144485 -68.453629 9.339880 0.458427
93.067719 -68.355980 8.161030 0.471229
93.694420 -69.153160 7.173068 0.486992
93.486885 -68.889168 5.973300 0.494118
93.256477 -68.596085 4.801402 0.482307
110.531158 -90.569878 5.051585 0.723308
110.531151 -90.569870 3.016468 0.726299
110.531151 -90.569870 0.983531 0.725612
97.302216 -73.742363 -0.000030 0.337423
87.215935 -60.912376 0.000005 0.526207
82.885712 -55.404232 0.000004 0.546563
80.474007 -52.336487 0.000004 0.523766
78.934341 -50.377991 0.000003 0.545953
77.864212 -49.016762 0.000003 0.584436
77.075790 -48.013870 0.000003 0.518868
93.000244 -68.654816 10.530089 0.490059
94.113083 -70.090904 9.747357 0.496986
92.920746 -68.552238 8.172726 0.474098
93.498955 -69.298386 7.172210 0.470375
93.259102 -68.988869 5.966218 0.480644
94.001991 -69.947540 4.926368 0.482353
109.982544 -90.569878 5.035002 0.682536
109.982544 -90.569878 3.010945 0.712688
109.982544 -90.569878 0.989055 0.737346
97.078156 -73.917221 -0.000029 0.338842
87.081696 -61.017147 0.000005 0.543236
82.790039 -55.478909 0.000004 0.545632
80.399803 -52.394402 0.000003 0.531807
78.873848 -50.425209 0.000003 0.552636
77.813248 -49.056541 0.000003 0.444678
77.031845 -48.048168 0.000003 0.548745
92.927109 -68.950737 10.577668 0.462257
nan nan nan 0.000000
92.328903 -68.167542 8.051580 0.465141
93.387398 -69.553368 7.192098 0.484062
92.690071 -68.640388 5.894526 0.440879
109.439835 -90.569885 7.038446 0.730297
109.439835 -90.569885 5.018745 0.730571
109.439835 -90.569885 3.005531 0.725216
109.439835 -90.569885 0.994470 0.716213
96.852829 -74.090454 -0.000024 0.338369
86.946739 -61.120987 0.000005 0.539315
82.693848 -55.552921 0.000004 0.551217
80.325203 -52.451797 0.000003 0.543084
78.813026 -50.471996 0.000003 0.563790
77.762009 -49.095963 0.000003 0.548135
76.987671 -48.082161 0.000003 0.523751
92.807449 -69.189278 10.607170 0.472343
93.843605 -70.565674 9.793518 0.484565
92.395241 -68.641708 8.127623 0.496773
92.932701 -69.355659 7.127976 0.494148
92.434196 -68.693459 5.881605 0.479866
93.919838 -70.666931 4.969158 0.462333
108.902893 -90.569893 5.002807 0.714778
108.902893 -90.569885 3.000221 0.721080
108.902885 -90.569885 0.999779 0.709438
96.626350 -74.262161 -0.000023 0.338750
86.811050 -61.223873 0.000005 0.546624
82.597137 -55.626259 0.000003 0.541253
80.250198 -52.508671 0.000004 0.543114
78.751884 -50.518364 0.000003 0.553719
77.710495 -49.135021 0.000003 0.559716
76.943253 -48.115837 0.000003 0.557763
nan nan nan 0.000000
nan nan nan 0.000000
92.242554 -68.830490 8.138506 0.437507
93.011139 -69.866425 7.195630 0.483650
92.413544 -69.060951 5.914047 0.468482
93.515701 -70.546494 4.941409 0.474571
92.617455 -69.335800 3.688262 0.481254
108.371552 -90.569885 2.995015 0.720424
108.371544 -90.569885 1.004985 0.725429
96.398628 -74.432243 -0.000020 0.338521
86.674652 -61.325813 0.000005 0.549447
82.499908 -55.698910 0.000004 0.549020
80.174805 -52.565018 0.000004 0.549279
78.690414 -50.564301 0.000003 0.551843
77.658714 -49.173721 0.000003 0.525017
76.898598 -48.149208 0.000003 0.591791
nan nan nan 0.000000
nan nan nan 0.000000
nan nan nan 0.000000
92.647789 -69.783775 7.153795 0.495979
92.331169 -69.350731 5.935269 0.489555
93.212685 -70.556374 4.927328 0.494118
107.845688 -90.569893 4.971859 0.707607
107.845688 -90.569885 2.989913 0.705852
107.845680 -90.569885 1.010088 0.695125
96.169769 -74.600769 -0.000018 0.338872
86.537537 -61.426796 0.000005 0.540383
82.402191 -55.770889 0.000004 0.538369
80.099014 -52.620842 0.000003 0.530510
78.628632 -50.609810 0.000003 0.519020
77.606659 -49.212059 0.000003 0.518120
76.853722 -48.182266 0.000003 0.595300
nan nan nan 0.000000
nan nan nan 0.000000
nan nan nan 0.000000
92.698357 -70.268890 7.216438 0.482826
92.248108 -69.643967 5.956959 0.495293
107.325165 -90.569885 6.935121 0.726284
92.632278 -70.177177 3.722060 0.485054
107.325165 -90.569893 2.984910 0.721080
107.325165 -90.569885 1.015092 0.722683
95.939697 -74.767654 -0.000013 0.338582
86.399727 -61.526825 0.000005 0.543038
82.303963 -55.842182 0.000004 0.533043
80.022835 -52.676136 0.000003 0.536385
78.566528 -50.654884 0.000003 0.562493
77.554344 -49.250034 0.000003 0.536873
76.808609 -48.215008 0.000003 0.525811
nan nan nan 0.000000
nan nan nan 0.000000
nan nan nan 0.000000
nan nan nan 0.000000
nan nan nan 0.000000
106.809853 -90.569893 6.910541 0.698039
92.416260 -70.295631 3.720619 0.477791
106.809860 -90.569901 2.980003 0.731975
106.809845 -90.569885 1.019996 0.738231
95.708511 -74.932968 -0.000012 0.338811
86.261223 -61.625885 0.000005 0.525628
82.205246 -55.912792 0.000003 0.542611
79.946274 -52.730892 0.000003 0.536828
78.504112 -50.699520 0.000003 0.501656
77.501755 -49.287643 0.000003 0.504677
76.763268 -48.247437 0.000002 0.510994
nan nan nan 0.000000
nan nan nan 0.000000
nan nan nan 0.000000
nan nan nan 0.000000
nan nan nan 0.000000
106.299637 -90.569901 6.886442 0.723308
106.505516 -90.864235 4.945320 0.678431
106.299622 -90.569893 2.975193 0.716243
106.299622 -90.569885 1.024806 0.718715
95.476143 -75.096634 -0.000009 0.339315
86.122025 -61.723976 0.000005 0.539651
82.106033 -55.982704 0.000004 0.546548
79.869331 -52.785114 0.000003 0.535286
78.441391 -50.743725 0.000003 0.545357
77.448914 -49.324883 0.000003 0.537606
76.717705 -48.279545 0.000003 0.512062
nan nan nan 0.000000
nan nan nan 0.000000
nan nan nan 0.000000
nan nan nan 0.000000
111.024765 -98.159561 9.882980 0.935699
105.794357 -90.569901 6.862813 0.738247
105.997200 -90.864243 4.931077 0.678431
105.794365 -90.569901 2.970478 0.689082
105.794357 -90.569885 1.029521 0.722820
95.242836 -75.258957 -0.000022 0.337194
85.982147 -61.821095 0.000005 0.540032
82.006332 -56.051922 0.000004 0.556649
79.792007 -52.838795 0.000004 0.529809
78.378357 -50.787491 0.000003 0.482979
77.395813 -49.361752 0.000003 0.562463
76.671913 -48.311337 0.000003 0.584710
nan nan nan 0.000000
nan nan nan 0.000000
nan nan nan 0.000000
nan nan nan 0.000000
110.446548 -98.159546 9.845423 0.909255
105.293930 -90.569901 6.839647 0.735424
105.474655 -90.836098 4.915443 0.160784
105.293930 -90.569901 2.965855 0.733562
105.293930 -90.569893 1.034145 0.726650
95.008255 -75.419418 -0.000022 0.338445
85.841606 -61.917233 0.000005 0.546532
81.906158 -56.120445 0.000004 0.510262
79.714317 -52.891937 0.000003 0.590936
78.315018 -50.830814 0.000003 0.534874
77.342453 -49.398251 0.000003 0.525719
76.625908 -48.342804 0.000003 0.577874
nan nan nan 0.000000
nan nan nan 0.000000
nan nan nan 0.000000
nan nan nan 0.000000
109.873810 -98.159561 9.808608 0.919951
104.798218 -90.569901 6.816936 0.717083
105.004387 -90.878189 4.904248 0.678431
104.798233 -90.569908 2.961323 0.702174
104.798225 -90.569901 1.038678 0.704021
94.772560 -75.578247 -0.000023 0.338704
85.700378 -62.012383 0.000005 0.557824
81.805504 -56.188267 0.000004 0.551827
79.636261 -52.944538 0.000003 0.558633
78.251381 -50.873692 0.000003 0.526604
77.288841 -49.434376 0.000002 0.566033
76.579681 -48.373955 0.000003 0.500542
nan nan nan 0.000000
nan nan nan 0.000000
nan nan nan 0.000000
nan nan nan 0.000000
109.343277 -98.215561 9.780223 0.918257
80.153458 -53.900841 3.194317 0.483192
104.517761 -90.889679 4.891498 0.678431
104.307121 -90.569901 2.956877 0.732616
104.307121 -90.569901 1.043121 0.737911
94.535728 -75.735390 -0.000021 0.337881
85.558502 -62.106552 0.000005 0.545663
81.704384 -56.255386 0.000004 0.567727
79.557831 -52.996586 0.000004 0.539178
78.187447 -50.916126 0.000003 0.542107
77.234978 -49.470123 0.000003 0.585031
76.533234 -48.404778 0.000003 0.521782
79.808510 -53.555950 5.528922 0.494987
nan nan nan 0.000000
nan nan nan 0.000000
nan nan nan 0.000000
79.808235 -53.555527 3.620664 0.476951
79.915176 -53.720379 3.171241 0.484947
104.035698 -90.901596 4.879031 0.678431
80.183411 -54.133850 2.241811 0.486702
103.820518 -90.569901 1.047479 0.720928
94.297836 -75.890900 -0.000021 0.338933
85.415977 -62.199730 0.000005 0.534661
81.602791 -56.321796 0.000004 0.545769
79.479042 -53.048092 0.000004 0.552178
78.123215 -50.958115 0.000003 0.532204
77.180862 -49.505501 0.000003 0.556146
76.486580 -48.435280 0.000003 0.539483
79.900475 -53.882599 5.610190 0.489479
nan nan nan 0.000000
nan nan nan 0.000000
80.244766 -54.421516 4.232781 0.496193
79.743736 -53.637253 3.624553 0.503197
79.967957 -53.988220 3.192050 0.462501
103.979889 -91.574188 4.905328 0.678431
79.837654 -53.784256 2.233938 0.432319
103.662827 -91.077888 1.041885 0.730449
94.058823 -76.044708 -0.000019 0.338338
85.272797 -62.291908 0.000005 0.529839
81.500740 -56.387493 0.000004 0.548135
79.399902 -53.099045 0.000003 0.557656
78.058693 -50.999653 0.000003 0.546105
77.126503 -49.540493 0.000003 0.516472
76.439713 -48.465450 0.000003 0.506188
79.707504 -53.764809 5.559389 0.474891
nan nan nan 0.000000
79.455673 -53.364479 4.499518 0.469444
80.157509 -54.480156 4.233198 0.464973
79.699898 -53.752708 3.633071 0.449821
79.857063 -54.002548 3.188174 0.476188
103.964417 -92.324966 4.936074 0.678431
79.774124 -53.870705 2.234576 0.473228
103.662827 -91.845535 1.031276 0.694667
93.818779 -76.196884 -0.000019 0.337926
85.128975 -62.383080 0.000004 0.540566
81.398232 -56.452480 0.000004 0.534966
79.320404 -53.149445 0.000004 0.525063
77.993889 -51.040741 0.000003 0.512886
77.071907 -49.575108 0.000003 0.518380
76.392632 -48.495296 0.000002 0.496132
79.565857 -53.724510 5.532039 0.476081
79.696220 -53.934982 5.098927 0.481422
79.299141 -53.293877 4.473539 0.482612
80.099892 -54.586735 4.242084 0.470298
79.501625 -53.620800 3.608120 0.471901
79.703827 -53.947273 3.177676 0.488380
103.959709 -93.109756 4.968657 0.678431
79.709686 -53.956734 2.235213 0.524849
103.662827 -92.630432 1.020381 0.722210
93.577660 -76.347366 -0.000017 0.338552
84.984520 -62.473244 0.000005 0.540734
81.295273 -56.516743 0.000004 0.552270
79.240555 -53.199284 0.000004 0.554101
77.928787 -51.081367 0.000003 0.532555
77.017067 -49.609341 0.000003 0.486229
76.345345 -48.524811 0.000003 0.578882
79.581291 -53.938904 5.579817 0.476356
79.939949 -54.527119 5.235448 0.494118
79.212730 -53.334465 4.471599 0.492470
79.711906 -54.153122 4.157150 0.478889
79.548340 -53.884869 3.636816 0.494942
79.545265 -53.879829 3.166157 0.493797
79.349411 -53.558624 2.680212 0.482353
79.645187 -54.043705 2.235873 0.427802
103.662827 -93.433212 1.009189 0.707561
93.335541 -76.496216 -0.000020 0.337896
84.839439 -62.562401 0.000005 0.554849
81.191864 -56.580288 0.000004 0.572763
79.160355 -53.248566 0.000003 0.556374
77.863411 -51.121548 0.000003 0.526024
76.961983 -49.643188 0.000003 0.500450
76.297859 -48.554001 0.000003 0.549767
79.217812 -53.527199 5.444452 0.494026
79.983215 -54.802422 5.291161 0.494514
79.126419 -53.374924 4.469769 0.463493
79.633415 -54.219620 4.159564 0.484230
79.787422 -54.476208 3.709258 0.491951
79.445740 -53.906944 3.163835 0.442588
79.264610 -53.605167 2.680012 0.493980
79.580330 -54.131180 2.236547 0.450141
103.662827 -94.254593 0.997688 0.721019
93.092377 -76.643356 -0.000021 0.338293
84.693741 -62.650547 0.000005 0.533791
81.088020 -56.643116 0.000004 0.532403
79.079819 -53.297291 0.000003 0.564004
77.797760 -51.161270 0.000003 0.527291
76.906677 -49.676651 0.000003 0.556527
76.250160 -48.582851 0.000002 0.466743
79.313293 -53.877571 5.532096 0.492882
79.351959 -53.943016 5.061923 0.483177
79.040192 -53.415268 4.468048 0.455589
79.674400 -54.488831 4.196985 0.488563
79.179329 -53.650795 3.591879 0.504997
79.160332 -53.618641 3.131550 0.466178
79.060684 -53.449955 2.668334 0.493751
79.515099 -54.219173 2.237239 0.487144
103.662827 -95.095322 0.985867 0.719753
92.848236 -76.788879 -0.000027 0.338277
84.547432 -62.737671 0.000005 0.538048
80.983734 -56.705212 0.000004 0.535683
78.998947 -53.345451 0.000003 0.556283
77.731827 -51.200531 0.000003 0.548333
76.851128 -49.709724 0.000003 0.540932
76.202271 -48.611370 0.000003 0.510857
79.127426 -53.753716 5.481789 0.481804
79.268326 -53.996086 5.062680 0.487572
79.001411 -53.536976 4.483587 0.411749
78.937447 -53.426941 4.005813 0.496712
79.171204 -53.829021 3.609096 0.494530
78.769478 -53.138035 3.081347 0.490700
78.757957 -53.118221 2.646754 0.484535
79.449493 -54.307701 2.237946 0.491814
103.662834 -95.956131 0.973715 0.709270
92.603065 -76.932663 -0.000031 0.339223
84.400520 -62.823769 0.000005 0.531838
80.879028 -56.766579 0.000004 0.534249
78.917740 -53.393044 0.000003 0.524712
77.665619 -51.239326 0.000003 0.547448
76.795349 -49.742413 0.000003 0.513161
76.154182 -48.639557 0.000003 0.506905
79.131310 -53.955936 5.526155 0.453971
78.838089 -53.443382 4.912848 0.462760
78.901825 -53.554790 4.477343 0.481300
78.927231 -53.599197 4.027191 0.494118
79.198868 -54.074032 3.635103 0.501213
78.776016 -53.334881 3.095597 0.495399
78.711304 -53.221745 2.650015 0.449378
79.613823 -54.799381 2.246259 0.471397
103.662827 -96.837875 0.961215 0.733242
92.356873 -77.074677 -0.000033 0.337957
84.253006 -62.908836 0.000005 0.543725
80.773880 -56.827213 0.000004 0.533730
78.836197 -53.440071 0.000003 0.523140
77.599144 -51.277664 0.000003 0.556359
76.739349 -49.774712 0.000002 0.514076
76.105888 -48.667404 0.000003 0.535286
79.077881 -54.061378 5.542521 0.491905
78.892471 -53.731968 4.972854 0.450141
78.856705 -53.668411 4.491272 0.494285
78.877853 -53.705982 4.037353 0.481926
78.850677 -53.657711 3.573679 0.494118
78.565750 -53.151474 3.074008 0.494072
78.577530 -53.172401 2.644663 0.494148
79.516846 -54.841282 2.246072 0.481025
103.662834 -97.741425 0.948356 0.723568
92.109680 -77.214951 -0.000033 0.337865
84.104904 -62.992882 0.000005 0.533059
80.668327 -56.887115 0.000004 0.533745
78.754333 -53.486523 0.000003 0.542489
77.532410 -51.315536 0.000003 0.571359
76.683128 -49.806618 0.000002 0.594644
76.057411 -48.694916 0.000002 0.518547
78.771729 -53.712273 5.428785 0.480766
79.016808 -54.154900 5.065701 0.479896
78.642151 -53.478245 4.442029 0.480201
78.622574 -53.442886 3.984818 0.500053
78.924622 -53.988407 3.611044 0.489540
78.673630 -53.535099 3.105785 0.490394
78.685951 -53.557343 2.663772 0.479133
79.476471 -54.985085 2.247805 0.478813
103.662842 -98.667664 0.935121 0.680034
91.861511 -77.353485 -0.000033 0.337636
83.956223 -63.075882 0.000005 0.543999
80.562347 -56.946278 0.000004 0.531777
78.672142 -53.532406 0.000003 0.534798
77.465408 -51.352943 0.000003 0.530632
76.626678 -49.838131 0.000002 0.548699
76.008743 -48.722084 0.000002 0.539315
78.694687 -53.770607 5.432304 0.501472
78.777336 -53.922379 4.996788 0.489998
78.459915 -53.339523 4.403943 0.485252
78.560486 -53.524193 3.990957 0.482353
78.715584 -53.808983 3.581376 0.493751
79.109871 -54.532974 3.194723 0.482353
78.642113 -53.674080 2.667762 0.483436
79.407127 -55.078804 2.248603 0.495109
103.662834 -99.617538 0.921496 0.708431
91.612396 -77.490326 -0.000035 0.338262
83.806961 -63.157852 0.000005 0.539651
80.455963 -57.004696 0.000004 0.545556
78.589638 -53.577713 0.000003 0.528420
77.398140 -51.389877 0.000003 0.534356
76.570007 -49.869247 0.000003 0.530694
75.959877 -48.748917 0.000002 0.545037
78.730240 -54.039608 5.495824 0.490654
78.558876 -53.719643 4.935838 0.482353
78.426453 -53.472393 4.422322 0.492897
78.498001 -53.605995 3.997229 0.477378
78.498352 -53.606644 3.549019 0.493355
78.533279 -53.671860 3.110130 0.499702
78.410995 -53.443539 2.652401 0.489723
78.939613 -54.430542 2.235634 0.661036
78.916275 -54.386967 1.765175 0.670222
78.909630 -54.374550 1.295714 0.542504
78.906555 -54.368813 0.825043 0.585458
78.903389 -54.362896 0.352289 0.652842
78.506813 -53.622440 0.000004 0.516167
77.330627 -51.426342 0.000003 0.518166
76.513130 -49.899967 0.000003 0.542382
75.910835 -48.775406 0.000003 0.558907
78.540268 -53.887978 5.439959 0.494118
78.453430 -53.723083 4.925813 0.483085
78.417549 -53.654942 4.450898 0.494118
78.435120 -53.688305 4.003637 0.475273
78.301338 -53.434277 3.520875 0.433829
78.824310 -54.427330 3.176031 0.680369
78.398819 -53.619381 2.659750 0.487175
78.817261 -54.413940 2.234454 0.642100
78.814400 -54.408512 1.765646 0.676783
78.811501 -54.403008 1.296741 0.647456
78.808594 -54.397488 0.826734 0.656916
78.805328 -54.391293 0.354695 0.640391
78.423683 -53.666595 0.000003 0.534432
77.262856 -51.462337 0.000003 0.515572
76.456032 -49.930290 0.000002 0.521233
75.861603 -48.801548 0.000003 0.514473
78.769104 -54.538483 5.610929 0.693416
78.363373 -53.754833 4.922888 0.495430
78.362625 -53.753384 4.462150 0.488090
78.440231 -53.903290 4.032256 0.475547
78.252151 -53.540009 3.529038 0.445060
78.521248 -54.059753 3.137813 0.433478
78.274078 -53.582363 2.655301 0.462165
78.743866 -54.489738 2.234998 0.631571
78.738045 -54.478500 1.765209 0.609705
78.732155 -54.467117 1.295753 0.643595
78.726196 -54.455605 0.825637 0.683635
78.717682 -54.439163 0.354481 0.679011
78.340248 -53.710163 0.000003 0.535515
77.194832 -51.497856 0.000003 0.586603
76.398727 -49.960213 0.000002 0.541360
75.812195 -48.827354 0.000002 0.518975
78.223755 -53.688797 5.359200 0.494118
78.431259 -54.096531 4.995239 0.486030
78.335396 -53.908169 4.484943 0.494697
78.308083 -53.854500 4.016866 0.474693
78.659279 -54.544563 3.653238 0.479652
78.473145 -54.178822 3.144696 0.495628
78.259048 -53.758144 2.662647 0.494118
103.662834 -103.674820 3.137255 0.730053
103.662842 -103.674828 0.862746 0.736522
90.606537 -78.020088 -0.000037 0.338872
83.204300 -63.475220 0.000005 0.540459
80.026421 -57.230907 0.000004 0.528374
78.256508 -53.753151 0.000003 0.537392
77.126564 -51.532894 0.000003 0.550271
76.341217 -49.989738 0.000003 0.533227
75.762604 -48.852806 0.000002 0.518074
78.131653 -53.713943 5.354430 0.475074
78.386742 -54.223957 5.015479 0.485344
78.261375 -53.973312 4.489459 0.486458
78.106346 -53.663345 3.978070 0.476860
78.103844 -53.658352 3.533433 0.491493
78.326195 -54.102905 3.133711 0.460853
78.159111 -53.768845 2.660904 0.435981
103.662842 -104.759445 3.153101 0.716030
103.625885 -104.685555 0.848251 0.171206
90.352783 -78.148117 -0.000037 0.338506
83.052277 -63.551933 0.000005 0.534203
79.918060 -57.285576 0.000004 0.528878
78.172470 -53.795551 0.000003 0.554757
77.058060 -51.567463 0.000003 0.507881
76.283501 -50.018860 0.000003 0.537133
75.712837 -48.877914 0.000003 0.531395
78.054337 -53.768593 5.358093 0.502129
78.341644 -54.353188 5.036159 0.434882
78.342224 -54.354355 4.558111 0.488258
78.138077 -53.938984 4.016793 0.493721
77.875992 -53.405701 3.495749 0.494118
78.153999 -53.971371 3.117776 0.467063
78.059700 -53.779507 2.659204 0.493584
103.662849 -105.874786 3.169453 0.724254
103.662849 -105.874786 0.830548 0.686259
90.098160 -78.274422 -0.000040 0.337179
82.899712 -63.627579 0.000005 0.532952
79.809319 -57.339493 0.000004 0.524605
78.088135 -53.837364 0.000003 0.542504
76.989304 -51.601547 0.000003 0.534279
76.225578 -50.047577 0.000002 0.526055
75.662895 -48.902679 0.000002 0.588022
77.948380 -53.764400 5.345525 0.456230
78.295479 -54.483273 5.057050 0.459434
78.261482 -54.412865 4.561248 0.486168
78.023293 -53.919548 4.006744 0.482567
78.195816 -54.276867 3.601961 0.435538
77.986511 -53.843376 3.102328 0.491173
77.932724 -53.731976 2.654373 0.494118
103.662865 -107.022278 3.186334 0.721126
103.662865 -107.022278 0.813667 0.718334
89.842651 -78.398911 -0.000041 0.338155
82.746620 -63.702148 0.000005 0.538628
79.700211 -57.392647 0.000004 0.544121
78.003517 -53.878586 0.000003 0.528710
76.920319 -51.635155 0.000003 0.536553
76.167458 -50.075886 0.000002 0.509163
75.612785 -48.927086 0.000003 0.574044
77.857193 -53.789719 5.341386 0.490806
78.299812 -54.723019 5.104163 0.453712
78.180534 -54.471508 4.564515 0.498604
77.888168 -53.855038 3.989460 0.471168
77.808746 -53.687569 3.521587 0.491753
78.059464 -54.216217 3.132486 0.495903
78.566109 -55.284538 2.736606 0.494896
nan nan nan 0.000000
nan nan nan 0.000000
89.586319 -78.521690 -0.000046 0.338293
82.593018 -63.775650 0.000005 0.535348
79.590729 -57.445034 0.000004 0.545144
77.918610 -53.919216 0.000003 0.538415
76.851097 -51.668278 0.000003 0.538979
76.109146 -50.103794 0.000002 0.527214
75.562500 -48.951149 0.000003 0.553338
77.966087 -54.244114 5.455999 0.488655
77.926735 -54.159622 4.959763 0.437430
77.896294 -54.094261 4.480393 0.494850
77.755348 -53.791618 3.972566 0.479530
77.975594 -54.264534 3.589823 0.494972
77.962311 -54.236008 3.130566 0.457542
78.027313 -54.375572 2.684933 0.468315
nan nan nan 0.000000
nan nan nan 0.000000
89.329117 -78.642639 -0.000049 0.337865
82.438904 -63.848083 0.000005 0.543786
79.480881 -57.496658 0.000004 0.537621
77.833420 -53.959251 0.000003 0.535424
76.781654 -51.700920 0.000003 0.526467
76.050636 -50.131290 0.000002 0.552804
75.512054 -48.974861 0.000002 0.597986
78.370926 -55.361099 5.752535 0.492164
77.999619 -54.549080 5.042734 0.493904
77.906776 -54.346031 4.522787 0.484642
77.624748 -53.729252 3.956048 0.494118
77.741783 -53.985210 3.549375 0.494331
78.130386 -54.835068 3.180941 0.424125
78.274887 -55.151070 2.724622 0.484718
nan nan nan 0.000000
nan nan nan 0.000000
89.071037 -78.761703 -0.000047 0.338277
82.284286 -63.919434 0.000005 0.534524
79.370682 -57.547516 0.000004 0.540139
77.747955 -53.998695 0.000003 0.559075
76.711975 -51.733070 0.000003 0.562860
75.991936 -50.158379 0.000003 0.562966
75.461441 -48.998215 0.000002 0.521004
78.250046 -55.347198 5.736870 0.483314
77.920074 -54.612038 5.048030 0.487495
78.141525 -55.105423 4.666277 0.471992
77.729027 -54.186401 4.024201 0.498756
77.654778 -54.020981 3.548993 0.478202
78.138596 -55.098888 3.200923 0.439124
77.798492 -54.341171 2.678722 0.471534
nan nan nan 0.000000
nan nan nan 0.000000
88.812096 -78.878876 -0.000041 0.338170
82.129181 -63.989708 0.000005 0.535775
79.260132 -57.597610 0.000003 0.543587
77.662216 -54.037537 0.000003 0.533089
76.642082 -51.764740 0.000003 0.555245
75.933052 -50.185059 0.000002 0.573571
75.410667 -49.021221 0.000002 0.540475
78.065857 -55.187416 5.681553 0.494118
77.823898 -54.638115 5.044736 0.486839
78.072922 -55.203457 4.677505 0.482444
77.777039 -54.531731 4.073901 0.496895
77.470108 -53.834923 3.520803 0.492439
77.897285 -54.804710 3.170843 0.494163
77.685654 -54.324253 2.675710 0.494118
nan nan nan 0.000000
106.776100 -120.366562 0.594016 0.114839
88.552338 -78.994247 -0.000035 0.338949
81.973587 -64.058899 0.000005 0.534691
79.149223 -57.646919 0.000003 0.527657
77.576202 -54.075783 0.000003 0.563226
76.571968 -51.795918 0.000003 0.550057
75.873978 -50.211327 0.000003 0.506233
75.359734 -49.043869 0.000002 0.532738
77.951431 -55.181290 5.668684 0.494118
77.726242 -54.660217 5.040677 0.476539
77.694923 -54.587761 4.547318 0.503716
77.895111 -55.050964 4.151500 0.484642
77.480804 -54.092308 3.548434 0.468009
77.892395 -55.044678 3.188717 0.495888
77.703606 -54.607838 2.688832 0.480842
nan nan nan 0.000000
106.122665 -120.366577 0.598291 0.280430
88.291786 -79.107788 -0.000029 0.338125
81.817513 -64.126991 0.000005 0.531655
79.037987 -57.695454 0.000004 0.554940
77.489929 -54.113426 0.000003 0.512718
76.501633 -51.826603 0.000003 0.536156
75.814728 -50.237175 0.000002 0.565209
75.308647 -49.066158 0.000002 0.501579
nan nan nan 0.000000
77.552307 -54.501747 4.994430 0.465019
77.830231 -55.157368 4.652288 0.494194
nan nan nan 0.000000
77.959671 -55.462715 3.715047 0.494469
77.812347 -55.115177 3.191449 0.435843
nan nan nan 0.000000
nan nan nan 0.000000
105.482986 -120.389816 0.602062 0.678431
88.030487 -79.219620 -0.000028 0.338598
81.660965 -64.194000 0.000005 0.552682
78.926407 -57.743217 0.000004 0.533593
77.403397 -54.150467 0.000003 0.545190
76.431084 -51.856800 0.000002 0.578317
75.755295 -50.262619 0.000003 0.536248
75.257401 -49.088093 0.000002 0.558923
nan nan nan 0.000000
77.410515 -54.412804 4.964863 0.479942
77.698479 -55.105537 4.634313 0.494118
nan nan nan 0.000000
77.849480 -55.468773 3.710783 0.479377
77.731934 -55.185997 3.194251 0.464790
77.555786 -54.762276 2.692983 0.494118
nan nan nan 0.000000
104.837250 -120.390137 0.606147 0.678431
87.768379 -79.329514 -0.000022 0.338170
81.503952 -64.259918 0.000005 0.533562
78.814491 -57.790195 0.000003 0.543664
77.316605 -54.186897 0.000003 0.544366
76.360329 -51.886501 0.000003 0.519036
75.695686 -50.287640 0.000002 0.567437
75.206001 -49.109669 0.000002 0.526543
nan nan nan 0.000000
nan nan nan 0.000000
nan nan nan 0.000000
nan nan nan 0.000000
nan nan nan 0.000000
77.651131 -55.257160 3.197125 0.493767
92.151794 -90.838524 4.604833 0.678431
nan nan nan 0.000000
104.195229 -120.390427 0.610141 0.678431
87.505531 -79.437645 -0.000018 0.338216
81.346489 -64.324738 0.000005 0.533562
78.702255 -57.836388 0.000004 0.537179
77.229561 -54.222729 0.000003 0.533516
76.289375 -51.915710 0.000003 0.531899
75.635902 -50.312248 0.000002 0.545769
75.154457 -49.130886 0.000002 0.535134
nan nan nan 0.000000
nan nan nan 0.000000
nan nan nan 0.000000
nan nan nan 0.000000
nan nan nan 0.000000
91.745155 -90.818398 6.333598 0.679347
91.745148 -90.818390 4.596442 0.678431
91.932457 -91.287346 2.873125 0.496025
91.932457 -91.287346 1.126874 0.314580
87.241692 -79.543320 0.000016 0.338506
81.188568 -64.388443 0.000004 0.553506
78.589706 -57.881802 0.000004 0.547723
77.142273 -54.257950 0.000003 0.549630
76.218208 -51.944424 0.000002 0.556756
75.575951 -50.336433 0.000002 0.540703
75.102768 -49.151745 0.000002 0.550393
nan nan nan 0.000000
nan nan nan 0.000000
nan nan nan 0.000000
nan nan nan 0.000000
nan nan nan 0.000000
91.341110 -90.798409 6.319894 0.678431
91.341103 -90.798401 4.588230 0.678431
91.532455 -91.287354 2.870719 0.474189
91.532455 -91.287354 1.129281 0.310491
86.977577 -79.648308 -0.000009 0.338354
81.030212 -64.451057 0.000005 0.546304
78.476837 -57.926430 0.000004 0.534615
77.054741 -54.292557 0.000003 0.533516
76.146851 -51.972637 0.000002 0.536843
75.515831 -50.360207 0.000002 0.522240
75.050926 -49.172241 0.000002 0.507042
nan nan nan 0.000000
nan nan nan 0.000000
nan nan nan 0.000000
nan nan nan 0.000000
nan nan nan 0.000000
90.945763 -90.794632 6.307896 0.678431
90.945763 -90.794632 4.581042 0.678431
91.134628 -91.287338 2.868368 0.483970
91.134628 -91.287338 1.131633 0.278447
86.712746 -79.751480 -0.000037 0.337819
80.871422 -64.512558 0.000005 0.530922
78.363655 -57.970268 0.000003 0.545113
76.966965 -54.326553 0.000003 0.563531
76.075294 -52.000351 0.000003 0.543740
75.455551 -50.383553 0.000002 0.561883
74.998947 -49.192371 0.000002 0.572503
nan nan nan 0.000000
nan nan nan 0.000000
nan nan nan 0.000000
nan nan nan 0.000000
nan nan nan 0.000000
90.553993 -90.794632 6.296503 0.680827
90.554001 -90.794632 4.574217 0.678431
90.808540 -91.472839 2.869313 0.678218
90.808540 -91.472839 1.130687 0.676234
86.447090 -79.852516 -0.000049 0.338415
80.712204 -64.572952 0.000005 0.542718
78.250175 -58.013313 0.000003 0.540795
76.878952 -54.359936 0.000003 0.525002
76.003548 -52.027569 0.000003 0.534279
75.395103 -50.406483 0.000002 0.558373
74.946831 -49.212143 0.000002 0.492744
nan nan nan 0.000000
nan nan nan 0.000000
nan nan nan 0.000000
nan nan nan 0.000000
nan nan nan 0.000000
90.164268 -90.794617 6.285379 0.679484
90.164268 -90.794617 4.567550 0.678431
90.435806 -91.533722 2.868123 0.678431
90.435806 -91.533722 1.131876 0.678431
86.180450 -79.950928 -0.000021 0.337743
80.552574 -64.632240 0.000004 0.539803
78.136398 -58.055565 0.000004 0.544045
76.790710 -54.392704 0.000003 0.597848
75.931610 -52.054283 0.000003 0.546929
75.334503 -50.428986 0.000002 0.548501
74.894577 -49.231544 0.000002 0.527962
nan nan nan 0.000000
nan nan nan 0.000000
nan nan nan 0.000000
nan nan nan 0.000000
nan nan nan 0.000000
89.766426 -90.766464 6.272066 0.160784
89.766418 -90.766464 4.559573 0.160784
90.042236 -91.533707 2.865923 0.678431
90.042236 -91.533707 1.134076 0.678431
85.913292 -80.047920 -0.000016 0.337987
80.392532 -64.690399 0.000005 0.538399
78.022324 -58.097015 0.000004 0.539101
76.702248 -54.424858 0.000003 0.533913
75.859489 -52.080494 0.000003 0.533272
75.273743 -50.451069 0.000003 0.536965
74.842186 -49.250584 0.000002 0.538216
nan nan nan 0.000000
nan nan nan 0.000000
nan nan nan 0.000000
nan nan nan 0.000000
nan nan nan 0.000000
89.390762 -90.794617 6.263921 0.680308
89.390762 -90.794617 4.554694 0.674571
89.564003 -91.287331 2.859503 0.246876
89.564003 -91.287331 1.140497 0.512917
85.645164 -80.142181 0.000033 0.338659
80.232086 -64.747437 0.000005 0.545464
77.907967 -58.137680 0.000004 0.545739
76.613556 -54.456394 0.000003 0.564675
75.787186 -52.106201 0.000002 0.537469
75.212830 -50.472729 0.000002 0.558038
74.789665 -49.269260 0.000002 0.542931
nan nan nan 0.000000
nan nan nan 0.000000
nan nan nan 0.000000
nan nan nan 0.000000
nan nan nan 0.000000
89.006866 -90.794624 6.253584 0.680598
89.006866 -90.794617 4.548501 0.675761
89.176262 -91.287354 2.857420 0.241184
89.176270 -91.287354 1.142580 0.580713
85.376740 -80.235580 0.000031 0.338674
80.071243 -64.803368 0.000005 0.540841
77.793327 -58.177536 0.000004 0.544091
76.524651 -54.487305 0.000003 0.526223
75.714706 -52.131401 0.000003 0.532204
75.151764 -50.493958 0.000002 0.522408
74.737015 -49.287567 0.000002 0.512764
nan nan nan 0.000000
nan nan nan 0.000000
nan nan nan 0.000000
nan nan nan 0.000000
91.140221 -98.280838 8.862240 0.534844
88.624809 -90.794632 6.243503 0.678431
88.624809 -90.794632 4.542462 0.677256
88.790375 -91.287369 2.855387 0.273762
88.790375 -91.287369 1.144612 0.590433
85.107750 -80.327347 0.000015 0.337758
79.910019 -64.858170 0.000005 0.549981
77.678413 -58.216599 0.000004 0.542992
76.435532 -54.517593 0.000003 0.549996
75.642052 -52.156094 0.000003 0.562844
75.090561 -50.514767 0.000002 0.531929
74.684242 -49.305504 0.000002 0.573388
nan nan nan 0.000000
nan nan nan 0.000000
nan nan nan 0.000000
nan nan nan 0.000000
90.701920 -98.280838 8.846344 0.572519
88.170776 -90.569901 6.214281 0.722560
88.170776 -90.569893 4.524953 0.702846
88.170776 -90.569901 2.841049 0.719997
88.170776 -90.569901 1.158951 0.734066
84.838013 -80.416885 0.000017 0.338720
79.748413 -64.911835 0.000005 0.538628
77.563232 -58.254856 0.000003 0.540230
76.346199 -54.547260 0.000003 0.535256
75.569229 -52.180283 0.000003 0.542351
75.029205 -50.535141 0.000002 0.529091
74.631340 -49.323074 0.000002 0.507408
nan nan nan 0.000000
nan nan nan 0.000000
nan nan nan 0.000000
nan nan nan 0.000000
90.265625 -98.280823 8.830856 0.556832
87.793976 -90.569901 6.204749 0.728267
87.793983 -90.569901 4.519242 0.703273
87.793976 -90.569893 2.839147 0.703685
87.793976 -90.569893 1.160853 0.725292
84.505516 -80.310699 0.010019 1.000000
79.586441 -64.964386 0.000004 0.532235
77.447784 -58.292309 0.000003 0.533669
76.256668 -54.576309 0.000003 0.551507
75.496239 -52.203960 0.000003 0.527916
74.967712 -50.555088 0.000002 0.547112
74.578316 -49.340275 0.000002 0.567849
nan nan nan 0.000000
nan nan nan 0.000000
nan nan nan 0.000000
nan nan nan 0.000000
89.831276 -98.280830 8.815771 0.542885
87.418869 -90.569901 6.195461 0.731380
87.418869 -90.569901 4.513678 0.715480
87.418861 -90.569885 2.837295 0.734859
87.418861 -90.569885 1.162706 0.696788
84.235733 -80.395493 0.010050 1.000000
79.424103 -65.015793 0.000005 0.541360
77.332077 -58.328949 0.000003 0.532326
76.166931 -54.604729 0.000003 0.566522
75.423080 -52.227127 0.000002 0.540398
74.906082 -50.574608 0.000002 0.512612
74.525177 -49.357105 0.000002 0.549935
nan nan nan 0.000000
nan nan nan 0.000000
nan nan nan 0.000000
nan nan nan 0.000000
89.404747 -98.300217 8.803414 0.560265
87.045387 -90.569901 6.186421 0.739300
87.045395 -90.569916 4.508261 0.739422
87.045387 -90.569901 2.835489 0.733074
87.045387 -90.569901 1.164510 0.707195
84.025322 -80.674812 -0.000009 0.338018
79.261406 -65.066071 0.000004 0.531518
77.216118 -58.364784 0.000004 0.561151
76.076996 -54.632523 0.000003 0.557870
75.349770 -52.249786 0.000003 0.547448
74.844315 -50.593697 0.000002 0.535927
74.471924 -49.373562 0.000002 0.534173
nan nan nan 0.000000
nan nan nan 0.000000
nan nan nan 0.000000
nan nan nan 0.000000
89.009460 -98.419434 8.803424 0.542901
86.673500 -90.569901 6.177620 0.723964
86.673500 -90.569908 4.502988 0.714214
86.673492 -90.569901 2.833733 0.720287
86.673492 -90.569885 1.166267 0.731777
83.753273 -80.757072 -0.000022 0.338155
79.098366 -65.115211 0.000004 0.535592
77.099907 -58.399803 0.000004 0.532433
75.986877 -54.659683 0.000003 0.552346
75.276299 -52.271931 0.000003 0.528618
74.782417 -50.612350 0.000002 0.530556
74.418549 -49.389648 0.000002 0.497856
nan nan nan 0.000000
nan nan nan 0.000000
nan nan nan 0.000000
nan nan nan 0.000000
nan nan nan 0.000000
86.303146 -90.569901 6.169062 0.738979
86.303154 -90.569908 4.497860 0.735592
86.303146 -90.569901 2.832024 0.721813
86.303146 -90.569893 1.167975 0.728603
83.480576 -80.837166 -0.000020 0.338949
78.934982 -65.163208 0.000005 0.535378
76.983459 -58.434021 0.000003 0.538781
75.896561 -54.686214 0.000003 0.569085
75.202675 -52.293560 0.000002 0.559899
74.720390 -50.630573 0.000002 0.538491
74.365067 -49.405357 0.000002 0.532723
nan nan nan 0.000000
nan nan nan 0.000000
nan nan nan 0.000000
nan nan nan 0.000000
88.078049 -98.159576 8.744864 0.919341
85.934303 -90.569908 6.160740 0.732754
85.934303 -90.569916 4.492873 0.721569
85.934303 -90.569908 2.830364 0.724330
85.934303 -90.569901 1.169636 0.695232
83.207237 -80.915054 -0.000004 0.337270
78.771271 -65.210068 0.000005 0.545419
76.866776 -58.467422 0.000004 0.531243
75.806068 -54.712116 0.000003 0.538003
75.128899 -52.314674 0.000003 0.522972
74.658241 -50.648361 0.000002 0.531655
74.311478 -49.420700 0.000002 0.597925
nan nan nan 0.000000
nan nan nan 0.000000
nan nan nan 0.000000
nan nan nan 0.000000
87.668945 -98.215584 8.738436 0.928161
85.566910 -90.569916 6.152652 0.733593
85.566902 -90.569901 4.488027 0.719265
85.566902 -90.569893 2.828749 0.724514
85.566902 -90.569885 1.171250 0.721202
82.933388 -80.991127 0.000007 0.539162
78.607239 -65.255783 0.000004 0.541115
76.749863 -58.500000 0.000004 0.536461
75.715401 -54.737385 0.000003 0.518959
75.054977 -52.335278 0.000002 0.539025
74.595963 -50.665718 0.000002 0.530785
74.257782 -49.435665 0.000002 0.526864
nan nan nan 0.000000
nan nan nan 0.000000
nan nan nan 0.000000
nan nan nan 0.000000
87.245651 -98.215584 8.725691 0.926314
85.200912 -90.569901 6.144796 0.736584
85.200912 -90.569908 4.483323 0.728435
85.200912 -90.569901 2.827183 0.733242
85.200905 -90.569885 1.172818 0.736614
82.659088 -81.065529 0.000007 0.541527
78.442894 -65.300354 0.000005 0.545434
76.632721 -58.531773 0.000003 0.554284
75.624550 -54.762020 0.000003 0.518700
74.980919 -52.355358 0.000003 0.550042
74.533569 -50.682640 0.000002 0.561547
74.203987 -49.450253 0.000002 0.516213
nan nan nan 0.000000
nan nan nan 0.000000
nan nan nan 0.000000
nan nan nan 0.000000
86.823929 -98.215584 8.713322 0.917037
84.836281 -90.569901 6.137174 0.732677
84.836281 -90.569916 4.478755 0.725155
84.836281 -90.569916 2.825661 0.724880
84.836281 -90.569901 1.174339 0.716609
82.384270 -81.138008 0.000007 0.541024
78.278236 -65.343765 0.000005 0.546609
76.515358 -58.562717 0.000003 0.533532
75.533531 -54.786026 0.000003 0.527855
74.906715 -52.374928 0.000003 0.521538
74.471062 -50.699120 0.000002 0.553643
74.150085 -49.464466 0.000002 0.534463
nan nan nan 0.000000
nan nan nan 0.000000
nan nan nan 0.000000
nan nan nan 0.000000
86.403748 -98.215591 8.701323 0.901991
84.472977 -90.569916 6.129780 0.720104
84.472977 -90.569916 4.474324 0.729015
84.472977 -90.569901 2.824187 0.736278
84.472969 -90.569885 1.175815 0.699367
82.108948 -81.208557 0.000007 0.537499
78.113281 -65.386040 0.000005 0.532006
76.397789 -58.592850 0.000003 0.546288
75.442352 -54.809391 0.000003 0.527306
74.832382 -52.393974 0.000003 0.528954
74.408432 -50.715172 0.000002 0.548623
74.096085 -49.478302 0.000002 0.553841
nan nan nan 0.000000
nan nan nan 0.000000
nan nan nan 0.000000
nan nan nan 0.000000
85.985031 -98.215576 8.689690 0.908629
84.110947 -90.569916 6.122612 0.724330
84.110947 -90.569908 4.470030 0.729564
84.110947 -90.569901 2.822755 0.725200
84.110947 -90.569893 1.177245 0.724117
81.833138 -81.277176 0.000007 0.542016
77.948036 -65.427162 0.000005 0.537148
76.280014 -58.622154 0.000003 0.527947
75.351006 -54.832119 0.000003 0.547097
74.757919 -52.412502 0.000002 0.565896
74.345703 -50.730782 0.000002 0.529549
74.041992 -49.491764 0.000001 0.521218
nan nan nan 0.000000
nan nan nan 0.000000
nan nan nan 0.000000
85.554451 -98.159599 10.602770 0.908843
85.567757 -98.215591 8.678425 0.914870
83.701996 -90.367302 6.098594 0.673014
83.701996 -90.367310 4.455639 0.679072
83.750160 -90.569901 2.821370 0.719875
83.750153 -90.569885 1.178631 0.729152
81.556862 -81.343857 0.000007 0.543877
77.782501 -65.467117 0.000005 0.530587
76.162033 -58.650642 0.000003 0.544137
75.259506 -54.854210 0.000003 0.553628
74.683327 -52.430511 0.000003 0.549966
74.282860 -50.745953 0.000002 0.524437
73.987808 -49.504845 0.000002 0.539376
nan nan nan 0.000000
nan nan nan 0.000000
nan nan nan 0.000000
nan nan nan 0.000000
85.138962 -98.159576 8.660912 0.932708
83.458374 -90.864258 6.133718 0.678431
83.451881 -90.836090 4.475263 0.160784
83.390564 -90.569901 2.820029 0.724407
83.390564 -90.569885 1.179972 0.705348
81.280128 -81.408630 0.000007 0.539818
77.616699 -65.505928 0.000004 0.545434
76.043854 -58.678291 0.000004 0.536843
75.167854 -54.875656 0.000003 0.526864
74.608612 -52.447998 0.000002 0.564782
74.219910 -50.760681 0.000002 0.573159
73.933533 -49.517548 0.000002 0.566049
nan nan nan 0.000000
nan nan nan 0.000000
nan nan nan 0.000000
84.724815 -98.159607 10.575145 0.911376
84.724815 -98.159592 8.650380 0.911650
83.097771 -90.864258 6.127180 0.678431
82.986969 -90.367416 4.447758 0.677317
83.032120 -90.569908 2.818733 0.721721
83.032120 -90.569893 1.181269 0.690318
81.002945 -81.471458 0.000007 0.543999
77.450630 -65.543579 0.000005 0.553323
75.925484 -58.705124 0.000003 0.524330
75.076057 -54.896465 0.000003 0.545602
74.533775 -52.464966 0.000002 0.555947
74.156860 -50.774979 0.000002 0.506188
73.879173 -49.529869 0.000002 0.517327
nan nan nan 0.000000
nan nan nan 0.000000
nan nan nan 0.000000
84.311958 -98.159592 10.562018 0.907774
84.311958 -98.159592 8.640203 0.897108
82.738297 -90.864258 6.120865 0.678431
82.631119 -90.367386 4.444013 0.691600
82.674805 -90.569908 2.817478 0.731060
82.674797 -90.569885 1.182521 0.737163
80.725334 -81.532364 0.000007 0.539910
77.284302 -65.580070 0.000004 0.547784
75.806931 -58.731133 0.000003 0.539193
74.984116 -54.916637 0.000003 0.544701
74.458817 -52.481407 0.000002 0.541604
74.093719 -50.788826 0.000002 0.492088
73.824730 -49.541813 0.000002 0.520424
nan nan nan 0.000000
nan nan nan 0.000000
nan nan nan 0.000000
83.900337 -98.159607 10.549356 0.918502
83.900337 -98.159599 8.630381 0.917449
82.379898 -90.864258 6.114768 0.678431
82.276321 -90.367294 4.440393 0.684108
82.318550 -90.569901 2.816271 0.711681
82.318550 -90.569901 1.183731 0.721569
80.447304 -81.591324 0.000007 0.542046
77.117714 -65.615379 0.000005 0.527535
75.688202 -58.756310 0.000003 0.526497
74.892036 -54.936161 0.000003 0.525154
74.383751 -52.497326 0.000002 0.521233
74.030472 -50.802238 0.000002 0.562081
73.770195 -49.553379 0.000002 0.527687
nan nan nan 0.000000
nan nan nan 0.000000
nan nan nan 0.000000
83.489914 -98.159615 10.537144 0.912734
83.489906 -98.159592 8.620909 0.927367
82.023651 -90.869797 6.109353 0.678431
81.922539 -90.367096 4.436895 0.665858
81.963326 -90.569901 2.815104 0.735485
81.963326 -90.569893 1.184897 0.698802
80.168861 -81.648346 0.000007 0.542824
76.950890 -65.649536 0.000005 0.539757
75.569298 -58.780659 0.000003 0.538521
74.799820 -54.955048 0.000003 0.546517
74.308578 -52.512718 0.000003 0.567987
73.967140 -50.815208 0.000002 0.550179
73.715591 -49.564560 0.000002 0.541955
nan nan nan 0.000000
nan nan nan 0.000000
nan nan nan 0.000000
83.080643 -98.159607 10.525378 0.907195
83.080635 -98.159599 8.611785 0.937255
81.670181 -90.884857 6.104949 0.678431
81.569725 -90.366760 4.433521 0.701823
81.609116 -90.569901 2.813982 0.721950
81.609116 -90.569901 1.186020 0.690425
79.890038 -81.703423 0.000007 0.537057
76.783836 -65.682541 0.000005 0.548653
75.450226 -58.804176 0.000003 0.541131
74.707474 -54.973286 0.000003 0.543389
74.233292 -52.527588 0.000002 0.557153
73.903717 -50.827736 0.000002 0.570489
73.660904 -49.575359 0.000002 0.500481
nan nan nan 0.000000
nan nan nan 0.000000
nan nan nan 0.000000
82.672470 -98.159592 10.514059 0.915297
82.672470 -98.159584 8.603006 0.921691
81.317444 -90.899902 6.100755 0.678431
81.218086 -90.367599 4.430332 0.678386
81.255844 -90.569901 2.812900 0.730907
81.255844 -90.569901 1.187100 0.737072
79.610832 -81.756546 0.000007 0.541588
76.616554 -65.714371 0.000005 0.541756
75.330994 -58.826862 0.000003 0.530816
74.615005 -54.990879 0.000003 0.536553
74.157913 -52.541931 0.000002 0.553140
73.840210 -50.839817 0.000002 0.509117
73.606140 -49.585777 0.000002 0.555261
nan nan nan 0.000000
nan nan nan 0.000000
nan nan nan 0.000000
82.265366 -98.159607 10.503186 0.923445
82.265366 -98.159599 8.594576 0.912032
80.965210 -90.913773 6.096673 0.678431
80.867126 -90.367157 4.427207 0.664195
80.903503 -90.569901 2.811862 0.713787
80.903503 -90.569901 1.188138 0.729442
79.331261 -81.807716 0.000007 0.540078
76.449051 -65.745026 0.000005 0.538155
75.211609 -58.848713 0.000003 0.543191
74.522415 -55.007824 0.000003 0.523308
74.082428 -52.555748 0.000002 0.544900
73.776619 -50.851460 0.000002 0.543450
73.551315 -49.595818 0.000002 0.547112
nan nan nan 0.000000
nan nan nan 0.000000
nan nan nan 0.000000
81.859283 -98.159592 10.492755 0.912535
81.859283 -98.159599 8.586487 0.926497
80.754227 -91.743759 6.160704 0.678431
80.526909 -90.423950 4.427060 0.681270
80.552048 -90.569893 2.810866 0.727459
80.552048 -90.569901 1.189134 0.692134
79.051338 -81.856918 0.000008 0.543359
76.281342 -65.774521 0.000005 0.529503
75.092072 -58.869732 0.000003 0.526192
74.429710 -55.024124 0.000003 0.534386
74.006851 -52.569038 0.000002 0.526421
73.712944 -50.862652 0.000002 0.522469
73.496414 -49.605469 0.000002 0.508415
nan nan nan 0.000000
nan nan nan 0.000000
nan nan nan 0.000000
81.454170 -98.159607 10.482763 0.906523
81.454170 -98.159607 8.578735 0.936751
80.746582 -93.872711 6.332736 0.682460
80.746590 -93.872726 4.595924 0.678248
80.449776 -92.074493 2.834865 0.725277
80.449776 -92.074493 1.165134 0.696117
78.771080 -81.904190 0.000008 0.536110
76.113426 -65.802834 0.000005 0.513985
74.972389 -58.889915 0.000003 0.539269
