# This PCD file was generated using the MATLABÂ® pcwrite function
# from Computer Vision ToolboxÂ®.
# .PCD v.7 - Point Cloud Data file format
VERSION .7
FIELDS x y z intensity
SIZE 4 4 4 4
TYPE F F F F
COUNT 1 1 1 1
WIDTH 1207
HEIGHT 1
VIEWPOINT 0 0 0 1 0 0 0
POINTS 1207
DATA ascii
nan nan nan 0.000000
309.409241 -57.307808 -0.000013 0.535180
295.746826 -66.233170 -0.000010 0.338369
289.880981 -70.065208 0.000002 0.336843
286.614044 -72.199417 0.000007 0.341024
284.528412 -73.561905 0.000003 0.336996
283.078827 -74.508888 0.000000 0.334478
282.010803 -75.206604 0.000006 0.340047
nan nan nan 0.000000
nan nan nan 0.000000
nan nan nan 0.000000
nan nan nan 0.000000
nan nan nan 0.000000
nan nan nan 0.000000
nan nan nan 0.000000
nan nan nan 0.000000
nan nan nan 0.000000
309.563873 -57.546288 -0.000013 0.536110
295.839447 -66.376060 -0.000010 0.337560
289.946991 -70.167046 0.000002 0.336019
286.665222 -72.278404 0.000008 0.335256
284.570160 -73.626289 0.000002 0.333150
283.114014 -74.563133 -0.000001 0.334585
282.041138 -75.253372 0.000006 0.338079
318.424133 -52.269447 14.779563 0.556725
318.424133 -52.269451 13.019022 0.635996
318.424133 -52.269455 11.283196 0.606378
318.424133 -52.269455 9.567933 0.471458
318.424133 -52.269455 7.869248 0.566323
318.424133 -52.269455 6.183307 0.775586
318.424133 -52.269451 4.506396 0.611688
318.504456 -52.218575 2.836425 0.678431
318.504456 -52.218571 1.163576 0.678431
309.716827 -57.785843 -0.000014 0.541878
295.931091 -66.519592 -0.000009 0.338491
290.012299 -70.269348 0.000002 0.337148
286.715881 -72.357742 0.000008 0.338766
284.611450 -73.690971 0.000001 0.332784
283.148804 -74.617622 -0.000001 0.333547
282.071136 -75.300354 0.000006 0.340826
318.602356 -52.578072 14.776213 0.549493
318.602356 -52.578064 13.016135 0.561273
318.602356 -52.578064 11.280766 0.666682
318.602356 -52.578068 9.565952 0.489616
318.602356 -52.578072 7.867709 0.623301
318.602356 -52.578072 6.182213 0.548440
318.602356 -52.578072 4.505739 0.509361
318.641083 -52.553917 2.835397 0.261402
318.641083 -52.553913 1.164603 0.254154
309.868103 -58.026463 -0.000014 0.532906
296.021729 -66.663757 -0.000009 0.339971
290.076904 -70.372101 0.000001 0.341070
286.765961 -72.437439 0.000010 0.340490
284.652313 -73.755928 0.000000 0.338537
283.183197 -74.672348 -0.000001 0.329183
282.100800 -75.347549 0.000006 0.340764
318.942474 -52.787075 14.821099 0.678431
318.942474 -52.787079 13.054836 0.678431
318.915283 -52.803780 11.307564 0.700236
318.942505 -52.787067 9.592537 0.678431
318.780518 -52.886543 7.866460 0.467994
318.942474 -52.787071 6.196905 0.678431
318.942474 -52.787075 4.514542 0.691295
318.861511 -52.836800 2.836027 0.678431
318.861511 -52.836800 1.163973 0.678431
310.017670 -58.268135 -0.000014 0.543633
296.007355 -66.872421 0.009998 1.000000
290.140778 -70.475296 0.000001 0.339101
286.815521 -72.517479 0.000010 0.330541
284.692688 -73.821182 0.000000 0.335576
283.217224 -74.727318 -0.000002 0.329061
282.130127 -75.394943 0.000007 0.343755
319.121216 -53.096569 14.818992 0.678431
319.121216 -53.096573 13.053019 0.678431
319.086975 -53.117260 11.304564 0.107012
319.121216 -53.096565 9.591288 0.678431
318.958588 -53.194893 7.865495 0.414908
319.121216 -53.096565 6.196216 0.678431
319.121216 -53.096565 4.514130 0.678431
319.039886 -53.145729 2.835889 0.678431
319.039886 -53.145729 1.164110 0.678431
310.165588 -58.510834 -0.000014 0.540124
296.199951 -66.953972 -0.000009 0.338186
290.203949 -70.578941 0.000001 0.337575
286.864502 -72.597855 0.000010 0.336019
284.732635 -73.886703 -0.000001 0.340536
283.250885 -74.782524 -0.000003 0.335119
282.159149 -75.442543 0.000006 0.344030
319.299896 -53.405987 14.817510 0.678431
319.299896 -53.405987 13.051741 0.678431
319.265533 -53.426437 11.303488 0.247242
319.299927 -53.405975 9.590410 0.678431
319.136597 -53.503159 7.864818 0.535973
319.299896 -53.405983 6.195731 0.678431
319.299927 -53.405979 4.513839 0.673396
319.196777 -53.467350 2.835385 0.086275
319.196777 -53.467350 1.164616 0.086275
310.311768 -58.754578 -0.000014 0.544839
296.287537 -67.100006 -0.000008 0.549004
290.266388 -70.683022 0.000001 0.340795
286.912903 -72.678581 0.000010 0.336339
284.772095 -73.952507 -0.000001 0.338003
283.284119 -74.837959 -0.000004 0.337560
282.187805 -75.490349 0.000006 0.331304
319.478577 -53.715340 14.816656 0.678431
319.478577 -53.715343 13.051003 0.678431
319.444061 -53.735554 11.302867 0.282460
319.478577 -53.715336 9.589903 0.678431
319.314606 -53.811363 7.864425 0.603876
319.478577 -53.715343 6.195450 0.678431
319.478577 -53.715340 4.513672 0.678431
319.392426 -53.765797 2.835659 0.179568
319.392426 -53.765797 1.164342 0.210758
310.456268 -58.999321 -0.000014 0.543923
296.374084 -67.246643 -0.000008 0.544701
290.328094 -70.787537 -0.000000 0.337942
286.960754 -72.759636 0.000010 0.345129
284.811127 -74.018593 -0.000001 0.333211
283.316986 -74.893631 -0.000004 0.340932
282.216156 -75.538345 0.000006 0.333227
319.657196 -54.024673 14.816423 0.678431
319.657227 -54.024673 13.050803 0.678431
319.622559 -54.044640 11.302698 0.242420
319.657227 -54.024666 9.589764 0.678431
319.492584 -54.119553 7.864319 0.441199
319.657227 -54.024666 6.195374 0.678431
319.657227 -54.024666 4.513626 0.678431
319.574921 -54.072105 2.835721 0.678431
319.574921 -54.072105 1.164278 0.678431
310.599030 -59.245075 -0.000014 0.545113
296.459656 -67.393883 -0.000008 0.542947
290.389038 -70.892487 0.000000 0.341344
287.008057 -72.841026 0.000010 0.343374
284.849670 -74.084946 0.000000 0.340215
283.349487 -74.949532 -0.000004 0.321752
282.244171 -75.586548 0.000005 0.344640
319.601959 -54.466629 14.749467 0.578927
319.601990 -54.466621 12.993075 0.577676
319.602051 -54.466583 11.261353 0.577829
319.601898 -54.466663 9.550102 0.576120
319.670563 -54.427727 7.864500 0.551843
319.602142 -54.466530 6.173473 0.585489
319.602112 -54.466553 4.500501 0.589868
319.753204 -54.380867 2.835748 0.678431
319.753204 -54.380867 1.164252 0.678431
310.740082 -59.491817 -0.000014 0.537667
296.544159 -67.541718 -0.000008 0.547631
290.449280 -70.997849 -0.000000 0.335210
287.054779 -72.922729 0.000007 0.337530
284.887726 -74.151566 0.000001 0.329580
283.381561 -75.005646 -0.000008 0.342992
282.271820 -75.634941 0.000006 0.346349
319.848572 -54.735958 14.770232 0.569253
319.848572 -54.735962 13.010975 0.616754
319.848572 -54.735950 11.276424 0.554574
319.848572 -54.735954 9.562410 0.542184
319.848572 -54.735954 7.864965 0.668818
319.848572 -54.735950 6.180255 0.521752
319.848572 -54.735954 4.504566 0.574426
319.931549 -54.689663 2.835814 0.678431
319.931549 -54.689663 1.164186 0.678431
310.879425 -59.739536 -0.000014 0.536950
296.627625 -67.690140 -0.000008 0.543557
290.508789 -71.103638 0.000000 0.337957
287.100952 -73.004761 0.000004 0.340658
284.925354 -74.218452 0.000004 0.336126
283.413239 -75.062004 -0.000004 0.342962
282.299133 -75.683525 0.000005 0.348074
309.851776 -60.627655 11.864689 0.578973
309.851746 -60.627678 10.505699 0.605432
309.851746 -60.627678 9.165798 0.619547
309.851776 -60.627655 7.841776 0.553201
309.851746 -60.627670 6.530537 0.612772
309.851746 -60.627678 5.229141 0.594797
309.851807 -60.627647 3.934716 0.574548
312.628906 -59.103706 2.696283 0.175311
312.628906 -59.103706 1.303718 0.152026
309.852295 -60.627369 0.065254 0.554589
296.710083 -67.839134 -0.000008 0.532433
290.567566 -71.209839 -0.000000 0.340307
287.146515 -73.087120 0.000003 0.331365
284.962494 -74.285606 0.000005 0.339895
283.444550 -75.118568 -0.000003 0.338720
282.326141 -75.732300 0.000006 0.336324
301.590546 -65.398651 9.475819 0.556085
301.590576 -65.398636 8.445936 0.521492
301.590576 -65.398636 7.430513 0.649683
301.590576 -65.398636 6.427111 0.617746
301.590607 -65.398628 5.433412 0.602060
301.590576 -65.398636 4.447165 0.573709
303.874329 -64.166107 3.593688 0.062745
303.874329 -64.166107 2.530850 0.162524
303.874329 -64.166107 1.469150 0.201022
303.874329 -64.166107 0.406312 0.115007
296.791473 -67.988708 -0.000009 0.538903
290.625580 -71.316437 -0.000001 0.335943
287.191528 -73.169800 0.000002 0.341329
284.999176 -74.352997 0.000002 0.341497
283.475433 -75.175362 -0.000001 0.332280
282.352783 -75.781258 0.000006 0.345815
297.820038 -67.635605 8.378705 0.462135
297.820068 -67.635605 7.499962 0.900694
297.820068 -67.635605 6.633555 0.495338
297.820068 -67.635605 5.777410 0.617227
297.820068 -67.635605 4.929539 0.727855
297.820068 -67.635597 4.088029 0.477882
298.733704 -67.150711 3.301841 0.062745
298.733704 -67.150711 2.433637 0.167590
298.733704 -67.150711 1.566363 0.202045
298.733704 -67.150711 0.698159 0.237003
296.871826 -68.138840 -0.000009 0.535683
290.682831 -71.423447 -0.000001 0.337301
287.235931 -73.252785 0.000002 0.346212
285.035400 -74.420647 0.000000 0.329473
283.505951 -75.232361 0.000000 0.327901
282.379089 -75.830399 0.000005 0.330922
297.909058 -67.789696 8.380458 0.729961
297.909058 -67.789696 7.501472 0.887907
297.909058 -67.789696 6.634827 0.512291
297.909058 -67.789696 5.778446 0.272786
297.909058 -67.789696 4.930343 0.521065
297.909058 -67.789696 4.088603 0.621836
297.993347 -67.745705 3.256041 0.678431
297.993347 -67.745705 2.418381 0.678431
297.993347 -67.745705 1.581618 0.678431
297.993347 -67.745705 0.743959 0.678431
296.951141 -68.289536 -0.000009 0.552682
290.739380 -71.530853 -0.000001 0.337392
287.279785 -73.336082 0.000001 0.334859
285.071136 -74.488556 0.000001 0.338613
283.536041 -75.289574 0.000001 0.332341
282.405029 -75.879730 0.000005 0.338613
297.998077 -67.943878 8.382519 0.643259
297.998077 -67.943878 7.503252 0.826474
297.998077 -67.943878 6.636326 0.529671
297.998077 -67.943878 5.779668 0.484459
297.998077 -67.943878 4.931290 0.470298
297.998108 -67.943878 4.089278 0.695415
298.082733 -67.900459 3.256447 0.678431
298.082733 -67.900467 2.418517 0.678431
298.082733 -67.900467 1.581483 0.678431
298.082733 -67.900459 0.743552 0.678431
297.029388 -68.440781 -0.000009 0.540505
290.795135 -71.638649 -0.000001 0.338399
287.323029 -73.419678 0.000001 0.342336
285.106384 -74.556709 -0.000000 0.337682
283.565735 -75.346992 0.000002 0.334829
282.430664 -75.929237 0.000005 0.335332
298.087189 -68.098175 8.384896 0.422690
298.087189 -68.098167 7.505300 0.735729
298.087189 -68.098167 6.638052 0.452094
298.087189 -68.098167 5.781076 0.600870
298.087189 -68.098167 4.932382 0.557290
298.087189 -68.098167 4.090055 0.537072
298.172180 -68.055328 3.256915 0.614374
298.172150 -68.055328 2.418672 0.523751
298.172150 -68.055328 1.581328 0.523751
298.172150 -68.055328 0.743085 0.523751
297.106567 -68.592567 -0.000009 0.532189
290.850159 -71.746834 -0.000002 0.336156
287.365662 -73.503593 0.000004 0.339925
285.141205 -74.625107 -0.000002 0.332418
283.595032 -75.404617 0.000003 0.330175
282.455933 -75.978928 0.000005 0.331334
298.176361 -68.252586 8.387585 0.486213
298.176361 -68.252586 7.507617 0.563180
298.176361 -68.252579 6.640005 0.603815
298.176361 -68.252579 5.782667 0.580667
298.176361 -68.252579 4.933616 0.645914
298.176361 -68.252579 4.090937 0.487663
298.261658 -68.210320 3.257444 0.678431
298.261658 -68.210320 2.418848 0.678431
298.261658 -68.210320 1.581151 0.678431
298.261658 -68.210320 0.742556 0.678431
297.182709 -68.744881 -0.000009 0.538582
290.904419 -71.855400 -0.000002 0.336828
287.407745 -73.587799 0.000008 0.336767
285.175507 -74.693741 -0.000003 0.343618
283.623962 -75.462448 0.000003 0.342443
282.480835 -76.028786 0.000005 0.339742
298.265625 -68.407135 8.390588 0.800595
298.265625 -68.407135 7.510206 0.616022
298.265625 -68.407135 6.642187 0.633051
298.265625 -68.407135 5.784446 0.480690
298.265625 -68.407135 4.934996 0.755306
298.265625 -68.407135 4.091919 0.634882
298.328735 -68.376419 3.256804 0.094118
298.328735 -68.376419 2.418635 0.070588
298.328735 -68.376419 1.581364 0.094118
298.328735 -68.376419 0.743196 0.090318
297.257751 -68.897736 -0.000009 0.537652
290.957916 -71.964348 -0.000002 0.338262
287.449219 -73.672287 0.000008 0.341299
285.209320 -74.762619 -0.000004 0.336263
283.652435 -75.520477 0.000004 0.333181
282.505402 -76.078819 0.000005 0.337133
298.354980 -68.561836 8.393906 0.787732
298.354980 -68.561836 7.513068 0.640284
298.526917 -68.479622 6.679273 0.678431
298.526917 -68.479622 5.814681 0.678431
298.526917 -68.479622 4.958443 0.678431
298.354980 -68.561836 4.093004 0.530068
298.440948 -68.520729 3.258688 0.678431
298.440948 -68.520729 2.419263 0.678431
298.440948 -68.520729 1.580737 0.678431
298.440948 -68.520729 0.741311 0.678431
297.331757 -69.051102 -0.000009 0.534203
291.010681 -72.073654 -0.000002 0.340414
287.490112 -73.757072 0.000009 0.342275
285.242676 -74.831726 -0.000004 0.327657
283.680542 -75.578705 0.000005 0.340185
282.529633 -76.129021 0.000005 0.335332
298.444397 -68.716705 8.397539 0.472816
298.444397 -68.716705 7.516201 0.583490
298.617004 -68.635651 6.681930 0.678431
298.617004 -68.635651 5.816847 0.678431
298.617004 -68.635651 4.960124 0.678431
298.444427 -68.716705 4.094193 0.499428
298.530701 -68.676178 3.259403 0.678431
298.530701 -68.676178 2.419502 0.678431
298.530701 -68.676178 1.580498 0.678431
298.530701 -68.676178 0.740597 0.678431
297.404694 -69.204987 -0.000009 0.531884
291.062653 -72.183334 -0.000002 0.336172
287.530457 -73.842117 0.000004 0.336233
285.275543 -74.901070 -0.000005 0.335271
283.708221 -75.637123 0.000006 0.337728
282.553497 -76.179398 0.000005 0.339971
298.533966 -68.871765 8.401489 0.580407
298.533966 -68.871765 7.519605 0.501579
298.707214 -68.791870 6.684820 0.678431
298.707214 -68.791870 5.819203 0.678431
298.707214 -68.791870 4.961951 0.678431
298.533966 -68.871765 4.095487 0.619547
298.597809 -68.842331 3.258948 0.094118
298.597809 -68.842331 2.419349 0.081743
298.597809 -68.842331 1.580650 0.094118
298.597809 -68.842331 0.741052 0.062745
297.476532 -69.359375 -0.000009 0.548669
291.113861 -72.293373 -0.000002 0.337591
287.570190 -73.927460 0.000004 0.335042
285.307922 -74.970642 -0.000005 0.339086
283.735474 -75.695740 0.000007 0.329107
282.577026 -76.229935 0.000005 0.337102
298.623627 -69.027016 8.405756 0.510719
298.623627 -69.027016 7.523285 0.622324
298.760956 -68.964859 6.680630 0.320317
298.760925 -68.964859 5.815786 0.294362
298.760956 -68.964859 4.959301 0.349203
298.623627 -69.027016 4.096883 0.466194
298.710602 -68.987648 3.261021 0.678431
298.710602 -68.987648 2.420040 0.678431
298.710602 -68.987648 1.579960 0.678431
298.710602 -68.987648 0.738979 0.678431
297.547302 -69.514259 -0.000009 0.549432
291.164307 -72.403763 -0.000003 0.337911
287.609314 -74.013062 -0.000000 0.338079
285.339813 -75.040443 -0.000004 0.334844
283.762329 -75.754539 0.000008 0.334813
282.600189 -76.280632 0.000005 0.336095
298.713409 -69.182487 8.410341 0.420905
298.713409 -69.182487 7.527237 0.517266
298.713409 -69.182487 6.656533 0.398505
298.713409 -69.182487 5.796143 0.349660
298.713409 -69.182487 4.944066 0.471534
298.713409 -69.182487 4.098385 0.630610
298.800720 -69.143700 3.261923 0.678431
298.800720 -69.143700 2.420341 0.678431
298.800720 -69.143700 1.579659 0.678431
298.800720 -69.143700 0.738077 0.678431
297.616974 -69.669632 -0.000009 0.544305
291.213959 -72.514511 -0.000003 0.334722
287.647827 -74.098946 -0.000000 0.332235
285.371216 -75.110458 -0.000004 0.338170
283.788788 -75.813530 0.000009 0.339101
282.623016 -76.331490 0.000004 0.335760
298.803345 -69.338188 8.415245 0.482277
298.803314 -69.338188 7.531466 0.569436
298.803314 -69.338188 6.660097 0.489250
298.803314 -69.338188 5.799047 0.495949
298.803314 -69.338188 4.946319 0.494423
298.803314 -69.338188 4.099989 0.563760
298.867889 -69.310036 3.261652 0.094118
298.867889 -69.310036 2.420251 0.094118
298.867889 -69.310036 1.579750 0.094118
298.867889 -69.310036 0.738348 0.094118
297.685577 -69.825493 -0.000009 0.535119
291.183105 -72.660362 0.010005 1.000000
287.685760 -74.185097 0.000000 0.335912
285.402130 -75.180695 -0.000005 0.340673
283.814819 -75.872704 0.000010 0.338735
282.645447 -76.382507 0.000004 0.330434
298.893372 -69.494133 8.420468 0.628367
298.893372 -69.494133 7.535970 0.659800
298.893372 -69.494141 6.663891 0.488487
298.893402 -69.494133 5.802140 0.596429
298.893372 -69.494141 4.948718 0.552270
298.893402 -69.494133 4.101700 0.567987
298.981354 -69.456512 3.263917 0.678431
298.981354 -69.456512 2.421004 0.678431
298.981354 -69.456512 1.578995 0.678431
298.981354 -69.456512 0.736083 0.678431
297.753082 -69.981827 -0.000009 0.535836
291.231079 -72.771194 0.009994 1.000000
287.723083 -74.271515 0.000000 0.338659
285.432556 -75.251137 -0.000006 0.330388
283.840454 -75.932053 0.000010 0.332448
282.667542 -76.433685 0.000005 0.340703
298.983612 -69.650345 8.426016 0.601602
298.983582 -69.650345 7.540753 0.400320
298.983582 -69.650345 6.667919 0.684779
298.983612 -69.650345 5.805425 0.525856
298.983582 -69.650345 4.951265 0.682643
298.983612 -69.650345 4.103516 0.386358
299.071899 -69.613297 3.265008 0.678431
299.071899 -69.613304 2.421368 0.678431
299.071899 -69.613304 1.578632 0.678431
299.071899 -69.613297 0.734990 0.678431
297.819519 -70.138626 -0.000009 0.543908
291.358307 -72.848785 -0.000003 0.334905
287.759766 -74.358192 0.000001 0.335653
285.462494 -75.321793 -0.000006 0.332509
283.865662 -75.991577 0.000011 0.340703
282.689301 -76.485016 0.000005 0.340597
299.073975 -69.806824 8.431887 0.668986
299.073975 -69.806831 7.545814 0.678447
299.073975 -69.806831 6.672184 0.741314
299.073975 -69.806831 5.808901 0.629145
299.073975 -69.806831 4.953961 0.811597
299.073975 -69.806831 4.105437 0.525063
299.139282 -69.779968 3.264925 0.094118
299.139282 -69.779968 2.421340 0.101244
299.139282 -69.779968 1.578659 0.094118
299.139282 -69.779968 0.735074 0.092653
297.884827 -70.295883 -0.000009 0.536004
291.404907 -72.960854 -0.000007 0.549630
287.795868 -74.445122 0.000002 0.334493
285.491913 -75.392670 -0.000004 0.336782
283.890472 -76.051285 0.000012 0.336996
282.710663 -76.536491 0.000005 0.332647
299.164520 -69.963608 8.438081 0.436347
299.164520 -69.963608 7.551156 0.480110
299.342499 -69.891861 6.711600 0.591150
299.342499 -69.891861 5.841034 0.600580
299.342499 -69.891861 4.978881 0.600580
299.164520 -69.963608 4.107465 0.488457
299.253510 -69.927734 3.267384 0.678431
299.253510 -69.927734 2.422160 0.678431
299.253510 -69.927734 1.577840 0.678431
299.253510 -69.927734 0.732615 0.678431
297.949036 -70.453598 -0.000009 0.552895
291.450684 -73.073265 -0.000006 0.549554
287.831390 -74.532295 0.000002 0.340520
285.520844 -75.463745 -0.000002 0.338277
283.914825 -76.111160 0.000013 0.343069
282.731689 -76.588120 0.000006 0.334096
299.255219 -70.120697 8.444599 0.505867
299.255219 -70.120697 7.556777 0.517647
299.433899 -70.050125 6.716372 0.678431
299.433899 -70.050125 5.844924 0.678431
299.433899 -70.050125 4.981898 0.678431
299.255249 -70.120697 4.109600 0.551293
299.344574 -70.085411 3.268667 0.678431
299.344574 -70.085411 2.422587 0.678431
299.344574 -70.085411 1.577413 0.678431
299.344574 -70.085411 0.731331 0.678431
298.012177 -70.611755 -0.000010 0.546670
291.495667 -73.185989 -0.000006 0.535393
287.866241 -74.619728 0.000006 0.336980
285.549286 -75.535011 -0.000002 0.341085
283.938812 -76.171204 0.000013 0.332601
282.752350 -76.639893 0.000007 0.336889
299.346130 -70.278114 8.451450 0.580392
299.346130 -70.278114 7.562685 0.487755
299.525452 -70.208717 6.721383 0.678431
299.525482 -70.208717 5.849010 0.678431
299.525482 -70.208717 4.985068 0.678431
299.346130 -70.278114 4.111840 0.427802
299.435822 -70.243416 3.270017 0.472114
299.435822 -70.243416 2.423037 0.555764
299.435822 -70.243416 1.576964 0.555764
299.435822 -70.243416 0.729983 0.678431
298.074158 -70.770348 -0.000009 0.550347
291.539856 -73.299026 -0.000007 0.547875
287.900513 -74.707397 0.000005 0.339117
285.577209 -75.606483 0.000001 0.340063
283.962341 -76.231407 0.000010 0.335851
282.772644 -76.691803 0.000008 0.338308
299.437256 -70.435875 8.458628 0.514656
299.437256 -70.435875 7.568874 0.644968
299.617249 -70.367653 6.726637 0.678431
299.617249 -70.367653 5.853293 0.678431
299.617249 -70.367653 4.988390 0.678431
299.437256 -70.435875 4.114191 0.547707
299.527252 -70.401764 3.271430 0.678431
299.527252 -70.401764 2.423507 0.678431
299.527252 -70.401764 1.576493 0.678431
299.527252 -70.401764 0.728570 0.678431
298.135071 -70.929367 -0.000009 0.547387
291.583252 -73.412376 -0.000007 0.547158
287.934174 -74.795303 0.000006 0.331579
285.604645 -75.678146 0.000001 0.335256
283.985474 -76.291779 0.000010 0.330327
282.792572 -76.743866 0.000009 0.327840
299.528564 -70.593994 8.466137 0.627665
299.528564 -70.593994 7.575349 0.579232
299.528564 -70.593994 6.697066 0.552377
299.528564 -70.593994 5.829186 0.463386
299.528564 -70.593994 4.969692 0.464256
299.528564 -70.593994 4.116650 0.574990
299.618896 -70.560471 3.272908 0.678431
299.618896 -70.560471 2.424000 0.488869
299.618896 -70.560471 1.576001 0.488869
299.618896 -70.560471 0.727092 0.488869
298.194855 -71.088814 -0.000010 0.535409
291.625885 -73.526016 -0.000007 0.555505
287.967224 -74.883438 0.000006 0.333623
285.631592 -75.750000 0.000003 0.336217
284.008179 -76.352310 0.000010 0.336675
282.812164 -76.796059 0.000009 0.336034
299.620087 -70.752487 8.473982 0.580758
299.620117 -70.752480 7.582115 0.644068
299.620087 -70.752480 6.702765 0.610315
299.620087 -70.752480 5.833832 0.496941
299.620087 -70.752480 4.973295 0.581933
299.620087 -70.752487 4.119217 0.660838
299.710785 -70.719559 3.274452 0.678431
299.710785 -70.719559 2.424514 0.678431
299.710785 -70.719559 1.575486 0.678431
299.710785 -70.719559 0.725548 0.678431
298.253540 -71.248672 -0.000009 0.539055
291.667694 -73.639954 -0.000006 0.554223
287.999664 -74.971802 0.000007 0.340841
285.658020 -75.822037 0.000004 0.343252
284.030457 -76.413002 0.000010 0.335439
282.831360 -76.848381 0.000008 0.337896
299.711853 -70.911369 8.482162 0.620218
299.711853 -70.911369 7.589167 0.681117
299.711853 -70.911369 6.708706 0.677455
299.711853 -70.911369 5.838676 0.701961
299.711853 -70.911369 4.977052 0.498054
299.711853 -70.911369 4.121895 0.758328
299.802887 -70.879036 3.276062 0.678431
299.802887 -70.879036 2.425051 0.678431
299.802887 -70.879036 1.574950 0.678431
299.802887 -70.879036 0.723937 0.678431
298.311096 -71.408936 -0.000009 0.549584
291.708740 -73.754181 -0.000007 0.538094
288.031494 -75.060379 0.000003 0.338598
285.683960 -75.894257 0.000004 0.341497
284.052307 -76.473846 0.000010 0.336446
282.850220 -76.900841 0.000008 0.344762
299.803864 -71.070663 8.490681 0.680262
299.803864 -71.070663 7.596510 0.422065
299.803864 -71.070663 6.714894 0.503578
299.803864 -71.070663 5.843719 0.434836
299.803864 -71.070663 4.980964 0.690135
299.803864 -71.070663 4.124683 0.340322
299.895233 -71.038925 3.277738 0.678431
299.895233 -71.038925 2.425609 0.678431
299.895233 -71.038925 1.574391 0.678431
299.895233 -71.038925 0.722261 0.678431
298.367554 -71.569595 -0.000010 0.536919
291.748962 -73.868698 -0.000007 0.550378
288.062683 -75.149185 0.000003 0.338415
285.709381 -75.966660 0.000005 0.339040
284.073730 -76.534836 0.000010 0.336309
282.868683 -76.953430 0.000008 0.336767
299.896088 -71.230385 8.499538 0.670192
299.896088 -71.230385 7.604146 0.796078
299.896088 -71.230385 6.721326 0.713817
299.896088 -71.230385 5.848964 0.715984
299.896088 -71.230385 4.985032 0.560861
299.896088 -71.230392 4.127582 0.421515
299.963684 -71.207436 3.278230 0.094118
299.963684 -71.207436 2.425773 0.062745
299.963684 -71.207436 1.574228 0.094118
299.963684 -71.207436 0.721769 0.062745
298.422852 -71.730644 -0.000010 0.535119
291.788391 -73.983482 -0.000007 0.532753
288.093262 -75.238213 0.000003 0.330373
285.734314 -76.039230 0.000005 0.336934
284.094727 -76.595978 0.000010 0.341115
282.886780 -77.006149 0.000008 0.337072
299.988586 -71.390549 8.508736 0.494316
299.988586 -71.390549 7.612076 0.505882
299.988586 -71.390549 6.728008 0.758358
299.988586 -71.390556 5.854409 0.542626
299.988586 -71.390549 4.989256 0.487327
299.988586 -71.390549 4.130593 0.554040
300.080658 -71.360008 3.281293 0.678431
300.080658 -71.360008 2.426792 0.678431
300.080658 -71.360008 1.573207 0.678431
300.080658 -71.360008 0.718707 0.678431
298.477051 -71.892075 -0.000010 0.533547
291.826996 -74.098541 -0.000007 0.551019
288.123230 -75.327446 0.000004 0.335515
285.758728 -76.111984 0.000007 0.334905
284.115295 -76.657265 0.000012 0.342779
282.904541 -77.058998 0.000007 0.326207
300.266174 -71.491287 8.566943 0.583398
300.081360 -71.551178 7.620305 0.582559
300.266174 -71.491287 6.770291 0.678431
300.266174 -71.491287 5.888882 0.678431
300.266174 -71.491287 5.015989 0.678431
300.081360 -71.551186 4.133717 0.431678
300.173767 -71.521233 3.283172 0.678431
300.173767 -71.521233 2.427419 0.678431
300.173767 -71.521233 1.572582 0.678431
300.173767 -71.521233 0.716828 0.678431
298.530090 -72.053894 -0.000009 0.536156
291.864807 -74.213875 -0.000007 0.535134
288.152557 -75.416893 0.000004 0.339132
285.782623 -76.184898 0.000007 0.343450
284.135437 -76.718697 0.000011 0.332143
282.921906 -77.111961 0.000007 0.330465
300.359924 -71.653595 8.576907 0.678431
300.174408 -71.712296 7.628830 0.575372
300.359924 -71.653603 6.777528 0.678431
300.359924 -71.653603 5.894780 0.678431
300.359924 -71.653603 5.020565 0.678431
300.174408 -71.712288 4.136953 0.381018
300.267151 -71.682945 3.285118 0.447242
300.267151 -71.682945 2.428067 0.446403
300.267151 -71.682945 1.571933 0.446403
300.267151 -71.682945 0.714881 0.446403
298.582031 -72.216064 -0.000009 0.529061
291.901825 -74.329468 -0.000007 0.544900
288.181244 -75.506538 0.000004 0.337392
285.806030 -76.257980 0.000009 0.337255
284.155151 -76.780266 0.000012 0.345861
282.938904 -77.165047 0.000007 0.332387
300.453949 -71.816414 8.587219 0.678431
300.267731 -71.873901 7.637659 0.651194
300.453949 -71.816414 6.785020 0.678431
300.453949 -71.816414 5.900888 0.678431
300.453949 -71.816414 5.025302 0.678431
300.267731 -71.873894 4.140306 0.813169
300.360840 -71.845154 3.287134 0.678431
300.360840 -71.845154 2.428739 0.678431
300.360840 -71.845154 1.571262 0.678431
300.360840 -71.845154 0.712866 0.678431
298.632843 -72.378601 -0.000010 0.543770
291.938049 -74.445313 -0.000007 0.552621
288.209351 -75.596375 0.000004 0.341711
285.828918 -76.331223 0.000009 0.340581
284.174438 -76.841972 0.000012 0.334798
282.955536 -77.218254 0.000007 0.336660
300.508911 -71.991592 8.587593 0.078462
300.361359 -72.036018 7.646791 0.468467
300.508911 -71.991592 6.785293 0.108705
300.508911 -71.991592 5.901110 0.124453
300.508911 -71.991592 5.025473 0.129656
300.361359 -72.036018 4.143772 0.558129
300.454803 -72.007881 3.289218 0.659556
300.454803 -72.007881 2.429433 0.659556
300.454803 -72.007881 1.570567 0.659556
300.454834 -72.007881 0.710781 0.659556
298.682495 -72.541481 -0.000010 0.534936
291.973450 -74.561409 -0.000007 0.531716
288.236786 -75.686417 0.000005 0.332418
285.851288 -76.404633 0.000012 0.339071
284.193298 -76.903809 0.000013 0.339590
282.971771 -77.271568 0.000006 0.336767
300.455292 -72.198669 8.559939 0.597314
300.455292 -72.198677 7.656228 0.592157
300.455292 -72.198677 6.765203 0.506859
300.455292 -72.198677 5.884732 0.456962
300.455292 -72.198677 5.012772 0.736141
300.455292 -72.198677 4.147354 0.845731
300.549103 -72.171143 3.291373 0.678431
300.549103 -72.171143 2.430151 0.678431
300.549103 -72.171143 1.569850 0.678431
300.549103 -72.171143 0.708627 0.678431
298.731018 -72.704712 -0.000010 0.542657
292.008026 -74.677750 -0.000006 0.536538
288.263611 -75.776642 0.000005 0.332235
285.873138 -76.478180 0.000011 0.334279
284.211700 -76.965775 0.000012 0.341314
282.987671 -77.325005 0.000006 0.339818
300.549561 -72.361877 8.571241 0.594583
300.549561 -72.361885 7.665972 0.867781
300.549561 -72.361885 6.773414 0.683635
300.549561 -72.361885 5.891426 0.611765
300.549561 -72.361885 5.017963 0.732021
300.549561 -72.361877 4.151054 0.714366
300.643707 -72.334961 3.293598 0.678431
300.643707 -72.334961 2.430891 0.678431
300.643707 -72.334961 1.569109 0.678431
300.643707 -72.334961 0.706402 0.678431
298.778412 -72.868271 -0.000010 0.534020
292.041779 -74.794327 -0.000007 0.542092
288.289795 -75.867050 0.000005 0.337575
285.894501 -76.551888 0.000011 0.342107
284.229706 -77.027870 0.000011 0.337102
283.003174 -77.378540 0.000006 0.334630
300.644135 -72.525658 8.582907 0.628977
300.644135 -72.525658 7.676028 0.720104
300.644135 -72.525658 6.781886 0.881910
300.644135 -72.525658 5.898334 0.627359
300.644135 -72.525658 5.023320 0.769238
300.644135 -72.525658 4.154872 0.560433
300.738647 -72.499352 3.295894 0.474205
300.738647 -72.499359 2.431655 0.439979
300.738647 -72.499359 1.568344 0.402792
300.738647 -72.499359 0.704107 0.424720
298.824646 -73.032158 -0.000010 0.551980
292.074738 -74.911133 -0.000007 0.534249
288.315308 -75.957657 0.000011 0.337224
285.915314 -76.625740 0.000012 0.337728
284.247253 -77.090088 0.000011 0.336614
283.018311 -77.432190 0.000006 0.342885
300.739075 -72.690025 8.594932 0.543359
300.739075 -72.690033 7.686398 0.855634
300.739075 -72.690033 6.790622 0.724437
300.739075 -72.690025 5.905456 0.595438
300.739075 -72.690025 5.028843 0.757458
300.739075 -72.690033 4.158808 0.436759
300.833923 -72.664337 3.298261 0.678431
300.833923 -72.664337 2.432445 0.678431
300.833923 -72.664337 1.567555 0.678431
300.833923 -72.664337 0.701739 0.678431
298.869751 -73.196365 -0.000010 0.535607
292.106873 -75.028175 -0.000006 0.544518
288.340240 -76.048416 0.000010 0.337758
285.935638 -76.699738 0.000013 0.330251
284.264404 -77.152420 0.000006 0.330648
283.033081 -77.485939 0.000005 0.323049
300.834351 -72.855011 8.607326 0.574746
300.834351 -72.855011 7.697085 0.623529
300.834351 -72.855011 6.799624 0.759976
300.834351 -72.855011 5.912794 0.839216
300.834351 -72.855011 5.034534 0.731716
300.834351 -72.855011 4.162866 0.474601
300.905426 -72.836288 3.299474 0.101396
300.905426 -72.836288 2.432849 0.111757
300.905426 -72.836288 1.567151 0.106798
300.905426 -72.836288 0.700525 0.094118
298.913696 -73.360886 -0.000010 0.533013
292.138214 -75.145432 -0.000007 0.536538
288.364532 -76.139359 0.000010 0.337743
285.955444 -76.773880 0.000013 0.337118
284.281067 -77.214874 0.000006 0.340719
283.047455 -77.539795 0.000005 0.344305
301.121124 -72.971695 8.669508 0.678431
300.929993 -73.020615 7.708089 0.671077
301.121124 -72.971695 6.844796 0.678431
301.121124 -72.971695 5.949619 0.678431
301.121124 -72.971695 5.063094 0.678431
300.929993 -73.020615 4.167044 0.427482
301.025574 -72.996155 3.303213 0.678431
301.025574 -72.996155 2.434094 0.678431
301.025574 -72.996155 1.565906 0.678431
301.025574 -72.996155 0.696787 0.678431
298.956482 -73.525703 -0.000010 0.536583
292.168701 -75.262909 -0.000006 0.538338
288.388184 -76.230469 0.000013 0.338857
285.974731 -76.848145 0.000013 0.342229
284.297363 -77.277443 0.000001 0.333455
283.061462 -77.593742 0.000005 0.337606
301.217865 -73.139198 8.682741 0.678431
301.026001 -73.186874 7.719415 0.476402
301.217865 -73.139198 6.854409 0.678431
301.217865 -73.139198 5.957455 0.678431
301.217865 -73.139198 5.069171 0.678431
301.026001 -73.186874 4.171343 0.789731
301.096680 -73.169312 3.304521 0.094118
301.096680 -73.169312 2.434529 0.074998
301.096680 -73.169312 1.565470 0.094118
301.096680 -73.169312 0.695479 0.062928
298.998108 -73.690819 -0.000010 0.541070
292.198395 -75.380592 -0.000007 0.537728
288.411194 -76.321739 0.000013 0.338613
285.993500 -76.922554 0.000013 0.335988
284.313171 -77.340126 0.000001 0.340749
283.075104 -77.647797 0.000005 0.324804
301.315002 -73.307373 8.696358 0.678431
301.122406 -73.353806 7.731065 0.408423
301.315002 -73.307373 6.864299 0.678431
301.315002 -73.307373 5.965519 0.678431
301.314972 -73.307373 5.075424 0.678431
301.122406 -73.353806 4.175766 0.549020
301.218689 -73.330589 3.308460 0.678431
301.218689 -73.330589 2.435842 0.678431
301.218689 -73.330589 1.564158 0.678431
301.218689 -73.330589 0.691540 0.678431
299.038605 -73.856224 -0.000010 0.535714
292.227264 -75.498489 -0.000007 0.535973
288.433563 -76.413170 0.000013 0.331243
286.011749 -76.997093 0.000014 0.338842
284.328522 -77.402924 0.000000 0.332769
283.088348 -77.701935 0.000005 0.341909
301.412506 -73.476242 8.710352 0.589441
301.219208 -73.521423 7.743046 0.592020
301.412506 -73.476242 6.874466 0.526772
301.412506 -73.476234 5.973808 0.526772
301.412537 -73.476234 5.081855 0.508400
301.219208 -73.521423 4.180314 0.878859
301.315857 -73.498825 3.311195 0.678431
301.315857 -73.498825 2.436753 0.678431
301.315857 -73.498825 1.563248 0.678431
301.315857 -73.498825 0.688805 0.678431
299.077942 -74.021896 -0.000010 0.547127
292.255280 -75.616577 -0.000007 0.529335
288.455322 -76.504745 0.000011 0.337407
286.029480 -77.071747 0.000014 0.335103
284.343475 -77.465820 0.000000 0.331380
283.101227 -77.756172 0.000005 0.333669
301.316406 -73.689751 8.674906 0.543770
301.316437 -73.689743 7.755356 0.652461
301.316437 -73.689743 6.848718 0.500740
301.316406 -73.689743 5.952816 0.592248
301.316406 -73.689751 5.065574 0.512978
301.316406 -73.689751 4.184988 0.709804
301.413422 -73.667786 3.314005 0.575280
301.413422 -73.667786 2.437688 0.466621
301.413422 -73.667786 1.562311 0.466621
301.413422 -73.667786 0.685995 0.440299
299.116119 -74.187851 -0.000010 0.542748
292.282501 -75.734856 -0.000007 0.536919
288.476440 -76.596481 0.000011 0.338811
286.046661 -77.146530 0.000014 0.319585
284.357971 -77.528824 0.000000 0.342229
283.113739 -77.810493 0.000004 0.335515
301.414063 -73.858810 8.689570 0.557763
301.414063 -73.858810 7.768002 0.683787
301.414063 -73.858803 6.859371 0.516228
301.414063 -73.858810 5.961500 0.603571
301.414063 -73.858810 5.072309 0.556756
301.414063 -73.858803 4.189789 0.647059
301.511414 -73.837479 3.316891 0.678431
301.511414 -73.837479 2.438650 0.678431
301.511414 -73.837479 1.561350 0.678431
301.511414 -73.837479 0.683108 0.678431
299.153137 -74.354065 -0.000010 0.536278
292.308899 -75.853325 -0.000007 0.549126
288.496887 -76.688354 0.000011 0.333776
286.063354 -77.221436 0.000013 0.336019
284.372009 -77.591927 -0.000001 0.330892
283.125854 -77.864906 0.000004 0.335042
301.512115 -74.028618 8.704628 0.560433
301.512115 -74.028618 7.780985 0.821881
301.512115 -74.028618 6.870308 0.418540
301.512115 -74.028618 5.970418 0.456916
301.512115 -74.028618 5.079224 0.409522
301.512115 -74.028618 4.194717 0.556069
301.609863 -74.007919 3.319856 0.461646
301.609863 -74.007919 2.439637 0.493416
301.609863 -74.007919 1.560362 0.493416
301.609863 -74.007919 0.680144 0.678431
299.188995 -74.520531 -0.000010 0.548058
292.334442 -75.971977 -0.000007 0.529885
288.516724 -76.780373 0.000011 0.330983
286.079529 -77.296448 0.000013 0.333349
284.385620 -77.655121 -0.000001 0.338079
283.137604 -77.919395 0.000004 0.335622
301.610626 -74.199203 8.720081 0.629709
301.610626 -74.199203 7.794310 0.579950
301.610657 -74.199203 6.881535 0.439643
301.610626 -74.199203 5.979568 0.422461
301.610626 -74.199203 5.086321 0.592844
301.610626 -74.199203 4.199777 0.609216
301.708740 -74.179138 3.322898 0.678431
301.708740 -74.179146 2.440651 0.678431
301.708740 -74.179146 1.559349 0.678431
301.708740 -74.179138 0.677102 0.678431
299.223694 -74.687248 -0.000010 0.540673
292.359161 -76.090797 -0.000007 0.530739
288.535889 -76.872528 0.000012 0.334981
286.095154 -77.371574 0.000013 0.336355
284.398804 -77.718414 -0.000002 0.333074
283.148956 -77.973969 0.000004 0.332967
301.709625 -74.370583 8.735937 0.635294
301.709625 -74.370583 7.807981 0.589593
301.709625 -74.370583 6.893051 0.580392
301.709625 -74.370583 5.988957 0.441962
301.709625 -74.370583 5.093603 0.465568
301.709625 -74.370583 4.204966 0.414328
301.808105 -74.351166 3.326019 0.678431
301.808105 -74.351166 2.441690 0.678431
301.808105 -74.351166 1.558309 0.678431
301.808105 -74.351166 0.673980 0.678431
299.257233 -74.854202 -0.000010 0.542596
292.383057 -76.209793 -0.000007 0.549508
288.554413 -76.964813 0.000012 0.337789
286.110291 -77.446800 0.000009 0.338338
284.411530 -77.781799 -0.000001 0.341085
283.159912 -78.028618 0.000003 0.328115
302.006744 -74.505234 8.802600 0.678431
301.809082 -74.542786 7.821999 0.515816
302.006775 -74.505234 6.941477 0.676081
302.006744 -74.505234 6.028435 0.676921
302.006744 -74.505234 5.124220 0.676921
301.809052 -74.542786 4.210289 0.301289
301.907898 -74.524010 3.329220 0.663478
301.907928 -74.524010 2.442757 0.678431
301.907928 -74.524010 1.557243 0.678431
301.907898 -74.524010 0.670780 0.678431
299.289581 -75.021385 -0.000010 0.534615
292.406128 -76.328957 -0.000007 0.521904
288.572296 -77.057228 0.000012 0.336034
286.124878 -77.522141 0.000009 0.332052
284.423828 -77.845268 -0.000002 0.338796
283.170502 -78.083344 0.000004 0.336965
302.107422 -74.679573 8.819393 0.678431
301.908997 -74.715836 7.836369 0.501183
302.107452 -74.679565 6.953675 0.678431
302.107452 -74.679565 6.038382 0.678431
302.107452 -74.679565 5.131932 0.678431
301.908997 -74.715836 4.215744 0.427237
302.008209 -74.697701 3.332501 0.678431
302.008209 -74.697701 2.443849 0.678431
302.008209 -74.697701 1.556150 0.678431
302.008209 -74.697701 0.667498 0.678431
299.320770 -75.188789 -0.000010 0.536904
292.428375 -76.448273 -0.000007 0.544671
288.589539 -77.149757 0.000012 0.337148
286.138916 -77.597580 0.000009 0.344076
284.435669 -77.908821 -0.000002 0.335012
283.180725 -78.138138 0.000004 0.339559
302.208618 -74.854774 8.836601 0.678431
302.009399 -74.889740 7.851096 0.521737
302.208618 -74.854774 6.966177 0.678431
302.208618 -74.854774 6.048572 0.678431
302.208618 -74.854774 5.139835 0.678431
302.009430 -74.889740 4.221335 0.515175
302.082825 -74.876854 3.334556 0.094118
302.082825 -74.876854 2.444534 0.083833
302.082825 -74.876854 1.555466 0.082963
302.082825 -74.876854 0.665443 0.080949
299.350800 -75.356407 -0.000010 0.553429
292.449768 -76.567741 -0.000007 0.549218
288.606140 -77.242409 0.000012 0.339513
286.152435 -77.673111 0.000009 0.338659
284.447083 -77.972450 -0.000002 0.339712
283.190552 -78.193008 0.000003 0.336553
302.276031 -75.036652 8.845522 0.112505
302.110352 -75.064537 7.866183 0.467689
302.276001 -75.036652 6.972652 0.148653
302.276001 -75.036652 6.053851 0.118883
302.276001 -75.036652 5.143930 0.094118
302.110352 -75.064537 4.227064 0.408209
302.210358 -75.047707 3.339309 0.678431
302.210358 -75.047707 2.446118 0.678431
302.210358 -75.047707 1.553882 0.678431
302.210358 -75.047707 0.660691 0.678431
299.379669 -75.524231 -0.000010 0.553033
292.470337 -76.687355 -0.000007 0.548440
288.622101 -77.335182 0.000013 0.339193
286.165466 -77.748734 0.000005 0.341207
284.458038 -78.036163 -0.000002 0.337591
283.200012 -78.247948 0.000003 0.321523
302.211823 -75.240250 8.821362 0.529763
302.211823 -75.240250 7.881639 0.562753
302.211823 -75.240250 6.955106 0.799573
302.211823 -75.240250 6.039547 0.818204
302.211823 -75.240250 5.132838 0.826474
292.152161 -76.861572 3.397442 0.623255
292.152161 -76.861572 2.837266 0.591043
302.312195 -75.224075 2.447293 0.678431
302.312195 -75.224075 1.552707 0.678431
302.312195 -75.224075 0.657162 0.678431
299.407349 -75.692253 -0.000010 0.538094
292.490082 -76.807114 -0.000007 0.546426
288.637390 -77.428055 0.000013 0.332097
286.177948 -77.824448 0.000004 0.330846
284.468536 -78.099953 -0.000002 0.336172
283.209076 -78.302948 0.000003 0.339437
302.313843 -75.416893 8.839719 0.400732
302.313843 -75.416893 7.897464 0.373251
302.313843 -75.416893 6.968438 0.607370
302.313843 -75.416893 6.050416 0.530144
302.313843 -75.416893 5.141266 0.553033
291.965088 -77.010773 3.380383 0.176135
291.965057 -77.010773 2.827045 0.170611
292.113007 -76.987991 2.277934 0.807843
291.986115 -77.007530 1.724167 0.192157
291.979034 -77.008621 1.172260 0.807843
291.978973 -77.008636 0.618462 0.192157
291.978973 -77.008636 0.061682 0.192157
288.652039 -77.521034 0.000013 0.334279
286.189911 -77.900246 0.000004 0.335515
284.478607 -78.163811 -0.000004 0.339422
283.217743 -78.358009 0.000003 0.339117
302.416412 -75.594505 8.858507 0.424445
302.416412 -75.594505 7.913664 0.510765
302.416412 -75.594505 6.982086 0.554971
302.416412 -75.594505 6.061543 0.577798
302.416412 -75.594505 5.149896 0.766644
291.989105 -77.126038 3.380925 0.171405
291.989105 -77.126038 2.827371 0.176089
292.019623 -77.121552 2.276098 0.807843
291.994385 -77.125259 1.724320 0.192157
291.987213 -77.126312 1.172723 0.807843
291.987152 -77.126320 0.619234 0.192157
291.987152 -77.126320 0.062766 0.192157
288.666046 -77.614113 0.000013 0.343847
286.201324 -77.976128 0.000004 0.332860
284.488220 -78.227745 -0.000004 0.338766
283.226044 -78.413132 0.000003 0.340185
302.519562 -75.773102 8.877735 0.428122
302.519562 -75.773102 7.930244 0.677806
302.519562 -75.773102 6.996054 0.516197
302.519562 -75.773102 6.072929 0.609354
302.519562 -75.773102 5.158727 0.396689
292.150330 -77.222221 3.392894 0.611765
292.150330 -77.222221 2.834541 0.604807
302.621063 -75.758911 2.450989 0.636759
302.621063 -75.758911 1.549011 0.651469
302.621063 -75.758919 0.646066 0.651469
299.483337 -76.197418 -0.000010 0.544259
292.544250 -77.167175 -0.000007 0.543465
288.679413 -77.707291 0.000013 0.336065
286.212219 -78.052086 0.000000 0.341207
284.497406 -78.291740 -0.000004 0.344015
283.233948 -78.468307 0.000003 0.333776
302.623291 -75.952713 8.897409 0.567117
302.623291 -75.952705 7.947208 0.873121
302.623291 -75.952713 7.010345 0.739437
302.623291 -75.952713 6.084579 0.536278
302.623260 -75.952713 5.167761 0.513375
292.149750 -77.341934 3.391520 0.612604
292.149750 -77.341934 2.833719 0.623789
346.434143 -70.141571 3.173793 0.684932
346.434174 -70.141571 0.826206 0.664775
315.684143 -74.220299 -0.000016 0.536904
299.506317 -76.366150 -0.000010 0.539773
292.560608 -77.287437 -0.000007 0.543221
288.692108 -77.800560 0.000013 0.339330
286.222565 -78.128120 0.000000 0.337240
284.506104 -78.355797 -0.000004 0.330205
283.241455 -78.523537 0.000003 0.336141
nan nan nan 0.000000
nan nan nan 0.000000
nan nan nan 0.000000
346.427002 -70.647171 12.629573 0.557336
346.426971 -70.647171 10.243674 0.550759
346.663025 -70.617538 7.895188 0.678431
346.663025 -70.617538 5.532054 0.678431
346.426971 -70.647171 3.172616 0.722744
346.427002 -70.647171 0.827382 0.737011
315.720551 -74.502174 -0.000017 0.542763
299.528137 -76.535034 -0.000010 0.536400
292.576141 -77.407806 -0.000006 0.530007
288.704163 -77.893913 0.000013 0.339223
286.232391 -78.204224 0.000000 0.340002
284.514404 -78.419907 -0.000005 0.343847
283.248596 -78.578819 0.000003 0.331884
nan nan nan 0.000000
nan nan nan 0.000000
nan nan nan 0.000000
346.419830 -71.151787 12.619452 0.577783
346.419800 -71.151794 10.235826 0.576928
346.655853 -71.123833 7.889577 0.678431
346.655853 -71.123833 5.528693 0.678431
346.419800 -71.151794 3.171502 0.738476
346.419830 -71.151787 0.828498 0.722210
315.754974 -74.784302 -0.000017 0.542489
299.548737 -76.704063 -0.000010 0.536797
292.590851 -77.528282 -0.000007 0.554467
288.715546 -77.987343 0.000013 0.340841
286.241699 -78.280396 -0.000000 0.336080
284.522217 -78.484085 -0.000005 0.338689
283.255341 -78.634155 0.000003 0.338933
nan nan nan 0.000000
nan nan nan 0.000000
nan nan nan 0.000000
346.412659 -71.655464 12.609869 0.533150
346.412659 -71.655464 10.228394 0.520516
346.648682 -71.629181 7.884261 0.678431
346.648682 -71.629181 5.525507 0.678431
346.412689 -71.655464 3.170443 0.698207
346.412689 -71.655464 0.829556 0.633600
315.787415 -75.066658 -0.000017 0.542031
299.568207 -76.873238 -0.000010 0.540307
292.604553 -77.648880 0.000013 0.336385
288.726288 -78.080856 0.000013 0.339727
286.250458 -78.356628 -0.000000 0.340429
284.529602 -78.548309 -0.000005 0.335027
283.261719 -78.689529 0.000003 0.341131
nan nan nan 0.000000
nan nan nan 0.000000
nan nan nan 0.000000
346.405518 -72.158264 12.600814 0.557641
346.405548 -72.158264 10.221376 0.550469
346.641541 -72.133644 7.879243 0.678431
346.641510 -72.133644 5.522500 0.678431
346.405548 -72.158264 3.169445 0.708461
346.405548 -72.158264 0.830553 0.623133
315.817902 -75.349236 -0.000017 0.542748
299.586456 -77.042542 -0.000010 0.537011
292.531250 -77.778557 0.009993 1.000000
288.736389 -78.174446 0.000013 0.339315
286.258698 -78.432922 -0.000000 0.345556
284.536530 -78.612579 -0.000005 0.336919
283.267700 -78.744949 0.000003 0.336110
nan nan nan 0.000000
nan nan nan 0.000000
nan nan nan 0.000000
346.398407 -72.660233 12.592297 0.585229
346.649963 -72.635757 10.243846 0.678431
346.634399 -72.637276 7.874520 0.678431
346.634369 -72.637276 5.519670 0.678431
346.398438 -72.660225 3.168506 0.678767
346.398438 -72.660225 0.831494 0.703517
315.846375 -75.632027 -0.000017 0.544930
299.603516 -77.211967 -0.000010 0.536782
292.543396 -77.898712 0.009992 1.000000
288.745850 -78.268097 0.000013 0.336919
286.266388 -78.509270 -0.000003 0.330648
284.543030 -78.676903 -0.000005 0.333639
283.273285 -78.800415 0.000003 0.341054
nan nan nan 0.000000
nan nan nan 0.000000
nan nan nan 0.000000
346.391296 -73.161407 12.584311 0.598276
346.631592 -73.139725 10.236330 0.678431
346.391296 -73.161407 7.850664 0.597223
346.391296 -73.161407 5.505380 0.587716
346.391296 -73.161407 3.167625 0.710719
346.391296 -73.161407 0.832375 0.739406
315.872925 -75.915001 -0.000016 0.536538
299.619415 -77.381516 -0.000010 0.532464
292.641144 -78.011147 0.000003 0.339788
288.754608 -78.361816 0.000013 0.339925
286.273560 -78.585670 -0.000003 0.341939
284.549072 -78.741272 -0.000005 0.344182
283.278503 -78.855911 0.000002 0.337957
nan nan nan 0.000000
nan nan nan 0.000000
nan nan nan 0.000000
346.384216 -73.661858 12.576848 0.584649
346.613220 -73.642799 10.229223 0.678431
346.384216 -73.661850 7.846539 0.581888
346.384216 -73.661850 5.502908 0.603037
346.384216 -73.661858 3.166802 0.690196
318.008362 -76.022545 1.299142 0.678431
315.897461 -76.198151 -0.000016 0.537499
299.634125 -77.551163 -0.000010 0.545174
292.651611 -78.132057 0.000003 0.339330
288.762756 -78.455589 0.000013 0.338766
286.280182 -78.662125 -0.000003 0.334859
284.554657 -78.805679 -0.000005 0.339117
283.283295 -78.911446 0.000003 0.338430
nan nan nan 0.000000
nan nan nan 0.000000
nan nan nan 0.000000
346.377106 -74.161621 12.569911 0.587915
346.594910 -74.145035 10.222534 0.678431
346.377136 -74.161621 7.842704 0.560204
346.377136 -74.161621 5.500611 0.568078
346.377136 -74.161621 3.166038 0.721569
317.969788 -76.325348 1.300165 0.388235
315.920044 -76.481476 -0.000016 0.544594
299.647369 -77.720932 0.000013 0.338567
292.661255 -78.253044 0.000003 0.335485
288.770233 -78.549416 0.000013 0.338064
286.286285 -78.738617 -0.000003 0.340215
284.559784 -78.870117 -0.000006 0.336950
283.287720 -78.967010 0.000003 0.330800
nan nan nan 0.000000
nan nan nan 0.000000
nan nan nan 0.000000
349.089172 -74.472740 12.967806 0.600488
349.089172 -74.472733 10.505994 0.583749
349.089142 -74.472740 8.062644 0.582834
349.089172 -74.472740 5.632386 0.570687
349.089172 -74.472740 3.209930 0.664256
317.969788 -76.624634 1.300520 0.413489
315.940643 -76.764946 -0.000017 0.540627
299.537933 -77.899185 0.010022 1.000000
292.670044 -78.374100 0.000003 0.337484
288.777039 -78.643303 0.000014 0.330800
286.291840 -78.815147 -0.000003 0.334295
284.564453 -78.934601 -0.000006 0.344594
283.291779 -79.022606 0.000003 0.337911
nan nan nan 0.000000
nan nan nan 0.000000
nan nan nan 0.000000
355.863647 -74.568962 13.969619 0.432258
355.865112 -74.568871 11.283112 0.583261
355.865112 -74.568871 8.616537 0.597406
355.865112 -74.568871 5.964245 0.602762
355.865112 -74.568871 3.320472 0.779599
317.969788 -76.923622 1.300840 0.482353
315.959259 -77.048553 -0.000017 0.539498
299.670898 -78.060684 0.000012 0.338918
292.678009 -78.495209 0.000003 0.339147
288.783203 -78.737221 0.000014 0.340719
286.296875 -78.891724 -0.000003 0.342321
284.568695 -78.999107 -0.000006 0.336812
283.295410 -79.078224 0.000003 0.340978
nan nan nan 0.000000
nan nan nan 0.000000
nan nan nan 0.000000
nan nan nan 0.000000
364.005127 -74.684296 12.217161 0.596078
364.005127 -74.684296 9.282284 0.599435
366.420227 -74.551140 6.481949 0.672648
364.004425 -74.684334 3.453324 0.593332
317.987091 -77.221405 1.300843 0.272557
315.975891 -77.332283 -0.000017 0.542245
299.680847 -78.230675 0.000012 0.335973
292.685120 -78.616371 0.000003 0.335912
288.788727 -78.831192 0.000014 0.339605
286.301361 -78.968323 -0.000003 0.340169
284.572479 -79.063644 -0.000006 0.337987
