# This PCD file was generated using the MATLABÂ® pcwrite function
# from Computer Vision ToolboxÂ®.
# .PCD v.7 - Point Cloud Data file format
VERSION .7
FIELDS x y z intensity
SIZE 4 4 4 4
TYPE F F F F
COUNT 1 1 1 1
WIDTH 1200
HEIGHT 1
VIEWPOINT 0 0 0 1 0 0 0
POINTS 1200
DATA ascii
79.950714 -142.898239 2.939300 0.760204
79.950714 -142.898254 2.312876 0.679973
79.950714 -142.898254 1.687124 0.692821
79.950714 -142.898239 1.060700 0.755413
79.950714 -142.898239 0.432258 0.707149
78.953484 -144.317596 -0.000011 0.538216
76.710098 -147.510559 -0.000008 0.529885
75.277901 -149.548996 -0.000007 0.580438
74.282471 -150.965775 -0.000006 0.685542
73.549080 -152.009598 -0.000005 0.515175
nan nan nan 0.000000
nan nan nan 0.000000
nan nan nan 0.000000
nan nan nan 0.000000
105.613541 -107.139397 9.262949 0.924178
105.372742 -107.477097 7.142662 0.707134
79.950714 -143.128143 2.930081 0.734859
79.950714 -143.128143 2.309806 0.648203
79.950714 -143.128143 1.690194 0.754772
79.950714 -143.128159 1.069919 0.738415
79.950714 -143.128143 0.447645 0.681453
79.052551 -144.387711 -0.000011 0.533059
76.786934 -147.564941 -0.000008 0.525734
75.340538 -149.593323 -0.000007 0.549493
74.335236 -151.003128 -0.000006 0.494682
73.594574 -152.041809 -0.000005 0.534661
nan nan nan 0.000000
nan nan nan 0.000000
nan nan nan 0.000000
nan nan nan 0.000000
106.117081 -107.195404 9.291513 0.931121
105.913231 -107.477089 7.168517 0.723568
79.950714 -143.353607 2.921086 0.620920
79.950714 -143.353607 2.306809 0.605661
79.950714 -143.353607 1.693191 0.613703
79.950714 -143.353607 1.078914 0.715312
79.950714 -143.353607 0.462658 0.692866
79.151123 -144.458527 -0.000011 0.549722
76.863380 -147.619858 -0.000009 0.547173
75.402863 -149.638092 -0.000007 0.552880
74.387741 -151.040848 -0.000006 0.507317
73.639847 -152.074326 -0.000005 0.586267
nan nan nan 0.000000
nan nan nan 0.000000
nan nan nan 0.000000
nan nan nan 0.000000
106.666046 -107.195419 9.328714 0.902876
106.459198 -107.477089 7.194889 0.683986
79.950722 -143.574738 2.912308 0.628305
79.950714 -143.574738 2.303885 0.645701
79.950714 -143.574738 1.696115 0.599649
79.950714 -143.574738 1.087693 0.709133
79.950714 -143.574738 0.477310 0.761852
79.249207 -144.530014 -0.000011 0.574685
76.939445 -147.675308 -0.000009 0.540444
75.464867 -149.683304 -0.000007 0.520592
74.439980 -151.078918 -0.000006 0.533806
73.684891 -152.107162 -0.000005 0.457938
nan nan nan 0.000000
nan nan nan 0.000000
nan nan nan 0.000000
nan nan nan 0.000000
107.220703 -107.195404 9.366665 0.913420
107.010796 -107.477081 7.221787 0.724743
79.950714 -143.791718 2.903738 0.630060
79.950714 -143.791718 2.301031 0.692363
79.950714 -143.791718 1.698969 0.727108
79.950714 -143.791718 1.096262 0.754391
79.950714 -143.791718 0.491613 0.615976
79.346771 -144.602203 -0.000011 0.539330
77.015114 -147.731293 -0.000008 0.559045
75.526558 -149.728928 -0.000007 0.546975
74.491951 -151.117371 -0.000006 0.514717
73.729706 -152.140305 -0.000005 0.555032
nan nan nan 0.000000
nan nan nan 0.000000
nan nan nan 0.000000
nan nan nan 0.000000
107.781128 -107.195419 9.405365 0.926314
107.568161 -107.477089 7.249223 0.736309
79.950722 -144.004654 2.895371 0.643488
79.950722 -144.004654 2.298244 0.730724
79.950722 -144.004654 1.701756 0.640574
79.950714 -144.004654 1.104629 0.687251
79.950714 -144.004654 0.505578 0.599954
79.443848 -144.675064 -0.000011 0.515908
77.090401 -147.787796 -0.000009 0.534218
75.587929 -149.774994 -0.000007 0.526650
74.543655 -151.156189 -0.000006 0.521080
73.774284 -152.173767 -0.000005 0.567239
nan nan nan 0.000000
nan nan nan 0.000000
nan nan nan 0.000000
nan nan nan 0.000000
108.347519 -107.195419 9.444842 0.934081
108.131454 -107.477089 7.277206 0.718761
79.950722 -144.213715 2.887201 0.552972
79.950722 -144.213715 2.295522 0.775494
79.950722 -144.213715 1.704478 0.449119
79.950722 -144.213715 1.112799 0.478996
79.950722 -144.213715 0.519215 0.775555
79.540405 -144.748596 -0.000011 0.532097
77.165283 -147.844818 -0.000009 0.517906
75.648979 -149.821487 -0.000007 0.555825
74.595085 -151.195343 -0.000006 0.561318
73.818634 -152.207550 -0.000006 0.552026
nan nan nan 0.000000
79.977005 -144.385208 5.874615 0.689006
79.977013 -144.385208 5.264248 0.600458
79.977005 -144.385208 4.661110 0.612192
79.977005 -144.385208 4.063801 0.661952
79.977013 -144.385208 3.470975 0.573892
79.950722 -144.418991 2.879220 0.709743
79.950714 -144.418991 2.292864 0.686778
79.950714 -144.418991 1.707136 0.707393
79.950722 -144.418991 1.120780 0.561639
79.950714 -144.418991 0.532534 0.711604
79.636444 -144.822815 -0.000011 0.566461
77.239769 -147.902374 -0.000009 0.518578
75.709702 -149.868408 -0.000007 0.560800
74.646248 -151.234879 -0.000006 0.534936
73.862740 -152.241623 -0.000005 0.579309
nan nan nan 0.000000
79.977013 -144.587311 5.840261 0.519417
79.977013 -144.587311 5.235305 0.680934
79.977013 -144.587311 4.637516 0.725841
79.977013 -144.587311 4.045503 0.584482
79.977013 -144.587311 3.457933 0.699138
79.950722 -144.620621 2.871424 0.623713
79.950714 -144.620621 2.290267 0.567605
79.950714 -144.620621 1.709733 0.654368
79.950722 -144.620621 1.128575 0.558068
79.950714 -144.620621 0.545546 0.658595
79.731972 -144.897675 -0.000011 0.590112
77.313850 -147.960449 -0.000009 0.527962
75.770096 -149.915741 -0.000008 0.531228
74.697128 -151.274765 -0.000006 0.528511
73.906609 -152.276016 -0.000005 0.519112
nan nan nan 0.000000
79.977013 -144.785889 5.806693 0.639139
79.977013 -144.785889 5.207026 0.645716
79.977013 -144.785889 4.614461 0.676692
79.977013 -144.785889 4.027624 0.588632
79.977013 -144.785889 3.445189 0.674617
79.950714 -144.818710 2.863807 0.687709
79.950714 -144.818710 2.287730 0.610300
79.950714 -144.818710 1.712270 0.677012
79.950714 -144.818710 1.136193 0.656291
79.950722 -144.818710 0.558259 0.609979
79.826965 -144.973221 -0.000011 0.531899
77.387527 -148.019028 -0.000009 0.514275
75.830154 -149.963516 -0.000007 0.536599
74.747726 -151.315002 -0.000006 0.511284
73.950241 -152.310715 -0.000005 0.493019
nan nan nan 0.000000
79.977013 -144.981018 5.773890 0.719341
79.977013 -144.981018 5.179391 0.609842
79.977013 -144.981018 4.591932 0.595499
79.977013 -144.981018 4.010151 0.660395
79.977013 -144.981018 3.432735 0.649912
79.950714 -145.013382 2.856363 0.609552
79.950714 -145.013382 2.285250 0.697154
79.950714 -145.013382 1.714749 0.803555
79.950714 -145.013382 1.143636 0.628580
79.950714 -145.013382 0.570684 0.653086
79.921440 -145.049423 -0.000012 0.540536
77.460793 -148.078125 -0.000009 0.571939
75.889885 -150.011688 -0.000007 0.550774
74.798042 -151.355591 -0.000006 0.513390
73.993629 -152.345703 -0.000005 0.551736
nan nan nan 0.000000
79.977020 -145.172821 5.741829 0.642634
79.977020 -145.172821 5.152380 0.605478
79.977020 -145.172821 4.569912 0.707881
79.977020 -145.172821 3.993074 0.682734
79.977020 -145.172821 3.420564 0.709331
79.950722 -145.204742 2.849088 0.580301
79.950714 -145.204742 2.282827 0.773159
79.950714 -145.204742 1.717173 0.739239
79.950714 -145.204742 1.150912 0.635966
79.950714 -145.204742 0.582826 0.696330
79.950722 -145.204742 0.011683 0.720470
77.533638 -148.137741 -0.000009 0.545251
75.949272 -150.060287 -0.000007 0.533043
74.848076 -151.396530 -0.000006 0.547478
74.036766 -152.381012 -0.000005 0.521996
nan nan nan 0.000000
79.977020 -145.361420 5.710486 0.575326
79.977020 -145.361420 5.125975 0.703761
79.977020 -145.361420 4.548387 0.658610
79.977020 -145.361420 3.976380 0.682322
79.977020 -145.361420 3.408665 0.617960
79.950722 -145.392883 2.841976 0.609781
79.950722 -145.392883 2.280458 0.730114
79.950722 -145.392883 1.719542 0.742153
79.950714 -145.392883 1.158024 0.714687
79.950722 -145.392883 0.594697 0.699138
79.950722 -145.392883 0.028338 0.626139
77.606071 -148.197845 -0.000009 0.526757
76.008316 -150.109299 -0.000008 0.534325
74.897820 -151.437820 -0.000006 0.523812
74.079659 -152.416611 -0.000005 0.557076
nan nan nan 0.000000
79.977020 -145.546875 5.679843 0.749554
79.977020 -145.546875 5.100159 0.667826
79.977020 -145.546875 4.527340 0.687907
79.977020 -145.546875 3.960057 0.684962
79.977020 -145.546875 3.397032 0.714702
79.950722 -145.577896 2.835022 0.647272
79.950714 -145.577896 2.278142 0.648966
79.950714 -145.577896 1.721858 0.734356
79.950714 -145.577896 1.164978 0.630930
79.950714 -145.577896 0.606303 0.651682
79.950714 -145.577896 0.044621 0.595544
77.678078 -148.258469 -0.000009 0.537331
76.067024 -150.158707 -0.000008 0.537682
74.947281 -151.479446 -0.000006 0.555184
74.122299 -152.452499 -0.000005 0.551324
nan nan nan 0.000000
79.977020 -145.729309 5.649878 0.728573
79.977020 -145.729309 5.074915 0.769680
79.977020 -145.729309 4.506761 0.767636
79.977020 -145.729309 3.944097 0.771008
79.977020 -145.729309 3.385655 0.741070
79.950714 -145.759903 2.828223 0.655146
79.950714 -145.759903 2.275877 0.776196
79.950714 -145.759903 1.724123 0.806073
79.950714 -145.759903 1.171777 0.738323
79.950714 -145.759903 0.617652 0.676844
79.950714 -145.759903 0.060545 0.654658
77.749664 -148.319595 -0.000009 0.556191
76.125381 -150.208542 -0.000008 0.520119
74.996445 -151.521423 -0.000006 0.590784
74.164696 -152.488708 -0.000006 0.532860
79.935722 -145.956161 6.183303 0.399466
79.977020 -145.908813 5.620571 0.687663
79.977020 -145.908813 5.050224 0.681056
79.977020 -145.908813 4.486632 0.722576
79.977020 -145.908813 3.928486 0.638132
79.977020 -145.908813 3.374529 0.711040
79.950722 -145.938965 2.821573 0.746639
79.950714 -145.938965 2.273662 0.624109
79.950714 -145.938965 1.726338 0.758511
79.950722 -145.938965 1.178427 0.756680
79.950714 -145.938965 0.628752 0.686290
79.950714 -145.938965 0.076117 0.753735
77.820824 -148.381210 -0.000009 0.557580
76.183388 -150.258774 -0.000008 0.534325
75.045319 -151.563751 -0.000006 0.547494
74.206833 -152.525192 -0.000006 0.534249
79.935722 -146.132141 6.150182 0.414496
79.977020 -146.085449 5.591905 0.681529
79.977020 -146.085449 5.026073 0.713298
79.977020 -146.085449 4.466944 0.672389
79.977020 -146.085449 3.913218 0.623270
79.977020 -146.085449 3.363646 0.760967
79.950722 -146.115189 2.815068 0.545022
79.950722 -146.115189 2.271495 0.615747
79.950714 -146.115189 1.728505 0.771054
79.950722 -146.115189 1.184932 0.603494
79.950714 -146.115189 0.639608 0.527489
79.950722 -146.115189 0.091349 0.767987
77.891548 -148.443329 -0.000009 0.560067
76.241043 -150.309418 -0.000007 0.701946
75.093887 -151.606415 -0.000006 0.524269
74.248718 -152.561981 -0.000005 0.496101
79.935722 -146.305374 6.117780 0.429114
79.977020 -146.259338 5.563861 0.539956
79.977020 -146.259338 5.002449 0.698405
79.977020 -146.259338 4.447683 0.572534
79.977020 -146.259338 3.898281 0.789929
79.977020 -146.259338 3.353000 0.675746
79.950722 -146.288651 2.808704 0.755337
79.950714 -146.288651 2.269376 0.566094
79.950714 -146.288651 1.730624 0.709072
79.950714 -146.288651 1.191296 0.771191
79.950714 -146.288666 0.650229 0.707195
79.950714 -146.288666 0.106251 0.687968
77.961838 -148.505936 -0.000010 0.546593
76.298347 -150.360458 -0.000007 0.524575
75.142166 -151.649399 -0.000007 0.526589
74.290344 -152.599045 -0.000005 0.541100
79.977020 -146.430527 6.101450 0.734752
79.977020 -146.430527 5.536425 0.647028
79.977020 -146.430527 4.979333 0.721218
79.977020 -146.430527 4.428839 0.615656
79.977020 -146.430527 3.883666 0.702983
79.977020 -146.430527 3.342583 0.677256
79.950722 -146.459442 2.802478 0.694392
79.950714 -146.459442 2.267302 0.536645
79.950714 -146.459442 1.732698 0.765942
79.950722 -146.459442 1.197522 0.662730
79.950714 -146.459442 0.660621 0.689921
79.950722 -146.459442 0.120830 0.691279
78.031685 -148.569031 -0.000010 0.533791
76.355293 -150.411896 -0.000007 0.533776
75.190140 -151.692734 -0.000007 0.566125
74.331703 -152.636414 -0.000006 0.525109
79.977020 -146.599106 6.070312 0.772396
79.977020 -146.599121 5.509575 0.619913
79.977020 -146.599121 4.956713 0.687617
79.977020 -146.599121 4.410399 0.676173
79.977020 -146.599121 3.869365 0.673091
79.977020 -146.599106 3.332391 0.645151
79.950722 -146.627625 2.796386 0.563485
79.950722 -146.627625 2.265272 0.580789
79.950722 -146.627625 1.734728 0.645823
79.950714 -146.627625 1.203614 0.598474
79.950714 -146.627625 0.670790 0.566674
79.950722 -146.627625 0.135097 0.610925
78.101089 -148.632614 -0.000009 0.531334
76.411873 -150.463715 -0.000008 0.552316
75.237808 -151.736404 -0.000006 0.552956
74.372803 -152.674072 -0.000005 0.511498
79.977020 -146.765167 6.039838 0.580453
79.977013 -146.765167 5.483299 0.644831
79.977013 -146.765167 4.934576 0.595270
79.977020 -146.765167 4.392353 0.757656
79.977020 -146.765167 3.855370 0.703182
79.977020 -146.765167 3.322415 0.558541
79.950722 -146.793274 2.790423 0.772564
79.950722 -146.793274 2.263286 0.635523
79.950722 -146.793274 1.736714 0.774334
79.950722 -146.793274 1.209576 0.595560
79.950722 -146.793274 0.680741 0.704555
79.950722 -146.793289 0.149059 0.747173
78.170059 -148.696686 -0.000010 0.543420
76.468094 -150.515961 -0.000007 0.539864
75.285172 -151.780411 -0.000006 0.529900
74.413643 -152.712006 -0.000005 0.542367
79.977020 -146.928757 6.010012 0.730816
79.977013 -146.928772 5.457582 0.769619
79.977013 -146.928772 4.912910 0.627665
79.977020 -146.928772 4.374690 0.692027
79.977020 -146.928757 3.841671 0.635981
79.977028 -146.928757 3.312652 0.604837
79.950722 -146.956482 2.784587 0.756161
79.950722 -146.956482 2.261342 0.683940
79.950722 -146.956482 1.738657 0.753628
79.950722 -146.956482 1.215412 0.634867
79.950722 -146.956482 0.690481 0.675563
79.950722 -146.956482 0.162724 0.649592
78.238571 -148.761230 -0.000010 0.515221
76.523949 -150.568573 -0.000008 0.538705
75.332230 -151.824738 -0.000006 0.532418
74.454216 -152.750229 -0.000006 0.534768
79.977028 -147.089966 5.980815 0.632639
79.977013 -147.089966 5.432406 0.740429
79.977013 -147.089966 4.891700 0.771267
79.977013 -147.089966 4.357399 0.661143
79.977020 -147.089966 3.828262 0.741115
79.977020 -147.089966 3.303094 0.616022
79.950722 -147.117294 2.778875 0.583017
79.950729 -147.117294 2.259440 0.612894
79.950729 -147.117294 1.740560 0.647654
79.950722 -147.117294 1.221125 0.668849
79.950722 -147.117294 0.700016 0.616373
79.950722 -147.117294 0.176102 0.506340
78.306633 -148.826248 -0.000010 0.545266
76.579437 -150.621582 -0.000008 0.554818
75.378967 -151.869400 -0.000006 0.595651
74.494522 -152.788742 -0.000005 0.465614
79.977028 -147.248840 5.952232 0.699413
79.977013 -147.248856 5.407760 0.629618
79.977013 -147.248856 4.870938 0.647562
79.977020 -147.248840 4.340472 0.659190
79.977020 -147.248840 3.815135 0.704128
79.977028 -147.248840 3.293739 0.702861
79.950729 -147.275787 2.773283 0.668879
79.950729 -147.275787 2.257577 0.702144
79.950729 -147.275787 1.742423 0.757580
79.950729 -147.275787 1.226717 0.699901
79.950729 -147.275787 0.709349 0.624628
79.950722 -147.275803 0.189198 0.670726
78.374237 -148.891739 -0.000010 0.536614
76.634552 -150.674973 -0.000008 0.541085
75.425400 -151.914383 -0.000007 0.518502
74.534561 -152.827515 -0.000006 0.495918
79.977028 -147.405457 5.924246 0.609552
79.977013 -147.405472 5.383629 0.489845
79.977013 -147.405472 4.850608 0.509712
79.977020 -147.405472 4.323899 0.748882
79.977020 -147.405472 3.802281 0.702266
79.977028 -147.405457 3.284577 0.727520
79.950729 -147.432037 2.767807 0.694240
79.950737 -147.432037 2.255753 0.609888
79.950737 -147.432037 1.744247 0.776471
79.950737 -147.432037 1.232192 0.640787
79.950729 -147.432037 0.718488 0.663386
79.950722 -147.432053 0.202021 0.683253
78.441383 -148.957703 -0.000010 0.521706
76.689293 -150.728745 -0.000008 0.537209
75.471519 -151.959686 -0.000006 0.571252
74.574326 -152.866592 -0.000006 0.526894
79.977028 -147.559891 5.896842 0.698528
79.977013 -147.559906 5.360001 0.767544
80.032021 -147.505066 4.844832 0.811688
79.977020 -147.559891 4.307672 0.642252
79.977020 -147.559891 3.789696 0.747799
79.977028 -147.559875 3.275607 0.746395
79.950729 -147.586105 2.762445 0.601785
80.007103 -147.529907 2.255270 0.759350
80.007103 -147.529907 1.744730 0.795819
79.950737 -147.586090 1.237554 0.676966
79.950729 -147.586105 0.727438 0.630442
79.950722 -147.586105 0.214576 0.695857
78.508072 -149.024139 -0.000010 0.544533
76.743652 -150.782913 -0.000008 0.506416
75.517319 -152.005310 -0.000007 0.540093
74.613815 -152.905930 -0.000006 0.565423
79.977028 -147.712173 5.870006 0.765240
79.977013 -147.712189 5.336862 0.704509
80.081024 -147.609955 4.837745 0.807843
79.977020 -147.712189 4.291779 0.649088
79.977020 -147.712189 3.777371 0.699748
79.977028 -147.712173 3.266822 0.698878
79.950729 -147.738037 2.757194 0.585992
80.072723 -147.618118 2.255017 0.807843
80.072723 -147.618118 1.744983 0.807843
79.950737 -147.738022 1.242805 0.581552
79.950729 -147.738037 0.736202 0.609766
79.950722 -147.738037 0.226872 0.551232
78.574287 -149.091034 -0.000010 0.531624
76.797638 -150.837448 -0.000008 0.549447
75.562798 -152.051254 -0.000006 0.529641
74.653030 -152.945541 -0.000006 0.578042
79.977028 -147.862396 5.843721 0.638880
79.977020 -147.862411 5.314199 0.726375
80.032021 -147.809097 4.806053 0.757610
79.977020 -147.862411 4.276214 0.703716
79.977028 -147.862396 3.765300 0.651484
79.977028 -147.862396 3.258219 0.711833
79.950729 -147.887894 2.752052 0.671565
80.072716 -147.769638 2.253285 0.807843
80.072716 -147.769638 1.746715 0.807843
79.950729 -147.887894 1.247948 0.672709
79.950729 -147.887894 0.744785 0.568994
79.950722 -147.887894 0.238914 0.685588
78.640038 -149.158401 -0.000009 0.563165
76.851234 -150.892365 -0.000008 0.552865
75.607956 -152.097519 -0.000007 0.510948
74.691963 -152.985428 -0.000006 0.544900
79.977028 -148.010590 5.817977 0.628702
79.977058 -148.010559 5.292015 0.691005
80.032021 -147.958023 4.787260 0.800671
79.977020 -148.010605 4.260969 0.772015
79.977028 -148.010590 3.753477 0.691432
79.977036 -148.010590 3.249792 0.804486
79.950729 -148.035736 2.747015 0.627848
79.950722 -148.035736 2.248827 0.798383
79.950722 -148.035736 1.751173 0.705562
79.950722 -148.035736 1.252985 0.678431
79.950729 -148.035736 0.753192 0.644984
79.950722 -148.035736 0.250710 0.667201
78.705315 -149.226212 -0.000010 0.534783
76.904457 -150.947647 -0.000008 0.559335
75.652786 -152.144104 -0.000007 0.543511
74.730621 -153.025589 -0.000005 0.512596
79.977020 -148.156830 5.792759 0.568795
80.032028 -148.104980 5.286586 0.785885
80.032028 -148.104980 4.768851 0.802289
79.977020 -148.156830 4.246036 0.556527
79.977028 -148.156830 3.741895 0.525383
79.977036 -148.156815 3.241536 0.500847
79.950729 -148.181610 2.742081 0.603525
79.950722 -148.181625 2.247183 0.806149
79.950722 -148.181625 1.752816 0.674098
79.950722 -148.181625 1.257919 0.675731
79.950729 -148.181610 0.761427 0.680476
79.950722 -148.181625 0.262264 0.708873
78.770119 -149.294479 -0.000010 0.552026
76.957283 -151.003296 -0.000008 0.533852
75.697296 -152.190979 -0.000007 0.559518
74.768997 -153.066025 -0.000006 0.523552
79.977020 -148.301147 5.768055 0.674434
80.032028 -148.250015 5.265179 0.755306
80.032036 -148.250015 4.750817 0.806149
79.977028 -148.301147 4.231406 0.737224
79.977028 -148.301147 3.730549 0.651392
79.977036 -148.301147 3.233450 0.665705
79.950729 -148.325592 2.737247 0.707393
79.950722 -148.325607 2.245574 0.676555
79.950722 -148.325607 1.754426 0.670481
79.950722 -148.325607 1.262753 0.688716
79.950729 -148.325592 0.769495 0.678431
79.950722 -148.325592 0.273583 0.730388
78.834450 -149.363205 -0.000010 0.536736
77.009727 -151.059311 -0.000008 0.526665
75.741478 -152.238190 -0.000006 0.550500
74.807091 -153.106720 -0.000006 0.544442
79.977028 -148.443604 5.743853 0.703655
80.032028 -148.393188 5.244206 0.783505
79.977028 -148.443604 4.719571 0.664973
79.977028 -148.443604 4.217073 0.659220
79.977028 -148.443604 3.719433 0.729122
79.977036 -148.443604 3.225527 0.760967
79.950729 -148.467712 2.732512 0.689525
79.950722 -148.467728 2.243996 0.646830
79.950722 -148.467728 1.756004 0.700221
79.950722 -148.467712 1.267488 0.762676
79.950729 -148.467712 0.777398 0.582422
79.950722 -148.467712 0.284672 0.744991
78.898293 -149.432373 -0.000010 0.550591
77.061768 -151.115707 -0.000008 0.529305
75.785324 -152.285690 -0.000007 0.564477
74.844894 -153.147675 -0.000006 0.520226
79.977028 -148.584259 5.720139 0.683711
79.977028 -148.584259 5.207644 0.631205
79.977028 -148.584244 4.702345 0.692866
79.977036 -148.584244 4.203032 0.776501
79.977036 -148.584244 3.708542 0.787213
79.977036 -148.584244 3.217764 0.704906
79.950729 -148.608032 2.727872 0.702525
79.950714 -148.608032 2.242450 0.650095
79.950714 -148.608032 1.757550 0.617258
79.950722 -148.608032 1.272129 0.586480
79.950729 -148.608032 0.785143 0.556527
79.950722 -148.608032 0.295537 0.581445
78.961655 -149.501984 -0.000010 0.515343
77.113426 -151.172455 -0.000008 0.534127
75.828842 -152.333496 -0.000007 0.520638
74.882416 -153.188904 -0.000006 0.515404
79.977036 -148.723129 5.696902 0.711894
79.977036 -148.723129 5.187610 0.639017
79.977036 -148.723129 4.685467 0.709453
79.977036 -148.723129 4.189271 0.808789
79.977036 -148.723129 3.697871 0.825589
79.977036 -148.723129 3.210158 0.612757
79.950722 -148.746582 2.723325 0.431205
79.950714 -148.746582 2.240936 0.414847
79.950714 -148.746582 1.759064 0.491844
79.950722 -148.746582 1.276675 0.739528
79.950722 -148.746582 0.792732 0.690120
79.950722 -148.746582 0.306184 0.778210
79.024521 -149.572037 -0.000010 0.540612
77.164680 -151.229568 -0.000008 0.541848
75.872025 -152.381607 -0.000007 0.522805
74.919647 -153.230377 -0.000005 0.577523
79.977036 -148.860306 5.674133 0.637201
79.977036 -148.860306 5.167975 0.692988
79.977036 -148.860306 4.668926 0.662043
79.977036 -148.860306 4.175786 0.711269
79.977036 -148.860306 3.687413 0.678264
79.977036 -148.860306 3.202704 0.740078
79.950722 -148.883423 2.718869 0.534508
79.950714 -148.883423 2.239452 0.740551
79.950714 -148.883423 1.760548 0.621958
79.950722 -148.883423 1.281130 0.503975
79.950722 -148.883423 0.800168 0.498619
79.950722 -148.883423 0.316616 0.663371
79.086906 -149.642517 -0.000010 0.554116
77.215538 -151.287033 -0.000008 0.531640
75.914864 -152.430023 -0.000007 0.546075
74.956589 -153.272125 -0.000006 0.526665
79.977028 -148.995804 5.651816 0.705898
79.977028 -148.995804 5.148734 0.791638
79.977028 -148.995789 4.652715 0.653391
79.977036 -148.995789 4.162572 0.676905
79.977028 -148.995804 3.677164 0.678248
79.977036 -148.995789 3.195399 0.720333
79.950722 -149.018600 2.714503 0.573922
79.950722 -149.018585 2.237998 0.680247
79.950722 -149.018585 1.762002 0.651255
79.950722 -149.018600 1.285496 0.705318
79.950722 -149.018600 0.807455 0.756649
79.950722 -149.018585 0.326841 0.576669
79.148796 -149.713440 -0.000010 0.551965
77.265991 -151.344849 -0.000008 0.533562
75.957375 -152.478729 -0.000007 0.563760
74.993240 -153.314117 -0.000006 0.517052
79.977028 -149.129669 5.629947 0.709865
79.977028 -149.129669 5.129877 0.802289
79.977028 -149.129669 4.636828 0.656474
79.977028 -149.129669 4.149619 0.682673
79.977028 -149.129669 3.667120 0.549325
79.977036 -149.129654 3.188241 0.632532
79.950722 -149.152145 2.710225 0.608484
79.950722 -149.152130 2.236573 0.770443
79.950722 -149.152130 1.763427 0.687358
79.950722 -149.152145 1.289775 0.805142
79.950722 -149.152130 0.814597 0.601434
79.950722 -149.152130 0.336860 0.643442
79.210182 -149.784790 -0.000010 0.531060
77.316040 -151.403015 -0.000008 0.528466
75.999535 -152.527740 -0.000007 0.544503
75.029594 -153.356384 -0.000006 0.556603
79.977028 -149.261948 5.608512 0.597101
79.977028 -149.261948 5.111395 0.681468
79.977028 -149.261948 4.621258 0.652873
79.977028 -149.261948 4.136926 0.680781
79.977028 -149.261932 3.657276 0.624338
79.977036 -149.261932 3.181224 0.709758
79.950722 -149.284103 2.706031 0.653819
79.950722 -149.284103 2.235175 0.627558
79.950722 -149.284103 1.764824 0.638254
79.950722 -149.284103 1.293969 0.790860
79.950722 -149.284103 0.821596 0.633783
79.950722 -149.284103 0.346681 0.764492
79.271072 -149.856583 -0.000010 0.545815
77.365677 -151.461533 -0.000008 0.565972
76.041359 -152.577042 -0.000007 0.510292
75.065659 -153.398880 -0.000006 0.539391
79.977020 -149.392670 5.587502 0.717525
79.977020 -149.392670 5.093280 0.531167
79.977020 -149.392670 4.605996 0.689311
79.977020 -149.392670 4.124484 0.731563
79.977028 -149.392670 3.647626 0.692943
79.977036 -149.392670 3.174347 0.633692
79.950722 -149.414520 2.701921 0.581292
79.950722 -149.414520 2.233806 0.665736
79.950722 -149.414520 1.766194 0.611292
79.950722 -149.414520 1.298079 0.784329
79.950722 -149.414520 0.828457 0.704128
79.950722 -149.414520 0.356307 0.742702
79.331467 -149.928787 -0.000010 0.525734
77.414909 -151.520401 -0.000008 0.545190
76.082832 -152.626633 -0.000007 0.545464
75.101418 -153.441650 -0.000006 0.499168
79.977020 -149.521896 5.566910 0.605585
79.977020 -149.521896 5.075523 0.563851
79.977020 -149.521896 4.591036 0.620264
79.977020 -149.521896 4.112289 0.693019
79.977028 -149.521896 3.638169 0.665782
79.977036 -149.521881 3.167606 0.598505
79.950722 -149.543427 2.697891 0.635142
79.950722 -149.543427 2.232464 0.730571
79.950722 -149.543427 1.767536 0.680674
79.950722 -149.543427 1.302109 0.799435
79.950722 -149.543427 0.835182 0.685023
79.950714 -149.543427 0.365742 0.659159
79.391350 -150.001404 -0.000010 0.521920
77.463730 -151.579605 -0.000008 0.553277
76.123962 -152.676498 -0.000007 0.519005
75.136887 -153.484650 -0.000006 0.576013
80.032021 -149.605255 5.564428 0.765789
80.032021 -149.605255 5.073385 0.794537
80.032021 -149.605255 4.589235 0.791684
79.977020 -149.649658 4.100335 0.650370
79.977028 -149.649643 3.628899 0.632136
79.977036 -149.649643 3.160998 0.635737
79.950722 -149.670883 2.693942 0.709880
79.950722 -149.670883 2.231149 0.748913
79.950722 -149.670883 1.768851 0.740490
79.950722 -149.670883 1.306058 0.631800
79.950714 -149.670883 0.841774 0.706050
79.950714 -149.670883 0.374991 0.629664
79.450722 -150.074448 -0.000010 0.523995
77.512131 -151.639145 -0.000008 0.537743
76.164742 -152.726669 -0.000007 0.553399
75.172043 -153.527908 -0.000006 0.545220
80.081024 -149.693222 5.560228 0.807843
80.081032 -149.693222 5.069764 0.807843
80.081032 -149.693222 4.586185 0.807843
79.977020 -149.775970 4.088617 0.641123
79.977028 -149.775970 3.619811 0.649134
79.977028 -149.775970 3.154521 0.515190
79.950722 -149.796906 2.690070 0.704845
79.950722 -149.796906 2.229859 0.717205
79.950722 -149.796906 1.770141 0.756558
79.950722 -149.796906 1.309930 0.630991
79.950722 -149.796906 0.848236 0.720592
79.950722 -149.796906 0.384057 0.661616
79.509590 -150.147888 -0.000010 0.529885
77.560120 -151.699020 -0.000008 0.562676
76.205170 -152.777115 -0.000007 0.545998
75.206902 -153.571411 -0.000006 0.561700
80.081024 -149.819336 5.540647 0.807843
80.081024 -149.819321 5.052880 0.807843
80.081024 -149.819321 4.571960 0.807843
79.977020 -149.900909 4.077130 0.808209
79.977028 -149.900894 3.610902 0.606210
79.977036 -149.900894 3.148171 0.605432
79.950722 -149.921524 2.686275 0.747494
79.950722 -149.921524 2.228595 0.715084
79.950722 -149.921524 1.771405 0.667826
79.950722 -149.921524 1.313725 0.753262
79.950722 -149.921524 0.854570 0.766567
79.950722 -149.921524 0.392944 0.748272
79.567940 -150.221756 -0.000010 0.537377
77.607689 -151.759232 -0.000008 0.543526
76.245247 -152.827850 -0.000007 0.538689
75.241455 -153.615143 -0.000006 0.521492
80.081024 -149.944061 5.521450 0.807843
80.081024 -149.944061 5.036327 0.807843
80.081024 -149.944061 4.558016 0.807843
79.977020 -150.024475 4.065869 0.762692
79.977028 -150.024460 3.602168 0.703990
79.909538 -150.076645 3.134951 0.439765
79.950722 -150.044800 2.682554 0.737270
79.950722 -150.044800 2.227355 0.646097
79.950722 -150.044800 1.772644 0.632746
79.950722 -150.044800 1.317446 0.733944
79.950722 -150.044800 0.860780 0.724514
79.950714 -150.044800 0.401658 0.824918
79.625771 -150.296021 -0.000010 0.530877
77.654831 -151.819778 -0.000008 0.543221
76.284958 -152.878845 -0.000007 0.553063
75.275703 -153.659119 -0.000006 0.546288
80.081024 -150.067459 5.502630 0.807843
80.081024 -150.067459 5.020101 0.807843
80.081024 -150.067459 4.544345 0.807843
79.977020 -150.146713 4.054828 0.702434
79.977020 -150.146698 3.593605 0.633738
79.909538 -150.198135 3.128885 0.464302
79.950722 -150.166748 2.678906 0.792096
79.950722 -150.166748 2.226140 0.642374
79.950722 -150.166748 1.773860 0.707744
79.950722 -150.166748 1.321093 0.695720
79.950722 -150.166748 0.866869 0.670420
79.950722 -150.166748 0.410200 0.714351
79.683083 -150.370697 -0.000010 0.535012
77.701561 -151.880661 -0.000008 0.540841
76.324326 -152.930130 -0.000007 0.528038
75.309639 -153.703339 -0.000006 0.562860
79.977036 -150.267639 5.451602 0.635874
79.977036 -150.267639 4.976103 0.813046
79.977036 -150.267639 4.507278 0.735653
79.977020 -150.267654 4.044004 0.704433
79.977028 -150.267654 3.585210 0.676722
79.909538 -150.318344 3.122939 0.417105
79.950722 -150.287399 2.675330 0.751873
79.950722 -150.287399 2.224949 0.741176
79.950722 -150.287399 1.775051 0.725475
79.950722 -150.287399 1.324669 0.670558
79.950722 -150.287399 0.872837 0.661265
79.950722 -150.287399 0.418574 0.751446
79.739868 -150.445770 -0.000010 0.550820
77.747856 -151.941849 -0.000008 0.559655
76.363327 -152.981689 -0.000007 0.528908
75.343277 -153.747803 -0.000006 0.529656
79.977036 -150.387329 5.433683 0.643503
79.977036 -150.387329 4.960651 0.614176
79.977036 -150.387329 4.494261 0.724941
79.977020 -150.387329 4.033393 0.647700
79.977028 -150.387329 3.576981 0.693568
79.909531 -150.437286 3.117108 0.413825
79.950722 -150.406799 2.671824 0.748943
79.950722 -150.406799 2.223782 0.736202
79.950722 -150.406799 1.776219 0.732586
79.950722 -150.406799 1.328176 0.675074
79.950722 -150.406799 0.878689 0.672984
79.950722 -150.406799 0.426784 0.668330
79.796135 -150.521225 -0.000010 0.548318
77.793724 -152.003372 -0.000008 0.526909
76.401970 -153.033524 -0.000007 0.519066
75.376595 -153.792480 -0.000006 0.525917
79.977036 -150.505783 5.416114 0.631464
79.977036 -150.505783 4.945502 0.588647
79.977036 -150.505783 4.481498 0.741497
79.977028 -150.505783 4.022989 0.775204
79.977020 -150.505783 3.568912 0.766308
79.909531 -150.555023 3.111393 0.390570
79.950722 -150.524979 2.668387 0.732906
79.950722 -150.524979 2.222636 0.654368
79.950722 -150.524979 1.777364 0.735134
79.950722 -150.524979 1.331613 0.634546
79.950722 -150.524979 0.884427 0.658289
79.950722 -150.524979 0.434834 0.659113
79.851875 -150.597076 -0.000010 0.504036
77.839165 -152.065216 -0.000008 0.528023
76.440247 -153.085617 -0.000007 0.542290
75.409599 -153.837402 -0.000006 0.573510
79.977036 -150.623032 5.398890 0.739986
79.977036 -150.623032 4.930650 0.686137
79.977036 -150.623032 4.468986 0.603708
79.977028 -150.623032 4.012789 0.829297
79.977028 -150.623047 3.561001 0.712184
79.909531 -150.671555 3.105789 0.392187
79.950722 -150.641953 2.665016 0.546410
79.950722 -150.641953 2.221514 0.725109
79.950722 -150.641953 1.778486 0.515373
79.950722 -150.641953 1.334984 0.653468
79.950722 -150.641953 0.890052 0.502068
79.950722 -150.641953 0.442726 0.654169
79.907082 -150.673309 -0.000010 0.571633
77.884163 -152.127365 -0.000008 0.528496
76.478165 -153.137985 -0.000007 0.531365
75.442291 -153.882553 -0.000006 0.548577
79.977036 -150.739120 5.382000 0.682307
79.977036 -150.739120 4.916088 0.675746
79.977036 -150.739120 4.456717 0.634882
79.977028 -150.739120 4.002788 0.628016
79.977020 -150.739120 3.553244 0.714900
79.909531 -150.786926 3.100294 0.409247
79.950722 -150.757751 2.661712 0.728740
79.950722 -150.757751 2.220413 0.599649
79.950722 -150.757751 1.779587 0.763302
79.950722 -150.757751 1.338288 0.536919
79.950722 -150.757751 0.895567 0.691829
79.950722 -150.757751 0.450464 0.568719
79.961754 -150.749939 -0.000010 0.536538
77.928734 -152.189835 -0.000009 0.527016
76.515717 -153.190598 -0.000007 0.561486
75.474670 -153.927933 -0.000006 0.548684
79.977036 -150.854065 5.365440 0.652766
79.977028 -150.854065 4.901810 0.719280
79.977028 -150.854065 4.444688 0.735637
79.977028 -150.854065 3.992982 0.601328
79.977028 -150.854065 3.545640 0.786755
79.909531 -150.901154 3.094907 0.462837
79.950722 -150.872421 2.658472 0.704692
79.950722 -150.872421 2.219334 0.668513
79.950722 -150.872421 1.780666 0.776394
79.950722 -150.872421 1.341527 0.738277
79.950722 -150.872421 0.900975 0.687953
79.950722 -150.872421 0.458050 0.770031
79.950722 -150.872421 0.011777 0.763302
77.972870 -152.252609 -0.000008 0.522240
76.552895 -153.243484 -0.000007 0.531319
75.506729 -153.973526 -0.000006 0.524575
79.977028 -150.967880 5.349206 0.721736
79.977028 -150.967880 4.887812 0.815686
79.977028 -150.967880 4.432896 0.696193
79.977028 -150.967880 3.983368 0.726162
79.977020 -150.967896 3.538184 0.725978
79.909531 -151.014282 3.089626 0.467247
79.950722 -150.985977 2.655295 0.736507
79.950722 -150.985977 2.218276 0.669337
79.950722 -150.985977 1.781724 0.589746
79.950722 -150.985977 1.344704 0.737636
79.950722 -150.985977 0.906276 0.677867
79.950722 -150.985977 0.465488 0.773358
79.950722 -150.985977 0.021368 0.736782
78.016563 -152.315689 -0.000008 0.546120
76.589706 -153.296631 -0.000007 0.527840
75.538467 -154.019348 -0.000006 0.530861
79.977036 -151.080627 5.333290 0.627588
79.977036 -151.080627 4.874088 0.754726
79.977028 -151.080627 4.421333 0.661799
79.977028 -151.080627 3.973942 0.615854
79.977028 -151.080627 3.530874 0.654398
79.909531 -151.126343 3.084447 0.481193
79.950722 -151.098434 2.652181 0.634714
79.950722 -151.098434 2.217239 0.804959
79.950722 -151.098434 1.782761 0.573190
79.950722 -151.098434 1.347818 0.696162
79.950722 -151.098434 0.911474 0.736355
79.950722 -151.098434 0.472781 0.738720
79.950722 -151.098434 0.030771 0.798154
78.059814 -152.379074 -0.000008 0.525093
76.626144 -153.350037 -0.000007 0.522057
75.569885 -154.065399 -0.000006 0.506874
79.977028 -151.192307 5.317683 0.665919
79.977028 -151.192291 4.860631 0.653742
79.977028 -151.192307 4.409998 0.609369
79.977028 -151.192307 3.964700 0.648157
79.977028 -151.192307 3.523707 0.637247
79.909538 -151.237320 3.079370 0.472709
79.950722 -151.209854 2.649128 0.618448
79.950722 -151.209854 2.216221 0.803525
79.950722 -151.209854 1.783778 0.742992
79.950722 -151.209854 1.350872 0.669337
79.950722 -151.209854 0.916570 0.653696
79.950722 -151.209854 0.479931 0.805280
79.950722 -151.209854 0.039991 0.744961
78.102623 -152.442764 -0.000008 0.518898
76.662209 -153.403687 -0.000007 0.540978
75.600983 -154.111664 -0.000006 0.529595
79.977028 -151.302948 5.302383 0.399908
79.977028 -151.302948 4.847440 0.567071
79.977028 -151.302948 4.398884 0.742855
79.977028 -151.302948 3.955640 0.488151
79.977028 -151.302948 3.516680 0.670985
79.909531 -151.347290 3.074392 0.512337
79.950722 -151.320221 2.646135 0.534279
79.950729 -151.320221 2.215225 0.652140
79.950722 -151.320221 1.784776 0.766979
79.950722 -151.320221 1.353865 0.789685
79.950722 -151.320221 0.921566 0.653895
79.950722 -151.320221 0.486941 0.678203
79.950722 -151.320221 0.049029 0.721752
78.144989 -152.506744 -0.000009 0.554162
76.697899 -153.457596 -0.000007 0.574090
75.631752 -154.158142 -0.000006 0.532723
79.977028 -151.412567 5.287384 0.583337
79.977028 -151.412567 4.834506 0.662989
79.977028 -151.412567 4.387988 0.723522
79.977028 -151.412567 3.946757 0.702525
79.977028 -151.412567 3.509791 0.643656
79.909531 -151.456253 3.069512 0.495216
79.950722 -151.429596 2.643200 0.498726
79.950722 -151.429596 2.214247 0.674571
79.950722 -151.429596 1.785753 0.679438
79.950722 -151.429596 1.356800 0.754314
79.950722 -151.429596 0.926465 0.730053
79.950722 -151.429596 0.493814 0.671901
79.950722 -151.429596 0.057891 0.595117
78.186897 -152.571014 -0.000008 0.523354
76.733208 -153.511749 -0.000007 0.511635
75.662201 -154.204834 -0.000006 0.509651
79.977028 -151.521210 5.272678 0.777935
79.977028 -151.521225 4.821826 0.642435
79.977028 -151.521210 4.377306 0.610285
79.977028 -151.521210 3.938049 0.723064
79.977028 -151.521210 3.503037 0.777264
79.909531 -151.564224 3.064728 0.455055
79.950722 -151.537979 2.640323 0.527291
79.950729 -151.537979 2.213289 0.690120
79.950729 -151.537979 1.786711 0.607050
79.950722 -151.537979 1.359677 0.768872
79.950729 -151.537979 0.931267 0.700084
79.950722 -151.537979 0.500551 0.666468
79.950722 -151.537979 0.066578 0.570443
78.228363 -152.635590 -0.000008 0.556451
76.768143 -153.566147 -0.000007 0.557885
75.692322 -154.251740 -0.000006 0.542046
79.977028 -151.628906 5.258261 0.747662
79.977028 -151.628906 4.809396 0.738201
79.977028 -151.628906 4.366833 0.625299
79.977028 -151.628906 3.929511 0.720394
79.977028 -151.628906 3.496416 0.683177
79.909531 -151.671249 3.060038 0.470375
79.950722 -151.645401 2.637502 0.534112
79.950722 -151.645401 2.212349 0.669673
79.950722 -151.645401 1.787651 0.448707
79.950722 -151.645401 1.362498 0.718044
79.950722 -151.645401 0.935975 0.436469
79.950722 -151.645401 0.507156 0.614572
79.950722 -151.645401 0.075095 0.628168
78.269379 -152.700439 -0.000008 0.553613
76.802696 -153.620789 -0.000007 0.571572
75.722115 -154.298843 -0.000006 0.566705
79.977028 -151.735641 5.244128 0.740734
79.977028 -151.735641 4.797211 0.754818
79.977028 -151.735641 4.356567 0.771786
79.977028 -151.735641 3.921141 0.737362
79.977028 -151.735641 3.489926 0.806287
79.909531 -151.777344 3.055440 0.476951
79.950729 -151.751892 2.634737 0.597101
79.950722 -151.751892 2.211428 0.620066
79.950722 -151.751892 1.788572 0.694545
79.950722 -151.751892 1.365263 0.741253
79.950722 -151.751892 0.940590 0.759518
79.950722 -151.751892 0.513631 0.687388
79.950722 -151.751892 0.083445 0.631159
78.309937 -152.765579 -0.000008 0.545983
76.836868 -153.675659 -0.000007 0.544060
75.751579 -154.346161 -0.000006 0.557260
80.096497 -151.768799 5.265302 0.723125
80.096504 -151.768799 4.815466 0.642893
80.096504 -151.768799 4.371947 0.793301
80.096497 -151.768814 3.933680 0.703532
80.096504 -151.768799 3.499650 0.789059
79.909531 -151.882523 3.050932 0.409232
79.950729 -151.857468 2.632026 0.742885
79.950729 -151.857468 2.210525 0.643107
79.950722 -151.857468 1.789475 0.734478
79.950722 -151.857468 1.367974 0.636759
79.950722 -151.857468 0.945114 0.680476
79.950722 -151.857468 0.519979 0.650690
79.950722 -151.857468 0.091629 0.779187
78.350044 -152.831009 -0.000008 0.537469
76.870651 -153.730774 -0.000007 0.536950
75.780708 -154.393692 -0.000006 0.526574
80.273682 -151.768799 5.303302 0.605890
80.273682 -151.768799 4.848231 0.616297
80.273682 -151.768799 4.399550 0.786099
80.273682 -151.768799 3.956184 0.562264
80.273682 -151.768799 3.517102 0.740642
79.909531 -151.986816 3.046515 0.416266
79.950729 -151.962143 2.629369 0.758572
79.950722 -151.962143 2.209640 0.630991
79.950722 -151.962143 1.790360 0.727489
79.950729 -151.962143 1.370631 0.623438
79.950722 -151.962143 0.949549 0.568872
79.950722 -151.962143 0.526201 0.711696
79.950729 -151.962143 0.099651 0.796567
78.389687 -152.896713 -0.000009 0.558724
76.904053 -153.786133 -0.000007 0.576120
75.809509 -154.441406 -0.000006 0.534707
80.598694 -151.684158 5.384125 0.777935
80.598694 -151.684158 4.917921 0.794385
80.598694 -151.684158 4.458261 0.821103
80.598686 -151.684158 4.004046 0.765988
80.598686 -151.684158 3.554221 0.770581
79.909531 -152.090225 3.042184 0.448661
79.950729 -152.065948 2.626765 0.665537
79.950729 -152.065948 2.208773 0.620752
79.950729 -152.065948 1.791227 0.732982
79.950729 -152.065964 1.373235 0.688975
79.950729 -152.065964 0.953895 0.722042
79.950722 -152.065964 0.532299 0.699031
79.950722 -152.065964 0.107515 0.773495
78.428871 -152.962692 -0.000008 0.520745
76.937065 -153.841705 -0.000007 0.499290
75.837975 -154.489334 -0.000006 0.528649
80.786713 -151.684158 5.424786 0.646601
80.786713 -151.684158 4.952980 0.634012
80.786713 -151.684158 4.487797 0.663233
80.786713 -151.684158 4.028125 0.696483
80.786713 -151.684158 3.572895 0.650095
79.909531 -152.192810 3.037940 0.431815
79.950729 -152.168915 2.624213 0.697047
79.950729 -152.168915 2.207922 0.615549
79.950729 -152.168915 1.792078 0.793896
79.950729 -152.168915 1.375787 0.671595
79.950729 -152.168915 0.958156 0.739116
79.950722 -152.168915 0.538277 0.776471
79.950722 -152.168915 0.115222 0.703090
78.467598 -153.028931 -0.000008 0.526085
76.969696 -153.897522 -0.000007 0.551522
75.866104 -154.537460 -0.000006 0.526436
80.979317 -151.684158 5.466605 0.812711
80.979317 -151.684158 4.989038 0.820508
80.979309 -151.684158 4.518175 0.840421
80.979309 -151.684158 4.052890 0.821256
80.979309 -151.684158 3.592102 0.809461
79.909531 -152.294556 3.033780 0.480568
79.950729 -152.271042 2.621711 0.388403
79.950722 -152.271042 2.207089 0.548455
79.950722 -152.271042 1.792911 0.788281
79.950729 -152.271042 1.378289 0.417365
79.950722 -152.271042 0.962331 0.436332
79.950722 -152.271042 0.544135 0.696345
79.950722 -152.271042 0.122776 0.556390
78.505859 -153.095459 -0.000008 0.556329
77.001923 -153.953568 -0.000007 0.527993
75.893898 -154.585785 -0.000006 0.551751
81.176689 -151.684158 5.509631 0.806088
81.176689 -151.684158 5.026136 0.831891
81.176689 -151.684158 4.549430 0.782330
81.176682 -151.684158 4.078369 0.808972
81.176682 -151.684158 3.611861 0.825437
79.909531 -152.395493 3.029703 0.459770
79.950729 -152.372360 2.619259 0.601801
79.950729 -152.372360 2.206272 0.598627
79.950722 -152.372360 1.793728 0.806241
79.950729 -152.372360 1.380740 0.618769
79.950722 -152.372360 0.966423 0.802991
79.950722 -152.372360 0.549876 0.783902
79.950722 -152.372360 0.130179 0.702739
78.543655 -153.162231 -0.000008 0.537011
77.033768 -154.009827 -0.000007 0.549233
75.921349 -154.634293 -0.000006 0.523369
81.379036 -151.684158 5.553916 0.856687
81.379036 -151.684158 5.064320 0.850111
81.379028 -151.684158 4.581598 0.842176
81.379028 -151.684158 4.104594 0.864286
81.379028 -151.684158 3.632200 0.856214
79.909531 -152.495636 3.025708 0.432547
79.950729 -152.472885 2.616857 0.591043
79.950729 -152.472885 2.205472 0.561028
79.950729 -152.472885 1.794528 0.658320
79.950729 -152.472885 1.383143 0.605127
79.950729 -152.472885 0.970433 0.770062
79.950722 -152.472885 0.555501 0.606439
79.950722 -152.472885 0.137433 0.667460
78.580986 -153.229279 -0.000009 0.543008
77.065216 -154.066315 -0.000007 0.588525
75.948471 -154.682999 -0.000006 0.541024
81.586563 -151.684158 5.599508 0.773404
81.586563 -151.684158 5.103631 0.833371
81.586555 -151.684158 4.614717 0.807752
81.586555 -151.684158 4.131594 0.827604
81.586555 -151.684158 3.653140 0.782834
79.950729 -152.572647 3.025638 0.659373
79.950729 -152.572647 2.614503 0.568719
79.950729 -152.572647 2.204688 0.557900
79.950729 -152.572647 1.795312 0.709575
79.950729 -152.572647 1.385497 0.567941
79.950722 -152.572647 0.974362 0.752300
79.950729 -152.572647 0.561014 0.591882
79.950722 -152.572647 0.144541 0.660090
78.617851 -153.296585 -0.000009 0.552102
77.096268 -154.123016 -0.000007 0.525505
75.975243 -154.731888 -0.000006 0.543862
81.799492 -151.684158 5.646466 0.856291
81.913925 -151.623047 5.172140 0.803540
82.004601 -151.574600 4.691140 0.807843
82.004601 -151.574600 4.193896 0.807843
81.799484 -151.684158 3.674706 0.826474
79.950729 -152.671646 3.021788 0.686137
79.950729 -152.671646 2.612197 0.539559
79.950729 -152.671646 2.203919 0.641474
79.950729 -152.671646 1.796080 0.772290
79.950729 -152.671646 1.387803 0.670329
79.950729 -152.671646 0.978211 0.736660
79.950729 -152.671646 0.566415 0.568795
79.950722 -152.671646 0.151505 0.771221
78.654236 -153.364136 -0.000008 0.529732
77.126930 -154.179932 -0.000007 0.522835
76.001678 -154.780960 -0.000006 0.548501
82.018059 -151.684158 5.694847 0.736294
82.134438 -151.623047 5.214228 0.805753
82.226669 -151.574600 4.726847 0.807843
82.226669 -151.574600 4.223005 0.807843
82.018059 -151.684158 3.696926 0.700435
79.950729 -152.769913 3.018017 0.524361
79.950729 -152.769913 2.609937 0.476722
79.950729 -152.769913 2.203167 0.628397
79.950729 -152.769913 1.796833 0.775509
79.950729 -152.769913 1.390063 0.535821
79.950729 -152.769913 0.981982 0.518868
79.950729 -152.769913 0.571706 0.511223
79.950729 -152.769913 0.158327 0.751781
78.690155 -153.431961 -0.000008 0.540215
77.157188 -154.237061 -0.000007 0.536538
76.027771 -154.830215 -0.000006 0.543954
82.242516 -151.684174 5.744714 0.815396
82.306648 -151.651062 5.244422 0.801801
82.454712 -151.574600 4.763650 0.807843
82.454712 -151.574600 4.253009 0.807843
82.242516 -151.684174 3.719829 0.778561
79.950729 -152.867462 3.014323 0.655344
79.950729 -152.867462 2.607724 0.729030
79.950729 -152.867462 2.202430 0.643458
79.950729 -152.867462 1.797570 0.706737
79.950729 -152.867462 1.392276 0.615854
79.950729 -152.867462 0.985677 0.690196
79.950729 -152.867462 0.576889 0.791638
79.950729 -152.867462 0.165010 0.752987
78.725601 -153.500015 -0.000009 0.523095
77.187042 -154.294403 -0.000007 0.526345
76.053513 -154.879654 -0.000006 0.546960
82.473122 -151.684174 5.796132 0.859663
82.452858 -151.694458 5.268260 0.797391
82.689011 -151.574600 4.801600 0.807843
82.689011 -151.574600 4.283945 0.807843
82.473122 -151.684174 3.743443 0.830228
79.950729 -152.964310 3.010705 0.655146
79.950729 -152.964310 2.605556 0.751354
79.950729 -152.964310 2.201708 0.623926
79.950729 -152.964310 1.798292 0.664652
79.950729 -152.964310 1.394444 0.776471
79.950729 -152.964310 0.989295 0.702968
79.950729 -152.964310 0.581966 0.834531
79.950729 -152.964310 0.171556 0.671321
78.760559 -153.568329 -0.000008 0.566796
77.216507 -154.351944 -0.000007 0.556222
76.078918 -154.929276 -0.000006 0.536309
82.710167 -151.684174 5.849174 0.848478
82.689545 -151.694458 5.313927 0.777844
82.929848 -151.574600 4.840745 0.807843
82.929848 -151.574600 4.315859 0.807843
82.710167 -151.684174 3.767804 0.843595
79.950729 -153.060471 3.007160 0.771847
79.950729 -153.060471 2.603432 0.722683
79.950729 -153.060471 2.201000 0.639796
79.950729 -153.060471 1.798999 0.642329
79.950729 -153.060471 1.396568 0.815381
79.950729 -153.060471 0.992839 0.676707
79.950729 -153.060471 0.586938 0.705943
79.950729 -153.060471 0.177967 0.611414
78.795052 -153.636871 -0.000009 0.545464
77.245560 -154.409698 -0.000007 0.558877
76.103966 -154.979080 -0.000006 0.521843
82.953941 -151.684174 5.903912 0.751583
82.932953 -151.694458 5.361052 0.786786
83.177521 -151.574600 4.881145 0.807843
83.177528 -151.574600 4.348794 0.807843
82.953941 -151.684174 3.792944 0.751232
79.950729 -153.155960 3.003690 0.746838
79.950729 -153.155960 2.601353 0.703700
79.950729 -153.155960 2.200308 0.521660
79.950729 -153.155960 1.799692 0.550469
79.950729 -153.155960 1.398647 0.539590
79.950729 -153.155960 0.996310 0.677791
79.950729 -153.155960 0.591807 0.616175
79.950722 -153.155960 0.184246 0.480842
78.829063 -153.705658 -0.000008 0.550927
77.274216 -154.467651 -0.000007 0.528466
76.128670 -155.029037 -0.000006 0.502602
83.204758 -151.684174 5.960424 0.820340
83.276588 -151.649597 5.432045 0.787549
83.276588 -151.649597 4.891397 0.771679
83.276588 -151.649597 4.357151 0.792233
83.276588 -151.649597 3.828069 0.767147
79.950729 -153.250809 3.000292 0.733333
79.950729 -153.250809 2.599317 0.699016
79.950722 -153.250809 2.199629 0.550546
79.950722 -153.250809 1.800370 0.717311
79.950722 -153.250809 1.400683 0.771862
79.950729 -153.250809 0.999707 0.564202
79.950722 -153.250809 0.596574 0.684871
79.950722 -153.250809 0.190393 0.570520
78.862587 -153.774689 -0.000009 0.523690
77.302460 -154.525803 -0.000007 0.552483
76.153023 -155.079178 -0.000006 0.518318
83.463043 -151.684143 6.018817 0.860792
83.463043 -151.684143 5.465177 0.862089
83.463043 -151.684143 4.919310 0.890364
83.463043 -151.684143 4.379906 0.858686
83.463043 -151.684143 3.845716 0.852018
79.950729 -153.345016 2.996965 0.762875
79.950729 -153.345016 2.597324 0.691295
79.950722 -153.345016 2.198966 0.587976
79.950722 -153.345016 1.801034 0.740673
79.950722 -153.345016 1.402676 0.768566
79.950722 -153.345016 1.003034 0.591714
79.950722 -153.345016 0.601242 0.560540
79.950722 -153.345016 0.196411 0.647166
78.895638 -153.843933 -0.000009 0.538277
77.330299 -154.584137 -0.000007 0.516823
76.177032 -155.129486 -0.000006 0.513420
83.728973 -151.684158 6.079136 0.767544
83.728973 -151.684158 5.517185 0.766415
83.728973 -151.684158 4.963124 0.758968
83.728973 -151.684158 4.415625 0.775784
83.728973 -151.684158 3.873418 0.768826
79.950729 -153.438614 2.993710 0.771328
