# This PCD file was generated using the MATLABÂ® pcwrite function
# from Computer Vision ToolboxÂ®.
# .PCD v.7 - Point Cloud Data file format
VERSION .7
FIELDS x y z intensity
SIZE 4 4 4 4
TYPE F F F F
COUNT 1 1 1 1
WIDTH 1381
HEIGHT 1
VIEWPOINT 0 0 0 1 0 0 0
POINTS 1381
DATA ascii
20.406563 20.764849 4.698521 0.428031
nan nan nan 0.000000
nan nan nan 0.000000
nan nan nan 0.000000
14.681452 26.061262 0.000048 0.534890
26.660261 14.979427 0.000029 0.547707
31.803284 10.221514 0.000021 0.549065
34.667694 7.571592 0.000016 0.542321
36.496384 5.879837 0.000013 0.526085
37.767387 4.704002 0.000010 0.534890
38.703812 3.837698 0.000009 0.510872
nan nan nan 0.000000
19.254236 22.160957 9.495661 0.463951
nan nan nan 0.000000
22.261362 19.339788 6.536431 0.447776
22.246824 19.353426 5.520485 0.432349
nan nan nan 0.000000
11.195820 29.721043 4.247800 0.476875
nan nan nan 0.000000
nan nan nan 0.000000
14.875170 26.269226 0.000048 0.543252
26.776333 15.104023 0.000029 0.551080
31.886017 10.310318 0.000021 0.544900
34.731853 7.640465 0.000016 0.520806
36.548687 5.935984 0.000013 0.540383
37.811455 4.751304 0.000011 0.523171
38.741810 3.878481 0.000009 0.495888
nan nan nan 0.000000
19.587347 22.178461 9.445959 0.433692
nan nan nan 0.000000
20.345539 21.457138 6.958699 0.462028
22.470385 19.435619 5.508283 0.435248
23.466772 18.487679 4.387763 0.427649
18.046417 23.644459 3.798152 0.423453
nan nan nan 0.000000
nan nan nan 0.000000
15.070356 26.475807 0.000048 0.538613
26.893274 15.227798 0.000029 0.544396
31.969366 10.398540 0.000021 0.535119
34.796494 7.708886 0.000016 0.530190
36.601383 5.991764 0.000013 0.539437
37.855850 4.798295 0.000011 0.527703
38.780090 3.919000 0.000009 0.516915
nan nan nan 0.000000
19.527008 22.571108 9.514039 0.435142
22.424551 19.775665 7.597763 0.423102
22.812399 19.401485 6.483518 0.431876
22.528257 19.675617 5.522575 0.425025
23.605328 18.636497 4.388001 0.436805
19.884960 22.225769 3.684715 0.423331
nan nan nan 0.000000
nan nan nan 0.000000
15.266977 26.681026 0.000049 0.541756
27.011078 15.350758 0.000029 0.534264
32.053329 10.486183 0.000021 0.545815
34.861614 7.776855 0.000016 0.524758
36.654469 6.047174 0.000013 0.563210
37.900574 4.844977 0.000011 0.544228
38.818649 3.959253 0.000009 0.491646
nan nan nan 0.000000
11.986877 30.287651 11.843427 0.491432
20.418331 22.038881 8.146547 0.432792
23.203283 19.314270 6.432915 0.430274
22.930252 19.581387 5.481852 0.436881
22.550358 19.953047 4.525268 0.432837
20.130457 22.320518 3.679308 0.446113
-15.010292 56.699894 3.363839 0.494224
nan nan nan 0.000000
15.465023 26.884869 0.000049 0.532479
27.129738 15.472889 0.000029 0.539483
32.137901 10.573236 0.000021 0.544808
34.927200 7.844368 0.000016 0.589853
36.707939 6.102211 0.000013 0.520485
37.945625 4.891346 0.000011 0.536538
38.857494 3.999231 0.000009 0.530221
11.612053 31.107710 13.627185 0.481910
11.328045 31.389471 12.111803 0.493523
20.593277 22.197515 8.144129 0.426780
24.266876 18.552971 6.241271 0.477028
21.977095 20.824644 5.660342 0.435248
23.841999 18.974489 4.393511 0.439796
20.372122 22.416922 3.674174 0.430655
-14.486877 57.000229 3.361185 0.486152
nan nan nan 0.000000
15.664473 27.087337 0.000049 0.539895
27.249245 15.594191 0.000030 0.550530
32.223083 10.659693 0.000021 0.542443
34.993263 7.911418 0.000016 0.530022
36.761795 6.156876 0.000013 0.533547
37.990993 4.937397 0.000011 0.561120
38.896614 4.038940 0.000009 0.583993
23.402536 19.705677 9.519244 0.471321
20.349316 22.777342 9.418776 0.432471
22.906906 20.204304 7.589976 0.449027
24.351418 18.751066 6.253168 0.467994
23.083761 20.026379 5.505370 0.419608
23.683157 19.423365 4.428739 0.436255
12.618294 30.555067 4.226225 0.493858
-12.797298 56.124180 3.331492 0.644694
-12.770748 56.097469 0.669122 0.647166
15.865345 27.288399 0.000048 0.540398
27.369589 15.714663 0.000029 0.533455
32.308857 10.745558 0.000021 0.531655
35.059792 7.978008 0.000017 0.548501
36.816029 6.211161 0.000013 0.566537
38.036686 4.983131 0.000011 0.554345
38.936012 4.078373 0.000010 0.529625
12.487946 31.139986 13.478245 0.492042
20.087463 23.387054 9.552225 0.443931
20.057947 23.417166 8.370197 0.443259
23.937025 19.459778 6.371169 0.424933
23.247528 20.163195 5.503337 0.484474
24.904591 18.472679 4.302904 0.433967
20.768370 22.692400 3.670049 0.419776
12.252529 31.380156 2.755358 0.662760
12.278141 31.354025 1.245240 0.645365
16.067629 27.488041 0.000050 0.544656
27.490784 15.834280 0.000030 0.533837
32.395241 10.830812 0.000021 0.549142
35.126781 8.044132 0.000016 0.562356
36.870640 6.265068 0.000013 0.544549
38.082695 5.028546 0.000011 0.554086
38.975681 4.117532 0.000009 0.539849
23.806511 19.890804 9.481525 0.433722
20.410391 23.404217 9.506233 0.441321
21.255939 22.529465 8.102407 0.440909
23.284851 20.430481 6.541828 0.634531
19.885185 23.947563 6.085107 0.428443
25.364090 18.279430 4.265269 0.438514
24.395586 19.281385 3.425677 0.444770
18.784840 25.085909 2.606992 0.452995
12.468647 31.620249 1.244293 0.665660
16.271290 27.686272 0.000049 0.544808
27.612808 15.953049 0.000030 0.531518
32.482212 10.915472 0.000021 0.553933
35.194229 8.109789 0.000016 0.544198
36.925625 6.318593 0.000013 0.530022
38.129021 5.073639 0.000011 0.553964
39.015625 4.156411 0.000010 0.549752
12.811415 31.727922 13.527822 0.487831
12.964766 31.567045 11.891720 0.474159
12.193905 32.375751 10.536768 0.454170
23.279667 20.745724 6.576095 0.440467
21.762842 22.337019 5.801859 0.550256
22.526878 21.535473 4.618978 0.430503
nan nan nan 0.000000
19.095509 25.135307 2.604055 0.452949
nan nan nan 0.000000
16.476318 27.883089 0.000050 0.535546
27.735651 16.070971 0.000030 0.527245
32.569771 10.999516 0.000021 0.550332
35.262135 8.174971 0.000016 0.529503
36.980988 6.371728 0.000013 0.557534
38.175655 5.118407 0.000011 0.517143
39.055840 4.195012 0.000010 0.536324
23.944588 20.352793 9.541430 0.471595
13.139542 31.847948 11.909831 0.484504
25.334366 18.874249 7.108944 0.444236
24.896883 19.339672 6.259712 0.464073
25.010878 19.218399 5.284437 0.446586
21.286470 23.180681 4.786866 0.440558
25.232931 18.982162 3.386654 0.461128
19.262764 25.333637 2.604530 0.444358
nan nan nan 0.000000
16.682722 28.078466 0.000049 0.537133
27.859320 16.188030 0.000030 0.537209
32.657917 11.082949 0.000022 0.529610
35.330494 8.239677 0.000016 0.550057
37.036716 6.424479 0.000013 0.529915
38.222607 5.162848 0.000011 0.538705
39.096321 4.233331 0.000009 0.492821
23.992092 20.610729 9.580540 0.429831
21.821100 22.952932 9.225981 0.419898
25.140661 19.371578 7.199147 0.489525
22.128386 22.621414 6.895799 0.434180
23.046329 21.631075 5.641551 0.443793
22.417566 22.309425 4.671357 0.465415
23.993950 20.608725 3.486602 0.434058
nan nan nan 0.000000
nan nan nan 0.000000
16.890488 28.272394 0.000049 0.542535
27.983801 16.304218 0.000030 0.548714
32.746639 11.165768 0.000021 0.531426
35.399307 8.303902 0.000017 0.519127
37.092812 6.476840 0.000013 0.509438
38.269867 5.206960 0.000011 0.550607
39.137070 4.271366 0.000010 0.525048
nan nan nan 0.000000
21.573681 23.569841 9.360205 0.429557
25.574205 19.192923 7.121804 0.427985
25.173140 19.631723 6.263627 0.445029
23.187542 21.804136 5.645199 0.405509
22.582954 22.465609 4.671597 0.435630
24.613586 20.243921 3.452800 0.448218
nan nan nan 0.000000
nan nan nan 0.000000
17.099607 28.464859 0.000050 0.544808
28.109089 16.419544 0.000030 0.528695
32.835938 11.247965 0.000021 0.551354
35.468563 8.367649 0.000016 0.556481
37.149273 6.528808 0.000013 0.541421
38.317432 5.250741 0.000011 0.553048
39.178082 4.309117 0.000009 0.515831
24.028019 21.202011 9.683795 0.427985
24.395905 20.793825 8.506577 0.430228
25.526192 19.539722 7.174403 0.435340
25.024540 20.096327 6.329474 0.431037
25.415955 19.662037 5.290429 0.426108
25.263323 19.831388 4.363947 0.422980
23.205099 22.115074 3.567373 0.539040
nan nan nan 0.000000
nan nan nan 0.000000
17.310062 28.655863 0.000051 0.542382
28.235186 16.533981 0.000030 0.533562
32.925812 11.329535 0.000021 0.528374
35.538261 8.430912 0.000016 0.516594
37.206093 6.580380 0.000013 0.557671
38.365303 5.294187 0.000011 0.558145
39.219357 4.346579 0.000009 0.550271
nan nan nan 0.000000
24.095278 21.448708 8.655273 0.429313
25.711025 19.630606 7.164298 0.441794
24.875330 20.570963 6.396697 0.433341
nan nan nan 0.000000
25.294582 20.099203 4.378602 0.452552
23.917204 21.649082 3.526984 0.563470
nan nan nan 0.000000
nan nan nan 0.000000
17.521851 28.845390 0.000051 0.538476
28.362070 16.647543 0.000030 0.552407
33.016251 11.410473 0.000022 0.541680
35.608398 8.493685 0.000016 0.558556
37.263275 6.631553 0.000013 0.533257
38.413475 5.337300 0.000011 0.546731
39.260895 4.383752 0.000010 0.559030
nan nan nan 0.000000
24.473566 21.343424 8.584164 0.419608
25.909142 19.705164 7.150616 0.439750
26.164808 19.413401 6.141389 0.460517
26.014715 19.584686 5.238020 0.468406
25.784582 19.847309 4.336531 0.435050
23.928036 21.965975 3.538304 0.573449
nan nan nan 0.000000
nan nan nan 0.000000
17.734945 29.033445 0.000051 0.539712
28.489750 16.760212 0.000030 0.541207
33.107258 11.490776 0.000022 0.531594
35.678978 8.555964 0.000016 0.539635
37.320808 6.682328 0.000013 0.548333
38.461945 5.380077 0.000011 0.548791
39.302689 4.420635 0.000009 0.538613
24.645952 21.469437 9.631602 0.434333
nan nan nan 0.000000
23.200293 23.142628 7.946016 0.431968
26.435415 19.398331 6.113354 0.431632
25.895319 20.023432 5.285112 0.428733
25.853174 20.072214 4.346751 0.476616
23.998652 22.218616 3.545390 0.574166
nan nan nan 0.000000
nan nan nan 0.000000
17.949347 29.220013 0.000051 0.538720
28.618214 16.871986 0.000030 0.533867
33.198814 11.570450 0.000021 0.551232
35.749989 8.617750 0.000017 0.520317
37.378700 6.732698 0.000013 0.545998
38.510719 5.422512 0.000011 0.573571
39.344742 4.457224 0.000010 0.524193
24.560972 21.897181 9.726782 0.445548
24.328270 22.170340 8.739824 0.437400
nan nan nan 0.000000
26.453087 19.676113 6.142920 0.433906
25.906670 20.317528 5.309940 0.422309
25.884914 20.343065 4.361912 0.567773
23.819918 22.767073 3.571557 0.576318
20.728031 26.396500 2.601499 0.556161
nan nan nan 0.000000
18.165051 29.405067 0.000051 0.540291
28.747448 16.982864 0.000030 0.537820
33.290932 11.649477 0.000022 0.521096
35.821426 8.679039 0.000017 0.516823
37.436939 6.782664 0.000013 0.529671
38.559784 5.464607 0.000011 0.577905
39.387047 4.493520 0.000010 0.529320
23.384109 23.633183 10.249163 0.429267
24.497839 22.307184 8.738737 0.447318
24.164602 22.703934 7.771462 0.565698
26.253819 20.216524 6.223212 0.496117
25.926409 20.606339 5.333840 0.515953
nan nan nan 0.000000
nan nan nan 0.000000
20.001818 27.660118 2.624960 0.488579
nan nan nan 0.000000
18.382050 29.588606 0.000051 0.537148
28.877457 17.092836 0.000030 0.553506
33.383595 11.727859 0.000021 0.526574
35.893295 8.739828 0.000017 0.548638
37.495525 6.832222 0.000013 0.517937
38.609138 5.506359 0.000011 0.557763
39.429604 4.529519 0.000010 0.567483
24.383928 22.786266 9.925841 0.434028
25.047209 21.985281 8.609350 0.428473
24.009043 23.238983 7.864358 0.444862
26.316387 20.452606 6.244162 0.437537
26.180159 20.617117 5.316096 0.473289
26.082262 20.735336 4.376134 0.452659
nan nan nan 0.000000
23.371334 24.009089 2.543763 0.521996
nan nan nan 0.000000
23.221693 24.189796 0.356019 0.591531
29.008232 17.201899 0.000030 0.547906
33.476803 11.805597 0.000021 0.538521
35.965584 8.800114 0.000017 0.548959
37.554459 6.881366 0.000014 0.559396
38.658787 5.547762 0.000011 0.545342
39.472412 4.565219 0.000010 0.556390
24.629642 22.834591 9.896101 0.438254
26.344460 20.734074 8.222668 0.431495
26.108692 21.022869 7.310248 0.440375
27.392918 19.449795 6.027842 0.435981
27.226587 19.653536 5.154016 0.433249
26.327480 20.754873 4.364602 0.443671
nan nan nan 0.000000
23.702522 23.970240 2.539830 0.555276
23.544779 24.163464 1.456089 0.512276
23.662716 24.018999 0.376261 0.598856
29.139769 17.310040 0.000031 0.537499
33.570553 11.882677 0.000021 0.539727
36.038284 8.859898 0.000017 0.549432
37.613728 6.930103 0.000014 0.554940
38.708725 5.588819 0.000011 0.550225
39.515469 4.600621 0.000010 0.555367
25.611427 21.965696 9.572166 0.456825
26.463779 20.906624 8.235392 0.439643
26.281487 21.133129 7.306036 0.440269
26.696173 20.617870 6.227525 0.464927
26.357645 21.038502 5.340736 0.432837
24.676882 23.126896 4.600919 0.453956
26.123659 21.329233 3.444957 0.458106
23.879539 24.117619 2.539880 0.550286
23.794453 24.223341 1.457900 0.591501
23.906595 24.083998 0.381324 0.540398
29.272049 17.417271 0.000031 0.540185
33.664841 11.959101 0.000022 0.539651
36.111408 8.919170 0.000016 0.526284
37.673344 6.978421 0.000014 0.526818
38.758945 5.629528 0.000011 0.552453
39.558769 4.635722 0.000010 0.587976
25.533878 22.402998 9.669865 0.465263
25.361778 22.619923 8.673054 0.419684
26.555620 21.115150 7.272342 0.472313
27.162264 20.350512 6.153383 0.523629
26.995186 20.561102 5.252046 0.409064
25.102171 22.947142 4.567636 0.492058
25.779274 22.093691 3.484858 0.500084
24.344364 23.902313 2.532379 0.432944
23.961466 24.384935 1.457540 0.498817
24.074831 24.242046 0.380418 0.555840
29.405075 17.523573 0.000031 0.545342
33.759655 12.034868 0.000022 0.534386
36.184944 8.977928 0.000016 0.555230
37.733288 7.026326 0.000013 0.544076
38.809448 5.669886 0.000011 0.529000
39.602318 4.670520 0.000009 0.529976
26.372250 21.677988 9.397255 0.436316
23.901623 24.837124 9.244379 0.440330
26.039633 22.103298 7.471682 0.470741
25.556038 22.721661 6.577120 0.605142
26.429041 21.605373 5.386720 0.421347
26.411188 21.628201 4.416263 0.431373
25.411579 22.906376 3.527399 0.452995
25.344444 22.992222 2.510553 0.597955
24.283834 24.348396 1.461274 0.568643
24.195189 24.461750 0.375597 0.600031
29.538845 17.628935 0.000031 0.550179
33.854996 12.109972 0.000021 0.539559
36.258888 9.036173 0.000017 0.558145
37.793568 7.073808 0.000014 0.515923
38.860233 5.709887 0.000011 0.561990
39.646103 4.705012 0.000009 0.562722
24.618923 24.290159 10.183426 0.440696
23.051195 26.323879 9.610659 0.439414
23.312927 25.984348 8.333750 0.443870
nan nan nan 0.000000
26.369442 22.019318 5.428540 0.443580
26.563768 21.767229 4.417594 0.432547
25.639042 22.966824 3.522891 0.429145
24.849426 23.991144 2.528433 0.449638
24.550030 24.379534 1.463543 0.568048
24.271063 24.741421 0.367031 0.515831
29.673344 17.733368 0.000030 0.551324
33.950867 12.184399 0.000022 0.541161
36.333233 9.093899 0.000017 0.542473
37.854179 7.120868 0.000014 0.534325
38.911297 5.749534 0.000011 0.504540
39.690132 4.739196 0.000010 0.530526
26.530508 22.151247 9.466944 0.434531
26.163471 22.634321 8.569313 0.436912
24.537169 24.774765 8.023583 0.434287
26.300339 22.454184 6.478289 0.469947
26.980459 21.559050 5.343770 0.455314
26.578041 22.088690 4.437814 0.437827
21.780176 28.403351 3.850202 0.442298
23.704725 25.870377 2.564238 0.524376
24.799810 24.429090 1.465384 0.560388
19.936121 30.830389 0.000052 0.539574
29.808571 17.836859 0.000031 0.543374
34.047249 12.258165 0.000022 0.546227
36.407986 9.151102 0.000017 0.537728
37.915119 7.167505 0.000014 0.566598
38.962635 5.788826 0.000011 0.550546
39.734402 4.773072 0.000010 0.527520
26.749992 22.205341 9.444652 0.443320
26.185453 22.959223 8.622475 0.521767
26.596430 22.410408 7.454484 0.425483
nan nan nan 0.000000
27.008425 21.860233 5.369494 0.422339
26.878691 22.033478 4.419354 0.434928
nan nan nan 0.000000
25.462929 23.924076 2.521484 0.446769
25.030191 24.501949 1.466702 0.597269
20.163008 31.001547 0.000052 0.539239
29.944510 17.939409 0.000031 0.528450
34.144142 12.331253 0.000022 0.548470
36.483131 9.207787 0.000017 0.557610
37.976379 7.213716 0.000014 0.525536
39.014248 5.827754 0.000011 0.523461
39.778900 4.806641 0.000010 0.556542
26.969389 22.257479 9.422345 0.450980
26.558184 22.814663 8.549391 0.436057
26.960762 22.269169 7.394309 0.436347
26.396030 23.034382 6.538671 0.435798
24.137157 26.095171 5.957551 0.468986
26.804104 22.481441 4.452481 0.411032
nan nan nan 0.000000
nan nan nan 0.000000
25.237591 24.604076 1.467386 0.586877
20.391098 31.171106 0.000052 0.538231
30.081173 18.040993 0.000031 0.545190
34.241547 12.403664 0.000022 0.530800
36.558670 9.263943 0.000017 0.537285
38.037960 7.259496 0.000014 0.539452
39.066128 5.866324 0.000011 0.546715
39.823635 4.839899 0.000009 0.544503
27.051189 22.496716 9.458578 0.421897
26.827799 22.803879 8.513096 0.433585
26.970478 22.607695 7.442953 0.454307
23.650537 27.172596 7.274536 0.455238
23.838263 26.914474 6.053905 0.431083
27.203947 22.286676 4.420222 0.433692
nan nan nan 0.000000
nan nan nan 0.000000
25.435875 24.717768 1.467802 0.583795
20.620359 31.339075 0.000052 0.539864
30.218540 18.141626 0.000031 0.541848
34.339455 12.475391 0.000022 0.536812
36.634602 9.319574 0.000017 0.540200
38.099861 7.304846 0.000014 0.527657
39.118279 5.904531 0.000011 0.527260
39.868599 4.872840 0.000010 0.552911
26.857574 23.123739 9.614309 0.462257
26.600508 23.482447 8.660659 0.463523
27.600582 22.086969 7.299020 0.571511
nan nan nan 0.000000
27.781052 21.835148 5.314634 0.441932
nan nan nan 0.000000
22.519913 29.176390 3.859181 0.576379
nan nan nan 0.000000
nan nan nan 0.000000
20.850790 31.505434 0.000052 0.538705
30.356598 18.241301 0.000031 0.533730
34.437859 12.546434 0.000022 0.547311
36.710915 9.374672 0.000017 0.530495
38.162079 7.349763 0.000014 0.534218
39.170692 5.942371 0.000011 0.515053
39.913795 4.905468 0.000010 0.537545
27.628130 22.400427 9.354788 0.443809
27.484638 22.603634 8.395304 0.439017
nan nan nan 0.000000
24.223579 27.221773 7.230948 0.463111
25.930174 24.804985 5.716459 0.458686
27.565981 22.488438 4.416378 0.449699
22.825354 29.201874 3.851502 0.434256
nan nan nan 0.000000
26.531019 23.954098 1.488399 0.575814
21.082375 31.670187 0.000052 0.540139
30.495358 18.340010 0.000031 0.536522
34.536755 12.616789 0.000022 0.530358
36.787617 9.429235 0.000017 0.535286
38.224606 7.394245 0.000014 0.529458
39.223370 5.979846 0.000011 0.544701
39.959217 4.937780 0.000010 0.535164
26.019665 25.071262 10.133881 0.438956
27.505512 22.935593 8.451427 0.459113
28.012016 22.207575 7.273763 0.416922
27.038671 23.606604 6.552135 0.434501
27.965258 22.274784 5.343725 0.419959
27.492773 22.953905 4.451077 0.472328
27.788517 22.528818 3.443103 0.435492
27.140377 23.460417 2.499262 0.444327
nan nan nan 0.000000
26.570179 24.279985 0.452095 0.440696
30.634800 18.437744 0.000031 0.536889
34.636143 12.686451 0.000022 0.558892
36.864697 9.483259 0.000017 0.545602
38.287445 7.438288 0.000014 0.583276
39.276310 6.016953 0.000011 0.525185
40.004860 4.969774 0.000010 0.564492
26.067200 25.402885 10.195469 0.436103
27.813454 22.855169 8.399341 0.429862
27.322035 23.572132 7.549413 0.443915
27.358515 23.518908 6.514472 0.439246
nan nan nan 0.000000
25.754824 25.858629 4.728038 0.575082
nan nan nan 0.000000
27.172558 23.790211 2.503404 0.449516
nan nan nan 0.000000
21.548985 31.994791 0.000053 0.541619
30.774914 18.534510 0.000031 0.546258
34.736015 12.755417 0.000022 0.547021
36.942150 9.536745 0.000017 0.546044
38.350586 7.481893 0.000014 0.535622
39.329506 6.053686 0.000012 0.539879
40.050728 5.001448 0.000010 0.545769
25.654392 26.422445 10.464788 0.429419
26.317410 25.440498 9.042763 0.433616
28.513714 22.187710 7.219170 0.426978
27.388285 23.854502 6.553147 0.511925
nan nan nan 0.000000
nan nan nan 0.000000
27.920099 23.066868 3.461252 0.444938
24.673719 27.874851 2.581668 0.508354
nan nan nan 0.000000
21.783964 32.154663 0.000053 0.545144
30.915710 18.630283 0.000032 0.531395
34.836365 12.823685 0.000022 0.532509
37.019978 9.589691 0.000017 0.538903
38.414032 7.525054 0.000014 0.539010
39.382957 6.090049 0.000011 0.568307
40.096817 5.032801 0.000010 0.555459
26.408678 25.714340 10.212259 0.449500
25.940065 26.418924 9.263681 0.431312
25.974205 26.367596 8.108219 0.449851
27.542959 24.008884 6.559400 0.512612
26.962671 24.881378 5.656549 0.436194
26.132315 26.129869 4.729149 0.434012
28.358988 22.781940 3.437621 0.455375
27.907276 23.461115 2.492212 0.431968
nan nan nan 0.000000
22.020061 32.312878 0.000053 0.531929
31.057163 18.725082 0.000031 0.540139
34.937187 12.891245 0.000023 0.527443
37.098167 9.642090 0.000017 0.540658
38.477776 7.567771 0.000014 0.537224
39.436661 6.126038 0.000012 0.509896
40.143120 5.063833 0.000010 0.542290
nan nan nan 0.000000
26.123240 26.567780 9.268719 0.435416
25.792824 27.072180 8.233397 0.428061
27.803692 24.002466 6.537299 0.453468
nan nan nan 0.000000
28.415838 23.067986 4.416472 0.425650
27.835455 23.953976 3.499843 0.433799
28.117702 23.523108 2.491162 0.459922
nan nan nan 0.000000
22.257269 32.469425 0.000053 0.539223
31.199284 18.818886 0.000032 0.537118
35.038483 12.958109 0.000023 0.537896
37.176727 9.693945 0.000017 0.549615
38.541821 7.610043 0.000014 0.537575
39.490616 6.161652 0.000011 0.555871
40.189644 5.094540 0.000010 0.560616
nan nan nan 0.000000
26.289547 26.743391 9.280941 0.441993
28.477596 23.351776 7.399572 0.447868
28.024166 24.054623 6.525959 0.427619
27.332268 25.127108 5.656898 0.457389
nan nan nan 0.000000
28.903114 22.692198 3.419284 0.439109
28.329767 23.580923 2.490064 0.428489
27.347664 25.103243 1.480291 0.486305
22.495541 32.624348 0.000053 0.544015
31.342049 18.911694 0.000032 0.541115
35.140236 13.024260 0.000023 0.539742
37.255642 9.745247 0.000017 0.538109
38.606155 7.651867 0.000014 0.550484
39.544815 6.196887 0.000011 0.564645
40.236378 5.124921 0.000010 0.584710
nan nan nan 0.000000
nan nan nan 0.000000
28.533705 23.649801 7.439737 0.431754
28.010267 24.473734 6.579429 0.437079
25.248701 28.820656 6.143991 0.441566
26.763134 26.436819 4.722060 0.430503
26.055735 27.550320 3.695709 0.459266
28.235655 24.118956 2.498309 0.426841
27.281506 25.620863 1.472573 0.586191
22.734901 32.777580 0.000053 0.542473
31.485458 19.003506 0.000032 0.542443
35.242455 13.089701 0.000023 0.535409
37.334915 9.796001 0.000017 0.532067
38.670780 7.693243 0.000014 0.534600
39.599258 6.231745 0.000011 0.505501
40.283325 5.154975 0.000010 0.560739
nan nan nan 0.000000
28.685650 23.800457 8.466913 0.460609
28.919838 23.426075 7.367833 0.455756
nan nan nan 0.000000
27.098675 26.337437 5.788836 0.433906
29.248434 22.900772 4.368113 0.484138
26.564098 27.192028 3.667501 0.437613
nan nan nan 0.000000
27.877790 25.091923 1.485099 0.444099
22.975330 32.929134 0.000053 0.540856
31.629509 19.094315 0.000032 0.548226
35.345127 13.154425 0.000022 0.536049
37.414543 9.846197 0.000017 0.553170
38.735695 7.734164 0.000014 0.535637
39.653950 6.266219 0.000012 0.512230
40.330479 5.184700 0.000010 0.552758
nan nan nan 0.000000
nan nan nan 0.000000
29.142788 23.456804 7.351189 0.461463
nan nan nan 0.000000
29.227118 23.319876 5.364759 0.428504
29.458050 22.944904 4.362124 0.518853
25.706907 29.035753 3.766666 0.426490
nan nan nan 0.000000
27.879362 25.508268 1.479325 0.478584
23.216801 33.079021 0.000053 0.536858
31.774183 19.184124 0.000031 0.540917
35.448250 13.218430 0.000022 0.547387
37.494518 9.895834 0.000017 0.528466
38.800896 7.774631 0.000014 0.531380
39.708878 6.300313 0.000012 0.494606
40.377838 5.214098 0.000010 0.470848
nan nan nan 0.000000
28.542807 24.842447 8.674720 0.441855
nan nan nan 0.000000
nan nan nan 0.000000
28.540159 24.846813 5.555858 0.547784
29.691216 22.948244 4.352388 0.431434
27.400274 26.726952 3.626504 0.459327
27.183979 27.083714 2.548607 0.442695
27.875589 25.942961 1.473222 0.441917
23.459316 33.227211 0.000053 0.536065
31.919489 19.272907 0.000031 0.540444
35.551811 13.281717 0.000022 0.536126
37.574837 9.944914 0.000017 0.554223
38.866371 7.814643 0.000014 0.562493
39.764038 6.334020 0.000012 0.552941
40.425404 5.243161 0.000010 0.540398
nan nan nan 0.000000
nan nan nan 0.000000
nan nan nan 0.000000
29.529413 23.610218 6.352172 0.429694
28.774509 24.875200 5.544760 0.444770
29.906483 22.978367 4.345407 0.423789
nan nan nan 0.000000
27.189398 27.531353 2.554839 0.452964
28.905645 24.655458 1.499965 0.452369
23.702862 33.373703 0.000053 0.542229
32.065407 19.360680 0.000031 0.533944
35.655815 13.344275 0.000022 0.528283
37.655499 9.993433 0.000017 0.533120
38.932129 7.854196 0.000014 0.563775
39.819439 6.367342 0.000011 0.547784
40.473167 5.271895 0.000010 0.546777
nan nan nan 0.000000
nan nan nan 0.000000
nan nan nan 0.000000
29.660046 23.792248 6.365537 0.420218
26.190313 29.699772 6.173813 0.443687
29.960041 23.281479 4.364555 0.494316
28.066509 26.505383 3.600383 0.436088
27.515272 27.443913 2.550891 0.443458
29.059116 24.815382 1.498992 0.428519
23.947416 33.518501 0.000053 0.540597
32.211933 19.447433 0.000031 0.528756
35.760254 13.406111 0.000022 0.539956
37.736496 10.041384 0.000017 0.538048
38.998158 7.893291 0.000014 0.565026
39.875069 6.400277 0.000012 0.542657
40.521133 5.300292 0.000010 0.515831
nan nan nan 0.000000
nan nan nan 0.000000
nan nan nan 0.000000
29.448341 24.569098 6.480912 0.438285
28.955902 25.421082 5.588341 0.445686
30.148436 23.357841 4.362189 0.464744
28.304800 26.547579 3.596281 0.510689
28.313942 26.531761 2.531415 0.434195
29.217005 24.969343 1.498116 0.431983
24.192980 33.661583 0.000053 0.537423
32.359062 19.533163 0.000031 0.536919
35.865120 13.467209 0.000022 0.554116
37.817822 10.088772 0.000017 0.564874
39.064461 7.931921 0.000014 0.574670
39.930923 6.432823 0.000012 0.555978
40.569294 5.328355 0.000010 0.536812
nan nan nan 0.000000
nan nan nan 0.000000
nan nan nan 0.000000
29.715279 24.526321 6.455712 0.432761
27.641222 28.173248 5.938238 0.431266
30.332302 23.441374 4.360632 0.432349
nan nan nan 0.000000
29.751495 24.462641 2.490340 0.432166
28.903749 25.953278 1.481598 0.446571
24.439548 33.802929 0.000053 0.539437
32.506786 19.617861 0.000031 0.538231
35.970413 13.527575 0.000022 0.545022
37.899483 10.135590 0.000018 0.555230
39.131031 7.970088 0.000014 0.544106
39.987007 6.464977 0.000012 0.532280
40.617653 5.356080 0.000010 0.556786
nan nan nan 0.000000
nan nan nan 0.000000
nan nan nan 0.000000
nan nan nan 0.000000
29.110630 26.036467 5.641083 0.440497
28.313629 27.460930 4.729020 0.433021
28.749441 26.682013 3.591223 0.439475
30.138542 24.199308 2.483475 0.438254
nan nan nan 0.000000
24.687086 33.942566 0.000053 0.540948
32.655098 19.701523 0.000031 0.538155
36.076126 13.587206 0.000023 0.535698
37.981464 10.181835 0.000018 0.537591
39.197868 8.007790 0.000014 0.521508
40.043312 6.496742 0.000012 0.532967
40.666203 5.383467 0.000010 0.531212
nan nan nan 0.000000
nan nan nan 0.000000
nan nan nan 0.000000
29.653870 25.507700 6.587205 0.436896
29.411869 25.947395 5.615306 0.432776
28.461672 27.673838 4.738395 0.441276
16.449659 49.498817 4.864545 0.489754
30.158230 24.591316 2.488927 0.445930
nan nan nan 0.000000
24.935596 34.080471 0.000053 0.543526
32.804001 19.784136 0.000032 0.543786
36.182247 13.646101 0.000022 0.549889
38.063770 10.227509 0.000017 0.543282
39.264965 8.045023 0.000014 0.502815
40.099842 6.528107 0.000012 0.528130
40.714943 5.410513 0.000010 0.545098
nan nan nan 0.000000
nan nan nan 0.000000
nan nan nan 0.000000
nan nan nan 0.000000
16.416746 50.414726 8.802230 0.488533
28.612106 27.885704 4.747734 0.404257
16.979933 49.374325 4.846695 0.469154
29.649578 25.969135 2.512706 0.441489
nan nan nan 0.000000
25.185059 34.216640 0.000053 0.535760
32.953465 19.865723 0.000032 0.546410
36.288780 13.704248 0.000022 0.527108
38.146389 10.272606 0.000018 0.534600
39.332317 8.081789 0.000014 0.535729
40.156586 6.559083 0.000012 0.562707
40.763870 5.437220 0.000010 0.537636
nan nan nan 0.000000
nan nan nan 0.000000
16.746746 50.673283 12.771916 0.473854
29.902056 25.960337 6.628726 0.463066
16.536156 51.068886 8.862040 0.505409
28.992620 27.668758 4.717304 0.442771
16.992861 50.210941 4.882608 0.480980
29.697819 26.344007 2.517738 0.455863
nan nan nan 0.000000
25.435467 34.351063 0.000053 0.539452
33.103493 19.946266 0.000032 0.534417
36.395714 13.761654 0.000022 0.540566
38.229324 10.317125 0.000018 0.531090
39.399929 8.118080 0.000014 0.548821
40.213547 6.589659 0.000012 0.538033
40.812981 5.463585 0.000010 0.527840
nan nan nan 0.000000
16.984077 51.111099 14.845807 0.486030
17.539833 50.049274 12.604141 0.485878
17.108704 50.872986 10.782715 0.511666
16.805582 51.452129 8.886560 0.498344
17.284840 50.536465 6.823654 0.488457
17.612715 49.910030 4.855318 0.486259
30.050669 26.146175 2.512179 0.427741
nan nan nan 0.000000
25.686806 34.483742 0.000053 0.546197
33.254086 20.025755 0.000032 0.535836
36.503052 13.818310 0.000023 0.531929
38.312565 10.361069 0.000017 0.518853
39.467789 8.153904 0.000014 0.525154
40.270718 6.619836 0.000012 0.531624
40.862278 5.489605 0.000010 0.530297
nan nan nan 0.000000
nan nan nan 0.000000
nan nan nan 0.000000
17.849836 50.336037 10.661379 0.482017
17.413891 51.183296 8.826874 0.650874
18.096121 49.857388 6.743591 0.484138
18.036449 49.973354 4.848492 0.499001
29.892672 26.930828 2.524766 0.486809
17.484337 51.046391 1.031433 0.588464
25.939062 34.614658 0.000053 0.539971
33.405228 20.104193 0.000032 0.547478
36.610779 13.874214 0.000023 0.527794
38.396111 10.404425 0.000017 0.537148
39.535900 8.189251 0.000014 0.541100
40.328094 6.649617 0.000012 0.572168
40.911755 5.515281 0.000010 0.599451
nan nan nan 0.000000
nan nan nan 0.000000
18.023624 50.895649 12.700806 0.476402
17.860838 51.217529 10.777116 0.502770
17.578642 51.775520 8.878953 0.476539
17.765518 51.406006 6.869022 0.466697
18.322639 50.304405 4.856591 0.479072
nan nan nan 0.000000
nan nan nan 0.000000
26.192236 34.743797 0.000053 0.538293
33.556915 20.181568 0.000032 0.540291
36.718891 13.929365 0.000023 0.546365
38.479958 10.447197 0.000017 0.533150
39.604256 8.224121 0.000014 0.506828
40.385685 6.678993 0.000011 0.540520
40.961407 5.540612 0.000010 0.537667
nan nan nan 0.000000
nan nan nan 0.000000
18.328506 51.204708 12.726214 0.484840
18.698349 50.460560 10.621058 0.481895
18.353731 51.153950 8.775067 0.476463
18.222719 51.417557 6.853067 0.494850
18.684196 50.489037 4.856738 0.466743
nan nan nan 0.000000
nan nan nan 0.000000
26.446304 34.871181 0.000053 0.541878
33.709141 20.257883 0.000032 0.542092
36.827393 13.983763 0.000023 0.529198
38.564102 10.489386 0.000017 0.549828
39.672852 8.258511 0.000014 0.520287
40.443478 6.707967 0.000012 0.525368
41.011238 5.565593 0.000010 0.553857
nan nan nan 0.000000
nan nan nan 0.000000
nan nan nan 0.000000
nan nan nan 0.000000
18.893942 50.984676 8.730132 0.484413
18.817327 51.141567 6.811219 0.484108
18.472097 51.848534 4.921256 0.480095
nan nan nan 0.000000
nan nan nan 0.000000
26.701250 34.996784 0.000053 0.538827
33.861889 20.333143 0.000032 0.543847
36.936264 14.037403 0.000023 0.542153
38.648540 10.530981 0.000018 0.542962
39.741688 8.292423 0.000014 0.526207
40.501469 6.736537 0.000011 0.548943
41.061241 5.590228 0.000010 0.515877
nan nan nan 0.000000
nan nan nan 0.000000
nan nan nan 0.000000
nan nan nan 0.000000
19.114088 51.470036 8.769360 0.480995
18.865446 51.988354 6.871999 0.469291
18.608795 52.523369 4.948170 0.457954
nan nan nan 0.000000
nan nan nan 0.000000
26.957067 35.120598 0.000053 0.539010
34.015163 20.407324 0.000032 0.533654
37.045513 14.090275 0.000023 0.541604
38.733265 10.571989 0.000017 0.536522
39.810760 8.325853 0.000014 0.545724
40.559658 6.764701 0.000011 0.512245
41.111416 5.614512 0.000010 0.535607
nan nan nan 0.000000
nan nan nan 0.000000
nan nan nan 0.000000
nan nan nan 0.000000
nan nan nan 0.000000
nan nan nan 0.000000
18.910633 52.865707 4.956992 0.470878
nan nan nan 0.000000
nan nan nan 0.000000
27.213743 35.242634 0.000053 0.536080
34.168949 20.480440 0.000032 0.537575
37.155121 14.142393 0.000023 0.537057
38.818275 10.612408 0.000017 0.540185
39.880058 8.358805 0.000014 0.527733
40.618042 6.792461 0.000012 0.543648
41.161755 5.638447 0.000010 0.553170
nan nan nan 0.000000
36.921829 14.935694 5.931355 0.483879
nan nan nan 0.000000
nan nan nan 0.000000
nan nan nan 0.000000
19.735085 52.084431 6.848733 0.482765
nan nan nan 0.000000
nan nan nan 0.000000
nan nan nan 0.000000
27.471266 35.362865 0.000053 0.537774
34.323242 20.552483 0.000032 0.538903
37.265095 14.193735 0.000023 0.542428
38.903564 10.652225 0.000017 0.540200
39.949593 8.391266 0.000014 0.540215
40.676620 6.819809 0.000011 0.546807
41.212265 5.662027 0.000010 0.534173
nan nan nan 0.000000
37.041405 14.979717 5.929237 0.474601
nan nan nan 0.000000
nan nan nan 0.000000
nan nan nan 0.000000
nan nan nan 0.000000
nan nan nan 0.000000
nan nan nan 0.000000
nan nan nan 0.000000
27.729616 35.481304 0.000053 0.540246
34.478039 20.623432 0.000032 0.546395
37.375427 14.244310 0.000023 0.530602
38.989128 10.691452 0.000017 0.541085
40.019344 8.423243 0.000014 0.560830
40.735386 6.846749 0.000012 0.551644
41.262936 5.685255 0.000010 0.484459
nan nan nan 0.000000
37.078934 15.207462 5.970767 0.464729
nan nan nan 0.000000
nan nan nan 0.000000
nan nan nan 0.000000
nan nan nan 0.000000
nan nan nan 0.000000
nan nan nan 0.000000
nan nan nan 0.000000
27.988802 35.597919 0.000053 0.540597
34.633324 20.693310 0.000032 0.551202
37.486107 14.294115 0.000023 0.534142
39.074966 10.730078 0.000017 0.547005
40.089321 8.454733 0.000014 0.574014
40.794342 6.873279 0.000011 0.511055
41.313766 5.708129 0.000010 0.519661
nan nan nan 0.000000
nan nan nan 0.000000
37.826824 13.818090 5.059019 0.475563
nan nan nan 0.000000
37.374889 14.851171 4.063769 0.489174
nan nan nan 0.000000
nan nan nan 0.000000
nan nan nan 0.000000
nan nan nan 0.000000
28.248781 35.712742 0.000053 0.547799
34.789093 20.762098 0.000032 0.553277
37.597130 14.343149 0.000023 0.540658
39.161072 10.768105 0.000017 0.547539
40.159519 8.485731 0.000014 0.542306
40.853477 6.899394 0.000011 0.542443
41.364758 5.730650 0.000010 0.524285
nan nan nan 0.000000
37.092251 15.827305 6.092268 0.492653
37.944252 13.842068 5.054527 0.484291
nan nan nan 0.000000
nan nan nan 0.000000
nan nan nan 0.000000
nan nan nan 0.000000
nan nan nan 0.000000
nan nan nan 0.000000
28.509563 35.825726 0.000054 0.536950
34.945339 20.829802 0.000033 0.543572
37.708496 14.391403 0.000023 0.556268
39.247440 10.805525 0.000017 0.539315
40.229927 8.516239 0.000014 0.508995
40.912796 6.925098 0.000012 0.539803
41.415905 5.752812 0.000010 0.524620
nan nan nan 0.000000
37.284679 15.711103 6.052914 0.482338
38.154110 13.645584 5.006687 0.472648
nan nan nan 0.000000
37.846210 14.377068 3.992262 0.461631
nan nan nan 0.000000
nan nan nan 0.000000
nan nan nan 0.000000
nan nan nan 0.000000
28.771128 35.936893 0.000054 0.539254
35.102051 20.896418 0.000032 0.536767
37.820190 14.438883 0.000022 0.526818
39.334064 10.842350 0.000017 0.530770
40.300549 8.546261 0.000014 0.543114
40.972294 6.950384 0.000012 0.569268
41.467205 5.774616 0.000010 0.542412
nan nan nan 0.000000
37.489697 15.557758 6.005307 0.465126
38.215073 13.800262 5.028398 0.491188
37.732395 14.969728 4.656507 0.444053
37.884956 14.600094 4.014230 0.482475
nan nan nan 0.000000
nan nan nan 0.000000
nan nan nan 0.000000
nan nan nan 0.000000
29.033459 36.046246 0.000054 0.541726
35.259224 20.961933 0.000032 0.532570
37.932220 14.485577 0.000022 0.535866
39.420948 10.878561 0.000017 0.544793
40.371376 8.575783 0.000014 0.526268
41.031963 6.975256 0.000012 0.525170
41.518654 5.796064 0.000009 0.547890
nan nan nan 0.000000
37.654552 15.495480 5.979387 0.492195
38.366554 13.735649 5.007088 0.478202
37.068935 16.942934 4.964685 0.446464
37.611477 15.601950 4.132822 0.472755
nan nan nan 0.000000
nan nan nan 0.000000
nan nan nan 0.000000
nan nan nan 0.000000
29.296549 36.153744 0.000054 0.540017
35.416855 21.026342 0.000032 0.545678
38.044571 14.531487 0.000023 0.546517
39.508080 10.914167 0.000017 0.541909
40.442410 8.604807 0.000014 0.527489
41.091808 6.999712 0.000011 0.542565
41.570251 5.817149 0.000009 0.555322
37.791180 15.499878 6.603483 0.497856
nan nan nan 0.000000
38.441628 13.859341 5.022902 0.458793
38.061329 14.818518 4.617414 0.465003
37.964840 15.061882 4.060030 0.458595
nan nan nan 0.000000
nan nan nan 0.000000
nan nan nan 0.000000
nan nan nan 0.000000
29.560379 36.259426 0.000054 0.542260
35.574928 21.089655 0.000032 0.531014
38.157238 14.576614 0.000023 0.547326
39.595459 10.949165 0.000018 0.538201
40.513645 8.633341 0.000014 0.545174
41.151821 7.023750 0.000011 0.538796
41.622002 5.837873 0.000010 0.535256
38.175217 14.865534 6.420426 0.452628
38.432148 14.204075 5.658198 0.477226
38.539345 13.928089 5.028051 0.498665
38.160038 14.904617 4.623953 0.442939
37.900021 15.574028 4.117600 0.473579
nan nan nan 0.000000
nan nan nan 0.000000
nan nan nan 0.000000
nan nan nan 0.000000
29.824940 36.363262 0.000054 0.541650
35.733444 21.151865 0.000032 0.548821
38.270218 14.620958 0.000022 0.544656
39.683083 10.983553 0.000017 0.545098
40.585075 8.661377 0.000014 0.553460
41.211998 7.047365 0.000012 0.529488
41.673889 5.858238 0.000010 0.529000
38.291187 14.907190 6.419743 0.475654
38.500034 14.358191 5.684007 0.467292
38.742493 13.720837 4.979588 0.490715
37.889370 15.963451 4.784965 0.494118
38.042820 15.560072 4.110208 0.494118
nan nan nan 0.000000
nan nan nan 0.000000
nan nan nan 0.000000
nan nan nan 0.000000
30.090219 36.465248 0.000054 0.538216
35.892387 21.212963 0.000032 0.546593
38.383507 14.664503 0.000023 0.542840
39.770943 11.017328 0.000018 0.512947
40.656704 8.688908 0.000014 0.547921
41.272343 7.070562 0.000012 0.509239
41.725918 5.878238 0.000010 0.518669
38.359669 15.076252 6.453333 0.491142
38.568882 14.514513 5.710367 0.495247
38.783401 13.938534 5.014038 0.485023
38.310738 15.207634 4.658018 0.446983
nan nan nan 0.000000
nan nan nan 0.000000
nan nan nan 0.000000
nan nan nan 0.000000
nan nan nan 0.000000
30.356211 36.565361 0.000054 0.538430
36.051750 21.272963 0.000032 0.543008
38.497097 14.707260 0.000023 0.550332
39.859035 11.050488 0.000017 0.539025
40.728519 8.715942 0.000014 0.538750
41.332844 7.093338 0.000012 0.521675
41.778088 5.897876 0.000010 0.526192
38.403183 15.319294 6.506689 0.475319
38.923225 13.892620 5.557873 0.494118
38.880718 14.009235 5.019986 0.452186
38.426971 15.254038 4.658515 0.488151
nan nan nan 0.000000
nan nan nan 0.000000
nan nan nan 0.000000
nan nan nan 0.000000
nan nan nan 0.000000
30.622892 36.663624 0.000054 0.539513
36.211533 21.331833 0.000032 0.546960
38.610981 14.749228 0.000022 0.551324
39.947357 11.083033 0.000017 0.542031
40.800522 8.742474 0.000014 0.588891
41.393505 7.115691 0.000012 0.504005
41.830391 5.917149 0.000010 0.561502
38.839596 14.469488 6.269362 0.494118
39.048618 13.883375 5.546808 0.496468
39.066677 13.832737 4.978298 0.483879
38.566269 15.235920 4.648978 0.492012
nan nan nan 0.000000
nan nan nan 0.000000
nan nan nan 0.000000
nan nan nan 0.000000
nan nan nan 0.000000
30.890251 36.760025 0.000054 0.543557
36.371719 21.389597 0.000032 0.542214
38.725155 14.790390 0.000022 0.537377
40.035904 11.114962 0.000017 0.543999
40.872707 8.768499 0.000014 0.544488
41.454319 7.137619 0.000011 0.533059
41.882828 5.936056 0.000010 0.544228
39.147449 13.948139 6.120557 0.488136
39.069344 14.172083 5.604125 0.457130
38.715057 15.187887 5.232119 0.494118
38.704582 15.217920 4.639636 0.494118
nan nan nan 0.000000
nan nan nan 0.000000
nan nan nan 0.000000
nan nan nan 0.000000
nan nan nan 0.000000
31.158276 36.854553 0.000054 0.539055
36.532307 21.446228 0.000032 0.537835
38.839615 14.830761 0.000022 0.534447
40.124672 11.146267 0.000017 0.527276
40.945076 8.794024 0.000014 0.527810
41.515285 7.159120 0.000011 0.556771
41.935394 5.954596 0.000010 0.527352
39.275803 13.927555 6.105200 0.492302
39.081364 14.497822 5.669787 0.472587
39.184357 14.195751 5.033617 0.482353
38.470329 16.289904 4.801291 0.520012
38.253853 16.924801 4.249686 0.494118
nan nan nan 0.000000
nan nan nan 0.000000
nan nan nan 0.000000
nan nan nan 0.000000
31.426956 36.947205 0.000054 0.543145
36.693283 21.501745 0.000032 0.539376
38.954350 14.870331 0.000022 0.546624
40.213654 11.176956 0.000017 0.543603
41.017616 8.819040 0.000014 0.534493
41.576401 7.180197 0.000012 0.518380
41.988091 5.972768 0.000010 0.584726
38.809284 15.689680 6.560797 0.458152
39.254910 14.352221 5.628016 0.481636
39.261719 14.331776 5.052574 0.494255
38.698414 16.022434 4.752888 0.494194
38.391788 16.942711 4.246570 0.485771
33.609493 31.295835 4.841740 0.489128
33.508717 31.598303 3.718267 0.474296
nan nan nan 0.000000
nan nan nan 0.000000
31.696276 37.037991 0.000054 0.537469
36.854649 21.556137 0.000032 0.536431
39.069363 14.909098 0.000022 0.538338
40.302853 11.207020 0.000017 0.554223
41.090332 8.843552 0.000014 0.540597
41.637665 7.200846 0.000011 0.573236
42.040913 5.990573 0.000010 0.504982
38.766193 16.232819 6.693396 0.494118
38.865040 15.929090 5.977838 0.476295
39.355854 14.420990 5.062635 0.494118
nan nan nan 0.000000
nan nan nan 0.000000
38.142399 18.149532 3.701629 0.494118
33.782887 31.544870 3.711561 0.472389
33.519691 32.353584 2.584029 0.468467
nan nan nan 0.000000
31.966221 37.126892 0.000054 0.540978
37.016384 21.609406 0.000032 0.543114
39.184643 14.947058 0.000022 0.541985
40.392258 11.236464 0.000017 0.527214
41.163219 8.867554 0.000014 0.530190
41.699066 7.221068 0.000011 0.530358
42.093857 6.008009 0.000010 0.523919
39.326050 14.902815 6.333308 0.474098
39.485367 14.401428 5.622718 0.493950
39.450584 14.510895 5.072932 0.458000
39.118698 15.555391 4.667714 0.676616
39.122612 15.543072 4.067436 0.660807
39.126377 15.531223 3.472546 0.643870
39.130058 15.519636 2.881667 0.669566
39.133690 15.508207 2.293483 0.727535
39.137268 15.496943 1.706711 0.580087
39.140816 15.485777 1.120078 0.645991
39.144333 15.474718 0.532315 0.670405
39.300186 14.984221 0.000022 0.530968
40.481865 11.265280 0.000017 0.524880
41.236271 8.891047 0.000014 0.588403
41.760609 7.240860 0.000012 0.543389
42.146923 6.025074 0.000010 0.545373
39.531036 14.649521 6.257396 0.443992
39.444679 14.928017 5.733862 0.470192
39.543282 14.610031 5.085091 0.491890
39.768162 13.884785 4.402423 0.472969
39.265945 15.504438 4.058257 0.587594
39.268459 15.496334 3.466328 0.656428
39.270962 15.488260 2.878123 0.649195
39.273457 15.480213 2.292361 0.687831
39.275932 15.472225 1.707776 0.707073
39.278412 15.464226 1.123113 0.645808
39.280899 15.456219 0.537116 0.622858
39.415981 15.020567 0.000023 0.538872
40.571671 11.293470 0.000017 0.547219
41.309483 8.914030 0.000014 0.543359
41.822289 7.260220 0.000012 0.526802
42.200104 6.041768 0.000010 0.527733
39.805862 14.150715 6.117768 0.475456
39.463905 15.281372 5.805618 0.481315
39.617340 14.774044 5.109679 0.447242
39.726070 14.414541 4.479389 0.494697
39.378307 15.564392 4.061067 0.528389
39.380859 15.555956 3.468303 0.709407
39.383400 15.547552 2.879291 0.661006
39.385948 15.539122 2.292743 0.654536
39.388489 15.530725 1.707400 0.673884
39.391048 15.522264 1.122007 0.592599
39.393604 15.513813 0.535306 0.607660
39.532032 15.056110 0.000022 0.554818
40.661671 11.321035 0.000017 0.550866
41.382854 8.936499 0.000014 0.533013
41.884106 7.279151 0.000012 0.542504
42.253403 6.058092 0.000009 0.549035
39.874214 14.324696 6.154626 0.464836
39.594898 15.272055 5.795594 0.424765
39.718712 14.852119 5.118014 0.485283
40.150829 13.386496 4.315238 0.493431
38.955662 17.440147 4.281745 0.511666
38.789364 18.004183 3.674531 0.493767
34.926361 31.106344 3.674344 0.482933
34.472359 32.646191 2.583986 0.477180
nan nan nan 0.000000
34.609161 32.182186 0.270554 0.634256
37.666939 21.811119 0.000032 0.540948
39.648327 15.090843 0.000022 0.551598
40.751862 11.347969 0.000017 0.522637
41.456379 8.958460 0.000014 0.534798
41.946049 7.297649 0.000012 0.532204
42.306812 6.074042 0.000010 0.541100
40.052452 14.123617 6.093790 0.493843
39.809437 14.969591 5.719922 0.471321
39.928814 14.554018 5.055249 0.481819
40.234657 13.489351 4.326414 0.488212
39.727306 15.255491 4.015625 0.494118
38.917610 18.074131 3.677099 0.489647
34.975418 31.797354 3.706265 0.496880
34.850483 32.232269 2.575753 0.584100
34.854065 32.219799 1.424459 0.660243
34.869263 32.166897 0.274846 0.736889
37.830437 21.858704 0.000032 0.530739
39.764862 15.124756 0.000022 0.547753
40.842243 11.374271 0.000017 0.522606
41.530060 8.979900 0.000014 0.543465
42.008121 7.315717 0.000011 0.544015
42.360336 6.089617 0.000010 0.519661
40.072475 14.475584 6.177242 0.439719
39.854824 15.253689 5.776282 0.484977
39.906860 15.067663 5.146257 0.484276
40.319244 13.593397 4.337840 0.436149
39.835720 15.321981 4.019584 0.471626
39.127007 17.855618 3.655179 0.478370
35.366840 31.298132 3.677424 0.485512
35.109348 32.218658 2.574384 0.465232
nan nan nan 0.000000
33.598335 37.620502 0.000054 0.539940
37.994263 21.905146 0.000032 0.535134
39.881630 15.157858 0.000022 0.539788
40.932800 11.399946 0.000017 0.519661
41.603886 9.000828 0.000014 0.515023
42.070316 7.333349 0.000011 0.534691
42.413963 6.104823 0.000009 0.528954
39.910217 15.514933 6.439018 0.428275
39.983795 15.244631 5.766986 0.493538
40.123764 14.730434 5.076608 0.460472
40.404621 13.698666 4.349524 0.431617
39.944565 15.388748 4.023657 0.479316
39.175385 18.214453 3.682486 0.488518
35.283409 32.512199 3.736009 0.502495
nan nan nan 0.000000
nan nan nan 0.000000
33.872299 37.696121 0.000054 0.541711
38.158409 21.950451 0.000032 0.524010
39.998627 15.190147 0.000022 0.546532
41.023537 11.424986 0.000017 0.527047
41.677856 9.021246 0.000014 0.525170
42.132633 7.350546 0.000011 0.542962
42.467697 6.119652 0.000009 0.554223
40.026405 15.559475 6.442249 0.473075
40.019791 15.584455 5.835855 0.488411
40.181618 14.973150 5.116532 0.472663
40.490807 13.805193 4.361470 0.475135
40.053848 15.455801 4.027846 0.495628
35.652672 32.081318 4.855520 0.471504
35.477676 32.742367 3.744457 0.444099
35.609673 32.243744 2.572630 0.494163
nan nan nan 0.000000
34.146790 37.769802 0.000054 0.536980
38.322872 21.994595 0.000032 0.530388
40.115845 15.221619 0.000022 0.549996
41.114445 11.449392 0.000017 0.527733
41.751968 9.041142 0.000014 0.519982
42.195072 7.367307 0.000011 0.519371
42.521530 6.134103 0.000010 0.541161
40.219887 15.304329 6.368170 0.495399
40.169964 15.498383 5.809677 0.439673
40.515289 14.156097 4.957350 0.494255
40.550964 14.017427 4.389678 0.485908
40.207020 15.354349 4.012103 0.473960
35.881241 32.168663 4.857717 0.482643
35.907139 32.068008 3.707073 0.490715
35.602295 33.252934 2.588639 0.480858
nan nan nan 0.000000
34.421783 37.841583 0.000054 0.537560
38.487637 22.037598 0.000032 0.536736
40.233280 15.252266 0.000022 0.536583
41.205521 11.473162 0.000017 0.545373
41.826218 9.060516 0.000014 0.543389
42.257622 7.383635 0.000011 0.520104
42.575466 6.148181 0.000009 0.523705
40.259445 15.648262 6.449242 0.493767
40.280510 15.563946 5.817535 0.458320
40.670578 14.002663 4.923343 0.482719
40.622604 14.194687 4.412555 0.464332
nan nan nan 0.000000
nan nan nan 0.000000
nan nan nan 0.000000
nan nan nan 0.000000
nan nan nan 0.000000
34.697273 37.911449 0.000053 0.544030
38.652695 22.079447 0.000032 0.535897
40.350929 15.282097 0.000022 0.547204
41.296761 11.496296 0.000017 0.549661
41.900597 9.079378 0.000014 0.535332
42.320290 7.399523 0.000011 0.538430
42.629498 6.161880 0.000009 0.521813
40.466110 15.322121 6.357543 0.482383
40.487621 15.233391 5.737520 0.488380
40.331299 15.878191 5.269474 0.492775
40.732571 14.223001 4.412734 0.453529
40.380821 15.673923 4.042926 0.653284
nan nan nan 0.000000
nan nan nan 0.000000
nan nan nan 0.000000
nan nan nan 0.000000
34.973248 37.979362 0.000053 0.543908
38.818043 22.120150 0.000032 0.543099
40.468781 15.311100 0.000022 0.549935
41.388161 11.518793 0.000017 0.541115
41.975109 9.097717 0.000014 0.549050
42.383060 7.414975 0.000011 0.536095
42.683624 6.175202 0.000010 0.586084
40.347305 16.358318 6.616915 0.495674
40.610397 15.239023 5.732545 0.503716
40.486420 15.766472 5.243147 0.470863
40.938026 13.845192 4.351146 0.494118
40.556438 15.468597 4.015259 0.460014
nan nan nan 0.000000
nan nan nan 0.000000
nan nan nan 0.000000
nan nan nan 0.000000
35.249680 38.045376 0.000053 0.533898
38.983669 22.159691 0.000032 0.538628
40.586834 15.339283 0.000022 0.546410
41.479713 11.540651 0.000017 0.548867
42.049747 9.115538 0.000014 0.529778
42.445942 7.429986 0.000011 0.561456
42.737843 6.188146 0.000010 0.531334
40.422581 16.607311 6.673429 0.476799
40.732868 15.244602 5.727756 0.494118
40.642075 15.643345 5.214935 0.493568
41.046009 13.869354 4.351027 0.493706
40.698280 15.396498 4.003500 0.494118
40.483013 16.341908 3.507498 0.494118
nan nan nan 0.000000
nan nan nan 0.000000
nan nan nan 0.000000
35.526573 38.109436 0.000052 0.541360
