# This PCD file was generated using the MATLAB® pcwrite function
# from Computer Vision Toolbox®.
# .PCD v.7 - Point Cloud Data file format
VERSION .7
FIELDS x y z intensity
SIZE 4 4 4 4
TYPE F F F F
COUNT 1 1 1 1
WIDTH 1177
HEIGHT 1
VIEWPOINT 0 0 0 1 0 0 0
POINTS 1177
DATA ascii
380.549652 -97.821823 1.572197 0.733333
380.549652 -97.821823 1.285974 0.741176
380.549652 -97.821823 0.998211 0.772122
380.549652 -97.821823 0.708272 0.764706
380.549652 -97.821823 0.415503 0.754498
380.549652 -97.821823 0.119225 0.764706
379.828186 -97.764801 0.000008 0.527276
380.549622 -97.882843 4.182528 0.753796
380.549622 -97.882843 3.881858 0.745312
380.549652 -97.882843 3.585410 0.752178
380.549652 -97.882843 3.292473 0.756710
380.549652 -97.882843 3.002366 0.766445
380.549622 -97.882843 2.714437 0.765896
380.549652 -97.882843 2.428049 0.758068
380.549652 -97.882843 2.142581 0.764706
380.549652 -97.882843 1.857419 0.760159
380.549652 -97.882843 1.571951 0.755337
380.549652 -97.882843 1.285563 0.758724
380.549652 -97.882843 0.997633 0.764706
380.549652 -97.882843 0.707527 0.764294
380.549652 -97.882843 0.414589 0.757168
380.549652 -97.882843 0.118141 0.776471
379.823608 -97.820351 0.000008 0.565499
380.549622 -97.943932 4.183894 0.756252
380.549652 -97.943932 3.883035 0.764477
380.549652 -97.943932 3.586402 0.753948
380.549652 -97.943932 3.293281 0.761105
380.549622 -97.943932 3.002993 0.761837
380.549652 -97.943932 2.714884 0.764706
380.549652 -97.943932 2.428317 0.764706
380.549652 -97.943932 2.142670 0.752865
380.549652 -97.943932 1.857330 0.749996
380.549652 -97.943932 1.571683 0.762844
380.549652 -97.943932 1.285116 0.764706
380.549652 -97.943932 0.997006 0.757748
380.549652 -97.943932 0.706719 0.764706
380.549652 -97.943932 0.413598 0.748898
380.549652 -97.943932 0.116964 0.758038
379.818634 -97.875870 0.000008 0.563943
380.549622 -98.005104 4.185367 0.736919
380.549622 -98.005104 3.884306 0.709804
380.549652 -98.005104 3.587472 0.715068
380.549652 -98.005104 3.294154 0.702998
380.549652 -98.005104 3.003670 0.721569
380.549652 -98.005104 2.715366 0.719844
380.549652 -98.005104 2.428606 0.725246
380.549652 -98.005104 2.142766 0.709865
380.549652 -98.005104 1.857233 0.700252
380.549652 -98.005104 1.571394 0.709804
380.549652 -98.005104 1.284633 0.698039
380.549652 -98.005104 0.996330 0.708217
380.549652 -98.005104 0.705845 0.725246
380.549652 -98.005104 0.412527 0.706767
380.549652 -98.005104 0.115693 0.699046
379.813263 -97.931351 0.000008 0.542367
380.549622 -98.066360 4.186950 0.691569
380.549622 -98.066360 3.885671 0.699458
380.549622 -98.066360 3.588622 0.654017
380.549652 -98.066360 3.295091 0.691417
380.549622 -98.066360 3.004397 0.694102
380.549622 -98.066360 2.715884 0.694713
380.549652 -98.066360 2.428916 0.699504
380.549652 -98.066360 2.142870 0.680644
380.549652 -98.066360 1.857130 0.697398
380.549652 -98.066360 1.571084 0.710536
380.549652 -98.066360 1.284115 0.715129
380.549652 -98.066360 0.995603 0.693401
380.549652 -98.066360 0.704909 0.678614
380.549652 -98.066360 0.411378 0.670802
380.549652 -98.066360 0.114329 0.669367
379.807526 -97.986801 0.000008 0.551843
380.549652 -98.127708 4.188642 0.760937
380.549652 -98.127708 3.887129 0.754131
380.549622 -98.127708 3.589850 0.753674
380.549622 -98.127708 3.296093 0.743816
380.549652 -98.127708 3.005174 0.749172
380.549652 -98.127708 2.716438 0.758160
380.549652 -98.127708 2.429248 0.764706
380.549652 -98.127708 2.142980 0.761028
380.549652 -98.127708 1.857019 0.764706
380.549652 -98.127708 1.570752 0.752941
380.549652 -98.127708 1.283562 0.744808
380.549652 -98.127708 0.994826 0.761074
380.549652 -98.127708 0.703907 0.761028
380.549652 -98.127708 0.410149 0.746883
380.549652 -98.127708 0.112870 0.756939
379.801392 -98.042198 0.000008 0.542473
380.549622 -98.189156 4.190442 0.752941
380.549652 -98.189156 3.888683 0.776471
380.549622 -98.189156 3.591158 0.723018
380.549652 -98.189156 3.297159 0.751125
380.549652 -98.189156 3.006001 0.776471
380.549652 -98.189156 2.717027 0.758633
380.549652 -98.189156 2.429601 0.764706
380.549652 -98.189156 2.143098 0.759518
380.549652 -98.189156 1.856902 0.751949
380.549652 -98.189156 1.570399 0.772335
380.549652 -98.189156 1.282972 0.755245
380.549652 -98.189156 0.993999 0.759518
380.549652 -98.189156 0.702841 0.764294
380.549652 -98.189156 0.408841 0.751446
380.549652 -98.189156 0.111317 0.776471
379.794861 -98.097557 0.000008 0.545861
380.549622 -98.250710 4.192353 0.770123
380.549622 -98.250710 3.890329 0.731121
380.549622 -98.250710 3.592546 0.741344
380.549652 -98.250710 3.298291 0.769711
380.549622 -98.250710 3.006878 0.741176
380.549622 -98.250710 2.717653 0.771969
380.549652 -98.250710 2.429976 0.739681
380.549652 -98.250710 2.143223 0.753033
380.549652 -98.250710 1.856777 0.737423
380.549652 -98.250710 1.570024 0.739757
380.549652 -98.250710 1.282347 0.755489
380.549652 -98.250710 0.993121 0.737423
380.549652 -98.250710 0.701709 0.776135
380.549652 -98.250710 0.407453 0.737423
380.549652 -98.250710 0.109670 0.737972
379.787933 -98.152870 0.000008 0.553323
380.549622 -98.312370 4.194375 0.696864
380.549622 -98.312370 3.892073 0.734951
380.549652 -98.312370 3.594015 0.733333
380.549652 -98.312370 3.299488 0.732280
380.549652 -98.312370 3.007807 0.721569
380.549652 -98.312370 2.718315 0.733593
380.549652 -98.312370 2.430372 0.724575
380.549652 -98.312370 2.143355 0.741176
380.549652 -98.312370 1.856645 0.730480
380.549652 -98.312370 1.569627 0.738231
380.549652 -98.312370 1.281685 0.723033
380.549652 -98.312370 0.992193 0.725353
380.549652 -98.312370 0.700512 0.741146
380.549652 -98.312370 0.405984 0.705531
380.549652 -98.312370 0.107927 0.720745
379.780640 -98.208130 0.000008 0.476555
380.549622 -98.374146 4.196507 0.761303
380.549652 -98.374146 3.893911 0.764202
380.549652 -98.374146 3.595564 0.738552
380.549652 -98.374146 3.300750 0.764477
380.549622 -98.374146 3.008786 0.764477
380.549652 -98.374146 2.719012 0.749798
380.549622 -98.374146 2.430790 0.730510
380.549652 -98.374146 2.143494 0.764477
380.549652 -98.374146 1.856506 0.761807
380.549652 -98.374146 1.569209 0.753811
380.549652 -98.374146 1.280987 0.768322
380.549652 -98.374146 0.991214 0.730510
380.549652 -98.374146 0.699249 0.754116
380.549652 -98.374146 0.404436 0.758877
380.549652 -98.374146 0.106089 0.753811
379.772980 -98.263344 0.000008 0.519707
380.549622 -98.436050 4.198750 0.749950
380.549622 -98.436050 3.895845 0.750134
380.549622 -98.436050 3.597194 0.759976
380.549652 -98.436050 3.302079 0.754482
380.549652 -98.436050 3.009816 0.755993
380.549652 -98.436050 2.719747 0.750362
380.549652 -98.436050 2.431230 0.757351
380.549622 -98.436050 2.143641 0.764660
380.549652 -98.436050 1.856359 0.755199
380.549652 -98.436050 1.568769 0.757397
380.549652 -98.436050 1.280253 0.757534
380.549652 -98.436050 0.990183 0.759426
380.549652 -98.436050 0.697921 0.769574
380.549652 -98.436050 0.402806 0.760845
380.549652 -98.436050 0.104154 0.763424
379.764893 -98.318497 0.000008 0.552056
380.549652 -98.498077 4.201105 0.764706
380.549652 -98.498077 3.897876 0.758587
380.549622 -98.498077 3.598904 0.754726
380.549652 -98.498077 3.303473 0.747616
380.549622 -98.498077 3.010898 0.759976
380.549652 -98.498077 2.720518 0.756710
380.549652 -98.498077 2.431693 0.754772
380.549652 -98.498077 2.143795 0.764706
380.549652 -98.498077 1.856205 0.774639
380.549652 -98.498077 1.568307 0.764706
380.549652 -98.498077 1.279482 0.757671
380.549652 -98.498077 0.989102 0.751476
380.549652 -98.498077 0.696526 0.754971
380.549652 -98.498077 0.401095 0.771145
380.549652 -98.498077 0.102123 0.762875
379.756470 -98.373596 0.000007 0.524117
380.549622 -98.560249 4.203574 0.690990
380.549652 -98.560249 3.900004 0.679667
380.549652 -98.560249 3.600698 0.710994
380.549622 -98.560249 3.304935 0.680262
380.549652 -98.560249 3.012032 0.680262
380.549652 -98.560249 2.721326 0.686107
380.549652 -98.560249 2.432177 0.688151
380.549652 -98.560249 2.143956 0.679530
380.549652 -98.560249 1.856044 0.680262
380.549652 -98.560249 1.567823 0.685939
380.549652 -98.560249 1.278674 0.696910
380.549652 -98.560249 0.987968 0.679530
380.549652 -98.560249 0.695064 0.668879
380.549652 -98.560249 0.399302 0.710903
380.549652 -98.560249 0.099995 0.707897
379.747620 -98.428635 0.000008 0.565438
380.549622 -98.622559 4.206155 0.705898
380.549652 -98.622559 3.902230 0.728161
380.549622 -98.622559 3.602572 0.726116
380.549622 -98.622559 3.306464 0.733333
380.549652 -98.622559 3.013217 0.701534
380.549652 -98.622559 2.722171 0.714336
380.549652 -98.622559 2.432683 0.721569
380.549652 -98.622559 2.144125 0.707042
380.549652 -98.622559 1.855875 0.735775
380.549652 -98.622559 1.567317 0.730526
380.549652 -98.622559 1.277829 0.707042
380.549652 -98.622559 0.986783 0.705257
380.549652 -98.622559 0.693536 0.729076
380.549652 -98.622559 0.397427 0.734539
380.549652 -98.622559 0.097769 0.726070
379.738403 -98.483604 0.000008 0.501671
380.549622 -98.685013 4.208850 0.757122
380.549622 -98.685013 3.904553 0.753353
380.549622 -98.685013 3.604530 0.749264
380.549622 -98.685013 3.308060 0.758495
380.549652 -98.685013 3.014455 0.762036
380.549652 -98.685013 2.723053 0.752941
380.549652 -98.685013 2.433212 0.760388
380.549652 -98.685013 2.144301 0.733333
380.549652 -98.685013 1.855699 0.763882
380.549652 -98.685013 1.566788 0.760388
380.549652 -98.685013 1.276947 0.762829
380.549652 -98.685013 0.985545 0.749447
380.549652 -98.685013 0.691940 0.764706
380.549652 -98.685013 0.395469 0.764706
380.549652 -98.685013 0.095446 0.754635
379.728790 -98.538513 0.000008 0.550866
380.549652 -98.747627 4.211659 0.764706
380.549652 -98.747627 3.906977 0.658686
380.549652 -98.747627 3.606571 0.754925
380.549652 -98.747627 3.309723 0.753170
380.549652 -98.747627 3.015745 0.753765
380.549652 -98.747627 2.723973 0.758679
380.549652 -98.747627 2.433763 0.741451
380.549652 -98.747627 2.144484 0.743847
380.549652 -98.747627 1.855516 0.752941
380.549652 -98.747627 1.566237 0.746914
380.549652 -98.747627 1.276027 0.772427
380.549652 -98.747627 0.984254 0.764706
380.549652 -98.747627 0.690276 0.764340
380.549652 -98.747627 0.393428 0.764706
380.549652 -98.747627 0.093023 0.666911
379.718811 -98.593353 0.000008 0.528527
380.549622 -98.810410 4.214583 0.764706
380.549622 -98.810410 3.909498 0.768063
380.549622 -98.810410 3.608696 0.764706
380.549652 -98.810410 3.311456 0.771466
380.549622 -98.810410 3.017088 0.756756
380.549652 -98.810410 2.724930 0.774548
380.549652 -98.810410 2.434336 0.764706
380.549652 -98.810410 2.144675 0.764706
380.549652 -98.810410 1.855325 0.755703
380.549652 -98.810410 1.565664 0.764706
380.549652 -98.810410 1.275069 0.754223
380.549652 -98.810410 0.982911 0.762829
380.549652 -98.810410 0.688544 0.764614
380.549652 -98.810410 0.391304 0.776471
380.549652 -98.810410 0.090501 0.764706
379.708435 -98.648125 0.000008 0.561273
380.549622 -98.873352 4.217625 0.730007
380.549622 -98.873352 3.912120 0.741176
380.549622 -98.873352 3.610904 0.733852
380.549622 -98.873352 3.313257 0.721569
380.549622 -98.873352 3.018485 0.728283
380.549622 -98.873352 2.725926 0.728283
380.549652 -98.873352 2.434933 0.728283
380.549652 -98.873352 2.144874 0.733333
380.549652 -98.873352 1.855126 0.733333
380.549652 -98.873352 1.565067 0.730434
380.549652 -98.873352 1.274074 0.728283
380.549652 -98.873352 0.981515 0.727260
380.549652 -98.873352 0.686743 0.721981
380.549652 -98.873352 0.389095 0.729702
380.549652 -98.873352 0.087879 0.737804
379.697693 -98.702820 0.000008 0.564492
380.549622 -98.936478 4.220783 0.687663
380.549652 -98.936478 3.914843 0.697551
380.549622 -98.936478 3.613198 0.715557
380.549652 -98.936478 3.315126 0.698039
380.549652 -98.936478 3.019936 0.692073
380.549652 -98.936478 2.726959 0.688365
380.549652 -98.936478 2.435552 0.692378
380.549652 -98.936478 2.145080 0.688365
380.549652 -98.936478 1.854920 0.705486
380.549652 -98.936478 1.564448 0.692073
380.549652 -98.936478 1.273040 0.688365
380.549652 -98.936478 0.980064 0.692073
380.549652 -98.936478 0.684873 0.692073
380.549652 -98.936478 0.386801 0.701228
380.549652 -98.936478 0.085156 0.705486
379.686554 -98.757439 0.000008 0.543023
380.549652 -98.999779 4.224058 0.764706
380.549652 -98.999779 3.917666 0.756924
380.549652 -98.999779 3.615577 0.755337
380.549652 -98.999779 3.317066 0.764706
380.549652 -98.999779 3.021440 0.752941
380.549652 -98.999779 2.728031 0.764019
380.549652 -98.999779 2.436194 0.764523
380.549652 -98.999779 2.145294 0.753674
380.549652 -98.999779 1.854706 0.762402
380.549652 -98.999779 1.563806 0.758404
380.549652 -98.999779 1.271968 0.764294
380.549652 -98.999779 0.978560 0.762539
380.549652 -98.999786 0.682934 0.736217
380.549652 -98.999779 0.384423 0.763790
380.549652 -98.999786 0.082332 0.741176
379.675049 -98.811981 0.000008 0.526406
380.549622 -99.063278 4.227451 0.756298
380.549652 -99.063278 3.920593 0.776471
380.549652 -99.063278 3.618042 0.752941
380.549652 -99.063278 3.319075 0.764706
380.549652 -99.063278 3.022998 0.730617
380.549652 -99.063278 2.729142 0.759609
380.549652 -99.063278 2.436860 0.752941
380.549652 -99.063278 2.145516 0.764660
380.549652 -99.063278 1.854484 0.762966
380.549652 -99.063278 1.563140 0.757992
380.549652 -99.063278 1.270858 0.763012
380.549652 -99.063278 0.977002 0.751705
380.549652 -99.063278 0.680924 0.760525
380.549652 -99.063278 0.381957 0.748760
380.549652 -99.063278 0.079407 0.773434
379.663147 -98.866440 0.000008 0.563012
380.549622 -99.126968 4.230964 0.692134
380.549652 -99.126968 3.923621 0.692607
380.549652 -99.126968 3.620594 0.688075
380.549652 -99.126968 3.321156 0.679286
380.549652 -99.126968 3.024611 0.687999
380.549652 -99.126968 2.730292 0.687999
380.549652 -99.126968 2.437549 0.687999
380.549652 -99.126968 2.145745 0.698039
380.549652 -99.126968 1.854255 0.650523
380.549652 -99.126968 1.562451 0.644785
380.549652 -99.126968 1.269708 0.647150
380.549652 -99.126968 0.975388 0.662379
380.549652 -99.126968 0.678844 0.687999
380.549652 -99.126968 0.379405 0.678431
380.549652 -99.126968 0.076378 0.660288
379.650879 -98.920807 0.000008 0.571206
380.549622 -99.190865 4.234596 0.711620
380.549652 -99.190865 3.926754 0.721569
380.549652 -99.190865 3.623233 0.721569
380.549622 -99.190865 3.323307 0.727779
380.549622 -99.190865 3.026280 0.717067
380.549652 -99.190865 2.731481 0.720195
380.549652 -99.190865 2.438261 0.721569
380.549652 -99.190865 2.145983 0.721614
380.549652 -99.190865 1.854017 0.721065
380.549652 -99.190872 1.561739 0.688746
380.549652 -99.190865 1.268518 0.721569
380.549652 -99.190865 0.973720 0.694057
380.549652 -99.190865 0.676693 0.722484
380.549652 -99.190872 0.376766 0.691295
380.549652 -99.190872 0.073245 0.719936
379.638245 -98.975098 0.000008 0.548745
380.549622 -99.254974 4.238351 0.753536
380.549652 -99.254974 3.929991 0.759197
380.549652 -99.254974 3.625960 0.755978
380.549622 -99.254974 3.325530 0.763699
380.549622 -99.254974 3.028004 0.761532
380.549652 -99.254974 2.732710 0.747295
380.549652 -99.254974 2.438997 0.761578
380.549652 -99.254974 2.146228 0.764248
380.549652 -99.254974 1.853772 0.755657
380.549652 -99.254974 1.561002 0.764706
380.549652 -99.254974 1.267290 0.768429
380.549652 -99.254974 0.971996 0.733608
380.549652 -99.254974 0.674470 0.731640
380.549652 -99.254982 0.374039 0.746258
380.549652 -99.254982 0.070008 0.772427
379.625214 -99.029297 0.000007 0.528389
380.549622 -99.319305 4.242227 0.761074
380.549652 -99.319305 3.933333 0.694408
380.549622 -99.319305 3.628775 0.763790
380.549652 -99.319305 3.327826 0.745083
380.549652 -99.319305 3.029784 0.757900
380.549652 -99.319305 2.733979 0.758877
380.549652 -99.319305 2.439758 0.762753
380.549652 -99.319305 2.146481 0.764630
380.549652 -99.319305 1.853519 0.760845
380.549652 -99.319305 1.560242 0.754620
380.549652 -99.319305 1.266021 0.760891
380.549652 -99.319305 0.970216 0.739193
380.549652 -99.319305 0.672174 0.752941
380.549652 -99.319305 0.371223 0.739788
380.549652 -99.319305 0.066666 0.694270
379.611786 -99.083397 0.000008 0.548760
380.549652 -99.383858 4.246227 0.757855
380.549622 -99.383858 3.936782 0.764706
380.549622 -99.383858 3.631681 0.761212
380.549652 -99.383858 3.330194 0.759930
380.549652 -99.383858 3.031621 0.764706
380.549652 -99.383858 2.735288 0.758770
380.549652 -99.383858 2.440542 0.768383
380.549652 -99.383858 2.146743 0.771466
380.549652 -99.383858 1.853257 0.735637
380.549652 -99.383858 1.559458 0.762539
380.549652 -99.383858 1.264711 0.755154
380.549652 -99.383858 0.968379 0.753307
380.549652 -99.383858 0.669806 0.758221
380.549652 -99.383858 0.368319 0.755199
380.549652 -99.383858 0.063218 0.761578
379.598022 -99.137405 0.000008 0.522454
380.549652 -99.448647 4.250350 0.708019
380.549652 -99.448647 3.940337 0.733333
380.549652 -99.448647 3.634676 0.740536
380.549652 -99.448647 3.332636 0.740230
380.549652 -99.448647 3.033515 0.734066
380.549652 -99.448647 2.736638 0.735409
380.549652 -99.448647 2.441351 0.735042
380.549652 -99.448647 2.147012 0.741115
380.549652 -99.448647 1.852988 0.697520
380.549652 -99.448647 1.558649 0.737194
380.549652 -99.448647 1.263362 0.736156
380.549652 -99.448647 0.966485 0.711269
380.549652 -99.448647 0.667364 0.734279
380.549652 -99.448647 0.365323 0.734279
380.549652 -99.448647 0.059663 0.713710
379.583832 -99.191322 0.000008 0.482658
380.549622 -99.513680 4.254599 0.704158
380.549652 -99.513680 3.944000 0.732845
380.549652 -99.513680 3.637763 0.705150
380.549652 -99.513680 3.335152 0.705272
380.549622 -99.513680 3.035466 0.699825
380.549652 -99.513680 2.738029 0.699107
380.549652 -99.513680 2.442184 0.732357
380.549652 -99.513680 2.147290 0.702083
380.549652 -99.513680 1.852711 0.690333
380.549652 -99.513680 1.557816 0.696010
380.549652 -99.513680 1.261971 0.701839
380.549652 -99.513680 0.964534 0.715496
380.549652 -99.513680 0.664848 0.702205
380.549652 -99.513680 0.362237 0.719921
380.549652 -99.513680 0.055999 0.684123
379.569305 -99.245132 0.000008 0.539345
380.549652 -99.578957 4.258974 0.759579
380.549652 -99.578957 3.947773 0.767926
380.549622 -99.578957 3.640941 0.752941
380.549652 -99.578957 3.337743 0.758404
380.549652 -99.578957 3.037475 0.759564
380.549652 -99.578957 2.739461 0.746273
380.549652 -99.578957 2.443042 0.754406
380.549652 -99.578957 2.147575 0.763928
380.549652 -99.578957 1.852425 0.760754
380.549652 -99.578957 1.556958 0.758541
380.549652 -99.578957 1.260539 0.752529
380.549652 -99.578957 0.962525 0.757855
380.549652 -99.578957 0.662257 0.758404
380.549652 -99.578957 0.359059 0.756161
380.549652 -99.578957 0.052227 0.741176
379.554382 -99.298843 0.000007 0.565759
380.549652 -99.644493 4.263476 0.764706
380.549652 -99.644493 3.951655 0.762753
380.549652 -99.644493 3.644212 0.764706
380.549652 -99.644493 3.340409 0.752941
380.549652 -99.644493 3.039543 0.745953
380.549652 -99.644493 2.740935 0.760708
380.549652 -99.644493 2.443925 0.764706
380.549652 -99.644493 2.147870 0.764706
380.549652 -99.644493 1.852131 0.764706
380.549652 -99.644493 1.556075 0.763195
380.549652 -99.644493 1.259065 0.764706
380.549652 -99.644493 0.960457 0.764706
380.549652 -99.644493 0.659590 0.764706
380.549652 -99.644493 0.355788 0.756252
380.549652 -99.644493 0.048344 0.760113
379.539093 -99.352448 0.000008 0.582025
380.549622 -99.710289 4.268107 0.673121
380.549622 -99.710289 3.955648 0.709682
380.549652 -99.710289 3.647576 0.678431
380.549652 -99.710289 3.343152 0.700252
380.549652 -99.710289 3.041670 0.694621
380.549652 -99.710289 2.742451 0.683970
380.549652 -99.710289 2.444834 0.692546
380.549652 -99.710289 2.148172 0.698222
380.549652 -99.710289 1.851828 0.687587
380.549652 -99.710289 1.555166 0.698222
380.549652 -99.710289 1.257549 0.678584
380.549652 -99.710289 0.958329 0.698039
380.549652 -99.710289 0.656848 0.706538
380.549652 -99.710289 0.352424 0.658427
380.549652 -99.710289 0.044351 0.667247
379.523438 -99.405945 0.000008 0.550759
380.549652 -99.776367 4.272870 0.696788
380.549652 -99.776367 3.959754 0.721569
380.549652 -99.776367 3.651034 0.701534
380.549622 -99.776367 3.345972 0.699229
380.549652 -99.776367 3.043857 0.738643
380.549652 -99.776367 2.744009 0.695857
380.549652 -99.776367 2.445767 0.701045
380.549652 -99.776367 2.148483 0.709438
380.549652 -99.776367 1.851517 0.667811
380.549652 -99.776367 1.554233 0.640681
380.549652 -99.776367 1.255990 0.687495
380.549652 -99.776367 0.956143 0.709804
380.549652 -99.776367 0.654028 0.709804
380.549652 -99.776367 0.348965 0.701442
380.549652 -99.776367 0.040246 0.691447
379.507416 -99.459328 0.000007 0.582055
380.549652 -99.842720 4.277761 0.759976
380.549622 -99.842720 3.963972 0.752941
380.549652 -99.842720 3.654589 0.759747
380.549622 -99.842720 3.348869 0.754925
380.549652 -99.842720 3.046104 0.757809
380.549652 -99.842720 2.745611 0.761761
380.549652 -99.842720 2.446727 0.757809
380.549622 -99.842720 2.148803 0.764706
380.549652 -99.842720 1.851197 0.756893
380.549652 -99.842720 1.553273 0.756481
380.549652 -99.842720 1.254389 0.755657
380.549652 -99.842720 0.953896 0.741451
380.549652 -99.842720 0.651131 0.743740
380.549652 -99.842720 0.345411 0.764706
380.549652 -99.842720 0.036027 0.764202
379.490997 -99.512596 0.000008 0.542275
380.549622 -99.909363 4.282787 0.754925
380.549622 -99.909363 3.968305 0.752621
380.549652 -99.909363 3.658239 0.763058
380.549652 -99.909363 3.351845 0.763516
380.549622 -99.909363 3.048412 0.755749
380.549652 -99.909363 2.747256 0.751568
380.549652 -99.909363 2.447712 0.764706
380.549652 -99.909363 2.149131 0.741176
380.549652 -99.909363 1.850869 0.756481
380.549652 -99.909363 1.552287 0.758968
380.549652 -99.909363 1.252744 0.764706
380.549652 -99.909363 0.951588 0.745007
380.549652 -99.909363 0.648155 0.747036
380.549652 -99.909363 0.341761 0.759930
380.549652 -99.909363 0.031694 0.772427
379.474213 -99.565758 0.000008 0.549661
380.549652 -99.976311 4.287947 0.718059
380.549652 -99.976311 3.972754 0.684443
380.549622 -99.976311 3.661986 0.684215
380.549652 -99.976311 3.354900 0.685115
380.549652 -99.976311 3.050782 0.689708
380.549652 -99.976311 2.748945 0.712139
380.549652 -99.976311 2.448725 0.689708
380.549652 -99.976311 2.149468 0.686183
380.549652 -99.976311 1.850532 0.689525
380.549652 -99.976311 1.551275 0.689708
380.549652 -99.976311 1.251055 0.683635
380.549652 -99.976311 0.949218 0.685908
380.549652 -99.976311 0.645099 0.696757
380.549652 -99.976311 0.338013 0.702266
380.549652 -99.976311 0.027245 0.717556
379.457062 -99.618790 0.000008 0.527367
380.549622 -100.043556 4.293241 0.737316
380.549652 -100.043556 3.977319 0.733333
380.549652 -100.043556 3.665833 0.718212
380.549652 -100.043556 3.358036 0.730648
380.549652 -100.043556 3.053213 0.741176
380.549652 -100.043556 2.750678 0.724269
380.549652 -100.043556 2.449763 0.737408
380.549652 -100.043556 2.149814 0.737408
380.549652 -100.043556 1.850186 0.724025
380.549652 -100.043556 1.550237 0.734737
380.549652 -100.043556 1.249322 0.728206
380.549652 -100.043556 0.946787 0.715450
380.549652 -100.043556 0.641964 0.713115
380.549652 -100.043556 0.334167 0.721126
380.549652 -100.043556 0.022680 0.727687
379.439545 -99.671707 0.000008 0.517586
380.549652 -100.111122 4.298673 0.762219
380.549652 -100.111122 3.982002 0.762829
380.549652 -100.111122 3.669778 0.733333
380.549652 -100.111122 3.361252 0.754757
380.549652 -100.111122 3.055708 0.764706
380.549622 -100.111122 2.752456 0.763699
380.549652 -100.111122 2.450828 0.768658
380.549652 -100.111122 2.150169 0.762081
380.549652 -100.111122 1.849831 0.755566
380.549652 -100.111122 1.549172 0.764202
380.549652 -100.111122 1.247544 0.752941
380.549652 -100.111122 0.944292 0.744717
380.549652 -100.111122 0.638748 0.735729
380.549652 -100.111122 0.330221 0.757488
380.549652 -100.111122 0.017997 0.752941
379.421661 -99.724503 0.000007 0.533089
380.549652 -100.179008 4.304242 0.752941
380.549652 -100.179008 3.986805 0.754360
380.549652 -100.179008 3.673825 0.769741
380.549652 -100.179008 3.364551 0.764477
380.549652 -100.179008 3.058266 0.763882
380.549652 -100.179008 2.754279 0.752941
380.549652 -100.179008 2.451920 0.761074
380.549652 -100.179008 2.150532 0.763287
380.549652 -100.179008 1.849467 0.764706
380.549652 -100.179008 1.548079 0.764294
380.549652 -100.179008 1.245720 0.761837
380.549652 -100.179008 0.941734 0.753033
380.549652 -100.179008 0.635449 0.752544
380.549652 -100.179016 0.326175 0.753613
380.549652 -100.179016 0.013194 0.754589
379.403412 -99.777168 0.000007 0.534524
380.549652 -100.247231 4.309953 0.755611
380.549652 -100.247231 3.991728 0.753674
380.549652 -100.247231 3.677972 0.754818
380.549652 -100.247231 3.367932 0.741176
380.549652 -100.247231 3.060888 0.763012
380.549652 -100.247231 2.756148 0.758541
380.549652 -100.247231 2.453040 0.736309
380.549652 -100.247231 2.150906 0.762539
380.549652 -100.247231 1.849095 0.754543
380.549652 -100.247238 1.546959 0.729000
380.549652 -100.247231 1.243851 0.761852
380.549652 -100.247231 0.939112 0.754543
380.549652 -100.247238 0.632068 0.741176
380.549652 -100.247231 0.322028 0.754543
380.549652 -100.247238 0.008271 0.760845
379.384766 -99.829712 0.000008 0.535576
380.549622 -100.315796 4.315804 0.734127
380.549652 -100.315796 3.996774 0.733684
380.549652 -100.315796 3.682222 0.721569
380.549652 -100.315796 3.371397 0.726665
380.549652 -100.315796 3.063575 0.738430
380.549652 -100.315796 2.758064 0.725551
380.549652 -100.315796 2.454188 0.721569
380.549652 -100.315796 2.151288 0.721798
380.549652 -100.315796 1.848712 0.721569
380.549652 -100.315796 1.545812 0.723598
380.549652 -100.315796 1.241936 0.733333
380.549652 -100.315796 0.936424 0.737850
380.549652 -100.315796 0.628603 0.721569
380.549652 -100.315796 0.317777 0.734890
380.549652 -100.315796 0.003226 0.738003
379.365784 -99.882111 0.000008 0.548592
380.549652 -100.384712 4.321798 0.776379
380.549652 -100.384712 4.001943 0.776379
380.549652 -100.384712 3.686577 0.754818
380.549652 -100.384712 3.374947 0.776165
380.549652 -100.384712 3.066329 0.776242
380.549652 -100.384712 2.760026 0.741024
380.549652 -100.384712 2.455364 0.776104
380.549652 -100.384712 2.151680 0.741024
380.549652 -100.384712 1.848321 0.776013
380.549652 -100.384712 1.544636 0.776013
380.549652 -100.384712 1.239974 0.776242
380.549652 -100.384712 0.933671 0.770871
380.549652 -100.384712 0.625053 0.775876
380.549652 -100.384712 0.313422 0.776242
380.541168 -100.381546 0.000009 0.527337
379.346436 -99.934387 0.000008 0.510246
380.549652 -100.453987 4.327937 0.756222
380.549652 -100.453987 4.007236 0.756527
380.549652 -100.453987 3.691036 0.766155
380.549652 -100.453987 3.378582 0.753933
380.549652 -100.453987 3.069148 0.756252
380.549652 -100.453987 2.762036 0.736614
380.549652 -100.453987 2.456567 0.752941
380.549652 -100.453987 2.152080 0.761578
380.549652 -100.453987 1.847919 0.761395
380.549652 -100.453987 1.543432 0.752346
380.549652 -100.453987 1.237964 0.763149
380.549652 -100.453987 0.930852 0.761395
380.549652 -100.453987 0.621417 0.764614
380.549652 -100.453987 0.308963 0.760113
380.518311 -100.442017 0.000009 0.511360
379.326721 -99.986526 0.000008 0.575174
380.549652 -100.523636 4.334224 0.752941
380.549652 -100.523636 4.012656 0.752941
380.549652 -100.523636 3.695603 0.740108
380.549652 -100.523636 3.382305 0.738537
380.549652 -100.523636 3.072035 0.776471
380.549652 -100.523636 2.764093 0.760571
380.549652 -100.523636 2.457800 0.752941
380.549652 -100.523636 2.152491 0.752941
380.549652 -100.523636 1.847509 0.755337
380.549652 -100.523636 1.542199 0.766445
380.549652 -100.523636 1.235906 0.764706
380.549652 -100.523636 0.927965 0.774548
380.549652 -100.523636 0.617695 0.764065
380.549652 -100.523636 0.304397 0.764797
380.495026 -100.502319 0.000009 0.557809
379.306610 -100.038521 0.000008 0.523079
380.549652 -100.593666 4.340658 0.729885
380.549622 -100.593666 4.018203 0.733364
380.549652 -100.593666 3.700277 0.733104
380.549652 -100.593666 3.386116 0.738689
380.549652 -100.593666 3.074990 0.732189
380.549652 -100.593666 2.766200 0.733333
380.549652 -100.593666 2.459062 0.721569
380.549652 -100.593666 2.152911 0.710994
380.549652 -100.593666 1.847088 0.735698
380.549652 -100.593666 1.540938 0.733913
380.549652 -100.593666 1.233800 0.741100
380.549652 -100.593666 0.925010 0.721569
380.549652 -100.593666 0.613884 0.698039
380.549652 -100.593666 0.299723 0.739879
380.471313 -100.562462 0.000009 0.562127
379.286163 -100.090378 0.000008 0.487175
380.549652 -100.664085 4.347242 0.776471
380.549652 -100.664085 4.023881 0.741176
380.549652 -100.664085 3.705060 0.768063
380.549652 -100.664085 3.390015 0.741176
380.549652 -100.664085 3.078014 0.776471
380.549652 -100.664085 2.768355 0.741176
380.549652 -100.664085 2.460354 0.776471
380.549652 -100.664085 2.153342 0.768475
380.549652 -100.664085 1.846658 0.776471
380.549652 -100.664085 1.539646 0.741176
380.549652 -100.664085 1.231645 0.775708
380.549652 -100.664085 0.921986 0.741176
380.549652 -100.664085 0.609985 0.741176
380.549652 -100.664085 0.294940 0.776471
380.447174 -100.622437 0.000009 0.526574
379.265381 -100.142090 0.000008 0.521981
380.549652 -100.734901 4.353980 0.756207
380.549652 -100.734901 4.029690 0.752071
380.549652 -100.734901 3.709954 0.764706
380.549652 -100.734901 3.394004 0.739086
380.549652 -100.734901 3.081108 0.770352
380.549652 -100.734901 2.770560 0.764706
380.549652 -100.734901 2.461675 0.762264
380.549652 -100.734901 2.153782 0.758404
380.549652 -100.734901 1.846218 0.763149
380.549652 -100.734901 1.538325 0.756298
380.549652 -100.734901 1.229439 0.746914
380.549652 -100.734901 0.918891 0.751980
380.549652 -100.734901 0.605996 0.766308
380.549652 -100.734901 0.290046 0.764431
380.422607 -100.682236 0.000009 0.563851
379.244202 -100.193657 0.000008 0.543938
380.549652 -100.806137 4.360870 0.761028
380.549652 -100.806137 4.035632 0.771847
380.549652 -100.806137 3.714960 0.761212
380.549652 -100.806137 3.398085 0.745556
380.549622 -100.806137 3.084273 0.766033
380.549652 -100.806137 2.772816 0.764706
380.549652 -100.806137 2.463027 0.775891
380.549652 -100.806137 2.154232 0.773846
380.549652 -100.806137 1.845768 0.756939
380.549652 -100.806137 1.536973 0.753567
380.549652 -100.806137 1.227184 0.762387
380.549652 -100.806137 0.915727 0.733333
380.549652 -100.806137 0.601915 0.760800
380.549652 -100.806137 0.285040 0.753033
380.397644 -100.741867 0.000009 0.542809
379.222656 -100.245071 0.000007 0.524010
380.549652 -100.877785 4.367918 0.731029
380.549652 -100.877785 4.041708 0.724437
380.549652 -100.877785 3.720078 0.734340
380.549622 -100.877785 3.402258 0.727077
380.549622 -100.877785 3.087510 0.731167
380.549652 -100.877785 2.775123 0.732845
380.549652 -100.877785 2.464409 0.734188
380.549652 -100.877785 2.154692 0.739773
380.549652 -100.877785 1.845308 0.733333
380.549652 -100.877785 1.535591 0.736004
380.549652 -100.877785 1.224877 0.724102
380.549652 -100.877785 0.912490 0.724392
380.549652 -100.877785 0.597741 0.736461
380.549652 -100.877785 0.279921 0.730892
380.372253 -100.801323 0.000008 0.492500
379.200775 -100.296341 0.000007 0.552880
380.549652 -100.949875 4.375123 0.746593
380.549652 -100.949867 4.047921 0.752026
380.549622 -100.949867 3.725312 0.747539
380.549652 -100.949875 3.406526 0.732036
380.549652 -100.949867 3.090819 0.737438
380.549652 -100.949875 2.777482 0.770871
380.549652 -100.949867 2.465822 0.762631
380.549652 -100.949875 2.155163 0.751888
380.549652 -100.949875 1.844837 0.765621
380.549652 -100.949867 1.534178 0.763836
380.549652 -100.949875 1.222518 0.764797
380.549652 -100.949875 0.909181 0.746777
380.549652 -100.949875 0.593474 0.770871
380.549652 -100.949875 0.274687 0.753079
380.346466 -100.860603 0.000009 0.516091
379.178528 -100.347450 0.000007 0.548531
380.549652 -101.022400 4.382489 0.764706
380.549652 -101.022400 4.054273 0.725338
380.549652 -101.022400 3.730663 0.760662
380.549652 -101.022400 3.410887 0.762783
380.549652 -101.022400 3.094202 0.750103
380.549652 -101.022400 2.779893 0.763165
380.549652 -101.022400 2.467267 0.763577
380.549652 -101.022400 2.155644 0.737209
380.549652 -101.022400 1.844356 0.768017
380.549652 -101.022400 1.532733 0.764706
380.549652 -101.022400 1.220107 0.774563
380.549652 -101.022400 0.905798 0.760754
380.549652 -101.022400 0.589112 0.752117
380.549652 -101.022400 0.269336 0.775341
380.320251 -100.919701 0.000009 0.526421
379.155945 -100.398407 0.000007 0.581811
380.549652 -101.095383 4.390018 0.762493
380.549652 -101.095383 4.060764 0.764706
380.549652 -101.095383 3.736132 0.764035
380.549652 -101.095383 3.415346 0.752941
380.549652 -101.095383 3.097660 0.761471
380.549652 -101.095383 2.782357 0.754986
380.549652 -101.095383 2.468743 0.757153
380.549652 -101.095383 2.156136 0.742229
380.549652 -101.095383 1.843864 0.759854
380.549652 -101.095383 1.531257 0.746868
380.549652 -101.095383 1.217642 0.762676
380.549652 -101.095383 0.902340 0.757626
380.549652 -101.095383 0.584654 0.755016
380.549652 -101.095383 0.263867 0.756222
380.293640 -100.978607 0.000008 0.542687
379.132996 -100.449196 0.000008 0.557290
380.549652 -101.168831 4.397712 0.719066
380.549652 -101.168831 4.067398 0.720088
380.549652 -101.168831 3.741722 0.737469
380.549652 -101.168831 3.419902 0.736767
380.549622 -101.168831 3.101193 0.719585
380.549652 -101.168831 2.784876 0.723445
380.549652 -101.168831 2.470252 0.734981
380.549652 -101.168831 2.156639 0.736584
380.549652 -101.168831 1.843361 0.720363
380.549652 -101.168831 1.529748 0.712444
380.549652 -101.168831 1.215124 0.701045
380.549652 -101.168831 0.898807 0.709041
380.549652 -101.168831 0.580098 0.721935
380.549652 -101.168831 0.258278 0.716243
380.266602 -101.037331 0.000009 0.492790
379.109680 -100.499832 0.000008 0.555947
380.549652 -101.242760 4.405573 0.764706
380.549652 -101.242760 4.074176 0.764385
380.549652 -101.242760 3.747432 0.754406
380.549652 -101.242760 3.424557 0.754498
380.549652 -101.242760 3.104804 0.749355
380.549652 -101.242760 2.787449 0.749844
380.549652 -101.242760 2.471794 0.747219
380.549622 -101.242760 2.157152 0.755489
380.549652 -101.242760 1.842848 0.760662
380.549652 -101.242760 1.528206 0.759976
380.549652 -101.242760 1.212551 0.754498
380.549652 -101.242760 0.895196 0.761486
380.549652 -101.242760 0.575443 0.763104
380.549652 -101.242760 0.252568 0.763104
380.239166 -101.095863 0.000009 0.541665
379.085999 -100.550301 0.000008 0.566720
380.549652 -101.317177 4.413604 0.764706
380.549652 -101.317177 4.081100 0.695567
380.549622 -101.317177 3.753265 0.764477
380.549652 -101.317177 3.429313 0.760159
380.549652 -101.317177 3.108492 0.752453
380.549652 -101.317177 2.790078 0.754086
380.549622 -101.317177 2.473369 0.764706
380.549652 -101.317177 2.157677 0.761761
380.549652 -101.317177 1.842323 0.763256
380.549652 -101.317177 1.526631 0.758206
380.549652 -101.317177 1.209922 0.752941
380.549652 -101.317177 0.891508 0.749950
380.549652 -101.317177 0.570686 0.755245
380.549652 -101.317177 0.246734 0.764706
380.211304 -101.154205 0.000009 0.533867
379.062012 -100.600601 0.000008 0.553140
380.549652 -101.392097 4.421807 0.770169
380.549652 -101.392097 4.088173 0.750179
380.549652 -101.392097 3.759224 0.764385
380.549652 -101.392097 3.434171 0.762310
380.549652 -101.392097 3.112259 0.747295
380.549652 -101.392097 2.792763 0.753399
380.549652 -101.392097 2.474978 0.767147
380.549652 -101.392097 2.158213 0.753399
380.549652 -101.392097 1.841787 0.749035
380.549652 -101.392097 1.525022 0.759060
380.549652 -101.392097 1.207237 0.754269
380.549652 -101.392097 0.887741 0.749905
380.549652 -101.392097 0.565829 0.739330
380.549652 -101.392097 0.240776 0.768750
380.183044 -101.212349 0.000009 0.538170
379.037628 -100.650742 0.000007 0.547799
380.549652 -101.467529 4.430184 0.724514
380.549652 -101.467529 4.095397 0.737041
380.549652 -101.467529 3.765310 0.732204
380.549652 -101.467529 3.439132 0.731868
380.549652 -101.467529 3.116107 0.723964
380.549652 -101.467529 2.795506 0.733333
380.549652 -101.467529 2.476621 0.726894
380.549652 -101.467529 2.158760 0.724102
380.549652 -101.467529 1.841240 0.732876
380.549652 -101.467529 1.523379 0.733669
380.549652 -101.467529 1.204494 0.723690
380.549652 -101.467529 0.883893 0.727916
380.549652 -101.467529 0.560868 0.733150
380.549652 -101.467529 0.234690 0.732235
380.154388 -101.270294 0.000009 0.544366
379.012909 -100.700706 0.000007 0.554665
380.549652 -101.543495 4.438740 0.757519
380.549652 -101.543495 4.102774 0.775067
380.549622 -101.543495 3.771524 0.768383
380.549652 -101.543495 3.444198 0.762844
380.549622 -101.543495 3.120036 0.749722
380.549652 -101.543495 2.798306 0.752941
380.549652 -101.543495 2.478299 0.763394
380.549652 -101.543495 2.159319 0.764065
380.549652 -101.543495 1.840681 0.757443
380.549652 -101.543495 1.521701 0.757198
380.549652 -101.543495 1.201694 0.764706
380.549622 -101.543495 0.879964 0.769100
380.549652 -101.543495 0.555802 0.763714
380.549652 -101.543495 0.228475 0.764706
380.125305 -101.328041 0.000009 0.500511
378.987854 -100.750496 0.000007 0.557961
380.549652 -101.619995 4.447474 0.762783
380.549622 -101.619995 4.110305 0.771466
380.549652 -101.619995 3.777869 0.756771
380.549652 -101.619995 3.449372 0.768795
380.549652 -101.619995 3.124048 0.754452
380.549652 -101.619995 2.801165 0.754086
380.549652 -101.619995 2.480012 0.767010
380.549652 -101.619995 2.159889 0.760433
380.549652 -101.619995 1.840110 0.754971
380.549652 -101.619995 1.519988 0.764706
380.549652 -101.619995 1.198834 0.764248
380.549652 -101.619995 0.875952 0.757671
380.549652 -101.619995 0.550628 0.766430
380.549652 -101.619995 0.222130 0.764706
380.095856 -101.385582 0.000009 0.548623
378.962433 -100.800102 0.000008 0.538140
380.549652 -101.697052 4.456393 0.678431
380.549652 -101.697052 4.117995 0.690089
380.549652 -101.697052 3.784348 0.678584
380.549622 -101.697052 3.454653 0.678523
380.549652 -101.697052 3.128144 0.679347
380.549652 -101.697052 2.804085 0.679347
380.549652 -101.697052 2.481761 0.678965
380.549652 -101.697052 2.160472 0.679347
380.549652 -101.697052 1.839528 0.678737
380.549652 -101.697052 1.518239 0.699931
380.549652 -101.697052 1.195915 0.678981
380.549652 -101.697052 0.871856 0.679423
380.549652 -101.697052 0.545348 0.697047
380.549652 -101.697052 0.215652 0.679423
380.065979 -101.442917 0.000009 0.536965
378.936676 -100.849541 0.000008 0.549615
380.549652 -101.774673 4.465498 0.709804
380.549652 -101.774673 4.125845 0.698634
380.549652 -101.774673 3.790962 0.709804
380.549652 -101.774673 3.460044 0.709804
380.549652 -101.774673 3.132325 0.698039
380.549652 -101.774673 2.807065 0.701976
380.549652 -101.774673 2.483547 0.701534
380.549652 -101.774673 2.161067 0.702342
380.549652 -101.774673 1.838933 0.701534
380.549652 -101.774673 1.516453 0.707164
380.549652 -101.774673 1.192935 0.709804
380.549652 -101.774673 0.867675 0.706554
380.549652 -101.774673 0.539956 0.701534
380.549652 -101.774673 0.209038 0.696010
380.035706 -101.500038 0.000009 0.552377
378.910583 -100.898796 0.000008 0.561151
380.549652 -101.852882 4.474791 0.772778
380.549652 -101.852882 4.133858 0.755398
380.549652 -101.852882 3.797712 0.764706
380.549652 -101.852882 3.465547 0.763348
380.549652 -101.852882 3.136593 0.757702
380.549652 -101.852882 2.810107 0.768887
380.549652 -101.852882 2.485369 0.760876
380.549652 -101.852882 2.161674 0.749615
380.549652 -101.852882 1.838326 0.762112
380.549652 -101.852882 1.514631 0.755581
380.549652 -101.852882 1.189893 0.752316
380.549652 -101.852882 0.863407 0.752941
380.549652 -101.852882 0.534453 0.761028
380.549652 -101.852882 0.202288 0.760540
380.005035 -101.556946 0.000009 0.534798
378.884155 -100.947861 0.000008 0.549661
380.549652 -101.931686 4.484276 0.752941
380.549652 -101.931679 4.142035 0.750072
380.549652 -101.931679 3.804601 0.757168
380.549652 -101.931679 3.471164 0.763302
380.549622 -101.931679 3.140949 0.753124
380.549652 -101.931679 2.813212 0.776196
380.549652 -101.931679 2.487229 0.757946
380.549652 -101.931686 2.162294 0.734020
380.549652 -101.931686 1.837706 0.752941
380.549652 -101.931679 1.512771 0.764706
380.549652 -101.931686 1.186788 0.762676
380.549652 -101.931679 0.859051 0.753399
380.549652 -101.931679 0.528836 0.752895
380.549652 -101.931686 0.195398 0.753170
379.973969 -101.613647 0.000009 0.535592
378.857361 -100.996750 0.000007 0.611154
380.549652 -102.011093 4.493956 0.726986
380.549652 -102.011093 4.150383 0.731991
380.549652 -102.011093 3.811634 0.714763
380.549652 -102.011093 3.476896 0.716472
380.549652 -102.011093 3.145395 0.727703
380.549652 -102.011093 2.816380 0.716564
380.549652 -102.011093 2.489128 0.736675
380.549652 -102.011093 2.162926 0.734661
380.549652 -102.011093 1.837074 0.706447
380.549652 -102.011093 1.510872 0.726726
380.549652 -102.011093 1.183619 0.724254
380.549652 -102.011093 0.854605 0.723308
380.549652 -102.011093 0.523103 0.716564
380.549652 -102.011093 0.188366 0.733776
379.942505 -101.670120 0.000008 0.596536
378.830231 -101.045448 0.000007 0.572702
380.549652 -102.091125 4.503833 0.727077
380.549652 -102.091125 4.158899 0.771572
380.549652 -102.091125 3.818809 0.745388
380.549652 -102.091125 3.482746 0.740032
380.549652 -102.091125 3.149931 0.745251
380.549622 -102.091125 2.819614 0.776471
380.549652 -102.091125 2.491065 0.752941
380.549652 -102.091125 2.163572 0.727962
380.549652 -102.091125 1.836429 0.725856
380.549652 -102.091125 1.508935 0.737469
380.549652 -102.091125 1.180386 0.748898
380.549652 -102.091125 0.850069 0.739040
380.549652 -102.091133 0.517254 0.748898
380.549652 -102.091125 0.181191 0.748898
379.910675 -101.726379 0.000008 0.546029
378.802765 -101.093948 0.000007 0.578790
380.549652 -102.171806 4.513913 0.752499
380.549652 -102.171806 4.167591 0.764401
380.549652 -102.171806 3.826130 0.759197
380.549652 -102.171806 3.488716 0.749416
380.549622 -102.171806 3.154561 0.757794
380.549652 -102.171806 2.822914 0.762448
380.549652 -102.171806 2.493042 0.764706
380.549652 -102.171806 2.164230 0.762966
380.549652 -102.171806 1.835770 0.754971
380.549652 -102.171806 1.506958 0.766735
380.549652 -102.171806 1.177086 0.760479
380.549652 -102.171806 0.845439 0.764706
380.549652 -102.171806 0.511284 0.751247
380.549652 -102.171806 0.173869 0.763378
379.878418 -101.782410 0.000008 0.540261
378.774963 -101.142265 0.000007 0.532052
380.549652 -102.253136 4.524198 0.712413
380.549652 -102.253136 4.176458 0.726711
380.549652 -102.253136 3.833601 0.725750
380.549652 -102.253136 3.494806 0.744610
380.549622 -102.253136 3.159284 0.727581
380.549652 -102.253136 2.826280 0.726955
380.549652 -102.253136 2.495059 0.731456
380.549652 -102.253136 2.164902 0.737255
380.549652 -102.253136 1.835098 0.705531
380.549652 -102.253136 1.504941 0.722667
380.549652 -102.253136 1.173720 0.711116
380.549652 -102.253136 0.840716 0.724208
380.549652 -102.253136 0.505194 0.704463
380.549652 -102.253136 0.166398 0.713726
379.845795 -101.838211 0.000008 0.506050
378.746826 -101.190384 0.000008 0.585809
380.549652 -102.335144 4.534690 0.709560
380.549652 -102.335144 4.185506 0.709804
380.549652 -102.335144 3.841224 0.715526
380.549652 -102.335144 3.501020 0.722530
380.549652 -102.335144 3.164103 0.709300
380.549622 -102.335144 2.829715 0.723018
380.549652 -102.335144 2.497117 0.714397
380.549652 -102.335144 2.165587 0.740261
380.549652 -102.335144 1.834413 0.721202
380.549652 -102.335144 1.502883 0.711376
380.549652 -102.335144 1.170285 0.705303
380.549652 -102.335144 0.835897 0.709804
380.549652 -102.335144 0.498980 0.698497
380.549652 -102.335144 0.158776 0.709804
379.812744 -101.893791 0.000008 0.571069
378.718353 -101.238304 0.000008 0.542565
380.549652 -102.417839 4.545396 0.759884
380.549652 -102.417839 4.194736 0.757122
380.549652 -102.417839 3.849000 0.764706
380.549652 -102.417839 3.507359 0.764019
380.549652 -102.417839 3.169020 0.756756
380.549652 -102.417839 2.833219 0.764355
380.549622 -102.417839 2.499217 0.748272
380.549652 -102.417839 2.166287 0.764706
380.549652 -102.417839 1.833713 0.754299
380.549622 -102.417839 1.500783 0.756222
380.549652 -102.417839 1.166781 0.757031
380.549652 -102.417839 0.830980 0.758709
380.549652 -102.417839 0.492641 0.758389
380.549652 -102.417839 0.150999 0.744533
379.779358 -101.949135 0.000009 0.536141
378.689545 -101.286018 0.000008 0.501427
380.549652 -102.501236 4.556317 0.766339
380.549652 -102.501236 4.204153 0.762020
380.549652 -102.501236 3.856934 0.763699
380.549652 -102.501236 3.513827 0.764294
380.549652 -102.501236 3.174036 0.761288
380.549652 -102.501236 2.836794 0.761669
380.549652 -102.501236 2.501359 0.768780
380.549652 -102.501236 2.167000 0.763485
380.549652 -102.501236 1.833000 0.750027
380.549652 -102.501236 1.498641 0.760571
380.549652 -102.501236 1.163205 0.755978
380.549652 -102.501236 0.825964 0.764172
380.549652 -102.501236 0.486173 0.761791
380.549652 -102.501236 0.143066 0.767254
379.745544 -102.004242 0.000008 0.506264
378.660400 -101.333542 0.000007 0.539544
380.549652 -102.585358 4.567458 0.726284
380.549652 -102.585358 4.213759 0.729747
380.549622 -102.585358 3.865026 0.721569
380.549652 -102.585358 3.520424 0.723033
380.549652 -102.585358 3.179152 0.731685
380.549622 -102.585358 2.840441 0.736355
380.549652 -102.585358 2.503543 0.731731
380.549652 -102.585358 2.167728 0.733333
380.549652 -102.585358 1.832272 0.731212
380.549652 -102.585358 1.496456 0.733333
380.549652 -102.585358 1.159559 0.733333
380.549652 -102.585358 0.820848 0.721569
380.549652 -102.585358 0.479576 0.731212
380.549652 -102.585358 0.134973 0.730114
379.711365 -102.059120 0.000008 0.522606
378.630920 -101.380852 0.000007 0.514595
380.549652 -102.670219 4.578824 0.763516
380.549622 -102.670219 4.223558 0.757031
380.549622 -102.670219 3.873282 0.751842
380.549622 -102.670219 3.527154 0.771099
380.549652 -102.670219 3.184372 0.746593
380.549652 -102.670219 2.844161 0.765530
380.549652 -102.670219 2.505773 0.767422
380.549652 -102.670219 2.168471 0.741176
380.549652 -102.670219 1.831530 0.752117
380.549652 -102.670219 1.494227 0.766354
380.549652 -102.670219 1.155838 0.737530
380.549652 -102.670219 0.815628 0.771008
380.549652 -102.670219 0.472845 0.771008
380.549652 -102.670219 0.126718 0.763745
379.676819 -102.113747 0.000009 0.543160
378.601135 -101.427956 0.000007 0.578958
380.549652 -102.755844 4.590416 0.764706
380.549652 -102.755844 4.233554 0.764248
380.549652 -102.755844 3.881703 0.741176
380.549652 -102.755844 3.534019 0.764706
380.549622 -102.755844 3.189696 0.764706
380.549652 -102.755844 2.847956 0.763378
380.549652 -102.755844 2.508046 0.753491
380.549652 -102.755844 2.169228 0.762295
380.549652 -102.755844 1.830772 0.757992
380.549652 -102.755844 1.491954 0.764706
380.549652 -102.755844 1.152044 0.753246
380.549652 -102.755844 0.810304 0.752956
380.549652 -102.755844 0.465980 0.758038
380.549652 -102.755844 0.118297 0.776471
379.641876 -102.168137 0.000008 0.539910
378.571014 -101.474854 0.000007 0.568627
380.549652 -102.842239 4.602241 0.690532
380.549652 -102.842239 4.243750 0.681651
380.549652 -102.842239 3.890293 0.691829
380.549652 -102.842239 3.541022 0.685786
380.549652 -102.842239 3.195127 0.681468
380.549652 -102.842239 2.851827 0.687709
380.549652 -102.842239 2.510365 0.693645
380.549652 -102.842239 2.170000 0.686656
380.549652 -102.842239 1.830000 0.689006
380.549652 -102.842239 1.489635 0.694102
380.549652 -102.842239 1.148173 0.687861
380.549652 -102.842239 0.804873 0.686213
380.549652 -102.842239 0.458978 0.690837
380.549652 -102.842239 0.109707 0.698039
379.606537 -102.222282 0.000008 0.522576
378.540558 -101.521538 0.000007 0.513481
380.549652 -102.929436 4.614302 0.678431
380.549652 -102.929436 4.254149 0.679850
380.549652 -102.929436 3.899055 0.698512
380.549652 -102.929436 3.548164 0.696620
380.549652 -102.929436 3.200666 0.678431
380.549652 -102.929436 2.855775 0.678431
380.549652 -102.929436 2.512731 0.707530
380.549652 -102.929436 2.170788 0.678431
380.549652 -102.929436 1.829212 0.698039
380.549652 -102.929436 1.487269 0.684138
380.549652 -102.929436 1.144225 0.696162
380.549652 -102.929436 0.799334 0.693446
380.549652 -102.929436 0.451835 0.678431
380.549652 -102.929436 0.100945 0.678431
379.570831 -102.276184 0.000009 0.506691
378.509766 -101.568008 0.000008 0.554726
380.549652 -103.017448 4.626604 0.764752
380.549652 -103.017448 4.264757 0.763119
