# This PCD file was generated using the MATLABÂ® pcwrite function
# from Computer Vision ToolboxÂ®.
# .PCD v.7 - Point Cloud Data file format
VERSION .7
FIELDS x y z intensity
SIZE 4 4 4 4
TYPE F F F F
COUNT 1 1 1 1
WIDTH 1155
HEIGHT 1
VIEWPOINT 0 0 0 1 0 0 0
POINTS 1155
DATA ascii
216.102783 -120.202271 1.885842 0.281468
216.102783 -120.202271 1.657282 0.290242
216.128113 -120.180801 1.425263 0.716747
216.128113 -120.180801 1.193636 0.541756
216.128113 -120.180801 0.960257 0.497688
216.128113 -120.180801 0.724600 0.265690
216.102783 -120.202263 0.493289 0.259358
216.102783 -120.202271 0.252557 0.259388
221.842682 -115.468750 5.610965 0.681529
221.842682 -115.468750 5.113510 0.560128
221.842682 -115.468750 4.623040 0.743755
221.842682 -115.468750 4.138379 0.642649
221.842712 -115.468727 3.658407 0.596750
221.842773 -115.468681 3.182036 0.698802
221.842773 -115.468681 2.708208 0.669657
214.285980 -121.784088 2.074743 0.268925
216.178726 -120.202271 1.884892 0.270069
216.178741 -120.202263 1.654428 0.264683
216.204422 -120.180801 1.420476 0.197528
216.204422 -120.180801 1.186920 0.213565
216.204422 -120.180801 0.951597 0.049485
216.204422 -120.180801 0.713977 0.012940
216.178741 -120.202263 0.480739 0.268666
216.178741 -120.202271 0.238003 0.275212
222.000916 -115.468781 5.641464 0.507790
222.000916 -115.468773 5.139808 0.549020
222.000916 -115.468781 4.645195 0.578576
222.000946 -115.468765 4.156443 0.587900
222.001007 -115.468704 3.672422 0.648859
222.001038 -115.468681 3.192022 0.761059
222.001038 -115.468674 2.714191 0.710018
214.340256 -121.780693 2.075462 0.268666
216.255951 -120.202271 1.883919 0.272648
216.255966 -120.202263 1.651508 0.279622
216.282013 -120.180801 1.415580 0.178408
216.282013 -120.180801 1.180050 0.149798
216.282013 -120.180801 0.942739 0.044678
216.282013 -120.180801 0.703112 0.073518
216.255966 -120.202263 0.467903 0.264439
216.255966 -120.202271 0.223117 0.276661
222.161865 -115.468796 5.672663 0.637827
222.161865 -115.468796 5.166709 0.559625
222.161865 -115.468796 4.667859 0.754131
222.161926 -115.468742 4.174930 0.560967
222.162003 -115.468689 3.686758 0.623545
222.162003 -115.468681 3.202238 0.593545
222.162018 -115.468674 2.720312 0.762264
214.395538 -121.777260 2.076198 0.281346
216.334503 -120.202271 1.882924 0.267872
216.334518 -120.202263 1.648521 0.273533
216.360931 -120.180801 1.410572 0.179980
216.360931 -120.180801 1.173023 0.124559
216.360931 -120.180801 0.933678 0.047822
216.360931 -120.180801 0.691998 0.327779
216.334518 -120.202263 0.454772 0.278477
216.334503 -120.202271 0.207888 0.275395
222.325592 -115.468826 5.704583 0.552056
222.325592 -115.468819 5.194232 0.824521
222.325653 -115.468781 4.691058 0.541161
222.325714 -115.468719 4.193843 0.657938
222.325775 -115.468681 3.701424 0.642054
222.325775 -115.468674 3.212691 0.558434
222.325775 -115.468674 2.726574 0.568429
214.451904 -121.773773 2.076952 0.279149
216.414413 -120.202271 1.881906 0.278065
216.414413 -120.202263 1.645465 0.285832
216.414413 -120.202263 1.408263 0.273350
216.414413 -120.202263 1.169784 0.277150
216.414413 -120.202263 0.929501 0.266407
216.414413 -120.202263 0.686874 0.269627
216.414413 -120.202263 0.441338 0.284260
216.414413 -120.202271 0.192308 0.284123
222.492203 -115.468842 5.737248 0.733166
222.492249 -115.468811 5.222406 0.799649
222.492310 -115.468758 4.714799 0.807141
222.492386 -115.468704 4.213197 0.544900
222.492416 -115.468674 3.716431 0.699977
222.492416 -115.468674 3.223386 0.750515
222.492416 -115.468674 2.732982 0.552117
214.509369 -121.770233 2.077724 0.276555
216.495728 -120.202271 1.880865 0.284779
216.495728 -120.202271 1.642339 0.267399
216.495728 -120.202271 1.403045 0.284520
216.495728 -120.202271 1.162462 0.286839
216.495728 -120.202271 0.920061 0.266239
216.495728 -120.202271 0.675294 0.282826
216.495728 -120.202271 0.427593 0.272557
216.495728 -120.202271 0.176365 0.267689
222.661804 -115.468857 5.770685 0.623026
222.661880 -115.468796 5.251246 0.584909
222.661957 -115.468735 4.739096 0.573831
222.662033 -115.468681 4.233005 0.635203
222.662033 -115.468674 3.731789 0.547723
222.662033 -115.468674 3.234334 0.771954
222.662033 -115.468674 2.739541 0.521691
214.567963 -121.766655 2.078515 0.270451
222.662048 -115.468674 1.753662 0.714626
222.662048 -115.468674 1.260458 0.548058
222.662033 -115.468674 0.765666 0.580819
222.662033 -115.468674 0.268210 0.710079
221.422348 -116.433273 -0.000006 0.580804
219.456177 -117.963150 -0.000006 0.541802
218.089600 -119.026474 -0.000005 0.547204
217.082779 -119.809883 -0.000004 0.505379
222.723816 -115.553741 5.769977 0.446845
222.723816 -115.553741 5.250616 0.519539
222.723816 -115.553741 4.738548 0.489738
222.834717 -115.468689 4.253276 0.556725
222.834732 -115.468674 3.747512 0.556817
222.834732 -115.468674 3.245539 0.578714
222.834732 -115.468674 2.746255 0.605219
214.627716 -121.763046 2.079325 0.277028
222.834732 -115.468674 1.751426 0.689403
222.834732 -115.468674 1.253745 0.599176
222.834732 -115.468674 0.754460 0.732341
222.834732 -115.468674 0.252488 0.550408
221.479889 -116.507767 -0.000006 0.561242
219.503082 -118.023880 -0.000005 0.550668
218.129120 -119.077637 -0.000005 0.553017
217.116852 -119.853996 -0.000004 0.532891
222.971054 -115.498566 5.827622 0.678431
222.971054 -115.498566 5.300320 0.678431
222.971054 -115.498566 4.780422 0.678431
223.048309 -115.440163 4.281047 0.519799
223.010574 -115.468689 3.763605 0.567712
223.010590 -115.468674 3.257012 0.560067
223.010590 -115.468674 2.753129 0.755688
214.688644 -121.759407 2.080154 0.272648
223.010590 -115.468674 1.749136 0.653529
223.010590 -115.468674 1.246871 0.546868
223.010590 -115.468674 0.742987 0.707027
223.010590 -115.468674 0.236392 0.601984
221.536911 -116.582657 -0.000007 0.531243
219.549576 -118.084930 -0.000005 0.555550
218.168289 -119.129074 -0.000004 0.527672
217.150620 -119.898346 -0.000004 0.520653
223.149612 -115.498566 5.863396 0.678431
223.149612 -115.498566 5.331165 0.678431
223.149612 -115.498566 4.806407 0.678431
223.112747 -115.526024 4.281049 0.468040
223.189697 -115.468704 3.780085 0.530800
223.189713 -115.468689 3.268758 0.542245
223.189728 -115.468674 2.760168 0.733700
214.752960 -121.754135 2.081048 0.272404
223.189743 -115.468674 1.746791 0.706661
223.189743 -115.468674 1.239832 0.530449
223.189743 -115.468666 0.731238 0.573663
223.189743 -115.468666 0.219908 0.735103
221.593414 -116.657944 -0.000007 0.503929
219.595627 -118.146309 -0.000006 0.496391
218.207092 -119.180779 -0.000005 0.513176
217.184082 -119.942932 -0.000005 0.493996
223.331558 -115.498566 5.900037 0.678431
223.331543 -115.498566 5.362759 0.678431
223.331543 -115.498566 4.833025 0.678431
223.256409 -115.553734 4.295737 0.496513
223.372192 -115.468719 3.796965 0.600244
223.372223 -115.468704 3.280789 0.736965
223.372238 -115.468689 2.767376 0.600534
214.816910 -121.750084 2.081928 0.273106
223.256409 -115.553741 1.746742 0.484901
223.256409 -115.553741 1.239684 0.491310
223.256409 -115.553741 0.730992 0.482658
223.372269 -115.468674 0.203025 0.548638
221.649384 -116.733620 -0.000007 0.541222
219.641266 -118.208008 -0.000006 0.522408
218.245544 -119.232758 -0.000005 0.517220
217.217239 -119.987747 -0.000004 0.571130
223.516983 -115.498566 5.937573 0.678431
223.516983 -115.498566 5.395123 0.678431
223.516983 -115.498566 4.860290 0.678431
223.440720 -115.553741 4.317831 0.481544
223.558212 -115.468735 3.814257 0.766430
223.558228 -115.468719 3.293114 0.627955
223.558258 -115.468704 2.774760 0.759106
214.882278 -121.745934 2.082833 0.270008
223.516968 -115.498573 1.742765 0.678431
223.516968 -115.498573 1.227742 0.678431
223.516968 -115.498573 0.711061 0.678431
223.558304 -115.468666 0.185730 0.553445
221.704834 -116.809692 -0.000007 0.529854
219.686462 -118.270020 -0.000006 0.573449
218.283615 -119.285004 -0.000005 0.505867
217.250061 -120.032791 -0.000004 0.516686
223.628632 -115.553749 5.952224 0.431006
223.628616 -115.553749 5.407756 0.559579
223.628616 -115.553749 4.870934 0.525780
223.628632 -115.553749 4.340469 0.437186
223.747849 -115.468750 3.831975 0.545037
223.747864 -115.468742 3.305743 0.554086
223.747910 -115.468704 2.782328 0.532570
214.949066 -121.741714 2.083761 0.275059
223.706009 -115.498573 1.740252 0.678431
223.706024 -115.498573 1.220199 0.678431
223.706009 -115.498573 0.698471 0.678431
223.747971 -115.468666 0.168008 0.629740
221.759735 -116.886139 -0.000007 0.556924
219.731216 -118.332344 -0.000006 0.550561
218.321335 -119.337509 -0.000005 0.543557
217.282578 -120.078064 -0.000004 0.535210
223.898834 -115.498550 6.015460 0.678431
223.898834 -115.498550 5.462281 0.678431
223.898834 -115.498550 4.916869 0.678431
223.898834 -115.498550 4.377917 0.678431
223.941223 -115.468773 3.850134 0.540047
223.941254 -115.468750 3.318686 0.520684
223.941315 -115.468712 2.790084 0.523003
215.017319 -121.737442 2.084713 0.265446
223.898804 -115.498573 1.737677 0.678431
223.898804 -115.498573 1.212468 0.678431
223.898804 -115.498573 0.685568 0.678431
223.941376 -115.468666 0.149846 0.552956
221.814117 -116.962975 -0.000007 0.533104
219.775543 -118.394981 -0.000006 0.519020
218.358673 -119.390274 -0.000005 0.557626
217.314789 -120.123566 -0.000005 0.516350
224.095490 -115.498550 6.055867 0.743252
224.095490 -115.498550 5.497122 0.678431
224.095490 -115.498550 4.946222 0.678431
224.095490 -115.498550 4.401846 0.678431
224.138489 -115.468788 3.868748 0.621012
224.138550 -115.468758 3.331955 0.529473
224.138611 -115.468712 2.798034 0.631312
215.087067 -121.733116 2.085690 0.267994
224.095459 -115.498573 1.735037 0.678431
224.095459 -115.498573 1.204543 0.678431
224.095459 -115.498573 0.672341 0.678431
224.138672 -115.468666 0.131227 0.577813
221.867950 -117.040184 -0.000007 0.546258
219.819443 -118.457924 -0.000006 0.541268
218.395645 -119.443306 -0.000005 0.496132
217.346664 -120.169289 -0.000004 0.517189
224.215195 -115.553749 6.072754 0.552850
224.296158 -115.498550 5.532845 0.678431
224.296158 -115.498550 4.976317 0.678431
224.296158 -115.498550 4.426381 0.678431
224.339798 -115.468796 3.887836 0.538216
224.339859 -115.468758 3.345562 0.651621
224.339920 -115.468712 2.806186 0.728466
215.158371 -121.728745 2.086692 0.267536
224.296112 -115.498573 1.732331 0.678431
224.296112 -115.498573 1.196418 0.678431
224.296112 -115.498573 0.658779 0.678431
224.339981 -115.468666 0.112138 0.685847
221.921249 -117.117775 -0.000007 0.524285
219.862885 -118.521179 -0.000006 0.535485
218.432251 -119.496597 -0.000005 0.553994
217.378220 -120.215240 -0.000005 0.543145
224.418777 -115.553757 6.114987 0.699779
224.459274 -115.526558 5.558632 0.653544
224.459274 -115.526558 4.998043 0.599557
224.459274 -115.526558 4.444092 0.624018
224.545258 -115.468803 3.907412 0.574929
224.545334 -115.468758 3.359514 0.525353
224.545395 -115.468719 2.814546 0.649165
215.231430 -121.724228 2.087724 0.272633
224.500931 -115.498581 1.729555 0.678431
224.500931 -115.498573 1.188085 0.678431
224.500931 -115.498573 0.644870 0.678431
224.545471 -115.468666 0.092560 0.547433
221.973999 -117.195732 -0.000007 0.514290
219.905899 -118.584732 -0.000006 0.536645
218.468491 -119.550133 -0.000005 0.547616
217.409470 -120.261406 -0.000005 0.506783
224.754578 -115.469116 6.196737 0.712123
224.754684 -115.469048 5.618613 0.659480
224.754822 -115.468956 5.048603 0.732891
224.754929 -115.468887 4.485331 0.518868
224.755035 -115.468819 3.927491 0.692042
224.755127 -115.468758 3.373828 0.577340
224.755188 -115.468719 2.823122 0.571725
215.306381 -121.719521 2.088787 0.261189
224.710052 -115.498573 1.726707 0.678431
224.710052 -115.498581 1.179537 0.678431
224.710052 -115.498573 0.630602 0.678431
224.755264 -115.468666 0.072478 0.564034
222.026215 -117.274055 -0.000007 0.534035
219.948456 -118.648582 -0.000006 0.550744
218.504333 -119.603928 -0.000005 0.565744
217.440384 -120.307785 -0.000005 0.513924
224.968796 -115.469154 6.241585 0.714260
224.924469 -115.498024 5.645832 0.433371
224.924469 -115.498024 5.071505 0.525673
224.924484 -115.498024 4.503981 0.368750
224.969269 -115.468842 3.948092 0.550774
224.969360 -115.468781 3.388513 0.663050
224.969452 -115.468719 2.831921 0.617594
215.388168 -121.711449 2.089978 0.269490
224.923630 -115.498581 1.723786 0.678431
224.923630 -115.498581 1.170765 0.678431
224.923630 -115.498581 0.615963 0.678431
224.969543 -115.468666 0.051872 0.564935
222.077881 -117.352737 -0.000007 0.511635
219.990570 -118.712723 -0.000006 0.544915
218.539825 -119.657967 -0.000005 0.532067
217.470978 -120.354378 -0.000005 0.530983
225.187637 -115.469185 6.287616 0.672145
225.141830 -115.498581 5.685188 0.678431
225.141830 -115.498581 5.104662 0.678431
225.141830 -115.498581 4.531012 0.678431
225.188187 -115.468834 3.969241 0.647608
225.188278 -115.468781 3.403585 0.691142
225.188354 -115.468727 2.840952 0.547555
215.467560 -121.706108 2.091116 0.274662
225.141830 -115.498581 1.720788 0.678431
225.141830 -115.498581 1.161764 0.678431
225.141830 -115.498581 0.600939 0.678431
225.188446 -115.468666 0.030723 0.610101
222.128983 -117.431786 -0.000007 0.540444
220.032242 -118.777168 -0.000006 0.555718
218.574921 -119.712257 -0.000005 0.584268
217.501236 -120.401192 -0.000004 0.532189
225.411316 -115.469208 6.334874 0.618524
225.364838 -115.498581 5.725816 0.678431
225.364838 -115.498581 5.138890 0.678431
225.364838 -115.498581 4.558915 0.678431
225.411911 -115.468834 3.990952 0.695613
225.412018 -115.468765 3.419062 0.549004
225.412109 -115.468712 2.850224 0.653422
215.548935 -121.700676 2.092288 0.273915
225.277542 -115.553734 1.719399 0.641443
225.277542 -115.553734 1.157595 0.632578
225.277542 -115.553734 0.593981 0.568780
225.412186 -115.468658 0.009012 0.739910
222.179535 -117.511185 -0.000008 0.515114
220.073456 -118.841896 -0.000006 0.511437
218.609650 -119.766785 -0.000005 0.515709
217.531189 -120.448212 -0.000005 0.572961
225.639984 -115.469238 6.383398 0.533974
225.592819 -115.498581 5.767536 0.678431
225.592819 -115.498581 5.174037 0.678431
225.592819 -115.498581 4.587568 0.678431
225.640625 -115.468842 4.013242 0.518486
225.640762 -115.468765 3.434952 0.574243
225.640869 -115.468697 2.859746 0.556100
215.632355 -121.695145 2.093492 0.268147
225.640900 -115.468666 1.713622 0.593988
225.640915 -115.468666 1.140250 0.517647
225.640900 -115.468666 0.565033 0.555016
225.542953 -115.529610 -0.000009 0.537835
222.229538 -117.590935 -0.000007 0.547890
220.114212 -118.906914 -0.000006 0.533989
218.643982 -119.821564 -0.000005 0.535485
217.560791 -120.495438 -0.000005 0.536812
225.873840 -115.469269 6.433240 0.550912
225.785675 -115.523270 5.800178 0.491890
225.785675 -115.523270 5.201537 0.534249
225.785675 -115.523270 4.609987 0.545251
225.874481 -115.468872 4.036135 0.754040
225.874664 -115.468765 3.451273 0.659190
225.874802 -115.468689 2.869526 0.731823
215.717896 -121.689529 2.094732 0.278279
225.874847 -115.468658 1.710364 0.673716
225.874832 -115.468666 1.130472 0.603449
225.874832 -115.468658 0.548711 0.553841
225.606705 -115.632889 -0.000010 0.548989
222.278976 -117.671028 -0.000007 0.543450
220.154526 -118.972206 -0.000006 0.558755
218.677948 -119.876572 -0.000005 0.502510
217.590073 -120.542870 -0.000004 0.573587
226.113083 -115.469307 6.484450 0.517769
226.064545 -115.498573 5.854422 0.678431
226.064545 -115.498573 5.247235 0.678431
226.064545 -115.498566 4.647242 0.678431
226.113754 -115.468903 4.059656 0.517647
226.113983 -115.468765 3.468041 0.606455
226.114105 -115.468689 2.879573 0.579232
215.805603 -121.683838 2.096006 0.274479
227.972107 -114.348473 1.671516 0.632563
227.971863 -114.348618 1.013856 0.681285
227.971634 -114.348755 0.354096 0.517647
225.669739 -115.736610 -0.000010 0.530724
222.327866 -117.751472 -0.000008 0.539315
220.194366 -119.037788 -0.000006 0.540795
218.711517 -119.931824 -0.000005 0.521645
217.619019 -120.590508 -0.000004 0.539864
226.357941 -115.469337 6.537079 0.642145
226.308670 -115.498573 5.899668 0.678431
226.308670 -115.498573 5.285355 0.678431
226.308670 -115.498581 4.678317 0.678431
226.358612 -115.468933 4.083828 0.669123
226.358902 -115.468765 3.485276 0.626505
226.359024 -115.468689 2.889899 0.549020
215.895569 -121.678078 2.097318 0.268849
228.246307 -114.348709 1.667667 0.557763
228.246002 -114.348885 1.002305 0.564828
228.245712 -114.349060 0.334823 0.600244
225.732040 -115.840767 -0.000010 0.536385
222.376190 -117.832253 -0.000008 0.539620
220.233765 -119.103638 -0.000006 0.566629
218.744705 -119.987305 -0.000005 0.545083
217.647629 -120.638344 -0.000005 0.571115
226.608582 -115.469391 6.591179 0.534432
226.558594 -115.498581 5.946186 0.678431
226.558594 -115.498581 5.324543 0.678431
226.558594 -115.498581 4.710265 0.678431
226.609299 -115.468971 4.108679 0.590158
226.609650 -115.468773 3.502993 0.664698
226.609787 -115.468689 2.900514 0.509239
215.987854 -121.672264 2.098668 0.267872
231.253845 -112.756401 1.612037 0.690593
231.253845 -112.756401 0.835277 0.678431
231.253830 -112.756401 0.056015 0.679408
225.793610 -115.945358 -0.000010 0.528511
222.423950 -117.913361 -0.000008 0.517769
220.272690 -119.169769 -0.000006 0.528328
218.777512 -120.043015 -0.000005 0.500038
217.675919 -120.686378 -0.000005 0.528267
226.865295 -115.469437 6.646813 0.552346
226.865433 -115.469360 6.006690 0.518898
226.865631 -115.469246 5.375560 0.517647
226.865814 -115.469139 4.751887 0.578408
226.866074 -115.468994 4.134236 0.530282
226.866409 -115.468803 3.521210 0.552560
226.866592 -115.468697 2.911431 0.630884
216.082520 -121.666412 2.100056 0.268437
231.253845 -112.947304 1.613603 0.709926
231.253845 -112.947296 0.839978 0.517647
231.253845 -112.947304 0.063862 0.736400
225.854462 -116.050377 -0.000010 0.545434
222.471130 -117.994812 -0.000008 0.526772
220.311157 -119.236168 -0.000006 0.551461
218.809906 -120.098953 -0.000005 0.491218
217.703857 -120.734612 -0.000005 0.518364
227.128326 -115.469490 6.704045 0.650126
227.128479 -115.469406 6.056041 0.615045
227.128677 -115.469292 5.417138 0.608835
227.128906 -115.469162 4.785789 0.716182
227.129181 -115.469009 4.160531 0.604669
227.129486 -115.468826 3.539948 0.610697
227.129730 -115.468697 2.922662 0.634546
216.180237 -121.660194 2.101496 0.278157
231.253845 -113.136681 1.615137 0.625925
231.253845 -113.136681 0.844586 0.517647
231.253845 -113.136681 0.071553 0.550759
225.914566 -116.155823 -0.000010 0.536538
222.517746 -118.076584 -0.000007 0.529625
220.349167 -119.302826 -0.000006 0.544427
218.841934 -120.155113 -0.000005 0.526635
217.731461 -120.783035 -0.000005 0.540688
227.397919 -115.469543 6.762937 0.570260
227.398087 -115.469444 6.106826 0.540185
227.398315 -115.469330 5.459924 0.710719
227.398590 -115.469170 4.820679 0.671550
227.398865 -115.469017 4.187590 0.620462
227.399139 -115.468864 3.559231 0.673945
227.399445 -115.468697 2.934218 0.539849
216.294785 -121.646019 2.103244 0.272419
231.253845 -113.324562 1.616641 0.580392
231.253845 -113.324562 0.849101 0.563577
231.253845 -113.324562 0.079088 0.607050
225.973938 -116.261673 -0.000010 0.533639
222.563797 -118.158684 -0.000008 0.536477
220.386703 -119.369759 -0.000006 0.540551
218.873550 -120.211494 -0.000006 0.529992
217.758728 -120.831650 -0.000005 0.556542
227.674377 -115.469597 6.823563 0.652659
227.674561 -115.469490 6.159105 0.623575
227.674835 -115.469345 5.503979 0.635431
227.675125 -115.469185 4.856594 0.523033
227.675415 -115.469025 4.215446 0.549020
227.675690 -115.468872 3.579086 0.517647
227.676025 -115.468697 2.946115 0.527581
216.400055 -121.638626 2.104811 0.273838
216.393250 -121.642349 1.895316 0.276478
216.393250 -121.642349 1.685723 0.265965
216.393250 -121.642349 1.475455 0.263508
216.393250 -121.642349 1.264055 0.263920
216.393250 -121.642349 1.051058 0.277287
216.393250 -121.642349 0.835981 0.263157
216.393250 -121.642349 0.618326 0.269429
216.393250 -121.642349 0.397572 0.261402
227.957962 -115.469650 6.885990 0.542412
227.958206 -115.469521 6.212946 0.548501
227.958511 -115.469353 5.549345 0.539040
227.958801 -115.469193 4.893580 0.579553
227.959106 -115.469040 4.244131 0.648737
227.959396 -115.468880 3.599532 0.691508
227.929626 -115.484901 2.956686 0.676982
216.507858 -121.631393 2.106418 0.269825
216.395020 -121.692116 1.895679 0.281834
216.395020 -121.692116 1.686813 0.285039
216.395020 -121.692116 1.477275 0.270069
216.395020 -121.692116 1.266608 0.281788
216.395020 -121.692116 1.054349 0.268177
216.395020 -121.692116 0.840018 0.273579
216.395020 -121.692116 0.623119 0.258824
216.395020 -121.692116 0.403131 0.264912
228.249023 -115.469704 6.950305 0.686412
228.249329 -115.469536 6.268417 0.560754
228.249634 -115.469368 5.596079 0.619165
228.249939 -115.469208 4.931680 0.644556
228.250244 -115.469048 4.273680 0.517647
228.250565 -115.468887 3.620594 0.671839
228.250854 -115.468727 2.970983 0.731151
231.253830 -113.879646 2.379026 0.517647
231.253845 -113.879646 1.620973 0.580392
231.253845 -113.879646 0.862108 0.625742
231.253845 -113.879646 0.100798 0.660105
226.147614 -116.581703 -0.000010 0.537896
222.698471 -118.406876 -0.000008 0.522210
220.496506 -119.572090 -0.000006 0.552682
218.966049 -120.381958 -0.000005 0.554055
217.838486 -120.978630 -0.000004 0.550088
231.175797 -114.102524 7.758610 0.968582
230.665848 -114.367828 6.841138 0.928161
230.187424 -114.616737 5.980386 0.846586
231.253830 -114.061920 5.423242 0.694469
231.253830 -114.061920 4.654867 0.517647
231.253845 -114.061920 3.892257 0.628443
231.253845 -114.061920 3.133731 0.736950
231.253845 -114.061920 2.377640 0.678614
231.253845 -114.061920 1.622360 0.698390
231.253845 -114.061920 0.866269 0.663233
231.253845 -114.061920 0.107742 0.685420
226.203995 -116.689178 -0.000010 0.550835
222.742218 -118.490227 -0.000008 0.558465
220.532166 -119.640045 -0.000006 0.535195
218.996094 -120.439201 -0.000005 0.582437
217.864380 -121.027992 -0.000005 0.567239
231.162170 -114.289764 7.734073 0.956680
230.654663 -114.549309 6.821023 0.899977
230.178452 -114.792862 5.964245 0.840848
231.253830 -114.242882 5.410936 0.681941
231.253830 -114.242882 4.645323 0.699779
231.253830 -114.242882 3.885455 0.713634
231.253845 -114.242882 3.129656 0.568551
231.253845 -114.242882 2.376283 0.520226
231.253845 -114.242882 1.623717 0.589990
231.253845 -114.242882 0.870344 0.562127
231.253830 -114.242882 0.114545 0.723903
226.259644 -116.797043 -0.000010 0.555047
222.785370 -118.573883 -0.000008 0.523033
220.567337 -119.708237 -0.000007 0.555398
219.025726 -120.496658 -0.000005 0.531350
217.889938 -121.077530 -0.000005 0.533211
231.148819 -114.475334 7.710071 0.902358
230.643738 -114.729218 6.801346 0.890166
230.169678 -114.967499 5.948450 0.855650
231.253845 -114.422546 5.398884 0.668482
231.253830 -114.422546 4.635976 0.549020
231.253845 -114.422546 3.878793 0.643412
231.253845 -114.422546 3.125664 0.552560
231.253845 -114.422546 2.374954 0.524636
231.253845 -114.422546 1.625047 0.590555
231.253845 -114.422546 0.874336 0.605890
231.253845 -114.422546 0.121206 0.594812
226.314529 -116.905296 -0.000010 0.530571
222.827927 -118.657837 -0.000008 0.571633
220.602036 -119.776680 -0.000006 0.552560
219.054962 -120.554321 -0.000005 0.534630
217.915146 -121.127243 -0.000005 0.492760
231.135773 -114.659279 7.686597 0.827024
230.633041 -114.907600 6.782094 0.851606
230.161087 -115.140709 5.932995 0.501289
231.253845 -114.600967 5.387082 0.616785
231.253845 -114.600967 4.626822 0.703212
231.253830 -114.600967 3.872268 0.766293
231.253830 -114.600967 3.121755 0.766766
231.253830 -114.600967 2.373651 0.719554
231.253830 -114.600967 1.626349 0.705730
231.253830 -114.600967 0.878245 0.700648
231.253830 -114.600967 0.127731 0.749630
226.368652 -117.013931 -0.000010 0.539452
222.869904 -118.742088 -0.000008 0.524971
220.636261 -119.845360 -0.000006 0.536141
219.083801 -120.612183 -0.000005 0.516152
217.940002 -121.177139 -0.000005 0.573831
231.123016 -114.841637 7.663640 0.952499
230.622574 -115.084496 6.763264 0.901137
230.163879 -115.307083 5.920140 0.635721
231.253830 -114.778152 5.375523 0.537148
231.253845 -114.778152 4.617859 0.701793
231.253845 -114.778152 3.865880 0.645579
231.253845 -114.778152 3.117927 0.556771
231.253845 -114.778152 2.372376 0.543755
231.253845 -114.778152 1.627624 0.593668
231.253845 -114.778152 0.882073 0.558175
231.253845 -114.778152 0.134120 0.604105
226.422028 -117.122932 -0.000010 0.551186
222.911301 -118.826622 -0.000008 0.550423
220.670013 -119.914284 -0.000006 0.517418
219.112228 -120.670242 -0.000005 0.542931
217.964523 -121.227203 -0.000005 0.501030
231.110535 -115.022453 7.641193 0.901564
230.612335 -115.259941 6.744847 0.921492
230.182419 -115.464867 5.910735 0.635508
231.253830 -114.954147 5.364208 0.770550
231.253845 -114.954147 4.609084 0.613046
231.253845 -114.954140 3.859625 0.517647
231.253845 -114.954147 3.114179 0.518959
231.253845 -114.954147 2.371128 0.547921
231.253845 -114.954147 1.628872 0.541421
231.253845 -114.954147 0.885820 0.549020
231.253845 -114.954140 0.140375 0.549020
226.474640 -117.232315 -0.000010 0.554589
222.952103 -118.911453 -0.000008 0.541573
220.703262 -119.983437 -0.000006 0.541360
219.140244 -120.728500 -0.000005 0.539223
217.988678 -121.277435 -0.000005 0.551537
231.098343 -115.201767 7.619244 0.841733
230.602325 -115.433968 6.726837 0.936217
230.202087 -115.621338 5.901808 0.618921
231.253845 -115.128967 5.353132 0.695399
231.253830 -115.128967 4.600492 0.577905
231.253845 -115.128967 3.853502 0.519417
231.253845 -115.128967 3.110511 0.572259
231.253845 -115.128967 2.369906 0.547402
231.253845 -115.128967 1.630094 0.538125
231.253845 -115.128967 0.889488 0.521569
231.253845 -115.128967 0.146497 0.549020
226.526474 -117.342056 -0.000010 0.544015
222.992310 -118.996559 -0.000009 0.535943
220.736053 -120.052818 -0.000006 0.550561
219.167862 -120.786957 -0.000005 0.546166
218.012497 -121.327835 -0.000005 0.561212
231.086411 -115.379608 7.597788 0.918547
230.592529 -115.606628 6.709227 0.920302
230.220154 -115.777794 5.892811 0.634791
231.253830 -115.302650 5.342288 0.575463
231.253830 -115.302650 4.592084 0.653407
231.253845 -115.302650 3.847508 0.569665
231.253845 -115.302650 3.106920 0.617594
231.253845 -115.302650 2.368710 0.564569
231.253845 -115.302650 1.631290 0.615747
231.253845 -115.302650 0.893080 0.574289
231.253845 -115.302650 0.152490 0.597879
226.577560 -117.452156 -0.000010 0.539391
223.031921 -119.081947 -0.000008 0.546609
220.768341 -120.122429 -0.000006 0.540459
219.195068 -120.845604 -0.000005 0.539849
218.035950 -121.378403 -0.000005 0.555154
231.074753 -115.556030 7.576813 0.871565
230.582962 -115.777946 6.692009 0.944488
230.237274 -115.933929 5.883872 0.635019
231.268311 -115.468697 5.334033 0.562661
231.268295 -115.468697 4.585681 0.517647
231.268311 -115.468697 3.842945 0.653956
231.268311 -115.468697 3.104186 0.520592
231.268311 -115.468697 2.367799 0.534264
231.268311 -115.468697 1.632201 0.585733
231.268311 -115.468697 0.895814 0.517647
231.268311 -115.468697 0.157054 0.637964
226.627853 -117.562614 -0.000010 0.529213
223.070938 -119.167610 -0.000008 0.528252
220.800140 -120.192261 -0.000006 0.543435
219.221863 -120.904434 -0.000006 0.522957
218.059052 -121.429131 -0.000005 0.530755
231.063354 -115.731071 7.556313 0.777142
230.573608 -115.947952 6.675179 0.909377
230.253342 -116.089790 5.874966 0.626719
231.655731 -115.468735 5.386497 0.553307
231.655731 -115.468735 4.626369 0.694408
231.655731 -115.468735 3.871945 0.642130
231.655823 -115.468689 3.121567 0.585061
231.655838 -115.468689 2.373588 0.551461
231.655838 -115.468689 1.626412 0.581430
231.655838 -115.468689 0.878433 0.591669
231.655838 -115.468689 0.128045 0.583230
226.677399 -117.673416 -0.000010 0.543618
223.109344 -119.253548 -0.000008 0.558297
220.831467 -120.262321 -0.000006 0.531029
219.248245 -120.963455 -0.000005 0.538033
218.081802 -121.480019 -0.000005 0.535668
231.052216 -115.904755 7.536281 0.541772
230.564468 -116.116699 6.658731 0.899916
230.273880 -116.242966 5.867191 0.645243
232.055557 -115.468773 5.440807 0.649226
232.055557 -115.468773 4.668489 0.710018
232.055695 -115.468712 3.901979 0.617258
232.055771 -115.468681 3.139560 0.652796
232.055786 -115.468681 2.379582 0.521706
232.055786 -115.468674 1.620418 0.547311
232.055786 -115.468674 0.860440 0.610880
232.055771 -115.468681 0.098014 0.580835
226.726151 -117.784561 -0.000010 0.545464
223.147156 -119.339745 -0.000008 0.539040
220.862289 -120.332588 -0.000006 0.539483
219.274216 -121.022659 -0.000006 0.523903
218.104202 -121.531067 -0.000005 0.572076
231.041351 -116.077126 7.516709 0.477150
230.555527 -116.284203 6.642655 0.775982
230.353775 -116.370209 5.871392 0.665400
232.468475 -115.468803 5.497066 0.575509
232.468628 -115.468742 4.712140 0.641459
232.468765 -115.468681 3.933090 0.575921
232.468765 -115.468674 3.158196 0.585565
232.468781 -115.468666 2.385790 0.525750
232.468796 -115.468666 1.614210 0.580926
232.468781 -115.468666 0.841803 0.622843
232.468750 -115.468689 0.066910 0.609995
226.774139 -117.896049 -0.000011 0.539696
223.184372 -119.426201 -0.000008 0.541405
220.892624 -120.403076 -0.000007 0.549737
219.299774 -121.082039 -0.000005 0.507027
218.126236 -121.582268 -0.000005 0.561242
231.030716 -116.248215 7.497590 0.574823
230.738876 -116.370209 6.671914 0.611811
230.738937 -116.370193 5.935959 0.654902
232.823975 -115.498581 5.543931 0.678431
232.823975 -115.498581 4.748466 0.678431
232.895477 -115.468689 3.965324 0.650950
232.895538 -115.468666 3.177512 0.673411
232.895554 -115.468658 2.392223 0.623316
232.895554 -115.468658 1.607776 0.584421
232.895554 -115.468658 0.822487 0.586282
232.895477 -115.468697 0.034675 0.551064
226.821335 -118.007866 -0.000010 0.533730
223.220978 -119.512924 -0.000008 0.556603
220.922470 -120.473770 -0.000006 0.541466
219.324921 -121.141594 -0.000005 0.529213
218.147903 -121.633621 -0.000005 0.543328
231.137054 -116.370224 7.510513 0.649027
231.137115 -116.370193 6.751387 0.623667
231.137115 -116.370201 6.002901 0.677714
233.263840 -115.498558 5.604220 0.678431
233.263824 -115.498558 4.795222 0.678431
233.336594 -115.468735 3.998743 0.558190
233.336670 -115.468704 3.197535 0.543847
233.336777 -115.468658 2.398895 0.701060
233.156982 -115.542351 1.604285 0.496681
233.156982 -115.542351 0.812005 0.493462
233.350937 -115.462860 -0.000015 0.539498
226.867752 -118.120010 -0.000010 0.522881
223.256989 -119.599892 -0.000008 0.556390
220.951813 -120.544670 -0.000006 0.537285
219.349640 -121.201332 -0.000006 0.528359
218.169235 -121.685127 -0.000005 0.554467
231.549118 -116.370201 7.606157 0.650019
233.792374 -115.469040 7.355970 0.620722
233.792419 -115.469017 6.512255 0.673548
233.581512 -115.553749 5.644807 0.585382
233.581512 -115.553741 4.826699 0.581903
233.792999 -115.468788 4.033418 0.709865
233.793091 -115.468750 3.218311 0.623346
233.793304 -115.468658 2.405817 0.601267
233.718903 -115.498550 1.595494 0.678431
233.718903 -115.498550 0.785616 0.678431
233.414963 -115.620651 -0.000015 0.542245
226.913391 -118.232475 -0.000010 0.548165
223.292374 -119.687119 -0.000008 0.533852
220.980667 -120.615776 -0.000006 0.554559
219.373947 -121.261238 -0.000006 0.528405
218.190186 -121.736778 -0.000005 0.552087
234.190002 -115.498573 8.301526 0.678431
234.264862 -115.469109 7.450788 0.582956
234.264893 -115.469093 6.592134 0.580255
234.190048 -115.498550 5.731710 0.678431
234.190048 -115.498550 4.894096 0.678431
234.265518 -115.468842 4.069420 0.637034
234.265747 -115.468750 3.239888 0.592371
234.265991 -115.468658 2.413005 0.569619
234.190033 -115.498566 1.588331 0.678431
234.190018 -115.498566 0.764110 0.678431
233.477890 -115.778885 -0.000015 0.541299
226.958252 -118.345253 -0.000010 0.539696
223.327164 -119.774582 -0.000009 0.550820
221.009033 -120.687080 -0.000007 0.540841
219.397842 -121.321304 -0.000006 0.534035
218.210785 -121.788574 -0.000005 0.542092
234.605484 -115.526596 8.395948 0.554330
234.535110 -115.553734 7.498539 0.472831
234.754440 -115.469162 6.675129 0.678080
234.754578 -115.469109 5.811323 0.583581
234.754929 -115.468971 4.955884 0.620783
234.755234 -115.468849 4.106834 0.557504
234.755493 -115.468758 3.262305 0.573678
234.755722 -115.468658 2.420472 0.586282
234.678146 -115.498573 1.580888 0.678431
234.678146 -115.498573 0.741765 0.678431
233.539719 -115.937553 -0.000015 0.542870
227.002304 -118.458344 -0.000010 0.538109
223.361328 -119.862289 -0.000008 0.554330
221.036880 -120.758583 -0.000007 0.552117
219.421310 -121.381546 -0.000006 0.527245
218.231018 -121.840508 -0.000005 0.524254
235.184387 -115.498550 8.533936 0.678431
235.184387 -115.498550 7.633806 0.678431
235.262024 -115.469231 6.761415 0.579828
235.184326 -115.498573 5.869324 0.678431
235.184326 -115.498573 5.000822 0.678431
235.262985 -115.468872 4.145730 0.619699
235.263260 -115.468765 3.285612 0.601312
235.263519 -115.468666 2.428236 0.573129
235.174194 -115.502396 1.573327 0.620951
235.174194 -115.502396 0.719065 0.629297
233.600418 -116.096649 -0.000015 0.525429
227.045578 -118.571739 -0.000011 0.541024
223.394882 -119.950233 -0.000008 0.540352
221.064240 -120.830276 -0.000006 0.508629
219.444351 -121.441940 -0.000006 0.539345
218.250900 -121.892593 -0.000005 0.538094
235.788986 -115.469208 8.678373 0.625803
235.788757 -115.469299 7.758295 0.559762
235.788773 -115.469292 6.851195 0.580560
235.709656 -115.498535 5.942324 0.637919
235.709656 -115.498535 5.057436 0.658717
235.789703 -115.468948 4.186187 0.587701
235.790176 -115.468773 3.309861 0.584787
235.790359 -115.468704 2.436311 0.668772
235.790359 -115.468704 1.563689 0.542779
235.790359 -115.468704 0.690130 0.708217
233.660019 -116.256165 -0.000015 0.528145
227.088058 -118.685440 -0.000010 0.535256
223.427841 -120.038406 -0.000009 0.528176
221.091095 -120.902161 -0.000007 0.543343
219.466980 -121.502502 -0.000006 0.554604
218.270401 -121.944809 -0.000005 0.547875
236.335983 -115.469284 8.807053 0.590326
236.335739 -115.469368 7.869242 0.617380
236.335709 -115.469383 6.944656 0.638148
236.255051 -115.498558 6.018303 0.678798
236.255035 -115.498566 5.116361 0.678431
236.336700 -115.469025 4.228308 0.543801
236.337387 -115.468781 3.335108 0.574929
237.605377 -115.010109 2.466784 0.654490
241.178635 -113.717567 1.471036 0.682353
241.178650 -113.717567 0.411974 0.606958
233.718506 -116.416092 -0.000015 0.546380
227.129745 -118.799423 -0.000010 0.544701
223.460159 -120.126808 -0.000009 0.540215
221.117447 -120.974228 -0.000006 0.554620
219.489182 -121.563217 -0.000006 0.548516
218.289551 -121.997162 -0.000005 0.561715
236.904495 -115.469360 8.941128 0.646601
236.904251 -115.469444 7.984847 0.638560
236.904114 -115.469490 7.042029 0.629374
236.665924 -115.553780 6.072930 0.620584
236.665924 -115.553780 5.158726 0.800671
236.905273 -115.469086 4.272202 0.597406
236.906097 -115.468796 3.361414 0.618601
237.605377 -115.221352 2.465619 0.656626
241.178635 -113.956947 1.472356 0.634073
241.178635 -113.956947 0.415936 0.532448
233.775879 -116.576424 -0.000015 0.531518
227.170624 -118.913704 -0.000011 0.539498
223.491867 -120.215439 -0.000008 0.553353
221.143311 -121.046478 -0.000007 0.531670
219.510956 -121.624092 -0.000006 0.564462
218.308334 -122.049644 -0.000005 0.516396
237.159500 -115.585831 8.991783 0.647059
237.495621 -115.469528 8.105394 0.656565
237.495361 -115.469612 7.143566 0.650401
237.495682 -115.469505 6.193236 0.604456
237.496231 -115.469315 5.252094 0.678859
237.496857 -115.469101 4.317986 0.622049
237.497513 -115.468872 3.388836 0.647120
237.605377 -115.431549 2.464483 0.648905
241.178635 -114.195145 1.473643 0.590295
241.178635 -114.195145 0.419801 0.558114
233.832108 -116.737160 -0.000015 0.533791
227.210724 -119.028259 -0.000011 0.538888
223.522964 -120.304283 -0.000008 0.526177
221.168640 -121.118912 -0.000007 0.512688
219.532318 -121.685112 -0.000006 0.551293
218.326736 -122.102257 -0.000005 0.540719
237.167389 -115.788872 8.977188 0.654902
237.629181 -115.632683 8.121284 0.623529
238.111069 -115.469704 7.249561 0.600793
238.111481 -115.469566 6.279660 0.598871
238.112152 -115.469337 5.319138 0.598276
238.112823 -115.469109 4.365774 0.595636
238.113480 -115.468887 3.417468 0.602014
237.931900 -115.530304 2.469016 0.651148
241.178635 -114.432205 1.474899 0.630610
241.178635 -114.432198 0.423570 0.572625
233.887238 -116.898277 -0.000015 0.546120
227.250000 -119.143097 -0.000011 0.545190
223.553421 -120.393341 -0.000008 0.573602
221.193481 -121.191513 -0.000007 0.535317
219.553238 -121.746277 -0.000005 0.534035
218.344788 -122.154999 -0.000005 0.541360
237.175064 -115.991142 8.962946 0.644633
237.636047 -115.838806 8.108574 0.635294
238.106583 -115.683311 7.236463 0.654902
240.478546 -114.899483 6.639480 0.914672
241.178635 -114.668137 5.682931 0.636103
241.178635 -114.668137 4.625010 0.608698
241.178635 -114.668137 3.572753 0.624842
241.178635 -114.668137 2.523877 0.608408
241.178635 -114.668137 1.476123 0.682353
241.178635 -114.668137 0.427245 0.645243
233.941238 -117.059776 -0.000015 0.540566
227.288483 -119.258209 -0.000011 0.522301
223.583267 -120.482620 -0.000008 0.526360
221.217819 -121.264297 -0.000007 0.523171
219.573746 -121.807587 -0.000006 0.517082
218.362457 -122.207863 -0.000005 0.552987
237.182556 -116.192642 8.949059 0.635294
237.642715 -116.044128 8.096176 0.650584
238.112411 -115.892548 7.225652 0.666667
240.472122 -115.130997 6.627910 0.926421
241.178635 -114.902985 5.674543 0.653132
241.178635 -114.902985 4.619032 0.622644
241.178635 -114.902985 3.569172 0.606821
241.178635 -114.902985 2.522683 0.543770
241.178635 -114.902985 1.477316 0.634073
241.178635 -114.902985 0.430828 0.693736
233.994110 -117.221649 -0.000015 0.537774
227.326172 -119.373581 -0.000011 0.541573
223.612503 -120.572090 -0.000008 0.538338
221.241638 -121.337234 -0.000007 0.568765
219.593811 -121.869041 -0.000006 0.549233
218.379761 -122.260849 -0.000005 0.558785
237.263504 -116.370193 8.954865 0.623529
237.649231 -116.248680 8.084095 0.635294
238.118088 -116.100967 7.215115 0.654902
240.465851 -115.361336 6.616645 0.911742
241.178635 -115.136780 5.666372 0.608255
241.178635 -115.136780 4.613208 0.594491
241.178635 -115.136780 3.565683 0.609979
241.178635 -115.136780 2.521522 0.541268
241.178635 -115.136780 1.478479 0.584817
241.178635 -115.136780 0.434317 0.651179
234.045822 -117.383888 -0.000015 0.544656
227.363037 -119.489220 -0.000011 0.550195
223.641098 -120.661774 -0.000009 0.532143
221.264954 -121.410347 -0.000007 0.529870
219.613449 -121.930634 -0.000006 0.530694
218.396698 -122.313957 -0.000005 0.541161
242.523224 -114.956245 10.318103 0.588724
237.923233 -116.370201 8.132799 0.657755
238.123627 -116.308601 7.204850 0.653803
240.459763 -115.590515 6.605680 0.896849
241.178635 -115.369553 5.658416 0.577142
241.178635 -115.369553 4.607536 0.649149
241.178635 -115.369553 3.562284 0.652338
241.178635 -115.369553 2.520390 0.622034
241.178635 -115.369553 1.479610 0.625895
241.178635 -115.369553 0.437715 0.644465
234.096436 -117.546486 -0.000015 0.532860
227.399109 -119.605110 -0.000011 0.544015
223.669067 -120.751648 -0.000009 0.527810
221.287750 -121.483620 -0.000007 0.486992
219.632660 -121.992363 -0.000006 0.546242
218.413254 -122.367180 -0.000005 0.514656
242.511780 -115.201706 10.297497 0.734417
241.785370 -115.419449 8.990631 0.931670
241.101028 -115.624588 7.759404 0.927764
240.453827 -115.818588 6.595012 0.840558
241.620911 -115.468750 5.703787 0.598520
241.620911 -115.468750 4.639874 0.551720
241.621002 -115.468719 3.581665 0.602304
241.621124 -115.468681 2.526848 0.567834
241.621124 -115.468681 1.473153 0.659937
241.621109 -115.468689 0.418329 0.587060
234.145905 -117.709427 -0.000015 0.538064
227.434357 -119.721245 -0.000011 0.545983
223.696411 -120.841721 -0.000009 0.540139
221.310043 -121.557045 -0.000007 0.534951
219.651443 -122.054222 -0.000006 0.542550
218.429459 -122.420517 -0.000005 0.565972
242.500641 -115.445885 10.277465 0.931426
241.776215 -115.657532 8.974140 0.925261
241.093643 -115.856956 7.746118 0.924880
240.448059 -116.045570 6.584635 0.787472
242.422073 -115.468834 5.792162 0.645090
242.422455 -115.468727 4.702897 0.625376
242.422699 -115.468658 3.619431 0.646708
242.422653 -115.468666 2.539425 0.660899
242.422638 -115.468674 1.460576 0.644907
242.422653 -115.468666 0.380571 0.627848
234.194229 -117.872711 -0.000015 0.534249
227.468811 -119.837631 -0.000011 0.546548
223.723129 -120.931976 -0.000009 0.561212
221.331818 -121.630630 -0.000007 0.526589
219.669785 -122.116211 -0.000006 0.539498
218.445267 -122.473969 -0.000005 0.546014
242.489822 -115.688828 10.257998 0.924071
241.767303 -115.894447 8.958116 0.947158
241.086472 -116.088219 7.733202 0.905608
240.442459 -116.271507 6.574549 0.552117
243.158493 -115.498520 5.872617 0.678431
243.158478 -115.498520 4.760208 0.678431
243.263275 -115.468704 3.659109 0.552697
243.263351 -115.468674 2.552643 0.613230
243.081833 -115.520332 1.450446 0.450980
243.081848 -115.520332 0.350158 0.388510
234.241409 -118.036331 -0.000015 0.538979
227.502441 -119.954247 -0.000011 0.542062
223.749207 -121.022423 -0.000009 0.536110
221.353088 -121.704361 -0.000007 0.547082
219.687698 -122.178329 -0.000006 0.545922
218.460724 -122.527527 -0.000005 0.543877
242.479309 -115.930557 10.239093 0.898192
241.758652 -116.130234 8.942545 0.914076
241.079498 -116.318405 7.720656 0.852262
240.892441 -116.370232 6.634854 0.628214
244.038544 -115.498550 5.970087 0.678431
244.038528 -115.498550 4.829679 0.678431
244.145966 -115.468781 3.700857 0.610162
244.146240 -115.468704 2.566552 0.645411
244.038361 -115.498596 1.435280 0.678431
243.839218 -115.553772 0.314780 0.494118
234.287445 -118.200272 -0.000015 0.532464
227.535248 -120.071098 -0.000011 0.536217
223.774658 -121.113045 -0.000008 0.509026
221.373840 -121.778236 -0.000007 0.554604
219.705170 -122.240570 -0.000005 0.508278
218.475784 -122.581200 -0.000005 0.515511
242.469116 -116.171135 10.220741 0.951476
241.750244 -116.364914 8.927431 0.844984
244.964233 -115.498535 8.441836 0.678431
245.072937 -115.469238 7.268271 0.628946
244.774124 -115.549782 6.050162 0.288365
244.774124 -115.549782 4.886754 0.482353
245.074448 -115.468826 3.744856 0.591089
245.074783 -115.468735 2.581208 0.623926
244.964005 -115.498596 1.420668 0.678431
245.074890 -115.468712 0.255121 0.625162
234.332336 -118.364532 -0.000015 0.520348
227.567261 -120.188179 -0.000011 0.546670
223.799469 -121.203842 -0.000009 0.536324
221.394058 -121.852257 -0.000007 0.546899
219.722214 -122.302933 -0.000006 0.555413
218.490479 -122.634964 -0.000005 0.538750
242.613190 -116.370232 10.242807 0.647669
246.051300 -115.469131 9.874902 0.586297
246.050934 -115.469231 8.634300 0.622568
246.050323 -115.469383 7.408384 0.636088
246.050690 -115.469292 6.194470 0.585519
245.939133 -115.498528 4.980152 0.678431
246.052368 -115.468857 3.791286 0.649424
247.530228 -115.081520 2.621670 0.652964
251.103424 -114.145012 1.317884 0.640314
250.162521 -114.391617 -0.000025 0.538643
234.376099 -118.529106 -0.000015 0.541451
227.598434 -120.305473 -0.000010 0.548684
223.823654 -121.294815 -0.000009 0.519570
221.413773 -121.926422 -0.000007 0.544884
219.738831 -122.365410 -0.000006 0.550515
218.504807 -122.688835 -0.000005 0.527214
245.951752 -115.757156 11.090906 0.649607
246.554932 -115.603554 9.972956 0.618982
247.081879 -115.469376 8.815917 0.679301
247.081436 -115.469482 7.556469 0.658244
247.081619 -115.469444 6.309293 0.629221
247.082321 -115.469261 5.071511 0.647776
247.083450 -115.468971 3.840328 0.673899
247.530228 -115.355202 2.620549 0.662348
251.103424 -114.445305 1.319114 0.636118
250.233612 -114.666801 -0.000025 0.544167
234.418686 -118.693977 -0.000015 0.549477
227.628799 -120.422989 -0.000011 0.550134
223.847198 -121.385948 -0.000009 0.536858
221.432968 -122.000717 -0.000007 0.518212
219.755005 -122.428001 -0.000006 0.574502
218.518753 -122.742805 -0.000005 0.344701
245.959290 -116.016289 11.076939 0.631067
246.561661 -115.867363 9.960495 0.647395
247.176117 -115.715454 8.821653 0.647044
247.804382 -115.560135 7.657211 0.648798
250.436661 -114.909378 6.699339 0.882765
251.103424 -114.744537 5.405773 0.697215
251.103424 -114.744537 4.040541 0.665217
247.678879 -115.591164 2.621969 0.672602
251.103439 -114.744537 1.320305 0.638636
250.302795 -114.942467 -0.000025 0.539605
234.460129 -118.859146 -0.000015 0.534676
227.658325 -120.540710 -0.000010 0.550729
223.870102 -121.477249 -0.000009 0.536095
221.451645 -122.075142 -0.000007 0.561120
219.770737 -122.490707 -0.000006 0.543435
218.532318 -122.796875 -0.000005 0.330068
245.966599 -116.274689 11.063400 0.630793
246.568176 -116.130409 9.948421 0.650309
247.181793 -115.983246 8.811127 0.623529
247.809174 -115.832787 7.648331 0.643458
250.431915 -115.203781 6.690793 0.840711
251.103424 -115.042732 5.399988 0.614710
251.103439 -115.042732 4.037076 0.603449
251.103424 -115.042732 2.678540 0.595392
251.103424 -115.042732 1.321460 0.641138
250.370041 -115.218620 -0.000025 0.544610
234.500427 -119.024597 -0.000015 0.540154
227.687057 -120.658630 -0.000011 0.527916
223.892380 -121.568703 -0.000009 0.528038
221.469803 -122.149704 -0.000007 0.492638
219.786026 -122.553520 -0.000006 0.484688
218.545502 -122.851028 -0.000005 0.342092
254.002686 -114.665985 13.115081 0.865309
246.671463 -116.370178 9.958231 0.628519
247.187286 -116.250275 8.800935 0.654902
247.813812 -116.104630 7.639735 0.654444
250.427307 -115.497101 6.682523 0.947494
251.103424 -115.339935 5.394386 0.701534
251.103424 -115.339935 4.033721 0.654246
251.103439 -115.339935 2.677423 0.663249
251.103439 -115.339935 1.322577 0.679911
250.435364 -115.495239 -0.000025 0.537926
234.539551 -119.190331 -0.000015 0.550271
227.714951 -120.776756 -0.000011 0.532723
223.914017 -121.660309 -0.000009 0.532479
221.487442 -122.224388 -0.000007 0.532280
219.800888 -122.616440 -0.000006 0.515755
218.519440 -122.914322 0.009993 1.000000
253.991180 -114.986115 13.094386 0.852049
253.022476 -115.204178 11.351542 0.801816
252.108963 -115.409821 9.708018 0.681331
247.818298 -116.375687 7.631416 0.651835
250.422882 -115.789375 6.674528 0.894118
251.847000 -115.468788 5.451465 0.585824
251.847137 -115.468758 4.067924 0.586511
251.847488 -115.468681 2.688822 0.640818
251.847519 -115.468674 1.311178 0.644327
250.498749 -115.772293 -0.000025 0.537346
234.577545 -119.356323 -0.000016 0.540825
227.742004 -120.895073 -0.000011 0.555306
223.935013 -121.752068 -0.000009 0.530663
221.504562 -122.299187 -0.000007 0.510903
219.815308 -122.679459 -0.000006 0.552209
218.531799 -122.968384 0.009994 1.000000
253.980087 -115.304985 13.074403 0.940261
253.013306 -115.515533 11.335070 0.868376
252.101578 -115.714096 9.694735 0.692653
251.238495 -115.902069 8.141948 0.609445
250.418579 -116.080635 6.666800 0.914427
253.091095 -115.498596 5.550532 0.678431
253.227966 -115.468788 4.134156 0.604105
253.228424 -115.468681 2.710884 0.639277
253.006638 -115.516991 1.292829 0.521187
250.560211 -116.049789 -0.000025 0.536645
234.614365 -119.522583 -0.000016 0.539178
227.768265 -121.013573 -0.000011 0.541772
223.955353 -121.843971 -0.000009 0.561913
221.521149 -122.374107 -0.000007 0.518837
219.829285 -122.742577 -0.000005 0.339361
218.543793 -123.022537 0.009995 1.000000
253.969360 -115.622658 13.055112 0.953964
253.004486 -115.825752 11.319178 0.538247
252.094452 -116.017296 9.681917 0.795911
251.232941 -116.198639 8.131927 0.655909
250.417664 -116.370239 6.659722 0.676158
254.698914 -115.469093 5.679953 0.478996
254.699905 -115.468887 4.204864 0.589349
254.700684 -115.468727 2.734443 0.604456
254.559143 -115.498520 1.267924 0.678431
250.619705 -116.327713 -0.000025 0.540810
234.650024 -119.689095 -0.000016 0.543801
227.793671 -121.132256 -0.000011 0.535073
223.975067 -121.936012 -0.000009 0.531701
221.537216 -122.449142 -0.000007 0.544747
219.842819 -122.805794 -0.000005 0.328893
218.555389 -123.076775 0.009996 1.000000
253.959015 -115.939171 13.036518 0.965713
252.995972 -116.134865 11.303852 0.588312
252.087585 -116.319458 9.669555 0.753567
256.271667 -115.469223 8.885781 0.620676
256.271057 -115.469353 7.340137 0.615198
256.127228 -115.498581 5.794149 0.678431
256.283936 -115.466736 4.281091 0.537499
256.274475 -115.468658 2.759662 0.632181
261.028229 -114.502670 1.160957 0.609857
250.677277 -116.606033 -0.000025 0.546059
234.684509 -119.855850 -0.000016 0.541421
