# This PCD file was generated using the MATLABÂ® pcwrite function
# from Computer Vision ToolboxÂ®.
# .PCD v.7 - Point Cloud Data file format
VERSION .7
FIELDS x y z intensity
SIZE 4 4 4 4
TYPE F F F F
COUNT 1 1 1 1
WIDTH 1184
HEIGHT 1
VIEWPOINT 0 0 0 1 0 0 0
POINTS 1184
DATA ascii
412.645935 -48.311932 0.458530 0.647242
412.645935 -48.311932 0.012395 0.592020
414.413361 -46.676941 -0.000003 0.555108
415.684387 -45.501114 -0.000003 0.547585
416.620850 -44.634819 -0.000003 0.537621
412.268402 -48.529709 5.462908 0.678431
412.509277 -48.309990 4.915437 0.383597
412.509277 -48.309990 4.456169 0.611765
412.509277 -48.309990 4.002340 0.674754
412.509277 -48.309990 3.552898 0.435782
412.509277 -48.309990 3.106829 0.672450
412.509277 -48.309990 2.663147 0.652811
412.509277 -48.309990 2.220891 0.650736
412.509277 -48.309990 1.779109 0.602090
412.509277 -48.309990 1.336852 0.652522
412.509277 -48.309990 0.893171 0.613413
412.509277 -48.309994 0.447101 0.639460
412.509277 -48.309990 -0.002340 0.678431
414.361450 -46.620430 -0.000003 0.511406
415.640656 -45.453506 -0.000003 0.529793
416.583130 -44.593769 -0.000003 0.532525
412.126343 -48.527691 5.488947 0.678431
412.370544 -48.308025 4.937358 0.660075
412.370544 -48.308025 4.474638 0.620661
412.370544 -48.308022 4.017396 0.598413
412.370544 -48.308022 3.564575 0.562280
412.370544 -48.308022 3.115151 0.644556
412.370544 -48.308022 2.668134 0.501793
412.370544 -48.308025 2.222552 0.674128
412.370544 -48.308025 1.777448 0.635019
412.370544 -48.308025 1.331866 0.653468
412.370544 -48.308022 0.884849 0.697719
412.370544 -48.308022 0.435425 0.499062
412.457733 -48.229607 -0.000003 0.537728
414.309906 -46.563560 -0.000003 0.558099
415.597260 -45.405594 -0.000003 0.548577
416.545715 -44.552452 -0.000003 0.529702
411.982086 -48.525650 5.515553 0.678431
412.229706 -48.306026 4.959757 0.664942
412.229706 -48.306030 4.493507 0.633082
412.229706 -48.306026 4.032780 0.333196
412.229706 -48.306026 3.576505 0.654276
412.229706 -48.306026 3.123655 0.662394
412.229706 -48.306026 2.673229 0.366064
412.229706 -48.306026 2.224249 0.664881
412.229706 -48.306026 1.775751 0.628809
412.229706 -48.306026 1.326771 0.649363
412.229706 -48.306026 0.876345 0.666667
412.229706 -48.306026 0.423495 0.449638
412.395020 -48.159405 -0.000003 0.543236
414.258789 -46.506329 -0.000003 0.537408
415.554199 -45.357376 -0.000003 0.554803
416.508575 -44.510880 -0.000002 0.536629
411.948181 -48.425140 5.505285 0.647059
412.086700 -48.303997 4.982645 0.616083
412.086700 -48.303997 4.512791 0.410452
412.086700 -48.303997 4.048500 0.650950
412.086700 -48.303997 3.588697 0.689006
412.086700 -48.303997 3.132344 0.659037
412.086700 -48.303997 2.678435 0.351980
412.086700 -48.303997 2.225984 0.674174
412.086700 -48.303997 1.774016 0.661311
412.086700 -48.303997 1.321565 0.649897
412.086700 -48.303997 0.867656 0.690318
412.086700 -48.303997 0.411303 0.659037
412.332794 -48.088768 -0.000003 0.543603
414.208069 -46.448742 -0.000003 0.527520
415.511475 -45.308865 -0.000003 0.510689
416.471741 -44.469051 -0.000003 0.550774
411.800995 -48.423058 5.532781 0.647059
411.941467 -48.301937 5.006039 0.391073
411.941467 -48.301937 4.532499 0.559136
411.941467 -48.301937 4.064566 0.640192
411.941467 -48.301933 3.601157 0.698817
411.941467 -48.301937 3.141226 0.587533
411.941467 -48.301937 2.683756 0.524392
411.941467 -48.301937 2.227756 0.666667
411.941467 -48.301937 1.772244 0.635752
411.941467 -48.301937 1.316244 0.644144
411.941467 -48.301937 0.858774 0.691600
411.941467 -48.301937 0.398842 0.664408
412.271088 -48.017696 -0.000003 0.556664
414.157776 -46.390804 -0.000003 0.546288
415.469086 -45.260052 -0.000003 0.512688
416.435181 -44.426964 -0.000003 0.555123
411.535797 -48.519306 5.598924 0.678431
411.793915 -48.299843 5.029952 0.664469
411.793915 -48.299847 4.552645 0.664744
411.793915 -48.299843 4.080990 0.642573
411.793915 -48.299843 3.613894 0.677333
411.793915 -48.299843 3.150304 0.306798
411.793915 -48.299843 2.689195 0.608698
411.793915 -48.299843 2.229568 0.693690
411.793915 -48.299843 1.770432 0.632212
411.793915 -48.299843 1.310804 0.501945
411.793915 -48.299843 0.849696 0.649454
411.793915 -48.299843 0.386106 0.635294
412.209869 -47.946198 -0.000003 0.536828
414.107849 -46.332516 -0.000003 0.501564
415.427032 -45.210945 -0.000003 0.527062
416.398926 -44.384621 -0.000003 0.548135
411.382233 -48.517128 5.627960 0.678431
411.643982 -48.297718 5.054398 0.657954
411.643982 -48.297718 4.573239 0.651484
411.484894 -48.431072 4.128572 0.654902
411.367554 -48.529438 3.668411 0.678431
411.643982 -48.297714 3.159585 0.594736
411.643982 -48.297718 2.694756 0.654902
411.367554 -48.529438 2.237322 0.678431
411.367554 -48.529438 1.762677 0.678431
411.367554 -48.529438 1.287524 0.678431
411.643982 -48.297714 0.840415 0.616037
411.643982 -48.297718 0.373085 0.647059
412.149139 -47.874271 -0.000003 0.535790
414.058350 -46.273880 -0.000003 0.558907
415.385345 -45.161545 -0.000003 0.555093
416.362976 -44.342030 -0.000003 0.564492
411.226196 -48.514919 5.657650 0.678431
411.491638 -48.295559 5.079392 0.367269
411.491638 -48.295559 4.594297 0.578790
411.362122 -48.402596 4.139870 0.551171
411.211304 -48.527222 3.682065 0.678431
411.491638 -48.295555 3.169074 0.594736
411.491638 -48.295555 2.700441 0.654902
411.211304 -48.527222 2.239264 0.678431
411.211304 -48.527222 1.760736 0.678431
411.211304 -48.527222 1.281693 0.678431
411.491638 -48.295555 0.830926 0.436744
411.491638 -48.295555 0.359771 0.561349
412.088928 -47.801926 -0.000003 0.538247
414.009277 -46.214901 -0.000003 0.525643
415.343964 -45.111858 -0.000003 0.553857
416.327332 -44.299187 -0.000003 0.524819
411.067566 -48.512665 5.688007 0.678431
411.336731 -48.293362 5.104952 0.659312
411.336731 -48.293362 4.615830 0.683742
411.298218 -48.324745 4.139872 0.597848
411.052460 -48.524967 3.696026 0.678431
411.336731 -48.293358 3.178777 0.647059
411.336731 -48.293358 2.706255 0.658808
411.052460 -48.524967 2.241250 0.678431
411.052460 -48.524967 1.758749 0.678431
411.052460 -48.524967 1.275731 0.678431
411.336731 -48.293362 0.821222 0.505577
411.336731 -48.293362 0.346157 0.418235
412.029236 -47.729160 -0.000003 0.547051
413.960602 -46.155579 -0.000003 0.504463
415.302979 -45.061882 -0.000003 0.525460
416.291962 -44.256096 -0.000003 0.511345
410.906281 -48.510376 5.719058 0.678431
411.179230 -48.291130 5.131094 0.672175
411.179230 -48.291130 4.637854 0.669856
411.179260 -48.291126 4.150455 0.658671
410.890961 -48.522675 3.710305 0.678431
411.179260 -48.291126 3.188702 0.678431
411.179260 -48.291126 2.712201 0.655039
410.890961 -48.522675 2.243282 0.678431
410.890961 -48.522675 1.756718 0.678431
410.890961 -48.522675 1.269633 0.678431
411.179260 -48.291126 0.811298 0.589090
411.179260 -48.291126 0.332232 0.550546
411.970032 -47.655979 -0.000003 0.561776
413.912323 -46.095917 -0.000003 0.540368
415.262299 -45.011620 -0.000003 0.529091
416.256897 -44.212757 -0.000003 0.520851
410.742249 -48.508049 5.750820 0.678431
411.019073 -48.288860 5.157836 0.339590
411.019073 -48.288857 4.660382 0.706310
411.019073 -48.288857 4.168821 0.676143
410.726715 -48.520348 3.724911 0.678431
410.850800 -48.422081 3.216451 0.644617
411.019073 -48.288853 2.718284 0.674754
410.726715 -48.520348 2.245359 0.678431
410.726715 -48.520348 1.754641 0.678431
410.726715 -48.520348 1.263396 0.678431
411.019073 -48.288857 0.801146 0.622934
411.019073 -48.288857 0.317989 0.651209
411.911346 -47.582386 -0.000003 0.530587
413.864471 -46.035923 -0.000003 0.527657
415.221985 -44.961075 -0.000003 0.527138
416.222137 -44.169174 -0.000003 0.572763
410.575378 -48.505684 5.783314 0.678431
410.856140 -48.286552 5.185195 0.658763
410.856140 -48.286549 4.683432 0.562478
410.856140 -48.286545 4.187612 0.559792
410.559601 -48.517975 3.739856 0.678431
410.685486 -48.419739 3.226991 0.658854
410.856140 -48.286545 2.724507 0.654627
410.559601 -48.517975 2.247485 0.678431
410.559601 -48.517975 1.752515 0.678431
410.559601 -48.517975 1.257014 0.678431
410.856140 -48.286545 0.790759 0.669886
410.856140 -48.286545 0.303417 0.660456
411.853149 -47.508385 -0.000003 0.523857
413.817078 -45.975597 -0.000002 0.522591
415.182037 -44.910252 -0.000003 0.548302
416.187714 -44.125355 -0.000002 0.502724
410.405579 -48.503273 5.816566 0.678431
410.690338 -48.284203 5.213191 0.659449
410.690338 -48.284199 4.707017 0.678431
410.690338 -48.284195 4.206838 0.472938
410.389587 -48.515564 3.755147 0.678431
410.517242 -48.417351 3.237775 0.654902
410.690338 -48.284191 2.730874 0.678431
410.389587 -48.515560 2.249660 0.678431
410.389587 -48.515560 1.750340 0.678431
410.389587 -48.515564 1.250484 0.678431
410.690338 -48.284195 0.780131 0.635294
410.690338 -48.284195 0.288506 0.677516
411.795502 -47.433979 -0.000003 0.537652
413.770050 -45.914940 -0.000003 0.538552
415.142456 -44.859150 -0.000003 0.551995
416.153564 -44.081291 -0.000003 0.514717
410.232758 -48.500820 5.850595 0.678431
410.521576 -48.281815 5.241842 0.570764
410.521606 -48.281803 4.731153 0.709804
410.521606 -48.281803 4.226515 0.666575
410.216553 -48.513107 3.770796 0.678431
410.346039 -48.414925 3.248811 0.647059
410.521606 -48.281799 2.737391 0.647059
410.216553 -48.513107 2.251886 0.678431
410.216553 -48.513107 1.748114 0.678431
410.216553 -48.513107 1.243801 0.678431
410.521606 -48.281799 0.769255 0.590951
410.521606 -48.281799 0.273245 0.513634
411.738373 -47.359173 -0.000003 0.537179
413.723480 -45.853954 -0.000003 0.535073
415.103210 -44.807774 -0.000003 0.529732
416.119720 -44.036991 -0.000003 0.539361
410.056824 -48.498322 5.885427 0.678431
410.349792 -48.279381 5.271170 0.678431
410.349792 -48.279369 4.755860 0.328237
410.349792 -48.279366 4.246657 0.677653
410.040375 -48.510605 3.786815 0.678431
410.171722 -48.412453 3.260108 0.659922
410.349792 -48.279362 2.744062 0.582361
410.040375 -48.510609 2.254165 0.678431
410.040375 -48.510609 1.745835 0.678431
410.040375 -48.510609 1.236961 0.678431
410.349792 -48.279366 0.758121 0.556115
410.349792 -48.279362 0.257625 0.362768
411.681763 -47.283974 -0.000003 0.522026
413.677338 -45.792648 -0.000002 0.545419
415.064331 -44.756123 -0.000002 0.549889
416.086212 -43.992458 -0.000003 0.538659
409.877655 -48.495781 5.921089 0.702754
410.010864 -48.397682 5.345183 0.654902
410.174866 -48.276886 4.781155 0.473289
410.174866 -48.276886 4.267278 0.563775
409.969696 -48.427986 3.787681 0.647059
409.994202 -48.409935 3.271674 0.654414
410.174866 -48.276886 2.750891 0.330632
409.969696 -48.427986 2.254288 0.674113
409.969696 -48.427986 1.745712 0.654902
409.969696 -48.427990 1.236591 0.654902
410.174866 -48.276882 0.746722 0.359380
410.174866 -48.276882 0.241632 0.700298
411.625671 -47.208374 -0.000003 0.525078
413.631622 -45.731018 -0.000003 0.511635
415.025818 -44.704205 -0.000003 0.543938
416.052979 -43.947693 -0.000002 0.539483
409.830292 -48.395123 5.915785 0.648157
409.830292 -48.395126 5.376339 0.660044
409.996674 -48.274361 4.807056 0.673274
409.996674 -48.274361 4.288394 0.601221
409.813416 -48.407372 3.800795 0.674022
409.813416 -48.407364 3.283516 0.651713
409.996704 -48.274353 2.757884 0.369192
409.813416 -48.407368 2.256153 0.671214
409.813416 -48.407368 1.743847 0.661387
409.813416 -48.407368 1.230991 0.654902
409.996704 -48.274353 0.735051 0.554788
409.996704 -48.274357 0.225256 0.615122
411.570129 -47.132389 -0.000002 0.513909
413.586334 -45.669075 -0.000002 0.584634
414.987640 -44.652016 -0.000003 0.526848
416.020081 -43.902695 -0.000002 0.525063
409.787018 -48.291893 5.909462 0.659312
409.787018 -48.291893 5.370887 0.309377
409.815125 -48.271790 4.833585 0.316228
409.815155 -48.271786 4.310019 0.670695
409.492096 -48.502827 3.837207 0.678431
409.492096 -48.502827 3.309470 0.678431
409.815155 -48.271778 2.765046 0.663539
409.492096 -48.502831 2.261333 0.678431
409.492096 -48.502827 1.738667 0.678431
409.530426 -48.475410 1.217757 0.659525
409.815155 -48.271782 0.723096 0.676036
409.815155 -48.271782 0.208485 0.648951
411.515106 -47.056019 -0.000003 0.546304
413.541473 -45.606815 -0.000003 0.547494
414.949860 -44.599564 -0.000003 0.520729
415.987518 -43.857468 -0.000003 0.529595
409.630096 -48.269180 5.938222 0.655848
409.630096 -48.269180 5.395684 0.441611
409.630127 -48.269165 4.860759 0.620188
409.630127 -48.269161 4.332173 0.663447
409.302368 -48.500137 3.854826 0.678431
409.302338 -48.500137 3.322028 0.678431
409.630127 -48.269157 2.772383 0.650187
409.302368 -48.500137 2.263839 0.678431
409.302338 -48.500137 1.736161 0.678431
409.441498 -48.402081 1.216280 0.647059
409.630127 -48.269157 0.710851 0.647059
409.630127 -48.269157 0.191304 0.481117
411.460602 -46.979267 -0.000003 0.542321
413.497040 -45.544243 -0.000003 0.567315
414.912445 -44.546848 -0.000003 0.511315
415.955231 -43.812012 -0.000002 0.541039
409.441498 -48.266502 5.976551 0.709804
409.441498 -48.266502 5.428733 0.646540
409.441528 -48.266487 4.888601 0.656779
409.441528 -48.266487 4.354872 0.352346
409.108948 -48.497395 3.872879 0.678431
409.108948 -48.497395 3.334895 0.678431
409.441528 -48.266479 2.779901 0.657298
409.108948 -48.497395 2.266407 0.678431
409.108948 -48.497395 1.733593 0.678431
409.250122 -48.399364 1.208653 0.655558
409.441528 -48.266483 0.698304 0.671199
409.441528 -48.266483 0.173700 0.652003
411.406677 -46.902134 -0.000003 0.534432
413.453064 -45.481361 -0.000003 0.536645
414.875397 -44.493874 -0.000003 0.545800
415.923279 -43.766338 -0.000002 0.539178
409.249176 -48.263775 6.015832 0.678431
409.249176 -48.263775 5.462602 0.576425
409.249176 -48.263760 4.917135 0.559167
409.249176 -48.263763 4.378134 0.571954
408.911713 -48.494598 3.891380 0.678431
408.911713 -48.494598 3.348082 0.678431
409.249207 -48.263756 2.787605 0.670207
408.911713 -48.494598 2.269038 0.678431
408.911713 -48.494598 1.730961 0.678431
409.054962 -48.396599 1.200835 0.654902
409.249207 -48.263756 0.685445 0.650736
409.249207 -48.263756 0.155659 0.528008
411.353241 -46.824623 -0.000003 0.542718
413.409515 -45.418175 -0.000002 0.550973
414.838715 -44.440639 -0.000003 0.524071
415.891663 -43.720436 -0.000003 0.575769
409.053009 -48.260990 6.056094 0.571267
409.053009 -48.260990 5.497318 0.631205
409.053009 -48.260979 4.946383 0.701335
409.053009 -48.260979 4.401978 0.674327
408.710541 -48.491745 3.910343 0.678431
408.710541 -48.491745 3.361598 0.678431
409.053040 -48.260971 2.795501 0.658198
408.710541 -48.491745 2.271736 0.678431
408.710541 -48.491745 1.728264 0.678431
408.855927 -48.393776 1.192822 0.647059
409.053040 -48.260971 0.672265 0.332906
409.053040 -48.260971 0.137168 0.673747
411.300385 -46.746746 -0.000003 0.521538
413.366425 -45.354687 -0.000003 0.541695
414.802399 -44.387154 -0.000002 0.528099
415.860352 -43.674320 -0.000002 0.554238
408.852844 -48.258152 6.097377 0.678538
408.852844 -48.258148 5.532911 0.664454
408.852875 -48.258141 4.976370 0.656489
408.852875 -48.258141 4.426423 0.625986
408.505280 -48.488831 3.929786 0.678431
408.505280 -48.488834 3.375455 0.678431
408.852875 -48.258133 2.803598 0.666194
408.505280 -48.488834 2.274501 0.678431
408.505280 -48.488834 1.725498 0.678431
408.652832 -48.390900 1.184607 0.659724
408.852875 -48.258133 0.658752 0.636851
408.852875 -48.258133 0.118209 0.533318
411.248047 -46.668499 -0.000002 0.545007
413.323761 -45.290901 -0.000002 0.542718
414.766449 -44.333412 -0.000002 0.578759
415.829376 -43.627983 -0.000002 0.523583
408.648560 -48.255249 6.139710 0.654536
408.648560 -48.255249 5.569414 0.639109
408.648590 -48.255241 5.007122 0.474998
408.648590 -48.255241 4.451495 0.462867
408.295776 -48.485863 3.949726 0.678431
408.295776 -48.485863 3.389667 0.678431
408.648590 -48.255234 2.811901 0.662531
408.295776 -48.485863 2.277338 0.678431
408.295776 -48.485863 1.722662 0.678431
408.445557 -48.387955 1.176182 0.667124
408.648590 -48.255234 0.644894 0.680308
408.648590 -48.255238 0.098765 0.543572
411.196289 -46.589890 -0.000002 0.549661
413.281555 -45.226814 -0.000002 0.525948
414.730896 -44.279427 -0.000003 0.521279
415.798706 -43.581429 -0.000002 0.544488
408.440002 -48.252289 6.183133 0.681620
408.440033 -48.252289 5.606854 0.669322
408.440033 -48.252285 5.038666 0.663996
408.440033 -48.252285 4.477210 0.640909
408.079834 -48.484161 3.970460 0.678431
408.079834 -48.484161 3.404447 0.678431
408.440033 -48.252277 2.820417 0.447150
408.079834 -48.484161 2.280288 0.657023
408.079834 -48.484161 1.719713 0.657023
408.233948 -48.384956 1.167541 0.654902
408.440033 -48.252277 0.630679 0.678431
408.440033 -48.252281 0.078822 0.647883
411.145050 -46.510925 -0.000003 0.549569
413.239777 -45.162437 -0.000002 0.528145
414.695709 -44.225189 -0.000002 0.507927
415.768372 -43.534668 -0.000003 0.544411
408.227020 -48.249268 6.227685 0.620432
408.227020 -48.249268 5.645268 0.466407
408.227020 -48.249268 5.071030 0.468650
408.227020 -48.249268 4.503594 0.632029
408.017822 -48.381893 3.970139 0.654902
408.017822 -48.381893 3.404217 0.672267
408.227051 -48.249256 2.829155 0.365103
408.017822 -48.381893 2.280242 0.654902
408.017822 -48.381893 1.719759 0.654902
408.017822 -48.381893 1.158674 0.654902
408.227051 -48.249256 0.616096 0.652018
408.227051 -48.249260 0.058360 0.600687
411.094391 -46.431599 -0.000003 0.544945
413.198486 -45.097771 -0.000002 0.534630
414.660919 -44.170708 -0.000002 0.498283
415.738342 -43.487694 -0.000003 0.552483
407.640350 -48.476563 6.382391 0.678431
407.640350 -48.476563 5.778664 0.678431
408.009460 -48.246181 5.104244 0.652689
408.009460 -48.246178 4.530671 0.623392
407.640350 -48.476555 4.012692 0.678431
407.640350 -48.476555 3.434547 0.678431
408.009460 -48.246170 2.838122 0.559701
407.640350 -48.476555 2.286295 0.678431
407.640350 -48.476555 1.713705 0.678431
407.797028 -48.378769 1.149575 0.654902
408.009460 -48.246170 0.601128 0.527443
408.009460 -48.246174 0.037361 0.548837
411.044250 -46.351925 -0.000003 0.551583
413.157623 -45.032818 -0.000003 0.526146
414.626495 -44.115986 -0.000003 0.576623
415.708679 -43.440510 -0.000003 0.539040
407.412323 -48.473328 6.430526 0.678431
407.412323 -48.473328 5.820166 0.678431
407.787079 -48.243027 5.138338 0.640040
407.787079 -48.243027 4.558465 0.655772
407.412323 -48.473320 4.034799 0.669978
407.412323 -48.473320 3.450303 0.678431
407.787109 -48.243019 2.847328 0.592844
407.412323 -48.473320 2.289439 0.678431
407.412323 -48.473320 1.710561 0.678431
407.571411 -48.375565 1.140235 0.647059
407.787109 -48.243019 0.585764 0.436515
407.787109 -48.243019 0.015805 0.468116
410.994690 -46.271900 -0.000003 0.524071
413.117218 -44.967575 -0.000002 0.545861
414.592438 -44.061028 -0.000003 0.502937
415.679321 -43.393120 -0.000002 0.507561
407.179230 -48.470024 6.479948 0.678431
407.179230 -48.470024 5.862781 0.678431
407.559784 -48.239799 5.173346 0.653529
407.559784 -48.239799 4.587004 0.596506
407.340759 -48.372307 4.035780 0.647059
407.179230 -48.470013 3.466481 0.678431
407.559814 -48.239792 2.856780 0.647135
407.179230 -48.470013 2.292667 0.678431
407.179230 -48.470013 1.707333 0.678431
407.340790 -48.372292 1.130644 0.654902
407.559814 -48.239792 0.569989 0.652781
407.606842 -48.211334 -0.000003 0.542962
410.945709 -46.191532 -0.000003 0.564218
413.077271 -44.902061 -0.000002 0.544610
414.558807 -44.005829 -0.000002 0.535790
415.650299 -43.345528 -0.000002 0.569863
406.940826 -48.466644 6.530711 0.707195
406.940857 -48.466644 5.906549 0.678431
407.327362 -48.236500 5.209300 0.664714
407.327362 -48.236504 4.616316 0.624857
407.104889 -48.368958 4.058846 0.647059
406.940857 -48.466629 3.483096 0.678431
407.327362 -48.236496 2.866488 0.661982
406.940857 -48.466629 2.295984 0.678431
406.940857 -48.466629 1.704017 0.678431
407.104919 -48.368942 1.120795 0.662257
407.327362 -48.236496 0.553786 0.671107
407.544373 -48.107269 -0.000003 0.530968
410.897247 -46.110825 -0.000002 0.515023
413.037781 -44.836266 -0.000002 0.541878
414.525513 -43.950397 -0.000002 0.548760
415.621613 -43.297733 -0.000002 0.518273
406.833588 -48.383133 6.543199 0.645212
406.696991 -48.463188 5.951515 0.678431
407.089569 -48.233128 5.246240 0.611231
407.089569 -48.233128 4.646430 0.676844
406.863647 -48.365532 4.082542 0.663661
406.697021 -48.463165 3.500167 0.678431
407.089569 -48.233124 2.876461 0.661158
406.697021 -48.463169 2.299390 0.678431
406.697021 -48.463169 1.700610 0.678431
406.988190 -48.292542 1.117765 0.574548
407.089569 -48.233124 0.537139 0.702052
407.482666 -48.002766 -0.000002 0.536751
410.849396 -46.029778 -0.000002 0.520272
412.998749 -44.770195 -0.000002 0.535363
414.492645 -43.894737 -0.000002 0.534005
415.593262 -43.249741 -0.000002 0.560006
406.616730 -48.362026 6.587504 0.667887
406.447449 -48.459652 5.997727 0.678431
406.846222 -48.229675 5.284203 0.572961
406.846222 -48.229675 4.677379 0.379294
406.616730 -48.362026 4.106895 0.647059
406.447479 -48.459629 3.517710 0.678431
406.846252 -48.229675 2.886710 0.524926
406.447479 -48.459629 2.302891 0.678431
406.447479 -48.459625 1.697109 0.678431
406.846252 -48.229675 1.113289 0.593164
406.846252 -48.229675 0.520032 0.626734
407.421661 -47.897835 -0.000002 0.554452
410.802063 -45.948402 -0.000002 0.544182
412.960175 -44.703854 -0.000002 0.481468
414.460144 -43.838848 -0.000002 0.544137
415.565247 -43.201546 -0.000002 0.531853
406.359894 -48.360752 6.643188 0.542092
406.271698 -48.410801 6.025436 0.654902
406.363953 -48.358459 5.372011 0.677699
406.597137 -48.226143 4.709192 0.693217
406.363983 -48.358433 4.131928 0.647059
406.191132 -48.456524 3.535831 0.654566
406.597137 -48.226143 2.897247 0.617594
406.191101 -48.456524 2.306508 0.656123
406.191132 -48.456524 1.693492 0.647059
406.597137 -48.226143 1.102753 0.685069
406.597137 -48.226139 0.502446 0.436744
407.361389 -47.792488 -0.000002 0.535714
410.755341 -45.866699 -0.000002 0.535256
412.922089 -44.637245 -0.000002 0.548882
414.428040 -43.782730 -0.000002 0.514855
415.537598 -43.153164 -0.000002 0.543954
406.296448 -48.247963 6.643183 0.579751
406.105103 -48.354774 6.050856 0.647913
406.105103 -48.354774 5.412725 0.656550
406.342010 -48.222527 4.741906 0.647486
406.240173 -48.279373 4.139880 0.585840
406.105133 -48.354759 3.537882 0.673899
406.342010 -48.222527 2.908082 0.502724
406.105133 -48.354759 2.306917 0.647059
406.105133 -48.354759 1.693083 0.672114
406.342010 -48.222527 1.091918 0.687617
406.342041 -48.222523 0.484363 0.656596
407.301880 -47.686714 -0.000002 0.533898
410.709167 -45.784668 -0.000002 0.538582
412.884460 -44.570374 -0.000002 0.539910
414.396332 -43.726395 -0.000003 0.529335
415.510254 -43.104588 -0.000002 0.508400
406.080688 -48.218807 6.686928 0.548821
405.662384 -48.448494 6.144314 0.678431
405.662384 -48.448498 5.491462 0.678431
406.080658 -48.218819 4.775557 0.650462
406.080688 -48.218819 4.152560 0.660670
406.080658 -48.218819 3.534238 0.629633
406.080658 -48.218819 2.919226 0.376349
406.080658 -48.218819 2.306190 0.463767
406.080658 -48.218819 1.693810 0.460761
406.080658 -48.218819 1.080774 0.560998
406.080688 -48.218815 0.465762 0.667247
407.243073 -47.580536 -0.000002 0.545968
410.663574 -45.702320 -0.000003 0.536339
412.847290 -44.503242 -0.000002 0.557122
414.365021 -43.669838 -0.000002 0.559930
415.483246 -43.055820 -0.000002 0.512215
405.812805 -48.215008 6.745399 0.692927
405.387695 -48.444603 6.196018 0.678431
405.387695 -48.444603 5.535022 0.678431
405.812805 -48.215019 4.810183 0.709804
405.812805 -48.215015 4.179414 0.586160
405.812805 -48.215015 3.553378 0.575525
405.812805 -48.215019 2.930694 0.586236
405.812805 -48.215019 2.310010 0.632837
405.812805 -48.215019 1.689990 0.616159
405.812805 -48.215019 1.069306 0.412253
405.812805 -48.215015 0.446622 0.667048
407.185028 -47.473942 -0.000002 0.555291
410.618561 -45.619656 -0.000002 0.553719
412.810577 -44.435848 -0.000002 0.622995
414.334106 -43.613060 -0.000002 0.530297
415.456573 -43.006866 -0.000003 0.583215
405.538177 -48.211113 6.805585 0.656107
405.106018 -48.440613 6.249236 0.678431
405.106018 -48.440613 5.579856 0.678431
405.538147 -48.211121 4.845824 0.542687
405.538147 -48.211121 4.207055 0.538796
405.538147 -48.211121 3.573080 0.628351
405.538147 -48.211121 2.942498 0.647288
405.538147 -48.211121 2.313941 0.670939
405.538147 -48.211121 1.686059 0.637888
405.538147 -48.211121 1.057502 0.427817
405.538147 -48.211121 0.426920 0.490379
407.127716 -47.366951 -0.000003 0.530755
410.574127 -45.536674 -0.000002 0.545510
412.774353 -44.368202 -0.000002 0.554971
414.303589 -43.556068 -0.000002 0.512078
415.430267 -42.957729 -0.000003 0.554498
405.256470 -48.207111 6.867554 0.638270
404.817139 -48.436516 6.304035 0.678431
404.817139 -48.436516 5.626021 0.678431
405.256439 -48.207123 4.882524 0.665202
405.256439 -48.207123 4.235517 0.626612
405.256439 -48.207123 3.593365 0.647974
405.256439 -48.207127 2.954652 0.703410
405.256439 -48.207123 2.317990 0.670039
405.256439 -48.207123 1.682010 0.671885
405.256439 -48.207127 1.045348 0.671199
405.256439 -48.207123 0.406634 0.696773
407.071167 -47.259556 -0.000002 0.527993
410.530273 -45.453388 -0.000002 0.527153
412.738586 -44.300304 -0.000002 0.569940
414.273468 -43.498867 -0.000002 0.534920
415.404297 -42.908405 -0.000002 0.513283
404.967377 -48.203011 6.931389 0.376684
404.520660 -48.432312 6.360481 0.678431
404.520660 -48.432312 5.673575 0.678431
404.967346 -48.203026 4.920325 0.452415
404.967346 -48.203026 4.264834 0.518425
404.967346 -48.203026 3.614261 0.672236
404.967346 -48.203026 2.967172 0.677577
404.967346 -48.203026 2.322160 0.660624
404.967346 -48.203026 1.677840 0.653330
404.967346 -48.203026 1.032828 0.676783
404.967346 -48.203026 0.385738 0.670436
407.015381 -47.151775 -0.000002 0.535561
410.487000 -45.369801 -0.000002 0.547021
412.703308 -44.232159 -0.000002 0.531762
414.243744 -43.441460 -0.000002 0.549844
415.378662 -42.858906 -0.000002 0.579614
404.670593 -48.198799 6.997166 0.564691
404.397949 -48.336349 6.374701 0.676310
404.397949 -48.336349 5.685555 0.649851
404.670563 -48.198814 4.959278 0.674922
404.670563 -48.198814 4.295044 0.613245
404.670563 -48.198814 3.635793 0.552224
404.670563 -48.198814 2.980072 0.593896
404.670563 -48.198814 2.326458 0.617426
404.670563 -48.198814 1.673542 0.677150
404.670563 -48.198814 1.019927 0.677180
404.670563 -48.198814 0.364206 0.555108
406.960327 -47.043602 -0.000002 0.549325
410.444305 -45.285908 -0.000002 0.551522
412.668518 -44.163773 -0.000002 0.495811
414.214417 -43.383842 -0.000002 0.523964
415.353394 -42.809227 -0.000002 0.539574
404.365784 -48.194473 7.064971 0.638834
404.299469 -48.227337 6.383189 0.647288
404.299469 -48.227341 5.692708 0.578882
404.365753 -48.194489 4.999433 0.503166
404.365753 -48.194489 4.326185 0.659434
404.365753 -48.194489 3.657989 0.681315
404.365753 -48.194489 2.993371 0.499199
404.365753 -48.194489 2.330887 0.613031
404.365723 -48.194489 1.669113 0.633005
404.365723 -48.194489 1.006629 0.643626
404.365723 -48.194489 0.342010 0.466911
406.906036 -46.935051 -0.000002 0.538659
410.402191 -45.201725 -0.000003 0.560723
412.634186 -44.095139 -0.000002 0.531044
414.185516 -43.326023 -0.000002 0.542260
415.328461 -42.759373 -0.000002 0.555444
404.052521 -48.190037 7.134900 0.672221
404.052521 -48.190033 6.427504 0.446860
404.052521 -48.190037 5.730041 0.520531
404.052521 -48.190037 5.040838 0.678096
404.052521 -48.190037 4.358297 0.413138
403.582458 -48.419006 3.723748 0.678431
404.052521 -48.190048 3.007085 0.523323
403.582489 -48.419006 2.344011 0.678431
403.582489 -48.419006 1.655989 0.678431
404.052521 -48.190048 0.992915 0.609140
404.052521 -48.190048 0.319121 0.669886
406.852509 -46.826126 -0.000002 0.546822
410.360687 -45.117245 -0.000002 0.498116
412.600342 -44.026272 -0.000002 0.531182
414.156982 -43.268002 -0.000002 0.545556
415.303864 -42.709343 -0.000002 0.544747
403.730499 -48.185471 7.207041 0.640284
403.730499 -48.185467 6.489707 0.670665
403.730499 -48.185471 5.782446 0.615778
403.730499 -48.185471 5.083561 0.410269
403.730499 -48.185471 4.391430 0.656306
403.252228 -48.414326 3.747967 0.678431
403.730499 -48.185474 3.021233 0.640314
403.252228 -48.414330 2.348844 0.678431
403.252228 -48.414330 1.651156 0.678431
403.730499 -48.185474 0.978766 0.602701
403.730499 -48.185478 0.295506 0.637354
406.799744 -46.716827 -0.000002 0.540749
410.319763 -45.032478 -0.000002 0.542458
412.566986 -43.957165 -0.000002 0.557565
414.128876 -43.209785 -0.000002 0.502174
415.279633 -42.659145 -0.000002 0.504616
403.399292 -48.180775 7.281501 0.662882
403.399292 -48.180775 6.553909 0.658442
403.399292 -48.180775 5.836534 0.669337
403.399292 -48.180775 5.127655 0.678737
403.399292 -48.180771 4.425626 0.625650
402.912567 -48.409512 3.772962 0.678431
403.399292 -48.180779 3.035837 0.684352
402.912567 -48.409515 2.353832 0.678431
402.912567 -48.409515 1.646168 0.678431
403.399292 -48.180779 0.964163 0.667918
403.399292 -48.180775 0.271133 0.513329
406.747742 -46.607162 -0.000002 0.536660
410.279419 -44.947426 -0.000002 0.550851
412.534088 -43.887833 -0.000002 0.552285
414.101196 -43.151371 -0.000002 0.573846
415.255737 -42.608780 -0.000002 0.561471
403.058441 -48.175945 7.358387 0.684993
403.058441 -48.175941 6.620203 0.483223
403.058441 -48.175945 5.892385 0.593942
403.058441 -48.175941 5.173185 0.528832
403.058441 -48.175941 4.460937 0.646143
402.591614 -48.391376 3.796192 0.661845
403.058441 -48.175941 3.050915 0.622782
402.591614 -48.391376 2.358469 0.654719
402.591614 -48.391376 1.641531 0.654719
403.058441 -48.175941 0.949084 0.706523
403.058441 -48.175941 0.245966 0.525307
406.696503 -46.497135 -0.000002 0.558785
410.239685 -44.862099 -0.000002 0.534691
412.501709 -43.818268 -0.000002 0.530221
414.073883 -43.092766 -0.000002 0.558541
415.232208 -42.558250 -0.000002 0.538201
402.707520 -48.170971 7.437814 0.608972
402.707520 -48.170971 6.688688 0.473503
402.707520 -48.170971 5.950080 0.524407
402.707520 -48.170971 5.220220 0.615351
402.707520 -48.170967 4.497414 0.651530
402.417267 -48.302460 3.806161 0.654002
402.707550 -48.170959 3.066492 0.547524
402.417267 -48.302460 2.360458 0.657115
402.417267 -48.302460 1.639542 0.652384
402.707520 -48.170963 0.933508 0.667597
402.707520 -48.170967 0.219967 0.588418
406.646027 -46.386757 -0.000002 0.552789
410.200531 -44.776493 -0.000002 0.534539
412.469788 -43.748482 -0.000002 0.527337
414.047028 -43.033974 -0.000002 0.546639
415.209045 -42.507557 -0.000002 0.536522
401.832520 -48.394154 7.660662 0.678431
402.346008 -48.165844 6.759467 0.503029
401.832520 -48.394157 6.111961 0.678431
402.346008 -48.165848 5.268834 0.676768
402.346008 -48.165844 4.535116 0.644831
401.832458 -48.394180 3.852987 0.678431
402.346039 -48.165833 3.082592 0.645792
401.832458 -48.394184 2.369803 0.678431
401.832458 -48.394184 1.630197 0.678431
402.346039 -48.165836 0.917408 0.524895
402.346039 -48.165836 0.193097 0.479500
406.596313 -46.276024 -0.000002 0.526818
410.161987 -44.690620 -0.000002 0.548104
412.438385 -43.678474 -0.000002 0.530373
414.020538 -42.974991 -0.000002 0.561990
415.186218 -42.456699 -0.000002 0.524529
401.450409 -48.388741 7.747709 0.678431
401.973419 -48.160564 6.832655 0.564202
401.450409 -48.388741 6.175192 0.678431
401.672394 -48.291889 5.367813 0.650828
401.973419 -48.160561 4.574099 0.623774
401.450409 -48.388752 3.881478 0.678431
401.973450 -48.160549 3.099238 0.675227
401.450409 -48.388752 2.375489 0.677058
401.450409 -48.388752 1.624511 0.678431
401.973450 -48.160549 0.900761 0.587549
401.973450 -48.160549 0.165312 0.518227
406.547394 -46.164951 -0.000002 0.537835
410.124054 -44.604477 -0.000002 0.570657
412.407440 -43.608250 -0.000002 0.549035
413.994476 -42.915829 -0.000002 0.538140
415.163757 -42.405689 -0.000002 0.552850
401.056366 -48.383152 7.837764 0.678431
401.589142 -48.155113 6.908371 0.584909
401.056366 -48.383152 6.240609 0.678431
401.056366 -48.383152 5.457068 0.678431
401.589142 -48.155113 4.614429 0.611032
401.056366 -48.383152 3.910955 0.678431
401.589172 -48.155098 3.116461 0.672816
401.056366 -48.383152 2.381372 0.674754
401.056366 -48.383152 1.618628 0.678431
401.589172 -48.155098 0.883539 0.629267
401.589172 -48.155098 0.136567 0.655741
406.499268 -46.053539 -0.000002 0.548333
410.086731 -44.518070 -0.000002 0.555398
412.377014 -43.537807 -0.000002 0.518425
413.968842 -42.856487 -0.000002 0.536660
415.141632 -42.354519 -0.000002 0.544305
400.744659 -48.337536 7.905187 0.648432
401.192627 -48.149490 6.986745 0.563928
400.744659 -48.337540 6.289588 0.647059
400.744659 -48.337540 5.496996 0.654658
401.192627 -48.149494 4.656176 0.586542
400.764679 -48.329136 3.931246 0.620844
401.192688 -48.149471 3.134286 0.677150
400.764679 -48.329136 2.385422 0.654902
400.764679 -48.329136 1.614578 0.647059
401.192688 -48.149471 0.865713 0.703792
401.192688 -48.149475 0.106813 0.470802
406.451904 -45.941792 -0.000002 0.534691
410.049988 -44.431408 -0.000002 0.548074
412.347046 -43.467155 -0.000002 0.557733
413.943604 -42.796967 -0.000002 0.554635
415.119873 -42.303200 -0.000002 0.515023
400.646606 -48.199913 7.914635 0.675120
400.783234 -48.143684 7.067914 0.498146
400.646606 -48.199917 6.296449 0.554421
400.646606 -48.199913 5.502591 0.609842
400.783234 -48.143688 4.699410 0.612390
400.229858 -48.371441 3.973071 0.678431
400.783264 -48.143665 3.152749 0.445518
400.229858 -48.371441 2.393769 0.671443
400.229858 -48.371441 1.606231 0.678431
400.783264 -48.143665 0.847250 0.566171
400.783264 -48.143665 0.075999 0.679744
406.405304 -45.829716 -0.000002 0.542275
410.013855 -44.344490 -0.000002 0.544717
412.317596 -43.396297 -0.000002 0.536049
413.918793 -42.737267 -0.000002 0.581064
415.098480 -42.251724 -0.000002 0.559426
400.360260 -48.137688 7.975178 0.581750
400.360260 -48.137688 7.152024 0.461418
400.360260 -48.137691 6.340428 0.524208
400.360260 -48.137688 5.538444 0.544350
400.360260 -48.137688 4.744211 0.449241
399.796112 -48.365292 4.005816 0.678431
400.360321 -48.137665 3.171881 0.652598
400.035553 -48.268692 2.396078 0.647059
399.796112 -48.365295 1.599696 0.678431
400.360321 -48.137665 0.828119 0.586740
400.360321 -48.137665 0.044068 0.545266
406.359497 -45.717319 -0.000002 0.546120
409.978333 -44.257320 -0.000001 0.506981
412.288635 -43.325237 -0.000002 0.533898
413.894409 -42.677399 -0.000002 0.568948
415.077454 -42.200104 -0.000002 0.520516
399.923004 -48.131481 8.076317 0.664927
399.923004 -48.131485 7.239230 0.538201
399.923004 -48.131485 6.413897 0.706294
399.923004 -48.131485 5.598337 0.626459
399.923004 -48.131485 4.790661 0.617884
399.371246 -48.349621 4.037693 0.654398
399.591858 -48.262398 3.209213 0.668498
399.591858 -48.262405 2.402784 0.647059
399.347687 -48.358932 1.592920 0.678431
399.923065 -48.131462 0.808283 0.641566
399.923065 -48.131462 0.010960 0.678431
406.314484 -45.604610 -0.000002 0.523064
409.943420 -44.169907 -0.000002 0.547173
412.260193 -43.253971 -0.000002 0.523079
413.870422 -42.617363 -0.000002 0.563409
415.056763 -42.148338 -0.000002 0.565301
399.470673 -48.125065 8.181247 0.668971
399.470673 -48.125061 7.329701 0.490776
399.470673 -48.125065 6.490117 0.650523
399.470673 -48.125065 5.660476 0.560449
399.470673 -48.125065 4.838850 0.398306
399.132874 -48.255894 4.053095 0.654902
399.132874 -48.255890 3.230095 0.654932
399.132874 -48.255894 2.409739 0.647059
398.936768 -48.331844 1.586820 0.654902
399.470703 -48.125046 0.787703 0.661479
399.736664 -48.022041 -0.000002 0.546746
406.270264 -45.491581 -0.000001 0.533333
409.909119 -44.082249 -0.000002 0.555840
412.232208 -43.182510 -0.000002 0.528267
413.846863 -42.557159 -0.000002 0.560601
415.036469 -42.096432 -0.000002 0.545159
399.002411 -48.118416 8.290173 0.458183
399.002411 -48.118416 7.423623 0.614282
399.002411 -48.118420 6.569242 0.624765
399.002411 -48.118420 5.724980 0.551080
399.002411 -48.118416 4.888877 0.647059
398.657776 -48.249142 4.089272 0.647181
398.657776 -48.249138 3.251770 0.654871
398.657776 -48.249138 2.416959 0.737011
398.403595 -48.345547 1.578593 0.678431
399.002472 -48.118401 0.766340 0.455512
399.675720 -47.863033 -0.000002 0.533074
406.226807 -45.378250 -0.000002 0.525490
409.875427 -43.994358 -0.000002 0.525124
412.204742 -43.110859 -0.000002 0.558877
413.823730 -42.496796 -0.000002 0.524956
415.016510 -42.044380 -0.000002 0.545953
398.517334 -48.111534 8.403326 0.616617
397.906097 -48.338505 7.662012 0.678431
397.906097 -48.338505 6.770078 0.678431
397.906097 -48.338505 5.888706 0.678431
397.906097 -48.338505 5.015854 0.678431
398.165588 -48.242149 4.126855 0.665904
397.906128 -48.338490 3.287883 0.674815
398.165558 -48.242157 2.424459 0.649516
397.906128 -48.338486 1.571012 0.678431
398.517365 -48.111519 0.744147 0.487694
399.615906 -47.703606 -0.000001 0.550591
406.184174 -45.264618 -0.000002 0.542428
409.842346 -43.906231 -0.000002 0.522194
412.177795 -43.039017 -0.000002 0.535775
413.800995 -42.436268 -0.000002 0.571954
414.996918 -41.992191 -0.000001 0.551934
398.014465 -48.104397 8.520949 0.493050
397.390381 -48.331188 7.766018 0.678431
397.390381 -48.331188 6.857699 0.678431
397.390381 -48.331188 5.960139 0.678431
397.390381 -48.331188 5.071253 0.678431
397.953979 -48.126377 4.139868 0.594385
397.390411 -48.331169 3.311541 0.678676
397.655304 -48.234909 2.432256 0.650339
397.390442 -48.331169 1.563132 0.678431
398.014496 -48.104385 0.721078 0.666255
399.557190 -47.543762 -0.000001 0.537209
406.142303 -45.150692 -0.000002 0.529381
409.809906 -43.817875 -0.000002 0.544289
412.151337 -42.966988 -0.000002 0.549157
413.778717 -42.375587 -0.000002 0.532036
414.977692 -41.939869 -0.000001 0.586480
397.492737 -48.096992 8.643305 0.578134
396.855347 -48.323597 7.874209 0.678431
396.855347 -48.323593 6.948846 0.678431
396.855347 -48.323593 6.034445 0.678431
396.855347 -48.323597 5.128880 0.678431
397.492737 -48.096992 4.174644 0.686213
397.125946 -48.227394 3.322044 0.634424
397.125946 -48.227394 2.440367 0.657984
397.125946 -48.227394 1.559633 0.647440
397.492737 -48.096985 0.697081 0.670573
399.499573 -47.383514 -0.000002 0.553628
406.101257 -45.036472 -0.000002 0.527443
409.778046 -43.729294 -0.000002 0.541939
412.125366 -42.894775 -0.000001 0.535973
413.756836 -42.314751 -0.000002 0.541207
414.958832 -41.887413 -0.000002 0.539590
396.951019 -48.089310 8.770672 0.513375
396.299835 -48.315712 7.986831 0.678431
396.299835 -48.315712 7.043728 0.678431
396.299835 -48.315716 6.111796 0.678431
396.299835 -48.315712 5.188869 0.678431
396.951019 -48.089302 4.216336 0.479179
396.299835 -48.315712 3.361770 0.678431
396.576294 -48.219597 2.448810 0.650584
396.299835 -48.315712 1.546401 0.678431
396.951050 -48.089298 0.672100 0.442603
399.443085 -47.222874 -0.000002 0.532937
406.061005 -44.921974 -0.000002 0.519570
409.746826 -43.640499 -0.000002 0.580804
412.099915 -42.822384 -0.000002 0.526131
413.735413 -42.253761 -0.000002 0.545968
414.940338 -41.834831 -0.000002 0.512047
396.388123 -48.081318 8.903367 0.548623
395.722565 -48.307522 8.104164 0.678431
395.722565 -48.307522 7.142578 0.678431
395.722534 -48.307526 6.192381 0.678431
395.722534 -48.307526 5.251367 0.678431
396.388123 -48.081318 4.259772 0.492332
395.722595 -48.307510 3.388457 0.678431
396.005096 -48.211494 2.457606 0.660090
395.722595 -48.307510 1.537512 0.678431
396.388123 -48.081310 0.646075 0.659113
399.387726 -47.061836 -0.000002 0.532616
406.021545 -44.807194 -0.000002 0.547662
409.716248 -43.551479 -0.000002 0.557473
412.074982 -42.749813 -0.000002 0.541253
413.714386 -42.192627 -0.000001 0.546014
414.922241 -41.782112 -0.000002 0.487282
395.802673 -48.073013 9.041716 0.601801
395.410461 -48.203262 8.160887 0.645823
395.122162 -48.299007 7.245641 0.678431
395.122162 -48.299007 6.276400 0.678431
395.122162 -48.299007 5.316526 0.678431
395.802673 -48.073009 4.305060 0.600320
395.282318 -48.245823 3.407995 0.649821
395.411041 -48.203072 2.466777 0.647059
395.282318 -48.245819 1.531003 0.647272
395.802673 -48.073006 0.618942 0.674937
399.333496 -46.900421 -0.000002 0.532601
405.982910 -44.692146 -0.000001 0.546624
409.686249 -43.462254 -0.000002 0.545190
412.050537 -42.677074 -0.000002 0.552834
413.693787 -42.131344 -0.000002 0.565408
414.904480 -41.729275 -0.000002 0.492927
395.193237 -48.064362 9.186077 0.573785
394.886841 -48.163754 8.265680 0.639368
394.886841 -48.163750 7.278649 0.534569
394.886841 -48.163750 6.303310 0.411597
394.886841 -48.163750 5.337396 0.436240
395.193268 -48.064362 4.352316 0.505348
395.193268 -48.064362 3.409372 0.546792
395.193268 -48.064358 2.469454 0.556008
395.193268 -48.064358 1.530545 0.547417
395.193268 -48.064358 0.590628 0.465599
399.280396 -46.738625 -0.000001 0.541115
405.945038 -44.576828 -0.000001 0.532219
409.656891 -43.372818 -0.000002 0.546197
412.026611 -42.604164 -0.000002 0.562905
413.673645 -42.069920 -0.000002 0.546807
414.887085 -41.676311 -0.000002 0.561547
394.558258 -48.055359 9.336854 0.500725
394.558289 -48.055359 8.326111 0.672312
394.558289 -48.055359 7.329563 0.548135
394.558258 -48.055359 6.344815 0.523354
394.558289 -48.055359 5.369585 0.591119
394.558289 -48.055359 4.401672 0.520974
394.558258 -48.055359 3.438943 0.561395
394.558289 -48.055355 2.479305 0.561013
394.558289 -48.055355 1.520695 0.544808
394.558258 -48.055359 0.561056 0.545663
399.228424 -46.576462 -0.000001 0.531350
405.907990 -44.461246 -0.000001 0.558053
409.628174 -43.283184 -0.000001 0.541558
412.003174 -42.531090 -0.000002 0.523278
413.653900 -42.008358 -0.000001 0.508415
414.870087 -41.623230 -0.000001 0.571099
393.896027 -48.045971 9.494473 0.472831
393.895996 -48.045982 8.462024 0.609094
393.895996 -48.045982 7.444064 0.649912
393.895996 -48.045982 6.438162 0.442878
393.895996 -48.045979 5.441977 0.634592
393.895996 -48.045982 4.453271 0.587610
393.895996 -48.045982 3.469858 0.589609
393.895996 -48.045982 2.489603 0.673777
393.895996 -48.045982 1.510397 0.611612
393.895996 -48.045982 0.530142 0.661387
399.177582 -46.413944 -0.000001 0.545357
405.871765 -44.345413 -0.000001 0.561608
409.600067 -43.193348 -0.000002 0.535470
411.980286 -42.457855 -0.000002 0.550759
413.634613 -41.946659 -0.000001 0.543023
414.853455 -41.570030 -0.000002 0.573861
nan nan nan 0.000000
393.204620 -48.036190 8.604228 0.442664
393.204620 -48.036190 7.563867 0.418906
393.204620 -48.036190 6.535827 0.493156
393.204620 -48.036190 5.517722 0.701900
393.204620 -48.036190 4.507257 0.550439
393.204620 -48.036190 3.502203 0.560052
393.204620 -48.036186 2.500376 0.552026
393.204620 -48.036186 1.499623 0.590600
393.204620 -48.036190 0.497796 0.559167
399.127869 -46.251076 -0.000001 0.547265
405.836334 -44.229328 -0.000002 0.542046
409.572601 -43.103321 -0.000002 0.532021
411.957886 -42.384460 -0.000002 0.536477
413.615723 -41.884827 -0.000002 0.550576
414.837158 -41.516716 -0.000002 0.518624
nan nan nan 0.000000
392.482117 -48.025948 8.753163 0.516732
391.717041 -48.250706 7.834432 0.678431
392.449249 -48.035599 6.643196 0.562631
391.717041 -48.250702 5.688785 0.678431
392.482117 -48.025940 4.563798 0.586618
392.482147 -48.025936 3.536078 0.634684
392.482147 -48.025940 2.511660 0.499596
392.482147 -48.025940 1.488340 0.511345
392.482147 -48.025936 0.463921 0.678431
399.079315 -46.087864 -0.000001 0.537530
405.801727 -44.112995 -0.000002 0.551659
409.545746 -43.013100 -0.000001 0.525948
411.935974 -42.310909 -0.000002 0.532509
413.597290 -41.822861 -0.000002 0.544228
414.821259 -41.463291 -0.000002 0.572168
nan nan nan 0.000000
391.726257 -48.015217 8.909304 0.536522
391.062866 -48.205086 7.946441 0.648554
391.726257 -48.015217 6.745355 0.622324
391.062866 -48.205086 5.759602 0.675395
391.726349 -48.015198 4.623072 0.610666
391.726349 -48.015198 3.571593 0.542107
391.726349 -48.015198 2.523490 0.482475
391.726349 -48.015198 1.476510 0.472419
391.726349 -48.015198 0.428407 0.456260
399.031891 -45.924313 -0.000001 0.541772
405.767914 -43.996426 -0.000001 0.529412
409.519531 -42.922695 -0.000002 0.553429
411.914612 -42.237209 -0.000001 0.532403
413.579285 -41.760773 -0.000002 0.548211
414.805756 -41.409756 -0.000001 0.562844
329.935699 -65.002357 26.064899 0.768414
390.934631 -48.003983 9.073190 0.523857
390.130066 -48.228180 8.110924 0.678431
390.934631 -48.003979 6.857911 0.510155
390.130066 -48.228184 5.863596 0.678431
390.934753 -48.003944 4.685285 0.509896
390.934753 -48.003944 3.608866 0.524269
390.934753 -48.003944 2.535906 0.605234
390.934753 -48.003944 1.464094 0.474891
390.934753 -48.003944 0.391133 0.599557
398.985596 -45.760441 -0.000001 0.547112
405.734924 -43.879623 -0.000001 0.543725
409.493958 -42.832111 -0.000001 0.520256
411.893768 -42.163364 -0.000002 0.559182
413.561707 -41.698559 -0.000001 0.560311
414.790588 -41.356110 -0.000001 0.507393
332.257721 -63.677803 25.416117 0.653819
390.104431 -47.992199 9.245401 0.483513
389.629181 -48.121071 8.193634 0.652430
390.104431 -47.992199 6.976189 0.676646
389.278625 -48.216125 5.957673 0.678431
390.104523 -47.992180 4.750669 0.495003
389.278564 -48.216141 3.690082 0.690105
390.104523 -47.992180 2.548955 0.677775
389.278564 -48.216141 1.437041 0.701595
390.104523 -47.992180 0.351958 0.495430
398.940460 -45.596241 -0.000001 0.540337
405.702759 -43.762596 -0.000001 0.525612
409.468994 -42.741348 -0.000001 0.571084
411.873413 -42.089371 -0.000001 0.547311
413.544586 -41.636223 -0.000002 0.558190
414.775818 -41.302361 -0.000002 0.552041
332.143005 -63.033112 25.402157 0.678431
389.232819 -47.979828 9.426579 0.559823
389.232819 -47.979828 8.256672 0.663890
389.232819 -47.979828 7.100621 0.549233
388.384735 -48.203449 6.056643 0.678431
389.232788 -47.979832 4.819459 0.684169
389.158356 -47.999462 3.693039 0.550408
389.232788 -47.979832 2.562683 0.669993
389.158356 -47.999458 1.436057 0.673152
389.232788 -47.979832 0.310743 0.640131
398.896484 -45.431740 -0.000001 0.529931
405.671387 -43.645348 -0.000002 0.534997
409.444672 -42.650417 -0.000001 0.528695
411.853577 -42.015240 -0.000002 0.565911
413.527893 -41.573769 -0.000001 0.521859
414.761414 -41.248512 -0.000002 0.512047
331.995422 -62.397621 25.397886 0.312398
331.995422 -62.397617 22.174543 0.608164
388.316406 -47.966824 8.417459 0.676204
388.316406 -47.966824 7.231700 0.460960
387.444916 -48.190121 6.160898 0.678431
388.316315 -47.966846 4.891922 0.678431
388.316315 -47.966846 3.732672 0.678431
388.316315 -47.966846 2.577145 0.518624
388.316315 -47.966846 1.422855 0.548928
388.316315 -47.966846 0.267327 0.454887
398.853638 -45.266930 -0.000001 0.541955
405.640869 -43.527878 -0.000001 0.554406
409.420990 -42.559315 -0.000002 0.532418
411.834290 -41.940971 -0.000002 0.562310
413.511627 -41.511200 -0.000001 0.542779
414.747406 -41.194565 -0.000001 0.566201
338.395233 -60.133373 23.704739 0.624140
338.395233 -60.133377 20.714647 0.421881
387.351624 -47.953129 8.587054 0.669337
386.455597 -48.176060 7.506926 0.678431
386.455597 -48.176060 6.270850 0.678431
387.351440 -47.953175 4.968354 0.627115
386.455597 -48.176064 3.823819 0.678431
387.351440 -47.953175 2.592399 0.509422
386.455597 -48.176064 1.392495 0.678431
387.351440 -47.953178 0.221534 0.671153
398.811951 -45.101830 -0.000001 0.544808
405.611145 -43.410198 -0.000001 0.536553
409.397949 -42.468052 -0.000001 0.512535
411.815491 -41.866573 -0.000001 0.554818
413.495789 -41.448521 -0.000001 0.590463
414.733765 -41.140518 -0.000001 0.552728
340.246552 -59.064163 23.190584 0.635401
340.246552 -59.064167 20.271320 0.667948
386.334412 -47.938690 8.766201 0.582834
385.453827 -48.151260 7.650376 0.647059
385.453827 -48.151260 6.382103 0.669917
386.334320 -47.938713 5.049075 0.676341
385.640137 -48.106289 3.861913 0.653040
386.334229 -47.938740 2.608510 0.586923
385.640137 -48.106293 1.379806 0.663447
386.334198 -47.938740 0.173165 0.582315
398.771393 -44.936440 -0.000002 0.542351
405.582275 -43.292316 -0.000002 0.540841
409.375549 -42.376629 -0.000001 0.520699
411.797241 -41.792042 -0.000001 0.568887
413.480408 -41.385731 -0.000001 0.551934
414.720490 -41.086380 -0.000002 0.574289
342.012482 -58.044342 22.701149 0.549081
342.012482 -58.044342 19.849312 0.667384
385.260254 -47.923450 8.955710 0.624430
385.260254 -47.923450 7.670498 0.654887
385.260254 -47.923450 6.397709 0.694331
385.260254 -47.923450 5.134468 0.661768
384.310791 -48.145645 3.925895 0.678431
385.260071 -47.923492 2.625554 0.627939
384.310791 -48.145641 1.358493 0.678431
385.260071 -47.923492 0.121999 0.497810
398.732025 -44.770767 -0.000001 0.555581
