# This PCD file was generated using the MATLABÂ® pcwrite function
# from Computer Vision ToolboxÂ®.
# .PCD v.7 - Point Cloud Data file format
VERSION .7
FIELDS x y z intensity
SIZE 4 4 4 4
TYPE F F F F
COUNT 1 1 1 1
WIDTH 1212
HEIGHT 1
VIEWPOINT 0 0 0 1 0 0 0
POINTS 1212
DATA ascii
284.923370 -145.900085 0.000000 0.546456
284.481171 -147.096680 0.000000 0.539376
299.125580 -108.463860 14.348886 0.406256
299.125580 -108.463875 12.647674 0.364706
299.155487 -108.384697 10.985748 0.678431
299.125580 -108.463852 9.312893 0.401862
299.125580 -108.463867 7.671453 0.438926
299.155457 -108.384712 6.049267 0.678431
299.125580 -108.463860 4.421930 0.369116
299.125580 -108.463882 2.806733 0.410391
299.125580 -108.463882 1.193267 0.391501
296.092102 -116.499039 0.000006 0.541085
290.328278 -131.766479 0.000003 0.540200
287.853638 -138.321381 0.000002 0.548440
286.475403 -141.972107 0.000001 0.533639
285.595490 -144.302795 0.000000 0.553994
284.983948 -145.922714 0.000000 0.558648
284.533386 -147.116196 0.000000 0.536889
299.490509 -108.474106 14.379073 0.396078
299.490509 -108.474106 12.673704 0.395178
299.521027 -108.394958 11.007712 0.678431
299.490509 -108.474106 9.330768 0.405356
299.490509 -108.474106 7.685316 0.417563
299.521027 -108.394958 6.059165 0.678431
299.490509 -108.474106 4.427850 0.389700
299.490509 -108.474121 2.808706 0.380056
299.490509 -108.474121 1.191295 0.410056
296.357666 -116.600319 0.000005 0.538308
290.487366 -131.827179 0.000003 0.540963
287.967041 -138.364639 0.000001 0.535637
286.563324 -142.005661 0.000001 0.541161
285.667206 -144.330154 0.000000 0.535271
285.044342 -145.945755 0.000000 0.531014
284.585449 -147.136063 -0.000000 0.538125
299.857239 -108.484406 14.410008 0.376852
299.857208 -108.484406 12.700379 0.403525
299.888367 -108.405273 11.030225 0.678431
299.857239 -108.484390 9.349091 0.388235
299.857239 -108.484406 7.699524 0.419364
299.888367 -108.405273 6.069311 0.678431
299.857208 -108.484406 4.433916 0.409766
299.857208 -108.484421 2.810725 0.393698
299.857208 -108.484421 1.189274 0.404776
296.622498 -116.703476 0.000004 0.540978
290.646057 -131.888977 0.000002 0.538186
288.080139 -138.408691 0.000001 0.533562
286.651031 -142.039825 0.000001 0.545113
285.738708 -144.358002 0.000000 0.556252
285.104584 -145.969223 -0.000000 0.537636
284.637390 -147.156296 -0.000000 0.570001
300.225800 -108.494743 14.441715 0.420554
300.225800 -108.494743 12.727717 0.428840
300.257568 -108.415619 11.053297 0.678431
300.225800 -108.494743 9.367865 0.398260
300.225800 -108.494751 7.714085 0.424430
300.257568 -108.415634 6.079707 0.678431
300.225800 -108.494751 4.440135 0.426871
300.225800 -108.494766 2.812797 0.425895
300.225800 -108.494766 1.187203 0.401083
296.886597 -116.808487 0.000004 0.545937
290.804291 -131.951889 0.000002 0.528099
288.192902 -138.453537 0.000001 0.536171
286.738525 -142.074600 0.000000 0.547692
285.809998 -144.386353 0.000000 0.530831
285.164642 -145.993103 -0.000000 0.565789
284.689178 -147.176895 -0.000000 0.541054
300.596283 -108.505127 14.474192 0.364874
300.596283 -108.505142 12.755718 0.414847
300.628693 -108.426041 11.076928 0.678431
300.596283 -108.505142 9.387098 0.402274
300.596283 -108.505142 7.729001 0.410101
300.628693 -108.426048 6.090356 0.678431
300.596283 -108.505127 4.446506 0.417258
300.596283 -108.505142 2.814918 0.408713
300.596283 -108.505142 1.185081 0.406241
297.149963 -116.915314 0.000004 0.535103
290.962067 -132.015900 0.000001 0.541817
288.305389 -138.499161 0.000000 0.535561
286.825745 -142.109985 0.000000 0.541650
285.881104 -144.415192 -0.000000 0.542260
285.224548 -146.017410 -0.000000 0.536629
284.740845 -147.197845 -0.000000 0.553765
300.968719 -108.515587 14.507448 0.419608
300.968719 -108.515594 12.784392 0.387564
301.001770 -108.436508 11.101126 0.674144
300.968719 -108.515579 9.406792 0.423026
300.968719 -108.515594 7.744275 0.435706
301.001770 -108.436516 6.101260 0.678431
300.968719 -108.515594 4.453028 0.390066
300.968719 -108.515610 2.817091 0.395453
300.968719 -108.515610 1.182909 0.418189
297.412598 -117.023987 0.000003 0.544778
291.119415 -132.081024 0.000001 0.535149
288.417542 -138.545578 0.000001 0.547601
286.912720 -142.145981 -0.000000 0.569802
285.952026 -144.444550 -0.000001 0.559121
285.284302 -146.042130 -0.000001 0.521355
284.792358 -147.219162 -0.000001 0.544717
301.343170 -108.526093 14.541495 0.387732
301.343170 -108.526093 12.813749 0.407797
301.376862 -108.447037 11.125902 0.674144
301.343170 -108.526093 9.426952 0.404456
290.183197 -134.712128 4.485283 0.940749
301.376862 -108.447044 6.112425 0.678431
301.343170 -108.526093 4.459705 0.399268
301.343170 -108.526108 2.819315 0.405035
301.343170 -108.526108 1.180684 0.402152
297.674438 -117.134491 0.000002 0.542168
291.276306 -132.147217 0.000000 0.536095
288.529358 -138.592758 0.000000 0.542458
286.999420 -142.182587 -0.000001 0.554910
286.022705 -144.474380 -0.000000 0.568673
285.343842 -146.067261 -0.000001 0.560006
284.843719 -147.240829 -0.000001 0.535515
301.719696 -108.536652 14.576344 0.406714
301.719696 -108.536667 12.843796 0.443397
301.729156 -108.514893 11.139897 0.507805
290.263702 -134.905319 5.182974 0.937255
290.161774 -135.139923 4.439104 0.937255
301.729156 -108.514908 6.118730 0.484672
301.719696 -108.536652 4.466539 0.416861
301.719696 -108.536667 2.821593 0.425772
301.719696 -108.536674 1.178408 0.431373
297.935547 -117.246811 0.000001 0.538262
291.432739 -132.214523 0.000000 0.530938
288.640839 -138.640732 -0.000000 0.543297
287.085907 -142.219788 -0.000001 0.544961
286.093201 -144.504715 -0.000001 0.537545
285.403229 -146.092819 -0.000001 0.541741
284.894897 -147.262863 -0.000002 0.576043
302.098328 -108.547272 14.612005 0.397543
302.098328 -108.547279 12.874544 0.417304
302.133331 -108.468262 11.177206 0.678431
290.263702 -135.275330 5.132710 0.937255
290.163544 -135.501511 4.401091 0.937255
302.133331 -108.468262 6.135546 0.678431
302.098328 -108.547272 4.473534 0.401221
302.098328 -108.547287 2.823922 0.412421
302.098328 -108.547287 1.176078 0.403021
298.195801 -117.360962 0.000000 0.541802
291.588684 -132.282928 -0.000001 0.554925
288.751984 -138.689484 -0.000001 0.534432
287.172089 -142.257599 -0.000001 0.557015
286.163483 -144.535538 -0.000001 0.532296
285.462433 -146.118790 -0.000001 0.502556
284.945953 -147.285248 -0.000002 0.581125
302.479126 -108.557976 14.648479 0.379446
302.479126 -108.557976 12.905997 0.415366
302.514771 -108.478966 11.203750 0.678431
290.263702 -135.633850 5.084158 0.937255
290.227448 -135.714188 4.381753 0.937255
302.514771 -108.478973 6.147505 0.678431
302.479126 -108.557968 4.480688 0.436362
302.479126 -108.557983 2.826304 0.411917
302.479126 -108.557983 1.173695 0.394766
298.455292 -117.476913 -0.000000 0.541695
291.744141 -132.352402 -0.000001 0.552956
288.862793 -138.739014 -0.000001 0.541970
287.258026 -142.296005 -0.000001 0.530968
286.233521 -144.566849 -0.000001 0.565820
285.521454 -146.145172 -0.000001 0.514000
284.996857 -147.307999 -0.000001 0.529107
302.862152 -108.568718 14.685792 0.394858
302.862152 -108.568726 12.938166 0.407370
302.898468 -108.489731 11.230899 0.678431
290.263702 -135.981445 5.037232 0.937255
290.263702 -135.981445 4.355500 0.937255
302.898468 -108.489738 6.159740 0.678431
302.862183 -108.568710 4.488006 0.399619
302.862152 -108.568726 2.828742 0.408804
302.862152 -108.568726 1.171257 0.397620
298.713959 -117.594688 -0.000001 0.542138
291.899109 -132.422974 -0.000001 0.546731
288.973267 -138.789307 -0.000001 0.552270
287.343689 -142.335007 -0.000002 0.502861
286.303375 -144.598648 -0.000001 0.548974
285.580292 -146.171951 -0.000002 0.536171
285.047577 -147.331100 -0.000002 0.569116
303.247467 -108.579529 14.723947 0.390570
303.247467 -108.579529 12.971067 0.402640
303.284424 -108.500565 11.258662 0.678431
290.162842 -136.534103 4.956567 0.937255
290.263702 -136.318634 4.320311 0.937255
303.284424 -108.500565 6.172252 0.678431
303.247467 -108.579529 4.495488 0.393027
303.247467 -108.579544 2.831236 0.407691
303.247467 -108.579544 1.168764 0.399176
298.971802 -117.714279 -0.000002 0.537133
292.053589 -132.494614 -0.000002 0.534691
289.083374 -138.840363 -0.000002 0.523232
287.429077 -142.374619 -0.000002 0.523354
286.372986 -144.630936 -0.000001 0.552026
285.638947 -146.199158 -0.000002 0.516670
285.098145 -147.354553 -0.000002 0.571405
303.635132 -108.590408 14.762954 0.435599
303.635132 -108.590416 13.004700 0.411872
303.672760 -108.511452 11.287050 0.678431
290.165222 -136.852524 4.914009 0.937255
290.263702 -136.645905 4.286268 0.937255
303.672760 -108.511467 6.185042 0.678431
303.635132 -108.590408 4.503138 0.403082
303.635132 -108.590424 2.833783 0.438437
303.635132 -108.590424 1.166217 0.394202
299.228790 -117.835648 -0.000003 0.542336
292.207581 -132.567337 -0.000002 0.533654
289.193115 -138.892197 -0.000002 0.532036
287.514221 -142.414810 -0.000002 0.553780
286.442383 -144.663696 -0.000002 0.573114
285.697418 -146.226761 -0.000002 0.478431
285.148560 -147.378357 -0.000002 0.543984
304.025208 -108.601349 14.802830 0.430426
304.063477 -108.522446 13.058025 0.678431
304.063477 -108.522430 11.316062 0.678431
290.187683 -137.120422 4.879640 0.937255
290.263702 -136.963730 4.253315 0.937255
304.063477 -108.522430 6.198117 0.678431
304.025208 -108.601349 4.510958 0.384192
304.025177 -108.601364 2.836388 0.445457
304.025177 -108.601364 1.163611 0.417792
299.484955 -117.958801 -0.000003 0.540398
292.361053 -132.641129 -0.000003 0.548775
289.302490 -138.944809 -0.000002 0.522637
287.599030 -142.455612 -0.000002 0.534142
286.511536 -144.696960 -0.000002 0.534585
285.755676 -146.254776 -0.000002 0.551247
285.198792 -147.402512 -0.000002 0.528527
304.417725 -108.612366 14.843579 0.407172
304.456696 -108.533478 13.093223 0.678431
304.456696 -108.533447 11.345716 0.678431
290.206787 -137.387802 4.845262 0.937255
290.263702 -137.272552 4.221407 0.937255
304.456696 -108.533463 6.211481 0.674144
304.417725 -108.612373 4.518950 0.402304
304.417725 -108.612381 2.839050 0.421439
304.417725 -108.612381 1.160949 0.422187
299.740234 -118.083755 -0.000004 0.544640
292.513977 -132.716003 -0.000003 0.536522
289.411499 -138.998154 -0.000003 0.541833
287.683563 -142.496994 -0.000002 0.535592
286.580444 -144.730698 -0.000002 0.539361
285.813721 -146.283203 -0.000002 0.571038
285.248840 -147.427032 -0.000002 0.542565
304.812775 -108.623459 14.885222 0.398276
304.823700 -108.601723 13.115376 0.484703
304.823700 -108.601730 11.364373 0.496452
290.219055 -137.661606 4.809719 0.937255
290.324219 -137.452362 4.205997 0.935149
304.823700 -108.601730 6.219888 0.457649
304.812775 -108.623451 4.527119 0.415579
304.812775 -108.623474 2.841770 0.433387
304.812775 -108.623474 1.158230 0.403296
299.994629 -118.210472 -0.000005 0.540459
292.666412 -132.791931 -0.000003 0.536370
289.520142 -139.052277 -0.000003 0.547890
287.767822 -142.538971 -0.000002 0.521859
286.649139 -144.764908 -0.000002 0.531792
285.871582 -146.312027 -0.000002 0.558907
285.298737 -147.451874 -0.000002 0.541466
305.210419 -108.634613 14.927767 0.414832
305.250763 -108.555748 13.165940 0.678431
305.210419 -108.634628 11.390855 0.411292
290.229950 -137.930725 4.774846 0.937255
290.443634 -137.512863 4.205999 0.828992
305.250732 -108.555748 6.239085 0.674144
305.210419 -108.634628 4.535462 0.439216
305.210419 -108.634628 2.844551 0.449454
305.210419 -108.634628 1.155450 0.439017
300.248138 -118.338982 -0.000005 0.545144
292.818298 -132.868927 -0.000004 0.540322
289.628387 -139.107162 -0.000003 0.530587
287.851776 -142.581528 -0.000003 0.546960
286.717590 -144.799606 -0.000002 0.541772
285.929260 -146.341263 -0.000002 0.519295
285.348450 -147.477081 -0.000003 0.519066
305.610718 -108.645844 14.971229 0.394278
305.651733 -108.567001 13.203478 0.678431
305.610718 -108.645851 11.422425 0.389761
290.229034 -138.215500 4.737238 0.937255
290.562622 -137.574219 4.206000 0.833448
305.651733 -108.567001 6.253337 0.678431
305.610718 -108.645851 4.543987 0.396796
305.610718 -108.645859 2.847390 0.389029
305.610718 -108.645859 1.152610 0.396414
300.500732 -118.469238 -0.000006 0.538552
292.969635 -132.946976 -0.000004 0.543984
289.736267 -139.162781 -0.000004 0.533883
287.935455 -142.624664 -0.000003 0.547234
286.785767 -144.834778 -0.000003 0.546548
285.986725 -146.370895 -0.000002 0.566522
285.398010 -147.502640 -0.000003 0.521645
306.013733 -108.657150 15.015617 0.407843
306.055450 -108.578339 13.241816 0.678431
306.013733 -108.657166 11.454668 0.414664
290.229126 -138.490799 4.701082 0.937255
290.681183 -137.636398 4.206002 0.937255
306.055450 -108.578323 6.267891 0.678431
306.013733 -108.657150 4.552693 0.443763
306.013733 -108.657166 2.850289 0.412146
306.013733 -108.657166 1.149710 0.417975
300.752411 -118.601273 -0.000006 0.542260
293.120422 -133.026077 -0.000005 0.528191
289.843750 -139.219177 -0.000004 0.538186
288.018799 -142.668396 -0.000003 0.544503
286.853729 -144.870438 -0.000003 0.553475
286.043976 -146.400940 -0.000003 0.541634
285.447357 -147.528534 -0.000003 0.559274
306.419525 -108.668533 15.060953 0.389059
306.461945 -108.589737 13.280976 0.678431
306.419525 -108.668549 11.487603 0.414923
290.229004 -138.759293 4.665937 0.937255
290.799286 -137.699402 4.206004 0.937255
306.461945 -108.589729 6.282759 0.678431
293.835571 -132.056351 3.256856 0.823590
293.835571 -132.056366 2.418653 0.847257
293.835571 -132.056366 1.581347 0.855665
293.835571 -132.056366 0.743144 0.851316
293.270660 -133.106232 -0.000005 0.538827
289.950836 -139.276306 -0.000004 0.528572
288.101837 -142.712708 -0.000003 0.551644
286.921417 -144.906555 -0.000003 0.544732
286.100983 -146.431366 -0.000003 0.541512
285.496552 -147.554764 -0.000003 0.534142
306.828186 -108.680008 15.107247 0.424750
306.840088 -108.658302 13.306906 0.471473
306.828186 -108.680016 11.521232 0.416678
290.229584 -139.019638 4.632033 0.937255
290.916962 -137.763229 4.206006 0.937255
306.840057 -108.658310 6.292603 0.439399
293.835571 -132.428497 3.240787 0.799252
293.835571 -132.428482 2.413301 0.819196
293.835571 -132.428497 1.586700 0.851881
293.835571 -132.428497 0.759213 0.824598
293.420349 -133.187439 -0.000005 0.542168
290.057495 -139.334183 -0.000004 0.544015
288.184570 -142.757599 -0.000003 0.525521
286.988892 -144.943146 -0.000003 0.519631
286.157837 -146.462189 -0.000003 0.510719
285.545532 -147.581360 -0.000003 0.519127
307.239777 -108.691559 15.154510 0.391669
307.283600 -108.612793 13.361783 0.678431
290.263702 -139.213165 5.200746 0.937255
290.229675 -139.274323 4.598959 0.996933
291.034180 -137.827881 4.206008 0.937255
307.283600 -108.612785 6.313436 0.678431
293.835571 -132.791245 3.225182 0.824613
293.835571 -132.791245 2.408103 0.834043
293.835571 -132.791245 1.591897 0.855970
293.835571 -132.791245 0.774817 0.820172
293.569458 -133.269684 -0.000006 0.540627
290.163788 -139.392807 -0.000005 0.538308
288.266998 -142.803055 -0.000004 0.562707
287.056061 -144.980209 -0.000004 0.540185
286.214417 -146.493423 -0.000004 0.549279
285.594330 -147.608276 -0.000003 0.575631
307.654388 -108.703194 15.202764 0.418830
307.698883 -108.624451 13.403459 0.678431
290.263702 -139.462692 5.161142 0.937255
290.219696 -139.540512 4.563796 1.000000
291.150970 -137.893356 4.206010 0.937255
307.698914 -108.624435 6.329258 0.678431
293.835571 -133.145004 3.210023 0.796567
293.835571 -133.145004 2.403054 0.825635
293.835571 -133.145004 1.596947 0.834165
293.835571 -133.145020 0.789976 0.829862
293.717987 -133.352966 -0.000006 0.535348
290.269653 -139.452164 -0.000005 0.548989
288.349091 -142.849091 -0.000004 0.538460
287.123016 -145.017746 -0.000004 0.530495
286.270813 -146.525040 -0.000003 0.554604
285.642975 -147.635544 -0.000003 0.563958
308.072021 -108.714912 15.252021 0.418509
308.117279 -108.636185 13.446005 0.678431
290.263702 -139.706131 5.122660 0.937255
290.207184 -139.804489 4.528857 1.000000
291.267273 -137.959625 4.206012 0.937255
308.117279 -108.636185 6.345409 0.678431
293.835571 -133.490143 3.195293 0.819181
293.835571 -133.490143 2.398146 0.828717
293.835571 -133.490143 1.601854 0.842039
293.835571 -133.490143 0.804707 0.835492
293.835571 -133.490143 0.004992 0.700999
290.375092 -139.512268 -0.000005 0.537896
288.430878 -142.895706 -0.000004 0.572061
287.189667 -145.055740 -0.000004 0.548898
286.326996 -146.557053 -0.000004 0.559136
285.691406 -147.663147 -0.000004 0.562173
308.492859 -108.726715 15.302299 0.396887
308.538818 -108.648010 13.489429 0.678431
290.263702 -139.943726 5.085252 0.937255
290.186920 -140.075180 4.492606 0.943877
291.383118 -138.026733 4.206011 0.937255
308.538818 -108.648010 6.361897 0.678431
293.835571 -133.826996 3.180974 0.816373
293.835571 -133.826981 2.393377 0.820279
293.835571 -133.826981 1.606623 0.826886
293.835571 -133.826996 0.819026 0.844495
293.835571 -133.826996 0.028891 0.695872
290.480133 -139.573105 -0.000006 0.537438
288.512329 -142.942886 -0.000005 0.531258
287.256073 -145.094208 -0.000004 0.543648
286.382935 -146.589447 -0.000004 0.545235
285.739624 -147.691086 -0.000004 0.509041
308.916870 -108.738617 15.353613 0.384802
308.963562 -108.659935 13.533748 0.678431
290.263702 -140.175705 5.048875 0.937255
290.164673 -140.342590 4.456747 0.937255
291.498474 -138.094666 4.206010 0.781384
308.963562 -108.659927 6.378723 0.678431
293.835571 -134.155869 3.167051 0.820294
293.835571 -134.155869 2.388739 0.828000
293.835571 -134.155869 1.611261 0.848875
293.835571 -134.155869 0.832949 0.823499
293.835571 -134.155869 0.052131 0.691875
290.584717 -139.634674 -0.000006 0.545220
288.593445 -142.990646 -0.000005 0.515358
287.322205 -145.133133 -0.000004 0.559701
286.438629 -146.622253 -0.000004 0.505562
285.787659 -147.719360 -0.000004 0.485237
309.344208 -108.750618 15.405974 0.399619
309.391632 -108.671936 13.578979 0.674144
290.163696 -140.568176 4.978246 0.937255
290.163971 -140.567719 4.428033 0.937255
291.613373 -138.163376 4.206009 0.937255
309.391632 -108.671936 6.395893 0.678431
293.835571 -134.477097 3.153506 0.833173
293.835571 -134.477112 2.384227 0.836179
293.835571 -134.477112 1.615772 0.840864
293.835571 -134.477097 0.846493 0.827054
293.835571 -134.477112 0.074736 0.717586
290.688873 -139.696976 -0.000006 0.543481
288.674225 -143.038956 -0.000005 0.545998
287.388062 -145.172516 -0.000005 0.538842
286.494110 -146.655426 -0.000004 0.575647
285.835510 -147.747971 -0.000004 0.550759
309.774963 -108.762695 15.459410 0.403403
309.788208 -108.741066 13.610692 0.513298
290.163544 -140.787231 4.944168 0.937255
290.163666 -140.787003 4.400212 0.937255
291.727783 -138.232895 4.206009 0.937255
309.788208 -108.741058 6.407934 0.483192
293.835571 -134.790985 3.140327 0.818906
293.835571 -134.790985 2.379838 0.826520
293.835571 -134.790985 1.620162 0.841825
293.835571 -134.790985 0.859672 0.833204
293.835571 -134.790985 0.096732 0.694102
290.792603 -139.759995 -0.000007 0.551934
288.754669 -143.087830 -0.000005 0.566461
287.453644 -145.212372 -0.000005 0.527504
286.549377 -146.688995 -0.000005 0.543938
285.883148 -147.776917 -0.000004 0.549844
310.258057 -108.696259 15.537134 0.678431
310.258057 -108.696259 13.672225 0.678431
290.166687 -140.996048 4.912134 0.937255
290.194000 -140.952133 4.381729 0.937255
291.841705 -138.303223 4.206007 0.937255
310.258057 -108.696259 6.431294 0.678431
293.835571 -135.097794 3.127501 0.813642
293.835571 -135.097778 2.375566 0.824887
293.835571 -135.097778 1.624435 0.834546
293.835571 -135.097794 0.872498 0.832441
293.835571 -135.097794 0.118139 0.718990
290.895905 -139.823730 -0.000007 0.551797
288.834778 -143.137268 -0.000006 0.546120
287.518951 -145.252670 -0.000005 0.528405
286.604370 -146.722946 -0.000004 0.558541
285.930573 -147.806198 -0.000004 0.533455
310.696564 -108.708557 15.592864 0.678431
310.696564 -108.708557 13.720279 0.678431
290.184601 -141.176865 4.885993 0.937255
290.263672 -141.051697 4.374708 0.937255
291.955109 -138.374329 4.206006 0.937255
310.696564 -108.708557 6.449537 0.678431
293.835571 -135.397781 3.115015 0.812207
293.835571 -135.397797 2.371406 0.814588
293.835571 -135.397797 1.628594 0.838560
293.835571 -135.397781 0.884985 0.860792
293.835571 -135.397797 0.138981 0.695277
290.998718 -139.888199 -0.000007 0.554009
288.914551 -143.187256 -0.000006 0.551171
287.583954 -145.293427 -0.000005 0.548043
286.659149 -146.757294 -0.000005 0.545754
285.977814 -147.835800 -0.000005 0.570901
311.138702 -108.720963 15.649718 0.678431
311.138702 -108.720978 13.769299 0.678431
290.201416 -141.355698 4.860186 0.937255
290.263672 -141.258667 4.348809 0.937255
292.068024 -138.446228 4.206005 0.937255
311.138702 -108.720978 6.468147 0.678431
293.835571 -135.691223 3.102854 0.827344
293.835571 -135.691223 2.367356 0.819608
293.835571 -135.691223 1.632644 0.850980
293.835571 -135.691223 0.897145 0.815747
293.835541 -135.691223 0.159277 0.713619
291.101105 -139.953384 -0.000007 0.540887
288.993927 -143.237808 -0.000006 0.520989
287.648682 -145.334641 -0.000005 0.551156
286.713684 -146.792007 -0.000005 0.554269
286.024841 -147.865738 -0.000004 0.514687
311.584595 -108.733475 15.707727 0.678431
311.533386 -108.812042 13.799066 0.427115
290.211182 -141.541779 4.832716 0.937255
290.263672 -141.461182 4.323581 0.937255
292.180450 -138.518921 4.206005 0.937255
311.575684 -108.747147 6.485798 0.261631
293.835541 -135.978348 3.091009 0.834699
293.835541 -135.978333 2.363410 0.828092
293.835541 -135.978333 1.636590 0.860975
293.835541 -135.978348 0.908991 0.847929
293.835541 -135.978348 0.179047 0.684001
291.203033 -140.019272 -0.000008 0.550851
289.072998 -143.288910 -0.000006 0.541909
287.713135 -145.376297 -0.000005 0.550118
286.767975 -146.827103 -0.000005 0.542168
286.071625 -147.895996 -0.000004 0.518669
312.034302 -108.746094 15.766902 0.678431
311.982330 -108.824638 13.850002 0.407843
290.220703 -141.724365 4.805896 0.937255
290.263672 -141.659409 4.299001 0.937255
292.292358 -138.592392 4.206004 0.805554
311.894928 -108.956779 6.485796 0.283101
293.835541 -136.259369 3.079467 0.815106
293.835541 -136.259369 2.359565 0.838209
293.835541 -136.259369 1.640435 0.841627
293.835571 -136.259369 0.920532 0.819944
293.835541 -136.259369 0.198311 0.693004
291.304504 -140.085876 -0.000008 0.546487
289.151672 -143.340561 -0.000007 0.524727
287.777283 -145.418396 -0.000006 0.539315
286.822021 -146.862579 -0.000005 0.565744
286.118225 -147.926590 -0.000005 0.524315
312.487946 -108.758820 15.827266 0.678431
312.435211 -108.837341 13.901963 0.395331
290.228271 -141.906219 4.779123 0.937255
290.263672 -141.853485 4.275043 0.937255
292.403778 -138.666641 4.206003 0.803632
312.435211 -108.837349 6.518511 0.396506
293.835571 -136.534531 3.068219 0.847456
293.835541 -136.534531 2.355818 0.854170
293.835541 -136.534531 1.644181 0.850980
293.835571 -136.534531 0.931781 0.852888
293.835541 -136.534531 0.217086 0.683528
291.405487 -140.153183 -0.000008 0.546319
289.230011 -143.392776 -0.000007 0.521218
287.841125 -145.460968 -0.000006 0.522728
286.875824 -146.898438 -0.000005 0.509758
286.164612 -147.957504 -0.000005 0.590173
312.906799 -108.828552 15.871597 0.477852
312.892059 -108.850166 13.954964 0.419074
290.229767 -142.093307 4.751082 0.937255
290.263672 -142.043579 4.251690 0.937255
292.514618 -138.741669 4.206002 0.937255
312.892059 -108.850174 6.538633 0.390646
293.835541 -136.804031 3.057253 0.831708
293.835541 -136.804016 2.352166 0.867231
293.068939 -137.928574 1.670105 0.623301
293.068939 -137.928574 1.009608 0.394476
293.068939 -137.928574 0.346983 0.180392
291.506012 -140.221191 -0.000008 0.539757
289.307953 -143.445511 -0.000007 0.552224
287.904694 -145.503967 -0.000006 0.539361
286.929352 -146.934662 -0.000005 0.571069
286.210785 -147.988739 -0.000005 0.553063
313.407349 -108.784630 15.951653 0.678431
313.353058 -108.863098 14.009030 0.403265
290.229279 -142.279541 4.723098 0.937255
290.263672 -142.229813 4.228918 0.937255
292.625000 -138.817459 4.206002 0.937255
313.353058 -108.863113 6.559159 0.410880
293.835541 -137.068054 3.046561 0.905882
293.835541 -137.068054 2.348605 0.905882
293.083374 -138.155029 1.673026 0.646662
293.083374 -138.155029 1.018376 0.407431
293.083374 -138.155029 0.361618 0.186419
291.606079 -140.289917 -0.000009 0.546181
289.385559 -143.498810 -0.000007 0.557504
287.967957 -145.547409 -0.000006 0.520058
286.982666 -146.971268 -0.000005 0.524254
286.256744 -148.020294 -0.000005 0.549508
313.833374 -108.854576 15.998313 0.508339
313.818237 -108.876160 14.064178 0.440665
290.229126 -142.461548 4.695914 0.937255
290.260956 -142.416214 4.206004 0.937255
292.734802 -138.894028 4.206001 0.905486
313.818237 -108.876160 6.580095 0.418555
293.835541 -137.326813 3.036133 0.905882
293.835541 -137.326813 2.345131 0.905882
293.138184 -138.319702 1.674723 0.677882
293.138184 -138.319702 1.023473 0.403525
293.138184 -138.319702 0.370124 0.216464
291.705627 -140.359314 -0.000010 0.523476
289.462769 -143.552628 -0.000008 0.563867
288.030884 -145.591293 -0.000006 0.528008
287.035675 -147.008240 -0.000006 0.533562
286.302460 -148.052170 -0.000005 0.483619
314.343658 -108.810898 16.081068 0.678431
290.263672 -142.591248 5.181454 0.937255
290.229248 -142.639542 4.669492 0.937255
290.345703 -142.476196 4.206003 0.937255
292.844086 -138.971359 4.206000 0.901747
314.287720 -108.889343 6.601451 0.382071
293.835541 -137.580475 3.025960 0.905882
293.835571 -137.580475 2.341743 0.905882
293.160400 -138.527603 1.677291 0.608087
293.160400 -138.527603 1.031180 0.310552
293.160400 -138.527603 0.382988 0.548806
291.804718 -140.429428 -0.000010 0.560891
289.539612 -143.607010 -0.000008 0.537621
288.093536 -145.635620 -0.000007 0.510689
287.088470 -147.045578 -0.000006 0.524102
286.347961 -148.084366 -0.000006 0.580743
314.790466 -108.862816 16.135790 0.250568
290.263672 -142.766708 5.150674 0.937255
290.228851 -142.814865 4.643536 0.937255
290.430023 -142.536758 4.206003 0.937255
292.952820 -139.049454 4.205999 0.937255
293.835571 -137.829224 3.695816 0.905882
293.895782 -137.745987 3.021082 0.937255
293.943939 -137.679382 2.341463 0.223529
293.287048 -138.587433 1.676877 0.134005
293.287048 -138.587433 1.029938 0.176684
293.287048 -138.587433 0.380915 0.102708
291.903290 -140.500214 -0.000010 0.529763
289.616058 -143.661911 -0.000008 0.565972
288.155853 -145.680374 -0.000007 0.524666
287.140961 -147.083282 -0.000006 0.519982
286.393250 -148.116882 -0.000005 0.554849
315.297668 -108.837677 16.215704 0.678431
290.263672 -142.938797 5.120635 0.937255
290.228943 -142.986115 4.618362 0.939086
290.513947 -142.597900 4.206002 0.937255
293.061005 -139.128311 4.205998 0.937255
293.835571 -138.073212 3.679649 0.905882
293.895782 -137.991180 3.011347 0.937255
293.943970 -137.925552 2.338207 0.223529
293.458069 -138.587433 1.675229 0.192157
293.458069 -138.587433 1.024991 0.192157
293.458069 -138.587433 0.372657 0.192157
292.001404 -140.571701 -0.000010 0.537087
289.692139 -143.717346 -0.000008 0.542687
288.217896 -145.725571 -0.000007 0.571237
287.193207 -147.121353 -0.000006 0.528038
286.438293 -148.149719 -0.000006 0.492897
315.723206 -108.929626 16.260563 0.419699
290.263672 -143.107666 5.091311 0.937255
290.229279 -143.153839 4.593860 1.000000
290.597412 -142.659637 4.206001 0.937255
293.168640 -139.207916 4.205998 0.792340
293.835571 -138.312592 3.663867 0.905882
293.895782 -138.231750 3.001844 0.937255
293.943970 -138.167084 2.335030 0.223529
293.630829 -138.587433 1.673548 0.192157
293.630829 -138.587433 1.019944 0.192157
293.630829 -138.587433 0.364234 0.192157
292.098969 -140.643860 -0.000010 0.533715
289.767822 -143.773315 -0.000008 0.543893
288.279572 -145.771194 -0.000007 0.530816
287.245209 -147.159790 -0.000006 0.574533
286.483124 -148.182861 -0.000006 0.517113
316.211060 -108.943329 16.331165 0.387259
290.263672 -143.273376 5.062683 0.937255
290.221191 -143.329590 4.567399 1.000000
290.680450 -142.721954 4.206001 0.937255
293.275696 -139.288269 4.205997 0.937255
293.924133 -138.430374 3.660501 0.905882
293.999115 -138.331146 3.000986 0.937255
294.035522 -138.283005 2.334411 0.223529
294.035522 -138.283005 1.665589 0.223529
294.035522 -138.282990 0.996049 0.223529
294.035522 -138.282990 0.324352 0.223529
292.196075 -140.716705 -0.000011 0.542153
289.843109 -143.829803 -0.000009 0.560372
288.340973 -145.817245 -0.000008 0.541909
287.296906 -147.198593 -0.000006 0.548821
286.527710 -148.216309 -0.000006 0.540505
316.703796 -108.957153 16.403173 0.438849
290.263672 -143.436066 5.034727 0.937255
290.211609 -143.503952 4.541101 1.000000
290.763062 -142.784851 4.206001 0.937255
293.382233 -139.369354 4.205997 0.937255
294.102295 -138.430374 3.669349 0.905882
294.178375 -138.331146 3.006320 0.937255
294.276672 -138.202972 2.337844 0.223529
294.276672 -138.202972 1.662156 0.352941
294.276672 -138.202972 0.985744 0.352941
294.276672 -138.202972 0.307153 0.352941
292.292633 -140.790222 -0.000011 0.555261
289.917999 -143.886826 -0.000009 0.529885
288.402008 -145.863739 -0.000008 0.547662
287.348358 -147.237762 -0.000006 0.529885
286.572052 -148.250076 -0.000006 0.496101
316.823242 -109.457352 16.322302 0.410849
290.163940 -143.724014 4.972337 0.937255
290.203430 -143.673233 4.515813 1.000000
290.845215 -142.848312 4.206002 0.930877
293.488159 -139.451202 4.205997 0.937255
294.282379 -138.430374 3.678376 0.905882
294.359558 -138.331146 3.011761 0.937255
294.459290 -138.202972 2.339671 0.223529
294.459290 -138.202972 1.660330 0.352941
294.459290 -138.202972 0.980260 0.352941
294.459290 -138.202972 0.297999 0.352941
292.388702 -140.864410 -0.000011 0.524208
289.992493 -143.944366 -0.000009 0.535180
288.462738 -145.910645 -0.000008 0.564126
287.399506 -147.277267 -0.000007 0.513054
286.616180 -148.284149 -0.000006 0.513878
316.887543 -110.020218 16.221260 0.678431
290.163147 -143.880096 4.945699 0.937255
290.185944 -143.851196 4.488363 0.942641
290.926941 -142.912338 4.206002 0.727352
293.593536 -139.533783 4.205996 0.937255
294.464417 -138.430374 3.687582 0.905882
294.542725 -138.331146 3.017312 0.937255
294.643890 -138.202972 2.341534 0.223529
294.643890 -138.202972 1.658466 0.352941
294.643890 -138.202972 0.974666 0.352941
294.643890 -138.202972 0.288663 0.352941
292.484222 -140.939270 -0.000012 0.534035
290.066589 -144.002411 -0.000009 0.561028
288.523163 -145.957962 -0.000008 0.530068
287.450409 -147.317154 -0.000007 0.482078
286.660034 -148.318527 -0.000006 0.574777
316.869080 -110.677414 16.089520 0.678431
290.163513 -144.031952 4.920075 0.937255
290.165253 -144.029800 4.460579 0.937255
291.008240 -142.976944 4.206003 0.937255
293.698334 -139.617081 4.205995 0.937255
294.648468 -138.430374 3.696974 0.905882
294.727936 -138.331146 3.022973 0.937255
294.830536 -138.202972 2.343435 0.223529
294.830536 -138.202972 1.656565 0.223529
294.830536 -138.202972 0.968960 0.223529
294.830536 -138.202972 0.279139 0.223529
292.579254 -141.014801 -0.000012 0.531289
290.140289 -144.060989 -0.000010 0.553796
288.583221 -146.005722 -0.000008 0.507393
287.501007 -147.357376 -0.000007 0.552789
286.703674 -148.353210 -0.000006 0.548837
316.797760 -111.388115 15.939724 0.324224
290.174866 -144.167725 4.898784 0.937255
290.163055 -144.182251 4.438735 0.937255
291.089050 -143.042114 4.206003 0.937255
293.802551 -139.701126 4.205995 0.937255
294.834625 -138.430374 3.706555 0.905882
294.915192 -138.331146 3.028749 0.937255
295.043671 -138.172974 2.346006 0.223529
295.043671 -138.172974 1.653994 0.352941
295.043671 -138.172974 0.961241 0.352941
295.043671 -138.172974 0.266255 0.352941
292.673706 -141.090988 -0.000012 0.564675
290.213562 -144.120071 -0.000010 0.544732
288.642944 -146.053894 -0.000008 0.535027
287.551331 -147.397964 -0.000008 0.512627
286.747070 -148.388214 -0.000007 0.540810
316.833191 -111.956093 15.835223 0.678431
290.188202 -144.298874 4.878685 0.937255
290.163940 -144.328354 4.418260 0.937255
291.169403 -143.107849 4.206004 0.937255
293.906158 -139.785889 4.205994 0.937255
295.022858 -138.430374 3.716328 0.905882
295.104614 -138.331146 3.034640 0.937255
295.234924 -138.172974 2.347987 0.223529
295.234924 -138.172974 1.652013 0.352941
295.234924 -138.172974 0.955292 0.352941
295.234924 -138.172974 0.256327 0.352941
292.767670 -141.167831 -0.000012 0.534432
290.286407 -144.179672 -0.000010 0.537789
288.702362 -146.102478 -0.000009 0.545754
287.601379 -147.438889 -0.000007 0.525429
286.790222 -148.423508 -0.000006 0.575875
316.815765 -112.578339 15.712480 0.678431
290.201538 -144.428055 4.859051 0.937255
290.163635 -144.473404 4.397912 0.937255
291.249329 -143.174149 4.206005 0.937255
294.009186 -139.871368 4.205995 0.858061
295.213318 -138.430374 3.726299 0.905882
295.296234 -138.331146 3.040651 0.937255
295.428375 -138.172974 2.350009 0.223529
295.428375 -138.172974 1.649991 0.352941
295.428375 -138.172974 0.949223 0.352941
295.428375 -138.172974 0.246197 0.352941
292.861084 -141.245331 -0.000013 0.522759
290.358856 -144.239777 -0.000010 0.533608
288.761414 -146.151474 -0.000009 0.509773
287.651123 -147.480164 -0.000008 0.560693
286.833130 -148.459091 -0.000007 0.507042
316.798584 -113.189674 15.592548 0.678431
290.209290 -144.561829 4.838025 0.937255
290.176514 -144.600494 4.381729 0.937255
291.328766 -143.240997 4.206005 0.937255
294.111603 -139.957550 4.205996 0.863722
295.405975 -138.430374 3.736471 0.905882
295.490082 -138.331146 3.046783 0.937255
295.624115 -138.172974 2.352071 0.223529
295.624115 -138.172974 1.647929 0.223529
295.624115 -138.172974 0.943031 0.223529
295.624115 -138.172974 0.235863 0.223529
292.953949 -141.323471 -0.000013 0.530556
290.430878 -144.300385 -0.000010 0.527413
288.820129 -146.200882 -0.000009 0.530449
287.700592 -147.521790 -0.000008 0.585611
286.875763 -148.494980 -0.000007 0.526390
316.698975 -113.886719 15.443545 0.438178
290.216644 -144.694000 4.817342 0.937255
290.246094 -144.659760 4.381745 0.937255
291.407715 -143.308395 4.206005 0.937255
294.213440 -140.044464 4.205996 0.937255
295.600952 -138.430359 3.746850 0.905882
295.686249 -138.331146 3.053039 0.937255
295.947632 -138.027069 2.357324 0.938842
295.822205 -138.172974 1.645825 0.352941
295.822205 -138.172974 0.936714 0.352941
295.822205 -138.172974 0.225318 0.352941
293.046265 -141.402267 -0.000013 0.562539
290.502472 -144.361496 -0.000011 0.536461
288.878479 -146.250702 -0.000009 0.544427
287.749756 -147.563766 -0.000008 0.544152
286.918152 -148.531174 -0.000007 0.525856
316.682434 -114.475845 15.329265 0.386679
290.223846 -144.824341 4.797077 0.937255
290.263672 -144.778625 4.367487 0.937255
291.486237 -143.376343 4.206005 0.937255
294.314667 -140.132080 4.205997 0.937255
295.798248 -138.430374 3.757440 0.905882
295.884766 -138.331146 3.059423 0.937255
296.062927 -138.126801 2.357325 0.942672
296.022644 -138.172974 1.643677 0.352941
296.022675 -138.172974 0.930268 0.352941
296.022675 -138.172974 0.214560 0.352941
293.138031 -141.481705 -0.000014 0.552865
290.573639 -144.423096 -0.000011 0.539117
288.936493 -146.300919 -0.000010 0.569528
287.798645 -147.606079 -0.000008 0.565759
286.960297 -148.567657 -0.000007 0.548928
316.666199 -115.055054 15.217557 0.402731
290.228851 -144.955154 4.776559 0.937255
290.263672 -144.915756 4.348737 0.937255
291.564240 -143.444855 4.206005 0.702846
294.415253 -140.220413 4.205997 0.937255
295.997986 -138.430374 3.768245 0.905882
296.085724 -138.331146 3.065937 0.937255
296.177490 -138.227341 2.357326 0.949691
296.225586 -138.172974 1.641486 0.352941
296.225586 -138.172974 0.923691 0.352941
296.225586 -138.172974 0.203582 0.352941
293.229218 -141.561783 -0.000014 0.515541
290.644379 -144.485199 -0.000011 0.576501
288.994171 -146.351547 -0.000010 0.544732
287.847229 -147.648727 -0.000008 0.534005
287.002197 -148.604431 -0.000007 0.535760
316.650208 -115.624687 15.108328 0.403449
290.228943 -145.089478 4.754907 0.937255
290.263672 -145.050751 4.330394 0.937255
291.641785 -143.513901 4.206005 0.926894
294.515259 -140.309433 4.205997 0.937255
296.200195 -138.430374 3.779271 0.905882
296.289185 -138.331146 3.072584 0.937255
296.291382 -138.328690 2.357327 0.949691
296.404114 -138.202972 1.639910 0.223529
296.404114 -138.202972 0.918958 0.223529
296.404114 -138.202972 0.195683 0.223529
293.319885 -141.642502 -0.000014 0.542229
290.714661 -144.547806 -0.000011 0.512917
289.051483 -146.402573 -0.000010 0.526467
287.895508 -147.691727 -0.000009 0.560678
287.043823 -148.641495 -0.000008 0.481544
290.263672 -145.183640 5.183392 0.937255
290.229034 -145.221741 4.733720 0.937255
290.263672 -145.183640 4.312446 0.937255
291.718842 -143.583481 4.206005 0.937255
294.614624 -140.399139 4.205998 0.937255
296.404968 -138.430359 3.790524 0.905882
296.495209 -138.331146 3.079367 0.937255
296.404572 -138.430817 2.357327 0.949691
296.611755 -138.202972 1.637633 0.352941
296.611755 -138.202972 0.912121 0.352941
296.611755 -138.202972 0.184272 0.352941
293.409943 -141.723831 -0.000014 0.562615
290.784546 -144.610886 -0.000012 0.520729
289.108429 -146.454010 -0.000010 0.518135
287.943481 -147.735046 -0.000009 0.484398
287.085205 -148.678864 -0.000008 0.556603
290.263672 -145.314514 5.159216 0.937255
290.229004 -145.352127 4.712944 0.937255
290.263672 -145.314514 4.294885 0.937255
291.795410 -143.653595 4.206005 0.937255
294.713348 -140.489548 4.205999 0.924285
296.612366 -138.430374 3.802009 0.905882
296.703857 -138.331146 3.086291 0.937255
296.517029 -138.533737 2.357329 0.949401
296.822083 -138.202972 1.635309 0.352941
296.822083 -138.202972 0.905144 0.352941
296.822083 -138.202972 0.172627 0.352941
293.499481 -141.805817 -0.000015 0.533211
290.853943 -144.674454 -0.000012 0.543587
289.165039 -146.505829 -0.000010 0.546304
287.991150 -147.778717 -0.000009 0.593072
287.126312 -148.716507 -0.000008 0.577981
290.263672 -145.443420 5.135556 0.937255
290.229156 -145.480316 4.692682 0.937255
290.263672 -145.443420 4.277698 0.937255
291.871490 -143.724243 4.206005 0.937255
294.811432 -140.580643 4.206000 0.765377
296.822418 -138.430374 3.813730 0.905882
296.915222 -138.331146 3.093356 0.937255
296.915222 -138.331146 2.364192 0.937255
297.035095 -138.202972 1.632936 0.352941
297.035095 -138.202972 0.898022 0.352941
297.035095 -138.202957 0.160740 0.352941
293.588409 -141.888397 -0.000015 0.544686
290.922913 -144.738510 -0.000012 0.497719
289.221252 -146.558044 -0.000010 0.510567
288.038513 -147.822708 -0.000009 0.571603
287.167145 -148.754440 -0.000008 0.483955
290.263672 -145.570419 5.112398 0.937255
290.229095 -145.606888 4.672770 0.937255
290.263672 -145.570419 4.260876 0.937255
291.947052 -143.795425 4.206005 0.937255
294.908905 -140.672424 4.206000 0.937255
297.035248 -138.430359 3.825694 0.905882
297.129364 -138.331146 3.100568 0.937255
297.129364 -138.331146 2.366594 0.937255
297.175049 -138.282974 1.632320 0.223529
297.175049 -138.282974 0.896170 0.223529
297.175049 -138.282974 0.157649 0.223529
293.676758 -141.971603 -0.000015 0.551980
290.991455 -144.803040 -0.000012 0.573465
289.277130 -146.610657 -0.000010 0.561975
288.085602 -147.867020 -0.000009 0.564843
287.207733 -148.792648 -0.000008 0.535821
290.263672 -145.695557 5.089730 0.937255
290.229126 -145.731476 4.653317 0.937255
290.263672 -145.695557 4.244410 0.937255
292.022156 -143.867126 4.206006 0.937255
295.005707 -140.764877 4.206001 0.937255
297.250916 -138.430359 3.837908 0.905882
297.346344 -138.331146 3.107931 0.937255
297.346344 -138.331146 2.369046 0.937255
297.404205 -138.270996 1.629588 0.352941
297.404205 -138.270996 0.887969 0.352941
297.404205 -138.270996 0.143960 0.352941
293.161835 -142.682129 0.100011 0.602792
291.059540 -144.868042 -0.000013 0.541146
289.332611 -146.663666 -0.000010 0.541894
288.132355 -147.911682 -0.000009 0.493111
287.248047 -148.831146 -0.000008 0.523522
290.263672 -145.818893 5.067537 0.937255
290.229279 -145.854156 4.634304 0.937255
290.263672 -145.818893 4.228289 0.937255
292.096741 -143.939362 4.206006 0.937255
295.101898 -140.858002 4.206003 0.937255
293.128052 -142.881882 3.340527 0.192157
297.566284 -138.331146 3.115448 0.937255
297.566284 -138.331146 2.371550 0.937255
297.624939 -138.270996 1.627075 0.352941
297.624939 -138.270996 0.880424 0.352941
297.624939 -138.270996 0.131368 0.352941
293.244690 -142.762299 0.100004 0.625711
291.127136 -144.933533 -0.000012 0.554208
289.387726 -146.717041 -0.000010 0.565408
288.178772 -147.956650 -0.000009 0.571283
287.288086 -148.869934 -0.000008 0.514977
290.263672 -145.940475 5.045808 0.937255
290.228821 -145.975708 4.615505 0.937255
290.263672 -145.940475 4.212505 0.937255
292.170807 -144.012115 4.206006 0.937255
293.128082 -143.044189 3.867459 0.192157
293.128082 -143.044189 3.331032 0.192157
297.789215 -138.331146 3.123122 0.937255
297.789215 -138.331146 2.374107 0.937255
297.848694 -138.270996 1.624509 0.352941
297.848694 -138.270996 0.872722 0.352941
297.438324 -138.685944 0.166365 0.838727
293.326965 -142.843079 0.100002 0.615656
291.194305 -144.999496 -0.000012 0.557656
289.442474 -146.770813 -0.000010 0.567529
288.224915 -148.001953 -0.000009 0.549966
287.327850 -148.908997 -0.000008 0.496391
290.163696 -146.160049 4.989162 0.937255
290.229309 -146.094620 4.597383 1.000000
290.298523 -146.025620 4.205999 0.925185
292.244354 -144.085388 4.206006 0.937255
293.128082 -143.204224 3.854414 0.192157
293.128082 -143.204224 3.321734 0.192157
298.015259 -138.331146 3.130958 0.937255
298.015259 -138.331146 2.376717 0.937255
298.075562 -138.270996 1.621889 0.352941
298.075592 -138.270996 0.864856 0.352941
297.436737 -138.907974 0.179356 0.866056
293.238129 -143.094482 0.127705 0.237827
291.260986 -145.065918 -0.000012 0.556054
289.496857 -146.824966 -0.000010 0.465888
288.270721 -148.047577 -0.000008 0.515206
287.367340 -148.948334 -0.000008 0.524956
nan nan nan 0.000000
nan nan nan 0.000000
nan nan nan 0.000000
nan nan nan 0.000000
nan nan nan 0.000000
nan nan nan 0.000000
nan nan nan 0.000000
nan nan nan 0.000000
nan nan nan 0.000000
252.684509 -183.129745 -0.000020 0.538918
264.320923 -171.687805 -0.000024 0.531395
269.316895 -166.775314 -0.000020 0.539849
272.099396 -164.039307 -0.000016 0.551446
273.875793 -162.292603 -0.000013 0.545632
275.110443 -161.078583 -0.000010 0.518105
276.020050 -160.184158 -0.000009 0.543496
nan nan nan 0.000000
nan nan nan 0.000000
nan nan nan 0.000000
nan nan nan 0.000000
nan nan nan 0.000000
nan nan nan 0.000000
nan nan nan 0.000000
nan nan nan 0.000000
nan nan nan 0.000000
252.485962 -182.926376 -0.000020 0.535225
264.201935 -171.565964 -0.000024 0.543191
269.232086 -166.688461 -0.000021 0.530037
272.033630 -163.971954 -0.000016 0.535409
273.822174 -162.237701 -0.000013 0.565255
275.065277 -161.032333 -0.000011 0.527443
275.981110 -160.144272 -0.000009 0.509529
nan nan nan 0.000000
nan nan nan 0.000000
nan nan nan 0.000000
nan nan nan 0.000000
nan nan nan 0.000000
nan nan nan 0.000000
nan nan nan 0.000000
nan nan nan 0.000000
nan nan nan 0.000000
252.288818 -182.721634 -0.000019 0.537942
264.083832 -171.443298 -0.000024 0.530526
269.147919 -166.601044 -0.000021 0.536217
271.968353 -163.904144 -0.000016 0.531456
273.768951 -162.182434 -0.000013 0.560555
275.020416 -160.985764 -0.000011 0.555840
275.942444 -160.104126 -0.000009 0.496544
nan nan nan 0.000000
nan nan nan 0.000000
nan nan nan 0.000000
nan nan nan 0.000000
nan nan nan 0.000000
nan nan nan 0.000000
nan nan nan 0.000000
nan nan nan 0.000000
nan nan nan 0.000000
252.093124 -182.515533 -0.000019 0.543664
263.966583 -171.319809 -0.000023 0.543420
269.064331 -166.513031 -0.000021 0.534112
271.903534 -163.835892 -0.000016 0.546456
273.716095 -162.126785 -0.000013 0.572290
274.975922 -160.938889 -0.000011 0.536034
275.904083 -160.063705 -0.000009 0.507271
nan nan nan 0.000000
nan nan nan 0.000000
nan nan nan 0.000000
nan nan nan 0.000000
nan nan nan 0.000000
nan nan nan 0.000000
nan nan nan 0.000000
nan nan nan 0.000000
nan nan nan 0.000000
251.898880 -182.308044 -0.000018 0.547219
263.850189 -171.195496 -0.000023 0.529717
268.981384 -166.424438 -0.000021 0.545495
271.839203 -163.767181 -0.000016 0.550530
273.663666 -162.070770 -0.000013 0.542794
274.931732 -160.891693 -0.000011 0.549447
275.865967 -160.023010 -0.000009 0.519753
nan nan nan 0.000000
nan nan nan 0.000000
nan nan nan 0.000000
nan nan nan 0.000000
nan nan nan 0.000000
nan nan nan 0.000000
nan nan nan 0.000000
nan nan nan 0.000000
nan nan nan 0.000000
251.706070 -182.099228 -0.000018 0.541955
263.734680 -171.070389 -0.000023 0.544305
268.899048 -166.335266 -0.000021 0.566217
271.775330 -163.698029 -0.000016 0.568185
273.611603 -162.014389 -0.000013 0.520729
274.887878 -160.844193 -0.000011 0.565179
275.828156 -159.982056 -0.000010 0.538262
nan nan nan 0.000000
nan nan nan 0.000000
nan nan nan 0.000000
nan nan nan 0.000000
nan nan nan 0.000000
nan nan nan 0.000000
nan nan nan 0.000000
nan nan nan 0.000000
nan nan nan 0.000000
251.514740 -181.889069 -0.000018 0.534432
263.620026 -170.944473 -0.000022 0.542458
268.817322 -166.245514 -0.000021 0.552636
271.711975 -163.628433 -0.000016 0.568063
273.559937 -161.957642 -0.000013 0.542809
274.844330 -160.796402 -0.000011 0.552728
275.790619 -159.940842 -0.000010 0.490303
nan nan nan 0.000000
nan nan nan 0.000000
nan nan nan 0.000000
nan nan nan 0.000000
nan nan nan 0.000000
nan nan nan 0.000000
nan nan nan 0.000000
nan nan nan 0.000000
nan nan nan 0.000000
251.324860 -181.677567 -0.000017 0.541558
263.506287 -170.817749 -0.000022 0.554314
268.736237 -166.155197 -0.000021 0.536110
271.649078 -163.558380 -0.000017 0.554650
273.508667 -161.900543 -0.000014 0.552666
274.801147 -160.748291 -0.000012 0.556664
275.753387 -159.899353 -0.000009 0.536553
nan nan nan 0.000000
nan nan nan 0.000000
nan nan nan 0.000000
nan nan nan 0.000000
nan nan nan 0.000000
nan nan nan 0.000000
nan nan nan 0.000000
nan nan nan 0.000000
nan nan nan 0.000000
251.136475 -181.464752 -0.000017 0.544762
263.393402 -170.690247 -0.000022 0.537926
268.655792 -166.064331 -0.000022 0.552834
271.586670 -163.487915 -0.000017 0.546593
273.457794 -161.843094 -0.000014 0.520531
274.758301 -160.699890 -0.000011 0.499596
275.716431 -159.857620 -0.000010 0.583917
nan nan nan 0.000000
nan nan nan 0.000000
nan nan nan 0.000000
nan nan nan 0.000000
nan nan nan 0.000000
nan nan nan 0.000000
nan nan nan 0.000000
nan nan nan 0.000000
nan nan nan 0.000000
250.949585 -181.250626 -0.000016 0.538033
263.281433 -170.561966 -0.000022 0.543206
268.575958 -165.972885 -0.000022 0.548272
271.524780 -163.416992 -0.000017 0.544747
273.407349 -161.785278 -0.000014 0.518837
274.715790 -160.651184 -0.000011 0.563073
275.679779 -159.815628 -0.000010 0.561975
nan nan nan 0.000000
nan nan nan 0.000000
nan nan nan 0.000000
nan nan nan 0.000000
nan nan nan 0.000000
nan nan nan 0.000000
nan nan nan 0.000000
nan nan nan 0.000000
nan nan nan 0.000000
250.764206 -181.035187 -0.000015 0.544045
263.170349 -170.432892 -0.000022 0.544991
268.496796 -165.880890 -0.000022 0.536355
271.463379 -163.345642 -0.000017 0.551354
273.357300 -161.727112 -0.000014 0.555856
274.673615 -160.602173 -0.000011 0.549172
275.643433 -159.773376 -0.000010 0.563149
nan nan nan 0.000000
nan nan nan 0.000000
nan nan nan 0.000000
nan nan nan 0.000000
nan nan nan 0.000000
nan nan nan 0.000000
nan nan nan 0.000000
nan nan nan 0.000000
nan nan nan 0.000000
250.580307 -180.818481 -0.000015 0.539223
263.060181 -170.303040 -0.000021 0.542962
268.418274 -165.788345 -0.000022 0.526879
271.402466 -163.273880 -0.000017 0.525338
273.307648 -161.668610 -0.000014 0.533654
274.631775 -160.552887 -0.000011 0.568933
275.607361 -159.730881 -0.000010 0.500740
nan nan nan 0.000000
nan nan nan 0.000000
nan nan nan 0.000000
nan nan nan 0.000000
nan nan nan 0.000000
nan nan nan 0.000000
nan nan nan 0.000000
nan nan nan 0.000000
nan nan nan 0.000000
250.397934 -180.600494 -0.000015 0.546761
262.950897 -170.172440 -0.000021 0.559976
268.340393 -165.695267 -0.000022 0.544854
271.342072 -163.201691 -0.000017 0.540398
273.258392 -161.609756 -0.000014 0.518364
274.590302 -160.503311 -0.000012 0.538293
275.571594 -159.688126 -0.000010 0.552422
nan nan nan 0.000000
nan nan nan 0.000000
nan nan nan 0.000000
nan nan nan 0.000000
nan nan nan 0.000000
256.224884 -175.460892 4.701393 0.508186
nan nan nan 0.000000
nan nan nan 0.000000
nan nan nan 0.000000
250.217087 -180.381241 -0.000015 0.543511
