# This PCD file was generated using the MATLABÂ® pcwrite function
# from Computer Vision ToolboxÂ®.
# .PCD v.7 - Point Cloud Data file format
VERSION .7
FIELDS x y z intensity
SIZE 4 4 4 4
TYPE F F F F
COUNT 1 1 1 1
WIDTH 1155
HEIGHT 1
VIEWPOINT 0 0 0 1 0 0 0
POINTS 1155
DATA ascii
230.724945 -158.481018 4.634337 0.339544
230.724930 -158.481018 2.877484 0.086015
230.724930 -158.481018 1.122515 0.244007
236.182297 -170.182861 -0.000019 0.543236
243.079910 -184.972977 -0.000020 0.536614
246.041336 -191.322968 -0.000013 0.547753
247.690689 -194.859573 -0.000010 0.545037
248.743652 -197.117371 -0.000008 0.542733
249.475510 -198.686630 -0.000006 0.521553
250.014694 -199.842789 -0.000005 0.545876
247.023224 -193.175781 5.830309 0.512764
246.721878 -192.517670 5.458966 0.524071
234.433456 -165.680878 10.284772 0.715297
234.521866 -165.873962 8.722486 0.450813
234.521942 -165.874130 7.213546 0.212406
234.376266 -165.555984 5.744649 0.709804
230.724930 -157.581802 4.674437 0.359899
230.724930 -157.581802 2.890843 0.179522
230.724915 -157.581772 1.109157 0.214481
236.440292 -170.063629 -0.000019 0.543496
243.234482 -184.901535 -0.000020 0.542321
246.151520 -191.272064 -0.000013 0.540185
247.776138 -194.820084 -0.000010 0.534768
248.813309 -197.085175 -0.000008 0.529183
249.534195 -198.659515 -0.000006 0.544518
250.065308 -199.819397 -0.000005 0.529320
234.376251 -164.778259 13.616907 0.733257
246.837570 -192.502350 5.451658 0.505882
234.433472 -164.905563 10.413241 0.709804
234.433472 -164.905563 8.858719 0.727123
234.521957 -165.102432 7.294392 0.189548
234.376251 -164.778275 5.802721 0.709804
247.090973 -193.066116 2.754752 0.507576
230.724915 -156.654755 2.904657 0.266163
230.724915 -156.654755 1.095342 0.279637
236.699127 -169.946228 -0.000019 0.540520
243.389557 -184.831177 -0.000020 0.545663
246.262039 -191.221909 -0.000013 0.546120
247.861847 -194.781189 -0.000010 0.531655
248.883194 -197.053482 -0.000008 0.542962
249.593063 -198.632797 -0.000006 0.499184
250.116058 -199.796371 -0.000005 0.560830
247.442383 -193.597031 5.691020 0.512016
247.242142 -193.143051 5.289700 0.505333
234.433472 -164.105774 10.546181 0.721126
234.433487 -164.105789 8.967096 0.734539
234.521957 -164.306366 7.378052 0.200137
234.376251 -163.976044 5.862810 0.724285
247.203278 -193.054977 2.753007 0.513603
230.724976 -155.698578 2.918952 0.124285
230.724991 -155.698608 1.081050 0.150668
236.958755 -169.830597 -0.000019 0.541466
243.545120 -184.761917 -0.000020 0.545327
246.372925 -191.172531 -0.000013 0.555016
247.947845 -194.742905 -0.000010 0.514626
248.953293 -197.022263 -0.000008 0.566995
249.652115 -198.606506 -0.000006 0.547005
250.166977 -199.773697 -0.000005 0.532509
247.495407 -193.460541 5.717030 0.540719
234.433502 -163.280289 12.307568 0.712612
234.433502 -163.280289 10.683819 0.737911
234.433502 -163.280273 9.079304 0.734066
234.521957 -163.484650 7.464676 0.303304
247.425491 -193.299011 3.231178 0.505852
247.315872 -193.045700 2.751210 0.504982
230.724960 -154.711517 2.933752 0.179049
230.724960 -154.711517 1.066248 0.249836
237.219193 -169.716797 -0.000019 0.539513
243.701172 -184.693726 -0.000020 0.551919
246.484131 -191.123947 -0.000013 0.550958
248.034103 -194.705215 -0.000010 0.554543
249.023605 -196.991531 -0.000008 0.525628
249.711365 -198.580627 -0.000006 0.542687
250.218063 -199.751373 -0.000005 0.546700
247.388992 -192.944763 5.846277 0.506142
247.872269 -194.083160 5.049298 0.504799
234.433517 -162.427734 10.826401 0.721599
247.779816 -193.865372 4.129374 0.510399
234.521957 -162.636047 7.554403 0.183413
247.543823 -193.309464 3.226567 0.532891
247.428558 -193.037964 2.749378 0.518074
230.947571 -154.216446 2.939764 0.126589
230.947571 -154.216446 1.060237 0.258274
237.480423 -169.604813 -0.000019 0.545602
243.857681 -184.626633 -0.000020 0.537469
246.595688 -191.076126 -0.000013 0.546090
248.120605 -194.668121 -0.000010 0.537820
249.094147 -196.961304 -0.000008 0.548714
249.770782 -198.555145 -0.000007 0.523629
250.269302 -199.729416 -0.000005 0.510170
247.615631 -193.210236 5.762976 0.523247
247.940659 -193.990952 5.061932 0.510323
247.951920 -194.018005 4.574255 0.510140
234.376251 -161.409058 9.338129 0.702037
247.853333 -193.781189 3.657067 0.512428
247.627640 -193.239075 3.229225 0.510185
247.541443 -193.032043 2.747497 0.504417
231.381851 -154.216431 2.937009 0.117647
231.381851 -154.216431 1.062990 0.138064
237.742432 -169.494675 -0.000019 0.544350
244.014648 -184.560638 -0.000020 0.545510
246.707581 -191.029083 -0.000013 0.546807
248.207382 -194.631638 -0.000010 0.525521
249.164886 -196.931564 -0.000008 0.557214
249.830383 -198.530090 -0.000006 0.541466
250.320679 -199.707809 -0.000006 0.523018
247.670288 -193.066620 5.791018 0.523964
247.313553 -192.192566 5.472651 0.505882
234.376251 -160.495087 11.155057 0.733288
247.760544 -193.287750 4.209576 0.521706
247.951019 -193.754440 3.655630 0.522545
247.619537 -192.942291 3.251976 0.506828
247.863098 -193.539032 2.718448 0.533532
231.813614 -154.216431 2.934317 0.168231
231.813614 -154.216431 1.065684 0.202930
238.005203 -169.386353 -0.000019 0.538796
244.172089 -184.495743 -0.000020 0.546548
246.819794 -190.982819 -0.000013 0.558389
248.294403 -194.595764 -0.000010 0.537224
249.235825 -196.902313 -0.000008 0.528878
249.890152 -198.505463 -0.000006 0.531151
250.372223 -199.686569 -0.000006 0.586923
247.665970 -192.771347 5.859998 0.459266
248.134674 -193.943008 5.055685 0.505104
234.376236 -159.549362 11.314609 0.724834
248.178375 -194.052261 4.081210 0.505165
248.054337 -193.742188 3.652483 0.521309
247.715652 -192.895554 3.252576 0.498589
232.242920 -154.216431 4.797050 0.330465
232.242920 -154.216431 2.931685 0.169146
232.242920 -154.216431 1.068316 0.232029
238.268723 -169.279861 -0.000020 0.542519
244.329971 -184.431946 -0.000021 0.553552
246.932327 -190.937347 -0.000013 0.552636
248.381683 -194.560501 -0.000010 0.526879
249.306976 -196.873566 -0.000008 0.485634
249.950089 -198.481232 -0.000006 0.564797
250.423904 -199.665680 -0.000005 0.543557
248.251099 -193.969391 5.527019 0.494301
248.222748 -193.897049 5.057909 0.504936
248.165146 -193.750092 4.604918 0.537011
248.268768 -194.014496 4.081481 0.499107
248.177139 -193.780685 3.643164 0.499535
247.941360 -193.179138 3.224144 0.506294
247.845001 -192.933304 2.746407 0.510460
232.669846 -154.216431 2.929113 0.119875
232.669846 -154.216431 1.070888 0.142550
238.532990 -169.175247 -0.000018 0.542245
244.488297 -184.369232 -0.000021 0.530144
247.045166 -190.892670 -0.000014 0.534112
248.469193 -194.525848 -0.000010 0.548989
249.378326 -196.845322 -0.000008 0.563561
250.010193 -198.457428 -0.000007 0.523995
250.475723 -199.645172 -0.000005 0.523598
248.339096 -193.924332 5.529570 0.503304
248.310928 -193.850983 5.060298 0.506142
248.235245 -193.653824 4.616637 0.505882
248.361420 -193.982498 4.080935 0.504845
248.249054 -193.689819 3.649919 0.507301
248.033432 -193.128174 3.225309 0.517220
248.257965 -193.713028 2.703357 0.499214
233.094437 -154.216431 2.926599 0.114168
233.094437 -154.216431 1.073400 0.171756
238.797958 -169.072433 -0.000018 0.542763
244.647049 -184.307648 -0.000021 0.531060
247.158325 -190.848770 -0.000014 0.534661
248.556961 -194.491806 -0.000010 0.555367
249.449860 -196.817566 -0.000008 0.527092
250.070465 -198.434052 -0.000006 0.561608
250.527695 -199.625000 -0.000006 0.517830
248.427185 -193.879135 5.532316 0.505882
248.400894 -193.809189 5.061835 0.504616
248.404221 -193.818008 4.577790 0.504921
248.451935 -193.944931 4.081377 0.507637
248.254257 -193.419113 3.678818 0.526284
234.376221 -156.502655 6.430380 0.714717
248.352676 -193.680923 2.703179 0.498024
233.516769 -154.216461 2.924146 0.146563
233.516754 -154.216431 1.075855 0.182879
239.063644 -168.971497 -0.000018 0.539635
244.806244 -184.247177 -0.000020 0.539452
247.271774 -190.805664 -0.000014 0.531609
248.644943 -194.458374 -0.000010 0.539818
249.521591 -196.790314 -0.000008 0.553140
250.130890 -198.411087 -0.000007 0.507591
250.579803 -199.605209 -0.000006 0.525429
248.516663 -193.837204 5.534348 0.509834
248.489288 -193.762802 5.064568 0.539834
247.460876 -190.968094 5.123661 0.509758
248.544586 -193.913086 4.081011 0.504021
248.448685 -193.652481 3.645858 0.446494
248.226959 -193.049896 3.225732 0.505882
248.447327 -193.648773 2.703038 0.509560
233.936874 -154.216461 2.921748 0.180362
233.936874 -154.216431 1.078252 0.258824
239.330032 -168.872406 -0.000019 0.538628
244.965851 -184.187805 -0.000021 0.555413
247.385544 -190.763351 -0.000014 0.538521
248.733170 -194.425552 -0.000010 0.541634
249.593521 -196.763550 -0.000008 0.548043
250.191483 -198.388550 -0.000007 0.541833
250.632050 -199.585770 -0.000006 0.552926
247.828171 -191.634354 6.111842 0.503532
248.665375 -193.959427 5.011653 0.510811
248.553009 -193.647369 4.597578 0.514549
248.637238 -193.881271 4.080745 0.510689
247.278885 -190.108917 4.074957 0.517021
234.433426 -154.434723 6.587892 0.724620
248.541901 -193.616531 2.702938 0.516014
234.376190 -154.275742 2.918378 0.723217
234.376190 -154.275742 1.081623 0.723491
239.597107 -168.775177 -0.000019 0.539513
245.125854 -184.129562 -0.000021 0.534569
247.499588 -190.721832 -0.000014 0.536171
248.821625 -194.393356 -0.000010 0.533516
249.665619 -196.737305 -0.000008 0.570413
250.252243 -198.366440 -0.000007 0.574868
250.684433 -199.566711 -0.000006 0.552483
248.693405 -193.745972 5.540851 0.505959
247.866013 -191.396820 5.590972 0.515831
248.673233 -193.688705 4.583155 0.508888
248.727036 -193.841446 4.081841 0.509163
248.641342 -193.598160 3.644228 0.517479
234.433472 -153.259003 6.678709 0.731502
234.433472 -153.259003 4.803211 0.728847
234.433472 -153.259003 2.933737 0.720943
234.433472 -153.259003 1.066263 0.733639
239.864838 -168.679810 -0.000019 0.544411
245.286285 -184.072433 -0.000021 0.533745
247.613922 -190.681107 -0.000014 0.538048
248.910294 -194.361786 -0.000010 0.544747
249.737915 -196.711563 -0.000008 0.560418
250.313141 -198.344757 -0.000007 0.525444
250.736938 -199.548004 -0.000005 0.549630
248.783203 -193.703629 5.543466 0.517555
248.760086 -193.636520 5.070642 0.508186
249.299667 -195.203354 4.285398 0.505760
248.868835 -193.952332 4.059391 0.509712
248.949768 -194.187332 3.568550 0.503395
248.693604 -193.443481 3.182492 0.510781
248.730331 -193.550110 2.702940 0.505882
234.433472 -152.035583 2.952643 0.735500
234.433472 -152.035583 1.047358 0.709804
240.133255 -168.586334 -0.000019 0.546288
245.447098 -184.016418 -0.000021 0.529229
247.728546 -190.641190 -0.000014 0.536751
248.999191 -194.330826 -0.000010 0.542245
249.810379 -196.686325 -0.000008 0.506798
250.374191 -198.323486 -0.000007 0.527138
250.789581 -199.529663 -0.000006 0.534646
248.871902 -193.657593 5.547223 0.505119
248.689484 -193.115646 5.182052 0.511910
249.401321 -195.230469 4.274764 0.539544
248.979965 -193.978653 4.050381 0.512062
248.770737 -193.357040 3.665610 0.510857
248.788849 -193.410828 3.182509 0.486397
248.875854 -193.669357 2.695090 0.504463
234.433456 -150.761536 2.972379 0.695430
234.433456 -150.761536 1.027621 0.717693
240.402298 -168.494751 -0.000019 0.540581
245.608292 -183.961533 -0.000021 0.543084
247.843445 -190.602066 -0.000014 0.550515
249.088287 -194.300476 -0.000010 0.555200
249.883026 -196.661591 -0.000008 0.571176
250.435394 -198.302643 -0.000007 0.525139
250.842346 -199.511703 -0.000005 0.533410
248.962082 -193.615356 5.550128 0.503929
249.102356 -194.041931 4.964070 0.519783
249.424545 -195.021713 4.309474 0.516365
249.119934 -194.095383 4.027396 0.506188
248.851349 -193.278610 3.671242 0.505882
234.433411 -149.433411 6.975667 0.738094
248.916077 -193.475433 2.703506 0.503029
248.949417 -193.576843 2.232588 0.509834
234.433411 -149.433411 1.006999 0.694041
240.671982 -168.404999 -0.000019 0.540032
245.769867 -183.907776 -0.000021 0.538857
247.958603 -190.563751 -0.000014 0.538384
249.177612 -194.270767 -0.000010 0.541344
249.955841 -196.637360 -0.000008 0.527092
250.496735 -198.282242 -0.000007 0.536751
250.895233 -199.494110 -0.000005 0.521996
249.051102 -193.568924 5.554298 0.505882
249.027191 -193.494476 5.081537 0.523323
249.364395 -194.544601 4.395420 0.515282
249.253143 -194.198151 4.006791 0.509285
248.718018 -192.531708 3.757701 0.505882
248.967087 -193.307312 3.186007 0.534859
249.010544 -193.442657 2.703604 0.505699
249.042984 -193.543655 2.232631 0.510887
234.376221 -147.869705 0.982374 0.725719
240.942291 -168.317169 -0.000019 0.539132
245.931824 -183.855133 -0.000021 0.552544
248.074036 -190.526245 -0.000014 0.544106
249.267120 -194.241669 -0.000010 0.536995
250.028809 -196.613647 -0.000008 0.584924
250.558212 -198.262253 -0.000007 0.520653
250.948242 -199.476883 -0.000006 0.498848
248.255157 -190.698303 6.299980 0.505882
249.118301 -193.452118 5.084309 0.506111
249.308884 -194.060181 4.482491 0.506600
249.387756 -194.311813 3.984683 0.490837
249.192123 -193.687653 3.614452 0.496544
249.072281 -193.305313 3.183555 0.506218
249.105011 -193.409744 2.703741 0.549065
234.433426 -146.600616 3.037138 0.706859
234.376236 -146.418152 0.959734 0.727382
241.213196 -168.231232 -0.000019 0.545373
246.094131 -183.803650 -0.000021 0.532830
248.189728 -190.489532 -0.000014 0.541344
249.356842 -194.213211 -0.000010 0.518669
250.101959 -196.590439 -0.000008 0.510399
250.619827 -198.242706 -0.000007 0.515938
251.001389 -199.460022 -0.000006 0.525154
248.824310 -192.149750 5.910511 0.576776
249.371658 -193.939758 4.967516 0.508705
249.505508 -194.377457 4.416761 0.512535
249.428696 -194.126251 4.009180 0.500648
249.567017 -194.578598 3.503786 0.511833
249.167435 -193.271851 3.183868 0.489570
249.022232 -192.797012 2.733699 0.512978
249.230148 -193.476974 2.232756 0.517510
234.376251 -144.900513 0.936009 0.725597
241.484695 -168.147156 -0.000019 0.539574
246.256805 -183.753281 -0.000021 0.536019
248.305664 -190.453644 -0.000014 0.544945
249.446762 -194.185364 -0.000011 0.543969
250.175262 -196.567749 -0.000008 0.551186
250.681595 -198.223587 -0.000007 0.544488
251.054626 -199.443527 -0.000006 0.535012
248.786362 -191.641037 6.035245 0.505882
249.627396 -194.461731 4.843626 0.504417
249.475266 -193.951553 4.492539 0.517479
249.513763 -194.080658 4.012006 0.505837
249.662430 -194.579224 3.500544 0.512291
249.234604 -193.144379 3.192282 0.509071
249.294098 -193.343948 2.704116 0.536980
249.324036 -193.444305 2.232824 0.509163
234.376236 -143.311874 0.911122 0.731533
241.756775 -168.065002 -0.000020 0.543862
246.419815 -183.704056 -0.000021 0.540825
248.421860 -190.418549 -0.000014 0.541802
249.536880 -194.158157 -0.000011 0.528161
250.248718 -196.545563 -0.000008 0.540658
250.743469 -198.204895 -0.000007 0.549645
251.107986 -199.427414 -0.000006 0.518761
248.921692 -191.703751 6.010602 0.507179
249.515320 -193.746658 4.998616 0.506630
249.493942 -193.673050 4.540194 0.517769
249.504898 -193.710785 4.065011 0.507927
249.498932 -193.690247 3.603962 0.514778
249.357941 -193.205032 3.184655 0.528847
249.239502 -192.797440 2.730629 0.506752
239.328354 -158.689240 2.824599 0.517342
234.376251 -141.647095 0.884990 0.732937
242.029434 -167.984741 -0.000020 0.536309
246.583176 -183.655975 -0.000021 0.538491
248.538284 -190.384277 -0.000014 0.527123
249.627167 -194.131577 -0.000011 0.564034
250.322327 -196.523895 -0.000009 0.535973
250.805496 -198.186646 -0.000007 0.521019
251.161469 -199.411682 -0.000006 0.547402
249.553848 -193.526871 5.527973 0.505104
249.537674 -193.469711 5.054782 0.525200
249.875107 -194.661957 4.348106 0.510887
249.623856 -193.774231 4.051099 0.508400
249.563156 -193.559753 3.616355 0.500237
249.451797 -193.166306 3.185587 0.505928
249.483307 -193.277603 2.704652 0.505882
249.308594 -192.660294 2.245215 0.514458
227.153763 -114.381340 0.423520 0.094972
242.302628 -167.906372 -0.000020 0.538231
246.746857 -183.609009 -0.000022 0.546273
248.654953 -190.350830 -0.000014 0.526726
249.717651 -194.105621 -0.000011 0.523018
250.396103 -196.502731 -0.000009 0.520699
250.867630 -198.168823 -0.000007 0.510826
251.215042 -199.396317 -0.000006 0.532219
249.641266 -193.473938 5.534857 0.502815
nan nan nan 0.000000
249.981812 -194.710052 4.334457 0.513649
249.835312 -194.178299 3.984934 0.514611
249.440643 -192.745728 3.710342 0.525170
249.477600 -192.879852 3.207639 0.525856
249.577576 -193.242783 2.705054 0.506554
240.092789 -158.815018 2.819211 0.516701
227.842377 -114.348618 0.426034 0.612696
242.576385 -167.829926 -0.000020 0.540856
246.910873 -183.563217 -0.000022 0.540566
248.771851 -190.318176 -0.000014 0.547967
249.808319 -194.080307 -0.000011 0.533852
250.470001 -196.482101 -0.000009 0.557733
250.929901 -198.151428 -0.000007 0.554696
251.268738 -199.381317 -0.000006 0.564858
249.730057 -193.424698 5.540924 0.516152
248.684540 -189.523499 5.925432 0.535271
250.034729 -194.561493 4.358017 0.512047
249.932007 -194.178207 3.981184 0.513863
249.694382 -193.291550 3.642094 0.510414
249.571060 -192.831436 3.209460 0.505882
249.560532 -192.792099 2.726639 0.514061
240.530548 -159.098312 2.812860 0.516442
228.292267 -113.433296 0.413511 0.608408
242.850647 -167.755386 -0.000020 0.546746
247.075195 -183.518555 -0.000022 0.539223
248.888977 -190.286346 -0.000014 0.553124
249.899155 -194.055618 -0.000011 0.543770
250.544052 -196.461975 -0.000009 0.536950
250.992294 -198.134476 -0.000007 0.563561
251.322525 -199.366699 -0.000006 0.545388
249.448425 -191.952255 5.915539 0.503578
249.137726 -190.759720 5.642285 0.509056
250.098022 -194.445587 4.375464 0.509270
250.028580 -194.179062 3.977404 0.504524
249.628372 -192.642944 3.716173 0.505882
249.570084 -192.419250 3.242157 0.505882
249.685455 -192.862045 2.721750 0.510948
240.931900 -159.263336 2.808570 0.515862
228.740601 -112.469589 0.400138 0.621775
243.125427 -167.682770 -0.000020 0.535149
247.239838 -183.475037 -0.000022 0.553124
249.006317 -190.255341 -0.000014 0.554437
249.990158 -194.031570 -0.000011 0.555825
250.618240 -196.442368 -0.000009 0.579599
251.054794 -198.117966 -0.000007 0.542153
251.376419 -199.352463 -0.000006 0.532494
249.652725 -192.314713 5.814871 0.504234
250.230896 -194.599136 4.780381 0.499306
250.060959 -193.927689 4.468414 0.515984
250.141708 -194.246735 3.963505 0.514626
249.713455 -192.554672 3.723575 0.497795
250.190216 -194.438431 3.069148 0.504494
250.151947 -194.287186 2.648236 0.518059
240.787125 -157.285370 2.840510 0.517296
229.444656 -112.469543 0.403004 0.631617
243.400711 -167.612045 -0.000021 0.540841
247.404770 -183.432693 -0.000021 0.551217
249.123871 -190.225143 -0.000014 0.533852
250.081329 -194.008163 -0.000011 0.555749
250.692566 -196.423279 -0.000009 0.540368
251.117401 -198.101883 -0.000007 0.532372
251.430405 -199.338593 -0.000006 0.557824
250.348648 -194.701721 5.192539 0.511604
250.253769 -194.315552 4.838614 0.505913
241.831940 -160.035172 10.814453 0.517479
249.542786 -191.421585 4.391623 0.607355
249.818954 -192.545654 3.721644 0.544457
250.243225 -194.272629 3.081287 0.513664
250.298050 -194.495819 2.636554 0.511879
250.227783 -194.209763 2.216853 0.505882
230.146225 -112.469490 0.405780 0.667384
243.676483 -167.543289 -0.000021 0.543999
247.569992 -183.391479 -0.000022 0.554543
249.547119 -191.439194 0.147282 0.578653
250.172653 -193.985382 -0.000011 0.541405
250.767029 -196.404709 -0.000009 0.535485
251.180130 -198.086243 -0.000007 0.525109
251.484497 -199.325104 -0.000006 0.556664
250.419189 -194.613922 5.209760 0.515099
250.274704 -194.007568 4.902205 0.513481
242.076233 -159.601425 10.880710 0.517128
249.962234 -192.696213 4.193219 0.533303
250.240250 -193.862946 3.562954 0.520516
250.297485 -194.103195 3.093745 0.505882
250.352051 -194.332153 2.643746 0.513817
241.886475 -158.805099 2.812068 0.562783
241.935394 -159.010391 1.191386 0.575952
243.952728 -167.476440 -0.000021 0.536934
247.735504 -183.351440 -0.000022 0.535897
249.708710 -191.632294 0.173247 0.584863
250.264145 -193.963242 -0.000011 0.525460
250.841614 -196.386673 -0.000009 0.536324
251.242966 -198.071030 -0.000007 0.527718
251.538666 -199.311996 -0.000006 0.563912
250.490341 -194.524460 5.227509 0.511193
250.157303 -193.082214 5.102571 0.505776
250.080688 -192.750458 4.675777 0.534447
249.828354 -191.657669 4.347737 0.581918
250.029419 -192.528397 3.717963 0.505882
250.387146 -194.077530 3.094114 0.504738
250.407318 -194.164932 2.651123 0.520333
250.289810 -193.656006 2.225433 0.506645
249.818741 -191.616074 1.740307 0.593133
249.821259 -191.626953 1.220912 0.589044
249.815582 -191.602386 0.697594 0.586435
249.837677 -191.698059 0.184000 0.578027
250.355789 -193.941742 -0.000011 0.546166
250.916321 -196.369141 -0.000009 0.511025
251.305908 -198.056274 -0.000007 0.551659
251.592941 -199.299271 -0.000006 0.552148
250.559784 -194.422806 5.248483 0.514000
249.913940 -191.534119 5.440263 0.591333
249.914749 -191.537735 4.897646 0.578836
250.100418 -192.368164 4.236021 0.532753
249.926910 -191.592117 3.825608 0.552468
250.479446 -194.063431 3.093564 0.501305
250.528244 -194.281693 2.644213 0.557214
250.377274 -193.606445 2.225907 0.516350
249.929260 -191.602600 1.740493 0.561105
249.937607 -191.639969 1.222803 0.495705
249.932510 -191.617157 0.700899 0.578088
249.942291 -191.660889 0.182497 0.602441
250.447571 -193.920883 -0.000011 0.542016
250.991150 -196.352142 -0.000009 0.529366
251.368942 -198.041946 -0.000007 0.549416
251.647293 -199.286911 -0.000006 0.550484
250.632492 -194.330673 5.267112 0.509880
250.146820 -192.084824 5.313294 0.600061
249.867996 -190.795547 5.031368 0.505882
243.256958 -160.225494 9.110723 0.516762
250.646255 -194.394302 3.492992 0.516320
250.509659 -193.762680 3.117118 0.553994
250.622437 -194.284164 2.643101 0.514229
250.030304 -191.546066 2.260056 0.610620
250.022141 -191.508316 1.739312 0.606989
250.039413 -191.588226 1.221394 0.587076
250.034821 -191.566940 0.698680 0.639445
250.044052 -191.609619 0.179252 0.603922
250.539505 -193.900665 -0.000011 0.542947
251.066086 -196.335663 -0.000009 0.529030
251.432083 -198.028061 -0.000007 0.539040
251.701736 -199.274933 -0.000006 0.503670
250.705765 -194.236160 5.286448 0.509483
250.264618 -192.124969 5.299525 0.642298
243.029739 -157.501999 11.215687 0.507561
243.512054 -159.810181 9.163115 0.513481
249.869690 -190.235077 3.979592 0.506645
250.749252 -194.444214 3.058370 0.513222
250.506363 -193.281860 2.692451 0.514336
242.679062 -155.823853 2.856851 0.516258
234.252625 -115.498558 0.469017 0.678431
245.062180 -167.228378 -0.000022 0.540444
248.400223 -183.202820 -0.000022 0.544472
249.833389 -190.061310 -0.000015 0.536736
250.631577 -193.881088 -0.000011 0.548074
251.141144 -196.319702 -0.000009 0.500252
251.495331 -198.014618 -0.000007 0.539376
251.756256 -199.263351 -0.000006 0.554818
250.649872 -193.495682 5.470957 0.515969
250.673706 -193.613861 4.966751 0.524804
249.975723 -190.153122 5.141784 0.538216
250.113495 -190.836273 4.457899 0.545815
250.612946 -193.312637 3.615582 0.505882
250.765350 -194.068268 3.088301 0.511986
250.843719 -194.456848 2.632573 0.501488
250.689682 -193.693069 2.223457 0.506004
234.918930 -115.498566 0.471209 0.678431
245.340591 -167.171204 -0.000022 0.540978
248.567032 -183.168564 -0.000022 0.542382
249.952271 -190.036896 -0.000014 0.531075
250.723785 -193.862167 -0.000011 0.529122
251.216324 -196.304260 -0.000009 0.560708
251.558655 -198.001602 -0.000008 0.568795
251.810867 -199.252136 -0.000006 0.544793
250.856735 -194.052795 5.323999 0.515877
250.627274 -192.872589 5.125752 0.513451
250.147736 -190.406219 5.090528 0.507713
250.252457 -190.944885 4.438089 0.514977
250.720001 -193.349579 3.609022 0.503349
250.860016 -194.069641 3.086682 0.516960
250.902924 -194.290344 2.640032 0.505379
235.577576 -115.468788 3.527174 0.612757
235.577545 -115.468643 0.472824 0.618891
245.619385 -167.115997 -0.000022 0.541268
248.734070 -183.135498 -0.000022 0.549126
250.071335 -190.013306 -0.000015 0.535042
250.816116 -193.843872 -0.000011 0.533913
251.291595 -196.289352 -0.000009 0.513680
251.622070 -197.989044 -0.000008 0.518074
251.865540 -199.241302 -0.000006 0.553368
250.930496 -193.943344 5.347467 0.525048
250.736465 -192.906815 5.114069 0.502342
250.297607 -190.562393 5.057502 0.565087
250.238297 -190.245575 4.540379 0.511254
250.826553 -193.388031 3.602379 0.499550
250.950867 -194.052155 3.086695 0.504463
250.991882 -194.271240 2.640134 0.453681
250.848740 -193.506561 2.225957 0.525368
236.030472 -114.347191 0.456186 0.607034
245.898575 -167.062714 -0.000022 0.538827
248.901352 -183.103577 -0.000022 0.534981
250.190552 -189.990570 -0.000015 0.530770
250.908585 -193.826233 -0.000011 0.539986
251.366974 -196.274979 -0.000009 0.505287
251.685562 -197.976929 -0.000007 0.532174
251.920303 -199.230865 -0.000006 0.504677
250.655945 -191.891113 5.865494 0.512779
250.616364 -191.671234 5.381229 0.503227
250.768860 -192.518524 4.691937 0.505043
250.522156 -191.147797 4.401140 0.519417
250.931870 -193.424271 3.596089 0.498756
251.044998 -194.052811 3.085248 0.505028
251.084503 -194.272278 2.639263 0.504051
251.005676 -193.834320 2.220217 0.513359
236.705841 -114.381340 0.458730 0.244968
246.178116 -167.011398 -0.000022 0.540505
249.068832 -183.072815 -0.000022 0.526482
250.309937 -189.968643 -0.000015 0.524819
251.001160 -193.809235 -0.000011 0.544320
251.442444 -196.261108 -0.000009 0.541619
251.749161 -197.965256 -0.000008 0.518257
251.975128 -199.220795 -0.000007 0.551156
250.785507 -192.008270 5.830958 0.507088
250.954666 -192.987274 5.088617 0.502831
250.807587 -192.136002 4.759259 0.510765
250.878250 -192.545059 4.187852 0.520302
251.080368 -193.714859 3.560202 0.505455
250.947159 -192.943832 3.176192 0.522622
251.176834 -194.273163 2.638432 0.512566
251.213440 -194.485031 2.209140 0.501625
237.373108 -114.381317 0.460627 0.089555
246.458023 -166.962036 -0.000022 0.540078
249.236526 -183.043243 -0.000022 0.542092
250.429459 -189.947571 -0.000014 0.538170
251.093857 -193.792877 -0.000011 0.518669
251.518021 -196.247787 -0.000009 0.554131
251.812820 -197.954025 -0.000008 0.554696
252.030014 -199.211105 -0.000007 0.554360
250.864883 -191.834061 5.870667 0.523537
250.830261 -191.625000 5.383201 0.575418
250.644333 -190.502213 5.057328 0.503059
250.807205 -191.485764 4.344541 0.562875
251.140167 -193.496414 3.583833 0.505882
251.232452 -194.053696 3.082560 0.521782
251.107147 -193.296951 2.686290 0.517159
251.113724 -193.336700 2.227941 0.507561
238.033432 -114.348885 0.461906 0.601007
246.738251 -166.914612 -0.000022 0.541360
249.404434 -183.014832 -0.000022 0.541146
250.549133 -189.927322 -0.000015 0.538323
251.186661 -193.777176 -0.000012 0.529076
251.593674 -196.234985 -0.000009 0.575830
251.876556 -197.943237 -0.000008 0.548943
252.084976 -199.201813 -0.000007 0.572351
251.362625 -194.286270 5.244384 0.508370
250.937225 -191.601227 5.384575 0.518288
250.923676 -191.515686 4.867164 0.607660
250.956573 -191.723389 4.306203 0.508858
251.243164 -193.532272 3.577865 0.524544
251.325821 -194.053925 3.081316 0.508202
251.201859 -193.271515 2.686779 0.500160
242.945969 -141.162354 3.092107 0.522347
238.400055 -112.469635 0.432510 0.634485
247.018814 -166.869156 -0.000023 0.540978
249.572525 -182.987595 -0.000022 0.540978
250.668945 -189.907913 -0.000014 0.536934
251.279587 -193.762131 -0.000012 0.538293
251.669418 -196.222717 -0.000009 0.559152
251.940384 -197.932907 -0.000007 0.521965
252.139999 -199.192902 -0.000006 0.532158
251.099350 -191.941498 5.834896 0.524590
251.079086 -191.807602 5.335839 0.532937
251.198608 -192.597656 4.664954 0.523720
250.937592 -190.872238 4.431402 0.490394
251.296463 -193.244400 3.609654 0.513329
251.466019 -194.365173 3.054337 0.542962
251.186310 -192.516342 2.723558 0.505882
242.956421 -138.116608 3.141335 0.513375
239.076385 -112.469582 0.434201 0.640711
247.299683 -166.825653 -0.000023 0.537789
249.740814 -182.961548 -0.000022 0.548165
250.788879 -189.889343 -0.000014 0.527840
251.372604 -193.747726 -0.000012 0.543221
251.745255 -196.210968 -0.000009 0.546563
252.004257 -197.923019 -0.000008 0.535134
252.195084 -199.184372 -0.000006 0.553689
251.204147 -191.919373 5.836544 0.507622
251.168274 -191.670563 5.362305 0.517815
251.302429 -192.601196 4.661557 0.505714
251.120880 -191.341782 4.358527 0.512291
251.416458 -193.392166 3.590820 0.509911
251.542847 -194.269012 3.061217 0.512184
251.354309 -192.961029 2.700741 0.499352
244.003387 -141.966827 3.076503 0.517388
239.751297 -112.469551 0.435817 0.658228
247.580856 -166.784134 -0.000023 0.542031
249.909271 -182.936646 -0.000022 0.543648
250.908951 -189.871597 -0.000015 0.552911
251.465729 -193.733963 -0.000012 0.542184
251.821167 -196.199753 -0.000009 0.534737
252.068222 -197.913559 -0.000008 0.554604
252.250229 -199.176224 -0.000006 0.524422
251.309082 -191.897568 5.838291 0.509514
251.258881 -191.531235 5.389380 0.506828
251.161148 -190.818054 4.986431 0.519188
251.522568 -193.455444 4.039751 0.512123
251.521881 -193.450500 3.582486 0.519539
251.478165 -193.131409 3.154326 0.509880
244.377335 -141.312897 5.261076 0.508247
244.463928 -141.944794 3.075811 0.517647
244.175247 -139.838150 0.889394 0.579721
247.862305 -166.744553 -0.000023 0.539223
250.077896 -182.912949 -0.000022 0.540322
251.029144 -189.854706 -0.000015 0.549996
251.558929 -193.720856 -0.000012 0.555825
251.897156 -196.189072 -0.000009 0.530465
252.132233 -197.904572 -0.000008 0.509850
252.305435 -199.168457 -0.000007 0.527077
251.439911 -192.074219 5.790097 0.517693
251.355026 -191.420898 5.410253 0.531823
251.503876 -192.566589 4.662820 0.505791
251.418732 -191.911209 4.268842 0.499519
251.625519 -193.502777 3.574946 0.507622
251.628738 -193.527588 3.120492 0.501610
244.844040 -141.308167 5.258272 0.513191
244.841888 -141.291656 3.085588 0.526696
241.486786 -115.468674 0.488296 0.590356
248.144012 -166.706940 -0.000023 0.542596
250.246689 -182.890411 -0.000022 0.539742
251.149445 -189.838638 -0.000015 0.533227
251.652237 -193.708405 -0.000011 0.529732
251.973221 -196.178925 -0.000009 0.503853
252.196320 -197.896011 -0.000008 0.541009
252.360687 -199.161087 -0.000007 0.552270
251.636139 -192.805344 5.602239 0.513680
251.448456 -191.277374 5.438475 0.517647
251.604675 -192.549118 4.663674 0.505882
251.539017 -192.014618 4.251387 0.513695
251.726273 -193.539124 3.569346 0.508629
251.772507 -193.915482 3.087459 0.502480
245.421738 -142.213440 5.210592 0.516136
245.400314 -142.039001 3.072309 0.510567
242.136566 -115.468666 0.489630 0.614511
248.425995 -166.671310 -0.000023 0.539513
250.415634 -182.869064 -0.000022 0.536858
251.269867 -189.823425 -0.000015 0.540261
251.745621 -193.696594 -0.000012 0.540536
252.049347 -196.169296 -0.000010 0.533684
252.260452 -197.887909 -0.000008 0.566857
252.415985 -199.154099 -0.000007 0.568780
251.730988 -192.751526 5.612809 0.513161
251.714111 -192.605820 5.146782 0.513741
251.705521 -192.531555 4.664672 0.511162
251.619553 -191.788834 4.283227 0.508797
251.816696 -193.492035 3.573493 0.529549
251.814835 -193.475983 3.122831 0.474510
245.640564 -140.136078 5.310653 0.517647
245.851654 -141.959595 3.072723 0.528435
242.785233 -115.468674 0.490886 0.586938
248.708206 -166.637634 -0.000023 0.540047
250.584717 -182.848892 -0.000022 0.538155
251.390381 -189.809052 -0.000015 0.539727
251.839081 -193.685455 -0.000012 0.550332
252.125549 -196.160202 -0.000009 0.515343
252.324646 -197.880249 -0.000008 0.524132
252.471329 -199.147491 -0.000007 0.511437
251.826370 -192.697281 5.623648 0.513436
251.850952 -192.923431 5.075315 0.508644
251.806442 -192.513931 4.665813 0.505882
251.751434 -192.007843 4.248761 0.512016
251.825562 -192.689896 3.665082 0.507881
251.908173 -193.449951 3.124100 0.515862
243.432892 -115.468987 6.527011 0.654643
246.176773 -140.715454 3.092363 0.514611
243.436096 -115.498581 0.492560 0.678431
248.990662 -166.605957 -0.000023 0.543420
250.753937 -182.829910 -0.000022 0.526665
251.510986 -189.795517 -0.000015 0.537713
251.932632 -193.674957 -0.000012 0.551095
252.201797 -196.151657 -0.000009 0.550805
252.388885 -197.873047 -0.000008 0.513619
252.526733 -199.141281 -0.000007 0.551369
251.913498 -192.555664 5.656648 0.434867
251.867081 -192.098923 5.252053 0.517174
251.936172 -192.778763 4.615419 0.505882
251.888916 -192.313812 4.201491 0.505882
251.964096 -193.053589 3.621804 0.513313
252.001709 -193.423752 3.125433 0.549310
244.079529 -115.469048 6.523688 0.615259
246.302826 -137.346436 3.146975 0.516640
244.082520 -115.498543 0.493667 0.678431
249.273315 -166.576218 -0.000024 0.541665
250.923294 -182.812103 -0.000022 0.533623
251.631699 -189.782822 -0.000015 0.538125
252.026245 -193.665115 -0.000011 0.503838
252.278122 -196.143631 -0.000010 0.549813
252.453186 -197.866272 -0.000008 0.558984
252.582169 -199.135452 -0.000007 0.526513
252.010025 -192.493973 5.669663 0.524102
251.976791 -192.142593 5.240352 0.505882
251.915344 -191.492828 4.848659 0.505882
252.002182 -192.411057 4.185493 0.527825
252.060364 -193.026260 3.623852 0.533318
252.078918 -193.222336 3.141253 0.523217
244.725250 -115.469154 6.520586 0.609277
244.725220 -115.468781 3.505791 0.620264
244.728027 -115.498558 0.494698 0.678431
249.556183 -166.548462 -0.000024 0.535729
251.092773 -182.795471 -0.000022 0.534554
251.752487 -189.770966 -0.000015 0.541390
252.119919 -193.655930 -0.000012 0.536828
252.354492 -196.136139 -0.000010 0.534417
252.517532 -197.859970 -0.000007 0.554879
252.637650 -199.130005 -0.000007 0.571572
252.107773 -192.437820 5.681451 0.508888
252.085739 -192.186035 5.228875 0.510658
252.135178 -192.750824 4.617070 0.516396
252.113831 -192.507034 4.169815 0.505882
252.156876 -192.998734 3.625999 0.502068
250.583237 -175.022049 4.638572 0.530678
245.370132 -115.469231 6.517709 0.635767
245.370087 -115.468788 3.504835 0.605722
245.370071 -115.468658 0.495163 0.601968
249.839233 -166.522675 -0.000024 0.543877
251.262360 -182.780029 -0.000022 0.540673
251.873367 -189.759964 -0.000015 0.542458
252.213669 -193.647385 -0.000012 0.549081
252.430908 -196.129181 -0.000009 0.518166
252.581909 -197.854111 -0.000007 0.523812
252.693161 -199.124954 -0.000007 0.547982
252.238022 -192.776962 5.594066 0.517037
252.193924 -192.229233 5.217621 0.513375
252.243317 -192.842850 4.598739 0.503883
252.200150 -192.306549 4.198376 0.507134
252.180771 -192.065918 3.732706 0.510384
252.178406 -192.036545 3.237402 0.502434
246.014206 -115.469299 6.515055 0.632807
246.014160 -115.468788 3.503951 0.637125
245.923859 -114.347176 0.477634 0.619791
250.122452 -166.498886 -0.000024 0.541695
251.432053 -182.765762 -0.000022 0.541054
251.994308 -189.749802 -0.000015 0.543038
252.307465 -193.639511 -0.000011 0.528740
252.507385 -196.122742 -0.000009 0.539284
252.646332 -197.848694 -0.000008 0.523766
252.748703 -199.120285 -0.000007 0.564584
252.343689 -192.848236 5.574234 0.517647
252.260773 -191.719727 5.326233 0.518654
252.350433 -192.939972 4.579620 0.515373
252.335052 -192.730682 4.134113 0.523720
252.179230 -190.610123 3.899700 0.513375
251.058258 -175.355591 4.608186 0.508202
250.837677 -172.353745 3.710543 0.526116
246.657516 -115.468811 3.503146 0.619837
246.575119 -114.347511 0.478458 0.589700
250.405823 -166.477066 -0.000024 0.538643
251.601837 -182.752701 -0.000022 0.539162
252.115326 -189.740479 -0.000015 0.540948
252.401306 -193.632278 -0.000012 0.544213
252.583893 -196.116852 -0.000009 0.547768
252.710785 -197.843735 -0.000008 0.543740
252.804276 -199.116013 -0.000007 0.546181
252.448227 -192.918823 5.554769 0.514763
252.369431 -191.733353 5.321658 0.508659
252.366699 -191.692398 4.805867 0.562295
252.355347 -191.521393 4.312846 0.520043
252.284012 -190.448227 3.917439 0.505882
252.255310 -190.016510 3.402132 0.533455
251.101257 -172.654221 3.694912 0.533165
247.300217 -115.468872 3.502407 0.600534
247.227936 -114.381317 0.479755 0.090272
250.689346 -166.457214 -0.000024 0.540932
251.771698 -182.740814 -0.000022 0.546410
252.236404 -189.732010 -0.000016 0.533837
252.495209 -193.625717 -0.000011 0.531502
252.660431 -196.111496 -0.000010 0.517632
252.775284 -197.839218 -0.000008 0.553719
252.859879 -199.112122 -0.000007 0.562936
252.502411 -192.160980 5.743373 0.512474
252.477798 -191.746918 5.317263 0.505882
252.465210 -191.535202 4.833287 0.524422
252.407639 -190.567108 4.453634 0.509392
252.402115 -190.474197 3.913603 0.513741
251.501694 -175.330902 4.607794 0.525002
251.325882 -172.374115 3.707952 0.513771
247.942322 -115.468887 3.501748 0.640482
247.875717 -114.348778 0.479890 0.615457
250.973007 -166.439362 -0.000024 0.546746
251.941650 -182.730103 -0.000022 0.541253
252.357529 -189.724380 -0.000015 0.537087
252.589157 -193.619797 -0.000012 0.545617
252.737015 -196.106674 -0.000009 0.535866
252.839798 -197.835159 -0.000008 0.533257
252.915512 -199.108612 -0.000007 0.553536
251.593170 -172.836136 10.589185 0.506111
252.585815 -191.759293 5.313291 0.505882
252.601089 -192.050491 4.738291 0.508263
252.640579 -192.803299 4.120514 0.509743
252.512955 -190.370361 3.924818 0.511101
252.492874 -189.987503 3.403351 0.517647
251.560608 -172.215439 3.715092 0.517830
nan nan nan 0.000000
248.426544 -112.469620 0.449692 0.623514
251.256775 -166.423477 -0.000024 0.537026
252.111679 -182.720596 -0.000022 0.543359
252.478714 -189.717606 -0.000015 0.537545
252.683136 -193.614532 -0.000012 0.543496
252.813644 -196.102386 -0.000010 0.509102
252.904343 -197.831543 -0.000008 0.556603
252.971176 -199.105499 -0.000007 0.512566
251.839233 -172.977600 10.550778 0.506615
252.693649 -191.773056 5.309182 0.514427
252.707306 -192.073425 4.733178 0.517174
252.728363 -192.536682 4.159379 0.515526
252.626709 -190.300598 3.932194 0.511437
252.611893 -189.974609 3.403929 0.502525
251.824493 -172.653305 3.692971 0.516197
nan nan nan 0.000000
249.088623 -112.469551 0.450220 0.641550
251.540665 -166.409576 -0.000024 0.540948
252.281754 -182.712265 -0.000022 0.543313
252.599945 -189.711670 -0.000015 0.537499
252.777145 -193.609940 -0.000012 0.549050
252.890289 -196.098633 -0.000010 0.486213
252.968918 -197.828384 -0.000008 0.564645
253.026840 -199.102768 -0.000007 0.561959
252.167252 -175.304993 9.964863 0.501747
252.174866 -175.502777 8.824857 0.522560
252.799667 -191.746246 4.791955 0.507301
252.171219 -175.408142 6.701403 0.524453
252.156479 -175.024902 5.690256 0.515831
252.017395 -171.409164 4.926923 0.505882
nan nan nan 0.000000
nan nan nan 0.000000
249.750290 -112.469536 0.450673 0.665309
251.824631 -166.397659 -0.000025 0.540963
252.451889 -182.705124 -0.000022 0.549844
252.721207 -189.706573 -0.000016 0.536645
252.871201 -193.605988 -0.000012 0.527565
252.966949 -196.095428 -0.000010 0.570047
253.033508 -197.825668 -0.000008 0.562783
253.082535 -199.100433 -0.000007 0.536095
252.359055 -174.342316 10.204178 0.506935
252.900940 -191.558914 5.353679 0.506844
252.928085 -192.421570 4.668333 0.505974
252.852600 -190.023163 4.531248 0.518898
252.854034 -190.068497 3.957871 0.496162
252.387161 -175.235580 4.612305 0.504295
252.352509 -174.134735 3.619251 0.523903
nan nan nan 0.000000
250.411606 -112.469482 0.451051 0.665843
252.108673 -166.387726 -0.000025 0.534325
252.622086 -182.699173 -0.000023 0.539757
252.842499 -189.702332 -0.000015 0.535927
252.965271 -193.602692 -0.000012 0.536507
253.043640 -196.092743 -0.000010 0.528328
253.098114 -197.823410 -0.000008 0.574105
253.138245 -199.098480 -0.000007 0.552026
252.602158 -174.929626 10.055414 0.510796
253.009430 -191.561279 5.352513 0.505882
253.009140 -191.549164 4.826598 0.497719
252.608276 -175.179504 6.733262 0.512520
252.626678 -175.931458 5.584311 0.515908
252.603577 -174.987808 4.632118 0.500465
252.494690 -170.541107 3.795529 0.516762
251.146057 -115.468689 3.499551 0.637095
251.146057 -115.468674 0.500446 0.615030
252.392776 -166.379761 -0.000025 0.538338
252.792297 -182.694412 -0.000022 0.543053
252.963821 -189.698944 -0.000015 0.528450
253.059357 -193.600067 -0.000012 0.526909
253.120346 -196.090591 -0.000010 0.532601
253.162735 -197.821609 -0.000008 0.525368
253.193970 -199.096924 -0.000007 0.535073
nan nan nan 0.000000
253.117859 -191.563705 5.351499 0.505882
253.117645 -191.551498 4.825759 0.501381
252.813751 -174.189957 6.879377 0.509743
252.862152 -176.955475 5.465965 0.510475
252.830521 -175.148254 4.618573 0.527459
252.818481 -174.460236 3.602703 0.517647
252.510742 -156.878723 2.821599 0.618158
252.510742 -156.878723 1.178401 0.685969
252.676941 -166.373779 -0.000026 0.540642
252.962555 -182.690842 -0.000022 0.535058
253.085175 -189.696396 -0.000015 0.537957
253.153473 -193.598083 -0.000012 0.544976
253.197067 -196.088989 -0.000010 0.538888
253.227371 -197.820251 -0.000008 0.552468
253.249695 -199.095764 -0.000007 0.542992
253.045349 -174.374207 10.192580 0.508293
253.226227 -191.566162 5.350640 0.522255
253.226089 -191.553864 4.825053 0.505882
253.048569 -174.680145 6.806181 0.502708
253.060959 -175.858353 5.591845 0.508400
253.046478 -174.482452 4.672913 0.512520
253.070923 -176.805374 3.487330 0.510201
252.861267 -156.878723 2.821518 0.627970
253.037170 -173.597336 1.452079 0.580758
253.038055 -173.681747 0.359207 0.596796
253.132813 -182.688461 -0.000022 0.544854
253.206528 -189.694687 -0.000016 0.521416
253.247589 -193.596771 -0.000012 0.528145
253.273804 -196.087906 -0.000010 0.513344
253.292007 -197.819336 -0.000008 0.533165
253.305435 -199.094971 -0.000007 0.514855
253.273499 -174.323898 10.204780 0.517647
253.278290 -175.675247 8.782606 0.511925
253.273346 -174.281128 7.967812 0.509163
253.275848 -174.988312 6.760236 0.532784
253.277176 -175.360596 5.648932 0.504372
253.271332 -173.712234 4.735935 0.569726
253.280426 -176.279892 3.513073 0.518441
253.271408 -173.732849 2.545677 0.551614
253.271286 -173.699234 1.453773 0.565316
253.271332 -173.709549 0.360653 0.592676
253.303101 -182.687271 -0.000022 0.536324
253.327896 -189.693832 -0.000015 0.525643
253.341721 -193.596115 -0.000012 0.544045
253.350525 -196.087372 -0.000010 0.518669
253.356659 -197.818878 -0.000008 0.533806
253.361176 -199.094589 -0.000007 0.545159
253.505280 -173.420807 10.430987 0.509834
253.501221 -174.600113 9.014812 0.514092
253.502960 -174.094971 8.001684 0.512047
253.498840 -175.294983 6.714743 0.512322
253.507401 -172.804443 5.942996 0.512627
253.506699 -173.011505 4.793392 0.509697
253.501526 -174.510742 3.599985 0.503532
253.496124 -176.082870 2.507221 0.510338
253.562134 -156.905334 1.178957 0.512566
253.529556 -166.367798 -0.000026 0.543175
253.473389 -182.687256 -0.000022 0.536065
253.449280 -189.693832 -0.000016 0.533043
253.435837 -193.596100 -0.000012 0.542763
253.427261 -196.087372 -0.000010 0.513710
253.421310 -197.818878 -0.000008 0.568856
253.416916 -199.094574 -0.000007 0.555673
253.721436 -175.227798 9.978745 0.514061
253.724030 -174.979614 8.933183 0.507576
253.720230 -175.343430 7.774798 0.523262
253.717621 -175.594437 6.670549 0.519295
253.741409 -173.312286 5.884761 0.516976
253.710266 -176.300568 4.523824 0.515129
253.715088 -175.837326 3.534888 0.517983
253.720520 -175.316696 2.519784 0.521492
253.912430 -156.905334 1.178917 0.508583
253.813782 -166.369751 -0.000026 0.541436
253.643677 -182.688431 -0.000022 0.535683
253.570648 -189.694672 -0.000016 0.537072
253.529968 -193.596756 -0.000012 0.531594
253.503998 -196.087891 -0.000010 0.539940
253.485962 -197.819336 -0.000008 0.533928
253.472656 -199.094971 -0.000007 0.584085
253.941422 -175.367462 9.944530 0.505806
253.961227 -174.229568 9.095875 0.514839
253.954193 -174.633728 7.904514 0.519799
253.945847 -175.112900 6.742443 0.505882
253.980972 -173.095184 5.910117 0.511299
253.926437 -176.228302 4.529996 0.505882
253.944794 -175.173309 3.567664 0.514427
253.945450 -175.136215 2.522789 0.519661
254.263245 -156.878723 1.178403 0.669306
254.097961 -166.373718 -0.000026 0.533089
253.813950 -182.690811 -0.000022 0.534310
253.692001 -189.696350 -0.000016 0.549661
253.624084 -193.598068 -0.000012 0.559838
253.580734 -196.088959 -0.000010 0.501396
253.550598 -197.820221 -0.000008 0.548791
253.528397 -199.095734 -0.000007 0.552163
254.167587 -175.175720 9.993732 0.505882
254.968246 -142.349487 15.984396 0.510048
254.148178 -175.971054 7.661966 0.527123
254.153595 -175.749115 6.648734 0.517647
254.167923 -175.161438 5.672912 0.506416
254.143661 -176.156342 4.536268 0.518029
254.170532 -175.054459 3.573733 0.510384
254.156006 -175.650375 2.514449 0.507240
254.613861 -156.878723 1.178282 0.653361
254.382126 -166.379639 -0.000026 0.538506
253.984192 -182.694366 -0.000022 0.544747
253.813354 -189.698898 -0.000016 0.553643
253.718201 -193.600037 -0.000012 0.559243
253.657455 -196.090561 -0.000010 0.564370
253.615234 -197.821579 -0.000008 0.546258
253.584122 -199.096909 -0.000007 0.554650
254.384003 -175.382355 9.943504 0.511376
254.380905 -175.481003 8.827875 0.519173
254.391861 -175.131638 7.815883 0.512932
254.379471 -175.526901 6.682616 0.511193
254.383896 -175.385513 5.647838 0.533379
254.358459 -176.196411 4.533474 0.511589
254.352646 -176.381500 3.508814 0.515984
254.364105 -176.016190 2.508559 0.514885
254.965240 -156.858337 1.177789 0.590723
254.666229 -166.387558 -0.000026 0.545220
254.154419 -182.699127 -0.000022 0.542428
253.934677 -189.702271 -0.000016 0.548760
253.812286 -193.602661 -0.000012 0.558938
253.734161 -196.092712 -0.000010 0.636286
253.679855 -197.823380 -0.000008 0.534844
253.639847 -199.098465 -0.000007 0.554635
254.596603 -175.615692 9.886948 0.515053
254.613632 -175.171951 8.896334 0.509331
254.623978 -174.902115 7.859092 0.512886
254.608643 -175.302002 6.717141 0.502983
254.577774 -176.106445 5.565729 0.532906
254.581329 -176.013687 4.549085 0.514092
254.611420 -175.229614 3.565811 0.506645
254.625412 -174.864639 2.527541 0.519570
255.320145 -156.757385 1.175936 0.687663
254.950287 -166.397476 -0.000026 0.541314
254.324600 -182.705048 -0.000022 0.549538
254.055969 -189.706512 -0.000015 0.525017
253.906357 -193.605942 -0.000012 0.540169
253.810852 -196.095383 -0.000010 0.529885
253.744461 -197.825638 -0.000008 0.530816
253.695557 -199.100403 -0.000007 0.521904
254.864090 -174.569626 10.151549 0.510796
254.851044 -174.857178 8.966402 0.506493
256.315033 -142.583023 13.747509 0.557443
254.854019 -174.791779 6.794282 0.518349
254.892075 -173.952606 5.814804 0.516472
254.801804 -175.942703 4.555655 0.517143
254.832184 -175.273117 3.564129 0.506081
254.902817 -173.715973 2.546511 0.506554
255.676682 -156.655823 1.174030 0.692988
255.234253 -166.409348 -0.000027 0.544091
254.494736 -182.712173 -0.000022 0.545342
254.177231 -189.711594 -0.000015 0.552209
254.000412 -193.609879 -0.000012 0.524392
253.887512 -196.098587 -0.000010 0.536461
253.809052 -197.828339 -0.000008 0.553140
253.751251 -199.102737 -0.000007 0.532341
255.120193 -174.023392 10.291343 0.511254
255.068817 -175.004669 8.936880 0.509957
255.096619 -174.473572 7.940887 0.483909
255.072968 -174.925507 6.776055 0.511482
255.053360 -175.299881 5.660902 0.520851
255.048065 -175.400955 4.601010 0.513680
255.064697 -175.083221 3.574004 0.513344
255.078354 -174.822464 2.528566 0.520592
256.034912 -156.553558 1.172073 0.625055
255.518127 -166.423218 -0.000027 0.544762
254.664825 -182.720474 -0.000022 0.549462
254.298462 -189.717514 -0.000015 0.541390
254.094421 -193.614471 -0.000012 0.527459
253.964157 -196.102341 -0.000010 0.522942
253.873627 -197.831497 -0.000008 0.559915
253.806915 -199.105453 -0.000007 0.579583
255.333801 -174.324799 10.218945 0.508507
255.284164 -175.160751 8.905819 0.515923
255.323471 -174.498688 7.938625 0.505882
255.253220 -175.682053 6.665497 0.516442
255.330978 -174.372223 5.769237 0.508721
255.267685 -175.438538 4.598938 0.508583
255.368454 -173.740982 3.640675 0.512230
255.362152 -173.847046 2.544763 0.512474
256.394836 -156.450531 1.170061 0.675975
255.801910 -166.439056 -0.000027 0.540993
254.834839 -182.729980 -0.000022 0.545571
254.419647 -189.724274 -0.000015 0.533211
254.188400 -193.619720 -0.000012 0.523064
254.040787 -196.106613 -0.000010 0.538338
253.938171 -197.835098 -0.000008 0.546746
253.862579 -199.108566 -0.000007 0.515572
255.559494 -174.383072 10.207925 0.511666
255.503113 -175.232483 8.893324 0.515023
nan nan nan 0.000000
255.584976 -173.999115 6.917735 0.506645
255.548630 -174.546692 5.750775 0.508095
255.492554 -175.391800 4.603920 0.507561
255.608826 -173.639877 3.646372 0.525353
255.548706 -174.545624 2.533544 0.515953
256.805634 -155.607513 1.155871 0.564309
