# This PCD file was generated using the MATLABÂ® pcwrite function
# from Computer Vision ToolboxÂ®.
# .PCD v.7 - Point Cloud Data file format
VERSION .7
FIELDS x y z intensity
SIZE 4 4 4 4
TYPE F F F F
COUNT 1 1 1 1
WIDTH 1273
HEIGHT 1
VIEWPOINT 0 0 0 1 0 0 0
POINTS 1273
DATA ascii
256.067627 -90.123833 6.956740 0.718990
256.067596 -90.123848 5.844161 0.738384
256.067566 -90.123863 4.739929 0.713848
256.067566 -90.123856 3.641606 0.725750
256.067596 -90.123856 2.546811 0.679744
256.067596 -90.123840 1.453189 0.707561
256.067596 -90.123840 0.358395 0.707164
263.765442 -85.415001 -0.000014 0.535241
269.742493 -81.758781 -0.000001 0.335348
273.071320 -79.722504 0.000000 0.335760
275.196533 -78.422493 0.000007 0.335546
276.673523 -77.518990 -0.000005 0.522393
277.761780 -76.853302 -0.000005 0.543526
255.224731 -90.359070 10.581242 0.923186
255.224716 -90.359085 9.399076 0.937255
255.238602 -90.350723 8.230553 0.930114
255.615387 -90.123833 7.014086 0.681178
255.615372 -90.123848 5.888636 0.688014
255.615356 -90.123856 4.771626 0.738354
255.615356 -90.123856 3.660598 0.681132
255.615356 -90.123856 2.553137 0.726894
255.615372 -90.123848 1.446863 0.719493
255.615387 -90.123840 0.339403 0.688151
263.677094 -85.269432 -0.000014 0.531014
269.679535 -81.655022 0.000000 0.335821
273.022491 -79.642036 0.000000 0.336706
275.156708 -78.356895 0.000007 0.332952
276.639984 -77.463722 -0.000005 0.554345
277.732849 -76.805649 -0.000005 0.548150
nan nan nan 0.000000
254.755630 -90.359085 9.486049 0.906081
254.755630 -90.359077 8.306773 0.919295
255.152557 -90.123840 7.073025 0.726619
255.152527 -90.123848 5.934345 0.686778
255.152512 -90.123856 4.804207 0.710323
255.152512 -90.123856 3.680119 0.687465
255.152512 -90.123856 2.559639 0.720531
255.152527 -90.123848 1.440361 0.725719
255.152542 -90.123840 0.319883 0.692271
263.589752 -85.123245 -0.000014 0.528527
269.617279 -81.550827 -0.000000 0.334920
272.974213 -79.561226 0.000000 0.326986
275.117340 -78.291023 0.000007 0.336400
276.606842 -77.408226 -0.000005 0.500847
277.704285 -76.757790 -0.000005 0.531380
nan nan nan 0.000000
254.275360 -90.359085 9.575467 0.933135
254.275375 -90.359085 8.382105 0.926497
254.678680 -90.123840 7.133620 0.721904
254.678665 -90.123848 5.981340 0.683284
254.678650 -90.123863 4.837702 0.721920
254.678650 -90.123856 3.700186 0.721782
254.678650 -90.123856 2.566324 0.700359
254.678665 -90.123848 1.433676 0.717250
254.678680 -90.123840 0.299815 0.696956
263.608765 -84.915024 0.009983 1.000000
269.555756 -81.446205 0.000000 0.339483
272.926483 -79.480087 0.000001 0.335180
275.078461 -78.224869 0.000008 0.338384
276.574066 -77.352493 -0.000005 0.568002
277.676025 -76.709740 -0.000004 0.541878
nan nan nan 0.000000
253.783478 -90.359085 9.667423 0.933440
253.783463 -90.359085 8.459579 0.904418
254.193329 -90.123840 7.195937 0.699519
254.193314 -90.123856 6.029669 0.723796
254.193314 -90.123856 4.872147 0.702327
254.193298 -90.123856 3.720824 0.743999
254.193298 -90.123856 2.573198 0.719097
254.193314 -90.123848 1.426802 0.724880
254.193329 -90.123840 0.279177 0.709331
263.524139 -84.768234 0.010005 1.000000
269.494965 -81.341148 0.000000 0.334737
272.879364 -79.398613 0.000001 0.346365
275.040039 -78.158455 0.000007 0.335729
276.541687 -77.296539 -0.000005 0.548531
277.648102 -76.661491 -0.000004 0.520470
nan nan nan 0.000000
253.209991 -90.398315 9.779253 0.915862
253.279449 -90.359093 8.539276 0.921614
253.696030 -90.123840 7.260043 0.726574
253.695999 -90.123856 6.079385 0.711925
253.695999 -90.123856 4.907582 0.713314
253.695999 -90.123856 3.742054 0.716899
253.695999 -90.123856 2.580270 0.698695
253.696014 -90.123848 1.419730 0.729686
253.696030 -90.123840 0.257946 0.723674
263.334106 -84.680962 0.000006 0.337728
269.434937 -81.235672 0.000000 0.334493
272.832794 -79.316811 0.000001 0.328847
275.002075 -78.091766 0.000007 0.338735
276.509705 -77.240356 -0.000005 0.552331
277.620514 -76.613052 -0.000004 0.524636
nan nan nan 0.000000
252.762817 -90.359093 9.859376 0.904433
252.762817 -90.359085 8.621289 0.910414
253.186279 -90.123840 7.326014 0.687190
253.186249 -90.123856 6.130549 0.729885
253.186249 -90.123848 4.944050 0.691615
253.186249 -90.123848 3.763903 0.701167
253.186249 -90.123848 2.587547 0.702251
253.186249 -90.123840 1.412452 0.715434
253.186279 -90.123833 0.236097 0.689601
263.250824 -84.532425 0.000000 0.337453
269.375610 -81.129784 0.000000 0.340185
272.786804 -79.234688 0.000002 0.334325
274.964569 -78.024818 0.000008 0.335637
276.478119 -77.183952 -0.000005 0.537667
277.593292 -76.564423 -0.000004 0.520653
nan nan nan 0.000000
252.233032 -90.359093 9.959593 0.914076
252.130585 -90.415077 8.726964 0.922728
252.663544 -90.123833 7.393926 0.704097
252.663528 -90.123848 6.183218 0.714305
252.663528 -90.123848 4.981589 0.719738
252.663528 -90.123848 3.786396 0.735805
252.663528 -90.123840 2.595039 0.738674
252.663544 -90.123840 1.404961 0.727703
252.663544 -90.123840 0.213605 0.733074
263.168854 -84.383179 0.000019 0.337835
269.317047 -81.023483 0.000000 0.337499
272.741364 -79.152245 0.000002 0.334890
274.975739 -77.931259 0.010006 1.000000
276.446930 -77.127335 -0.000005 0.525292
277.566376 -76.515602 -0.000004 0.522011
nan nan nan 0.000000
251.689529 -90.359100 10.062798 0.911086
251.689545 -90.359085 8.792666 0.919249
252.127289 -90.123840 7.463864 0.715633
252.127258 -90.123848 6.237457 0.728008
252.127274 -90.123848 5.020247 0.726772
252.127274 -90.123848 3.809558 0.696681
252.127258 -90.123848 2.602756 0.700038
252.127274 -90.123848 1.397245 0.719707
252.127289 -90.123840 0.190443 0.718044
263.087646 -84.233505 0.000010 0.336919
269.259216 -80.916771 0.000000 0.336202
272.696533 -79.069489 0.000002 0.347372
274.939362 -77.864136 0.010004 1.000000
276.416107 -77.070496 -0.000005 0.505241
277.539825 -76.466591 -0.000005 0.566461
nan nan nan 0.000000
251.131744 -90.359093 10.169115 0.918044
251.131744 -90.359093 8.882236 0.908934
251.576920 -90.123840 7.535911 0.730312
251.576904 -90.123840 6.293331 0.723842
251.576904 -90.123840 5.060073 0.729702
251.576904 -90.123840 3.833419 0.725261
251.576904 -90.123840 2.610703 0.717952
251.646774 -90.086922 1.390590 0.678431
251.646667 -90.086975 0.170457 0.210956
263.007599 -84.083206 0.000015 0.337270
269.202118 -80.809662 0.000001 0.336065
272.652252 -78.986420 0.000002 0.341054
274.903442 -77.796753 0.010005 1.000000
276.385712 -77.013443 -0.000005 0.552468
277.513611 -76.417397 -0.000004 0.535195
nan nan nan 0.000000
250.451233 -90.415077 10.304911 0.910582
250.559006 -90.359093 8.974544 0.919585
251.011795 -90.123840 7.610163 0.706447
251.011795 -90.123840 6.350916 0.722042
251.011795 -90.123840 5.101115 0.733150
251.011795 -90.123840 3.858009 0.710643
251.011780 -90.123840 2.618894 0.703029
251.109741 -90.072952 1.382912 0.887434
251.109741 -90.072952 0.147413 0.457832
262.928375 -83.932472 -0.000002 0.337377
269.145782 -80.702156 0.000001 0.334676
272.608551 -78.903046 0.000002 0.339590
274.868011 -77.729126 0.010005 1.000000
276.355713 -76.956177 -0.000005 0.525612
277.487732 -76.368027 -0.000004 0.549310
nan nan nan 0.000000
249.970673 -90.359093 10.391645 0.929976
249.970673 -90.359093 9.069712 0.923491
249.970673 -90.359093 7.763437 0.935271
250.431305 -90.123840 6.410284 0.724071
250.431290 -90.123840 5.143431 0.679164
250.431305 -90.123840 3.883361 0.685161
250.431305 -90.123840 2.627339 0.713970
250.431305 -90.123840 1.372661 0.726390
250.431305 -90.123840 0.116639 0.730556
262.850220 -83.781181 -0.000018 0.338659
269.090210 -80.594261 0.000001 0.334844
272.565460 -78.819366 0.000003 0.339879
274.784119 -77.686234 0.000009 0.331228
276.326111 -76.898712 -0.000005 0.510231
277.462219 -76.318474 -0.000004 0.532280
nan nan nan 0.000000
249.366028 -90.359093 10.508154 0.915328
249.366028 -90.359100 9.167870 0.929030
249.366013 -90.359100 7.843457 0.937255
249.834686 -90.123840 6.471515 0.727413
249.834702 -90.123840 5.187073 0.719051
249.834702 -90.123840 3.909510 0.713970
249.834717 -90.123840 2.636049 0.728298
249.834702 -90.123840 1.363952 0.707698
249.834702 -90.123840 0.090490 0.733562
262.773376 -83.629227 -0.000012 0.338643
269.035400 -80.485977 0.000000 0.332555
272.522949 -78.735390 0.000003 0.336950
274.749451 -77.617775 0.000009 0.331518
276.296906 -76.841034 -0.000005 0.544350
277.437042 -76.268738 -0.000004 0.553017
nan nan nan 0.000000
nan nan nan 0.000000
nan nan nan 0.000000
237.437881 -95.935928 9.796093 0.921080
249.221283 -90.123840 6.534694 0.719600
249.221283 -90.123840 5.232104 0.721019
249.221283 -90.123840 3.936488 0.697261
249.221283 -90.123840 2.645035 0.713909
249.221283 -90.123840 1.354964 0.720745
249.221298 -90.123833 0.063511 0.717952
262.697449 -83.476807 -0.000019 0.337667
268.981323 -80.377319 0.000001 0.338094
272.481018 -78.651115 0.000003 0.335897
274.715210 -77.549110 -0.000006 0.549477
276.268097 -76.783157 -0.000005 0.522591
277.412201 -76.218834 -0.000004 0.510979
nan nan nan 0.000000
nan nan nan 0.000000
nan nan nan 0.000000
237.378540 -95.556961 9.779308 0.926146
237.440628 -95.526871 8.025241 0.907729
237.723267 -95.389908 6.268739 0.739284
244.951401 -91.887192 4.162988 0.407889
244.959244 -91.883392 2.720339 0.411261
237.723221 -95.389923 1.148081 0.733761
247.936646 -90.440567 -0.000021 0.544472
262.622620 -83.323837 -0.000021 0.338079
268.928009 -80.268280 0.000001 0.336538
272.439667 -78.566551 0.000003 0.341146
274.681488 -77.480171 -0.000006 0.544503
276.239716 -76.725075 -0.000005 0.554376
277.387726 -76.168755 -0.000004 0.556527
nan nan nan 0.000000
nan nan nan 0.000000
nan nan nan 0.000000
237.387207 -95.147346 9.751844 0.934859
237.443390 -95.120605 8.004721 0.907240
237.725983 -94.986084 6.254201 0.733913
244.722290 -91.655830 4.168214 0.388235
246.106567 -90.996910 2.697133 0.406226
237.725952 -94.986107 1.150982 0.698711
247.813583 -90.184364 -0.000021 0.534615
262.548981 -83.170296 -0.000013 0.337713
268.875458 -80.158875 0.000001 0.338750
272.398926 -78.481705 0.000003 0.334112
274.648285 -77.411003 -0.000006 0.538949
276.211731 -76.666801 -0.000005 0.543603
277.363586 -76.118507 -0.000004 0.495247
nan nan nan 0.000000
nan nan nan 0.000000
nan nan nan 0.000000
237.446106 -94.717087 9.716713 0.930541
237.446106 -94.717094 7.984633 0.911147
237.728699 -94.584984 6.239970 0.728374
245.829254 -90.798241 4.101055 0.410071
245.226639 -91.079941 2.710738 0.415518
237.728668 -94.585007 1.153823 0.690883
247.692337 -89.927315 -0.000021 0.540368
262.476288 -83.016296 -0.000015 0.336950
268.823669 -80.049103 0.000000 0.338994
272.358765 -78.396568 0.000003 0.332906
274.615540 -77.341599 -0.000006 0.517586
276.184143 -76.608337 -0.000005 0.551064
277.339813 -76.068100 -0.000004 0.582361
nan nan nan 0.000000
nan nan nan 0.000000
nan nan nan 0.000000
237.448822 -94.316238 9.691358 0.932342
237.448807 -94.316238 7.964968 0.925307
245.332306 -90.697815 5.540286 0.405844
245.748856 -90.506622 4.098618 0.412497
245.449188 -90.644173 2.704436 0.390173
237.731339 -94.186562 1.156603 0.738994
247.572876 -89.669418 -0.000022 0.543221
262.404816 -82.861748 -0.000008 0.338445
268.772675 -79.938972 0.000001 0.341100
272.319183 -78.311157 0.000003 0.341588
274.583282 -77.271965 -0.000005 0.558602
276.156952 -76.549675 -0.000005 0.535012
277.316376 -76.017517 -0.000004 0.514458
nan nan nan 0.000000
nan nan nan 0.000000
nan nan nan 0.000000
235.498077 -94.798141 9.984356 0.678431
237.286667 -93.992264 7.966519 0.399329
237.905441 -93.713470 6.196988 0.700343
244.217468 -90.869507 4.174480 0.414588
244.195572 -90.879379 2.724702 0.414832
237.287384 -93.991943 1.151308 0.620554
247.455215 -89.410706 -0.000022 0.542901
262.334320 -82.706734 -0.000007 0.338659
268.722412 -79.828491 0.000001 0.338445
272.280212 -78.225479 0.000003 0.333013
274.551514 -77.202118 -0.000006 0.582712
276.130188 -76.490822 -0.000005 0.546075
277.293304 -75.966774 -0.000004 0.524483
nan nan nan 0.000000
nan nan nan 0.000000
nan nan nan 0.000000
234.582932 -94.791931 10.107942 0.678431
237.303406 -93.588966 7.945848 0.098070
237.896027 -93.326912 6.184775 0.678431
243.713577 -90.754448 4.194781 0.412863
244.511414 -90.401649 2.716796 0.406973
236.943329 -93.748184 1.147793 0.678431
247.339371 -89.151161 -0.000021 0.540993
262.264893 -82.551231 -0.000007 0.337331
268.672943 -79.717659 -0.000000 0.340200
272.241852 -78.139519 0.000004 0.324575
274.520233 -77.132042 -0.000005 0.556481
276.103851 -76.431786 -0.000005 0.533989
277.270569 -75.915871 -0.000004 0.501030
nan nan nan 0.000000
nan nan nan 0.000000
nan nan nan 0.000000
233.638885 -94.785568 10.235833 0.689967
237.306076 -93.194481 7.927359 0.093050
237.739365 -93.006493 6.186000 0.729168
237.739349 -93.006500 4.508009 0.718532
244.685791 -89.992653 2.711498 0.410758
236.945999 -93.350716 1.150443 0.678431
247.225327 -88.890823 -0.000021 0.542657
262.196564 -82.395264 -0.000009 0.337331
268.624237 -79.606491 -0.000001 0.335637
272.204102 -78.053299 0.000004 0.334905
274.489441 -77.061752 -0.000006 0.560403
276.077911 -76.372574 -0.000005 0.548470
277.248199 -75.864815 -0.000004 0.523934
nan nan nan 0.000000
nan nan nan 0.000000
nan nan nan 0.000000
233.115814 -94.586929 10.295488 0.914321
237.308746 -92.802414 7.909268 0.089021
237.741989 -92.618027 6.173226 0.740093
237.741974 -92.618034 4.500356 0.731960
244.166199 -89.883896 2.718607 0.400992
237.022430 -92.924271 1.154346 0.000000
247.113113 -88.629692 -0.000021 0.537804
262.129333 -82.238808 -0.000009 0.338781
268.576324 -79.494980 -0.000001 0.338430
272.166931 -77.966820 0.000004 0.333639
274.459167 -76.991249 -0.000005 0.529900
276.052399 -76.313179 -0.000005 0.558068
277.226196 -75.813599 -0.000004 0.590433
nan nan nan 0.000000
nan nan nan 0.000000
nan nan nan 0.000000
232.963928 -94.227264 10.295527 0.903609
237.311371 -92.412743 7.891580 0.095216
237.744598 -92.231926 6.160732 0.728557
237.744583 -92.231926 4.492870 0.697963
236.951324 -92.563019 2.844430 0.678431
236.951324 -92.563019 1.155570 0.088701
247.002731 -88.367790 -0.000021 0.542519
262.063171 -82.081902 -0.000011 0.336843
268.529175 -79.383141 -0.000002 0.335836
272.192596 -77.854111 0.010005 1.000000
274.429352 -76.920540 -0.000005 0.553628
276.027283 -76.253609 -0.000005 0.545769
277.204559 -75.762238 -0.000004 0.524666
nan nan nan 0.000000
nan nan nan 0.000000
nan nan nan 0.000000
232.020157 -94.191620 10.422892 0.934020
237.313812 -92.025436 7.874303 0.111482
237.747177 -91.848099 6.148515 0.737575
237.747192 -91.848099 4.485550 0.732448
236.953964 -92.172684 2.841950 0.678431
236.953964 -92.172691 1.158050 0.081254
246.894196 -88.105110 -0.000021 0.537530
261.998138 -81.924522 -0.000011 0.336843
268.482819 -79.270973 -0.000003 0.338857
272.156799 -77.767563 0.010003 1.000000
274.400055 -76.849625 -0.000005 0.542565
276.002594 -76.193855 -0.000004 0.533471
277.183258 -75.710724 -0.000004 0.517830
nan nan nan 0.000000
nan nan nan 0.000000
nan nan nan 0.000000
230.972885 -94.184547 10.566479 0.898695
237.314789 -91.640961 7.857590 0.094118
237.749756 -91.466499 6.136571 0.723995
237.749756 -91.466507 4.478394 0.699809
236.956573 -91.784622 2.839526 0.678431
236.956573 -91.784630 1.160474 0.074510
246.787460 -87.841698 -0.000021 0.540261
261.934235 -81.766693 -0.000008 0.337423
268.437225 -79.158485 -0.000003 0.335164
272.059082 -77.705849 0.000005 0.341115
274.371216 -76.778503 -0.000006 0.527413
275.978302 -76.133942 -0.000004 0.497887
277.162323 -75.659058 -0.000004 0.565209
nan nan nan 0.000000
nan nan nan 0.000000
nan nan nan 0.000000
nan nan nan 0.000000
237.315750 -91.258644 7.841257 0.093126
237.752319 -91.087074 6.124894 0.724819
237.752319 -91.087074 4.471398 0.711345
237.032959 -91.369781 2.835858 0.000000
237.032959 -91.369781 1.164141 0.000000
246.682587 -87.577530 -0.000020 0.544442
261.871368 -81.608429 -0.000010 0.339345
268.392426 -79.045685 -0.000004 0.336690
272.024353 -77.618362 0.000005 0.337667
274.342926 -76.707184 -0.000006 0.522087
275.954468 -76.073853 -0.000005 0.535836
277.141754 -75.607246 -0.000004 0.552636
nan nan nan 0.000000
nan nan nan 0.000000
nan nan nan 0.000000
nan nan nan 0.000000
236.914902 -91.033119 7.874830 0.115679
237.743561 -90.714127 6.114479 0.705974
237.743546 -90.714127 4.465158 0.666590
236.961761 -91.015083 2.834841 0.678431
236.961761 -91.015083 1.165159 0.678431
246.579575 -87.312645 -0.000020 0.539834
261.809692 -81.449699 -0.000004 0.336904
268.348450 -78.932571 -0.000004 0.338674
271.990143 -77.530670 -0.000006 0.537957
274.315094 -76.635666 -0.000006 0.543145
275.931030 -76.013603 -0.000004 0.567346
277.121552 -75.555298 -0.000004 0.528756
nan nan nan 0.000000
nan nan nan 0.000000
nan nan nan 0.000000
nan nan nan 0.000000
235.988052 -91.001503 7.973175 0.541665
237.575134 -90.403236 6.118310 0.678431
237.966690 -90.255630 4.446895 0.661845
236.964355 -90.633469 2.832578 0.678431
236.964355 -90.633469 1.167422 0.678431
246.478378 -87.047043 -0.000020 0.540398
261.863251 -81.247528 0.010001 1.000000
268.305237 -78.819153 -0.000005 0.335576
271.956635 -77.442703 -0.000007 0.547768
274.287781 -76.563957 -0.000005 0.540658
275.908020 -75.953194 -0.000004 0.548424
277.101715 -75.503212 -0.000004 0.527779
nan nan nan 0.000000
nan nan nan 0.000000
nan nan nan 0.000000
nan nan nan 0.000000
234.899429 -91.016846 8.091131 0.096025
237.577667 -90.028549 6.107377 0.678431
237.605881 -90.018135 4.459426 0.160784
236.700775 -90.352127 2.835010 0.504189
236.700775 -90.352127 1.164989 0.575860
246.379059 -86.780754 -0.000021 0.534463
261.689484 -81.131050 -0.000011 0.338125
268.262817 -78.705437 -0.000005 0.333516
271.923737 -77.354515 -0.000007 0.544335
274.260956 -76.492058 -0.000005 0.513039
275.885406 -75.892616 -0.000005 0.548821
277.082245 -75.450981 -0.000004 0.438941
nan nan nan 0.000000
nan nan nan 0.000000
nan nan nan 0.000000
nan nan nan 0.000000
233.831055 -91.009621 8.206303 0.094987
237.030670 -89.854248 6.144610 0.678431
237.103958 -89.827789 4.479382 0.160784
235.671097 -90.345192 2.850799 0.549996
235.671097 -90.345192 1.149201 0.664652
246.281586 -86.513763 -0.000020 0.542641
261.631104 -80.971085 -0.000010 0.337682
268.221191 -78.591423 -0.000007 0.335836
271.891479 -77.266090 -0.000007 0.544076
274.234650 -76.419975 -0.000005 0.539361
275.863251 -75.831894 -0.000004 0.557427
277.063110 -75.398621 -0.000004 0.586496
nan nan nan 0.000000
nan nan nan 0.000000
nan nan nan 0.000000
nan nan nan 0.000000
232.682709 -91.015816 8.330952 0.348379
236.065918 -89.820778 6.218184 0.165606
236.065918 -89.820778 4.527291 0.161013
234.601654 -90.337997 2.867240 0.545632
234.601654 -90.337997 1.132760 0.616053
246.185989 -86.246109 -0.000021 0.542565
261.573914 -80.810699 -0.000005 0.335927
268.180359 -78.477127 -0.000007 0.336324
271.859802 -77.177444 -0.000007 0.528542
274.208832 -76.347710 -0.000005 0.506905
275.841492 -75.771011 -0.000004 0.568231
277.044373 -75.346123 -0.000003 0.565637
nan nan nan 0.000000
nan nan nan 0.000000
nan nan nan 0.000000
nan nan nan 0.000000
231.568069 -90.994339 8.451194 0.094804
234.907135 -89.841049 6.308433 0.678523
234.907135 -89.841049 4.581362 0.678431
233.550705 -90.309547 2.883323 0.700557
233.550705 -90.309547 1.116677 0.676829
246.092255 -85.977783 -0.000020 0.541207
261.517700 -80.649948 -0.000007 0.337453
268.140320 -78.362541 -0.000007 0.340414
271.828766 -77.088577 -0.000006 0.536645
274.183533 -76.275261 -0.000005 0.522423
275.820190 -75.709976 -0.000004 0.559258
277.026001 -75.293503 -0.000004 0.480049
nan nan nan 0.000000
nan nan nan 0.000000
nan nan nan 0.000000
nan nan nan 0.000000
230.368149 -90.986229 8.581526 0.102617
233.782562 -89.833527 6.395495 0.679942
233.782578 -89.833527 4.633524 0.678431
232.365128 -90.312057 2.901696 0.669749
232.365128 -90.312050 1.098304 0.679530
246.000427 -85.708817 -0.000020 0.539437
261.462708 -80.488792 -0.000006 0.337469
268.101105 -78.247688 -0.000007 0.338140
271.798370 -76.999504 -0.000006 0.533761
274.158752 -76.202644 -0.000005 0.501686
275.799286 -75.648796 -0.000004 0.578073
277.007965 -75.240753 -0.000004 0.564858
nan nan nan 0.000000
nan nan nan 0.000000
nan nan nan 0.000000
nan nan nan 0.000000
nan nan nan 0.000000
232.612030 -89.825546 6.486331 0.664179
232.612030 -89.825546 4.687949 0.678431
231.129578 -90.314514 2.920887 0.723583
231.129578 -90.314514 1.079112 0.331334
245.910461 -85.439209 -0.000020 0.542321
261.408813 -80.327255 -0.000004 0.335821
268.062683 -78.132561 -0.000008 0.334539
271.768555 -76.910217 -0.000006 0.596231
274.134460 -76.129852 -0.000005 0.533074
275.778839 -75.587471 -0.000004 0.547021
276.990326 -75.187874 -0.000004 0.589364
nan nan nan 0.000000
nan nan nan 0.000000
nan nan nan 0.000000
nan nan nan 0.000000
nan nan nan 0.000000
231.477295 -89.789757 6.573884 0.287709
231.477280 -89.789757 4.740407 0.272526
229.993179 -90.267807 2.938332 0.693507
229.993179 -90.267807 1.061669 0.675471
245.822388 -85.168983 -0.000019 0.534340
261.356049 -80.165352 -0.000003 0.338735
268.025055 -78.017166 -0.000008 0.338735
271.739380 -76.820724 -0.000006 0.529549
274.110657 -76.056900 -0.000005 0.556802
275.758789 -75.526009 -0.000004 0.575372
276.973053 -75.134880 -0.000004 0.503639
nan nan nan 0.000000
nan nan nan 0.000000
nan nan nan 0.000000
nan nan nan 0.000000
nan nan nan 0.000000
231.331207 -89.427467 6.576289 0.684382
231.331146 -89.427490 4.741850 0.683467
228.765045 -90.234337 2.957316 0.700130
228.765045 -90.234337 1.042685 0.675120
245.736176 -84.898155 -0.000020 0.553780
261.304443 -80.003082 -0.000002 0.337987
268.071228 -77.875420 0.009999 1.000000
271.710846 -76.731026 -0.000006 0.528511
274.087402 -75.983772 -0.000005 0.556786
275.739197 -75.464409 -0.000004 0.528695
276.956146 -75.081764 -0.000004 0.543313
nan nan nan 0.000000
nan nan nan 0.000000
nan nan nan 0.000000
nan nan nan 0.000000
nan nan nan 0.000000
229.370255 -89.621475 6.734561 0.709041
229.370209 -89.621490 4.836679 0.724529
227.197678 -90.287956 2.982069 0.581674
227.197678 -90.287956 1.017930 0.622751
245.846207 -84.567116 0.009966 1.000000
261.253937 -79.840454 -0.000000 0.337163
268.035431 -77.760078 0.010003 1.000000
271.682922 -76.641136 -0.000006 0.540368
274.064636 -75.910492 -0.000005 0.542138
275.720001 -75.402664 -0.000004 0.558022
276.939606 -75.028526 -0.000004 0.544762
nan nan nan 0.000000
nan nan nan 0.000000
nan nan nan 0.000000
nan nan nan 0.000000
nan nan nan 0.000000
227.994781 -89.612183 6.842277 0.735195
228.365433 -89.501305 4.882206 0.697398
225.768066 -90.278305 3.004414 0.592523
225.768066 -90.278305 0.995586 0.565103
245.570068 -84.354538 0.000010 0.338521
261.204559 -79.677475 0.000001 0.338277
267.917023 -77.669449 -0.000011 0.333257
271.655640 -76.551048 -0.000006 0.553780
274.042389 -75.837051 -0.000005 0.541466
275.701263 -75.340797 -0.000004 0.512093
276.923462 -74.975182 -0.000004 0.540993
nan nan nan 0.000000
nan nan nan 0.000000
nan nan nan 0.000000
nan nan nan 0.000000
nan nan nan 0.000000
226.555206 -89.602455 6.955257 0.730800
225.944366 -89.780548 5.000162 0.678431
224.193909 -90.290909 3.029176 0.687388
224.193909 -90.290909 0.970824 0.669474
245.489578 -84.081955 0.000012 0.337789
261.156342 -79.514160 0.000002 0.337285
267.882660 -77.553047 -0.000011 0.340261
271.628967 -76.460770 -0.000006 0.544137
274.020630 -75.763458 -0.000005 0.534005
275.682953 -75.278793 -0.000004 0.519921
276.907654 -74.921722 -0.000004 0.563012
nan nan nan 0.000000
nan nan nan 0.000000
nan nan nan 0.000000
nan nan nan 0.000000
nan nan nan 0.000000
225.046783 -89.592270 7.073887 0.722240
225.768784 -89.387222 5.003107 0.664958
222.704086 -90.257591 3.052454 0.615854
222.704086 -90.257591 0.947545 0.590326
245.410950 -83.808838 0.000011 0.338872
261.109283 -79.350517 0.000004 0.336675
267.849121 -77.436401 -0.000008 0.549661
271.602936 -76.370316 -0.000006 0.550805
273.999420 -75.689713 -0.000005 0.560586
275.665070 -75.216667 -0.000004 0.533196
276.892242 -74.868156 -0.000003 0.509071
nan nan nan 0.000000
nan nan nan 0.000000
nan nan nan 0.000000
nan nan nan 0.000000
nan nan nan 0.000000
223.464233 -89.581581 7.198600 0.725200
223.938599 -89.450432 5.090521 0.696834
210.443756 -93.181358 3.258552 0.229694
210.457397 -93.177589 0.741681 0.086275
245.334305 -83.535156 0.000013 0.338872
261.063354 -79.186539 0.000005 0.337606
267.816345 -77.319534 -0.000008 0.506233
271.577545 -76.279678 -0.000006 0.532753
273.978729 -75.615822 -0.000005 0.551568
275.647644 -75.154419 -0.000004 0.540063
276.877197 -74.814476 -0.000004 0.538155
nan nan nan 0.000000
nan nan nan 0.000000
nan nan nan 0.000000
nan nan nan 0.000000
216.551147 -90.982651 10.103395 0.407111
221.801804 -89.570381 7.329867 0.730861
221.145844 -89.746811 5.226719 0.678431
210.446350 -92.624649 3.256112 0.202884
210.461105 -92.620682 0.744138 0.086275
245.259521 -83.260956 0.000013 0.338048
261.018555 -79.022255 0.000007 0.338003
267.784424 -77.202438 -0.000008 0.543679
271.552765 -76.188866 -0.000006 0.541939
273.958527 -75.541794 -0.000005 0.519829
275.630615 -75.092049 -0.000004 0.570932
276.862549 -74.760704 -0.000003 0.541756
nan nan nan 0.000000
nan nan nan 0.000000
nan nan nan 0.000000
nan nan nan 0.000000
216.447662 -90.501411 10.100710 0.410346
216.976974 -90.362999 7.728923 0.398169
215.458084 -90.760185 5.509565 0.406638
211.170593 -91.881355 3.241538 0.481651
210.464935 -92.065880 0.746525 0.040681
245.186691 -82.986237 0.000015 0.339391
260.974915 -78.857651 0.000009 0.337667
267.753326 -77.085121 -0.000008 0.545052
271.528625 -76.097885 -0.000006 0.533806
273.938843 -75.467621 -0.000005 0.493400
275.614044 -75.029564 -0.000004 0.539818
276.848236 -74.706818 -0.000004 0.545846
nan nan nan 0.000000
nan nan nan 0.000000
nan nan nan 0.000000
nan nan nan 0.000000
215.997650 -90.108521 10.139558 0.408087
216.999634 -89.853966 7.716706 0.422415
217.739349 -89.666046 5.387624 0.378500
210.670593 -91.461876 3.247748 0.416342
210.468643 -91.513184 0.748841 0.678431
245.115799 -82.711006 0.000017 0.339498
260.932434 -78.692757 0.000009 0.338582
267.723022 -76.967590 -0.000008 0.519112
271.505127 -76.006737 -0.000006 0.535027
273.919708 -75.393311 -0.000005 0.549722
275.597900 -74.966957 -0.000004 0.539788
276.834351 -74.652847 -0.000004 0.534234
nan nan nan 0.000000
nan nan nan 0.000000
nan nan nan 0.000000
nan nan nan 0.000000
216.187668 -89.552917 10.102837 0.389181
214.029755 -90.085129 7.957538 0.389212
217.619812 -89.199699 5.387757 0.392248
216.215698 -89.546005 3.152111 0.394949
215.478882 -89.727730 0.835469 0.467369
245.046753 -82.435310 0.000015 0.338293
260.891113 -78.527565 0.000011 0.337423
267.693542 -76.849854 -0.000008 0.540978
271.482269 -75.915428 -0.000006 0.520470
273.901062 -75.318871 -0.000005 0.570642
275.582214 -74.904251 -0.000004 0.531624
276.820801 -74.598770 -0.000004 0.549554
nan nan nan 0.000000
nan nan nan 0.000000
nan nan nan 0.000000
nan nan nan 0.000000
216.885498 -88.880363 10.006558 0.415824
216.327240 -89.013924 7.753743 0.450980
218.036850 -88.604912 5.360951 0.410651
210.545258 -90.397202 3.245569 0.597910
208.439621 -90.900955 0.719002 0.409354
244.979706 -82.159111 0.000018 0.338048
260.850922 -78.362083 0.000013 0.338476
267.664886 -76.731911 -0.000008 0.551324
271.460052 -75.823959 -0.000006 0.539239
273.882965 -75.244308 -0.000005 0.520958
275.566956 -74.841423 -0.000004 0.484688
276.807648 -74.544601 -0.000003 0.543755
nan nan nan 0.000000
nan nan nan 0.000000
nan nan nan 0.000000
nan nan nan 0.000000
216.426605 -88.487999 10.047593 0.412039
216.131287 -88.556480 7.760782 0.384176
216.817062 -88.397469 5.416942 0.405661
215.105652 -88.794289 3.166915 0.402258
206.089813 -90.884804 0.681635 0.659770
244.914520 -81.882477 0.000016 0.337530
260.811890 -78.196335 0.000013 0.337957
267.637054 -76.613777 -0.000008 0.541054
271.438477 -75.732338 -0.000006 0.549508
273.865356 -75.169617 -0.000005 0.498878
275.552124 -74.778503 -0.000004 0.521385
276.794861 -74.490349 -0.000003 0.527565
nan nan nan 0.000000
nan nan nan 0.000000
nan nan nan 0.000000
nan nan nan 0.000000
nan nan nan 0.000000
215.501587 -88.195160 7.804530 0.381552
214.294342 -88.466217 5.538523 0.420233
214.882416 -88.334183 3.168803 0.402945
203.598663 -90.867676 0.641955 0.611765
244.851318 -81.605377 0.000018 0.337499
260.773987 -78.030319 0.000012 0.338018
267.610077 -76.495445 -0.000008 0.540093
271.417542 -75.640564 -0.000006 0.554971
273.848297 -75.094803 -0.000004 0.510704
275.537750 -74.715469 -0.000004 0.537514
276.782471 -74.436005 -0.000003 0.609033
nan nan nan 0.000000
nan nan nan 0.000000
nan nan nan 0.000000
nan nan nan 0.000000
214.646545 -87.875153 10.231956 0.411063
216.133087 -87.552269 7.742598 0.403738
204.994568 -89.971603 6.000591 0.657176
203.943298 -90.199936 3.350182 0.716854
200.952820 -90.849480 0.599741 0.468803
244.790009 -81.327858 0.000018 0.338857
260.856506 -77.838150 0.010017 1.000000
267.583893 -76.376930 -0.000008 0.544244
271.397247 -75.548653 -0.000005 0.559335
273.831726 -75.019867 -0.000005 0.524254
275.523804 -74.652344 -0.000004 0.562280
276.770447 -74.381569 -0.000003 0.521782
nan nan nan 0.000000
nan nan nan 0.000000
nan nan nan 0.000000
nan nan nan 0.000000
nan nan nan 0.000000
nan nan nan 0.000000
201.858551 -90.048958 6.152051 0.678065
201.227081 -90.181503 3.393589 0.729046
198.137024 -90.830132 0.554745 0.678431
244.730698 -81.049896 0.000020 0.337667
260.701691 -77.697517 0.000011 0.335286
267.558533 -76.258232 -0.000008 0.541192
271.377594 -75.456604 -0.000006 0.562524
273.815704 -74.944824 -0.000004 0.514412
275.510315 -74.589127 -0.000004 0.564843
276.758789 -74.327057 -0.000003 0.519936
nan nan nan 0.000000
nan nan nan 0.000000
nan nan nan 0.000000
nan nan nan 0.000000
nan nan nan 0.000000
nan nan nan 0.000000
199.237701 -89.977997 6.277448 0.678431
198.330353 -90.161850 3.439947 0.729580
195.134186 -90.809479 0.506689 0.460548
244.673264 -80.771553 0.000019 0.338796
260.667023 -77.530800 -0.000010 0.526558
267.534027 -76.139366 -0.000007 0.554437
271.358582 -75.364410 -0.000006 0.562707
273.800201 -74.869675 -0.000005 0.555169
275.497253 -74.525810 -0.000004 0.516228
276.747528 -74.272469 -0.000004 0.605417
nan nan nan 0.000000
nan nan nan 0.000000
nan nan nan 0.000000
nan nan nan 0.000000
nan nan nan 0.000000
nan nan nan 0.000000
194.509552 -90.282379 6.508180 0.267903
195.234070 -90.140823 3.489572 0.730739
nan nan nan 0.000000
244.617844 -80.492798 0.000021 0.338750
260.633789 -77.363785 -0.000010 0.521965
267.510345 -76.020325 -0.000008 0.532067
271.340210 -75.272095 -0.000005 0.555444
273.785248 -74.794411 -0.000005 0.571298
275.484619 -74.462402 -0.000004 0.553323
276.736664 -74.217796 -0.000004 0.535515
nan nan nan 0.000000
nan nan nan 0.000000
nan nan nan 0.000000
nan nan nan 0.000000
nan nan nan 0.000000
nan nan nan 0.000000
nan nan nan 0.000000
nan nan nan 0.000000
nan nan nan 0.000000
244.564301 -80.213676 0.000020 0.338293
260.601746 -77.196548 -0.000010 0.542062
267.487488 -75.901131 -0.000008 0.553353
271.322479 -75.179649 -0.000006 0.503502
273.770782 -74.719048 -0.000005 0.561303
275.472443 -74.398911 -0.000004 0.535576
276.726166 -74.163055 -0.000004 0.543206
nan nan nan 0.000000
nan nan nan 0.000000
nan nan nan 0.000000
nan nan nan 0.000000
nan nan nan 0.000000
nan nan nan 0.000000
nan nan nan 0.000000
nan nan nan 0.000000
nan nan nan 0.000000
244.512787 -79.934174 0.000023 0.339681
260.570831 -77.029083 -0.000010 0.543313
267.465454 -75.781769 -0.000007 0.546975
271.305389 -75.087082 -0.000005 0.529580
273.756866 -74.643585 -0.000004 0.507393
275.460724 -74.335335 -0.000004 0.501274
276.716034 -74.108238 -0.000004 0.548165
299.462830 -70.100296 5.785574 0.678431
299.462860 -70.100296 5.264066 0.678431
299.462860 -70.100296 4.749879 0.678431
299.263458 -70.134933 4.211760 0.839216
299.363159 -70.117615 3.726954 0.519112
299.363159 -70.117615 3.230887 0.678431
299.363159 -70.117615 2.737476 0.678431
299.363159 -70.117615 2.245650 0.678431
299.363159 -70.117615 1.754350 0.678431
299.363159 -70.117615 1.262524 0.678431
299.363159 -70.117615 0.769113 0.678431
299.363159 -70.117615 0.273046 0.678431
297.856995 -70.379250 -0.000007 0.550393
295.402466 -70.805626 -0.000005 0.554818
293.696503 -71.101974 -0.000003 0.536965
292.400269 -71.327141 0.009999 1.000000
299.519196 -70.197876 5.795392 0.678431
299.519196 -70.197876 5.272530 0.678431
299.519196 -70.197876 4.757010 0.678431
299.319031 -70.231209 4.217496 0.346120
299.419128 -70.214539 3.731432 0.473259
299.419128 -70.214539 3.234078 0.678431
299.419128 -70.214539 2.739388 0.678431
299.419128 -70.214539 2.246287 0.678431
299.419128 -70.214539 1.753713 0.678431
299.419128 -70.214539 1.260612 0.678431
299.419128 -70.214539 0.765921 0.678431
299.419128 -70.214539 0.268568 0.678431
297.872772 -70.472046 -0.000008 0.547799
295.415344 -70.881279 -0.000005 0.536767
293.707336 -71.165710 -0.000004 0.536278
292.409576 -71.381821 0.009999 1.000000
299.575836 -70.295967 5.805445 0.678431
299.575836 -70.295959 5.281199 0.678431
299.575836 -70.295959 4.764313 0.678431
299.374939 -70.327980 4.223369 0.651179
299.448944 -70.316185 3.732939 0.062745
299.448944 -70.316185 3.235153 0.094118
299.448944 -70.316185 2.740032 0.094118
299.448944 -70.316185 2.246501 0.062745
299.448944 -70.316185 1.753499 0.063111
299.448944 -70.316185 1.259968 0.094118
299.448944 -70.316185 0.764847 0.081987
299.448944 -70.316185 0.267061 0.094118
297.887909 -70.564949 -0.000007 0.533974
295.427673 -70.957016 -0.000005 0.575662
293.717743 -71.229515 -0.000004 0.510719
292.457916 -71.430283 0.000004 0.346166
299.632782 -70.394577 5.815738 0.678431
299.632782 -70.394577 5.290072 0.678431
299.632782 -70.394577 4.771789 0.678431
299.431122 -70.425270 4.229383 0.778286
299.531952 -70.409927 3.740714 0.338415
299.531952 -70.409927 3.240694 0.678431
299.531952 -70.409927 2.743352 0.678431
299.531952 -70.409927 2.247607 0.678431
299.531952 -70.409927 1.752393 0.678431
299.531952 -70.409927 1.256648 0.678431
299.531952 -70.409927 0.759305 0.678431
299.531952 -70.409927 0.259286 0.678431
297.902405 -70.657959 -0.000007 0.565789
295.439514 -71.032837 -0.000005 0.559365
293.727692 -71.293388 -0.000004 0.533257
292.466492 -71.485359 0.000005 0.335988
299.628998 -70.502586 5.810819 0.818372
299.628998 -70.502586 5.285831 0.652888
299.628998 -70.502586 4.768216 0.465782
299.487610 -70.523102 4.235539 0.372808
299.562195 -70.512276 3.742424 0.062745
299.562195 -70.512276 3.241913 0.094118
299.562195 -70.512276 2.744082 0.082231
299.562195 -70.512276 2.247851 0.062745
299.562195 -70.512276 1.752150 0.094118
299.562195 -70.512276 1.255917 0.091142
299.562195 -70.512276 0.758086 0.088731
299.562195 -70.512276 0.257576 0.086275
297.916229 -70.751068 -0.000008 0.541650
295.450775 -71.108742 -0.000005 0.561746
293.737183 -71.357338 -0.000004 0.552010
292.474670 -71.540497 0.000004 0.347158
299.544434 -70.621468 5.785671 0.562814
299.544434 -70.621468 5.264149 0.477913
299.544434 -70.621468 4.749949 0.660471
299.544434 -70.621468 4.241838 0.522637
299.625671 -70.610268 3.748072 0.099077
299.646027 -70.607452 3.247626 0.678431
299.646027 -70.607452 2.747505 0.678431
299.646027 -70.607452 2.248991 0.678431
299.646027 -70.607452 1.751009 0.678431
299.646027 -70.607452 1.252495 0.678431
299.646027 -70.607452 0.752374 0.678431
299.646027 -70.607452 0.249561 0.678431
297.929443 -70.844261 -0.000008 0.543236
295.461548 -71.184715 -0.000006 0.524315
293.746246 -71.421349 -0.000004 0.531685
292.482513 -71.595680 -0.000003 0.544823
299.601563 -70.720406 5.796556 0.455436
299.601563 -70.720406 5.273533 0.343297
299.601563 -70.720406 4.757854 0.604807
299.601563 -70.720406 4.248284 0.462501
299.676727 -70.710571 3.752357 0.062745
299.703552 -70.707062 3.251213 0.678431
299.703552 -70.707062 2.749654 0.678431
299.703552 -70.707062 2.249706 0.678431
299.703552 -70.707062 1.750294 0.678431
299.703552 -70.707062 1.250345 0.678431
299.703552 -70.707062 0.748787 0.678431
299.703552 -70.707062 0.244529 0.678431
297.941956 -70.937553 -0.000008 0.528435
295.471741 -71.260773 -0.000005 0.495293
293.754883 -71.485420 -0.000004 0.541482
292.489929 -71.650925 -0.000003 0.484459
299.659027 -70.819908 5.807687 0.676539
299.659027 -70.819908 5.283132 0.272923
299.659027 -70.819916 4.765941 0.672923
299.659027 -70.819916 4.254876 0.678172
299.734467 -70.810577 3.757495 0.031373
299.761414 -70.807243 3.254882 0.678431
299.761414 -70.807243 2.751852 0.678431
299.761414 -70.807243 2.250438 0.678431
299.761414 -70.807243 1.749562 0.678431
299.761414 -70.807243 1.248148 0.678431
299.761414 -70.807243 0.745118 0.678431
299.761414 -70.807243 0.239381 0.678431
297.953857 -71.030930 -0.000008 0.554650
295.481445 -71.336891 -0.000006 0.556603
293.763031 -71.549545 -0.000004 0.511803
292.496979 -71.706223 -0.000003 0.596887
299.716827 -70.920013 5.819070 0.743999
299.716827 -70.920013 5.292947 0.575738
299.716827 -70.920013 4.774210 0.494392
299.716827 -70.920013 4.261617 0.754131
299.792572 -70.911179 3.762750 0.031373
299.819611 -70.908020 3.258633 0.678431
299.819611 -70.908020 2.754100 0.678431
299.819611 -70.908020 2.251187 0.678431
299.819611 -70.908020 1.748813 0.678431
299.819611 -70.908020 1.245900 0.678431
299.819611 -70.908020 0.741366 0.678431
299.819611 -70.908020 0.234118 0.678431
297.965088 -71.124382 -0.000008 0.545953
295.490601 -71.413078 -0.000006 0.558022
293.770752 -71.613731 -0.000004 0.562737
292.503632 -71.761566 -0.000003 0.528969
299.774994 -71.020714 5.830711 0.390692
299.774994 -71.020714 5.302983 0.774548
299.774994 -71.020714 4.782665 0.468269
299.774994 -71.020714 4.268510 0.391012
299.851013 -71.012383 3.768123 0.031373
299.878174 -71.009407 3.262469 0.678431
299.878174 -71.009407 2.756398 0.678431
299.878174 -71.009407 2.251953 0.678431
299.878174 -71.009407 1.748047 0.678431
299.878174 -71.009407 1.243601 0.678431
299.878174 -71.009407 0.737530 0.678431
299.878174 -71.009407 0.228735 0.678431
297.975677 -71.217918 -0.000008 0.536934
295.499237 -71.489334 -0.000005 0.516243
293.778015 -71.677971 -0.000004 0.571572
292.509888 -71.816956 -0.000003 0.519814
299.833496 -71.122040 5.842609 0.391089
299.833496 -71.122040 5.313243 0.735210
299.833496 -71.122040 4.791309 0.340200
299.833496 -71.122040 4.275557 0.372992
299.909821 -71.114212 3.773615 0.075349
299.937073 -71.111420 3.266390 0.678431
299.937073 -71.111420 2.758748 0.678431
299.937073 -71.111420 2.252735 0.678431
299.937073 -71.111420 1.747265 0.678431
299.937073 -71.111420 1.241252 0.678431
299.937073 -71.111420 0.733609 0.678431
299.937073 -71.111420 0.223234 0.678431
297.985596 -71.311523 -0.000008 0.532189
295.507324 -71.565636 -0.000006 0.516854
293.784821 -71.742264 -0.000004 0.524590
292.515778 -71.872391 -0.000003 0.557015
299.892395 -71.223999 5.854770 0.645365
299.892395 -71.223999 5.323729 0.606561
299.892395 -71.223999 4.800143 0.746303
299.892395 -71.223999 4.282758 0.758129
299.968994 -71.216682 3.779228 0.102174
299.968994 -71.216682 3.268146 0.094118
299.968994 -71.216682 2.759799 0.094118
299.968994 -71.216682 2.253085 0.065812
299.968994 -71.216682 1.746914 0.094118
299.968994 -71.216682 1.240201 0.065812
299.969025 -71.216682 0.731854 0.065812
299.968994 -71.216682 0.220771 0.090196
297.994873 -71.405190 -0.000008 0.542733
295.514893 -71.642006 -0.000005 0.519493
293.791199 -71.806595 -0.000004 0.509865
292.521271 -71.927856 -0.000003 0.558618
299.951660 -71.326614 5.867198 0.331731
299.951660 -71.326614 5.334444 0.497047
299.951660 -71.326614 4.809171 0.443153
299.951660 -71.326614 4.290118 0.555001
300.028564 -71.319809 3.784964 0.144366
300.056030 -71.317383 3.274495 0.678431
300.056030 -71.317383 2.763604 0.678431
300.056030 -71.317383 2.254353 0.678431
300.056030 -71.317383 1.745647 0.678431
300.056030 -71.317383 1.236396 0.678431
300.056030 -71.317383 0.725505 0.678431
300.056030 -71.317383 0.211863 0.484657
298.003510 -71.498924 -0.000008 0.534646
295.521912 -71.718414 -0.000006 0.542092
293.797119 -71.870972 -0.000005 0.546166
292.526367 -71.983368 -0.000003 0.562982
300.011292 -71.429893 5.879895 0.851957
300.011292 -71.429893 5.345393 0.697078
300.011292 -71.429893 4.818395 0.725551
300.011292 -71.429893 4.297637 0.383719
300.088501 -71.423607 3.790825 0.198199
300.116089 -71.421364 3.278680 0.678431
300.116089 -71.421364 2.766111 0.678431
300.116089 -71.421364 2.255188 0.678431
300.116089 -71.421364 1.744812 0.678431
300.116089 -71.421364 1.233889 0.678431
300.116089 -71.421364 0.721320 0.678431
300.102600 -71.422462 0.207549 0.321340
298.011475 -71.592712 -0.000009 0.541451
295.528412 -71.794876 -0.000006 0.540749
293.802582 -71.935387 -0.000005 0.532815
292.531097 -72.038910 -0.000003 0.565484
300.281708 -71.518211 5.945710 0.678431
300.281708 -71.518211 5.402141 0.678431
300.281708 -71.518211 4.866203 0.678431
300.071350 -71.533867 4.305319 0.335073
300.148834 -71.528099 3.796812 0.264897
300.176544 -71.526039 3.282955 0.678431
300.176544 -71.526039 2.768672 0.678431
300.176544 -71.526039 2.256041 0.678431
300.176544 -71.526039 1.743959 0.678431
300.176544 -71.526039 1.231328 0.678431
300.176544 -71.526039 0.717045 0.678431
300.150391 -71.527985 0.203010 0.190600
298.018768 -71.686562 -0.000009 0.495888
295.534363 -71.871384 -0.000006 0.558129
293.807617 -71.999840 -0.000005 0.490822
292.535431 -72.094482 -0.000003 0.578378
300.342987 -71.624306 5.959140 0.678431
300.342987 -71.624306 5.413720 0.678431
300.342987 -71.624306 4.875957 0.678431
300.131775 -71.638535 4.313166 0.520684
300.209595 -71.633293 3.802927 0.310445
300.209595 -71.633293 3.285037 0.083650
300.209595 -71.633293 2.769920 0.098711
300.209595 -71.633293 2.256457 0.067826
300.209595 -71.633293 1.743544 0.095155
300.209595 -71.633293 1.230080 0.095155
300.209595 -71.633293 0.714963 0.095155
300.209595 -71.633293 0.197073 0.068635
298.025421 -71.780449 -0.000009 0.567330
295.539795 -71.947922 -0.000006 0.537575
293.812195 -72.064323 -0.000005 0.523842
292.539368 -72.150085 -0.000003 0.567834
300.404663 -71.731125 5.972856 0.678431
300.404663 -71.731125 5.425546 0.678431
300.404663 -71.731125 4.885921 0.678431
300.192657 -71.743927 4.321179 0.924224
300.195160 -71.743774 3.800460 0.447181
300.298676 -71.737526 3.291781 0.678431
300.298676 -71.737526 2.773960 0.678431
300.298676 -71.737526 2.257803 0.678431
300.298676 -71.737526 1.742197 0.678431
300.298676 -71.737526 1.226039 0.678431
300.298676 -71.737526 0.708218 0.678431
300.270782 -71.739212 0.190826 0.063294
298.031433 -71.874390 -0.000009 0.537789
295.544678 -72.024506 -0.000006 0.544457
293.816315 -72.128838 -0.000005 0.560555
292.542908 -72.205711 -0.000004 0.532921
300.466797 -71.838692 5.986861 0.678431
300.466797 -71.838692 5.437623 0.678431
300.466797 -71.838692 4.896094 0.678431
300.253937 -71.850052 4.329362 0.897307
300.253937 -71.850052 3.806517 0.406897
300.360352 -71.844376 3.296335 0.678431
300.360382 -71.844376 2.776689 0.678431
300.360382 -71.844376 2.258711 0.678431
300.360382 -71.844376 1.741289 0.678431
300.360382 -71.844376 1.223311 0.678431
300.360382 -71.844376 0.703665 0.678431
300.332367 -71.845871 0.184449 0.077455
298.036774 -71.968369 -0.000009 0.542367
295.549042 -72.101120 -0.000006 0.566079
293.819977 -72.193382 -0.000005 0.485969
292.546082 -72.261360 -0.000004 0.523507
300.529358 -71.947029 6.001161 0.556649
300.529358 -71.947029 5.449953 0.563958
300.529358 -71.947029 4.906483 0.437308
300.315674 -71.956940 4.337718 0.867933
300.315674 -71.956940 3.812998 0.518547
300.394409 -71.953285 3.298677 0.094118
300.394409 -71.953285 2.778092 0.094118
300.394409 -71.953285 2.259179 0.062745
300.394409 -71.953285 1.740821 0.088975
300.394409 -71.953285 1.221908 0.083818
300.394409 -71.953285 0.701323 0.089754
300.394409 -71.953285 0.177936 0.090318
298.041473 -72.062378 -0.000009 0.556603
295.552856 -72.177757 -0.000006 0.561410
293.823212 -72.257950 -0.000005 0.540002
292.548859 -72.317039 -0.000003 0.569253
300.456879 -72.061485 5.981797 0.425055
300.456879 -72.061485 5.433255 0.580392
300.456909 -72.061485 4.892417 0.505592
300.377838 -72.064598 4.346248 0.872404
300.377838 -72.064598 3.819613 0.700404
300.485107 -72.060371 3.305732 0.678431
300.485107 -72.060371 2.782319 0.678431
300.485107 -72.060371 2.260587 0.678431
300.485107 -72.060371 1.739413 0.678431
300.485107 -72.060371 1.217681 0.678431
300.485107 -72.060371 0.694268 0.678431
300.456879 -72.061485 0.171287 0.171939
298.045502 -72.156418 -0.000009 0.543206
295.556152 -72.254425 -0.000006 0.521477
293.825958 -72.322540 -0.000005 0.529427
292.551239 -72.372726 -0.000003 0.533761
300.440491 -72.173050 5.976689 0.862013
300.440491 -72.173050 5.428851 0.675105
300.440491 -72.173050 4.888704 0.421469
300.440460 -72.173050 4.354956 0.734936
300.440491 -72.173050 3.826367 0.569284
300.548157 -72.169563 3.310578 0.678431
300.548157 -72.169563 2.785223 0.678431
300.548157 -72.169563 2.261554 0.678431
300.548157 -72.169563 1.738446 0.678431
300.548157 -72.169563 1.214777 0.678431
300.548157 -72.169563 0.689422 0.678431
300.519836 -72.170479 0.164500 0.191241
298.048859 -72.250488 -0.000009 0.557198
295.558899 -72.331108 -0.000007 0.555474
293.828278 -72.387146 -0.000005 0.542153
292.553253 -72.428436 -0.000004 0.548745
300.503601 -72.282318 5.991698 0.629252
300.503601 -72.282318 5.441793 0.928862
300.503601 -72.282318 4.899609 0.460395
300.503571 -72.282318 4.363845 0.602838
300.503601 -72.282318 3.833261 0.850065
300.611694 -72.279572 3.315525 0.678431
300.611694 -72.279572 2.788186 0.678431
300.611694 -72.279572 2.262541 0.678431
300.611694 -72.279572 1.737459 0.678431
300.611694 -72.279572 1.211813 0.678431
300.611694 -72.279572 0.684474 0.678431
300.583252 -72.280296 0.157571 0.103716
298.051605 -72.344582 -0.000009 0.547616
295.561127 -72.407814 -0.000007 0.556298
293.830139 -72.451767 -0.000005 0.541634
292.554871 -72.484154 -0.000004 0.535576
300.567169 -72.392418 6.007018 0.382315
300.567169 -72.392418 5.455002 0.712428
300.567169 -72.392418 4.910736 0.805295
300.567169 -72.392418 4.372918 0.646097
300.567169 -72.392418 3.840297 0.709804
300.675720 -72.390419 3.320574 0.678431
300.675720 -72.390419 2.791211 0.678431
300.675720 -72.390419 2.263549 0.678431
300.675720 -72.390419 1.736451 0.678431
300.675720 -72.390419 1.208788 0.678431
300.675720 -72.390419 0.679426 0.678431
300.630371 -72.391251 0.152433 0.585046
298.053650 -72.438683 -0.000010 0.549310
295.562805 -72.484535 -0.000007 0.501945
293.831573 -72.516403 -0.000005 0.526864
292.556091 -72.539879 -0.000004 0.564233
300.631256 -72.503372 6.022653 0.836011
300.631256 -72.503372 5.468482 0.362921
300.631256 -72.503372 4.922094 0.901045
300.631256 -72.503372 4.382176 0.730724
300.631256 -72.503372 3.847477 0.509621
300.740234 -72.502129 3.325727 0.678431
300.740234 -72.502129 2.794299 0.509255
300.740234 -72.502129 2.264577 0.509255
300.740234 -72.502129 1.735423 0.509255
300.740234 -72.502129 1.205701 0.486183
300.740234 -72.502129 0.674272 0.486183
300.631866 -72.503365 0.152451 0.738354
298.055054 -72.532806 -0.000010 0.559182
295.563934 -72.561264 -0.000007 0.521950
293.832550 -72.581039 -0.000005 0.551308
292.556915 -72.595619 -0.000004 0.550256
300.695831 -72.615196 6.038608 0.717998
300.695831 -72.615196 5.482241 0.383627
300.695831 -72.615196 4.933683 0.519066
300.695831 -72.615196 4.391624 0.671458
300.695831 -72.615196 3.854805 0.852720
300.805267 -72.614716 3.330985 0.678431
300.805267 -72.614716 2.797449 0.678431
300.805267 -72.614716 2.265626 0.678431
300.805267 -72.614716 1.734374 0.678431
300.805267 -72.614716 1.202551 0.678431
300.805267 -72.614716 0.669015 0.678431
300.695831 -72.615196 0.145196 0.582650
298.055817 -72.626930 -0.000010 0.558968
295.564545 -72.637993 -0.000007 0.540459
293.833038 -72.645691 -0.000005 0.520027
292.557343 -72.651360 -0.000004 0.574075
300.760925 -72.727928 6.054887 0.506920
300.760925 -72.727921 5.496276 0.558938
300.760925 -72.727921 4.945509 0.657450
300.760925 -72.727921 4.401265 0.468498
300.760925 -72.727921 3.862281 0.647059
300.870789 -72.728203 3.336350 0.678431
300.870789 -72.728203 2.800664 0.678431
300.870789 -72.728203 2.266697 0.678431
300.870789 -72.728203 1.733303 0.678431
300.870789 -72.728203 1.199336 0.678431
300.870789 -72.728203 0.663649 0.678431
300.760925 -72.727921 0.137719 0.354589
