# This PCD file was generated using the MATLABÂ® pcwrite function
# from Computer Vision ToolboxÂ®.
# .PCD v.7 - Point Cloud Data file format
VERSION .7
FIELDS x y z intensity
SIZE 4 4 4 4
TYPE F F F F
COUNT 1 1 1 1
WIDTH 1209
HEIGHT 1
VIEWPOINT 0 0 0 1 0 0 0
POINTS 1209
DATA ascii
451.447235 -111.795700 0.000047 0.549020
439.157471 -101.059731 0.000028 0.540490
433.881073 -96.450424 0.000001 0.336934
430.942261 -93.883156 0.000002 0.337789
429.066071 -92.244186 -0.000000 0.333196
427.762024 -91.104996 0.000011 0.568063
426.801300 -90.265732 0.000010 0.569604
nan nan nan 0.000000
nan nan nan 0.000000
nan nan nan 0.000000
nan nan nan 0.000000
nan nan nan 0.000000
457.961975 -117.947159 6.072258 0.433158
460.240723 -119.966034 4.589423 0.458473
461.516235 -121.096062 2.890409 0.457115
nan nan nan 0.000000
451.259521 -112.009102 0.000046 0.536797
439.044983 -101.187576 0.000028 0.523278
433.800903 -96.541550 0.000000 0.338537
430.880066 -93.953827 0.000001 0.335332
429.015381 -92.301796 -0.000000 0.329000
427.719330 -91.153534 0.000011 0.558267
426.764465 -90.307579 0.000010 0.528481
nan nan nan 0.000000
nan nan nan 0.000000
nan nan nan 0.000000
nan nan nan 0.000000
nan nan nan 0.000000
460.499207 -120.692963 6.377382 0.448127
455.602600 -116.293411 4.299284 0.428901
nan nan nan 0.000000
nan nan nan 0.000000
451.070313 -112.221169 0.000047 0.545235
438.931641 -101.314636 0.000028 0.546044
433.720093 -96.632111 0.000001 0.339666
430.817413 -94.024063 0.000001 0.333211
428.964294 -92.359062 -0.000001 0.332021
427.676270 -91.201775 0.000011 0.534279
426.727356 -90.349174 0.000010 0.570077
nan nan nan 0.000000
nan nan nan 0.000000
nan nan nan 0.000000
nan nan nan 0.000000
nan nan nan 0.000000
459.872406 -120.626038 6.335591 0.459190
nan nan nan 0.000000
457.021393 -118.028229 2.802143 0.438926
nan nan nan 0.000000
450.879639 -112.431915 0.000046 0.539269
438.817383 -101.440910 0.000028 0.546609
433.638672 -96.722107 0.000001 0.327977
430.754272 -94.093864 0.000000 0.336416
428.912811 -92.415962 -0.000001 0.337194
427.632904 -91.249710 0.000011 0.484718
426.689972 -90.390511 0.000010 0.506203
nan nan nan 0.000000
nan nan nan 0.000000
nan nan nan 0.000000
458.607849 -119.960129 9.638429 0.463981
nan nan nan 0.000000
457.131836 -118.596237 6.057491 0.426474
458.264862 -119.643204 4.506802 0.424887
nan nan nan 0.000000
nan nan nan 0.000000
450.687500 -112.641335 0.000045 0.545220
438.702271 -101.566383 0.000027 0.561898
433.556610 -96.811539 0.000001 0.334218
430.690613 -94.163223 0.000000 0.336156
428.860931 -92.472504 -0.000002 0.337636
427.589203 -91.297348 0.000011 0.554284
426.652283 -90.431580 0.000010 0.555673
nan nan nan 0.000000
nan nan nan 0.000000
nan nan nan 0.000000
458.422424 -120.279060 9.650522 0.466270
460.343353 -122.079109 8.236143 0.454017
459.194458 -121.002518 6.315714 0.454414
457.796234 -119.692261 4.491588 0.441321
456.726257 -118.689613 2.805942 0.436408
nan nan nan 0.000000
450.493896 -112.849403 0.000045 0.535622
438.586273 -101.691040 0.000027 0.537987
433.473938 -96.900391 0.000001 0.339223
430.626495 -94.232132 0.000000 0.338598
428.808685 -92.528687 -0.000002 0.333639
427.545166 -91.344673 0.000011 0.556405
426.614288 -90.472389 0.000010 0.561135
nan nan nan 0.000000
nan nan nan 0.000000
nan nan nan 0.000000
458.249207 -120.611153 9.665642 0.433097
456.333557 -118.790771 7.641015 0.440085
nan nan nan 0.000000
454.889008 -117.418030 4.311032 0.431617
nan nan nan 0.000000
nan nan nan 0.000000
450.298828 -113.056114 0.000045 0.542977
438.469391 -101.814896 0.000027 0.539178
433.390625 -96.988663 0.000001 0.337133
430.561920 -94.300598 -0.000001 0.330968
428.716156 -92.546623 0.010001 1.000000
427.500793 -91.391693 0.000011 0.556848
426.576050 -90.512932 0.000010 0.579675
nan nan nan 0.000000
nan nan nan 0.000000
nan nan nan 0.000000
458.459381 -121.314713 9.760323 0.428840
457.027344 -119.934746 7.789670 0.461082
454.593079 -117.588943 5.849394 0.456306
455.116028 -118.092896 4.342013 0.403677
456.271973 -119.206825 2.806383 0.491478
459.497559 -122.315170 1.120315 0.436713
450.102356 -113.261452 0.000044 0.543633
438.351654 -101.937912 0.000027 0.524987
433.306702 -97.076347 0.000002 0.337118
430.496826 -94.368607 -0.000001 0.342321
428.663391 -92.601807 0.009996 1.000000
427.456085 -91.438400 0.000010 0.582223
426.537506 -90.553200 0.000009 0.535851
nan nan nan 0.000000
nan nan nan 0.000000
nan nan nan 0.000000
457.978027 -121.354980 9.713238 0.426520
456.459686 -119.871246 7.737716 0.459571
454.316559 -117.776993 5.843863 0.445838
454.124176 -117.588989 4.289805 0.431159
456.078796 -119.499069 2.807444 0.576913
nan nan nan 0.000000
449.904419 -113.465408 0.000045 0.534630
438.233093 -102.060120 0.000027 0.526665
433.222198 -97.163452 0.000001 0.337804
430.431274 -94.436157 -0.000001 0.332448
428.610229 -92.656616 0.009993 1.000000
427.411072 -91.484795 0.000010 0.566018
426.498688 -90.593201 0.000009 0.579873
nan nan nan 0.000000
nan nan nan 0.000000
nan nan nan 0.000000
456.520630 -120.421844 9.462065 0.453071
456.104095 -120.009071 7.719679 0.439216
453.974609 -117.898872 5.830886 0.424125
454.775391 -118.692398 4.350629 0.449409
456.486755 -120.388283 2.822409 0.579446
nan nan nan 0.000000
449.705078 -113.667999 0.000044 0.544625
438.113647 -102.181496 0.000026 0.533394
433.137085 -97.249969 -0.000000 0.341970
430.365265 -94.503250 -0.000002 0.333425
428.556610 -92.710983 0.010006 1.000000
427.365723 -91.530869 0.000011 0.533913
426.459595 -90.632935 0.000009 0.578332
nan nan nan 0.000000
nan nan nan 0.000000
nan nan nan 0.000000
455.395081 -119.788696 9.277542 0.441199
456.052948 -120.449768 7.751328 0.424063
454.402313 -118.791061 5.907384 0.425116
454.299164 -118.687408 4.333894 0.456245
456.202026 -120.599548 2.821553 0.572488
458.938721 -123.349625 1.114959 0.457984
449.504333 -113.869171 0.000044 0.538277
437.993378 -102.302032 0.000026 0.537911
433.051331 -97.335884 -0.000000 0.337957
430.298767 -94.569878 -0.000002 0.339208
428.541504 -92.804024 -0.000004 0.346456
427.320068 -91.576630 0.000010 0.503700
426.420227 -90.672394 0.000009 0.535698
411.783813 -75.837311 5.220179 0.645029
411.783417 -75.836922 4.776676 0.289860
411.783417 -75.836922 4.339268 0.692271
411.578522 -75.628128 3.950433 0.678431
411.578522 -75.628128 3.512642 0.678431
411.795410 -75.849121 3.052748 0.687114
411.795410 -75.849121 2.630745 0.592096
411.578522 -75.628128 2.215165 0.678431
411.578522 -75.628128 1.784835 0.678431
411.578522 -75.628128 1.354043 0.678431
411.795410 -75.849121 0.947252 0.669306
411.794067 -75.847755 0.522758 0.272312
411.793152 -75.846848 0.095023 0.615518
413.089355 -77.167679 -0.000011 0.516732
414.302155 -78.403526 -0.000009 0.543404
415.195679 -79.314041 -0.000008 0.444038
411.924103 -75.853218 5.192799 0.644450
411.923828 -75.852943 4.753034 0.675471
411.923828 -75.852943 4.319349 0.670802
411.720917 -75.643265 3.934084 0.678431
411.720917 -75.643265 3.499962 0.678431
411.935364 -75.864845 3.043816 0.692241
411.935364 -75.864845 2.625394 0.683406
411.720917 -75.643265 2.213362 0.678431
411.720917 -75.643265 1.786638 0.678431
411.720917 -75.643265 1.359458 0.678431
411.935364 -75.864853 0.956184 0.687968
411.934143 -75.863602 0.535310 0.636622
411.933228 -75.862671 0.111205 0.584329
413.144318 -77.114120 -0.000011 0.535653
414.348450 -78.358406 -0.000009 0.516823
415.235596 -79.275139 -0.000008 0.550103
412.062012 -75.868858 5.166035 0.517998
412.061859 -75.868698 4.729923 0.671992
412.061859 -75.868698 4.299880 0.396216
411.860962 -75.658157 3.918099 0.678431
411.860962 -75.658157 3.487566 0.678431
412.072937 -75.880310 3.035084 0.674006
412.072968 -75.880310 2.620162 0.651743
411.860962 -75.658157 2.211598 0.678431
411.860962 -75.658157 1.788402 0.678431
411.860962 -75.658157 1.364752 0.678431
412.072968 -75.880310 0.964916 0.693080
412.071930 -75.879242 0.547591 0.673381
412.070953 -75.878227 0.127025 0.634424
413.199646 -77.060951 -0.000011 0.512245
414.395050 -78.313614 -0.000009 0.569390
415.275787 -79.236519 -0.000008 0.530877
412.197693 -75.884277 5.139853 0.660044
412.197632 -75.884201 4.707324 0.574777
412.197632 -75.884201 4.280839 0.659068
411.998688 -75.672798 3.902468 0.678431
411.998688 -75.672798 3.475443 0.678431
412.208282 -75.895508 3.026547 0.673075
412.208282 -75.895508 2.615047 0.611170
411.998688 -75.672798 2.209874 0.678431
411.998688 -75.672798 1.790126 0.678431
411.998688 -75.672798 1.369929 0.678431
412.208282 -75.895508 0.973453 0.701549
412.207367 -75.894547 0.559587 0.690211
412.206421 -75.893547 0.142496 0.653529
413.255341 -77.008163 -0.000011 0.527199
414.441986 -78.269142 -0.000009 0.571527
415.316254 -79.198174 -0.000008 0.563058
412.331177 -75.899452 5.114251 0.665858
412.331177 -75.899445 4.685226 0.476051
412.331177 -75.899445 4.262224 0.647120
412.134216 -75.687202 3.887181 0.678431
412.134216 -75.687202 3.463587 0.678431
412.341370 -75.910454 3.018199 0.638758
412.341370 -75.910454 2.610046 0.401648
412.134216 -75.687202 2.208188 0.678431
412.134216 -75.687202 1.791813 0.678431
412.134216 -75.687210 1.374991 0.678431
412.341370 -75.910454 0.981800 0.654841
412.340607 -75.909615 0.571318 0.693141
412.339630 -75.908585 0.157618 0.656123
413.311401 -76.955772 -0.000011 0.531792
414.489227 -78.225006 -0.000009 0.615885
415.356964 -79.160110 -0.000008 0.595438
412.462555 -75.914444 5.089189 0.623957
412.462524 -75.914444 4.663617 0.692287
412.462524 -75.914444 4.244018 0.659846
412.369507 -75.812767 3.849833 0.654902
412.369507 -75.812767 3.434623 0.654902
412.472351 -75.925171 3.010035 0.342809
412.472351 -75.925171 2.605154 0.395346
412.369507 -75.812767 2.204067 0.647059
412.369507 -75.812767 1.795933 0.647059
412.369507 -75.812767 1.387360 0.647059
412.472351 -75.925171 0.989965 0.563729
412.471680 -75.924438 0.582791 0.700328
412.470734 -75.923416 0.172415 0.666972
413.367828 -76.903770 -0.000011 0.546609
414.536774 -78.181198 -0.000009 0.579583
415.397980 -79.122337 -0.000008 0.585077
412.591827 -75.929199 5.064678 0.656687
412.591827 -75.929199 4.642481 0.601633
412.591827 -75.929199 4.226212 0.607355
412.489868 -75.816216 3.837447 0.654902
412.489868 -75.816208 3.425016 0.647059
412.601257 -75.939651 3.002048 0.512535
412.601257 -75.939651 2.600369 0.477302
412.489868 -75.816208 2.202701 0.647059
412.489868 -75.816208 1.797299 0.647059
412.489868 -75.816208 1.391463 0.654902
412.601257 -75.939651 0.997951 0.300099
412.600677 -75.939026 0.594014 0.610452
412.599731 -75.937981 0.186882 0.592493
413.424622 -76.852165 -0.000011 0.544289
414.584595 -78.137718 -0.000010 0.553292
415.439209 -79.084854 -0.000008 0.555947
412.719055 -75.943703 5.040702 0.443626
412.719055 -75.943710 4.621808 0.536507
412.719055 -75.943710 4.208796 0.193942
412.528076 -75.729057 3.843294 0.678431
412.528076 -75.729057 3.429551 0.678431
412.728119 -75.953911 2.994235 0.589059
412.728119 -75.953911 2.595688 0.597208
412.528076 -75.729057 2.203346 0.678431
412.528076 -75.729057 1.796654 0.678431
412.528076 -75.729057 1.389526 0.678431
412.728119 -75.953911 1.005765 0.328252
412.727661 -75.953392 0.604993 0.347402
412.726746 -75.952347 0.201042 0.280690
413.481781 -76.800957 -0.000011 0.528649
414.632751 -78.094574 -0.000010 0.547341
415.480743 -79.047653 -0.000008 0.529244
412.844360 -75.958023 5.017234 0.267948
412.844360 -75.958023 4.601574 0.609522
412.844360 -75.958023 4.191749 0.647059
412.655365 -75.742599 3.829287 0.678431
412.655365 -75.742592 3.418689 0.678431
412.853058 -75.967934 2.986591 0.665766
412.853058 -75.967934 2.591108 0.556268
412.655365 -75.742592 2.201801 0.678431
412.655365 -75.742592 1.798199 0.678431
412.655365 -75.742592 1.394165 0.678431
412.853058 -75.967934 1.013409 0.614420
412.852753 -75.967590 0.615744 0.457542
412.851746 -75.966454 0.214887 0.678538
413.539276 -76.750145 -0.000011 0.535714
414.681213 -78.051773 -0.000010 0.554559
415.522522 -79.010750 -0.000008 0.556207
412.967743 -75.972115 4.994273 0.677333
412.967743 -75.972115 4.581776 0.641520
412.967743 -75.972115 4.175069 0.664363
412.780731 -75.755928 3.815581 0.678431
412.780731 -75.755928 3.408059 0.678431
412.976074 -75.981750 2.979111 0.664302
412.976074 -75.981750 2.586627 0.678431
412.780731 -75.755928 2.200289 0.678431
412.780731 -75.755928 1.799711 0.678431
412.780731 -75.755928 1.398705 0.678431
412.976074 -75.981750 1.020889 0.648508
412.975861 -75.981506 0.626254 0.636637
412.974884 -75.980377 0.228441 0.652216
413.597137 -76.699745 -0.000011 0.507912
414.729950 -78.009308 -0.000010 0.562463
415.564545 -78.974136 -0.000008 0.533318
413.089233 -75.985992 4.971803 0.668971
413.089233 -75.985985 4.562402 0.655085
413.089233 -75.985985 4.158748 0.665064
412.904236 -75.769066 3.802165 0.678431
412.904236 -75.769066 3.397654 0.678431
413.097229 -75.995361 2.971791 0.688823
413.097229 -75.995361 2.582241 0.667521
412.904236 -75.769066 2.198808 0.678431
412.904236 -75.769066 1.801191 0.678431
412.904236 -75.769066 1.403147 0.678431
413.097229 -75.995361 1.028209 0.685908
413.097137 -75.995224 0.636541 0.627115
413.096161 -75.994095 0.241706 0.679561
413.655365 -76.649742 -0.000011 0.539803
414.778992 -77.967186 -0.000010 0.522148
415.606842 -78.937813 -0.000008 0.571069
413.208954 -75.999649 4.949814 0.606744
413.208954 -75.999649 4.543442 0.560250
413.208954 -75.999649 4.142775 0.616953
413.025940 -75.782013 3.789032 0.678431
413.025940 -75.782013 3.387469 0.678431
413.216614 -76.008774 2.964625 0.687404
413.216614 -76.008774 2.577947 0.671839
413.025940 -75.782013 2.197360 0.678431
413.025940 -75.782013 1.802640 0.678431
413.025940 -75.782013 1.407497 0.678431
413.216614 -76.008774 1.035374 0.685222
413.216583 -76.008743 0.646610 0.657923
413.215607 -76.007576 0.254684 0.665370
413.713928 -76.600151 -0.000011 0.554345
414.828308 -77.925407 -0.000010 0.531411
415.649353 -78.901787 -0.000009 0.536583
413.326904 -76.013100 4.928293 0.459922
413.326904 -76.013100 4.524884 0.523384
413.282257 -75.959251 4.139868 0.606378
413.145905 -75.794769 3.776175 0.678431
413.145905 -75.794769 3.377498 0.678431
413.334259 -76.021996 2.957611 0.694362
413.334259 -76.021988 2.573745 0.670436
413.145905 -75.794769 2.195941 0.678431
413.145905 -75.794769 1.804059 0.678431
413.145874 -75.794769 1.411755 0.678431
413.334259 -76.021996 1.042389 0.671321
413.334259 -76.021988 0.656456 0.650889
413.333344 -76.020889 0.267394 0.727947
413.772827 -76.550964 -0.000012 0.509636
414.877960 -77.883972 -0.000010 0.495064
415.692139 -78.866058 -0.000008 0.452186
413.443176 -76.026398 4.907212 0.649561
413.443176 -76.026398 4.506708 0.661280
413.354126 -75.917473 4.137424 0.622187
413.264130 -75.807350 3.763587 0.678431
413.264130 -75.807343 3.367736 0.678431
413.450226 -76.035011 2.950744 0.690562
413.450226 -76.035011 2.569631 0.674693
413.264130 -75.807350 2.194553 0.678431
413.264130 -75.807350 1.805447 0.678431
413.264130 -75.807343 1.415924 0.678431
413.450226 -76.035011 1.049255 0.651743
413.450226 -76.035011 0.666090 0.665156
413.449402 -76.034004 0.279836 0.373205
413.832062 -76.502197 -0.000012 0.526452
414.927856 -77.842880 -0.000010 0.471839
415.735199 -78.830635 -0.000008 0.482444
413.557739 -76.039444 4.886587 0.650156
413.557739 -76.039444 4.488925 0.622904
413.469330 -75.929726 4.122484 0.654902
413.380707 -75.819748 3.751262 0.678431
413.380707 -75.819748 3.358177 0.678431
413.564514 -76.047859 2.944020 0.648859
413.564514 -76.047859 2.565602 0.671580
413.380707 -75.819748 2.193193 0.678431
413.380707 -75.819748 1.806807 0.678431
413.380707 -75.819748 1.420006 0.678431
413.564514 -76.047859 1.055979 0.651957
413.564514 -76.047852 0.675524 0.407507
413.563751 -76.046913 0.292013 0.628321
413.891663 -76.453842 -0.000012 0.541451
414.978058 -77.802147 -0.000010 0.565530
415.778473 -78.795509 -0.000008 0.587381
413.670746 -76.052361 4.866381 0.621836
413.670746 -76.052361 4.471502 0.616663
413.582947 -75.941811 4.107854 0.654902
413.495697 -75.831978 3.739192 0.678431
413.495697 -75.831978 3.348815 0.678431
413.677216 -76.060516 2.937437 0.656092
413.677216 -76.060516 2.561658 0.668986
413.495697 -75.831978 2.191862 0.678431
413.495697 -75.831978 1.808138 0.678431
413.495697 -75.831978 1.424004 0.678431
413.677216 -76.060516 1.062562 0.666545
413.677216 -76.060509 0.684760 0.458396
413.676544 -76.059669 0.303941 0.661173
413.951569 -76.405907 -0.000012 0.510567
415.028534 -77.761757 -0.000010 0.562509
415.821991 -78.760689 -0.000009 0.532540
413.782166 -76.065086 4.846594 0.400748
413.782166 -76.065079 4.454441 0.206500
413.694977 -75.953735 4.093526 0.647059
413.609100 -75.844040 3.727369 0.678431
413.609100 -75.844040 3.339647 0.682231
413.788361 -76.072998 2.930990 0.469566
413.788361 -76.072998 2.557795 0.673289
413.609100 -75.844040 2.190557 0.678431
413.609100 -75.844040 1.809442 0.678431
413.609100 -75.844040 1.427919 0.678431
413.788361 -76.072998 1.069010 0.592691
413.788361 -76.072998 0.693806 0.636774
413.787781 -76.072235 0.315622 0.671839
414.011810 -76.358391 -0.000012 0.575891
415.079285 -77.721725 -0.000010 0.526772
415.865753 -78.726173 -0.000009 0.524971
413.892059 -76.077629 4.827218 0.680354
413.892059 -76.077621 4.437735 0.647471
413.805511 -75.965485 4.079494 0.647059
413.720978 -75.855942 3.715790 0.678431
413.720978 -75.855942 3.330667 0.695949
413.898010 -76.085312 2.924675 0.426612
413.898010 -76.085312 2.554012 0.667765
413.720978 -75.855942 2.189280 0.678431
413.720978 -75.855942 1.810720 0.678431
413.720978 -75.855942 1.431753 0.678431
413.898010 -76.085320 1.075324 0.318761
413.898010 -76.085312 0.702665 0.622293
413.897491 -76.084641 0.327063 0.654032
414.072418 -76.311295 -0.000012 0.567086
415.130341 -77.682045 -0.000010 0.518639
415.909760 -78.691956 -0.000009 0.538308
414.000488 -76.089989 4.808243 0.675486
414.000488 -76.089996 4.421373 0.655161
413.914581 -75.977074 4.065751 0.648035
413.831360 -75.867683 3.704448 0.678431
413.831360 -75.867683 3.321870 0.709804
414.006165 -76.097466 2.918490 0.427893
414.006165 -76.097466 2.550306 0.672694
413.831360 -75.867683 2.188029 0.678431
413.831360 -75.867683 1.811971 0.678431
413.831360 -75.867683 1.435510 0.678431
414.006165 -76.097466 1.081509 0.376211
414.006165 -76.097458 0.711342 0.662974
414.005707 -76.096878 0.338269 0.655009
414.133301 -76.264618 -0.000012 0.545876
415.181641 -77.642731 -0.000010 0.554437
415.954010 -78.658058 -0.000009 0.520562
414.107452 -76.102188 4.789658 0.650660
414.107452 -76.102188 4.405347 0.653376
414.022217 -75.988510 4.052287 0.662989
413.940308 -75.879272 3.693336 0.678431
413.940308 -75.879272 3.313253 0.709804
414.112885 -76.109459 2.912432 0.646448
414.112885 -76.109459 2.546676 0.678431
413.940308 -75.879272 2.186803 0.678431
413.940308 -75.879272 1.813197 0.678431
413.940308 -75.879272 1.439190 0.678431
414.112885 -76.109459 1.087568 0.578332
414.112885 -76.109467 0.719845 0.679301
414.112518 -76.108955 0.349246 0.631037
414.194550 -76.218376 -0.000012 0.537514
415.233246 -77.603767 -0.000010 0.573266
415.998505 -78.624466 -0.000009 0.557809
414.213043 -76.114265 4.771438 0.258076
414.213043 -76.114265 4.389638 0.513634
414.128479 -75.999802 4.039095 0.677577
414.047852 -75.890709 3.682451 0.678431
414.047852 -75.890709 3.304810 0.709804
414.218231 -76.121292 2.906497 0.685725
414.218231 -76.121284 2.543120 0.647852
414.047852 -75.890709 2.185602 0.678431
414.047852 -75.890709 1.814398 0.678431
414.047852 -75.890709 1.442795 0.678431
414.218231 -76.121284 1.093503 0.640055
414.218231 -76.121292 0.728171 0.415656
414.217896 -76.120834 0.359993 0.328115
414.256104 -76.172554 -0.000012 0.502922
415.285095 -77.565170 -0.000010 0.545327
416.043213 -78.591179 -0.000009 0.475456
414.317230 -76.126129 4.753604 0.648768
414.317230 -76.126129 4.374262 0.472084
414.189026 -75.950073 4.039872 0.652644
414.154022 -75.902008 3.671784 0.678431
414.233368 -76.010948 3.281035 0.677455
414.322205 -76.132965 2.900681 0.673075
414.322205 -76.132973 2.539636 0.667582
414.154022 -75.902008 2.184426 0.678431
414.154022 -75.902008 1.815574 0.678431
414.154022 -75.902008 1.446328 0.678431
414.322205 -76.132965 1.099318 0.664210
414.322205 -76.132973 0.736330 0.667765
414.321930 -76.132599 0.370528 0.636942
414.321930 -76.132599 0.001210 0.670497
415.337219 -77.526932 -0.000010 0.542580
416.088165 -78.558212 -0.000009 0.504585
414.420624 -76.138580 4.735906 0.697978
414.420624 -76.138580 4.359002 0.694972
414.258881 -75.913155 4.037872 0.678431
414.258881 -75.913155 3.661334 0.678431
414.336945 -76.021965 3.273027 0.664057
414.424866 -76.144501 2.894984 0.656184
414.424866 -76.144501 2.536222 0.670848
414.258881 -75.913155 2.183273 0.678431
414.258881 -75.913155 1.816727 0.678431
414.258881 -75.913155 1.449789 0.678431
414.424866 -76.144501 1.105016 0.667582
414.424866 -76.144501 0.744323 0.668833
414.424652 -76.144211 0.380849 0.652567
414.424652 -76.144218 0.013873 0.672877
415.389618 -77.489059 -0.000010 0.584848
416.133331 -78.525558 -0.000009 0.500175
414.523132 -76.151497 4.718375 0.400046
414.523132 -76.151497 4.343885 0.679316
414.362427 -75.924171 4.025311 0.678431
414.362427 -75.924171 3.651093 0.678431
414.439240 -76.032845 3.265180 0.647059
414.526245 -76.155884 2.889401 0.659770
414.526245 -76.155884 2.532878 0.554513
414.362427 -75.924171 2.182143 0.678431
414.362427 -75.924171 1.817857 0.678431
414.362427 -75.924171 1.453181 0.678431
414.526245 -76.155884 1.110598 0.666423
414.526245 -76.155884 0.752155 0.529900
414.526093 -76.155670 0.390963 0.590875
414.526093 -76.155693 0.026281 0.636515
415.442291 -77.451553 -0.000011 0.569482
416.178741 -78.493217 -0.000009 0.492760
414.624359 -76.164246 4.701196 0.385718
414.624359 -76.164246 4.329073 0.679088
414.464691 -75.935051 4.013000 0.678431
414.464691 -75.935051 3.641056 0.678431
414.540314 -76.043594 3.257489 0.665934
414.626373 -76.167130 2.883930 0.660227
414.626373 -76.167130 2.529600 0.573587
414.464691 -75.935051 2.181036 0.678431
414.464691 -75.935051 1.818964 0.678431
414.464691 -75.935051 1.456505 0.678431
414.626373 -76.167137 1.116069 0.668833
414.626343 -76.167130 0.759830 0.329229
414.626251 -76.166992 0.400873 0.648051
414.626251 -76.166985 0.038431 0.433463
415.495209 -77.414413 -0.000011 0.567819
416.224365 -78.461197 -0.000009 0.513878
414.724304 -76.176842 4.684361 0.522698
414.724304 -76.176842 4.314558 0.666667
414.565735 -75.945801 4.000935 0.678431
414.565735 -75.945801 3.631220 0.678431
414.640137 -76.054214 3.249952 0.676875
414.725250 -76.178246 2.878569 0.666911
414.725250 -76.178246 2.526388 0.539147
414.565735 -75.945801 2.179950 0.678431
414.565735 -75.945801 1.820049 0.678431
414.565735 -75.945793 1.459762 0.678431
414.700104 -76.141602 1.117786 0.505119
414.725281 -76.178246 0.767354 0.429969
414.725220 -76.178169 0.410586 0.655665
414.725220 -76.178177 0.050347 0.632013
415.548370 -77.377647 -0.000011 0.534768
416.270233 -78.429497 -0.000009 0.527291
414.819092 -76.183495 4.669616 0.664240
414.819092 -76.183495 4.301844 0.654841
414.738800 -76.064728 3.965321 0.677104
414.738800 -76.064728 3.602187 0.657298
414.738800 -76.064720 3.242563 0.678431
414.819092 -76.183495 2.873882 0.665263
414.819092 -76.183495 2.523579 0.467414
414.738800 -76.064728 2.176748 0.647059
414.738800 -76.064728 1.823252 0.647059
414.738800 -76.064728 1.469377 0.647059
414.762177 -76.099304 1.117785 0.525017
414.819092 -76.183495 0.773930 0.617517
414.819092 -76.183495 0.419079 0.590143
414.819092 -76.183495 0.060765 0.500618
415.601807 -77.341255 -0.000011 0.529656
416.316284 -78.398117 -0.000009 0.583261
414.824768 -76.057777 4.694973 0.301869
414.824768 -76.057777 4.323708 0.657954
414.670258 -75.825737 4.008381 0.678431
414.670258 -75.825737 3.637291 0.678431
414.763916 -75.966385 3.250348 0.654902
414.824799 -76.057816 2.882179 0.528695
414.824799 -76.057808 2.528551 0.507942
414.670258 -75.825737 2.180620 0.678431
414.670258 -75.825737 1.819380 0.678431
414.670258 -75.825737 1.457752 0.678431
414.824554 -76.057434 1.117783 0.559670
414.824799 -76.057808 0.762289 0.362173
414.824799 -76.057808 0.404068 0.645365
414.824799 -76.057808 0.042351 0.341604
415.655487 -77.305237 -0.000011 0.577600
416.362579 -78.367058 -0.000009 0.522408
414.830566 -75.929642 4.720951 0.671077
414.830566 -75.929642 4.346107 0.662226
414.676300 -75.694450 4.027704 0.678431
414.676300 -75.694458 3.653044 0.678431
414.769867 -75.837120 3.262376 0.654902
414.830597 -75.929710 2.890679 0.665965
414.830597 -75.929710 2.533644 0.665202
414.676300 -75.694450 2.182358 0.678431
414.676300 -75.694450 1.817642 0.678431
414.676300 -75.694458 1.452535 0.678431
414.830597 -75.929710 1.109320 0.651576
414.830597 -75.929710 0.750362 0.464012
414.830597 -75.929703 0.388689 0.641596
414.830597 -75.929703 0.023487 0.634134
415.709412 -77.269592 -0.000011 0.543557
416.409088 -78.336319 -0.000009 0.537240
414.836456 -75.799011 4.747569 0.671290
414.836456 -75.799011 4.369058 0.345357
414.705200 -75.595818 4.039876 0.668650
414.682465 -75.560616 3.669183 0.678431
414.775940 -75.705338 3.274701 0.650736
414.836517 -75.799110 2.899390 0.660365
414.836517 -75.799110 2.538862 0.664759
414.682465 -75.560616 2.184139 0.678431
414.682465 -75.560616 1.815861 0.678431
414.682465 -75.560616 1.447189 0.678431
414.836517 -75.799110 1.100610 0.642802
414.836517 -75.799110 0.738142 0.647456
414.836517 -75.799095 0.372931 0.641749
414.836517 -75.799095 0.004158 0.660929
415.763611 -77.234322 -0.000011 0.504723
416.455811 -78.305908 -0.000010 0.502007
414.842468 -75.665794 4.774850 0.497612
414.842468 -75.665794 4.392580 0.646708
414.771088 -75.553558 4.039881 0.651011
414.688751 -75.424133 3.685725 0.678431
414.688751 -75.424133 3.307349 0.678431
414.842560 -75.665924 2.908317 0.651987
414.842560 -75.665924 2.544211 0.669444
414.688751 -75.424133 2.185963 0.678431
414.688751 -75.424133 1.814037 0.678431
414.688751 -75.424133 1.441711 0.678431
414.842560 -75.665924 1.091683 0.600778
414.842560 -75.665924 0.725617 0.656260
414.842560 -75.665909 0.356781 0.323857
414.888672 -75.738434 -0.000013 0.547570
415.818024 -77.199432 -0.000011 0.520623
416.502716 -78.275833 -0.000009 0.519493
414.848602 -75.529892 4.802817 0.675654
414.848602 -75.529892 4.416694 0.667994
414.788452 -75.433861 4.056611 0.709422
414.695160 -75.284904 3.702681 0.678431
414.695160 -75.284904 3.320500 0.678431
414.848724 -75.530060 2.917468 0.577752
414.848724 -75.530060 2.549693 0.706096
414.695160 -75.284904 2.187834 0.678431
414.695160 -75.284904 1.812166 0.678431
414.695160 -75.284904 1.436095 0.678431
414.848724 -75.530060 1.082532 0.580011
414.848724 -75.530060 0.712778 0.684947
414.848694 -75.530037 0.340225 0.657877
414.953583 -75.697479 -0.000013 0.502617
415.872711 -77.164925 -0.000011 0.510582
416.549866 -78.246078 -0.000009 0.532189
414.854858 -75.391220 4.831491 0.670237
414.854858 -75.391212 4.441419 0.574426
414.794922 -75.293983 4.077609 0.654902
414.701721 -75.142845 3.720067 0.678431
414.701721 -75.142845 3.333983 0.678431
414.855011 -75.391426 2.926850 0.304067
414.855011 -75.391418 2.555315 0.677378
414.701721 -75.142845 2.189752 0.678431
414.701721 -75.142845 1.810248 0.678431
414.701721 -75.142845 1.430337 0.678431
414.855011 -75.391426 1.073149 0.444862
414.855011 -75.391418 0.699613 0.640543
414.854980 -75.391403 0.323250 0.708400
415.018738 -75.656967 -0.000013 0.546929
415.927612 -77.130798 -0.000011 0.519371
416.597198 -78.216652 -0.000010 0.505104
414.861267 -75.249672 4.860899 0.382773
414.861267 -75.249672 4.466776 0.633875
414.801483 -75.151207 4.099145 0.650523
414.708374 -74.997849 3.737896 0.678431
414.708374 -74.997849 3.347811 0.678431
414.861420 -75.249916 2.936474 0.535744
414.861420 -75.249916 2.561081 0.670283
414.708374 -74.997849 2.191719 0.678431
414.708374 -74.997849 1.808281 0.678431
414.708405 -74.997849 1.424433 0.678431
414.861420 -75.249916 1.063526 0.602457
414.861389 -75.249901 0.686111 0.479393
414.861389 -75.249886 0.305840 0.677516
415.084198 -75.616920 -0.000013 0.520333
415.982758 -77.097061 -0.000011 0.545327
416.644745 -78.187561 -0.000009 0.503197
414.867798 -75.105141 4.891068 0.657115
414.867798 -75.105141 4.492789 0.426795
414.808197 -75.005424 4.121238 0.677378
414.715210 -74.849800 3.756187 0.678431
414.715210 -74.849800 3.361996 0.678431
414.867950 -75.105431 2.946345 0.659159
414.867950 -75.105431 2.566995 0.674891
414.715210 -74.849800 2.193737 0.678431
414.715210 -74.849800 1.806264 0.678431
414.715210 -74.849800 1.418375 0.678431
414.867950 -75.105431 1.053654 0.664820
414.867950 -75.105408 0.672259 0.438865
414.867950 -75.105400 0.287981 0.644068
415.149933 -75.577332 -0.000013 0.550896
416.038116 -77.063705 -0.000011 0.543496
416.692505 -78.158806 -0.000009 0.498604
414.874451 -74.957527 4.922023 0.657206
414.874451 -74.957527 4.519479 0.621576
414.826324 -74.875679 4.139864 0.666148
414.722168 -74.698601 3.774953 0.678431
414.722168 -74.698608 3.376550 0.678431
414.874634 -74.957863 2.956474 0.576165
414.874634 -74.957863 2.573064 0.675700
414.722168 -74.698608 2.195807 0.678431
414.722168 -74.698608 1.804193 0.678431
414.722168 -74.698601 1.412160 0.678431
414.874634 -74.957863 1.043525 0.584161
414.874634 -74.957825 0.658047 0.645731
414.874634 -74.957825 0.269656 0.496696
415.215942 -75.538193 -0.000013 0.569177
416.093750 -77.030739 -0.000011 0.564950
416.740448 -78.130371 -0.000010 0.528054
414.881256 -74.806709 4.953795 0.643244
414.881256 -74.806709 4.546874 0.638239
414.881256 -74.806709 4.145666 0.373495
414.729279 -74.544128 3.794213 0.678431
414.729279 -74.544128 3.391487 0.678431
414.881470 -74.807091 2.966870 0.672206
414.881470 -74.807091 2.579292 0.667063
414.729279 -74.544128 2.197932 0.678431
414.729279 -74.544128 1.802069 0.678431
414.729279 -74.544128 1.405781 0.678431
414.881470 -74.807091 1.033130 0.662501
414.881439 -74.807045 0.643460 0.702708
414.881470 -74.807053 0.250849 0.664851
415.282227 -75.499527 -0.000013 0.530602
416.149567 -76.998161 -0.000011 0.531334
416.788605 -78.102287 -0.000010 0.518425
414.888214 -74.652573 4.986412 0.667826
414.888214 -74.652573 4.574997 0.636927
414.888214 -74.652565 4.169359 0.658289
414.736572 -74.386261 3.813985 0.678431
414.736572 -74.386261 3.406821 0.678431
414.888458 -74.653000 2.977542 0.650263
414.888458 -74.653000 2.585687 0.647059
414.736572 -74.386261 2.200113 0.678431
414.736572 -74.386261 1.799887 0.678431
414.736572 -74.386261 1.399233 0.678431
414.888458 -74.653000 1.022457 0.631403
414.888428 -74.652946 0.628486 0.669627
414.888428 -74.652954 0.231540 0.655009
415.348785 -75.461319 -0.000013 0.554040
416.205658 -76.965973 -0.000011 0.504829
416.836945 -78.074532 -0.000010 0.564172
414.895325 -74.494980 5.019906 0.378851
414.895325 -74.494980 4.603876 0.512459
414.895325 -74.494980 4.193689 0.511925
414.752777 -74.240532 3.831623 0.670054
414.752777 -74.240532 3.420500 0.659770
414.895599 -74.495468 2.988501 0.674647
414.895599 -74.495461 2.592253 0.468727
414.752777 -74.240532 2.202058 0.678431
414.752777 -74.240532 1.797942 0.668788
414.752777 -74.240532 1.393391 0.678431
414.895599 -74.495461 1.011498 0.646464
414.895569 -74.495407 0.613109 0.536843
414.895569 -74.495407 0.211713 0.618448
415.415588 -75.423576 -0.000014 0.541573
416.261932 -76.934174 -0.000011 0.547768
416.885468 -78.047112 -0.000010 0.522423
414.902618 -74.333809 5.054310 0.663096
414.902618 -74.333809 4.633540 0.676158
414.902618 -74.333809 4.218680 0.643931
414.844025 -74.227524 3.826735 0.647059
414.844025 -74.227524 3.416709 0.647059
414.902893 -74.334343 2.999758 0.277089
414.902893 -74.334343 2.598997 0.409110
414.844025 -74.227524 2.201519 0.647059
414.844025 -74.227524 1.798481 0.647059
414.844025 -74.227524 1.395010 0.654902
414.902893 -74.334343 1.000241 0.312047
414.902863 -74.334282 0.597314 0.414862
414.902863 -74.334282 0.191347 0.451072
415.482666 -75.386307 -0.000013 0.558328
416.318451 -76.902771 -0.000012 0.541283
416.934204 -78.020042 -0.000010 0.553353
414.910065 -74.168915 5.089659 0.325917
414.910065 -74.168915 4.664021 0.705760
414.910065 -74.168907 4.244359 0.659449
414.851654 -74.061165 3.847846 0.647059
414.851654 -74.061165 3.433082 0.654902
414.910370 -74.169502 3.011325 0.411093
414.910370 -74.169510 2.605927 0.404166
414.851654 -74.061165 2.203848 0.647059
414.851654 -74.061165 1.796152 0.669978
414.851654 -74.061165 1.388019 0.649882
414.910370 -74.169502 0.988675 0.459556
414.910339 -74.169434 0.581086 0.678431
414.910339 -74.169434 0.170422 0.672969
415.550018 -75.349495 -0.000014 0.571298
416.375183 -76.871765 -0.000011 0.540825
416.983124 -77.993301 -0.000010 0.544625
414.917664 -74.000145 5.125991 0.651682
414.917664 -74.000145 4.695348 0.531868
414.917664 -74.000145 4.270751 0.641032
414.767365 -73.718185 3.898579 0.678431
414.767365 -73.718185 3.472427 0.678431
414.918030 -74.000793 3.023213 0.701213
414.918030 -74.000793 2.613050 0.533944
414.767365 -73.718185 2.209445 0.678431
414.767365 -73.718185 1.790555 0.678431
414.767365 -73.718185 1.371217 0.678431
414.918030 -74.000801 0.976787 0.648157
414.917969 -74.000725 0.564407 0.709804
414.917969 -74.000725 0.148915 0.676402
415.617584 -75.313164 -0.000013 0.522423
416.432098 -76.841156 -0.000011 0.523247
417.032227 -77.966911 -0.000010 0.550317
414.925476 -73.827354 5.163342 0.492760
414.925476 -73.827354 4.727553 0.678614
414.925476 -73.827354 4.297884 0.438758
414.775513 -73.541260 3.921216 0.678431
414.775513 -73.541260 3.489983 0.678431
414.925842 -73.828072 3.035434 0.709804
414.925842 -73.828072 2.620372 0.709804
414.775513 -73.541260 2.211942 0.678431
414.775513 -73.541260 1.788058 0.678431
414.775513 -73.541260 1.363720 0.678431
414.925842 -73.828072 0.964566 0.661036
414.925812 -73.827988 0.547259 0.678431
414.925812 -73.827988 0.126805 0.594797
415.685425 -75.277306 -0.000014 0.534920
416.489258 -76.810944 -0.000011 0.541772
417.081482 -77.940865 -0.000010 0.578317
414.933472 -73.650383 5.201755 0.650065
414.933472 -73.650383 4.760674 0.678431
414.933472 -73.650375 4.325787 0.675807
414.783875 -73.360054 3.944495 0.678431
414.783875 -73.360054 3.508037 0.678431
414.933868 -73.651161 3.048002 0.671550
414.933868 -73.651161 2.627903 0.680095
414.783875 -73.360054 2.214510 0.678431
414.783875 -73.360054 1.785490 0.678431
414.783875 -73.360054 1.356010 0.678431
414.933868 -73.651161 0.951997 0.698344
414.933807 -73.651070 0.529624 0.634058
414.933807 -73.651070 0.104066 0.666133
415.753540 -75.241920 -0.000014 0.543328
416.546631 -76.781136 -0.000012 0.542779
417.130951 -77.915161 -0.000010 0.549645
414.941650 -73.469032 5.241275 0.513573
414.941650 -73.469040 4.794749 0.660426
414.941650 -73.469032 4.354494 0.494774
414.792419 -73.174393 3.968443 0.678431
414.792419 -73.174393 3.526610 0.678431
414.942078 -73.469887 3.060933 0.654658
414.942078 -73.469887 2.635649 0.439857
414.792419 -73.174393 2.217152 0.678431
414.792419 -73.174393 1.782848 0.678431
414.792419 -73.174393 1.348078 0.678431
414.942078 -73.469887 0.939067 0.647578
414.942017 -73.469788 0.511482 0.422583
414.942017 -73.469788 0.080673 0.431693
415.821869 -75.207008 -0.000014 0.538689
416.604218 -76.751724 -0.000012 0.547326
417.180603 -77.889801 -0.000010 0.527642
414.950043 -73.283157 5.281941 0.678370
414.950043 -73.283157 4.829814 0.705257
414.950043 -73.283150 4.384035 0.610605
414.801178 -72.984093 3.993087 0.678431
414.801178 -72.984093 3.545722 0.678431
414.950500 -73.284081 3.074238 0.558801
414.950500 -73.284081 2.643621 0.678431
414.801178 -72.984093 2.219871 0.678431
414.801178 -72.984093 1.780130 0.678431
414.801178 -72.984093 1.339917 0.678431
414.950500 -73.284081 0.925761 0.521447
414.950439 -73.283974 0.492813 0.709804
414.950439 -73.283974 0.056601 0.646128
415.890442 -75.172577 -0.000014 0.528084
416.661987 -76.722717 -0.000011 0.575174
417.230408 -77.864784 -0.000010 0.509758
414.958649 -73.092545 5.323807 0.458091
414.958649 -73.092545 4.865911 0.536522
414.958649 -73.092537 4.414447 0.666682
414.810181 -72.788956 4.018456 0.673899
414.810181 -72.788963 3.565396 0.678431
414.959137 -73.093544 3.087936 0.419211
414.959137 -73.093544 2.651828 0.669184
414.810181 -72.788963 2.222669 0.678431
414.810181 -72.788963 1.777331 0.678431
414.810181 -72.788963 1.331515 0.678431
414.959137 -73.093544 0.912064 0.477119
414.959076 -73.093422 0.473594 0.669657
414.959076 -73.093430 0.031819 0.399130
415.959259 -75.138626 -0.000014 0.554650
416.719940 -76.694107 -0.000012 0.513268
417.280396 -77.840126 -0.000010 0.533776
414.753693 -72.452011 5.490578 0.678431
414.967468 -72.897003 4.903083 0.677546
414.967468 -72.897003 4.445761 0.422629
414.833160 -72.617416 4.039867 0.689418
414.819397 -72.588783 3.585655 0.678431
414.967987 -72.898079 3.102041 0.702907
414.967987 -72.898071 2.660279 0.678431
414.819397 -72.588783 2.225551 0.678431
414.819397 -72.588783 1.774449 0.678431
414.819397 -72.588783 1.322864 0.678431
414.967987 -72.898064 0.897957 0.642420
414.967926 -72.897949 0.453802 0.580301
414.967926 -72.897949 0.006300 0.677516
416.028320 -75.105148 -0.000014 0.534630
416.778137 -76.665909 -0.000012 0.564569
417.330566 -77.815811 -0.000010 0.531426
414.763336 -72.244469 5.536479 0.678431
414.976593 -72.696434 4.941347 0.446097
414.976593 -72.696434 4.477998 0.456214
414.920105 -72.576691 4.039778 0.678431
414.828857 -72.383354 3.606526 0.678431
414.977081 -72.697464 3.116572 0.654917
414.977081 -72.697464 2.668985 0.678431
414.828857 -72.383347 2.228519 0.678431
414.828857 -72.383347 1.771480 0.678431
414.828857 -72.383354 1.313951 0.678431
414.977081 -72.697441 0.883425 0.691966
414.977020 -72.697327 0.433413 0.379568
415.034485 -72.819099 -0.000017 0.559075
416.097595 -75.072159 -0.000014 0.523659
416.836487 -76.638123 -0.000012 0.541787
417.380890 -77.791847 -0.000010 0.588876
414.773224 -72.031387 5.583777 0.678431
414.985962 -72.490509 4.980780 0.668864
414.985962 -72.490509 4.511218 0.595911
414.929657 -72.368965 4.067090 0.647059
414.907623 -72.321449 3.609138 0.647059
414.986420 -72.491486 3.131548 0.664408
414.986420 -72.491486 2.677958 0.540429
414.907623 -72.321449 2.228891 0.709804
414.907623 -72.321449 1.771109 0.647059
414.907623 -72.321449 1.312835 0.678431
414.986389 -72.491440 0.868448 0.655909
414.986359 -72.491333 0.412401 0.660624
415.119751 -72.779228 -0.000018 0.526406
416.167114 -75.039658 -0.000014 0.522667
416.895050 -76.610733 -0.000012 0.553857
417.431396 -77.768234 -0.000010 0.554849
414.783386 -71.812515 5.632540 0.678431
414.995605 -72.278976 5.021432 0.598856
414.995575 -72.278976 4.545467 0.642908
414.939423 -72.155518 4.095259 0.660548
414.939423 -72.155525 3.624959 0.653010
414.996002 -72.279884 3.146988 0.616159
414.996002 -72.279884 2.687209 0.422202
414.939423 -72.155525 2.231142 0.674983
414.939423 -72.155525 1.768858 0.647059
414.939423 -72.155525 1.306080 0.656489
414.995972 -72.279823 0.853006 0.600488
414.995941 -72.279724 0.390738 0.663188
415.205292 -72.739952 -0.000017 0.539513
416.236847 -75.007645 -0.000014 0.530724
416.953796 -76.583763 -0.000012 0.532998
417.482056 -77.744980 -0.000010 0.511727
414.793854 -71.587593 5.682828 0.678431
415.005493 -72.061584 5.063361 0.665812
415.005493 -72.061584 4.580791 0.666941
414.949524 -71.936249 4.124296 0.650614
414.858826 -71.733101 3.673074 0.678431
415.005859 -72.062424 3.162912 0.342016
415.005859 -72.062416 2.696750 0.625406
414.858826 -71.733101 2.237986 0.678431
414.858826 -71.733101 1.762014 0.678431
414.858826 -71.733101 1.285532 0.678431
415.005829 -72.062347 0.837081 0.416403
415.005768 -72.062248 0.368394 0.525597
415.291107 -72.701279 -0.000017 0.547173
416.306793 -74.976112 -0.000014 0.527016
417.012756 -76.557198 -0.000012 0.550561
417.532867 -77.722076 -0.000010 0.515801
414.804596 -71.356346 5.734713 0.678431
415.015656 -71.838058 5.106623 0.647059
415.015656 -71.838051 4.617239 0.476173
414.998871 -71.799728 4.139856 0.487480
414.869354 -71.504173 3.696668 0.678431
415.015991 -71.838837 3.179342 0.655695
415.015991 -71.838829 2.706594 0.669657
414.869354 -71.504173 2.241342 0.678431
414.869354 -71.504173 1.758658 0.678431
414.869354 -71.504173 1.275457 0.678431
415.015961 -71.838745 0.820649 0.626673
415.015900 -71.838654 0.345341 0.526390
415.377197 -72.663200 -0.000017 0.555367
416.376984 -74.945068 -0.000014 0.545083
417.071869 -76.531052 -0.000012 0.559136
417.583832 -77.699524 -0.000010 0.549416
414.815643 -71.118477 5.788269 0.678431
415.026123 -71.608116 5.151281 0.652598
415.026123 -71.608116 4.654860 0.709804
415.026154 -71.608208 4.164306 0.666133
414.880219 -71.268684 3.721024 0.678431
414.970612 -71.478989 3.207891 0.647059
415.026398 -71.608810 2.716756 0.651682
414.880219 -71.268684 2.244806 0.678431
414.880219 -71.268684 1.755194 0.678431
414.880219 -71.268684 1.265056 0.678431
415.026367 -71.608696 0.803685 0.654383
415.026337 -71.608620 0.321542 0.699046
415.463531 -72.625725 -0.000017 0.538308
416.447388 -74.914520 -0.000014 0.520088
417.131165 -76.505310 -0.000012 0.572381
417.634979 -77.677330 -0.000011 0.541131
414.827026 -70.873680 5.843574 0.678431
415.036865 -71.371452 5.197400 0.688060
415.036865 -71.371452 4.693716 0.418967
415.036926 -71.371552 4.195979 0.643915
414.891357 -71.026321 3.746175 0.678431
414.981598 -71.240356 3.225540 0.668498
415.037140 -71.372078 2.727250 0.647166
414.891357 -71.026321 2.248384 0.678431
414.891357 -71.026321 1.751616 0.678431
414.891357 -71.026321 1.254316 0.678431
415.037079 -71.371948 0.786168 0.654856
415.037048 -71.371872 0.296966 0.610559
415.550140 -72.588852 -0.000017 0.515587
416.517975 -74.884460 -0.000015 0.515236
417.190674 -76.479988 -0.000012 0.529458
417.686249 -77.655495 -0.000011 0.543862
414.838715 -70.621613 5.900708 0.678431
415.047974 -71.127754 5.245049 0.424536
415.047974 -71.127747 4.733859 0.697185
415.048004 -71.127861 4.228703 0.641291
414.902863 -70.776764 3.772158 0.678431
414.992950 -70.994675 3.243772 0.633219
415.048187 -71.128281 2.738094 0.678431
414.902863 -70.776764 2.252079 0.678431
414.902863 -70.776764 1.747920 0.678431
414.902863 -70.776764 1.243220 0.678431
415.048126 -71.128128 0.768068 0.514519
415.048096 -71.128059 0.271572 0.363638
415.636993 -72.552589 -0.000018 0.556420
416.588806 -74.854897 -0.000014 0.530724
417.250305 -76.455078 -0.000012 0.546319
417.737701 -77.634026 -0.000010 0.553903
414.880066 -70.434189 5.940234 0.647059
414.940582 -70.583496 5.362625 0.647059
415.059387 -70.876663 4.775353 0.387503
415.059448 -70.876785 4.262529 0.655695
414.914703 -70.519653 3.799016 0.678431
415.004639 -70.741531 3.262619 0.690196
415.059570 -70.877113 2.749301 0.444343
414.914703 -70.519653 2.255900 0.678431
414.914703 -70.519653 1.744100 0.678431
414.914703 -70.519653 1.231750 0.678431
415.059509 -70.876923 0.749359 0.618357
415.059479 -70.876877 0.245325 0.695247
415.724121 -72.516930 -0.000018 0.538537
416.659821 -74.825829 -0.000014 0.545663
417.310150 -76.430588 -0.000012 0.536248
417.789276 -77.612907 -0.000010 0.574334
414.952881 -70.319984 5.959994 0.654490
414.952881 -70.319977 5.414457 0.650507
415.071167 -70.617828 4.818266 0.669352
415.071228 -70.617966 4.297511 0.359045
414.984161 -70.398788 3.808945 0.647059
415.016663 -70.480576 3.282111 0.662837
415.071320 -70.618179 2.760893 0.433204
414.984161 -70.398788 2.257312 0.647059
414.984161 -70.398788 1.742687 0.654902
414.984161 -70.398788 1.227510 0.647059
415.071228 -70.617973 0.730011 0.678431
415.071198 -70.617920 0.218180 0.657053
415.811462 -72.481880 -0.000018 0.542992
416.731018 -74.797256 -0.000014 0.522438
417.370148 -76.406517 -0.000012 0.524910
417.841034 -77.592148 -0.000010 0.539025
414.876007 -69.818062 6.084046 0.678431
414.876007 -69.818069 5.521418 0.678431
415.083313 -70.350876 4.862661 0.475883
415.083374 -70.350990 4.333708 0.667613
415.064453 -70.302353 3.815891 0.558145
415.064453 -70.302353 3.294277 0.673121
415.083405 -70.351082 2.772887 0.646204
415.064453 -70.302353 2.258301 0.676921
415.064453 -70.302353 1.741699 0.679164
415.064453 -70.302353 1.224544 0.676905
415.083344 -70.350899 0.709994 0.647303
415.083344 -70.350883 0.190099 0.488090
415.899078 -72.447441 -0.000018 0.548211
416.802429 -74.769180 -0.000014 0.562966
417.430328 -76.382866 -0.000012 0.529534
417.892914 -77.571754 -0.000010 0.528923
414.889252 -69.533142 6.149456 0.678431
414.889252 -69.533142 5.577818 0.678431
415.095917 -70.075462 4.908605 0.649027
415.095947 -70.075569 4.371163 0.331029
415.095978 -70.075623 3.838928 0.674388
415.095978 -70.075630 3.310697 0.559548
415.095978 -70.075630 2.785293 0.658656
415.095978 -70.075630 2.261577 0.666789
415.095978 -70.075623 1.738422 0.679133
415.095978 -70.075623 1.214706 0.707103
415.095917 -70.075470 0.689289 0.608835
415.095917 -70.075462 0.161052 0.670604
415.986908 -72.413620 -0.000017 0.535836
416.874054 -74.741600 -0.000015 0.539055
417.490631 -76.359634 -0.000012 0.528328
417.944916 -77.551727 -0.000010 0.493614
414.902924 -69.238937 6.217205 0.678431
414.902924 -69.238937 5.636234 0.678431
415.108917 -69.791054 4.956192 0.657572
415.108948 -69.791153 4.409960 0.656458
415.108978 -69.791206 3.869017 0.609995
415.108978 -69.791214 3.332142 0.613550
415.108978 -69.791214 2.798142 0.665324
415.108978 -69.791206 2.265858 0.696391
415.108978 -69.791206 1.734143 0.584329
415.108978 -69.791206 1.201857 0.674128
415.108917 -69.791054 0.667844 0.613184
415.108917 -69.791054 0.130964 0.629801
416.075012 -72.380409 -0.000017 0.544457
416.945862 -74.714531 -0.000014 0.544091
417.551147 -76.336823 -0.000012 0.552377
417.997070 -77.532059 -0.000010 0.558328
414.917053 -68.934952 6.287414 0.678431
414.917023 -68.934944 5.696771 0.678431
415.122345 -69.497162 5.005514 0.416953
415.122375 -69.497246 4.450169 0.402975
415.122406 -69.497307 3.900201 0.556405
415.122406 -69.497314 3.354368 0.624399
415.122406 -69.497307 2.811459 0.646418
415.122406 -69.497314 2.270293 0.576654
415.122406 -69.497307 1.729707 0.590570
415.122406 -69.497307 1.188541 0.585763
415.122345 -69.497162 0.645618 0.665537
415.122345 -69.497162 0.099781 0.629236
416.163300 -72.347809 -0.000018 0.562203
417.017853 -74.687950 -0.000015 0.540917
417.611786 -76.314438 -0.000012 0.555428
418.049377 -77.512756 -0.000010 0.539712
414.931641 -68.620644 6.360219 0.678431
414.931641 -68.620644 5.759545 0.678431
415.136230 -69.193291 5.056659 0.630808
415.136261 -69.193359 4.491866 0.612634
415.136292 -69.193428 3.932537 0.563943
415.136292 -69.193428 3.377417 0.663279
415.136292 -69.193428 2.825268 0.649165
415.136292 -69.193428 2.274893 0.532128
415.136292 -69.193428 1.725107 0.451148
415.136292 -69.193428 1.174732 0.569940
415.136230 -69.193283 0.622570 0.665644
415.136230 -69.193291 0.067445 0.683467
416.251831 -72.315826 -0.000018 0.640223
417.090027 -74.661880 -0.000014 0.552682
417.672577 -76.292473 -0.000013 0.517891
418.101807 -77.493820 -0.000010 0.529549
414.946747 -68.295471 6.435757 0.678431
414.946747 -68.295471 5.824678 0.678431
415.150604 -68.878876 5.109729 0.675898
415.150604 -68.878937 4.535132 0.615549
415.150635 -68.879005 3.966092 0.473564
415.150635 -68.879005 3.401333 0.382406
415.150635 -68.879005 2.839597 0.377798
415.150635 -68.879013 2.279666 0.440970
415.150635 -68.879013 1.720334 0.383581
415.150635 -68.879013 1.160403 0.380484
415.150604 -68.878876 0.598656 0.453696
415.150604 -68.878876 0.033892 0.458045
416.340576 -72.284470 -0.000018 0.541421
417.162384 -74.636322 -0.000015 0.540597
417.733551 -76.270935 -0.000012 0.535058
418.154358 -77.475243 -0.000011 0.538979
414.962372 -67.958817 6.514181 0.678431
414.962372 -67.958817 5.892299 0.678431
415.165466 -68.553337 5.164831 0.434638
415.165497 -68.553391 4.580055 0.669535
415.165527 -68.553459 4.000931 0.682551
415.165527 -68.553467 3.426165 0.666743
415.165527 -68.553459 2.854475 0.621683
415.165527 -68.553459 2.284622 0.484215
415.165527 -68.553459 1.715379 0.443580
415.165527 -68.553459 1.145525 0.623774
415.165466 -68.553345 0.573825 0.709957
415.168060 -68.560928 -0.000023 0.546395
416.429565 -72.253731 -0.000018 0.548684
417.234894 -74.611259 -0.000014 0.531807
417.794647 -76.249825 -0.000012 0.557137
418.207031 -77.457039 -0.000011 0.515480
415.065186 -67.869431 6.527156 0.616999
415.065186 -67.869431 5.903485 0.654902
