# This PCD file was generated using the MATLABÂ® pcwrite function
# from Computer Vision ToolboxÂ®.
# .PCD v.7 - Point Cloud Data file format
VERSION .7
FIELDS x y z intensity
SIZE 4 4 4 4
TYPE F F F F
COUNT 1 1 1 1
WIDTH 1232
HEIGHT 1
VIEWPOINT 0 0 0 1 0 0 0
POINTS 1232
DATA ascii
nan nan nan 0.000000
nan nan nan 0.000000
nan nan nan 0.000000
nan nan nan 0.000000
-117.876038 177.233627 -0.000049 0.541146
-101.668045 179.141907 -0.000029 0.541665
-94.709450 179.961182 -0.000021 0.526818
-90.833900 180.417480 -0.000015 0.543633
-88.359711 180.708786 -0.000012 0.547189
-86.640053 180.911255 -0.000010 0.529793
-85.373093 181.060410 -0.000009 0.510460
nan nan nan 0.000000
nan nan nan 0.000000
nan nan nan 0.000000
nan nan nan 0.000000
nan nan nan 0.000000
nan nan nan 0.000000
nan nan nan 0.000000
nan nan nan 0.000000
nan nan nan 0.000000
-117.908295 177.516022 -0.000049 0.538277
-101.687363 179.311096 -0.000029 0.543069
-94.723221 180.081772 -0.000020 0.518853
-90.844582 180.511002 -0.000015 0.547478
-88.368416 180.785019 -0.000012 0.510643
-86.647385 180.975479 -0.000010 0.524926
-85.379417 181.115799 -0.000008 0.518959
nan nan nan 0.000000
nan nan nan 0.000000
nan nan nan 0.000000
nan nan nan 0.000000
nan nan nan 0.000000
nan nan nan 0.000000
nan nan nan 0.000000
nan nan nan 0.000000
nan nan nan 0.000000
-117.938568 177.798615 -0.000049 0.540398
-101.705505 179.480408 -0.000029 0.551949
-94.736145 180.202454 -0.000020 0.538460
-90.854607 180.604599 -0.000015 0.537255
-88.376587 180.861328 -0.000012 0.527672
-86.654274 181.039764 -0.000010 0.585061
-85.385353 181.171219 -0.000008 0.538064
nan nan nan 0.000000
nan nan nan 0.000000
nan nan nan 0.000000
nan nan nan 0.000000
nan nan nan 0.000000
nan nan nan 0.000000
nan nan nan 0.000000
nan nan nan 0.000000
nan nan nan 0.000000
-117.966843 178.081436 -0.000048 0.540581
-101.722466 179.649857 -0.000029 0.532128
-94.748230 180.323227 -0.000020 0.534508
-90.863976 180.698257 -0.000015 0.541970
-88.384224 180.937683 -0.000012 0.554940
-86.660713 181.104080 -0.000010 0.534890
-85.390907 181.226685 -0.000008 0.555200
nan nan nan 0.000000
nan nan nan 0.000000
nan nan nan 0.000000
nan nan nan 0.000000
nan nan nan 0.000000
nan nan nan 0.000000
nan nan nan 0.000000
nan nan nan 0.000000
nan nan nan 0.000000
-117.993164 178.364426 -0.000048 0.536736
-101.738235 179.819412 -0.000029 0.530556
-94.759476 180.444077 -0.000020 0.548455
-90.872696 180.791977 -0.000015 0.528588
-88.391335 181.014084 -0.000012 0.528603
-86.666702 181.168457 -0.000010 0.529809
-85.396072 181.282196 -0.000008 0.544167
nan nan nan 0.000000
nan nan nan 0.000000
nan nan nan 0.000000
nan nan nan 0.000000
nan nan nan 0.000000
nan nan nan 0.000000
nan nan nan 0.000000
nan nan nan 0.000000
nan nan nan 0.000000
-118.017517 178.647614 -0.000048 0.544396
-101.752823 179.989075 -0.000029 0.542550
-94.769875 180.565002 -0.000020 0.545510
-90.880760 180.885757 -0.000015 0.552499
-88.397911 181.090546 -0.000012 0.558618
-86.672241 181.232864 -0.000010 0.526329
-85.400848 181.337723 -0.000008 0.534585
nan nan nan 0.000000
nan nan nan 0.000000
nan nan nan 0.000000
nan nan nan 0.000000
nan nan nan 0.000000
nan nan nan 0.000000
nan nan nan 0.000000
nan nan nan 0.000000
nan nan nan 0.000000
-118.039886 178.930954 -0.000048 0.538399
-101.766228 180.158829 -0.000029 0.533913
-94.779427 180.686005 -0.000020 0.530114
-90.888176 180.979599 -0.000015 0.531929
-88.403946 181.167038 -0.000012 0.539422
-86.677330 181.297318 -0.000010 0.499809
-85.405235 181.393295 -0.000008 0.569574
nan nan nan 0.000000
nan nan nan 0.000000
nan nan nan 0.000000
nan nan nan 0.000000
nan nan nan 0.000000
nan nan nan 0.000000
nan nan nan 0.000000
nan nan nan 0.000000
nan nan nan 0.000000
-118.060287 179.214447 -0.000048 0.540963
-101.778435 180.328674 -0.000028 0.542489
-94.788132 180.807053 -0.000020 0.522148
-90.894928 181.073486 -0.000015 0.532418
-88.409454 181.243576 -0.000012 0.553887
-86.681969 181.361801 -0.000010 0.526741
-85.409233 181.448898 -0.000008 0.523201
nan nan nan 0.000000
nan nan nan 0.000000
nan nan nan 0.000000
nan nan nan 0.000000
nan nan nan 0.000000
nan nan nan 0.000000
nan nan nan 0.000000
nan nan nan 0.000000
nan nan nan 0.000000
-118.078705 179.498062 -0.000048 0.540581
-101.789467 180.498611 -0.000028 0.530907
-94.795990 180.928177 -0.000020 0.534417
-90.901024 181.167419 -0.000015 0.528832
-88.414429 181.320145 -0.000011 0.538857
-86.686157 181.426315 -0.000010 0.547845
-85.412842 181.504517 -0.000008 0.564935
nan nan nan 0.000000
nan nan nan 0.000000
nan nan nan 0.000000
nan nan nan 0.000000
nan nan nan 0.000000
nan nan nan 0.000000
nan nan nan 0.000000
nan nan nan 0.000000
nan nan nan 0.000000
-118.095146 179.781815 -0.000048 0.539284
-101.799316 180.668610 -0.000028 0.538521
-94.803009 181.049347 -0.000020 0.539528
-90.906471 181.261383 -0.000015 0.538659
-88.418861 181.396759 -0.000012 0.528878
-86.689896 181.490845 -0.000010 0.536080
-85.416069 181.560165 -0.000008 0.534096
nan nan nan 0.000000
nan nan nan 0.000000
nan nan nan 0.000000
nan nan nan 0.000000
nan nan nan 0.000000
nan nan nan 0.000000
nan nan nan 0.000000
nan nan nan 0.000000
nan nan nan 0.000000
-118.109581 180.065659 -0.000047 0.536706
-101.807976 180.838684 -0.000028 0.539101
-94.809189 181.170563 -0.000020 0.522515
-90.911255 181.355392 -0.000015 0.551385
-88.422768 181.473404 -0.000012 0.537209
-86.693176 181.555420 -0.000010 0.530434
-85.418900 181.615845 -0.000008 0.558938
nan nan nan 0.000000
nan nan nan 0.000000
nan nan nan 0.000000
nan nan nan 0.000000
nan nan nan 0.000000
nan nan nan 0.000000
nan nan nan 0.000000
nan nan nan 0.000000
nan nan nan 0.000000
-118.122070 180.349609 -0.000048 0.543908
-101.815445 181.008804 -0.000028 0.544610
-94.814514 181.291809 -0.000019 0.548028
-90.915390 181.449432 -0.000015 0.538888
-88.426132 181.550064 -0.000011 0.581415
-86.696014 181.619995 -0.000010 0.528939
-85.421349 181.671524 -0.000008 0.567407
-98.027550 181.305832 7.158947 0.621805
-98.027527 181.305832 6.448234 0.641855
-98.027519 181.305832 5.747504 0.664057
-98.027519 181.305832 5.055074 0.669108
-98.027512 181.305832 4.369337 0.626566
-98.027512 181.305832 3.688745 0.697780
-98.027603 181.305832 3.011803 0.651896
-98.027618 181.305832 2.337027 0.581064
-98.027481 181.305832 1.662975 0.702495
-98.027351 181.305832 0.988210 0.622415
-98.027214 181.305832 0.311278 0.614481
-94.818985 181.413101 -0.000019 0.539727
-90.918861 181.543503 -0.000015 0.538476
-88.428970 181.626740 -0.000012 0.524056
-86.698402 181.684601 -0.000010 0.512016
-85.423401 181.727234 -0.000008 0.539452
-97.623138 181.460358 7.056534 0.693202
-97.623215 181.460358 6.359952 0.637659
-97.623245 181.460358 5.673135 0.670939
-97.623245 181.460358 4.994447 0.635584
-97.623245 181.460358 4.322318 0.649866
-97.623238 181.460358 3.655232 0.654688
-97.623100 181.460358 2.991712 0.637201
-97.622971 181.460358 2.330333 0.626703
-97.623123 181.460358 1.669665 0.660624
-97.623520 181.460342 1.008267 0.692195
-97.623886 181.460342 0.344714 0.643503
-94.822624 181.534424 -0.000020 0.548318
-90.921669 181.637589 -0.000014 0.536446
-88.431259 181.703445 -0.000011 0.539345
-86.700333 181.749222 -0.000010 0.530861
-85.425072 181.782944 -0.000008 0.526329
-97.238838 181.608795 6.959442 0.645869
-97.238861 181.608795 6.276223 0.647593
-97.238861 181.608795 5.602592 0.647059
-97.238861 181.608795 4.936936 0.623606
-97.238861 181.608795 4.277718 0.664012
-97.238861 181.608795 3.623443 0.676783
-97.238853 181.608795 2.972673 0.632380
-97.238831 181.608795 2.323993 0.595407
-97.238831 181.608795 1.676008 0.626734
-97.238861 181.608795 1.027326 0.658396
-97.238914 181.608795 0.376551 0.631968
-94.825409 181.655762 -0.000019 0.530144
-90.923836 181.731689 -0.000015 0.534920
-88.433022 181.780167 -0.000012 0.548257
-86.701820 181.813858 -0.000010 0.518364
-85.426353 181.838669 -0.000008 0.545937
-96.896339 181.751297 6.873092 0.791714
-96.896339 181.751297 6.201763 0.777203
-96.896347 181.751297 5.539863 0.776471
-96.896347 181.751297 4.885799 0.776471
-96.896347 181.751297 4.238057 0.784466
-96.896339 181.751297 3.595176 0.782208
-96.621414 181.754730 2.942229 0.723171
-96.896339 181.751297 2.318352 0.782620
-96.896339 181.751297 1.681648 0.787289
-96.896339 181.751297 1.044263 0.782818
-96.867599 181.751663 0.407181 0.677241
-94.827347 181.777115 -0.000019 0.551690
-90.925339 181.825806 -0.000015 0.531212
-88.434250 181.856888 -0.000011 0.548272
-86.702850 181.878494 -0.000009 0.523217
-85.427238 181.894409 -0.000008 0.518425
-96.692139 181.888245 6.821635 0.678431
-96.538086 181.889084 6.124124 0.793225
-96.692139 181.888245 5.502482 0.678431
-96.692139 181.888245 4.855327 0.678431
-96.692139 181.888245 4.214424 0.678431
-96.538086 181.889084 3.565700 0.743084
-96.268082 181.890564 2.924812 0.695155
-96.692139 181.888245 2.314990 0.678431
-96.692139 181.888245 1.685010 0.678431
-96.692139 181.888245 1.054355 0.678431
-96.538086 181.889084 0.434299 0.774350
-94.828430 181.898483 -0.000019 0.528588
-90.926186 181.919937 -0.000015 0.554604
-88.434937 181.933624 -0.000011 0.531579
-86.703430 181.943146 -0.000010 0.524300
-85.427742 181.950150 -0.000008 0.502983
-96.344078 182.022110 6.734383 0.678431
-96.192810 182.021881 6.049493 0.796078
-96.344070 182.022110 5.439100 0.678431
-96.344070 182.022110 4.803656 0.678431
-96.344070 182.022110 4.174352 0.678431
-96.192810 182.021881 3.537367 0.804379
-95.967148 182.021545 2.910015 0.695994
-96.344078 182.022110 2.309290 0.678431
-96.344078 182.022110 1.690710 0.678431
-96.344078 182.022110 1.071467 0.678431
-96.192810 182.021881 0.462632 0.799985
-94.828674 182.019852 -0.000019 0.552483
-90.926369 182.014053 -0.000015 0.533837
-88.435089 182.010361 -0.000011 0.550958
-86.703560 182.007782 -0.000010 0.535729
-85.427856 182.005890 -0.000008 0.527291
-96.008392 182.151215 6.650458 0.678431
-95.598602 182.147751 5.921293 0.717418
-96.008392 182.151215 5.378139 0.678431
-96.008385 182.151215 4.753957 0.678431
-96.008392 182.151215 4.135809 0.678431
-95.859810 182.149963 3.510115 0.789441
-95.847008 182.149857 2.904145 0.776776
-96.008392 182.151215 2.303807 0.678431
-96.008392 182.151215 1.696193 0.678431
-96.008392 182.151215 1.087927 0.678431
-95.859810 182.149963 0.489884 0.790433
-94.828072 182.141220 -0.000019 0.549142
-90.925903 182.108185 -0.000015 0.544152
-88.434708 182.087097 -0.000011 0.549401
-86.703239 182.072433 -0.000009 0.532509
-85.427574 182.061630 -0.000007 0.538430
-95.684372 182.275833 6.569676 0.678431
-95.282364 182.269623 5.853311 0.688563
-95.684372 182.275833 5.319457 0.678431
-95.684372 182.275833 4.706117 0.678431
-95.684372 182.275833 4.098707 0.678431
-95.538391 182.273590 3.483882 0.788586
-95.538361 182.273590 2.889055 0.785672
-95.684372 182.275833 2.298529 0.678431
-95.684372 182.275833 1.701470 0.678431
-95.684372 182.275833 1.103771 0.678431
-95.538383 182.273590 0.516117 0.798032
-94.826622 182.262589 -0.000019 0.537514
-90.924774 182.202316 -0.000014 0.517494
-88.433792 182.163818 -0.000011 0.518776
-86.702461 182.137085 -0.000009 0.555795
-85.426910 182.117371 -0.000008 0.532815
-95.227867 182.392990 6.455903 0.715328
-94.975998 182.387344 5.787635 0.726116
-95.227867 182.392990 5.236811 0.720958
-95.227859 182.392990 4.638742 0.701717
-95.227859 182.392990 4.046454 0.735622
-95.227921 182.392990 3.458615 0.777615
-95.227882 182.392990 2.873916 0.780163
-95.227859 182.392990 2.291097 0.735042
-95.227859 182.392990 1.708903 0.716030
-95.227859 182.392990 1.126085 0.711406
-95.227921 182.392990 0.541384 0.791409
-94.824318 182.383942 -0.000019 0.533532
-90.922989 182.296417 -0.000014 0.551583
-88.432335 182.240555 -0.000011 0.537911
-86.701241 182.201721 -0.000009 0.505013
-85.425850 182.173111 -0.000008 0.549401
-94.713089 182.502090 6.327707 0.650767
-94.680504 182.501129 5.724472 0.697444
-94.899605 182.507584 5.177641 0.621210
-94.899628 182.507584 4.590509 0.663706
-94.713089 182.502090 3.987579 0.654200
-94.713089 182.502090 3.416648 0.563516
-94.899605 182.507584 2.857940 0.681376
-94.899979 182.507584 2.285782 0.629267
-94.900368 182.507599 1.714212 0.614252
-94.713097 182.502090 1.151226 0.654093
-94.629890 182.499649 0.590177 0.658305
-94.821167 182.505264 -0.000019 0.547768
-90.920555 182.390518 -0.000014 0.523735
-88.430351 182.317261 -0.000011 0.546365
-86.699562 182.266342 -0.000009 0.503792
-85.424408 182.228821 -0.000008 0.565301
-94.471535 182.613998 6.268156 0.650843
-94.469162 182.613907 5.679652 0.703410
-94.859375 182.628113 5.171045 0.623163
-94.859375 182.628113 4.585131 0.623438
-94.471542 182.613998 3.960230 0.659068
-94.471542 182.613998 3.397154 0.558984
-94.859360 182.628113 2.856158 0.691295
-94.859375 182.628113 2.285183 0.623850
-94.859375 182.628113 1.714817 0.629511
-94.471542 182.613998 1.162906 0.647898
-94.471542 182.613998 0.602846 0.494209
-94.612366 182.619125 0.023558 0.669825
-90.917458 182.484604 -0.000014 0.526116
-88.427826 182.393951 -0.000011 0.523720
-86.697441 182.330963 -0.000009 0.545983
-85.422577 182.284546 -0.000008 0.555474
-94.147964 182.719025 6.188218 0.595254
-94.417587 182.730728 5.669528 0.793683
-94.907425 182.751984 5.180682 0.656931
-94.907440 182.751984 4.592986 0.647059
-94.147964 182.719025 3.923517 0.652811
-94.147964 182.719025 3.370987 0.492760
-94.907417 182.751984 2.858760 0.668437
-94.907425 182.751984 2.286049 0.626581
-94.907433 182.751984 1.713951 0.626657
-94.147964 182.719025 1.178584 0.647669
-94.147964 182.719025 0.629013 0.547875
-94.332001 182.727005 0.055292 0.677974
-90.913704 182.578659 -0.000014 0.560861
-88.424767 182.470627 -0.000011 0.508766
-86.694862 182.395554 -0.000009 0.538567
-85.420349 182.340240 -0.000008 0.541726
-93.815399 182.819138 6.106181 0.658457
-94.364990 182.846832 5.659355 0.803464
-94.955719 182.876602 5.190522 0.670619
-94.955750 182.876602 4.601010 0.647059
-93.945374 182.825684 3.900811 0.647288
-93.816040 182.819168 3.344185 0.659388
-94.955734 182.876602 2.861418 0.693797
-94.955734 182.876602 2.286935 0.629465
-94.955750 182.876602 1.713065 0.647059
-93.945374 182.825684 1.188280 0.653071
-93.945374 182.825684 0.645196 0.569207
-94.060425 182.831482 0.085937 0.637842
-90.909294 182.672684 -0.000014 0.559716
-88.421165 182.547287 -0.000011 0.537758
-86.691833 182.460129 -0.000009 0.551308
-85.417740 182.395920 -0.000007 0.514626
-93.552681 182.918686 6.041811 0.651865
-94.358612 182.964951 5.659354 0.780514
-95.004295 183.002014 5.200576 0.620127
-95.004341 183.002014 4.609209 0.678431
-93.554596 182.918793 3.856497 0.647410
-93.554443 182.918793 3.323206 0.637034
-95.004333 183.002014 2.864134 0.658991
-95.004303 183.002014 2.287838 0.623529
-95.004349 183.002014 1.712161 0.671717
-93.554779 182.918808 1.207195 0.647059
-93.554512 182.918793 0.676788 0.646281
-93.797142 182.932724 0.115555 0.650767
-90.904221 182.766663 -0.000014 0.518730
-88.417038 182.623901 -0.000011 0.536171
-86.688354 182.524689 -0.000009 0.502235
-85.414742 182.451584 -0.000007 0.552850
-95.053261 183.128220 6.420185 0.635294
-94.351151 183.082993 5.659294 0.795575
-95.053185 183.128204 5.210851 0.614939
-95.053230 183.128220 4.617586 0.678431
-95.053268 183.128220 4.030051 0.710567
-95.053268 183.128220 3.446919 0.640848
-95.053253 183.128220 2.866910 0.630838
-95.053192 183.128204 2.288763 0.623529
-95.053238 183.128220 1.711237 0.663172
-95.053261 183.128220 1.133090 0.623529
-95.053268 183.128220 0.553080 0.635294
-93.541824 183.030869 0.144186 0.624475
-90.898499 182.860626 -0.000014 0.530068
-88.412369 182.700500 -0.000011 0.551308
-86.684425 182.589218 -0.000009 0.510292
-85.411354 182.507217 -0.000008 0.510674
-93.092804 183.111710 5.929960 0.719097
-93.294014 183.126083 5.432128 0.618479
-93.294014 183.126083 4.891466 0.618997
-93.294014 183.126083 4.357207 0.630594
-93.294022 183.126083 3.828113 0.627390
-93.294014 183.126083 3.302988 0.656672
-93.294014 183.126083 2.780674 0.625086
-93.294014 183.126083 2.260039 0.659586
-93.294014 183.126083 1.739961 0.642084
-93.294022 183.126083 1.219325 0.614664
-93.294014 183.126083 0.697011 0.632441
-93.294022 183.126083 0.171886 0.613550
-90.892120 182.954544 -0.000013 0.519005
-88.407173 182.777069 -0.000011 0.545785
-86.680046 182.653717 -0.000009 0.533394
-85.407578 182.562836 -0.000007 0.548745
-92.855301 183.202942 5.872344 0.693355
-93.178535 183.228302 5.408907 0.124544
-93.178535 183.228302 4.871903 0.106065
-93.178535 183.228302 4.341259 0.143374
-93.178535 183.228302 3.815744 0.116182
-93.076859 183.220322 3.285810 0.794385
-93.178535 183.228302 2.775393 0.129412
-93.178535 183.228302 2.258280 0.110063
-93.178535 183.228302 1.741720 0.131685
-93.178535 183.228302 1.224607 0.124269
-93.076859 183.220322 0.714190 0.795850
-93.053375 183.218491 0.198698 0.669688
-90.885094 183.048401 -0.000014 0.537987
-88.401443 182.853592 -0.000011 0.526513
-86.675217 182.718185 -0.000009 0.557107
-85.403404 182.618423 -0.000007 0.545632
-92.624977 183.291580 5.816655 0.715908
-92.967361 183.320847 5.365082 0.678431
-92.967361 183.320847 4.834982 0.678431
-92.967361 183.320847 4.311160 0.678431
-92.967361 183.320847 3.792401 0.678431
-92.843132 183.310226 3.267311 0.778286
-92.967361 183.320847 2.765424 0.678431
-92.967361 183.320847 2.254959 0.678431
-92.967361 183.320847 1.745041 0.678431
-92.967361 183.320847 1.234576 0.678431
-92.843132 183.310226 0.732688 0.792981
-92.821060 183.308334 0.224491 0.667765
-90.877403 183.142212 -0.000014 0.541833
-88.395172 182.930069 -0.000011 0.555291
-86.669930 182.782608 -0.000009 0.545357
-85.398857 182.673981 -0.000007 0.502083
-92.401253 183.377716 5.762749 0.712245
-92.738403 183.408905 5.317513 0.678431
-92.738403 183.408905 4.794906 0.678431
-92.738403 183.408905 4.278489 0.678431
-92.738403 183.408905 3.767063 0.678431
-92.616020 183.397583 3.249397 0.798245
-92.738403 183.408905 2.754604 0.678431
-92.738403 183.408905 2.251355 0.678431
-92.738403 183.408905 1.748645 0.678431
-92.738403 183.408905 1.245396 0.678431
-92.616020 183.397583 0.750603 0.786358
-92.593765 183.395523 0.249647 0.657511
-90.869057 183.235977 -0.000014 0.520027
-88.388367 183.006500 -0.000011 0.527520
-86.664200 182.847000 -0.000009 0.533547
-85.393913 182.729492 -0.000007 0.597604
-92.184097 183.461487 5.710608 0.694438
-92.515831 183.494507 5.271428 0.678431
-92.515823 183.494507 4.756081 0.678431
-92.515823 183.494507 4.246837 0.678431
-92.515831 183.494507 3.742516 0.678431
-92.395233 183.482498 3.232042 0.791135
-92.515823 183.494507 2.744122 0.678431
-92.515831 183.494507 2.247863 0.678431
-92.515831 183.494507 1.752137 0.678431
-92.515823 183.494507 1.255878 0.678431
-92.395233 183.482498 0.767958 0.789059
-92.372688 183.480255 0.274032 0.615763
-90.860062 183.329666 -0.000014 0.557824
-88.381035 183.082886 -0.000011 0.532753
-86.658020 182.911362 -0.000009 0.535225
-85.388588 182.784988 -0.000007 0.521248
-92.050705 183.551270 5.679676 0.678141
-92.299332 183.577774 5.226759 0.678431
-92.299332 183.577774 4.718449 0.678431
-92.299332 183.577774 4.216158 0.678431
-92.299332 183.577774 3.718723 0.678431
-92.180481 183.565094 3.215220 0.789166
-92.299332 183.577774 2.733961 0.678431
-92.299332 183.577774 2.244479 0.678431
-92.299332 183.577774 1.755521 0.678431
-92.299332 183.577774 1.266039 0.678431
-92.180481 183.565094 0.784780 0.735378
-92.158478 183.562759 0.297572 0.667185
-90.850410 183.423309 -0.000014 0.535378
-88.373169 183.159210 -0.000011 0.546151
-86.651390 182.975662 -0.000009 0.510552
-85.382874 182.840439 -0.000007 0.523659
-91.971497 183.645477 5.662539 0.777935
-92.088661 183.658798 5.183447 0.678431
-92.088654 183.658798 4.681959 0.678431
-92.088661 183.658798 4.186412 0.678431
-92.088654 183.658798 3.695653 0.678431
-91.971504 183.645477 3.198910 0.807843
-92.088661 183.658798 2.724110 0.678431
-92.088661 183.658798 2.241197 0.678431
-92.088661 183.658798 1.758803 0.678431
-92.088661 183.658798 1.275890 0.678431
-91.971504 183.645477 0.801090 0.725582
-91.950027 183.643036 0.320397 0.620737
-90.840103 183.516876 -0.000013 0.549767
-88.364761 183.235489 -0.000010 0.513329
-86.644318 183.039917 -0.000009 0.546807
-85.376770 182.895844 -0.000007 0.555367
-91.768036 183.723724 5.614202 0.710185
-91.883560 183.737671 5.141434 0.678431
-91.883560 183.737671 4.646564 0.678431
-91.883560 183.737671 4.157557 0.678431
-91.768028 183.723724 3.659888 0.729381
-91.565056 183.699219 3.166322 0.693751
-91.883560 183.737671 2.714553 0.678431
-91.883560 183.737671 2.238014 0.678431
-91.883560 183.737671 1.761986 0.678431
-91.883560 183.737671 1.285447 0.678431
-91.768051 183.723724 0.816912 0.790204
-91.746758 183.721161 0.342576 0.642741
-90.829147 183.610352 -0.000014 0.555184
-88.355827 183.311707 -0.000010 0.540261
-86.636787 183.104126 -0.000009 0.539712
-85.370277 182.951202 -0.000007 0.593225
-91.569870 183.799942 5.567297 0.741360
-91.569862 183.799942 5.075857 0.740810
-91.569862 183.799942 4.591318 0.724224
-91.569862 183.799942 4.112518 0.753231
-91.569870 183.799942 3.638347 0.585657
-91.469452 183.787109 3.159431 0.725353
-91.569862 183.799942 2.699637 0.706859
-91.569862 183.799942 2.233046 0.731716
-91.569862 183.799942 1.766954 0.726177
-91.569862 183.799942 1.300363 0.743557
-91.569878 183.799942 0.832266 0.802380
-91.549026 183.797287 0.364071 0.607217
-90.817535 183.703766 -0.000014 0.536553
-88.346367 183.387863 -0.000010 0.537774
-86.628815 183.168289 -0.000009 0.560845
-85.363403 183.006516 -0.000007 0.524849
-91.356163 183.871429 5.516556 0.643030
-91.356155 183.871429 5.032106 0.655848
-91.356163 183.871429 4.554460 0.623484
-91.356155 183.871429 4.082470 0.617655
-91.356155 183.871429 3.615042 0.645289
-91.356163 183.871429 3.151122 0.614710
-91.356155 183.871429 2.689685 0.661601
-91.356155 183.871429 2.229731 0.604944
-91.356155 183.871429 1.770269 0.683040
-91.356155 183.871429 1.310314 0.618463
-91.356155 183.871429 0.848878 0.699046
-91.356155 183.871429 0.384958 0.639109
-90.805275 183.797089 -0.000013 0.519158
-88.336372 183.463943 -0.000010 0.537240
-86.620392 183.232391 -0.000008 0.511833
-85.356140 183.061783 -0.000007 0.516030
-91.168098 183.943710 5.472376 0.628367
-91.168098 183.943710 4.994014 0.626657
-91.168091 183.943710 4.522367 0.605188
-91.168098 183.943710 4.056308 0.671351
-91.168091 183.943710 3.594753 0.629831
-91.168076 183.943710 3.136659 0.652384
-91.168098 183.943710 2.681021 0.629526
-91.168129 183.943710 2.226845 0.653971
-91.168129 183.943710 1.773155 0.628702
-91.168129 183.943710 1.318977 0.609827
-91.168129 183.943710 0.863337 0.618524
-91.168121 183.943710 0.405244 0.670893
-90.792358 183.890335 -0.000014 0.538720
-88.325844 183.539948 -0.000010 0.540520
-86.611526 183.296417 -0.000008 0.527214
-85.348495 183.117004 -0.000006 0.531945
-90.984604 184.014191 5.429438 0.695094
-90.984612 184.014191 4.956991 0.654078
-90.984604 184.014191 4.491177 0.648020
-90.984604 184.014175 4.030880 0.711101
-90.984604 184.014175 3.575032 0.655039
-90.984581 184.014175 3.122602 0.644312
-90.984596 184.014175 2.672599 0.674067
-90.984650 184.014191 2.224040 0.651255
-90.984695 184.014191 1.775959 0.679164
-90.984695 184.014191 1.327396 0.607767
-90.984695 184.014191 0.877387 0.626932
-90.984695 184.014191 0.424957 0.642680
-90.778793 183.983475 -0.000013 0.527169
-88.314789 183.615891 -0.000010 0.571023
-86.602211 183.360397 -0.000008 0.551888
-85.340462 183.172165 -0.000007 0.553933
-90.806404 184.083069 5.387917 0.620417
-90.806404 184.083069 4.921189 0.629419
-90.806404 184.083069 4.461016 0.663600
-90.806404 184.083069 4.006292 0.620478
-90.806404 184.083069 3.555963 0.628473
-90.806427 184.083069 3.109015 0.660075
-90.806419 184.083069 2.664457 0.647990
-90.806366 184.083069 2.221327 0.658412
-90.806320 184.083054 1.778674 0.635721
-90.806282 184.083054 1.335550 0.589487
-90.806282 184.083054 0.890997 0.636210
-90.806282 184.083054 0.444051 0.663447
-90.764580 184.076523 -0.000013 0.518273
-88.303192 183.691742 -0.000010 0.517952
-86.592445 183.424301 -0.000008 0.547066
-85.332047 183.227264 -0.000006 0.603235
-90.631851 184.150208 5.347399 0.614389
-90.631859 184.150208 4.886254 0.660380
-90.631859 184.150208 4.431583 0.617395
-90.631851 184.150208 3.982298 0.652445
-90.631859 184.150208 3.537354 0.637034
-90.631882 184.150208 3.095752 0.619760
-90.631882 184.150208 2.656511 0.652216
-90.631836 184.150208 2.218680 0.675593
-90.631798 184.150192 1.781321 0.652018
-90.631752 184.150192 1.343495 0.641810
-90.631729 184.150192 0.904260 0.653223
-90.631729 184.150192 0.462660 0.676890
-90.631790 184.150192 0.017712 0.678981
-88.291077 183.767517 -0.000010 0.475380
-86.582237 183.488144 -0.000008 0.518624
-85.323242 183.282303 -0.000006 0.580728
-90.461479 184.215775 5.308012 0.686900
-90.461479 184.215775 4.852293 0.692866
-90.461479 184.215775 4.402972 0.662318
-90.461479 184.215775 3.958972 0.654353
-90.461472 184.215775 3.519265 0.612039
-90.461502 184.215775 3.082859 0.651820
-90.461510 184.215775 2.648786 0.633570
-90.461472 184.215775 2.216107 0.685008
-90.461426 184.215759 1.783894 0.646815
-90.461388 184.215759 1.351219 0.666514
-90.461349 184.215759 0.917154 0.695979
-90.461334 184.215744 0.480752 0.689769
-90.461327 184.215744 0.041050 0.668132
-88.278427 183.843201 -0.000010 0.559579
-86.571579 183.551910 -0.000008 0.539895
-85.314056 183.337280 -0.000007 0.559777
-90.295135 184.279831 5.269718 0.624567
-90.295135 184.279831 4.819275 0.645029
-90.295135 184.279831 4.375155 0.620081
-90.295135 184.279831 3.936296 0.682872
-90.295135 184.279831 3.501678 0.679332
-90.295174 184.279846 3.070324 0.612085
-90.295181 184.279846 2.641277 0.618433
-90.295135 184.279831 2.213606 0.698146
-90.295097 184.279831 1.786395 0.643336
-90.295052 184.279816 1.358730 0.616403
-90.295006 184.279816 0.929689 0.661799
-90.294960 184.279800 0.498343 0.629694
-90.294952 184.279800 0.063732 0.647166
-88.265259 183.918808 -0.000010 0.531792
-86.560486 183.615585 -0.000008 0.501717
-85.304489 183.392197 -0.000007 0.561883
-90.131363 184.342209 5.232144 0.689448
-90.131363 184.342209 4.786876 0.639551
-90.131363 184.342194 4.347860 0.611765
-90.131363 184.342209 3.914045 0.621454
-90.131363 184.342194 3.484421 0.688518
-90.131332 184.342194 3.058019 0.652415
-90.131325 184.342194 2.633903 0.592447
-90.131355 184.342194 2.211150 0.659205
-90.131393 184.342209 1.788849 0.629831
-90.131424 184.342209 1.366092 0.616342
-90.131454 184.342224 0.941970 0.703639
-90.131493 184.342224 0.515564 0.623636
-90.131531 184.342224 0.085931 0.612345
-88.251556 183.994308 -0.000010 0.535882
-86.548943 183.679199 -0.000008 0.552758
-85.294533 183.447052 -0.000006 0.507103
-90.080589 184.424164 5.223453 0.687068
-90.080589 184.424164 4.779383 0.657969
-90.080589 184.424164 4.341547 0.620813
-90.080589 184.424164 3.908898 0.623041
-90.080589 184.424164 3.480430 0.660563
-90.080589 184.424164 3.055177 0.682078
-90.080490 184.424149 2.632195 0.619440
-90.080322 184.424118 2.210579 0.666438
-90.080154 184.424088 1.789424 0.663890
-90.079979 184.424057 1.367830 0.621485
-90.079796 184.424011 0.944889 0.647349
-90.079605 184.423981 0.519686 0.647852
-90.079582 184.423981 0.091254 0.618631
-88.237328 184.069702 -0.000010 0.545556
-86.536957 183.742722 -0.000008 0.541939
-85.284195 183.501816 -0.000006 0.544671
-90.103729 184.520401 5.233776 0.613184
-90.103729 184.520401 4.788283 0.621302
-90.103729 184.520401 4.349047 0.591394
-90.103729 184.520401 3.915011 0.598245
-90.103729 184.520401 3.485171 0.675532
-90.103729 184.520401 3.058556 0.637949
-90.103729 184.520401 2.634225 0.607340
-90.103722 184.520401 2.211258 0.691707
-90.103722 184.520401 1.788743 0.672923
-90.103714 184.520401 1.365775 0.621881
-90.103706 184.520386 0.941445 0.662409
-90.103706 184.520386 0.514832 0.616892
-90.103699 184.520386 0.084993 0.591516
-88.222572 184.145020 -0.000010 0.548669
-86.524521 183.806168 -0.000008 0.542550
-85.273476 183.556519 -0.000006 0.540093
-90.142189 184.620392 5.248202 0.617533
-90.142189 184.620392 4.800723 0.585489
-90.142189 184.620392 4.359526 0.642191
-90.142189 184.620392 3.923554 0.619028
-90.142189 184.620392 3.491797 0.647791
-90.142189 184.620392 3.063278 0.645991
-90.142197 184.620392 2.637055 0.601968
-90.142204 184.620392 2.212200 0.612589
-90.142212 184.620392 1.787800 0.645762
-90.142220 184.620392 1.362944 0.628855
-90.142227 184.620392 0.936718 0.599908
-90.142235 184.620392 0.508198 0.613062
-90.142242 184.620392 0.076437 0.615991
-88.207298 184.220215 -0.000010 0.529595
-86.511650 183.869522 -0.000008 0.510506
-85.262383 183.611145 -0.000006 0.540658
-90.180992 184.721283 5.262919 0.650797
-90.180992 184.721283 4.813412 0.645136
-90.180992 184.721283 4.370215 0.634516
-90.180992 184.721283 3.932269 0.648707
-90.180984 184.721283 3.498555 0.695537
-90.180992 184.721283 3.068096 0.686030
-90.180992 184.721283 2.639941 0.641230
-90.180992 184.721283 2.213161 0.674891
-90.180992 184.721283 1.786839 0.615854
-90.180984 184.721283 1.360059 0.645441
-90.180984 184.721283 0.931904 0.667491
-90.180984 184.721268 0.501446 0.654215
-90.180984 184.721268 0.067732 0.648447
-88.191490 184.295303 -0.000010 0.546014
-86.498337 183.932785 -0.000008 0.540276
-85.250900 183.665695 -0.000006 0.559319
-90.220154 184.823090 5.277929 0.643671
-90.220154 184.823090 4.826355 0.623209
-90.220154 184.823090 4.381120 0.649470
-90.220154 184.823090 3.941158 0.669429
-90.220146 184.823090 3.505449 0.676341
-90.220154 184.823090 3.073009 0.699260
-90.220154 184.823090 2.642885 0.633005
-90.220161 184.823090 2.214142 0.696605
-90.220169 184.823090 1.785858 0.662379
-90.220184 184.823105 1.357113 0.658640
-90.220192 184.823105 0.926987 0.667063
-90.220200 184.823105 0.494545 0.663996
-90.220200 184.823105 0.058834 0.653483
-88.175163 184.370285 -0.000010 0.556466
-86.484581 183.995956 -0.000007 0.531228
-85.239044 183.720169 -0.000006 0.537774
-90.259674 184.925842 5.293240 0.641978
-90.259674 184.925842 4.839556 0.650919
-90.259674 184.925842 4.392241 0.636698
-90.259674 184.925842 3.950225 0.637888
-90.259674 184.925842 3.512481 0.617838
-90.259674 184.925842 3.078021 0.617411
-90.259674 184.925842 2.645888 0.626032
-90.259666 184.925842 2.215142 0.585306
-90.259659 184.925842 1.784858 0.622049
-90.259659 184.925842 1.354113 0.651179
-90.259651 184.925842 0.921980 0.591775
-90.259644 184.925842 0.487522 0.658839
-90.259644 184.925842 0.049779 0.643793
-88.158310 184.445145 -0.000010 0.487358
-86.470383 184.059021 -0.000008 0.549462
-85.226799 183.774551 -0.000006 0.521248
-90.299568 185.029572 5.308857 0.668147
-90.299568 185.029572 4.853021 0.669398
-90.299568 185.029572 4.403584 0.668757
-90.299568 185.029572 3.959473 0.641688
-90.299568 185.029572 3.519653 0.614221
-90.299568 185.029572 3.083133 0.648051
-90.299568 185.029572 2.648951 0.635157
-90.299576 185.029572 2.216163 0.661036
-90.299576 185.029572 1.783838 0.654780
-90.299576 185.029572 1.351049 0.627573
-90.299576 185.029572 0.916866 0.660655
-90.299576 185.029587 0.480346 0.668574
-90.299576 185.029587 0.040525 0.640681
-88.140938 184.519897 -0.000009 0.536141
-86.455750 184.121994 -0.000008 0.553368
-85.214180 183.828842 -0.000006 0.486213
-90.339844 185.134293 5.324784 0.685649
-90.339844 185.134293 4.866755 0.672999
-90.339844 185.134293 4.415155 0.673320
-90.339844 185.134293 3.968905 0.678737
-90.339844 185.134293 3.526968 0.648508
-90.339844 185.134293 3.088347 0.645685
-90.339851 185.134293 2.652075 0.659129
-90.339851 185.134308 2.217203 0.671992
-90.339859 185.134308 1.782797 0.630915
-90.339867 185.134308 1.347924 0.643091
-90.339874 185.134308 0.911650 0.653223
-90.339874 185.134308 0.473028 0.681804
-90.339874 185.134308 0.031090 0.685924
-88.123047 184.594513 -0.000010 0.547936
-86.440674 184.184860 -0.000007 0.531914
-85.201180 183.883041 -0.000006 0.513420
-90.380508 185.240036 5.341029 0.612589
-90.380508 185.240036 4.880761 0.617365
-90.380516 185.240036 4.426957 0.627924
-90.380508 185.240036 3.978526 0.648692
-90.380508 185.240036 3.534429 0.636515
-90.380516 185.240036 3.093665 0.615808
-90.380516 185.240036 2.655261 0.667720
-90.380524 185.240051 2.218264 0.661128
-90.380539 185.240051 1.781736 0.628168
-90.380547 185.240051 1.344738 0.642786
-90.380554 185.240051 0.906332 0.592096
-90.380562 185.240051 0.465565 0.689097
-90.380562 185.240051 0.021467 0.659464
-88.104630 184.669006 -0.000009 0.555428
-86.425156 184.247620 -0.000007 0.553765
-85.187805 183.937164 -0.000005 0.585901
-90.421585 185.346817 5.357599 0.620264
-90.421585 185.346817 4.895048 0.636790
-90.421585 185.346832 4.438993 0.615564
-90.421585 185.346817 3.988338 0.645960
-90.421585 185.346832 3.542039 0.644541
-90.421585 185.346832 3.099089 0.622904
-90.421593 185.346832 2.658510 0.633249
-90.421600 185.346832 2.219347 0.664302
-90.421608 185.346832 1.780653 0.631144
-90.421616 185.346832 1.341488 0.643732
-90.421623 185.346832 0.900908 0.621530
-90.421631 185.346832 0.457955 0.639017
-90.421631 185.346832 0.011654 0.696483
-88.085693 184.743378 -0.000009 0.531060
-86.409210 184.310272 -0.000007 0.571420
-85.174049 183.991180 -0.000005 0.541497
-90.463066 185.454681 5.374499 0.626841
-90.463066 185.454681 4.909620 0.645685
-90.463066 185.454681 4.451268 0.628824
-90.463066 185.454681 3.998346 0.629694
-90.463066 185.454681 3.549800 0.626703
-90.463066 185.454681 3.104621 0.644739
-90.463074 185.454681 2.661825 0.664683
-90.463081 185.454681 2.220451 0.651652
-90.463081 185.454681 1.779549 0.627634
-90.463097 185.454681 1.338174 0.645136
-90.463097 185.454681 0.895376 0.630198
-90.463104 185.454697 0.450195 0.654093
-90.473915 185.457565 -0.000012 0.507103
-88.066238 184.817596 -0.000009 0.541665
-86.392822 184.372803 -0.000007 0.548012
-85.159920 184.045090 -0.000006 0.540200
-90.504967 185.563629 5.391736 0.629923
-90.504967 185.563629 4.924482 0.673609
-90.504967 185.563629 4.463790 0.696223
-90.504967 185.563629 4.008554 0.622858
-90.504967 185.563629 3.557717 0.650843
-90.504967 185.563629 3.110263 0.633951
-90.504974 185.563629 2.665205 0.678431
-90.504974 185.563629 2.221577 0.687037
-90.504974 185.563629 1.778423 0.639826
-90.504982 185.563629 1.334794 0.614801
-90.504982 185.563629 0.889735 0.662531
-90.504990 185.563629 0.442281 0.677363
-90.449417 185.548447 -0.000012 0.546136
-88.046272 184.891693 -0.000009 0.536126
-86.375992 184.435226 -0.000007 0.546624
-85.145409 184.098923 -0.000006 0.547250
-90.547302 185.673706 5.409317 0.681254
-90.547302 185.673706 4.939641 0.678065
-90.547302 185.673706 4.476561 0.638270
-90.547302 185.673706 4.018966 0.591531
-90.547302 185.673706 3.565792 0.611978
-90.547302 185.673706 3.116018 0.665904
-90.547302 185.673706 2.668653 0.687648
-90.547302 185.673706 2.222725 0.664454
-90.547302 185.673706 1.777275 0.628382
-90.547302 185.673706 1.331347 0.618585
-90.547295 185.673706 0.883982 0.644968
-90.547287 185.673706 0.434210 0.640421
-90.424286 185.639160 -0.000011 0.544884
-88.025780 184.965637 -0.000009 0.549294
-86.358734 184.497528 -0.000007 0.538247
-85.130524 184.152634 -0.000005 0.534066
-90.590080 185.784927 5.427249 0.683436
-90.590088 185.784927 4.955104 0.630533
-90.590088 185.784927 4.489588 0.671870
-90.590080 185.784927 4.029584 0.639643
-90.590080 185.784927 3.574027 0.679240
-90.590080 185.784927 3.121889 0.635111
-90.590088 185.784927 2.672171 0.712703
-90.590073 185.784927 2.223897 0.651835
-90.590057 185.784927 1.776104 0.637675
-90.590050 185.784927 1.327831 0.637369
-90.590034 185.784912 0.878115 0.630060
-90.590027 185.784912 0.425980 0.646662
-90.398521 185.729691 -0.000012 0.529335
-88.004776 185.039444 -0.000009 0.517723
-86.341042 184.559708 -0.000007 0.518090
-85.115273 184.206253 -0.000006 0.586023
-90.633316 185.897339 5.445539 0.625223
-90.633316 185.897339 4.970875 0.686656
-90.633316 185.897339 4.502874 0.632136
-90.633316 185.897339 4.040416 0.758694
-90.633316 185.897339 3.582427 0.626322
-90.633316 185.897339 3.127875 0.683574
-90.633316 185.897339 2.675758 0.662242
-90.633316 185.897339 2.225091 0.662974
-90.633324 185.897339 1.774908 0.629862
-90.633324 185.897339 1.324242 0.609552
-90.633324 185.897339 0.872124 0.616022
-90.633316 185.897339 0.417572 0.622644
-90.372124 185.820053 -0.000011 0.543999
-87.983261 185.113113 -0.000009 0.567437
-86.322906 184.621765 -0.000007 0.570993
-85.099640 184.259750 -0.000006 0.471916
-90.677017 186.010956 5.464196 0.647440
-90.677017 186.010956 4.986960 0.662074
-90.677017 186.010956 4.516427 0.627710
-90.677017 186.010956 4.051464 0.703288
-90.677017 186.010956 3.590996 0.682261
-90.677017 186.010956 3.133983 0.691814
-90.677017 186.010956 2.679417 0.663493
-90.677002 186.010956 2.226310 0.634516
-90.676994 186.010956 1.773690 0.658061
-90.676971 186.010956 1.320585 0.620005
-90.676964 186.010941 0.866021 0.655909
-90.676956 186.010941 0.409011 0.651865
-90.345100 185.910217 -0.000011 0.513771
-87.961227 185.186615 -0.000009 0.537804
-86.304344 184.683685 -0.000007 0.540780
-85.083633 184.313156 -0.000005 0.549065
-90.721191 186.125824 5.483227 0.647730
-90.721191 186.125824 5.003370 0.646235
-90.721191 186.125824 4.530251 0.612985
-90.721191 186.125824 4.062735 0.673548
-90.721191 186.125824 3.599736 0.648600
-90.721191 186.125824 3.140213 0.617166
-90.721199 186.125824 2.683149 0.654795
-90.721191 186.125824 2.227554 0.634150
-90.721184 186.125824 1.772446 0.660533
-90.721176 186.125824 1.316851 0.616251
-90.721169 186.125824 0.859789 0.685237
-90.721169 186.125824 0.400267 0.666926
-90.317444 186.000183 -0.000011 0.542290
-87.938683 185.259964 -0.000009 0.534997
-86.285355 184.745483 -0.000007 0.544320
-85.067261 184.366425 -0.000005 0.511406
-90.765862 186.241959 5.502640 0.712749
-90.765862 186.241959 5.020109 0.642405
-90.765862 186.241959 4.544352 0.647395
-90.765862 186.241959 4.074230 0.655390
-90.765862 186.241959 3.608652 0.587625
-90.765862 186.241959 3.146567 0.601160
-90.765869 186.241959 2.686957 0.616724
-90.765862 186.241959 2.228822 0.659876
-90.765862 186.241959 1.771178 0.634073
-90.765862 186.241959 1.313043 0.658900
-90.765862 186.241959 0.853433 0.626749
-90.765854 186.241959 0.391349 0.673106
-90.289162 186.089966 -0.000011 0.515663
-87.915627 185.333145 -0.000009 0.504173
-86.265930 184.807144 -0.000007 0.591058
-85.050507 184.419601 -0.000005 0.588739
-90.811035 186.359406 5.522442 0.647532
-90.811035 186.359406 5.037183 0.709438
-90.811035 186.359406 4.558737 0.639170
-90.811035 186.359406 4.085957 0.623911
-90.811035 186.359406 3.617747 0.616800
-90.811035 186.359406 3.153049 0.611322
-90.811035 186.359406 2.690840 0.639338
-90.811035 186.359406 2.230116 0.639735
-90.811035 186.359406 1.769884 0.679622
-90.811035 186.359406 1.309159 0.642618
-90.811035 186.359406 0.846950 0.677562
-90.811035 186.359406 0.382253 0.639246
-90.260254 186.179550 -0.000011 0.549279
-87.892059 185.406174 -0.000009 0.509117
-86.246071 184.868668 -0.000006 0.498970
-85.033394 184.472641 -0.000006 0.491142
-90.856720 186.478195 5.542644 0.643107
-90.856720 186.478195 5.054602 0.649210
-90.856720 186.478195 4.573412 0.655177
-90.856720 186.478195 4.097920 0.611933
-90.856720 186.478195 3.627025 0.642039
-90.856720 186.478195 3.159662 0.650507
-90.856720 186.478195 2.694803 0.623652
-90.856720 186.478195 2.231435 0.640162
-90.856720 186.478195 1.768565 0.629053
-90.856720 186.478195 1.305197 0.666972
-90.856720 186.478195 0.840337 0.630701
-90.856712 186.478195 0.372976 0.651469
-90.230721 186.268921 -0.000011 0.542123
-87.867981 185.479034 -0.000008 0.559304
-86.225792 184.930054 -0.000007 0.545678
-85.015900 184.525574 -0.000005 0.605829
-90.902931 186.598358 5.563252 0.596231
-90.902931 186.598358 5.072372 0.656107
-90.902939 186.598358 4.588383 0.691814
-90.902931 186.598358 4.110125 0.612451
-90.902931 186.598358 3.636489 0.662852
-90.902931 186.598358 3.166409 0.639673
-90.902939 186.598358 2.698844 0.621088
-90.902931 186.598358 2.232782 0.631907
-90.902931 186.598358 1.767218 0.640162
-90.902924 186.598358 1.301156 0.672267
-90.902916 186.598358 0.833593 0.669306
-90.902916 186.598358 0.363513 0.595697
-90.200562 186.358093 -0.000010 0.570230
-87.843399 185.551727 -0.000008 0.531701
-86.205078 184.991287 -0.000006 0.580209
-84.998047 184.578384 -0.000005 0.558434
-90.949692 186.719940 5.584279 0.670314
-90.949692 186.719940 5.090501 0.649805
-90.949692 186.719940 4.603655 0.666377
-90.949692 186.719940 4.122576 0.652079
-90.949692 186.719940 3.646146 0.618463
-90.949699 186.719940 3.173291 0.643381
-90.949699 186.719940 2.702968 0.620569
-90.949684 186.719940 2.234155 0.609842
-90.949677 186.719925 1.765845 0.640375
-90.949661 186.719925 1.297033 0.657862
-90.949654 186.719925 0.826712 0.634134
-90.949646 186.719925 0.353859 0.595956
-90.169785 186.447037 -0.000011 0.497429
-87.818306 185.624252 -0.000008 0.514000
-86.183945 185.052383 -0.000006 0.512810
-84.979820 184.631058 -0.000005 0.499062
-90.997009 186.842957 5.605732 0.653300
-90.997009 186.842957 5.108998 0.679377
-90.997009 186.842957 4.619239 0.630030
-90.997009 186.842957 4.135280 0.665614
-90.997009 186.842957 3.655998 0.652644
-90.997009 186.842957 3.180314 0.623621
-90.997017 186.842957 2.707176 0.622232
-90.997017 186.842957 2.235557 0.594568
-90.997025 186.842957 1.764443 0.692439
-90.997025 186.842972 1.292824 0.659419
-90.997025 186.842957 0.819685 0.647623
-90.997017 186.842957 0.344000 0.636515
-90.138390 186.535782 -0.000010 0.534020
-87.792709 185.696594 -0.000008 0.546288
-86.162376 185.113327 -0.000006 0.549630
-84.961227 184.683609 -0.000005 0.565118
-91.044891 186.967468 5.627620 0.641230
-91.044899 186.967468 5.127872 0.676722
-91.044899 186.967468 4.635139 0.648356
-91.044899 186.967468 4.148243 0.623529
-91.044899 186.967468 3.666052 0.674861
-91.044899 186.967468 3.187479 0.617884
-91.044907 186.967468 2.711469 0.626062
-91.044891 186.967468 2.236987 0.638285
-91.044884 186.967468 1.763014 0.652995
-91.044868 186.967468 1.288533 0.646540
-91.044861 186.967468 0.812524 0.631235
-91.044861 186.967453 0.333953 0.642069
-90.106369 186.624298 -0.000011 0.563851
-87.766609 185.768753 -0.000008 0.534096
-86.140388 185.174118 -0.000006 0.538827
-84.942261 184.736023 -0.000005 0.509300
-91.093369 187.093506 5.649955 0.656077
-91.093369 187.093506 5.147129 0.633555
-91.093376 187.093506 4.651364 0.594507
-91.093376 187.093506 4.161469 0.616510
-91.093376 187.093506 3.676310 0.691829
-91.093376 187.093506 3.194790 0.585641
-91.093384 187.093506 2.715849 0.665873
-91.093376 187.093506 2.238446 0.650507
-91.093376 187.093506 1.761554 0.644953
-91.093369 187.093506 1.284151 0.655528
-91.093369 187.093506 0.805210 0.638071
-91.093369 187.093506 0.323691 0.622156
-90.073738 186.712585 -0.000010 0.528496
-87.740005 185.840729 -0.000008 0.553368
-86.117973 185.234756 -0.000006 0.587335
-84.922935 184.788315 -0.000005 0.540383
-91.142448 187.221115 5.672748 0.629419
-91.142448 187.221115 5.166781 0.596841
-91.142456 187.221115 4.667921 0.700435
-91.142456 187.221115 4.174966 0.647745
-91.142456 187.221115 3.686778 0.617899
-91.142456 187.221115 3.202251 0.596017
-91.142464 187.221130 2.720320 0.621775
-91.142464 187.221130 2.239935 0.630671
-91.142464 187.221130 1.760065 0.677226
-91.142464 187.221130 1.279680 0.621241
-91.142464 187.221115 0.797748 0.632975
-91.142456 187.221115 0.313222 0.619669
-90.040489 186.800644 -0.000010 0.527947
-87.712898 185.912521 -0.000008 0.523491
-86.095139 185.295242 -0.000006 0.564904
-84.903244 184.840454 -0.000005 0.505165
-91.192146 187.350342 5.696007 0.695613
-91.192146 187.350342 5.186837 0.616312
-91.192146 187.350342 4.684816 0.630701
-91.192154 187.350342 4.188740 0.619318
-91.192154 187.350342 3.697459 0.646174
-91.192154 187.350342 3.209865 0.621790
-91.192162 187.350342 2.724881 0.621698
-91.192162 187.350342 2.241455 0.631495
-91.192162 187.350342 1.758545 0.627390
-91.192169 187.350342 1.275118 0.654948
-91.192169 187.350342 0.790134 0.634165
-91.192162 187.350342 0.302539 0.615579
-90.006630 186.888474 -0.000010 0.543069
-87.685295 185.984116 -0.000008 0.566842
-86.071884 185.355560 -0.000006 0.520119
-84.883194 184.892471 -0.000005 0.537545
-91.242477 187.481201 5.719745 0.629114
-91.242485 187.481201 5.207305 0.626062
-91.242485 187.481216 4.702060 0.635996
-91.242485 187.481216 4.202799 0.566537
-91.242485 187.481201 3.708362 0.644022
-91.242493 187.481216 3.217636 0.682033
-91.242493 187.481216 2.729537 0.614984
-91.242493 187.481216 2.243005 0.619440
-91.242493 187.481216 1.756995 0.662226
-91.242493 187.481216 1.270463 0.614160
-91.242493 187.481216 0.782364 0.613138
-91.242485 187.481216 0.291638 0.669017
-89.972145 186.976059 -0.000010 0.525338
-87.657188 186.055527 -0.000008 0.546975
-86.048203 185.415710 -0.000006 0.560174
-84.862778 184.944336 -0.000005 0.538842
-91.293465 187.613770 5.743974 0.616693
-91.293472 187.613770 5.228196 0.672648
-91.293472 187.613770 4.719660 0.618082
-91.293472 187.613770 4.217147 0.655131
-91.293472 187.613770 3.719489 0.624903
-91.293472 187.613770 3.225566 0.657160
-91.293480 187.613785 2.734289 0.665431
-91.293472 187.613785 2.244588 0.623102
-91.293465 187.613770 1.755412 0.654826
-91.293465 187.613770 1.265712 0.634577
-91.293457 187.613770 0.774434 0.634012
-91.293457 187.613770 0.280513 0.633265
-89.937057 187.063400 -0.000010 0.542626
-87.628578 186.126724 -0.000008 0.516136
-86.024101 185.475708 -0.000006 0.604105
-84.842003 184.996063 -0.000005 0.576516
-91.345131 187.748093 5.768707 0.667308
-91.345131 187.748093 5.249522 0.656031
-91.345131 187.748093 4.737626 0.608454
-91.345131 187.748093 4.231793 0.648463
-91.345131 187.748093 3.730848 0.649058
-91.345131 187.748093 3.233663 0.643870
-91.345139 187.748093 2.739140 0.637720
-91.345146 187.748093 2.246204 0.619150
-91.345161 187.748108 1.753796 0.665675
-91.345169 187.748108 1.260859 0.626657
-91.345161 187.748108 0.766334 0.657526
-91.345161 187.748108 0.269148 0.623392
-89.901367 187.150513 -0.000010 0.534661
-87.599487 186.197739 -0.000008 0.529747
-85.999588 185.535522 -0.000006 0.551385
-84.820862 185.047638 -0.000005 0.543908
-91.397476 187.884201 5.793953 0.672282
-91.397476 187.884201 5.271289 0.632883
-91.397476 187.884201 4.755965 0.664317
-91.397476 187.884201 4.246743 0.651270
-91.397476 187.884201 3.742443 0.664256
-91.397484 187.884201 3.241927 0.673747
-91.397491 187.884201 2.744091 0.650980
-91.397484 187.884201 2.247853 0.649210
-91.397476 187.884201 1.752147 0.711879
-91.397476 187.884201 1.255909 0.641840
-91.397469 187.884201 0.758074 0.700389
-91.397469 187.884186 0.257558 0.652903
-89.865067 187.237350 -0.000010 0.530755
-87.569885 186.268539 -0.000008 0.556222
-85.974655 185.595169 -0.000006 0.570123
-84.799362 185.099075 -0.000005 0.514351
-91.450531 188.022156 5.819728 0.640925
-91.450531 188.022141 5.293514 0.625208
-91.450531 188.022156 4.774688 0.647181
-91.450531 188.022156 4.262007 0.663432
-91.450531 188.022156 3.754281 0.659007
-91.450539 188.022156 3.250364 0.617823
-91.450546 188.022156 2.749146 0.650080
-91.450546 188.022156 2.249537 0.640513
-91.450554 188.022156 1.750463 0.679454
-91.450546 188.022156 1.250854 0.650187
-91.450546 188.022156 0.749635 0.646082
-91.450546 188.022156 0.245718 0.640192
-89.828156 187.323944 -0.000010 0.509377
-87.539795 186.339127 -0.000007 0.516457
-85.949310 185.654648 -0.000006 0.539071
-84.777504 185.150345 -0.000005 0.603326
-91.504318 188.161987 5.846045 0.671138
-91.504318 188.161987 5.316204 0.682475
-91.504318 188.161987 4.793804 0.630426
-91.504326 188.162003 4.277591 0.651209
-91.504326 188.162003 3.766367 0.655970
-91.504326 188.162003 3.258979 0.634440
-91.504333 188.162003 2.754308 0.654124
-91.504333 188.162003 2.251256 0.644205
-91.504341 188.162003 1.748743 0.664546
-91.504341 188.162003 1.245692 0.658228
-91.504341 188.162003 0.741019 0.654429
-91.504341 188.162003 0.233631 0.678431
-89.790649 187.410278 -0.000010 0.521935
-87.509216 186.409500 -0.000008 0.557046
-85.923546 185.713928 -0.000006 0.537331
-84.755295 185.201477 -0.000005 0.529030
-91.558853 188.303787 5.872916 0.697246
-91.558853 188.303787 5.339374 0.638834
-91.558853 188.303787 4.813324 0.628992
-91.558853 188.303787 4.293504 0.612024
-91.558853 188.303787 3.778709 0.680980
