# This PCD file was generated using the MATLAB® pcwrite function
# from Computer Vision Toolbox®.
# .PCD v.7 - Point Cloud Data file format
VERSION .7
FIELDS x y z intensity
SIZE 4 4 4 4
TYPE F F F F
COUNT 1 1 1 1
WIDTH 1183
HEIGHT 1
VIEWPOINT 0 0 0 1 0 0 0
POINTS 1183
DATA ascii
430.643127 178.818176 1.652407 0.968627
430.817017 178.822952 0.947931 0.968627
430.592316 178.816772 0.262471 0.968627
426.788452 178.712250 -0.000015 0.551858
422.887604 178.605057 -0.000010 0.553964
420.397278 178.536636 -0.000006 0.535973
418.666412 178.489075 -0.000005 0.516258
417.391174 178.454025 -0.000003 0.509880
429.237732 178.641052 6.967701 0.968627
429.425476 178.644897 6.323895 0.968627
429.614075 178.648758 5.677080 0.968627
429.452148 178.645447 4.973638 0.980392
429.892456 178.654465 4.356844 0.968627
430.055603 178.657806 3.693220 0.968627
430.220459 178.661194 3.022580 0.968627
430.387421 178.664612 2.343349 0.968627
430.556915 178.668091 1.653877 0.968627
430.729340 178.671616 0.952414 0.968627
430.506592 178.667053 0.269792 0.968627
426.791351 178.590912 -0.000015 0.545876
422.889862 178.510956 -0.000010 0.548653
420.399109 178.459915 -0.000007 0.529976
418.667938 178.424438 -0.000005 0.551629
417.392517 178.398300 -0.000003 0.523217
429.163513 178.501587 6.948515 0.968627
429.349823 178.504105 6.307038 0.968627
429.536957 178.506622 5.662609 0.968627
429.374390 178.504425 4.961749 0.980392
429.812347 178.510345 4.347345 0.968627
429.974152 178.512527 3.686341 0.968627
430.137695 178.514740 3.018393 0.968627
430.303314 178.516983 2.341932 0.968627
430.471436 178.519257 1.655317 0.968627
430.642456 178.521561 0.956808 0.968627
430.421600 178.518585 0.276968 0.968627
426.793427 178.469559 -0.000015 0.535424
422.891479 178.416840 -0.000010 0.520470
420.400421 178.383194 -0.000006 0.551141
418.669037 178.359802 -0.000005 0.582773
417.393463 178.342575 -0.000003 0.540322
429.089783 178.363174 6.929699 0.968627
429.274658 178.364380 6.290506 0.968627
429.460388 178.365601 5.648420 0.968627
429.297241 178.364532 4.950095 0.972763
429.732819 178.367371 4.338032 0.968627
429.893372 178.368423 3.679598 0.968627
430.055603 178.369476 3.014288 0.968627
430.219910 178.370560 2.340543 0.968627
430.386658 178.371643 1.656728 0.968627
430.556274 178.372757 0.961115 0.968627
430.337280 178.371323 0.284002 0.968627
426.794617 178.348190 -0.000015 0.557015
422.892395 178.322723 -0.000010 0.537499
420.401184 178.306458 -0.000007 0.546487
418.669708 178.295151 -0.000005 0.529152
417.394012 178.286835 -0.000003 0.491615
429.016541 178.225815 6.911248 0.968627
429.200043 178.225739 6.274297 0.968627
429.384369 178.225647 5.634509 0.968627
429.220612 178.225723 4.938669 0.980392
429.653900 178.225525 4.328903 0.968627
429.813202 178.225449 3.672988 0.968627
429.974152 178.225388 3.010266 0.968627
430.137146 178.225311 2.339181 0.968627
430.302551 178.225235 1.658111 0.968627
430.470825 178.225159 0.965335 0.968627
430.253662 178.225250 0.290895 0.968627
426.795013 178.226822 -0.000015 0.542504
422.892700 178.228592 -0.000010 0.550179
420.401428 178.229721 -0.000007 0.513893
418.669891 178.230515 -0.000005 0.543053
417.394196 178.231094 -0.000003 0.518730
428.943756 178.089478 6.893157 0.968627
429.125916 178.088120 6.258405 0.968627
429.308868 178.086761 5.620870 0.968627
429.144562 178.087982 4.927467 0.980392
429.575562 178.084778 4.319955 0.968627
429.733643 178.083603 3.666511 0.968627
429.893341 178.082413 3.006323 0.968627
430.055054 178.081207 2.337848 0.968627
430.219147 178.079987 1.659467 0.968627
430.386078 178.078751 0.969470 0.968627
430.170685 178.080353 0.297651 0.968627
426.794525 178.105453 -0.000015 0.535958
422.892334 178.134460 -0.000010 0.529839
420.401123 178.152985 -0.000007 0.551720
418.669647 178.165863 -0.000005 0.559258
417.393982 178.175354 -0.000003 0.582696
428.871460 177.954132 6.875417 0.968627
429.052277 177.951523 6.242824 0.968627
429.233856 177.948898 5.607498 0.968627
429.069061 177.951279 4.916488 0.968536
429.497772 177.945099 4.311184 0.968627
429.654633 177.942841 3.660161 0.968627
429.813110 177.940552 3.002458 0.968627
429.973572 177.938232 2.336540 0.968627
430.136414 177.935898 1.660795 0.968627
430.302002 177.933502 0.973522 0.968627
430.088379 177.936584 0.304270 0.979843
426.793213 177.984085 -0.000015 0.538460
422.891296 178.040344 -0.000010 0.547982
420.400269 178.076263 -0.000007 0.536828
418.668945 178.101212 -0.000005 0.527123
417.393372 178.119614 -0.000003 0.527840
428.799622 177.819748 6.858027 0.968627
428.979126 177.815903 6.227550 0.968627
429.159363 177.812057 5.594393 0.968627
428.994080 177.815598 4.905727 0.976761
429.420563 177.806458 4.302589 0.968627
429.576233 177.803131 3.653938 0.968627
429.733521 177.799759 2.998672 0.968627
429.892731 177.796356 2.335259 0.968627
430.054291 177.792908 1.662097 0.968627
430.218597 177.789383 0.977492 0.968627
430.003387 177.793991 0.311030 0.972885
426.791016 177.862732 -0.000015 0.538933
422.889618 177.946228 -0.000010 0.535088
420.398895 177.999527 -0.000007 0.508339
418.667786 178.036575 -0.000005 0.555276
417.392365 178.063873 -0.000003 0.598810
428.728210 177.686325 6.840981 0.968627
428.906433 177.681274 6.212579 0.968627
429.085388 177.676193 5.581547 0.968627
428.919586 177.680893 4.895181 0.980392
429.343903 177.668854 4.294165 0.968627
429.498413 177.664459 3.647840 0.968627
429.654480 177.660034 2.994961 0.968627
429.812500 177.655548 2.334004 0.968627
429.972809 177.651001 1.663372 0.968627
430.135834 177.646362 0.981381 0.968627
429.997070 177.650314 0.311253 0.978561
426.788025 177.741409 -0.000015 0.543816
422.887268 177.852127 -0.000010 0.542016
420.397003 177.922821 -0.000007 0.548196
418.666168 177.971954 -0.000005 0.548745
417.390991 178.008148 -0.000004 0.535698
428.657257 177.553833 6.824270 0.968627
428.834198 177.547577 6.197905 0.968627
429.011841 177.541290 5.568956 0.968627
428.845642 177.547165 4.884847 0.980392
429.267761 177.532227 4.285911 0.968627
429.421112 177.526810 3.641867 0.968627
429.576019 177.521332 2.991326 0.968627
429.732849 177.515778 2.332774 0.968627
429.891937 177.510147 1.664621 0.968627
430.053711 177.504425 0.985191 0.968627
429.989655 177.506699 0.311487 0.977401
426.784149 177.620087 -0.000015 0.540154
422.884277 177.758057 -0.000010 0.562966
420.394562 177.846130 -0.000007 0.528695
418.664124 177.907333 -0.000005 0.528695
417.389191 177.952438 -0.000003 0.560433
428.586731 177.422241 6.807895 0.968627
428.762390 177.414795 6.183526 0.968627
428.938782 177.407318 5.556620 0.968627
428.772156 177.414383 4.874722 0.980392
429.192139 177.396591 4.277823 0.968627
429.344360 177.390137 3.636012 0.968627
429.498108 177.383636 2.987764 0.968627
429.498535 177.383606 2.329026 0.223529
429.811676 177.370346 1.665845 0.968627
429.972229 177.363541 0.988923 0.968627
429.981323 177.363159 0.311711 0.980316
426.779419 177.498810 -0.000016 0.543328
422.880615 177.663986 -0.000011 0.544976
420.391571 177.769440 -0.000007 0.559106
418.661591 177.842743 -0.000005 0.500008
417.387024 177.896744 -0.000003 0.521630
428.516602 177.291550 6.791848 0.968627
428.691040 177.282928 6.169434 0.968627
428.866180 177.274292 5.544531 0.968627
428.699158 177.282532 4.864800 0.980392
429.117004 177.261902 4.269900 0.968627
429.199463 177.257828 3.624640 0.223529
429.420776 177.246902 2.984276 0.968627
429.466400 177.244659 2.328605 0.223529
429.731964 177.231552 1.667043 0.968627
429.891327 177.223679 0.992578 0.968627
430.053741 177.215668 0.305227 0.968627
426.773865 177.377563 -0.000016 0.532235
422.876312 177.569962 -0.000011 0.565438
420.388062 177.692795 -0.000008 0.552132
418.658630 177.778152 -0.000005 0.542000
417.384491 177.841049 -0.000004 0.561639
428.446869 177.161713 6.776124 0.968627
428.620087 177.151947 6.155627 0.968627
428.794006 177.142136 5.532688 0.968627
428.626617 177.151581 4.855082 0.973404
429.042389 177.128143 4.262139 0.968627
429.192413 177.119690 3.624661 0.968627
429.343933 177.111145 2.980858 0.968627
429.399292 177.108017 2.327627 0.223529
429.589020 177.097336 1.669264 0.223529
429.811035 177.084824 0.996157 0.968627
429.961456 177.076340 0.312179 0.895888
426.767456 177.256363 -0.000016 0.542977
422.871338 177.475967 -0.000011 0.543755
420.384003 177.616165 -0.000007 0.542245
418.655212 177.713608 -0.000005 0.553201
417.381531 177.785385 -0.000004 0.525979
428.377533 177.032715 6.760719 0.968627
428.549561 177.021820 6.142102 0.968627
428.722290 177.010880 5.521086 0.968627
428.554565 177.021500 4.845562 0.980392
428.968231 176.995285 4.254538 0.968627
429.117188 176.985855 3.619161 0.968627
429.267609 176.976318 2.977512 0.968627
429.266418 176.976395 2.325586 0.223529
429.574280 176.956879 1.669367 0.968627
429.669617 176.950836 1.002699 0.223529
429.830994 176.940613 0.322194 0.223529
426.760223 177.135208 -0.000016 0.540520
422.865723 177.382004 -0.000011 0.551095
420.379425 177.539566 -0.000008 0.542092
418.651367 177.649063 -0.000005 0.512718
417.378204 177.729752 -0.000004 0.494087
428.308594 176.904556 6.745628 0.968627
428.479462 176.892532 6.128854 0.968627
428.650970 176.880463 5.509723 0.968627
428.482910 176.892288 4.836239 0.972946
428.894531 176.863312 4.247093 0.968627
429.042450 176.852905 3.613773 0.968627
429.191803 176.842392 2.974235 0.968627
429.245728 176.838608 2.325397 0.223529
429.496277 176.820969 1.670492 0.968627
429.652130 176.809998 1.003094 0.968627
429.810944 176.798813 0.323056 0.968627
426.752106 177.014099 -0.000016 0.530846
422.859436 177.288086 -0.000011 0.539300
420.374298 177.462997 -0.000008 0.555138
418.647064 177.584564 -0.000005 0.577478
417.374481 177.674133 -0.000004 0.497276
428.240021 176.777206 6.730848 0.968627
428.409698 176.764069 6.115878 0.968627
428.580078 176.750885 5.498593 0.968627
428.411713 176.763916 4.827109 0.956863
428.821320 176.732208 4.239803 0.968627
428.968201 176.720840 3.608499 0.968627
429.116486 176.709366 2.971026 0.968627
429.266571 176.697754 2.325908 0.968627
429.418793 176.685974 1.671594 0.968627
429.573517 176.673996 1.006453 0.968627
429.731201 176.661789 0.328751 0.968627
426.743164 176.893066 -0.000016 0.558099
422.852509 177.194214 -0.000011 0.562417
420.368652 177.386475 -0.000008 0.545022
418.642273 177.520096 -0.000006 0.552911
417.370392 177.618546 -0.000004 0.502464
428.171783 176.650650 6.716373 0.968627
428.340363 176.636414 6.103172 0.968627
428.509552 176.622131 5.487698 0.968627
428.340942 176.636368 4.818172 0.962036
428.748535 176.601944 4.232667 0.968627
428.894379 176.589630 3.603335 0.968627
429.041656 176.577209 2.967885 0.968627
429.190674 176.564621 2.324845 0.968627
429.341827 176.551865 1.672673 0.968627
429.495453 176.538895 1.009741 0.968627
429.651978 176.525681 0.334325 0.968627
426.733398 176.772095 -0.000016 0.549630
422.844910 177.100388 -0.000011 0.532784
420.362457 177.309982 -0.000008 0.523583
418.637085 177.455658 -0.000006 0.547433
417.365875 177.562973 -0.000004 0.559808
428.103943 176.524857 6.702200 0.968627
428.271393 176.509537 6.090733 0.968627
428.439453 176.494171 5.477028 0.968627
428.270569 176.509613 4.809420 0.960678
428.676208 176.472519 4.225680 0.968627
428.821045 176.459259 3.598280 0.968627
428.967285 176.445892 2.964811 0.968627
429.115265 176.432358 2.323806 0.968627
429.265350 176.418625 1.673728 0.968627
429.417877 176.404678 1.012959 0.968627
429.573303 176.390457 0.339780 0.968627
426.722748 176.651184 -0.000017 0.543404
422.836670 177.006622 -0.000011 0.587228
420.355743 177.233536 -0.000008 0.530861
418.631409 177.391251 -0.000006 0.558465
417.360992 177.507446 -0.000004 0.536538
428.036407 176.399811 6.688326 0.968627
428.202759 176.383423 6.078555 0.968627
428.369720 176.366989 5.466586 0.968627
428.200623 176.383636 4.800856 0.980392
428.604279 176.343872 4.218843 0.968627
428.748138 176.329712 3.593334 0.968627
428.893372 176.315399 2.961803 0.968627
429.040344 176.300919 2.322789 0.968627
429.189362 176.286240 1.674761 0.968627
429.340851 176.271317 1.016108 0.968627
429.495148 176.256119 0.345117 0.968627
426.711273 176.530350 -0.000017 0.544350
422.827759 176.912918 -0.000012 0.558160
420.348480 177.157150 -0.000008 0.543481
418.625305 177.326889 -0.000006 0.523247
417.355743 177.451965 -0.000004 0.551064
427.969238 176.275513 6.674746 0.968627
428.134521 176.258072 6.066635 0.968627
428.300354 176.240570 5.456365 0.968627
428.131042 176.258438 4.792474 0.980392
428.532776 176.216034 4.212152 0.968627
428.675659 176.200943 3.588493 0.968627
428.819916 176.185715 2.958859 0.968627
428.965851 176.170303 2.321793 0.968627
429.113861 176.154678 1.675771 0.968627
429.264282 176.138809 1.019188 0.968627
429.417542 176.122635 0.350338 0.968627
426.698944 176.409607 -0.000017 0.551583
422.818207 176.819275 -0.000012 0.537392
420.340698 177.080811 -0.000009 0.537881
418.618744 177.262589 -0.000006 0.501366
417.350067 177.396500 -0.000004 0.548562
427.902405 176.151932 6.661458 0.968627
428.066589 176.133438 6.054973 0.968627
428.231354 176.114883 5.446365 0.968627
428.061859 176.133972 4.784273 0.980392
428.461670 176.088943 4.205606 0.968627
428.603577 176.072952 3.583757 0.968627
428.746887 176.056824 2.955979 0.968627
428.891846 176.040497 2.320819 0.968627
429.038849 176.023941 1.676760 0.968627
429.188232 176.007111 1.022201 0.968627
429.340393 175.989975 0.355445 0.968627
426.685791 176.288956 -0.000017 0.551019
422.808014 176.725693 -0.000012 0.544244
420.332367 177.004517 -0.000009 0.535348
418.611725 177.198318 -0.000006 0.550042
417.344025 177.341095 -0.000005 0.508797
427.835846 176.029053 6.648455 0.968627
427.998993 176.009521 6.043561 0.968627
428.162720 175.989929 5.436582 0.968627
427.993042 176.010239 4.776251 0.979843
428.390961 175.962601 4.199202 0.968627
428.531952 175.945724 3.579125 0.968627
428.674255 175.928696 2.953162 0.968627
428.818268 175.911453 2.319867 0.968627
428.964264 175.893982 1.677727 0.968627
429.112640 175.876221 1.025148 0.968627
429.263763 175.858124 0.360439 0.968627
426.671783 176.168396 -0.000017 0.552117
422.797150 176.632202 -0.000012 0.573617
420.323517 176.928299 -0.000008 0.547463
418.604279 177.134094 -0.000006 0.541100
417.337585 177.285721 -0.000005 0.537301
427.769623 175.906860 6.635734 0.968627
427.931763 175.886292 6.032399 0.968627
428.094421 175.865677 5.427011 0.968627
427.924591 175.887207 4.768406 0.980392
428.320618 175.836990 4.192940 0.968627
428.460693 175.819229 3.574594 0.968627
428.602081 175.801315 2.950408 0.968627
428.745117 175.783173 2.318935 0.968627
428.890137 175.764786 1.678672 0.968627
429.037506 175.746094 1.028029 0.968627
429.187622 175.727066 0.365322 0.968627
426.656952 176.047928 -0.000017 0.548074
422.785614 176.538773 -0.000012 0.545602
420.314148 176.852142 -0.000009 0.531151
418.596375 177.069931 -0.000006 0.524330
417.330780 177.230392 -0.000004 0.560494
426.218506 175.984177 6.247953 0.223529
427.864807 175.763763 6.021482 0.968627
428.026428 175.742111 5.417653 0.968627
427.856476 175.764877 4.760734 0.980392
428.250671 175.712097 4.186816 0.968627
428.389801 175.693466 3.570166 0.968627
428.530273 175.674652 2.947714 0.968627
428.672363 175.655640 2.318025 0.968627
428.816437 175.636337 1.679596 0.968627
428.962830 175.616745 1.030846 0.968627
429.111938 175.596786 0.370096 0.968627
426.641266 175.927582 -0.000017 0.537636
422.773468 176.445435 -0.000012 0.527520
420.304230 176.776047 -0.000009 0.552605
418.588013 177.005829 -0.000006 0.555718
417.323578 177.175125 -0.000004 0.518059
426.157867 175.873169 6.236690 0.223529
426.287933 175.854828 5.681404 0.223529
426.418182 175.836456 5.125407 0.223529
427.788727 175.643204 4.753233 0.980392
428.181061 175.587891 4.180830 0.968627
428.319336 175.568390 3.565836 0.968627
428.458862 175.548721 2.945081 0.968627
428.600037 175.528809 2.317135 0.968627
428.743164 175.508636 1.680500 0.968627
428.888580 175.488129 1.033599 0.968627
429.036682 175.467239 0.374761 0.968627
426.624725 175.807343 -0.000017 0.535698
422.760651 176.352188 -0.000012 0.540047
420.293762 176.700027 -0.000009 0.538872
418.579193 176.941788 -0.000006 0.568627
417.315979 177.119904 -0.000005 0.531518
426.097504 175.762741 6.225680 0.223529
426.226746 175.743591 5.671763 0.223529
426.356171 175.724426 5.117158 0.223529
426.486053 175.705185 4.560672 0.223529
426.616638 175.685837 4.001094 0.223529
426.748230 175.666351 3.437188 0.223529
428.387848 175.423462 2.942508 0.968627
428.528107 175.402695 2.316265 0.968627
428.670288 175.381622 1.681383 0.968627
428.814789 175.360229 1.036288 0.968627
428.961914 175.338440 0.379318 0.968627
426.607361 175.687210 -0.000017 0.530510
422.747192 176.259018 -0.000013 0.503868
420.282806 176.624069 -0.000009 0.527642
418.569946 176.877808 -0.000006 0.525841
417.308014 177.064728 -0.000005 0.474586
426.037384 175.652893 6.214920 0.223529
426.165833 175.632950 5.662341 0.223529
426.294464 175.612976 5.109097 0.223529
426.423523 175.592926 4.554000 0.223529
426.553284 175.572784 3.995841 0.223529
426.684052 175.552475 3.433386 0.223529
426.816101 175.531982 2.865367 0.223529
426.949768 175.511230 2.290463 0.223529
427.085327 175.490173 1.707292 0.223529
428.741364 175.233032 1.038917 0.968627
428.887543 175.210342 0.383771 0.968627
426.589172 175.567215 -0.000018 0.550942
422.733063 176.165955 -0.000012 0.542657
420.271271 176.548203 -0.000009 0.515099
418.560242 176.813889 -0.000007 0.524620
417.299652 177.009628 -0.000005 0.519768
426.186035 175.509735 6.257319 0.223529
426.183289 175.510178 5.670220 0.223529
426.233032 175.502090 5.101223 0.223529
426.361298 175.481262 4.547482 0.223529
426.490234 175.460312 3.990708 0.223529
426.620209 175.439209 3.429672 0.223529
426.751434 175.417892 2.863108 0.223529
426.884216 175.396317 2.289699 0.223529
427.018951 175.374435 1.708068 0.223529
427.155914 175.352188 1.116760 0.223529
427.295441 175.329529 0.514234 0.223529
426.570129 175.447342 -0.000018 0.530892
422.718292 176.072998 -0.000013 0.510185
420.259247 176.472427 -0.000009 0.561074
418.550110 176.750031 -0.000007 0.558541
417.290894 176.954575 -0.000005 0.521355
427.422943 175.179596 6.576511 0.968627
426.482300 175.339142 5.739977 0.223529
426.479462 175.339615 5.150301 0.223529
426.476685 175.340088 4.567800 0.223529
426.473938 175.340546 3.991115 0.223529
426.556671 175.326523 3.426046 0.223529
426.687073 175.304413 2.860902 0.223529
426.819031 175.282028 2.288953 0.223529
426.952911 175.259323 1.708825 0.223529
427.088989 175.236237 1.119071 0.223529
427.227661 175.212723 0.518150 0.223529
426.550262 175.327606 -0.000018 0.543252
422.702881 175.980133 -0.000012 0.535637
420.246674 176.396729 -0.000009 0.525643
418.539520 176.686264 -0.000007 0.569070
417.281769 176.899582 -0.000005 0.568429
427.634888 175.012604 6.635958 0.968627
427.631622 175.013184 5.996585 0.968627
427.689392 175.002960 5.377679 0.968627
427.454773 175.044449 4.718239 0.959167
426.784241 175.162994 4.029775 0.223529
426.781433 175.163483 3.446487 0.223529
426.778595 175.163986 2.866511 0.223529
426.775818 175.164474 2.288584 0.223529
426.887207 175.144791 1.709565 0.223529
427.022430 175.120880 1.121325 0.223529
427.160217 175.096512 0.521972 0.223529
426.529541 175.208023 -0.000018 0.546136
422.686829 175.887390 -0.000013 0.563592
420.233582 176.321106 -0.000009 0.506661
418.528503 176.622559 -0.000007 0.551064
417.272278 176.844650 -0.000005 0.505150
427.973511 174.818909 6.728050 0.968627
427.970123 174.819534 6.075961 0.968627
427.966797 174.820145 5.433260 0.968627
427.388885 174.926483 4.711727 0.974136
427.705627 174.868210 4.140108 0.223529
427.840057 174.843475 3.536570 0.223529
427.975739 174.818497 2.927402 0.223529
427.098083 174.979996 2.294310 0.223529
427.095154 174.980530 1.705739 0.223529
427.092255 174.981064 1.116730 0.223529
427.093140 174.980911 0.525702 0.223529
426.507996 175.088577 -0.000018 0.547097
422.670105 175.794754 -0.000013 0.537774
420.219971 176.245590 -0.000010 0.527520
418.517029 176.558945 -0.000007 0.537194
417.262360 176.789795 -0.000005 0.531746
428.325897 174.617371 6.824112 0.968627
428.322388 174.618042 6.158757 0.968627
428.318909 174.618698 5.502990 0.968627
427.385223 174.797256 4.714727 0.980392
428.312195 174.619995 4.213956 0.968627
428.308838 174.620621 3.577719 0.968627
428.305542 174.621262 2.945113 0.968627
428.043457 174.671371 2.310446 0.223529
428.181763 174.644928 1.687250 0.223529
428.322266 174.618057 1.054051 0.223529
427.424316 174.789780 0.496121 0.223529
426.485596 174.969284 -0.000018 0.541283
422.652740 175.702240 -0.000013 0.519203
420.205811 176.170166 -0.000010 0.540475
418.505096 176.495407 -0.000007 0.580835
417.252106 176.735016 -0.000005 0.531395
428.692932 174.407440 6.924407 0.968627
428.689270 174.408173 6.245203 0.968627
428.685638 174.408890 5.575788 0.968627
427.483124 174.647568 4.733230 0.980392
428.678619 174.410278 4.259946 0.968627
428.675140 174.410980 3.610487 0.968627
428.671692 174.411652 2.964737 0.968627
428.668274 174.412338 2.321292 0.968627
428.664795 174.413025 1.678766 0.968627
428.380859 174.469376 1.049828 0.223529
428.393585 174.466858 0.413049 0.223529
426.462402 174.850159 -0.000018 0.544335
422.634766 175.609848 -0.000013 0.562158
420.191132 176.094849 -0.000010 0.504158
418.492737 176.431946 -0.000008 0.516014
417.241425 176.680298 -0.000005 0.571176
428.707214 174.264389 6.935014 0.968627
428.780182 174.249374 6.271244 0.968627
428.852661 174.234467 5.611861 0.968627
427.841492 174.442505 4.791360 0.980392
428.920074 174.220596 4.291495 0.968627
428.982422 174.207764 3.638484 0.968627
429.053406 174.193161 2.985245 0.968627
429.049805 174.193893 2.328120 0.968627
429.046265 174.194626 1.671939 0.968627
429.042664 174.195358 1.015293 0.968627
428.395447 174.328522 0.410653 0.968490
426.438354 174.731186 -0.000019 0.539254
422.616089 175.517593 -0.000013 0.558663
420.175934 176.019638 -0.000010 0.533684
418.479919 176.368576 -0.000007 0.553643
417.230377 176.625656 -0.000005 0.534508
428.636658 174.138779 6.924167 0.968627
428.709198 174.123337 6.261819 0.968627
428.781250 174.107986 5.603862 0.968627
428.215424 174.228516 4.852159 0.980392
428.848022 174.093765 4.286373 0.968627
428.910004 174.080551 3.634810 0.968627
428.972046 174.067337 2.982599 0.968627
429.034302 174.054077 2.328341 0.968627
429.096863 174.040741 1.670612 0.968627
429.159912 174.027313 1.007964 0.968627
428.322510 174.205704 0.414441 0.968093
426.413483 174.612396 -0.000019 0.533837
422.596802 175.425461 -0.000013 0.560937
420.160217 175.944534 -0.000010 0.524361
418.466675 176.305298 -0.000008 0.538048
417.218964 176.571106 -0.000005 0.546090
428.566406 174.013733 6.913598 0.968627
428.638519 173.997849 6.252638 0.968627
428.710144 173.982056 5.596070 0.968627
428.349060 174.061630 4.876771 0.980392
428.776276 173.967484 4.281384 0.968627
428.837891 173.953903 3.631232 0.968627
428.899597 173.940323 2.980442 0.968627
428.961456 173.926682 2.327617 0.968627
429.023651 173.912979 1.671340 0.968627
429.086334 173.899170 1.010164 0.968627
428.249939 174.083466 0.418135 0.968994
426.387787 174.493774 -0.000019 0.542626
422.576874 175.333466 -0.000013 0.547967
420.143951 175.869537 -0.000010 0.516960
418.453003 176.242126 -0.000008 0.574258
417.207153 176.516632 -0.000006 0.560906
428.496399 173.889221 6.903307 0.968627
428.568115 173.872894 6.243700 0.968627
428.639343 173.856674 5.588481 0.968627
428.278717 173.938782 4.870574 0.964767
428.704865 173.841766 4.276527 0.968627
428.766113 173.827820 3.627747 0.968627
428.827423 173.813858 2.978342 0.968627
428.888947 173.799850 2.326913 0.968627
428.950775 173.785767 1.672049 0.968627
429.013092 173.771591 1.012305 0.968627
428.177673 173.961777 0.421735 0.956710
426.361267 174.375336 -0.000019 0.544381
422.556305 175.241608 -0.000013 0.528542
420.127197 175.794647 -0.000010 0.509606
418.438843 176.179031 -0.000007 0.551843
417.194977 176.462234 -0.000006 0.533425
428.426666 173.765228 6.893291 0.968627
428.497986 173.748474 6.234998 0.968627
428.568787 173.731827 5.581096 0.968627
428.208679 173.816452 4.864543 0.968627
428.633698 173.716568 4.271800 0.968627
428.694611 173.702255 3.624356 0.968627
428.755585 173.687927 2.976297 0.968627
428.816742 173.673553 2.326228 0.968627
428.878204 173.659103 1.672739 0.968627
428.940155 173.644547 1.014389 0.968627
428.105774 173.840652 0.425242 0.956130
426.333893 174.257080 -0.000019 0.530465
422.535095 175.149902 -0.000014 0.552392
420.109894 175.719894 -0.000010 0.575357
418.424286 176.116058 -0.000007 0.568780
417.182404 176.407928 -0.000006 0.558709
428.357208 173.641739 6.883548 0.968627
428.428101 173.624557 6.226533 0.968627
428.498505 173.607483 5.573913 0.968627
428.138947 173.694641 4.858676 0.970977
428.562836 173.591888 4.267200 0.968627
428.623413 173.577209 3.621058 0.968627
428.684021 173.562515 2.974308 0.968627
428.744812 173.547775 2.325562 0.968627
428.805939 173.532959 1.673410 0.968627
428.867523 173.518036 1.016416 0.968627
428.034149 173.720047 0.428657 0.956802
426.305725 174.139023 -0.000019 0.541863
422.513245 175.058350 -0.000014 0.537606
420.092072 175.645248 -0.000010 0.518288
418.409271 176.053177 -0.000008 0.528054
417.169464 176.353699 -0.000006 0.524514
428.287994 173.518738 6.874073 0.968627
428.358490 173.501129 6.218303 0.968627
428.428497 173.483627 5.566927 0.968627
428.069489 173.573318 4.852973 0.980392
428.492249 173.467712 4.262729 0.968627
428.552460 173.452667 3.617850 0.968627
428.612732 173.437607 2.972374 0.968627
428.673187 173.422501 2.324913 0.968627
428.733978 173.407318 1.674062 0.968627
428.795197 173.392029 1.018387 0.968627
427.962860 173.599960 0.431982 0.956954
426.276733 174.021164 -0.000020 0.528023
422.490753 174.966949 -0.000014 0.541482
420.073730 175.570740 -0.000010 0.541314
418.393829 175.990387 -0.000008 0.520500
417.156158 176.299576 -0.000006 0.592294
428.218994 173.396210 6.864864 0.968627
428.289093 173.378189 6.210303 0.968627
428.358734 173.360275 5.560138 0.968627
428.000305 173.452469 4.847429 0.980392
428.421936 173.344009 4.258383 0.968627
428.481812 173.328613 3.614733 0.968627
428.541748 173.313187 2.970494 0.968627
428.601868 173.297729 2.324283 0.968627
428.662292 173.282181 1.674696 0.968627
428.723175 173.266525 1.020301 0.968627
427.891846 173.480377 0.435215 0.979019
426.246887 173.903519 -0.000020 0.528634
422.467621 174.875702 -0.000014 0.535363
420.054871 175.496353 -0.000010 0.523934
418.377930 175.927734 -0.000008 0.542412
417.142456 176.245544 -0.000006 0.535821
428.150238 173.274155 6.855922 0.968627
428.219971 173.255707 6.202536 0.968627
428.289215 173.237366 5.553546 0.968627
427.931366 173.332092 4.842046 0.974227
428.351868 173.220795 4.254163 0.968627
428.411407 173.205032 3.611706 0.968627
428.471008 173.189255 2.968669 0.968627
428.530792 173.173431 2.323672 0.968627
428.590881 173.157516 1.675312 0.968627
428.651428 173.141495 1.022161 0.968627
427.821136 173.361267 0.438360 0.980392
426.216248 173.786087 -0.000020 0.529274
422.443848 174.784622 -0.000014 0.529198
420.035492 175.422104 -0.000010 0.543160
418.361603 175.865173 -0.000008 0.534463
417.128387 176.191605 -0.000006 0.550835
427.426605 173.330856 6.677174 0.223529
427.485260 173.314896 6.045962 0.223529
427.543457 173.299057 5.419577 0.223529
427.601318 173.283310 4.796637 0.223529
427.658997 173.267609 4.175786 0.223529
427.716614 173.251923 3.555687 0.223529
428.400513 173.065781 2.966898 0.968627
428.459991 173.049591 2.323078 0.968627
428.519745 173.033325 1.675909 0.968627
428.579956 173.016937 1.023966 0.968627
427.750702 173.242645 0.441416 0.959213
426.184784 173.668854 -0.000020 0.526574
422.419434 174.693710 -0.000014 0.522637
420.015594 175.347992 -0.000010 0.535958
418.344849 175.802734 -0.000008 0.522225
417.113922 176.137772 -0.000006 0.552453
427.360596 173.213959 6.669019 0.223529
427.418915 173.197647 6.038886 0.223529
427.476807 173.181458 5.413578 0.223529
427.534363 173.165359 4.791714 0.223529
427.591736 173.149323 4.171944 0.223529
427.649017 173.133286 3.552932 0.223529
427.706360 173.117249 2.933352 0.223529
427.763885 173.101166 2.311872 0.223529
427.821716 173.084991 1.687145 0.223529
427.879974 173.068695 1.057792 0.223529
427.680542 173.124481 0.444385 0.967651
426.152496 173.551865 -0.000020 0.541863
422.394409 174.602982 -0.000014 0.539269
419.995209 175.274017 -0.000010 0.540520
418.327667 175.740417 -0.000008 0.527565
417.099091 176.084045 -0.000006 0.547341
427.294769 173.097473 6.661117 0.223529
427.352783 173.080811 6.032028 0.223529
427.410370 173.064270 5.407763 0.223529
427.467621 173.047836 4.786943 0.223529
427.524658 173.031448 4.168220 0.223529
427.581665 173.015076 3.550261 0.223529
427.638702 172.998688 2.931742 0.223529
427.695892 172.982254 2.311333 0.223529
427.753418 172.965744 1.687688 0.223529
427.811340 172.949097 1.059433 0.223529
427.610626 173.006744 0.447266 0.957183
426.119385 173.435089 -0.000020 0.544045
422.368744 174.512421 -0.000014 0.553292
419.974274 175.200195 -0.000011 0.545373
418.310028 175.678223 -0.000008 0.554223
417.083893 176.030411 -0.000006 0.553216
427.418518 172.925552 6.702911 0.223529
427.414093 172.926865 6.054030 0.223529
427.409729 172.928146 5.414575 0.223529
427.405426 172.929413 4.782995 0.223529
427.457825 172.913971 4.164613 0.223529
427.514496 172.897263 3.547674 0.223529
427.571228 172.880539 2.930182 0.223529
427.628143 172.863754 2.310810 0.223529
427.685333 172.846893 1.688214 0.223529
427.742981 172.829910 1.061022 0.223529
427.540985 172.889450 0.450062 0.980392
426.085480 173.318542 -0.000020 0.542245
422.342438 174.422028 -0.000015 0.540078
419.952820 175.126511 -0.000011 0.526162
418.291962 175.616150 -0.000008 0.555352
417.068329 175.976883 -0.000006 0.555596
427.809692 172.670319 6.815097 0.968627
427.877563 172.649796 6.167073 0.968627
427.944977 172.629410 5.523450 0.968627
427.590454 172.736618 4.817478 0.966140
428.005066 172.611237 4.234901 0.968627
428.063019 172.593719 3.597891 0.968627
428.121033 172.576172 2.960341 0.968627
427.894867 172.644562 2.316019 0.223529
427.890411 172.645920 1.684058 0.223529
427.885956 172.647263 1.051724 0.223529
427.471588 172.772568 0.452772 0.980392
426.050751 173.202255 -0.000020 0.546197
422.315491 174.331833 -0.000015 0.550561
419.930878 175.052979 -0.000011 0.559289
418.273468 175.554199 -0.000008 0.560922
417.052368 175.923477 -0.000007 0.553445
427.742188 172.550751 6.807695 0.968627
427.809723 172.529816 6.160644 0.968627
427.876770 172.509033 5.517995 0.968627
427.522980 172.618729 4.813025 0.979751
427.936371 172.490555 4.231410 0.968627
427.994019 172.472672 3.595387 0.968627
428.051727 172.454788 2.958831 0.968627
428.109589 172.436844 2.320374 0.968627
428.167755 172.418808 1.678630 0.968627
428.226349 172.400635 1.032187 0.968627
427.402435 172.656097 0.455398 0.979294
426.015228 173.086197 -0.000020 0.541741
422.287933 174.241837 -0.000015 0.541390
419.908417 174.979614 -0.000011 0.560479
418.254547 175.492386 -0.000009 0.569223
417.036041 175.870178 -0.000006 0.519036
427.674866 172.431549 6.800545 0.968627
427.742035 172.410202 6.154434 0.968627
427.808746 172.389008 5.512724 0.968627
427.455688 172.501190 4.808722 0.960723
427.867859 172.370224 4.228037 0.968627
427.925232 172.352005 3.592968 0.968627
427.982605 172.333771 2.957373 0.968627
428.040192 172.315475 2.319885 0.968627
428.098053 172.297089 1.679122 0.968627
428.156342 172.278580 1.033672 0.968627
427.333496 172.540009 0.457940 0.979110
425.978882 172.970398 -0.000020 0.546914
422.259766 174.152023 -0.000015 0.532921
419.885437 174.906387 -0.000011 0.522164
418.235168 175.430710 -0.000009 0.545113
417.019348 175.816986 -0.000007 0.507607
427.607697 172.312714 6.793642 0.968627
427.674530 172.290955 6.148438 0.968627
427.740906 172.269363 5.507636 0.968627
427.388580 172.384003 4.804570 0.968627
427.799561 172.250275 4.224781 0.968627
427.856628 172.231705 3.590632 0.968627
427.913727 172.213120 2.955965 0.968627
427.970978 172.194489 2.319413 0.968627
428.028564 172.175751 1.679596 0.968627
428.086548 172.156876 1.035106 0.968627
427.264801 172.424286 0.460398 0.980117
425.941711 172.854843 -0.000020 0.535836
422.230927 174.062424 -0.000014 0.548730
419.861938 174.833344 -0.000011 0.536019
418.215393 175.369156 -0.000009 0.548699
417.002289 175.763931 -0.000007 0.591714
427.540710 172.194199 6.786986 0.968627
427.607178 172.172058 6.142656 0.968627
427.673218 172.150055 5.502730 0.968627
427.321686 172.267166 4.800566 0.968627
427.731445 172.130661 4.221641 0.968627
427.788208 172.111740 3.588381 0.968627
427.845032 172.092819 2.954608 0.968627
427.901978 172.073837 2.318958 0.968627
427.959259 172.054749 1.680054 0.968627
428.016968 172.035538 1.036489 0.968627
427.196289 172.308945 0.462774 0.971389
425.903748 172.739563 -0.000021 0.551522
422.201508 173.973007 -0.000015 0.527367
419.837921 174.760452 -0.000011 0.554665
418.195160 175.307755 -0.000009 0.554391
416.984863 175.710983 -0.000007 0.528893
427.473846 172.076035 6.780574 0.968627
427.540009 172.053482 6.137088 0.968627
427.605713 172.031082 5.498004 0.968627
427.255005 172.150650 4.796710 0.968627
427.663513 172.011383 4.218616 0.968627
427.719971 171.992126 3.586212 0.968627
427.776489 171.972855 2.953300 0.968627
427.833191 171.953522 2.318520 0.968627
427.890167 171.934097 1.680495 0.968627
427.947571 171.914536 1.037821 0.968627
427.128021 172.193939 0.465068 0.980392
425.864990 172.624557 -0.000020 0.553231
422.171448 173.883820 -0.000015 0.526329
419.813416 174.687744 -0.000011 0.513878
418.174530 175.246490 -0.000009 0.517540
416.967072 175.658157 -0.000007 0.561761
427.407166 171.958176 6.774406 0.968627
427.472992 171.935226 6.131731 0.968627
427.538361 171.912430 5.493457 0.968627
427.188477 172.034454 4.793000 0.968627
427.595734 171.892426 4.215707 0.968627
427.651917 171.872833 3.584126 0.968627
427.708160 171.853210 2.952042 0.968627
427.764557 171.833542 2.318098 0.968627
427.821259 171.813766 1.680919 0.968627
427.878357 171.793854 1.039102 0.968627
427.059937 172.079285 0.467281 0.980392
425.825439 172.509811 -0.000021 0.525902
422.140747 173.794830 -0.000015 0.528801
419.788391 174.615189 -0.000011 0.528740
418.153442 175.185379 -0.000009 0.541802
416.948883 175.605469 -0.000007 0.548699
427.340637 171.840637 6.768481 0.968627
427.406128 171.817276 6.126584 0.968627
427.471191 171.794083 5.489091 0.968627
427.122101 171.918564 4.789435 0.971893
427.528137 171.773773 4.212914 0.968627
427.584045 171.753845 3.582122 0.968627
427.640015 171.733887 2.950834 0.968627
427.696106 171.713867 2.317693 0.968627
427.752533 171.693756 1.681327 0.968627
427.809357 171.673492 1.040333 0.968627
426.992065 171.964935 0.469412 0.963760
425.785065 172.395355 -0.000021 0.546532
422.109436 173.706055 -0.000015 0.536385
419.762878 174.542831 -0.000011 0.555245
418.131958 175.124405 -0.000009 0.527459
416.930359 175.552887 -0.000007 0.494972
427.274231 171.723389 6.762794 0.968627
427.339417 171.699631 6.121644 0.968627
427.404144 171.676041 5.484900 0.968627
427.055939 171.802948 4.786015 0.980392
427.460693 171.655426 4.210231 0.968627
427.516327 171.635147 3.580199 0.968627
427.571991 171.614853 2.949675 0.968627
427.627838 171.594498 2.317305 0.968627
427.683960 171.574036 1.681717 0.968627
427.740509 171.553436 1.041514 0.968627
426.924347 171.850906 0.471464 0.957229
425.743896 172.281174 -0.000021 0.539071
422.077515 173.617508 -0.000015 0.539300
419.736877 174.470642 -0.000011 0.539940
418.110016 175.063599 -0.000009 0.535714
416.911438 175.500458 -0.000007 0.550652
427.207947 171.606415 6.757349 0.968627
427.272827 171.582260 6.116915 0.968627
427.337250 171.558273 5.480887 0.968627
426.989899 171.687622 4.782740 0.957092
427.393402 171.537354 4.207663 0.968627
427.448761 171.516739 3.578356 0.968627
427.504150 171.496109 2.948565 0.968627
427.559723 171.475403 2.316933 0.968627
427.615601 171.454605 1.682092 0.968627
427.671844 171.433655 1.042645 0.968627
426.856812 171.737183 0.473435 0.963211
425.701935 172.167282 -0.000021 0.552316
422.044983 173.529175 -0.000015 0.538842
419.710327 174.398636 -0.000011 0.579065
418.087677 175.002930 -0.000009 0.515526
416.892181 175.448151 -0.000007 0.522774
427.141815 171.489716 6.752139 0.968627
427.206360 171.465164 6.112391 0.968627
427.270477 171.440781 5.477047 0.968627
426.924011 171.572556 4.779606 0.959854
427.326233 171.419571 4.205207 0.968627
427.381348 171.398605 3.576595 0.968627
427.436462 171.377640 2.947503 0.968627
427.491760 171.356598 2.316577 0.968627
427.547363 171.335449 1.682450 0.968627
427.603333 171.314163 1.043726 0.968627
426.789459 171.623749 0.475328 0.950271
425.659180 172.053680 -0.000021 0.536110
422.011810 173.441086 -0.000015 0.526177
419.683289 174.326813 -0.000012 0.562036
418.064911 174.942429 -0.000009 0.526390
416.872528 175.395981 -0.000007 0.532860
427.075806 171.373276 6.747168 0.968627
427.140045 171.348328 6.108072 0.968627
427.203827 171.323547 5.473382 0.968627
426.858276 171.457748 4.776616 0.980392
427.259216 171.302032 4.202862 0.968627
427.314056 171.280731 3.574913 0.968627
427.368927 171.259430 2.946489 0.968627
427.423950 171.238052 2.316237 0.968627
427.479279 171.216568 1.682792 0.968627
427.535004 171.194931 1.044759 0.968627
426.722260 171.510574 0.477141 0.967071
425.615631 171.940399 -0.000021 0.538933
421.978058 173.353226 -0.000015 0.527764
419.655762 174.255188 -0.000011 0.536278
418.041718 174.882080 -0.000009 0.519722
416.852539 175.343948 -0.000007 0.540505
427.009888 171.257080 6.742430 0.968627
427.073822 171.231735 6.103958 0.968627
427.137329 171.206558 5.469893 0.968627
426.792694 171.343185 4.773767 0.980392
427.192322 171.184738 4.200628 0.968627
427.246918 171.163116 3.573312 0.968627
427.301514 171.141464 2.945523 0.968627
427.356293 171.119751 2.315913 0.968627
427.411346 171.097916 1.683118 0.968627
427.466797 171.075943 1.045743 0.968627
426.655243 171.397675 0.478876 0.971893
425.571289 171.827408 -0.000021 0.538964
421.943665 173.265594 -0.000015 0.554101
419.627747 174.183746 -0.000012 0.546532
418.018097 174.821899 -0.000009 0.561318
416.832184 175.292068 -0.000007 0.504585
426.944061 171.141129 6.737927 0.968627
427.007721 171.115372 6.100046 0.968627
427.070923 171.089813 5.466573 0.968627
426.727234 171.228851 4.771059 0.980392
427.125580 171.067688 4.198504 0.968627
427.179901 171.045715 3.571788 0.968627
427.234253 171.023727 2.944605 0.968627
427.288757 171.001678 2.315605 0.968627
427.343536 170.979507 1.683427 0.968627
427.398743 170.957184 1.046678 0.968627
426.588348 171.285034 0.480533 0.973678
425.526184 171.714737 -0.000021 0.538796
421.908661 173.178223 -0.000015 0.551843
419.599213 174.112518 -0.000012 0.564584
417.994049 174.761887 -0.000009 0.576349
416.811462 175.240311 -0.000007 0.563821
426.878357 171.025391 6.733657 0.968627
426.941711 170.999237 6.096339 0.968627
427.004608 170.973282 5.463427 0.968627
426.661896 171.114716 4.768490 0.972122
427.058929 170.950867 4.196490 0.968627
427.112976 170.928558 3.570344 0.968627
427.167084 170.906235 2.943735 0.968627
427.221344 170.883835 2.315314 0.968627
427.275879 170.861328 1.683721 0.968627
427.330811 170.838669 1.047565 0.968627
426.521606 171.172623 0.482113 0.968627
425.480255 171.602386 -0.000021 0.551354
421.873047 173.091080 -0.000015 0.554040
419.570190 174.041473 -0.000012 0.542306
417.969604 174.702042 -0.000009 0.548287
416.790375 175.188721 -0.000007 0.522210
426.812744 170.909866 6.729619 0.968627
426.875793 170.883316 6.092832 0.968627
426.938416 170.856964 5.460450 0.968627
426.596680 171.000809 4.766061 0.969406
426.992401 170.834259 4.194586 0.968627
427.046204 170.811600 3.568979 0.968627
427.100067 170.788940 2.942911 0.968627
427.154053 170.766205 2.315038 0.968627
427.208344 170.743362 1.683998 0.968627
427.263000 170.720352 1.048402 0.968627
426.454987 171.060440 0.483615 0.968627
425.433563 171.490356 -0.000021 0.536065
421.836853 173.004196 -0.000016 0.541833
419.540649 173.970642 -0.000012 0.562554
417.944733 174.642365 -0.000009 0.556390
416.768921 175.137268 -0.000008 0.544289
426.747223 170.794540 6.725813 0.968627
426.809998 170.767609 6.089524 0.968627
426.872314 170.740860 5.457644 0.968627
426.531586 170.887085 4.763771 0.968994
426.925964 170.717834 4.192792 0.968627
426.979523 170.694855 3.567692 0.968627
427.033112 170.671844 2.942136 0.968627
427.086884 170.648788 2.314778 0.968627
427.140900 170.625595 1.684260 0.968627
427.195313 170.602249 1.049193 0.968627
426.388519 170.948471 0.485041 0.955245
425.386108 171.378647 -0.000022 0.541695
421.800018 172.917572 -0.000016 0.547982
419.510651 173.900024 -0.000012 0.553323
417.919434 174.582870 -0.000009 0.537133
416.747131 175.085968 -0.000008 0.531044
426.681763 170.679413 6.722236 0.968627
426.744263 170.652084 6.086418 0.968627
426.806305 170.624939 5.455009 0.968627
426.466553 170.773544 4.761619 0.968627
426.859619 170.601608 4.191105 0.968627
426.912933 170.578293 3.566483 0.968627
426.966309 170.554947 2.941406 0.968627
427.019806 170.531540 2.314533 0.968627
427.073578 170.508011 1.684506 0.968627
427.127747 170.484314 1.049935 0.968627
426.322174 170.836716 0.486390 0.937346
425.337860 171.267288 -0.000022 0.527382
421.762604 172.831192 -0.000016 0.541207
419.480133 173.829620 -0.000012 0.506020
417.893738 174.523560 -0.000010 0.531212
416.724945 175.034821 -0.000008 0.538399
426.616394 170.564453 6.718886 0.968627
426.678589 170.536728 6.083510 0.968627
426.740356 170.509186 5.452542 0.968627
426.401672 170.660172 4.759605 0.980392
426.793365 170.485565 4.189526 0.968627
426.846466 170.461899 3.565350 0.968627
426.899567 170.438217 2.940724 0.968627
426.952850 170.414474 2.314305 0.968627
427.006378 170.390610 1.684736 0.968627
427.060303 170.366577 1.050631 0.968627
426.255920 170.725143 0.487664 0.964828
425.288818 171.156250 -0.000022 0.530922
421.724579 172.745087 -0.000016 0.539483
419.449127 173.759415 -0.000012 0.554711
417.867615 174.464417 -0.000010 0.504829
416.702454 174.983826 -0.000008 0.529992
426.551086 170.449661 6.715768 0.968627
426.613007 170.421539 6.080801 0.968627
426.674500 170.393616 5.450243 0.968627
426.336853 170.546967 4.757728 0.977584
426.727203 170.369675 4.188056 0.968627
426.780060 170.345673 3.564296 0.968627
426.832947 170.321671 2.940088 0.968627
426.885956 170.297577 2.314092 0.968627
426.939270 170.273376 1.684950 0.968627
426.992920 170.248993 1.051278 0.968627
426.189789 170.613770 0.488862 0.968627
425.239014 171.045578 -0.000022 0.538293
421.685974 172.659256 -0.000016 0.520760
419.417664 173.689438 -0.000012 0.543740
417.841095 174.405457 -0.000010 0.540841
416.679565 174.932983 -0.000008 0.538384
426.485840 170.335037 6.712875 0.968627
426.547485 170.306519 6.078290 0.968627
426.608704 170.278198 5.448112 0.968627
426.272125 170.433914 4.755988 0.980392
426.661133 170.253952 4.186692 0.968627
426.713745 170.229614 3.563317 0.968627
426.766357 170.205261 2.939498 0.968627
426.819153 170.180832 2.313894 0.968627
426.872223 170.156296 1.685149 0.968627
426.925659 170.131561 1.051878 0.968627
426.123749 170.502548 0.489984 0.950240
425.188446 170.935242 -0.000022 0.542962
421.646729 172.573685 -0.000016 0.548043
419.385681 173.619690 -0.000013 0.542855
417.814148 174.346695 -0.000010 0.552972
416.656342 174.882324 -0.000008 0.588174
426.420654 170.220551 6.710211 0.968627
426.482025 170.191635 6.075976 0.968627
426.542999 170.162918 5.446148 0.968627
426.207458 170.320984 4.754385 0.960815
426.595123 170.138367 4.185435 0.968627
426.647491 170.113693 3.562417 0.968627
426.699890 170.088989 2.938956 0.968627
426.752441 170.064240 2.313712 0.968627
426.805267 170.039352 1.685332 0.968627
426.858490 170.014282 1.052432 0.968627
426.057800 170.391495 0.491031 0.968627
425.137085 170.825256 -0.000022 0.530175
421.606934 172.488388 -0.000016 0.547921
419.353210 173.550156 -0.000012 0.526940
417.786804 174.288116 -0.000010 0.536614
416.632751 174.831802 -0.000008 0.524269
426.355530 170.106201 6.707774 0.968627
426.416626 170.076889 6.073858 0.968627
426.477325 170.047775 5.444351 0.968627
426.142883 170.208191 4.752917 0.962890
426.529144 170.022903 4.184286 0.968627
426.581299 169.997894 3.561592 0.968627
426.633484 169.972855 2.938459 0.968627
426.685822 169.947754 2.313546 0.968627
426.738403 169.922531 1.685500 0.968627
426.791382 169.897125 1.052938 0.968627
425.991943 170.280594 0.492002 0.951644
425.084991 170.715637 -0.000022 0.543465
421.566498 172.403381 -0.000016 0.518517
419.320282 173.480850 -0.000013 0.553735
417.759064 174.229721 -0.000010 0.564279
416.608826 174.781464 -0.000008 0.521233
426.290436 169.991959 6.705560 0.968627
426.351257 169.962250 6.071937 0.968627
426.411682 169.932755 5.442720 0.968627
426.078369 170.095505 4.751585 0.965225
426.463257 169.907562 4.183243 0.968627
426.515198 169.882217 3.560844 0.968627
426.567139 169.856842 2.938008 0.968627
426.619232 169.831406 2.313395 0.968627
426.671600 169.805832 1.685652 0.968627
426.724335 169.780075 1.053397 0.968627
425.926178 170.169815 0.492900 0.967575
425.032104 170.606384 -0.000022 0.541985
421.525513 172.318649 -0.000016 0.550942
419.286835 173.411774 -0.000013 0.555322
417.730896 174.171539 -0.000010 0.545724
416.584534 174.731293 -0.000008 0.547524
426.225372 169.877853 6.703573 0.968627
426.285950 169.847733 6.070212 0.968627
426.346100 169.817841 5.441256 0.968627
426.013916 169.982925 4.750388 0.969635
426.397400 169.792343 4.182304 0.968627
426.449127 169.766647 3.560172 0.968627
426.500854 169.740936 2.937603 0.968627
426.552734 169.715149 2.313259 0.968627
426.604858 169.689240 1.685788 0.968627
426.657379 169.663147 1.053809 0.968627
425.860504 170.059174 0.493723 0.980392
424.978485 170.497513 -0.000022 0.549813
421.483917 172.234207 -0.000017 0.555032
419.252930 173.342941 -0.000013 0.538903
417.702332 174.113541 -0.000010 0.547829
416.559906 174.681290 -0.000008 0.572747
425.570923 170.061905 6.536363 0.223529
425.621918 170.036102 5.923771 0.223529
425.672546 170.010513 5.315981 0.223529
425.722870 169.985062 4.711650 0.223529
425.773010 169.959702 4.109462 0.223529
425.823090 169.934372 3.508121 0.223529
425.873199 169.909027 2.906337 0.223529
425.923462 169.883621 2.302818 0.223529
425.973969 169.858078 1.696255 0.223529
426.024872 169.832336 1.085313 0.223529
425.794861 169.948654 0.494472 0.971756
424.924072 170.389008 -0.000022 0.531212
421.441711 172.150055 -0.000017 0.537362
419.218536 173.274338 -0.000013 0.514565
417.673340 174.055756 -0.000010 0.538140
416.534943 174.631454 -0.000008 0.551385
425.508179 169.951996 6.534873 0.223529
425.558960 169.925873 5.922477 0.223529
425.609375 169.899933 5.314885 0.223529
425.659485 169.874146 4.710750 0.223529
425.709412 169.848450 4.108760 0.223529
425.759277 169.822800 3.507618 0.223529
425.809204 169.797119 2.906034 0.223529
425.859253 169.771378 2.302717 0.223529
425.909546 169.745499 1.696357 0.223529
425.960205 169.719421 1.085623 0.223529
425.729309 169.838226 0.495146 0.974319
424.868927 170.280899 -0.000022 0.540230
421.398956 172.066208 -0.000017 0.554955
419.183685 173.205978 -0.000013 0.527718
417.643982 173.998154 -0.000010 0.510048
416.509613 174.581802 -0.000008 0.498238
425.445435 169.842178 6.533599 0.223529
425.496033 169.815704 5.921372 0.223529
425.546234 169.789429 5.313948 0.223529
425.596130 169.763306 4.709983 0.223529
425.645874 169.737289 4.108161 0.223529
425.695526 169.711288 3.507188 0.223529
425.745209 169.685287 2.905775 0.223529
425.795044 169.659210 2.302629 0.223529
425.845154 169.632996 1.696445 0.223529
425.895599 169.606583 1.085886 0.223529
425.663788 169.727905 0.495747 0.946838
424.813019 170.173157 -0.000022 0.529961
421.355591 171.982666 -0.000017 0.557961
419.148315 173.137863 -0.000013 0.544106
417.614197 173.940781 -0.000010 0.520439
416.483917 174.532318 -0.000008 0.529946
425.965363 169.422287 6.697867 0.968627
426.024933 169.390579 6.065255 0.968627
426.084106 169.359085 5.437052 0.968627
425.756592 169.533417 4.746948 0.980392
426.134430 169.332306 4.179615 0.968627
426.185242 169.305237 3.558242 0.968627
426.236115 169.278168 2.936440 0.968627
