# This PCD file was generated using the MATLABÂ® pcwrite function
# from Computer Vision ToolboxÂ®.
# .PCD v.7 - Point Cloud Data file format
VERSION .7
FIELDS x y z intensity
SIZE 4 4 4 4
TYPE F F F F
COUNT 1 1 1 1
WIDTH 1289
HEIGHT 1
VIEWPOINT 0 0 0 1 0 0 0
POINTS 1289
DATA ascii
367.342255 -561.160950 1.117456 1.000000
367.342255 -561.160950 0.526987 1.000000
366.809174 -560.933655 0.000007 0.536400
363.219666 -559.403015 0.000008 0.538476
360.928070 -558.425903 0.000007 0.536248
359.335297 -557.746704 0.000006 0.498741
358.161835 -557.246338 0.000006 0.550240
nan nan nan 0.000000
nan nan nan 0.000000
nan nan nan 0.000000
nan nan nan 0.000000
nan nan nan 0.000000
nan nan nan 0.000000
367.369507 -561.309570 2.886660 1.000000
367.369507 -561.309570 2.295342 1.000000
367.369507 -561.309570 1.704658 1.000000
367.369507 -561.309570 1.113339 1.000000
367.369507 -561.309570 0.520116 1.000000
366.761169 -561.045105 0.000007 0.541024
363.182434 -559.489502 0.000008 0.540093
360.897705 -558.496338 0.000007 0.561593
359.309753 -557.806091 0.000006 0.565576
358.139801 -557.297546 0.000006 0.516732
nan nan nan 0.000000
nan nan nan 0.000000
nan nan nan 0.000000
nan nan nan 0.000000
nan nan nan 0.000000
nan nan nan 0.000000
367.397003 -561.459534 2.890859 1.000000
367.397003 -561.459534 2.296741 1.000000
367.397003 -561.459534 1.703259 1.000000
367.397003 -561.459534 1.109141 1.000000
367.397003 -561.459534 0.513109 1.000000
366.712402 -561.156250 0.000006 0.556909
363.144592 -559.575684 0.000008 0.553506
360.866882 -558.566650 0.000007 0.561212
359.283752 -557.865295 0.000007 0.526452
358.117401 -557.348572 0.000006 0.551171
nan nan nan 0.000000
nan nan nan 0.000000
nan nan nan 0.000000
nan nan nan 0.000000
nan nan nan 0.000000
nan nan nan 0.000000
367.424774 -561.610962 2.895142 1.000000
367.424774 -561.610962 2.298168 1.000000
367.424774 -561.610962 1.701833 1.000000
367.424774 -561.610962 1.104858 1.000000
367.424774 -561.610962 0.505961 1.000000
366.662872 -561.267029 0.000006 0.535454
363.106171 -559.661621 0.000008 0.574746
360.835541 -558.636658 0.000007 0.539391
359.257385 -557.924316 0.000006 0.502892
358.094666 -557.399475 0.000006 0.538827
nan nan nan 0.000000
nan nan nan 0.000000
nan nan nan 0.000000
nan nan nan 0.000000
nan nan nan 0.000000
nan nan nan 0.000000
367.452820 -561.763855 2.899510 1.000000
367.452820 -561.763855 2.299623 1.000000
367.452820 -561.763855 1.700378 1.000000
367.452820 -561.763855 1.100490 1.000000
367.452820 -561.763855 0.498671 1.000000
366.612549 -561.377502 0.000007 0.557931
363.067139 -559.747253 0.000008 0.517815
360.803741 -558.706543 0.000007 0.504555
359.230560 -557.983154 0.000006 0.535500
358.071533 -557.450195 0.000006 0.534218
nan nan nan 0.000000
nan nan nan 0.000000
nan nan nan 0.000000
nan nan nan 0.000000
nan nan nan 0.000000
nan nan nan 0.000000
367.481140 -561.918274 2.903964 1.000000
367.481140 -561.918274 2.301106 1.000000
367.481140 -561.918274 1.698894 1.000000
367.481140 -561.918274 1.096035 1.000000
367.481140 -561.918274 0.491235 1.000000
366.561462 -561.487610 0.000007 0.532967
363.027527 -559.832642 0.000008 0.529763
360.771423 -558.776123 0.000007 0.534630
359.203369 -558.041809 0.000006 0.564858
358.048065 -557.500793 0.000006 0.560372
nan nan nan 0.000000
nan nan nan 0.000000
nan nan nan 0.000000
nan nan nan 0.000000
nan nan nan 0.000000
nan nan nan 0.000000
367.509735 -562.074219 2.908508 1.000000
367.509735 -562.074219 2.302620 1.000000
367.509735 -562.074219 1.697380 1.000000
367.509735 -562.074219 1.091491 1.000000
367.509735 -562.074219 0.483651 1.000000
366.509583 -561.597351 0.000007 0.534966
362.987305 -559.917786 0.000008 0.523339
360.738647 -558.845520 0.000007 0.547723
359.175751 -558.100220 0.000006 0.544045
358.024261 -557.551147 0.000006 0.544228
nan nan nan 0.000000
nan nan nan 0.000000
nan nan nan 0.000000
nan nan nan 0.000000
nan nan nan 0.000000
nan nan nan 0.000000
367.538635 -562.231750 2.913143 1.000000
367.538635 -562.231750 2.304164 1.000000
367.538635 -562.231750 1.695837 1.000000
367.538635 -562.231750 1.086857 1.000000
367.538635 -562.231750 0.475916 1.000000
366.456970 -561.706726 0.000007 0.527932
362.946503 -560.002563 0.000008 0.528557
360.705383 -558.914673 0.000007 0.534264
359.147705 -558.158508 0.000006 0.547036
358.000092 -557.601379 0.000006 0.561273
nan nan nan 0.000000
nan nan nan 0.000000
nan nan nan 0.000000
nan nan nan 0.000000
nan nan nan 0.000000
nan nan nan 0.000000
367.567810 -562.390930 2.917870 1.000000
367.567810 -562.390930 2.305738 1.000000
367.567810 -562.390930 1.694262 1.000000
367.567810 -562.390930 1.082130 1.000000
367.567810 -562.390930 0.468026 1.000000
366.403595 -561.815674 0.000007 0.541024
362.905090 -560.087097 0.000008 0.534234
360.671631 -558.983582 0.000007 0.531960
359.119263 -558.216553 0.000006 0.548058
357.975586 -557.651428 0.000005 0.539376
nan nan nan 0.000000
nan nan nan 0.000000
nan nan nan 0.000000
nan nan nan 0.000000
nan nan nan 0.000000
nan nan nan 0.000000
367.597321 -562.551758 2.922691 1.000000
367.597321 -562.551758 2.307344 1.000000
367.597321 -562.551758 1.692656 1.000000
367.597321 -562.551758 1.077309 1.000000
367.597321 -562.551758 0.459979 1.000000
366.349457 -561.924316 0.000007 0.554665
362.863098 -560.171326 0.000008 0.527352
360.637390 -559.052246 0.000007 0.539742
359.090454 -558.274414 0.000006 0.546731
357.950714 -557.701355 0.000006 0.512245
nan nan nan 0.000000
nan nan nan 0.000000
nan nan nan 0.000000
nan nan nan 0.000000
nan nan nan 0.000000
nan nan nan 0.000000
367.627106 -562.714294 2.927609 1.000000
367.627106 -562.714294 2.308982 1.000000
367.627106 -562.714294 1.691018 1.000000
367.627136 -562.714294 1.072391 1.000000
367.627136 -562.714294 0.451771 1.000000
366.294556 -562.032593 0.000007 0.538415
362.820526 -560.255310 0.000008 0.543450
360.602692 -559.120667 0.000007 0.522469
359.061188 -558.332092 0.000006 0.533669
357.925507 -557.751038 0.000006 0.567437
nan nan nan 0.000000
nan nan nan 0.000000
nan nan nan 0.000000
nan nan nan 0.000000
nan nan nan 0.000000
nan nan nan 0.000000
367.657257 -562.878601 2.932625 1.000000
367.657257 -562.878601 2.310653 1.000000
367.657257 -562.878601 1.689347 1.000000
367.657257 -562.878601 1.067375 1.000000
367.657257 -562.878601 0.443399 1.000000
366.238892 -562.140442 0.000007 0.539422
362.777374 -560.338928 0.000008 0.553017
360.567505 -559.188843 0.000007 0.610010
359.031555 -558.389526 0.000006 0.505516
357.899933 -557.800598 0.000006 0.521218
nan nan nan 0.000000
nan nan nan 0.000000
nan nan nan 0.000000
nan nan nan 0.000000
nan nan nan 0.000000
nan nan nan 0.000000
367.687714 -563.044678 2.937742 1.000000
367.687714 -563.044678 2.312357 1.000000
367.687714 -563.044678 1.687643 1.000000
367.687714 -563.044678 1.062258 1.000000
367.687714 -563.044678 0.434859 1.000000
366.182495 -562.247925 0.000007 0.546166
362.733612 -560.422302 0.000008 0.517159
360.531830 -559.256836 0.000007 0.521004
359.001495 -558.446777 0.000006 0.542107
357.874023 -557.849976 0.000006 0.580713
nan nan nan 0.000000
nan nan nan 0.000000
nan nan nan 0.000000
nan nan nan 0.000000
nan nan nan 0.000000
nan nan nan 0.000000
367.718506 -563.212585 2.942961 1.000000
367.718506 -563.212585 2.314096 1.000000
367.718506 -563.212585 1.685904 1.000000
367.718506 -563.212585 1.057039 1.000000
367.718506 -563.212585 0.426147 1.000000
366.125336 -562.354980 0.000007 0.544472
362.689301 -560.505310 0.000009 0.519860
360.495697 -559.324524 0.000006 0.542107
358.971069 -558.503784 0.000007 0.510353
357.847778 -557.899109 0.000006 0.500511
nan nan nan 0.000000
nan nan nan 0.000000
nan nan nan 0.000000
nan nan nan 0.000000
nan nan nan 0.000000
nan nan nan 0.000000
367.749634 -563.382385 2.948285 1.000000
367.749634 -563.382385 2.315869 1.000000
367.749634 -563.382385 1.684131 1.000000
367.749634 -563.382385 1.051714 1.000000
367.749634 -563.382385 0.417261 1.000000
366.067413 -562.461609 0.000007 0.553140
362.644409 -560.588074 0.000008 0.529107
360.459106 -559.391968 0.000007 0.549233
358.940216 -558.560608 0.000006 0.546059
357.821198 -557.948120 0.000006 0.574166
nan nan nan 0.000000
nan nan nan 0.000000
nan nan nan 0.000000
nan nan nan 0.000000
nan nan nan 0.000000
nan nan nan 0.000000
367.781128 -563.554138 2.953717 1.000000
367.781128 -563.554138 2.317678 1.000000
367.781128 -563.554138 1.682321 1.000000
367.781128 -563.554138 1.046283 1.000000
367.781128 -563.554138 0.408196 1.000000
366.008789 -562.567871 0.000007 0.535622
362.598907 -560.670471 0.000008 0.490364
360.422028 -559.459106 0.000007 0.552789
358.908997 -558.617188 0.000006 0.560311
357.794250 -557.996887 0.000006 0.565087
nan nan nan 0.000000
nan nan nan 0.000000
nan nan nan 0.000000
nan nan nan 0.000000
nan nan nan 0.000000
nan nan nan 0.000000
367.812988 -563.727844 2.959258 1.000000
367.812988 -563.727844 2.319524 1.000000
367.812988 -563.727844 1.680476 1.000000
367.812988 -563.727844 1.040742 1.000000
367.812988 -563.727844 0.398947 1.000000
365.949402 -562.673767 0.000007 0.537392
362.552856 -560.752563 0.000008 0.574395
360.384460 -559.526062 0.000007 0.555611
358.877350 -558.673584 0.000006 0.553140
357.766968 -558.045532 0.000005 0.549218
nan nan nan 0.000000
nan nan nan 0.000000
nan nan nan 0.000000
nan nan nan 0.000000
nan nan nan 0.000000
nan nan nan 0.000000
367.845245 -563.903625 2.964911 1.000000
367.845245 -563.903625 2.321407 1.000000
367.845245 -563.903625 1.678593 1.000000
367.845245 -563.903625 1.035089 1.000000
367.845245 -563.903625 0.389511 1.000000
365.889282 -562.779175 0.000007 0.530465
362.506226 -560.834351 0.000008 0.546960
360.346466 -559.592712 0.000007 0.556329
358.845337 -558.729736 0.000006 0.459236
357.739380 -558.093933 0.000006 0.536278
nan nan nan 0.000000
nan nan nan 0.000000
nan nan nan 0.000000
nan nan nan 0.000000
nan nan nan 0.000000
nan nan nan 0.000000
367.877838 -564.081482 2.970679 1.000000
367.877838 -564.081482 2.323328 1.000000
367.877838 -564.081482 1.676672 1.000000
367.877838 -564.081482 1.029321 1.000000
367.877838 -564.081482 0.379886 1.000000
365.828430 -562.884216 0.000007 0.512673
362.459015 -560.915771 0.000009 0.565515
360.307983 -559.659119 0.000007 0.515618
358.812927 -558.785706 0.000006 0.572625
357.711426 -558.142151 0.000005 0.513405
nan nan nan 0.000000
nan nan nan 0.000000
nan nan nan 0.000000
nan nan nan 0.000000
nan nan nan 0.000000
nan nan nan 0.000000
367.910858 -564.261475 2.976563 1.000000
367.910858 -564.261475 2.325289 1.000000
367.910858 -564.261475 1.674711 1.000000
367.910858 -564.261475 1.023436 1.000000
367.910858 -564.261475 0.370062 1.000000
365.766815 -562.988770 0.000007 0.525063
362.411255 -560.996887 0.000009 0.532067
360.269043 -559.725220 0.000007 0.549157
358.780121 -558.841370 0.000006 0.548302
357.683136 -558.190186 0.000006 0.572213
nan nan nan 0.000000
nan nan nan 0.000000
nan nan nan 0.000000
nan nan nan 0.000000
nan nan nan 0.000000
nan nan nan 0.000000
367.944275 -564.443726 2.982569 1.000000
367.944275 -564.443726 2.327289 1.000000
367.944275 -564.443726 1.672711 1.000000
367.944275 -564.443726 1.017431 1.000000
367.944275 -564.443726 0.360040 1.000000
365.704529 -563.092896 0.000007 0.519371
362.362946 -561.077637 0.000009 0.542306
360.229645 -559.791077 0.000007 0.524315
358.746918 -558.896851 0.000006 0.533120
357.654510 -558.238037 0.000005 0.538872
nan nan nan 0.000000
nan nan nan 0.000000
nan nan nan 0.000000
nan nan nan 0.000000
nan nan nan 0.000000
nan nan nan 0.000000
367.978119 -564.628174 2.988696 1.000000
367.978119 -564.628174 2.329330 1.000000
367.978119 -564.628174 1.670670 1.000000
367.978119 -564.628174 1.011303 1.000000
367.978119 -564.628174 0.349813 1.000000
365.641479 -563.196655 0.000007 0.533471
362.314056 -561.158081 0.000008 0.516655
360.189789 -559.856628 0.000007 0.549065
358.713348 -558.952087 0.000006 0.530785
357.625549 -558.285645 0.000005 0.517586
nan nan nan 0.000000
nan nan nan 0.000000
nan nan nan 0.000000
nan nan nan 0.000000
nan nan nan 0.000000
nan nan nan 0.000000
368.012360 -564.815002 2.994950 1.000000
368.012360 -564.815002 2.331413 1.000000
368.012360 -564.815002 1.668587 1.000000
368.012360 -564.815002 1.005050 1.000000
368.012360 -564.815002 0.339375 1.000000
365.577698 -563.299927 0.000007 0.521004
362.264587 -561.238159 0.000009 0.525551
360.149475 -559.921936 0.000007 0.568322
358.679382 -559.007080 0.000006 0.563912
357.596283 -558.333130 0.000005 0.562692
nan nan nan 0.000000
nan nan nan 0.000000
nan nan nan 0.000000
nan nan nan 0.000000
nan nan nan 0.000000
nan nan nan 0.000000
368.047058 -565.004150 3.001332 1.000000
368.047058 -565.004150 2.333539 1.000000
368.047058 -565.004150 1.666461 1.000000
368.047058 -565.004150 0.998668 1.000000
368.047058 -565.004150 0.328723 1.000000
365.513214 -563.402710 0.000007 0.522835
362.214569 -561.317932 0.000009 0.514870
360.108704 -559.986938 0.000007 0.534554
358.645020 -559.061890 0.000006 0.544686
357.566650 -558.380310 0.000005 0.532372
nan nan nan 0.000000
nan nan nan 0.000000
nan nan nan 0.000000
nan nan nan 0.000000
nan nan nan 0.000000
nan nan nan 0.000000
nan nan nan 0.000000
368.082214 -565.195801 2.335709 1.000000
368.082214 -565.195801 1.664291 1.000000
368.082214 -565.195801 0.992154 1.000000
368.082214 -565.195801 0.317851 1.000000
365.448029 -563.505127 0.000007 0.551888
362.164001 -561.397339 0.000008 0.532479
360.067474 -560.051697 0.000007 0.559274
358.610291 -559.116394 0.000006 0.562036
357.536713 -558.427368 0.000005 0.552270
nan nan nan 0.000000
nan nan nan 0.000000
nan nan nan 0.000000
nan nan nan 0.000000
nan nan nan 0.000000
nan nan nan 0.000000
nan nan nan 0.000000
368.117828 -565.389954 2.337924 1.000000
368.117828 -565.389954 1.662077 1.000000
368.117828 -565.389954 0.985505 1.000000
368.117828 -565.389954 0.306753 1.000000
365.382111 -563.606995 0.000007 0.558099
362.112885 -561.476318 0.000009 0.513695
360.025787 -560.116089 0.000007 0.516854
358.575195 -559.170715 0.000006 0.550896
357.506439 -558.474121 0.000005 0.543160
nan nan nan 0.000000
nan nan nan 0.000000
nan nan nan 0.000000
nan nan nan 0.000000
nan nan nan 0.000000
nan nan nan 0.000000
nan nan nan 0.000000
368.153900 -565.586731 2.340184 1.000000
368.153900 -565.586731 1.659816 1.000000
368.153900 -565.586731 0.978717 1.000000
368.153900 -565.586731 0.295425 1.000000
365.315491 -563.708435 0.000007 0.572427
362.061218 -561.554993 0.000009 0.562554
359.983673 -560.180237 0.000007 0.526345
358.539703 -559.224731 0.000006 0.499092
357.475830 -558.520752 0.000005 0.561090
nan nan nan 0.000000
nan nan nan 0.000000
nan nan nan 0.000000
nan nan nan 0.000000
nan nan nan 0.000000
nan nan nan 0.000000
nan nan nan 0.000000
368.190460 -565.786133 2.342493 1.000000
368.190460 -565.786133 1.657508 1.000000
368.190460 -565.786133 0.971788 1.000000
368.190460 -565.786133 0.283859 1.000000
365.248138 -563.809448 0.000007 0.557168
362.009003 -561.633362 0.000009 0.543389
359.941101 -560.244080 0.000006 0.530480
358.503845 -559.278503 0.000006 0.542275
357.444916 -558.567139 0.000005 0.548333
nan nan nan 0.000000
nan nan nan 0.000000
nan nan nan 0.000000
nan nan nan 0.000000
nan nan nan 0.000000
nan nan nan 0.000000
nan nan nan 0.000000
368.227539 -565.988281 2.344849 1.000000
368.227539 -565.988281 1.655151 1.000000
368.227539 -565.988281 0.964713 1.000000
368.227539 -565.988281 0.272051 1.000000
365.180115 -563.909973 0.000007 0.542092
361.956238 -561.711304 0.000009 0.530694
359.898102 -560.307617 0.000007 0.548394
358.467590 -559.332031 0.000006 0.528878
357.413666 -558.613281 0.000005 0.482750
nan nan nan 0.000000
nan nan nan 0.000000
nan nan nan 0.000000
nan nan nan 0.000000
nan nan nan 0.000000
nan nan nan 0.000000
nan nan nan 0.000000
368.265137 -566.193237 2.347255 1.000000
368.265137 -566.193237 1.652745 1.000000
368.265137 -566.193237 0.957489 1.000000
368.265137 -566.193237 0.259993 1.000000
365.111389 -564.010010 0.000007 0.532738
361.902924 -561.788879 0.000009 0.522881
359.854645 -560.370911 0.000007 0.530968
358.431000 -559.385315 0.000006 0.559945
357.382111 -558.659241 0.000005 0.512535
nan nan nan 0.000000
nan nan nan 0.000000
nan nan nan 0.000000
nan nan nan 0.000000
nan nan nan 0.000000
nan nan nan 0.000000
nan nan nan 0.000000
368.303253 -566.401062 2.349712 1.000000
368.303253 -566.401062 1.650287 1.000000
368.303253 -566.401062 0.950111 1.000000
368.303253 -566.401062 0.247680 1.000000
365.041962 -564.109558 0.000007 0.520745
361.849091 -561.866089 0.000009 0.524849
359.810730 -560.433838 0.000006 0.547341
358.394012 -559.438354 0.000006 0.547295
357.350220 -558.704956 0.000005 0.574960
nan nan nan 0.000000
nan nan nan 0.000000
nan nan nan 0.000000
nan nan nan 0.000000
nan nan nan 0.000000
nan nan nan 0.000000
nan nan nan 0.000000
368.341919 -566.611877 2.352222 1.000000
368.341919 -566.611877 1.647778 1.000000
368.341919 -566.611877 0.942578 1.000000
368.341919 -566.611877 0.235105 1.000000
364.971832 -564.208618 0.000007 0.529473
361.794708 -561.942871 0.000008 0.563180
359.766388 -560.496460 0.000007 0.548348
358.356659 -559.491150 0.000006 0.531792
357.318024 -558.750427 0.000005 0.525429
nan nan nan 0.000000
nan nan nan 0.000000
nan nan nan 0.000000
nan nan nan 0.000000
nan nan nan 0.000000
nan nan nan 0.000000
nan nan nan 0.000000
368.381134 -566.825806 2.354786 1.000000
368.381134 -566.825806 1.645214 1.000000
368.381134 -566.825806 0.934882 1.000000
368.381134 -566.825806 0.222261 1.000000
364.901001 -564.307190 0.000007 0.557397
361.739777 -562.019348 0.000009 0.550103
359.721619 -560.558777 0.000006 0.508995
358.318939 -559.543640 0.000006 0.573587
357.285492 -558.795715 0.000005 0.510262
nan nan nan 0.000000
nan nan nan 0.000000
nan nan nan 0.000000
nan nan nan 0.000000
nan nan nan 0.000000
nan nan nan 0.000000
nan nan nan 0.000000
368.420929 -567.042786 2.357404 1.000000
368.420929 -567.042786 1.642596 1.000000
368.420929 -567.042786 0.927021 1.000000
368.420929 -567.042786 0.209141 1.000000
364.829498 -564.405212 0.000007 0.531441
361.684326 -562.095398 0.000009 0.508064
359.676422 -560.620789 0.000006 0.536843
358.280853 -559.595886 0.000006 0.553582
357.252655 -558.840759 0.000005 0.570382
nan nan nan 0.000000
nan nan nan 0.000000
nan nan nan 0.000000
nan nan nan 0.000000
nan nan nan 0.000000
nan nan nan 0.000000
nan nan nan 0.000000
368.461334 -567.263062 2.360080 1.000000
368.461334 -567.263062 1.639921 1.000000
368.461334 -567.263062 0.918990 1.000000
368.461334 -567.263062 0.195737 1.000000
364.757324 -564.502808 0.000008 0.548562
361.628357 -562.171082 0.000009 0.537774
359.630798 -560.682495 0.000007 0.560067
358.242401 -559.647827 0.000006 0.563180
357.219482 -558.885559 0.000005 0.555642
nan nan nan 0.000000
nan nan nan 0.000000
nan nan nan 0.000000
nan nan nan 0.000000
nan nan nan 0.000000
nan nan nan 0.000000
nan nan nan 0.000000
368.502350 -567.486633 2.362813 1.000000
368.502350 -567.486633 1.637187 1.000000
368.502350 -567.486633 0.910785 1.000000
368.502350 -567.486633 0.182042 1.000000
364.684479 -564.599854 0.000007 0.529564
361.571838 -562.246338 0.000009 0.555474
359.584717 -560.743835 0.000006 0.547356
358.203583 -559.699524 0.000006 0.551553
357.186035 -558.930115 0.000005 0.508232
nan nan nan 0.000000
nan nan nan 0.000000
nan nan nan 0.000000
nan nan nan 0.000000
nan nan nan 0.000000
nan nan nan 0.000000
nan nan nan 0.000000
368.543976 -567.713684 2.365606 1.000000
368.543976 -567.713684 1.634395 1.000000
368.543976 -567.713684 0.902400 1.000000
368.543976 -567.713684 0.168046 1.000000
364.610931 -564.696411 0.000007 0.537667
361.514801 -562.321228 0.000009 0.547524
359.538239 -560.804871 0.000007 0.536187
358.164429 -559.750977 0.000006 0.589487
357.152252 -558.974487 0.000005 0.527718
nan nan nan 0.000000
nan nan nan 0.000000
nan nan nan 0.000000
nan nan nan 0.000000
nan nan nan 0.000000
nan nan nan 0.000000
nan nan nan 0.000000
368.586243 -567.944214 2.368460 1.000000
368.586243 -567.944214 1.631540 1.000000
368.586243 -567.944275 0.893830 1.000000
368.586243 -567.944214 0.153744 1.000000
364.536713 -564.792480 0.000008 0.551614
361.457275 -562.395752 0.000007 0.538399
359.491302 -560.865601 0.000006 0.542077
358.124878 -559.802124 0.000005 0.512856
357.118195 -559.018616 0.000005 0.542992
nan nan nan 0.000000
nan nan nan 0.000000
nan nan nan 0.000000
nan nan nan 0.000000
nan nan nan 0.000000
nan nan nan 0.000000
nan nan nan 0.000000
368.629211 -568.178467 2.371377 1.000000
368.629211 -568.178467 1.628623 1.000000
368.629211 -568.178467 0.885071 1.000000
368.629211 -568.178467 0.139124 1.000000
364.461823 -564.888000 0.000008 0.546273
361.399200 -562.469788 0.000007 0.554482
359.443970 -560.926025 0.000006 0.483452
358.085022 -559.853027 0.000006 0.508217
357.083801 -559.062439 0.000005 0.524636
nan nan nan 0.000000
nan nan nan 0.000000
nan nan nan 0.000000
nan nan nan 0.000000
nan nan nan 0.000000
nan nan nan 0.000000
nan nan nan 0.000000
368.672852 -568.416382 2.374360 1.000000
368.672852 -568.416382 1.625640 1.000000
368.672852 -568.416382 0.876118 1.000000
368.672852 -568.416382 0.124180 1.000000
364.386292 -564.982971 0.000007 0.542565
361.340607 -562.543457 0.000007 0.547311
359.396210 -560.986084 0.000006 0.543221
358.044769 -559.903625 0.000005 0.549661
357.049103 -559.106079 0.000005 0.539727
nan nan nan 0.000000
nan nan nan 0.000000
nan nan nan 0.000000
nan nan nan 0.000000
nan nan nan 0.000000
nan nan nan 0.000000
nan nan nan 0.000000
368.717194 -568.658203 2.377409 1.000000
368.717194 -568.658203 1.622591 1.000000
368.717194 -568.658203 0.866962 1.000000
368.717194 -568.658203 0.108900 1.000000
364.310089 -565.077454 0.000008 0.543755
361.281494 -562.616760 0.000007 0.550042
359.348022 -561.045776 0.000006 0.540566
358.004181 -559.953918 0.000006 0.526787
357.014099 -559.149475 0.000004 0.497704
337.693695 -543.298706 6.259825 1.000000
337.693695 -543.298706 5.672982 1.000000
337.693695 -543.298706 5.094378 1.000000
337.693695 -543.298706 4.522628 1.000000
337.693695 -543.298706 3.956403 1.000000
337.693695 -543.298706 3.394427 1.000000
337.693695 -543.298706 2.835459 1.000000
337.693695 -543.298706 2.278288 1.000000
337.693695 -543.298706 1.721712 1.000000
337.693695 -543.298706 1.164540 1.000000
337.693695 -543.298706 0.605573 1.000000
337.693695 -543.298706 0.043597 1.000000
340.412598 -545.539490 0.000001 0.539544
342.335052 -547.123901 0.000000 0.525689
343.671265 -548.225159 0.000000 0.563973
344.655701 -549.036499 -0.000000 0.619242
337.808014 -543.239563 6.247264 1.000000
337.808014 -543.239563 5.662151 1.000000
337.808014 -543.239563 5.085255 1.000000
337.808014 -543.239563 4.515190 1.000000
337.808014 -543.239563 3.950634 1.000000
337.808014 -543.239563 3.390315 1.000000
337.808014 -543.239563 2.832996 1.000000
337.808014 -543.239563 2.277467 1.000000
337.808014 -543.239563 1.722533 1.000000
337.808014 -543.239563 1.167004 1.000000
337.808014 -543.239563 0.609684 1.000000
337.808014 -543.239563 0.049366 1.000000
340.472717 -545.467102 0.000001 0.535576
342.384064 -547.064880 0.000000 0.524742
343.712555 -548.175415 0.000000 0.544503
344.691315 -548.993591 0.000000 0.548409
337.783966 -543.063965 6.280196 1.000000
337.783966 -543.063965 5.690546 1.000000
337.783966 -543.063965 5.109175 1.000000
337.783966 -543.063965 4.534691 1.000000
337.783966 -543.063965 3.965758 1.000000
337.783966 -543.063965 3.401095 1.000000
337.783966 -543.063965 2.839455 1.000000
337.783966 -543.063965 2.279618 1.000000
337.783966 -543.063965 1.720381 1.000000
337.783966 -543.063965 1.160545 1.000000
337.783966 -543.063965 0.598905 1.000000
337.783966 -543.063965 0.034242 1.000000
340.533325 -545.395081 0.000001 0.530282
342.433502 -547.006165 0.000001 0.521447
343.754181 -548.125977 0.000000 0.511666
344.727203 -548.950989 0.000000 0.568414
337.759552 -542.885620 6.313851 1.000000
337.759552 -542.885620 5.719565 1.000000
337.759552 -542.885620 5.133623 1.000000
337.759552 -542.885620 4.554622 1.000000
337.759552 -542.885620 3.981215 1.000000
337.759552 -542.885620 3.412112 1.000000
337.759552 -542.885620 2.846056 1.000000
337.759552 -542.885620 2.281817 1.000000
337.759552 -542.885620 1.718183 1.000000
337.759552 -542.885620 1.153944 1.000000
337.759552 -542.885620 0.587888 1.000000
337.759552 -542.885620 0.018784 1.000000
340.594452 -545.323486 0.000001 0.561761
342.483337 -546.947815 0.000000 0.533089
343.796173 -548.076782 0.000000 0.520226
344.763397 -548.908569 0.000000 0.541390
337.734741 -542.704468 6.348255 1.000000
337.734772 -542.704468 5.749229 1.000000
337.734741 -542.704468 5.158615 1.000000
337.734772 -542.704468 4.574995 1.000000
337.734741 -542.704468 3.997016 1.000000
337.734772 -542.704468 3.423373 1.000000
337.734741 -542.704468 2.852803 1.000000
337.734741 -542.704468 2.284065 1.000000
337.734741 -542.704468 1.715935 1.000000
337.734741 -542.704468 1.147197 1.000000
337.734741 -542.704468 0.576626 1.000000
337.734741 -542.704468 0.002983 1.000000
340.656067 -545.252319 0.000001 0.554528
342.533569 -546.889832 0.000001 0.512779
343.838501 -548.027954 0.000000 0.562112
344.799896 -548.866455 0.000000 0.602899
337.709564 -542.520386 6.383428 1.000000
337.709564 -542.520386 5.779556 1.000000
337.709564 -542.520386 5.184164 1.000000
337.709564 -542.520386 4.595824 1.000000
337.709564 -542.520386 4.013169 1.000000
337.709564 -542.520386 3.434887 1.000000
337.709564 -542.520386 2.859701 1.000000
337.709564 -542.520386 2.286363 1.000000
337.709564 -542.520386 1.713637 1.000000
337.709564 -542.520386 1.140298 1.000000
337.709564 -542.520386 0.565112 1.000000
337.795319 -542.596252 0.000001 0.546410
340.718201 -545.181641 0.000001 0.547936
342.584198 -546.832153 0.000000 0.532509
343.881165 -547.979370 0.000000 0.578683
344.836700 -548.824585 0.000000 0.554070
337.683929 -542.333313 6.419391 1.000000
337.683929 -542.333313 5.810566 1.000000
337.683929 -542.333313 5.210289 1.000000
337.683929 -542.333313 4.617121 1.000000
337.683960 -542.333313 4.029686 1.000000
337.683929 -542.333313 3.446659 1.000000
337.683929 -542.333313 2.866754 1.000000
337.683929 -542.333313 2.288712 1.000000
337.683929 -542.333313 1.711288 1.000000
337.683929 -542.333313 1.133245 1.000000
337.683929 -542.333313 0.553340 1.000000
337.876038 -542.505615 0.000001 0.552209
340.780792 -545.111328 0.000001 0.544182
342.635254 -546.774841 0.000001 0.556207
343.924164 -547.931091 0.000000 0.565347
344.873779 -548.782959 0.000000 0.567498
337.657898 -542.143066 6.456168 1.000000
337.657898 -542.143066 5.842277 1.000000
337.657898 -542.143066 5.237003 1.000000
337.657898 -542.143066 4.638900 1.000000
337.657898 -542.143066 4.046577 1.000000
337.657898 -542.143066 3.458699 1.000000
337.657898 -542.143066 2.873967 1.000000
337.657898 -542.143066 2.291114 1.000000
337.657898 -542.143066 1.708886 1.000000
337.657898 -542.143066 1.126032 1.000000
337.657898 -542.143066 0.541301 1.000000
337.957397 -542.415527 0.000001 0.536187
340.843903 -545.041504 0.000001 0.525719
342.686676 -546.717896 0.000000 0.542412
343.967499 -547.883118 0.000000 0.504219
344.911133 -548.741577 0.000000 0.498375
337.631439 -541.949707 6.493783 1.000000
337.631439 -541.949707 5.874711 1.000000
337.631439 -541.949707 5.264328 1.000000
337.631439 -541.949707 4.661176 1.000000
337.631439 -541.949707 4.063853 1.000000
337.631439 -541.949707 3.471011 1.000000
337.631439 -541.949707 2.881345 1.000000
337.631439 -541.949707 2.293572 1.000000
337.631439 -541.949707 1.706428 1.000000
337.631439 -541.949707 1.118655 1.000000
337.631439 -541.949707 0.528988 1.000000
338.039398 -542.326050 0.000001 0.522240
340.907471 -544.972107 0.000001 0.550668
342.738525 -546.661316 0.000000 0.541436
344.011169 -547.835449 0.000000 0.595590
344.948792 -548.700500 0.000000 0.513497
337.604492 -541.752991 6.532262 1.000000
337.604492 -541.752991 5.907887 1.000000
337.604492 -541.752991 5.292279 1.000000
337.604492 -541.752991 4.683963 1.000000
337.604492 -541.752991 4.081525 1.000000
337.604492 -541.752991 3.483607 1.000000
337.604492 -541.752991 2.888891 1.000000
337.604492 -541.752991 2.296085 1.000000
337.604492 -541.752991 1.703914 1.000000
337.604492 -541.752991 1.111108 1.000000
337.604492 -541.752991 0.516392 1.000000
338.122009 -542.237122 0.000001 0.553918
340.971558 -544.903137 0.000001 0.557809
342.790741 -546.605103 0.000001 0.505287
344.055176 -547.788086 0.000000 0.543236
344.986725 -548.659607 0.000000 0.493629
337.577118 -541.552856 6.571630 1.000000
337.577118 -541.552856 5.941833 1.000000
337.577118 -541.552856 5.320877 1.000000
337.577118 -541.552856 4.707276 1.000000
337.577118 -541.552856 4.099606 1.000000
337.577118 -541.552856 3.496494 1.000000
337.577118 -541.552856 2.896613 1.000000
337.577118 -541.552856 2.298657 1.000000
337.577118 -541.552856 1.701342 1.000000
337.577118 -541.552856 1.103387 1.000000
337.577118 -541.552856 0.503505 1.000000
338.205231 -542.148804 0.000001 0.527169
341.036102 -544.834595 0.000001 0.532570
342.843384 -546.549255 0.000000 0.559472
344.099487 -547.741028 0.000000 0.544045
345.024963 -548.619080 0.000000 0.580819
337.549225 -541.349243 6.611914 1.000000
337.549225 -541.349243 5.976568 1.000000
337.549225 -541.349243 5.350140 1.000000
337.549225 -541.349243 4.731132 1.000000
337.549225 -541.349243 4.118107 1.000000
337.549225 -541.349243 3.509681 1.000000
337.549225 -541.349243 2.904513 1.000000
337.549225 -541.349243 2.301289 1.000000
337.549225 -541.349243 1.698711 1.000000
337.549225 -541.349243 1.095486 1.000000
337.549225 -541.349243 0.490319 1.000000
338.289063 -542.061035 0.000001 0.531579
341.101135 -544.766541 0.000001 0.537942
342.896393 -546.493774 0.000001 0.564599
344.144165 -547.694275 0.000000 0.553964
345.063446 -548.578735 0.000000 0.537240
337.520874 -541.141968 6.653144 1.000000
337.520844 -541.141968 6.012117 1.000000
337.520874 -541.141968 5.380090 1.000000
337.520874 -541.141968 4.755548 1.000000
337.520874 -541.141968 4.137041 1.000000
337.520874 -541.141968 3.523177 1.000000
337.520874 -541.141968 2.912600 1.000000
337.520874 -541.141968 2.303982 1.000000
337.520874 -541.141968 1.696018 1.000000
337.520874 -541.141968 1.087400 1.000000
337.520874 -541.141968 0.476822 1.000000
338.373535 -541.973877 0.000001 0.554284
341.166626 -544.698975 0.000001 0.534508
342.949768 -546.438660 0.000000 0.538247
344.189148 -547.647827 0.000000 0.560830
345.102234 -548.538696 0.000000 0.518410
337.491974 -540.930969 6.695349 1.000000
337.491974 -540.930969 6.048507 1.000000
337.491974 -540.930969 5.410748 1.000000
337.491974 -540.930969 4.780540 1.000000
337.491974 -540.930969 4.156425 1.000000
337.491974 -540.930969 3.536993 1.000000
337.491974 -540.930969 2.920877 1.000000
337.491974 -540.930969 2.306740 1.000000
337.491974 -540.930969 1.693260 1.000000
337.491974 -540.930969 1.079123 1.000000
337.491974 -540.930969 0.463007 1.000000
338.458588 -541.887268 0.000001 0.539666
341.232605 -544.631775 0.000001 0.564950
343.003571 -546.383911 0.000000 0.513146
344.234436 -547.601746 -0.000000 0.557443
345.141296 -548.498962 0.000000 0.590265
337.462555 -540.716064 6.738558 1.000000
337.462555 -540.716064 6.085764 1.000000
337.462555 -540.716064 5.442135 1.000000
337.462555 -540.716064 4.806129 1.000000
337.462555 -540.716064 4.176270 1.000000
337.462555 -540.716064 3.551137 1.000000
337.462555 -540.716064 2.929351 1.000000
337.462555 -540.716064 2.309562 1.000000
337.462555 -540.716064 1.690437 1.000000
337.462555 -540.716064 1.070648 1.000000
337.462555 -540.716064 0.448863 1.000000
338.544250 -541.801331 0.000001 0.542168
341.299042 -544.565125 0.000001 0.524453
343.057709 -546.329590 0.000001 0.528832
344.280090 -547.555969 0.000000 0.570169
345.180664 -548.459473 0.000000 0.547585
337.432587 -540.497192 6.782806 1.000000
337.432587 -540.497192 6.123917 1.000000
337.432587 -540.497192 5.474277 1.000000
337.432587 -540.497192 4.832333 1.000000
337.432587 -540.497192 4.196592 1.000000
337.432587 -540.497192 3.565621 1.000000
337.432587 -540.497192 2.938030 1.000000
337.432587 -540.497192 2.312453 1.000000
337.432587 -540.497192 1.687547 1.000000
337.432587 -540.497192 1.061970 1.000000
337.432587 -540.497192 0.434378 1.000000
338.630493 -541.715942 0.000001 0.514321
341.365936 -544.498901 0.000001 0.535149
343.112244 -546.275574 0.000000 0.547677
344.326019 -547.510437 0.000000 0.529366
345.220276 -548.420288 0.000000 0.548913
337.402069 -540.274170 6.828126 1.000000
337.402069 -540.274170 6.162992 1.000000
337.402069 -540.274170 5.507198 1.000000
337.402069 -540.274170 4.859170 1.000000
337.402069 -540.274170 4.217406 1.000000
337.402069 -540.274170 3.580456 1.000000
337.402069 -540.274170 2.946918 1.000000
337.402069 -540.274170 2.315414 1.000000
337.402069 -540.274170 1.684586 1.000000
337.402069 -540.274170 1.053082 1.000000
337.402069 -540.274170 0.419543 1.000000
338.717377 -541.631165 0.000001 0.551263
341.433289 -544.433167 0.000001 0.541482
343.167175 -546.221985 0.000000 0.570306
344.372284 -547.465332 0.000000 0.536538
345.260162 -548.381348 0.000000 0.540566
337.370941 -540.046875 6.874554 1.000000
337.370941 -540.046875 6.203023 1.000000
337.370941 -540.046875 5.540923 1.000000
337.370941 -540.046875 4.886663 1.000000
337.370941 -540.046875 4.238728 1.000000
337.370941 -540.046875 3.595654 1.000000
337.370941 -540.046875 2.956024 1.000000
337.370941 -540.046875 2.318447 1.000000
337.370941 -540.046875 1.681553 1.000000
337.370941 -540.046875 1.043976 1.000000
337.370941 -540.046875 0.404345 1.000000
338.804810 -541.546997 0.000001 0.529000
341.501099 -544.367859 0.000001 0.551247
343.222443 -546.168762 0.000000 0.531868
344.418854 -547.420471 0.000000 0.510353
345.300323 -548.342651 -0.000000 0.572442
337.339233 -539.815125 6.922123 1.000000
337.339233 -539.815125 6.244041 1.000000
337.339233 -539.815125 5.575479 1.000000
337.339233 -539.815125 4.914834 1.000000
337.339233 -539.815125 4.260576 1.000000
337.339233 -539.815125 3.611226 1.000000
337.339233 -539.815125 2.965353 1.000000
337.339233 -539.815125 2.321555 1.000000
337.339233 -539.815125 1.678445 1.000000
337.339233 -539.815125 1.034647 1.000000
337.339233 -539.815125 0.388773 1.000000
338.892853 -541.463440 0.000001 0.543786
341.569366 -544.303101 0.000001 0.543404
343.278107 -546.115967 0.000001 0.524865
344.465759 -547.375977 0.000000 0.516777
345.340759 -548.304321 0.000000 0.585458
337.306885 -539.578857 6.970876 1.000000
337.306885 -539.578857 6.286076 1.000000
337.306885 -539.578857 5.610892 1.000000
337.306885 -539.578857 4.943706 1.000000
337.306885 -539.578857 4.282966 1.000000
337.306885 -539.578857 3.627185 1.000000
337.306885 -539.578857 2.974915 1.000000
337.306885 -539.578857 2.324740 1.000000
337.306885 -539.578857 1.675261 1.000000
337.306885 -539.578857 1.025085 1.000000
337.306885 -539.578857 0.372815 1.000000
338.981445 -541.380493 0.000002 0.536156
341.638092 -544.238770 0.000001 0.545129
343.334137 -546.063538 0.000000 0.567132
344.512939 -547.331787 0.000000 0.530556
345.381439 -548.266174 0.000000 0.538521
337.273895 -539.337769 7.020851 1.000000
337.273865 -539.337769 6.329167 1.000000
337.273865 -539.337769 5.647194 1.000000
337.273865 -539.337769 4.973300 1.000000
337.273865 -539.337769 4.305918 1.000000
337.273865 -539.337769 3.643544 1.000000
337.273865 -539.337769 2.984716 1.000000
337.273865 -539.337769 2.328004 1.000000
337.273865 -539.337769 1.671996 1.000000
337.273865 -539.337769 1.015283 1.000000
337.273865 -539.337769 0.356456 1.000000
339.070648 -541.298157 0.000001 0.528389
341.707275 -544.174927 0.000001 0.632853
343.390533 -546.011475 0.000000 0.510857
344.560455 -547.287964 0.000000 0.567468
345.422394 -548.228394 -0.000000 0.536355
337.240204 -539.091797 7.072092 1.000000
337.240204 -539.091797 6.373349 1.000000
337.240204 -539.091797 5.684417 1.000000
337.240204 -539.091797 5.003644 1.000000
337.240204 -539.091797 4.329452 1.000000
337.240204 -539.091797 3.660317 1.000000
337.240204 -539.091797 2.994766 1.000000
337.240204 -539.091797 2.331352 1.000000
337.240204 -539.091797 1.668648 1.000000
337.240204 -539.091797 1.005234 1.000000
337.240204 -539.091797 0.339683 1.000000
339.160400 -541.216492 0.000001 0.521889
341.776886 -544.111572 0.000001 0.561807
343.447266 -545.959839 0.000000 0.547356
344.608276 -547.244446 0.000000 0.525841
345.463623 -548.190857 0.000000 0.561212
337.205841 -538.840820 7.124639 1.000000
337.205841 -538.840759 6.418658 1.000000
337.205841 -538.840759 5.722589 1.000000
337.205841 -538.840759 5.034763 1.000000
337.205841 -538.840759 4.353585 1.000000
337.205841 -538.840820 3.677519 1.000000
337.205841 -538.840759 3.005072 1.000000
337.205841 -538.840759 2.334785 1.000000
337.205841 -538.840759 1.665215 1.000000
337.205841 -538.840759 0.994928 1.000000
337.205841 -538.840820 0.322481 1.000000
339.250732 -541.135437 0.000001 0.530114
341.846924 -544.048706 0.000001 0.547112
343.504395 -545.908569 0.000000 0.530343
344.656372 -547.201233 0.000001 0.501717
345.505127 -548.153625 0.000000 0.577340
337.170746 -538.584473 7.178546 1.000000
337.170746 -538.584473 6.465137 1.000000
337.170746 -538.584473 5.761745 1.000000
337.170746 -538.584473 5.066685 1.000000
337.170746 -538.584473 4.378342 1.000000
337.170746 -538.584473 3.695164 1.000000
337.170746 -538.584473 3.015644 1.000000
337.170746 -538.584473 2.338306 1.000000
337.170746 -538.584473 1.661694 1.000000
337.170746 -538.584473 0.984356 1.000000
337.170746 -538.584473 0.304835 1.000000
339.341614 -541.054993 0.000002 0.556161
341.917419 -543.986328 0.000001 0.545663
343.561859 -545.857727 0.000000 0.554803
344.704803 -547.158386 0.000000 0.589303
345.546875 -548.116699 0.000000 0.576059
337.134918 -538.322693 7.233853 1.000000
337.134918 -538.322693 6.512826 1.000000
337.134918 -538.322693 5.801922 1.000000
337.134918 -538.322693 5.099438 1.000000
337.134918 -538.322693 4.403744 1.000000
337.134918 -538.322693 3.713268 1.000000
337.134918 -538.322693 3.026491 1.000000
337.134918 -538.322693 2.341919 1.000000
337.134918 -538.322693 1.658081 1.000000
337.134918 -538.322693 0.973509 1.000000
337.134918 -538.322693 0.286731 1.000000
339.433075 -540.975159 0.000001 0.539406
341.988342 -543.924438 0.000001 0.538674
343.619659 -545.807251 0.000001 0.533532
344.753510 -547.115906 0.000000 0.529671
345.588867 -548.080078 0.000000 0.510079
337.098328 -538.055298 7.290615 1.000000
337.098297 -538.055298 6.561769 1.000000
337.098297 -538.055298 5.843155 1.000000
337.098297 -538.055298 5.133052 1.000000
337.098297 -538.055298 4.429812 1.000000
337.098328 -538.055298 3.731849 1.000000
337.098328 -538.055298 3.037624 1.000000
337.098297 -538.055298 2.345627 1.000000
337.098297 -538.055298 1.654372 1.000000
337.098328 -538.055298 0.962376 1.000000
337.098328 -538.055298 0.268150 1.000000
339.525085 -540.896057 0.000001 0.537118
342.059692 -543.863037 0.000001 0.544579
343.677856 -545.757202 0.000000 0.516548
344.802521 -547.073730 0.000000 0.561578
345.631104 -548.043701 0.000000 0.588464
337.060913 -537.781982 7.348886 1.000000
337.060913 -537.781982 6.612011 1.000000
337.060883 -537.781982 5.885485 1.000000
337.060913 -537.781982 5.167560 1.000000
337.060883 -537.781982 4.456575 1.000000
337.060913 -537.781982 3.750924 1.000000
337.060913 -537.781982 3.049052 1.000000
337.060913 -537.781982 2.349434 1.000000
337.060913 -537.781982 1.650566 1.000000
337.060913 -537.781982 0.950947 1.000000
337.060913 -537.781982 0.249076 1.000000
339.617645 -540.817505 0.000002 0.530739
342.131500 -543.802124 0.000001 0.513497
343.736359 -545.707581 0.000000 0.533471
344.851807 -547.031921 0.000000 0.506416
345.673615 -548.007629 0.000000 0.555047
337.022644 -537.502563 7.408724 1.000000
337.022644 -537.502563 6.663605 1.000000
337.022644 -537.502563 5.928949 1.000000
337.022644 -537.502563 5.202994 1.000000
337.022644 -537.502563 4.484055 1.000000
337.022644 -537.502563 3.770511 1.000000
337.022644 -537.502563 3.060787 1.000000
337.022644 -537.502563 2.353343 1.000000
337.022644 -537.502563 1.646657 1.000000
337.022644 -537.502563 0.939212 1.000000
337.022644 -537.502563 0.229489 1.000000
339.710754 -540.739685 0.000001 0.542641
342.203705 -543.741760 0.000001 0.552514
343.795227 -545.658325 0.000000 0.534905
344.901398 -546.990479 0.000000 0.498161
345.716370 -547.971863 0.000000 0.560906
336.983521 -537.216797 7.470181 1.000000
336.983521 -537.216797 6.716599 1.000000
336.983521 -537.216797 5.973594 1.000000
336.983521 -537.216797 5.239391 1.000000
336.983521 -537.216797 4.512281 1.000000
336.983521 -537.216797 3.790629 1.000000
336.983521 -537.216797 3.072841 1.000000
336.983521 -537.216797 2.357358 1.000000
336.983521 -537.216797 1.642642 1.000000
336.983521 -537.216797 0.927159 1.000000
336.983521 -537.216797 0.209370 1.000000
339.804382 -540.662415 0.000001 0.546624
342.276306 -543.681885 0.000001 0.531502
343.854431 -545.609558 0.000000 0.553872
344.951294 -546.949341 0.000000 0.503471
345.759399 -547.936401 0.000000 0.566201
336.943512 -536.924438 7.533327 1.000000
336.943512 -536.924438 6.771044 1.000000
336.943512 -536.924438 6.019464 1.000000
336.943512 -536.924438 5.276783 1.000000
336.943512 -536.924438 4.541282 1.000000
336.943512 -536.924438 3.811300 1.000000
336.943512 -536.924438 3.085226 1.000000
336.943512 -536.924438 2.361484 1.000000
336.943512 -536.924438 1.638516 1.000000
336.943512 -536.924438 0.914774 1.000000
336.943512 -536.924438 0.188700 1.000000
339.898560 -540.585876 0.000001 0.535515
342.349365 -543.622498 0.000001 0.558968
343.913971 -545.561157 0.000001 0.517235
345.001434 -546.908569 0.000000 0.515145
345.802643 -547.901245 0.000000 0.568322
336.902557 -536.625305 7.598223 1.000000
336.902557 -536.625305 6.826998 1.000000
336.902557 -536.625305 6.066603 1.000000
336.902557 -536.625305 5.315214 1.000000
336.902557 -536.625305 4.571086 1.000000
336.902557 -536.625305 3.832542 1.000000
336.902557 -536.625305 3.097953 1.000000
336.902557 -536.625305 2.365723 1.000000
336.902557 -536.625305 1.634277 1.000000
336.902557 -536.625305 0.902046 1.000000
336.902557 -536.625305 0.167456 1.000000
339.993286 -540.510010 0.000001 0.538094
342.422821 -543.563660 0.000001 0.556817
343.973846 -545.513123 0.000001 0.548775
345.051910 -546.868103 0.000000 0.534218
345.846130 -547.866394 0.000000 0.530373
336.860626 -536.318970 7.664938 1.000000
336.860626 -536.318970 6.884523 1.000000
336.860626 -536.318970 6.115066 1.000000
336.860626 -536.318970 5.354722 1.000000
336.860626 -536.318970 4.601727 1.000000
336.860626 -536.318970 3.854381 1.000000
336.860626 -536.318970 3.111037 1.000000
336.860626 -536.318970 2.370082 1.000000
336.860626 -536.318970 1.629918 1.000000
336.860626 -536.318970 0.888962 1.000000
336.860626 -536.318970 0.145618 1.000000
340.088531 -540.434753 0.000001 0.525521
342.496674 -543.505310 0.000001 0.565133
344.034088 -545.465576 0.000000 0.551919
345.102631 -546.828064 0.000000 0.538628
345.889893 -547.831848 0.000000 0.539620
336.817688 -536.005310 7.733546 1.000000
336.817688 -536.005310 6.943679 1.000000
336.817688 -536.005310 6.164903 1.000000
336.817688 -536.005310 5.395351 1.000000
336.817688 -536.005310 4.633237 1.000000
336.817688 -536.005310 3.876839 1.000000
336.817688 -536.005310 3.124494 1.000000
336.817688 -536.005310 2.374564 1.000000
336.817688 -536.005310 1.625437 1.000000
336.817688 -536.005310 0.875506 1.000000
336.817688 -536.005310 0.123160 1.000000
340.184296 -540.360168 0.000002 0.520302
342.570953 -543.447449 0.000001 0.558526
344.094635 -545.418457 0.000001 0.531685
345.153625 -546.788330 0.000000 0.541299
345.933868 -547.797607 0.000000 0.527382
336.773682 -535.683899 7.804122 1.000000
336.773682 -535.683899 7.004534 1.000000
336.773682 -535.683899 6.216170 1.000000
336.773682 -535.683899 5.437146 1.000000
336.773682 -535.683899 4.665649 1.000000
336.773682 -535.683899 3.899943 1.000000
336.773682 -535.683899 3.138335 1.000000
336.773682 -535.683899 2.379174 1.000000
336.773682 -535.683899 1.620826 1.000000
336.773682 -535.683899 0.861664 1.000000
336.773682 -535.683899 0.100057 1.000000
340.280579 -540.286316 0.000001 0.544335
342.645599 -543.390137 0.000001 0.559625
344.155487 -545.371704 0.000000 0.533349
345.204926 -546.748962 0.000000 0.549233
345.978088 -547.763672 0.000000 0.529076
336.728577 -535.354431 7.876747 1.000000
336.728577 -535.354431 7.067154 1.000000
336.728577 -535.354431 6.268927 1.000000
336.728577 -535.354431 5.480155 1.000000
336.728577 -535.354431 4.699005 1.000000
336.728577 -535.354431 3.923716 1.000000
336.728577 -535.354492 3.152579 1.000000
336.728577 -535.354431 2.383919 1.000000
336.728577 -535.354431 1.616081 1.000000
336.728577 -535.354492 0.847420 1.000000
336.728577 -535.354431 0.076283 1.000000
340.377350 -540.213074 0.000001 0.529519
342.720673 -543.333374 0.000001 0.549813
344.216705 -545.325439 0.000001 0.535653
345.256470 -546.709961 0.000000 0.489052
346.022552 -547.730042 0.000001 0.528069
336.682343 -535.016663 7.951505 1.000000
336.682343 -535.016663 7.131613 1.000000
336.682343 -535.016663 6.323233 1.000000
336.682343 -535.016663 5.524425 1.000000
336.682343 -535.016663 4.733339 1.000000
336.682343 -535.016663 3.948188 1.000000
336.682343 -535.016663 3.167241 1.000000
336.682343 -535.016663 2.388802 1.000000
336.682343 -535.016663 1.611197 1.000000
336.682343 -535.016663 0.832758 1.000000
336.682343 -535.016663 0.051811 1.000000
340.474670 -540.140503 0.000001 0.531563
342.796143 -543.277100 0.000001 0.513420
344.278198 -545.279541 0.000000 0.537026
345.308319 -546.671326 0.000000 0.544045
346.067230 -547.696716 0.000000 0.544121
336.634918 -534.670166 8.028490 1.000000
336.634918 -534.670166 7.197991 1.000000
336.634918 -534.670166 6.379153 1.000000
336.634918 -534.670166 5.570014 1.000000
336.634918 -534.670166 4.768695 1.000000
336.634918 -534.670166 3.973388 1.000000
336.634918 -534.670166 3.182339 1.000000
336.634918 -534.670166 2.393832 1.000000
336.634918 -534.670166 1.606168 1.000000
336.634918 -534.670166 0.817660 1.000000
336.634918 -534.670166 0.026611 1.000000
340.572479 -540.068665 0.000001 0.543725
342.872009 -543.221375 0.000001 0.560006
344.340057 -545.234131 0.000001 0.530770
345.360413 -546.633057 0.000000 0.528145
346.112152 -547.663696 0.000000 0.580545
336.586243 -534.314514 8.107793 1.000000
336.586212 -534.314514 7.266370 1.000000
336.586243 -534.314514 6.436761 1.000000
336.586243 -534.314514 5.616977 1.000000
336.586212 -534.314514 4.805116 1.000000
336.586243 -534.314514 3.999347 1.000000
336.586243 -534.314514 3.197893 1.000000
336.586243 -534.314514 2.399013 1.000000
336.586243 -534.314514 1.600988 1.000000
336.586243 -534.314514 0.802107 1.000000
336.581604 -534.308105 0.000002 0.541207
340.670776 -539.997498 0.000001 0.550591
342.948242 -543.166199 0.000001 0.560159
344.402222 -545.189148 0.000000 0.555962
345.412781 -546.595154 0.000000 0.522820
346.157288 -547.631042 -0.000000 0.545480
336.536255 -533.949402 8.189516 1.000000
336.536255 -533.949402 7.336834 1.000000
336.536255 -533.949402 6.496125 1.000000
336.536255 -533.949402 5.665372 1.000000
336.536255 -533.949402 4.842649 1.000000
336.536255 -533.949402 4.026098 1.000000
336.536255 -533.949402 3.213921 1.000000
336.536255 -533.949402 2.404351 1.000000
336.536255 -533.949402 1.595649 1.000000
336.536255 -533.949402 0.786079 1.000000
336.720215 -534.209167 0.000002 0.533165
340.769592 -539.927002 0.000001 0.549828
343.024872 -543.111511 0.000001 0.532372
344.464661 -545.144531 0.000000 0.523629
345.465393 -546.557617 0.000001 0.487526
346.202667 -547.598633 -0.000000 0.509133
336.484894 -533.574402 8.273764 1.000000
336.484894 -533.574402 7.409476 1.000000
336.484894 -533.574402 6.557323 1.000000
336.484894 -533.574402 5.715263 1.000000
336.484894 -533.574402 4.881341 1.000000
336.484894 -533.574341 4.053677 1.000000
336.484894 -533.574402 3.230444 1.000000
336.484894 -533.574402 2.409855 1.000000
336.484894 -533.574402 1.590145 1.000000
336.484894 -533.574402 0.769556 1.000000
336.859528 -534.111267 0.000002 0.533516
340.868866 -539.857178 0.000001 0.540368
343.101868 -543.057373 0.000001 0.541909
344.527466 -545.100403 0.000001 0.541253
345.518280 -546.520386 0.000000 0.529244
346.248291 -547.566589 0.000000 0.532326
336.432159 -533.188965 8.360653 1.000000
336.432159 -533.188965 7.484396 1.000000
