# This PCD file was generated using the MATLABÂ® pcwrite function
# from Computer Vision ToolboxÂ®.
# .PCD v.7 - Point Cloud Data file format
VERSION .7
FIELDS x y z intensity
SIZE 4 4 4 4
TYPE F F F F
COUNT 1 1 1 1
WIDTH 1192
HEIGHT 1
VIEWPOINT 0 0 0 1 0 0 0
POINTS 1192
DATA ascii
-82.413605 -47.993584 3.265241 1.000000
-82.413605 -47.993584 3.090939 1.000000
-82.413605 -47.993584 2.919084 1.000000
-82.413605 -47.993584 2.749264 1.000000
-82.413605 -47.993584 2.581085 1.000000
-82.413605 -47.993584 2.414169 1.000000
-82.413605 -47.993584 2.248146 1.000000
-82.413605 -47.993584 2.082656 1.000000
-82.413605 -47.993584 1.917344 1.000000
-82.413605 -47.993584 1.751854 1.000000
-82.413605 -47.993584 1.585831 1.000000
-82.413605 -47.993584 1.418915 1.000000
-82.413605 -47.993584 1.250736 1.000000
-82.413605 -47.993584 1.080916 1.000000
-82.413605 -47.993584 0.909061 1.000000
-82.413605 -47.993584 0.734759 1.000000
-82.376419 -47.999596 3.261895 1.000000
-82.376419 -47.999599 3.088054 1.000000
-82.376419 -47.999596 2.916653 1.000000
-82.376419 -47.999599 2.747282 1.000000
-82.376419 -47.999596 2.579549 1.000000
-82.376419 -47.999599 2.413074 1.000000
-82.376419 -47.999596 2.247489 1.000000
-82.376419 -47.999596 2.082438 1.000000
-82.376419 -47.999596 1.917562 1.000000
-82.376419 -47.999596 1.752510 1.000000
-82.376419 -47.999596 1.586926 1.000000
-82.376419 -47.999596 1.420451 1.000000
-82.376419 -47.999599 1.252718 1.000000
-82.376419 -47.999596 1.083347 1.000000
-82.376419 -47.999596 0.911946 1.000000
-82.376419 -47.999596 0.738105 1.000000
-82.339432 -48.005581 3.258628 1.000000
-82.339432 -48.005581 3.085237 1.000000
-82.339432 -48.005581 2.914280 1.000000
-82.339432 -48.005581 2.745347 1.000000
-82.339432 -48.005581 2.578048 1.000000
-82.339432 -48.005581 2.412004 1.000000
-82.339432 -48.005581 2.246849 1.000000
-82.339432 -48.005581 2.082224 1.000000
-82.339432 -48.005581 1.917776 1.000000
-82.339432 -48.005581 1.753151 1.000000
-82.339432 -48.005581 1.587996 1.000000
-82.339432 -48.005581 1.421952 1.000000
-82.339432 -48.005581 1.254653 1.000000
-82.339432 -48.005581 1.085720 1.000000
-82.339432 -48.005581 0.914763 1.000000
-82.339432 -48.005581 0.741372 1.000000
-82.302635 -48.011536 3.255439 1.000000
-82.302635 -48.011536 3.082486 1.000000
-82.302635 -48.011536 2.911963 1.000000
-82.302635 -48.011536 2.743459 1.000000
-82.302635 -48.011536 2.576583 1.000000
-82.302635 -48.011536 2.410960 1.000000
-82.302635 -48.011536 2.246223 1.000000
-82.302635 -48.011536 2.082016 1.000000
-82.302635 -48.011536 1.917984 1.000000
-82.302635 -48.011536 1.753777 1.000000
-82.302635 -48.011536 1.589040 1.000000
-82.302635 -48.011536 1.423417 1.000000
-82.302635 -48.011536 1.256541 1.000000
-82.302635 -48.011536 1.088037 1.000000
-82.302635 -48.011536 0.917513 1.000000
-82.302635 -48.011536 0.744561 1.000000
-82.266022 -48.017456 3.252326 1.000000
-82.266022 -48.017456 3.079803 1.000000
-82.266022 -48.017456 2.909702 1.000000
-82.266022 -48.017456 2.741615 1.000000
-82.266022 -48.017456 2.575154 1.000000
-82.266022 -48.017456 2.409941 1.000000
-82.266022 -48.017456 2.245613 1.000000
-82.266022 -48.017456 2.081812 1.000000
-82.266022 -48.017456 1.918187 1.000000
-82.266022 -48.017456 1.754387 1.000000
-82.266022 -48.017456 1.590059 1.000000
-82.266022 -48.017456 1.424846 1.000000
-82.266022 -48.017456 1.258385 1.000000
-82.266022 -48.017456 1.090298 1.000000
-82.266022 -48.017456 0.920197 1.000000
-82.266022 -48.017456 0.747674 1.000000
-82.229584 -48.023350 3.249290 1.000000
-82.229584 -48.023350 3.077185 1.000000
-82.229584 -48.023350 2.907496 1.000000
-82.229584 -48.023350 2.739818 1.000000
-82.229584 -48.023350 2.573759 1.000000
-82.229584 -48.023350 2.408947 1.000000
-82.229584 -48.023350 2.245018 1.000000
-82.229584 -48.023350 2.081614 1.000000
-82.229584 -48.023350 1.918386 1.000000
-82.229584 -48.023350 1.754982 1.000000
-82.229584 -48.023350 1.591053 1.000000
-82.229584 -48.023350 1.426241 1.000000
-82.229584 -48.023350 1.260182 1.000000
-82.229584 -48.023350 1.092504 1.000000
-82.229584 -48.023350 0.922815 1.000000
-82.229584 -48.023350 0.750710 1.000000
-82.193329 -48.029217 3.246329 1.000000
-82.193329 -48.029217 3.074631 1.000000
-82.193329 -48.029217 2.905345 1.000000
-82.193329 -48.029217 2.738064 1.000000
-82.193329 -48.029217 2.572399 1.000000
-82.193329 -48.029217 2.407978 1.000000
-82.193329 -48.029217 2.244437 1.000000
-82.193329 -48.029217 2.081421 1.000000
-82.193329 -48.029217 1.918579 1.000000
-82.193329 -48.029217 1.755563 1.000000
-82.193329 -48.029217 1.592022 1.000000
-82.193329 -48.029217 1.427601 1.000000
-82.193329 -48.029217 1.261936 1.000000
-82.193329 -48.029217 1.094655 1.000000
-82.193329 -48.029217 0.925368 1.000000
-82.193329 -48.029217 0.753671 1.000000
-82.157234 -48.035053 3.243443 1.000000
-82.157234 -48.035057 3.072143 1.000000
-82.157234 -48.035053 2.903249 1.000000
-82.157234 -48.035053 2.736355 1.000000
-82.157234 -48.035053 2.571074 1.000000
-82.157234 -48.035057 2.407033 1.000000
-82.157234 -48.035057 2.243870 1.000000
-82.157234 -48.035053 2.081232 1.000000
-82.157234 -48.035053 1.918768 1.000000
-82.157234 -48.035057 1.756130 1.000000
-82.157234 -48.035057 1.592967 1.000000
-82.157234 -48.035053 1.428926 1.000000
-82.157234 -48.035053 1.263645 1.000000
-82.157234 -48.035053 1.096751 1.000000
-82.157234 -48.035053 0.927857 1.000000
-82.157234 -48.035053 0.756558 1.000000
-82.121307 -48.040867 3.240629 1.000000
-82.121307 -48.040867 3.069717 1.000000
-82.121307 -48.040867 2.901205 1.000000
-82.121307 -48.040867 2.734689 1.000000
-82.121307 -48.040867 2.569782 1.000000
-82.121307 -48.040867 2.406112 1.000000
-82.121307 -48.040867 2.243319 1.000000
-82.121307 -48.040867 2.081048 1.000000
-82.121307 -48.040867 1.918952 1.000000
-82.121307 -48.040867 1.756681 1.000000
-82.121307 -48.040867 1.593888 1.000000
-82.121307 -48.040867 1.430218 1.000000
-82.121307 -48.040867 1.265311 1.000000
-82.121307 -48.040867 1.098795 1.000000
-82.121307 -48.040867 0.930282 1.000000
-82.121307 -48.040867 0.759370 1.000000
-82.085548 -48.046654 3.237889 1.000000
-82.085548 -48.046654 3.067355 1.000000
-82.085548 -48.046654 2.899215 1.000000
-82.085548 -48.046654 2.733066 1.000000
-82.085548 -48.046650 2.568523 1.000000
-82.085548 -48.046654 2.405215 1.000000
-82.085548 -48.046654 2.242781 1.000000
-82.085548 -48.046654 2.080869 1.000000
-82.085548 -48.046654 1.919131 1.000000
-82.085548 -48.046654 1.757218 1.000000
-82.085548 -48.046654 1.594784 1.000000
-82.085548 -48.046650 1.431476 1.000000
-82.085548 -48.046654 1.266934 1.000000
-82.085548 -48.046654 1.100785 1.000000
-82.085548 -48.046654 0.932645 1.000000
-82.085548 -48.046654 0.762110 1.000000
-82.049934 -48.052414 3.235222 1.000000
-82.049934 -48.052414 3.065055 1.000000
-82.049934 -48.052414 2.897277 1.000000
-82.049934 -48.052414 2.731486 1.000000
-82.049934 -48.052414 2.567298 1.000000
-82.049934 -48.052414 2.404342 1.000000
-82.049934 -48.052414 2.242258 1.000000
-82.049934 -48.052414 2.080695 1.000000
-82.049934 -48.052414 1.919305 1.000000
-82.049934 -48.052414 1.757742 1.000000
-82.049934 -48.052414 1.595658 1.000000
-82.049934 -48.052414 1.432702 1.000000
-82.049934 -48.052414 1.268514 1.000000
-82.049934 -48.052414 1.102723 1.000000
-82.049934 -48.052414 0.934945 1.000000
-82.049934 -48.052414 0.764778 1.000000
-82.014481 -48.058147 3.232626 1.000000
-82.014481 -48.058147 3.062816 1.000000
-82.014481 -48.058147 2.895391 1.000000
-82.014481 -48.058147 2.729949 1.000000
-82.014481 -48.058147 2.566106 1.000000
-82.014481 -48.058147 2.403492 1.000000
-82.014481 -48.058147 2.241749 1.000000
-82.014481 -48.058147 2.080525 1.000000
-82.014481 -48.058147 1.919474 1.000000
-82.014481 -48.058147 1.758251 1.000000
-82.014481 -48.058147 1.596508 1.000000
-82.014481 -48.058147 1.433894 1.000000
-82.014481 -48.058147 1.270051 1.000000
-82.014481 -48.058147 1.104609 1.000000
-82.014481 -48.058147 0.937184 1.000000
-82.014481 -48.058147 0.767374 1.000000
-81.979164 -48.063862 3.230099 1.000000
-81.979164 -48.063862 3.060638 1.000000
-81.979164 -48.063862 2.893556 1.000000
-81.979164 -48.063862 2.728453 1.000000
-81.979164 -48.063862 2.564946 1.000000
-81.979164 -48.063862 2.402665 1.000000
-81.979164 -48.063862 2.241254 1.000000
-81.979164 -48.063862 2.080360 1.000000
-81.979164 -48.063862 1.919639 1.000000
-81.979164 -48.063862 1.758746 1.000000
-81.979164 -48.063862 1.597335 1.000000
-81.979164 -48.063862 1.435054 1.000000
-81.979164 -48.063862 1.271547 1.000000
-81.979164 -48.063862 1.106444 1.000000
-81.979164 -48.063862 0.939362 1.000000
-81.979164 -48.063862 0.769901 1.000000
-81.944000 -48.069550 3.227644 1.000000
-81.944000 -48.069550 3.058521 1.000000
-81.944000 -48.069550 2.891772 1.000000
-81.944000 -48.069550 2.726999 1.000000
-81.944000 -48.069550 2.563818 1.000000
-81.944000 -48.069550 2.401862 1.000000
-81.944000 -48.069550 2.240772 1.000000
-81.944000 -48.069550 2.080200 1.000000
-81.944000 -48.069550 1.919800 1.000000
-81.944000 -48.069550 1.759228 1.000000
-81.944000 -48.069550 1.598138 1.000000
-81.944000 -48.069550 1.436182 1.000000
-81.944000 -48.069550 1.273001 1.000000
-81.944000 -48.069550 1.108227 1.000000
-81.944000 -48.069550 0.941479 1.000000
-81.944000 -48.069550 0.772356 1.000000
-81.908974 -48.075214 3.225258 1.000000
-81.908974 -48.075218 3.056463 1.000000
-81.908974 -48.075218 2.890039 1.000000
-81.908974 -48.075218 2.725586 1.000000
-81.908974 -48.075218 2.562722 1.000000
-81.908974 -48.075214 2.401080 1.000000
-81.908974 -48.075214 2.240304 1.000000
-81.908974 -48.075214 2.080044 1.000000
-81.908974 -48.075214 1.919956 1.000000
-81.908974 -48.075214 1.759696 1.000000
-81.908974 -48.075214 1.598919 1.000000
-81.908974 -48.075218 1.437278 1.000000
-81.908974 -48.075214 1.274414 1.000000
-81.908974 -48.075214 1.109961 1.000000
-81.908974 -48.075218 0.943537 1.000000
-81.908974 -48.075214 0.774742 1.000000
-81.874077 -48.080860 3.222940 1.000000
-81.874077 -48.080860 3.054465 1.000000
-81.874077 -48.080860 2.888356 1.000000
-81.874077 -48.080864 2.724213 1.000000
-81.874077 -48.080860 2.561658 1.000000
-81.874077 -48.080860 2.400322 1.000000
-81.874077 -48.080864 2.239850 1.000000
-81.874077 -48.080864 2.079893 1.000000
-81.874077 -48.080864 1.920107 1.000000
-81.874077 -48.080864 1.760150 1.000000
-81.874077 -48.080860 1.599678 1.000000
-81.874077 -48.080860 1.438342 1.000000
-81.874077 -48.080860 1.275787 1.000000
-81.874077 -48.080860 1.111644 1.000000
-81.874077 -48.080860 0.945535 1.000000
-81.874077 -48.080864 0.777060 1.000000
-81.839310 -48.086487 3.220691 1.000000
-81.839310 -48.086487 3.052526 1.000000
-81.839310 -48.086487 2.886722 1.000000
-81.839310 -48.086487 2.722882 1.000000
-81.839310 -48.086487 2.560625 1.000000
-81.839310 -48.086487 2.399585 1.000000
-81.839310 -48.086487 2.239408 1.000000
-81.839310 -48.086487 2.079746 1.000000
-81.839310 -48.086487 1.920254 1.000000
-81.839310 -48.086487 1.760592 1.000000
-81.839310 -48.086487 1.600415 1.000000
-81.839310 -48.086487 1.439375 1.000000
-81.839310 -48.086487 1.277118 1.000000
-81.839310 -48.086487 1.113278 1.000000
-81.839310 -48.086487 0.947474 1.000000
-81.839310 -48.086487 0.779309 1.000000
-81.804672 -48.092091 3.218509 1.000000
-81.804672 -48.092087 3.050644 1.000000
-81.804672 -48.092091 2.885137 1.000000
-81.804672 -48.092091 2.721589 1.000000
-81.804672 -48.092087 2.559623 1.000000
-81.804672 -48.092091 2.398871 1.000000
-81.804672 -48.092087 2.238981 1.000000
-81.804672 -48.092087 2.079603 1.000000
-81.804672 -48.092087 1.920397 1.000000
-81.804672 -48.092087 1.761019 1.000000
-81.804672 -48.092091 1.601129 1.000000
-81.804672 -48.092087 1.440377 1.000000
-81.804672 -48.092091 1.278411 1.000000
-81.804672 -48.092087 1.114863 1.000000
-81.804672 -48.092087 0.949355 1.000000
-81.804672 -48.092087 0.781491 1.000000
-81.770149 -48.097672 3.216394 1.000000
-81.770149 -48.097672 3.048821 1.000000
-81.770149 -48.097672 2.883600 1.000000
-81.770149 -48.097672 2.720337 1.000000
-81.770149 -48.097672 2.558651 1.000000
-81.770149 -48.097672 2.398179 1.000000
-81.770149 -48.097672 2.238566 1.000000
-81.770149 -48.097672 2.079465 1.000000
-81.770149 -48.097672 1.920535 1.000000
-81.770149 -48.097672 1.761434 1.000000
-81.770149 -48.097672 1.601821 1.000000
-81.770149 -48.097672 1.441349 1.000000
-81.770149 -48.097672 1.279663 1.000000
-81.770149 -48.097672 1.116399 1.000000
-81.770149 -48.097672 0.951179 1.000000
-81.770149 -48.097672 0.783606 1.000000
-81.735756 -48.103237 3.214346 1.000000
-81.735756 -48.103237 3.047055 1.000000
-81.735756 -48.103237 2.882113 1.000000
-81.735756 -48.103237 2.719124 1.000000
-81.735756 -48.103237 2.557711 1.000000
-81.735756 -48.103237 2.397508 1.000000
-81.735756 -48.103237 2.238164 1.000000
-81.735756 -48.103237 2.079331 1.000000
-81.735756 -48.103237 1.920669 1.000000
-81.735756 -48.103237 1.761836 1.000000
-81.735756 -48.103237 1.602491 1.000000
-81.735756 -48.103237 1.442289 1.000000
-81.735756 -48.103237 1.280876 1.000000
-81.735756 -48.103237 1.117887 1.000000
-81.735756 -48.103237 0.952945 1.000000
-81.735756 -48.103237 0.785654 1.000000
-81.701469 -48.108784 3.212363 1.000000
-81.701469 -48.108784 3.045345 1.000000
-81.701469 -48.108784 2.880672 1.000000
-81.701469 -48.108784 2.717950 1.000000
-81.701469 -48.108784 2.556800 1.000000
-81.701469 -48.108784 2.396859 1.000000
-81.701469 -48.108784 2.237775 1.000000
-81.701469 -48.108784 2.079202 1.000000
-81.701469 -48.108784 1.920798 1.000000
-81.701469 -48.108784 1.762225 1.000000
-81.701469 -48.108784 1.603140 1.000000
-81.701469 -48.108784 1.443200 1.000000
-81.701469 -48.108784 1.282050 1.000000
-81.701469 -48.108784 1.119328 1.000000
-81.701469 -48.108784 0.954655 1.000000
-81.701469 -48.108784 0.787637 1.000000
-81.667290 -48.114311 3.210446 1.000000
-81.667290 -48.114311 3.043692 1.000000
-81.667290 -48.114311 2.879280 1.000000
-81.667290 -48.114311 2.716815 1.000000
-81.667290 -48.114311 2.555919 1.000000
-81.667290 -48.114311 2.396232 1.000000
-81.667290 -48.114311 2.237399 1.000000
-81.667290 -48.114311 2.079077 1.000000
-81.667290 -48.114311 1.920923 1.000000
-81.667290 -48.114311 1.762601 1.000000
-81.667290 -48.114311 1.603768 1.000000
-81.667290 -48.114311 1.444081 1.000000
-81.667290 -48.114311 1.283185 1.000000
-81.667290 -48.114311 1.120720 1.000000
-81.667290 -48.114311 0.956308 1.000000
-81.667290 -48.114311 0.789554 1.000000
-81.633224 -48.119823 3.208594 1.000000
-81.633224 -48.119823 3.042095 1.000000
-81.633224 -48.119823 2.877934 1.000000
-81.633224 -48.119823 2.715717 1.000000
-81.633224 -48.119823 2.555068 1.000000
-81.633224 -48.119823 2.395625 1.000000
-81.633224 -48.119823 2.237036 1.000000
-81.633224 -48.119823 2.078955 1.000000
-81.633224 -48.119823 1.921044 1.000000
-81.633224 -48.119823 1.762964 1.000000
-81.633224 -48.119823 1.604374 1.000000
-81.633224 -48.119823 1.444931 1.000000
-81.633224 -48.119823 1.284282 1.000000
-81.633224 -48.119823 1.122066 1.000000
-81.633224 -48.119823 0.957905 1.000000
-81.633224 -48.119823 0.791406 1.000000
-81.599258 -48.125317 3.206806 1.000000
-81.599258 -48.125317 3.040553 1.000000
-81.599258 -48.125317 2.876636 1.000000
-81.599258 -48.125317 2.714659 1.000000
-81.599258 -48.125317 2.554248 1.000000
-81.599258 -48.125317 2.395040 1.000000
-81.599258 -48.125317 2.236685 1.000000
-81.599258 -48.125320 2.078839 1.000000
-81.599258 -48.125320 1.921161 1.000000
-81.599258 -48.125317 1.763315 1.000000
-81.599258 -48.125317 1.604960 1.000000
-81.599258 -48.125317 1.445752 1.000000
-81.599258 -48.125317 1.285341 1.000000
-81.599258 -48.125317 1.123364 1.000000
-81.599258 -48.125317 0.959447 1.000000
-81.599258 -48.125317 0.793194 1.000000
-81.565392 -48.130798 3.205082 1.000000
-81.565392 -48.130798 3.039067 1.000000
-81.565392 -48.130798 2.875383 1.000000
-81.565392 -48.130798 2.713638 1.000000
-81.565392 -48.130798 2.553456 1.000000
-81.565392 -48.130798 2.394476 1.000000
-81.565392 -48.130798 2.236347 1.000000
-81.565392 -48.130798 2.078726 1.000000
-81.565392 -48.130798 1.921274 1.000000
-81.565392 -48.130798 1.763653 1.000000
-81.565392 -48.130798 1.605524 1.000000
-81.565392 -48.130798 1.446544 1.000000
-81.565392 -48.130798 1.286362 1.000000
-81.565392 -48.130798 1.124617 1.000000
-81.565392 -48.130798 0.960933 1.000000
-81.565392 -48.130798 0.794918 1.000000
-81.531616 -48.136261 3.203421 1.000000
-81.531616 -48.136261 3.037635 1.000000
-81.531616 -48.136261 2.874177 1.000000
-81.531616 -48.136261 2.712655 1.000000
-81.531616 -48.136261 2.552693 1.000000
-81.531616 -48.136261 2.393932 1.000000
-81.531616 -48.136261 2.236021 1.000000
-81.531616 -48.136261 2.078618 1.000000
-81.531616 -48.136261 1.921382 1.000000
-81.531616 -48.136261 1.763979 1.000000
-81.531616 -48.136261 1.606068 1.000000
-81.531616 -48.136261 1.447307 1.000000
-81.531616 -48.136261 1.287345 1.000000
-81.531616 -48.136261 1.125823 1.000000
-81.531616 -48.136261 0.962365 1.000000
-81.531616 -48.136261 0.796579 1.000000
-81.497932 -48.141708 3.201824 1.000000
-81.497932 -48.141708 3.036258 1.000000
-81.497932 -48.141708 2.873016 1.000000
-81.497932 -48.141708 2.711708 1.000000
-81.497932 -48.141708 2.551960 1.000000
-81.497932 -48.141708 2.393409 1.000000
-81.497932 -48.141708 2.235708 1.000000
-81.497932 -48.141708 2.078513 1.000000
-81.497932 -48.141708 1.921487 1.000000
-81.497932 -48.141708 1.764292 1.000000
-81.497932 -48.141708 1.606591 1.000000
-81.497932 -48.141708 1.448040 1.000000
-81.497932 -48.141708 1.288292 1.000000
-81.497932 -48.141708 1.126983 1.000000
-81.497932 -48.141708 0.963742 1.000000
-81.497932 -48.141708 0.798176 1.000000
-81.464340 -48.147144 3.200289 1.000000
-81.464340 -48.147144 3.034935 1.000000
-81.464340 -48.147144 2.871902 1.000000
-81.464340 -48.147144 2.710800 1.000000
-81.464340 -48.147144 2.551255 1.000000
-81.464340 -48.147144 2.392907 1.000000
-81.464340 -48.147144 2.235407 1.000000
-81.464340 -48.147144 2.078413 1.000000
-81.464340 -48.147144 1.921587 1.000000
-81.464340 -48.147144 1.764593 1.000000
-81.464340 -48.147144 1.607093 1.000000
-81.464340 -48.147144 1.448745 1.000000
-81.464340 -48.147141 1.289200 1.000000
-81.464340 -48.147144 1.128098 1.000000
-81.464340 -48.147144 0.965065 1.000000
-81.464340 -48.147144 0.799711 1.000000
-81.430832 -48.152565 3.198816 1.000000
-81.430832 -48.152565 3.033665 1.000000
-81.430832 -48.152565 2.870832 1.000000
-81.430832 -48.152565 2.709928 1.000000
-81.430832 -48.152565 2.550578 1.000000
-81.430832 -48.152565 2.392425 1.000000
-81.430832 -48.152565 2.235118 1.000000
-81.430832 -48.152565 2.078317 1.000000
-81.430832 -48.152565 1.921683 1.000000
-81.430832 -48.152565 1.764882 1.000000
-81.430832 -48.152565 1.607575 1.000000
-81.430832 -48.152565 1.449422 1.000000
-81.430832 -48.152565 1.290072 1.000000
-81.430832 -48.152565 1.129168 1.000000
-81.430832 -48.152565 0.966335 1.000000
-81.430832 -48.152565 0.801184 1.000000
-81.397400 -48.157974 3.197406 1.000000
-81.397400 -48.157974 3.032448 1.000000
-81.397400 -48.157970 2.869807 1.000000
-81.397400 -48.157974 2.709092 1.000000
-81.397400 -48.157974 2.549931 1.000000
-81.397400 -48.157974 2.391963 1.000000
-81.397400 -48.157974 2.234842 1.000000
-81.397400 -48.157974 2.078225 1.000000
-81.397400 -48.157974 1.921775 1.000000
-81.397400 -48.157974 1.765158 1.000000
-81.397400 -48.157970 1.608037 1.000000
-81.397400 -48.157970 1.450069 1.000000
-81.397400 -48.157970 1.290908 1.000000
-81.397400 -48.157970 1.130193 1.000000
-81.397400 -48.157970 0.967551 1.000000
-81.397400 -48.157974 0.802595 1.000000
-81.364044 -48.163368 3.196056 1.000000
-81.364044 -48.163368 3.031285 1.000000
-81.364044 -48.163368 2.868827 1.000000
-81.364044 -48.163368 2.708293 1.000000
-81.364044 -48.163368 2.549311 1.000000
-81.364044 -48.163368 2.391521 1.000000
-81.364044 -48.163368 2.234577 1.000000
-81.364044 -48.163368 2.078137 1.000000
-81.364044 -48.163368 1.921864 1.000000
-81.364044 -48.163368 1.765423 1.000000
-81.364044 -48.163368 1.608478 1.000000
-81.364044 -48.163368 1.450689 1.000000
-81.364044 -48.163368 1.291707 1.000000
-81.364044 -48.163368 1.131173 1.000000
-81.364044 -48.163368 0.968715 1.000000
-81.364044 -48.163368 0.803944 1.000000
-81.330772 -48.168751 3.194769 1.000000
-81.330772 -48.168751 3.030175 1.000000
-81.330772 -48.168751 2.867892 1.000000
-81.330772 -48.168751 2.707530 1.000000
-81.330772 -48.168751 2.548719 1.000000
-81.330772 -48.168751 2.391100 1.000000
-81.330772 -48.168751 2.234324 1.000000
-81.330772 -48.168751 2.078052 1.000000
-81.330772 -48.168751 1.921948 1.000000
-81.330772 -48.168751 1.765676 1.000000
-81.330772 -48.168751 1.608900 1.000000
-81.330772 -48.168751 1.451281 1.000000
-81.330772 -48.168751 1.292469 1.000000
-81.330772 -48.168751 1.132108 1.000000
-81.330772 -48.168751 0.969825 1.000000
-81.330772 -48.168751 0.805231 1.000000
-81.297562 -48.174122 3.193542 1.000000
-81.297562 -48.174122 3.029117 1.000000
-81.297562 -48.174122 2.867000 1.000000
-81.297562 -48.174122 2.706804 1.000000
-81.297562 -48.174126 2.548156 1.000000
-81.297562 -48.174122 2.390698 1.000000
-81.297562 -48.174122 2.234084 1.000000
-81.297562 -48.174122 2.077972 1.000000
-81.297562 -48.174122 1.922028 1.000000
-81.297562 -48.174122 1.765916 1.000000
-81.297562 -48.174122 1.609302 1.000000
-81.297562 -48.174122 1.451844 1.000000
-81.297562 -48.174122 1.293196 1.000000
-81.297562 -48.174122 1.133000 1.000000
-81.297562 -48.174122 0.970883 1.000000
-81.297562 -48.174122 0.806458 1.000000
-81.264420 -48.179485 3.192375 1.000000
-81.264420 -48.179485 3.028111 1.000000
-81.264420 -48.179485 2.866153 1.000000
-81.264420 -48.179485 2.706113 1.000000
-81.264420 -48.179485 2.547620 1.000000
-81.264420 -48.179485 2.390316 1.000000
-81.264420 -48.179485 2.233855 1.000000
-81.264420 -48.179485 2.077896 1.000000
-81.264420 -48.179485 1.922104 1.000000
-81.264420 -48.179485 1.766145 1.000000
-81.264420 -48.179485 1.609683 1.000000
-81.264420 -48.179485 1.452380 1.000000
-81.264420 -48.179482 1.293887 1.000000
-81.264420 -48.179485 1.133847 1.000000
-81.264420 -48.179482 0.971889 1.000000
-81.264420 -48.179485 0.807625 1.000000
-81.231339 -48.184837 3.191269 1.000000
-81.231339 -48.184834 3.027157 1.000000
-81.231339 -48.184837 2.865349 1.000000
-81.231339 -48.184837 2.705458 1.000000
-81.231339 -48.184837 2.547112 1.000000
-81.231339 -48.184834 2.389954 1.000000
-81.231339 -48.184837 2.233638 1.000000
-81.231339 -48.184837 2.077824 1.000000
-81.231339 -48.184837 1.922176 1.000000
-81.231339 -48.184837 1.766362 1.000000
-81.231339 -48.184834 1.610045 1.000000
-81.231339 -48.184837 1.452888 1.000000
-81.231339 -48.184837 1.294542 1.000000
-81.231339 -48.184837 1.134650 1.000000
-81.231339 -48.184834 0.972843 1.000000
-81.231339 -48.184834 0.808731 1.000000
-81.198318 -48.190178 3.190223 1.000000
-81.198318 -48.190178 3.026255 1.000000
-81.198318 -48.190178 2.864589 1.000000
-81.198318 -48.190178 2.704839 1.000000
-81.198318 -48.190178 2.546632 1.000000
-81.198318 -48.190178 2.389612 1.000000
-81.198318 -48.190178 2.233433 1.000000
-81.198318 -48.190178 2.077755 1.000000
-81.198318 -48.190178 1.922245 1.000000
-81.198318 -48.190178 1.766567 1.000000
-81.198318 -48.190178 1.610388 1.000000
-81.198318 -48.190178 1.453368 1.000000
-81.198318 -48.190178 1.295161 1.000000
-81.198318 -48.190178 1.135411 1.000000
-81.198318 -48.190178 0.973745 1.000000
-81.198318 -48.190178 0.809777 1.000000
-81.165352 -48.195511 3.189236 1.000000
-81.165352 -48.195511 3.025404 1.000000
-81.165352 -48.195511 2.863873 1.000000
-81.165352 -48.195511 2.704255 1.000000
-81.165352 -48.195511 2.546179 1.000000
-81.165352 -48.195511 2.389289 1.000000
-81.165352 -48.195511 2.233239 1.000000
-81.165352 -48.195511 2.077691 1.000000
-81.165352 -48.195511 1.922309 1.000000
-81.165352 -48.195511 1.766760 1.000000
-81.165352 -48.195511 1.610711 1.000000
-81.165352 -48.195511 1.453821 1.000000
-81.165352 -48.195511 1.295745 1.000000
-81.165352 -48.195511 1.136127 1.000000
-81.165352 -48.195511 0.974596 1.000000
-81.165352 -48.195511 0.810763 1.000000
-81.132446 -48.200832 3.188309 1.000000
-81.132446 -48.200832 3.024606 1.000000
-81.132446 -48.200832 2.863200 1.000000
-81.132446 -48.200832 2.703706 1.000000
-81.132446 -48.200832 2.545753 1.000000
-81.132446 -48.200832 2.388986 1.000000
-81.132446 -48.200836 2.233058 1.000000
-81.132446 -48.200832 2.077630 1.000000
-81.132446 -48.200832 1.922370 1.000000
-81.132446 -48.200836 1.766942 1.000000
-81.132446 -48.200832 1.611014 1.000000
-81.132446 -48.200832 1.454247 1.000000
-81.132446 -48.200832 1.296294 1.000000
-81.132446 -48.200832 1.136800 1.000000
-81.132446 -48.200832 0.975394 1.000000
-81.132446 -48.200832 0.811690 1.000000
-81.099586 -48.206150 3.187442 1.000000
-81.099586 -48.206150 3.023857 1.000000
-81.099586 -48.206150 2.862569 1.000000
-81.099586 -48.206150 2.703192 1.000000
-81.099586 -48.206150 2.545354 1.000000
-81.099586 -48.206150 2.388701 1.000000
-81.099586 -48.206150 2.232888 1.000000
-81.099586 -48.206150 2.077574 1.000000
-81.099586 -48.206150 1.922426 1.000000
-81.099586 -48.206150 1.767112 1.000000
-81.099586 -48.206150 1.611298 1.000000
-81.099586 -48.206150 1.454645 1.000000
-81.099586 -48.206150 1.296808 1.000000
-81.099586 -48.206150 1.137430 1.000000
-81.099586 -48.206150 0.976143 1.000000
-81.099586 -48.206150 0.812558 1.000000
-81.066772 -48.211460 3.186633 1.000000
-81.066772 -48.211456 3.023160 1.000000
-81.066772 -48.211456 2.861982 1.000000
-81.066772 -48.211456 2.702713 1.000000
-81.066772 -48.211456 2.544983 1.000000
-81.066772 -48.211456 2.388437 1.000000
-81.066772 -48.211456 2.232729 1.000000
-81.066772 -48.211456 2.077521 1.000000
-81.066772 -48.211456 1.922479 1.000000
-81.066772 -48.211456 1.767271 1.000000
-81.066772 -48.211456 1.611563 1.000000
-81.066772 -48.211456 1.455017 1.000000
-81.066772 -48.211456 1.297287 1.000000
-81.066772 -48.211456 1.138018 1.000000
-81.066772 -48.211456 0.976840 1.000000
-81.066772 -48.211456 0.813367 1.000000
-81.033997 -48.216759 3.185884 1.000000
-81.033997 -48.216759 3.022514 1.000000
-81.033997 -48.216759 2.861437 1.000000
-81.033997 -48.216759 2.702269 1.000000
-81.033997 -48.216759 2.544639 1.000000
-81.033997 -48.216759 2.388191 1.000000
-81.033997 -48.216759 2.232582 1.000000
-81.033997 -48.216759 2.077472 1.000000
-81.033997 -48.216759 1.922528 1.000000
-81.033997 -48.216759 1.767418 1.000000
-81.033997 -48.216759 1.611808 1.000000
-81.033997 -48.216759 1.455361 1.000000
-81.033997 -48.216759 1.297731 1.000000
-81.033997 -48.216759 1.138563 1.000000
-81.033997 -48.216759 0.977486 1.000000
-81.033997 -48.216759 0.814116 1.000000
-81.001266 -48.222054 3.185192 1.000000
-81.001266 -48.222054 3.021918 1.000000
-81.001266 -48.222054 2.860935 1.000000
-81.001266 -48.222054 2.701860 1.000000
-81.001266 -48.222054 2.544322 1.000000
-81.001266 -48.222054 2.387965 1.000000
-81.001266 -48.222054 2.232446 1.000000
-81.001266 -48.222054 2.077427 1.000000
-81.001266 -48.222054 1.922573 1.000000
-81.001266 -48.222054 1.767554 1.000000
-81.001266 -48.222054 1.612035 1.000000
-81.001266 -48.222054 1.455678 1.000000
-81.001266 -48.222054 1.298140 1.000000
-81.001266 -48.222054 1.139064 1.000000
-81.001266 -48.222054 0.978082 1.000000
-81.001266 -48.222054 0.814807 1.000000
-80.968575 -48.227345 3.184560 1.000000
-80.968575 -48.227345 3.021372 1.000000
-80.968575 -48.227345 2.860476 1.000000
-80.968575 -48.227345 2.701485 1.000000
-80.968575 -48.227341 2.544031 1.000000
-80.968575 -48.227345 2.387758 1.000000
-80.968575 -48.227345 2.232322 1.000000
-80.968575 -48.227341 2.077385 1.000000
-80.968575 -48.227341 1.922615 1.000000
-80.968575 -48.227345 1.767678 1.000000
-80.968575 -48.227345 1.612242 1.000000
-80.968575 -48.227341 1.455969 1.000000
-80.968575 -48.227345 1.298515 1.000000
-80.968575 -48.227345 1.139524 1.000000
-80.968575 -48.227341 0.978628 1.000000
-80.968575 -48.227345 0.815440 1.000000
-80.935913 -48.232624 3.183986 1.000000
-80.935913 -48.232628 3.020877 1.000000
-80.935913 -48.232628 2.860059 1.000000
-80.935913 -48.232628 2.701145 1.000000
-80.935913 -48.232628 2.543767 1.000000
-80.935913 -48.232628 2.387570 1.000000
-80.935913 -48.232628 2.232210 1.000000
-80.935913 -48.232628 2.077348 1.000000
-80.935913 -48.232628 1.922652 1.000000
-80.935913 -48.232628 1.767790 1.000000
-80.935913 -48.232628 1.612430 1.000000
-80.935913 -48.232624 1.456233 1.000000
-80.935913 -48.232628 1.298855 1.000000
-80.935913 -48.232628 1.139941 1.000000
-80.935913 -48.232628 0.979123 1.000000
-80.935913 -48.232624 0.816014 1.000000
-80.903275 -48.237904 3.183470 1.000000
-80.903282 -48.237907 3.020432 1.000000
-80.903275 -48.237907 2.859684 1.000000
-80.903275 -48.237907 2.700840 1.000000
-80.903282 -48.237907 2.543530 1.000000
-80.903275 -48.237907 2.387401 1.000000
-80.903275 -48.237904 2.232108 1.000000
-80.903275 -48.237907 2.077314 1.000000
-80.903275 -48.237907 1.922686 1.000000
-80.903275 -48.237904 1.767892 1.000000
-80.903275 -48.237907 1.612598 1.000000
-80.903282 -48.237907 1.456470 1.000000
-80.903275 -48.237907 1.299161 1.000000
-80.903275 -48.237907 1.140316 1.000000
-80.903282 -48.237907 0.979568 1.000000
-80.903275 -48.237904 0.816530 1.000000
-80.870674 -48.243179 3.183012 1.000000
-80.870674 -48.243179 3.020038 1.000000
-80.870674 -48.243179 2.859351 1.000000
-80.870674 -48.243179 2.700568 1.000000
-80.870674 -48.243179 2.543320 1.000000
-80.870674 -48.243179 2.387252 1.000000
-80.870674 -48.243179 2.232018 1.000000
-80.870674 -48.243179 2.077284 1.000000
-80.870674 -48.243179 1.922716 1.000000
-80.870674 -48.243179 1.767981 1.000000
-80.870674 -48.243179 1.612749 1.000000
-80.870674 -48.243179 1.456680 1.000000
-80.870674 -48.243179 1.299432 1.000000
-80.870674 -48.243179 1.140649 1.000000
-80.870674 -48.243179 0.979962 1.000000
-80.870674 -48.243179 0.816988 1.000000
-80.838089 -48.248451 3.182612 1.000000
-80.838089 -48.248451 3.019693 1.000000
-80.838089 -48.248451 2.859061 1.000000
-80.838089 -48.248451 2.700332 1.000000
-80.838089 -48.248451 2.543136 1.000000
-80.838089 -48.248451 2.387120 1.000000
-80.838089 -48.248451 2.231940 1.000000
-80.838089 -48.248451 2.077258 1.000000
-80.838089 -48.248451 1.922742 1.000000
-80.838089 -48.248451 1.768060 1.000000
-80.838089 -48.248451 1.612879 1.000000
-80.838089 -48.248451 1.456864 1.000000
-80.838089 -48.248451 1.299668 1.000000
-80.838089 -48.248451 1.140939 1.000000
-80.838089 -48.248451 0.980307 1.000000
-80.838089 -48.248451 0.817388 1.000000
-80.805534 -48.253719 3.182270 1.000000
-80.805534 -48.253719 3.019398 1.000000
-80.805534 -48.253719 2.858812 1.000000
-80.805534 -48.253719 2.700129 1.000000
-80.805534 -48.253716 2.542979 1.000000
-80.805534 -48.253719 2.387009 1.000000
-80.805534 -48.253719 2.231873 1.000000
-80.805534 -48.253719 2.077236 1.000000
-80.805534 -48.253716 1.922764 1.000000
-80.805534 -48.253719 1.768127 1.000000
-80.805534 -48.253719 1.612991 1.000000
-80.805534 -48.253716 1.457021 1.000000
-80.805534 -48.253719 1.299871 1.000000
-80.805534 -48.253719 1.141187 1.000000
-80.805534 -48.253716 0.980602 1.000000
-80.805534 -48.253716 0.817730 1.000000
-80.772987 -48.258980 3.181986 1.000000
-80.772987 -48.258980 3.019153 1.000000
-80.772987 -48.258984 2.858606 1.000000
-80.772987 -48.258984 2.699961 1.000000
-80.772987 -48.258980 2.542849 1.000000
-80.772987 -48.258984 2.386916 1.000000
-80.772987 -48.258980 2.231817 1.000000
-80.772987 -48.258984 2.077217 1.000000
-80.772987 -48.258980 1.922783 1.000000
-80.772987 -48.258980 1.768183 1.000000
-80.772987 -48.258984 1.613084 1.000000
-80.772987 -48.258980 1.457151 1.000000
-80.772987 -48.258984 1.300039 1.000000
-80.772987 -48.258980 1.141394 1.000000
-80.772987 -48.258980 0.980847 1.000000
-80.772987 -48.258980 0.818014 1.000000
-80.740456 -48.264244 3.181759 1.000000
-80.740456 -48.264244 3.018957 1.000000
-80.740456 -48.264244 2.858442 1.000000
-80.740456 -48.264244 2.699826 1.000000
-80.740456 -48.264244 2.542745 1.000000
-80.740456 -48.264244 2.386842 1.000000
-80.740456 -48.264244 2.231773 1.000000
-80.740456 -48.264244 2.077203 1.000000
-80.740456 -48.264244 1.922798 1.000000
-80.740456 -48.264244 1.768227 1.000000
-80.740456 -48.264244 1.613158 1.000000
-80.740456 -48.264244 1.457255 1.000000
-80.740456 -48.264244 1.300173 1.000000
-80.740456 -48.264244 1.141558 1.000000
-80.740456 -48.264244 0.981043 1.000000
-80.740456 -48.264244 0.818241 1.000000
-80.707939 -48.269505 3.181591 1.000000
-80.707939 -48.269505 3.018812 1.000000
-80.707939 -48.269505 2.858319 1.000000
-80.707939 -48.269505 2.699727 1.000000
-80.707939 -48.269505 2.542667 1.000000
-80.707939 -48.269505 2.386786 1.000000
-80.707939 -48.269505 2.231740 1.000000
-80.707939 -48.269505 2.077191 1.000000
-80.707939 -48.269505 1.922809 1.000000
-80.707939 -48.269505 1.768260 1.000000
-80.707939 -48.269505 1.613214 1.000000
-80.707939 -48.269505 1.457333 1.000000
-80.707939 -48.269505 1.300273 1.000000
-80.707939 -48.269505 1.141681 1.000000
-80.707939 -48.269505 0.981188 1.000000
-80.707939 -48.269505 0.818409 1.000000
-80.675430 -48.274765 3.181479 1.000000
-80.675430 -48.274765 3.018716 1.000000
-80.675430 -48.274765 2.858238 1.000000
-80.675430 -48.274765 2.699661 1.000000
-80.675430 -48.274765 2.542616 1.000000
-80.675430 -48.274765 2.386750 1.000000
-80.675430 -48.274765 2.231718 1.000000
-80.675430 -48.274765 2.077184 1.000000
-80.675430 -48.274765 1.922816 1.000000
-80.675430 -48.274765 1.768282 1.000000
-80.675430 -48.274765 1.613250 1.000000
-80.675430 -48.274765 1.457384 1.000000
-80.675430 -48.274765 1.300339 1.000000
-80.675430 -48.274765 1.141762 1.000000
-80.675430 -48.274765 0.981284 1.000000
-80.675430 -48.274765 0.818521 1.000000
-80.642921 -48.280022 3.181426 1.000000
-80.642921 -48.280022 3.018670 1.000000
-80.642921 -48.280022 2.858199 1.000000
-80.642921 -48.280022 2.699629 1.000000
-80.642921 -48.280022 2.542591 1.000000
-80.642921 -48.280022 2.386732 1.000000
-80.642921 -48.280022 2.231708 1.000000
-80.642921 -48.280022 2.077181 1.000000
-80.642921 -48.280022 1.922819 1.000000
-80.642921 -48.280022 1.768292 1.000000
-80.642921 -48.280022 1.613268 1.000000
-80.642921 -48.280022 1.457409 1.000000
-80.642921 -48.280022 1.300371 1.000000
-80.642921 -48.280022 1.141801 1.000000
-80.642921 -48.280022 0.981331 1.000000
-80.642921 -48.280022 0.818575 1.000000
-80.610420 -48.285282 3.181429 1.000000
-80.610420 -48.285282 3.018673 1.000000
-80.610420 -48.285278 2.858202 1.000000
-80.610420 -48.285282 2.699631 1.000000
-80.610420 -48.285278 2.542593 1.000000
-80.610420 -48.285278 2.386734 1.000000
-80.610420 -48.285278 2.231708 1.000000
-80.610420 -48.285278 2.077181 1.000000
-80.610420 -48.285278 1.922819 1.000000
-80.610420 -48.285278 1.768292 1.000000
-80.610420 -48.285278 1.613267 1.000000
-80.610420 -48.285278 1.457407 1.000000
-80.610420 -48.285282 1.300369 1.000000
-80.610420 -48.285278 1.141798 1.000000
-80.610420 -48.285278 0.981327 1.000000
-80.610420 -48.285278 0.818571 1.000000
-80.577911 -48.290539 3.181491 1.000000
-80.577911 -48.290539 3.018726 1.000000
-80.577911 -48.290539 2.858247 1.000000
-80.577911 -48.290539 2.699667 1.000000
-80.577911 -48.290539 2.542621 1.000000
-80.577911 -48.290539 2.386754 1.000000
-80.577911 -48.290539 2.231720 1.000000
-80.577911 -48.290539 2.077185 1.000000
-80.577911 -48.290539 1.922815 1.000000
-80.577911 -48.290539 1.768280 1.000000
-80.577911 -48.290539 1.613246 1.000000
-80.577911 -48.290539 1.457379 1.000000
-80.577911 -48.290539 1.300332 1.000000
-80.577911 -48.290539 1.141753 1.000000
-80.577911 -48.290539 0.981274 1.000000
-80.577911 -48.290539 0.818509 1.000000
-80.545403 -48.295799 3.181610 1.000000
-80.545403 -48.295799 3.018829 1.000000
-80.545403 -48.295799 2.858333 1.000000
-80.545403 -48.295799 2.699738 1.000000
-80.545403 -48.295799 2.542676 1.000000
-80.545403 -48.295799 2.386792 1.000000
-80.545403 -48.295799 2.231744 1.000000
-80.545403 -48.295799 2.077193 1.000000
-80.545403 -48.295799 1.922807 1.000000
-80.545403 -48.295799 1.768256 1.000000
-80.545403 -48.295799 1.613207 1.000000
-80.545403 -48.295799 1.457324 1.000000
-80.545403 -48.295799 1.300262 1.000000
-80.545403 -48.295799 1.141667 1.000000
-80.545403 -48.295799 0.981171 1.000000
-80.545403 -48.295799 0.818390 1.000000
-80.512878 -48.301060 3.181787 1.000000
-80.512878 -48.301060 3.018981 1.000000
-80.512878 -48.301060 2.858461 1.000000
-80.512878 -48.301060 2.699843 1.000000
-80.512878 -48.301060 2.542757 1.000000
-80.512878 -48.301060 2.386850 1.000000
-80.512878 -48.301060 2.231778 1.000000
-80.512878 -48.301060 2.077204 1.000000
-80.512878 -48.301060 1.922796 1.000000
-80.512878 -48.301060 1.768222 1.000000
-80.512878 -48.301060 1.613150 1.000000
-80.512878 -48.301060 1.457243 1.000000
-80.512878 -48.301060 1.300157 1.000000
-80.512878 -48.301060 1.141538 1.000000
-80.512878 -48.301060 0.981019 1.000000
-80.512878 -48.301060 0.818213 1.000000
-80.480347 -48.306320 3.182021 1.000000
-80.480347 -48.306320 3.019184 1.000000
-80.480347 -48.306320 2.858632 1.000000
-80.480347 -48.306320 2.699982 1.000000
-80.480347 -48.306320 2.542865 1.000000
-80.480347 -48.306320 2.386927 1.000000
-80.480347 -48.306320 2.231824 1.000000
-80.480347 -48.306320 2.077220 1.000000
-80.480347 -48.306320 1.922780 1.000000
-80.480347 -48.306320 1.768176 1.000000
-80.480347 -48.306320 1.613073 1.000000
-80.480347 -48.306320 1.457135 1.000000
-80.480347 -48.306320 1.300018 1.000000
-80.480347 -48.306320 1.141368 1.000000
-80.480347 -48.306320 0.980817 1.000000
-80.480347 -48.306320 0.817979 1.000000
-80.447800 -48.311584 3.182313 1.000000
-80.447800 -48.311584 3.019435 1.000000
-80.447800 -48.311584 2.858844 1.000000
-80.447800 -48.311588 2.700155 1.000000
-80.447800 -48.311588 2.542999 1.000000
-80.447800 -48.311584 2.387022 1.000000
-80.447800 -48.311588 2.231882 1.000000
-80.447800 -48.311584 2.077239 1.000000
-80.447800 -48.311584 1.922761 1.000000
-80.447800 -48.311588 1.768118 1.000000
-80.447800 -48.311584 1.612977 1.000000
-80.447800 -48.311588 1.457001 1.000000
-80.447800 -48.311588 1.299845 1.000000
-80.447800 -48.311584 1.141156 1.000000
-80.447800 -48.311584 0.980565 1.000000
-80.447800 -48.311584 0.817687 1.000000
-80.415237 -48.316856 3.182663 1.000000
-80.415237 -48.316856 3.019737 1.000000
-80.415237 -48.316856 2.859098 1.000000
-80.415237 -48.316856 2.700362 1.000000
-80.415237 -48.316856 2.543160 1.000000
-80.415237 -48.316856 2.387137 1.000000
-80.415237 -48.316856 2.231950 1.000000
-80.415237 -48.316856 2.077262 1.000000
-80.415237 -48.316856 1.922739 1.000000
-80.415237 -48.316856 1.768050 1.000000
-80.415237 -48.316856 1.612863 1.000000
-80.415237 -48.316856 1.456840 1.000000
-80.415237 -48.316853 1.299638 1.000000
-80.415237 -48.316853 1.140902 1.000000
-80.415237 -48.316856 0.980263 1.000000
-80.415237 -48.316853 0.817337 1.000000
-80.382652 -48.322124 3.183071 1.000000
-80.382652 -48.322124 3.020089 1.000000
-80.382652 -48.322124 2.859394 1.000000
-80.382652 -48.322124 2.700603 1.000000
-80.382652 -48.322124 2.543347 1.000000
-80.382652 -48.322124 2.387271 1.000000
-80.382652 -48.322128 2.232030 1.000000
-80.382652 -48.322124 2.077288 1.000000
-80.382652 -48.322124 1.922712 1.000000
-80.382652 -48.322128 1.767970 1.000000
-80.382652 -48.322124 1.612729 1.000000
-80.382652 -48.322124 1.456653 1.000000
-80.382652 -48.322124 1.299397 1.000000
-80.382652 -48.322124 1.140605 1.000000
-80.382652 -48.322124 0.979912 1.000000
-80.382652 -48.322124 0.816929 1.000000
-80.350044 -48.327400 3.183537 1.000000
-80.350044 -48.327400 3.020490 1.000000
-80.350044 -48.327400 2.859733 1.000000
-80.350044 -48.327400 2.700879 1.000000
-80.350044 -48.327400 2.543561 1.000000
-80.350044 -48.327400 2.387423 1.000000
-80.350044 -48.327400 2.232122 1.000000
-80.350044 -48.327400 2.077319 1.000000
-80.350044 -48.327400 1.922681 1.000000
-80.350044 -48.327400 1.767878 1.000000
-80.350044 -48.327400 1.612576 1.000000
-80.350044 -48.327400 1.456439 1.000000
-80.350044 -48.327400 1.299121 1.000000
-80.350044 -48.327400 1.140267 1.000000
-80.350044 -48.327400 0.979510 1.000000
-80.350044 -48.327400 0.816463 1.000000
-80.317413 -48.332680 3.184061 1.000000
-80.317413 -48.332680 3.020942 1.000000
-80.317413 -48.332680 2.860113 1.000000
-80.317413 -48.332680 2.701190 1.000000
-80.317413 -48.332680 2.543802 1.000000
-80.317413 -48.332680 2.387595 1.000000
-80.317413 -48.332680 2.232224 1.000000
-80.317413 -48.332680 2.077353 1.000000
-80.317413 -48.332680 1.922647 1.000000
-80.317413 -48.332680 1.767776 1.000000
-80.317413 -48.332680 1.612405 1.000000
-80.317413 -48.332680 1.456198 1.000000
-80.317413 -48.332680 1.298810 1.000000
-80.317413 -48.332680 1.139886 1.000000
-80.317413 -48.332680 0.979058 1.000000
-80.317413 -48.332680 0.815939 1.000000
-80.284744 -48.337963 3.184643 1.000000
-80.284744 -48.337963 3.021444 1.000000
-80.284744 -48.337963 2.860536 1.000000
-80.284744 -48.337963 2.701534 1.000000
-80.284744 -48.337963 2.544069 1.000000
-80.284744 -48.337963 2.387785 1.000000
-80.284744 -48.337963 2.232338 1.000000
-80.284744 -48.337963 2.077391 1.000000
-80.284744 -48.337963 1.922609 1.000000
-80.284744 -48.337963 1.767662 1.000000
-80.284744 -48.337963 1.612215 1.000000
-80.284744 -48.337963 1.455931 1.000000
-80.284744 -48.337963 1.298466 1.000000
-80.284744 -48.337963 1.139464 1.000000
-80.284744 -48.337963 0.978556 1.000000
-80.284744 -48.337963 0.815357 1.000000
-80.252045 -48.343254 3.185283 1.000000
-80.252045 -48.343254 3.021996 1.000000
-80.252045 -48.343254 2.861001 1.000000
-80.252045 -48.343254 2.701914 1.000000
-80.252045 -48.343254 2.544363 1.000000
-80.252045 -48.343254 2.387995 1.000000
-80.252045 -48.343254 2.232464 1.000000
-80.252045 -48.343254 2.077433 1.000000
-80.252045 -48.343254 1.922567 1.000000
-80.252045 -48.343254 1.767536 1.000000
-80.252045 -48.343254 1.612005 1.000000
-80.252045 -48.343254 1.455637 1.000000
-80.252045 -48.343254 1.298086 1.000000
-80.252045 -48.343254 1.138999 1.000000
-80.252045 -48.343254 0.978004 1.000000
-80.252045 -48.343254 0.814717 1.000000
-80.219307 -48.348549 3.185982 1.000000
-80.219307 -48.348549 3.022599 1.000000
-80.219307 -48.348549 2.861509 1.000000
-80.219307 -48.348549 2.702327 1.000000
-80.219307 -48.348549 2.544684 1.000000
-80.219307 -48.348549 2.388224 1.000000
-80.219307 -48.348549 2.232601 1.000000
-80.219307 -48.348549 2.077478 1.000000
-80.219307 -48.348549 1.922522 1.000000
-80.219307 -48.348549 1.767399 1.000000
-80.219307 -48.348549 1.611776 1.000000
-80.219307 -48.348549 1.455316 1.000000
-80.219307 -48.348549 1.297673 1.000000
-80.219307 -48.348549 1.138491 1.000000
-80.219307 -48.348549 0.977401 1.000000
-80.219307 -48.348549 0.814018 1.000000
-80.186531 -48.353851 3.186740 1.000000
-80.186531 -48.353851 3.023252 1.000000
-80.186531 -48.353851 2.862060 1.000000
-80.186531 -48.353851 2.702776 1.000000
-80.186531 -48.353851 2.545032 1.000000
-80.186531 -48.353851 2.388472 1.000000
-80.186531 -48.353851 2.232750 1.000000
-80.186531 -48.353851 2.077528 1.000000
-80.186531 -48.353851 1.922472 1.000000
-80.186531 -48.353851 1.767250 1.000000
-80.186531 -48.353851 1.611528 1.000000
-80.186531 -48.353851 1.454968 1.000000
-80.186531 -48.353851 1.297224 1.000000
-80.186531 -48.353851 1.137940 1.000000
-80.186531 -48.353851 0.976748 1.000000
-80.186531 -48.353851 0.813260 1.000000
-80.153709 -48.359161 3.187557 1.000000
-80.153709 -48.359161 3.023957 1.000000
-80.153709 -48.359161 2.862653 1.000000
-80.153709 -48.359161 2.703260 1.000000
-80.153709 -48.359161 2.545407 1.000000
-80.153709 -48.359161 2.388739 1.000000
-80.153709 -48.359161 2.232910 1.000000
-80.153709 -48.359161 2.077581 1.000000
-80.153709 -48.359161 1.922419 1.000000
-80.153709 -48.359161 1.767090 1.000000
-80.153709 -48.359161 1.611261 1.000000
-80.153709 -48.359161 1.454593 1.000000
-80.153709 -48.359161 1.296740 1.000000
-80.153709 -48.359161 1.137347 1.000000
-80.153709 -48.359161 0.976044 1.000000
-80.153709 -48.359161 0.812443 1.000000
-80.120842 -48.364479 3.188432 1.000000
-80.120842 -48.364479 3.024711 1.000000
-80.120842 -48.364479 2.863289 1.000000
-80.120842 -48.364479 2.703778 1.000000
-80.120842 -48.364479 2.545810 1.000000
-80.120842 -48.364479 2.389026 1.000000
-80.120842 -48.364479 2.233082 1.000000
-80.120842 -48.364479 2.077639 1.000000
-80.120842 -48.364479 1.922362 1.000000
-80.120842 -48.364479 1.766918 1.000000
-80.120842 -48.364479 1.610974 1.000000
-80.120842 -48.364479 1.454190 1.000000
-80.120842 -48.364475 1.296221 1.000000
-80.120842 -48.364479 1.136711 1.000000
-80.120842 -48.364479 0.975289 1.000000
-80.120842 -48.364479 0.811568 1.000000
-80.087929 -48.369804 3.189368 1.000000
-80.087929 -48.369804 3.025517 1.000000
-80.087929 -48.369804 2.863968 1.000000
-80.087929 -48.369804 2.704332 1.000000
-80.087929 -48.369804 2.546239 1.000000
-80.087929 -48.369804 2.389332 1.000000
-80.087929 -48.369804 2.233265 1.000000
-80.087929 -48.369804 2.077699 1.000000
-80.087929 -48.369804 1.922301 1.000000
-80.087929 -48.369804 1.766735 1.000000
-80.087929 -48.369804 1.610668 1.000000
-80.087929 -48.369804 1.453761 1.000000
-80.087929 -48.369801 1.295668 1.000000
-80.087929 -48.369804 1.136032 1.000000
-80.087929 -48.369804 0.974483 1.000000
-80.087929 -48.369804 0.810633 1.000000
-80.054955 -48.375137 3.190362 1.000000
-80.054955 -48.375137 3.026375 1.000000
-80.054955 -48.375137 2.864690 1.000000
-80.054955 -48.375137 2.704921 1.000000
-80.054955 -48.375137 2.546695 1.000000
-80.054955 -48.375137 2.389657 1.000000
-80.054955 -48.375137 2.233460 1.000000
-80.054955 -48.375137 2.077764 1.000000
-80.054955 -48.375137 1.922235 1.000000
-80.054955 -48.375137 1.766540 1.000000
-80.054955 -48.375137 1.610343 1.000000
-80.054955 -48.375137 1.453304 1.000000
-80.054955 -48.375137 1.295079 1.000000
-80.054955 -48.375137 1.135309 1.000000
-80.054955 -48.375137 0.973625 1.000000
-80.054955 -48.375137 0.809638 1.000000
-80.021927 -48.380478 3.191416 1.000000
-80.021927 -48.380478 3.027284 1.000000
-80.021927 -48.380482 2.865456 1.000000
-80.021927 -48.380478 2.705545 1.000000
-80.021927 -48.380478 2.547180 1.000000
-80.021927 -48.380482 2.390002 1.000000
-80.021927 -48.380478 2.233667 1.000000
-80.021927 -48.380478 2.077833 1.000000
-80.021927 -48.380478 1.922167 1.000000
-80.021927 -48.380478 1.766333 1.000000
-80.021927 -48.380482 1.609998 1.000000
-80.021927 -48.380478 1.452820 1.000000
-80.021927 -48.380478 1.294455 1.000000
-80.021927 -48.380482 1.134544 1.000000
-80.021927 -48.380478 0.972716 1.000000
-80.021927 -48.380478 0.808584 1.000000
-79.988838 -48.385830 3.192531 1.000000
-79.988838 -48.385834 3.028245 1.000000
-79.988838 -48.385834 2.866266 1.000000
-79.988838 -48.385834 2.706205 1.000000
-79.988838 -48.385830 2.547692 1.000000
-79.988838 -48.385834 2.390368 1.000000
-79.988838 -48.385834 2.233885 1.000000
-79.988838 -48.385834 2.077906 1.000000
-79.988838 -48.385834 1.922094 1.000000
-79.988838 -48.385834 1.766114 1.000000
-79.988838 -48.385834 1.609633 1.000000
-79.988838 -48.385830 1.452308 1.000000
-79.988838 -48.385834 1.293795 1.000000
-79.988838 -48.385834 1.133734 1.000000
-79.988838 -48.385834 0.971755 1.000000
-79.988838 -48.385830 0.807469 1.000000
-79.955688 -48.391193 3.193706 1.000000
-79.955688 -48.391193 3.029258 1.000000
-79.955688 -48.391193 2.867119 1.000000
-79.955688 -48.391197 2.706901 1.000000
-79.955688 -48.391197 2.548231 1.000000
-79.955688 -48.391197 2.390752 1.000000
-79.955688 -48.391197 2.234116 1.000000
-79.955688 -48.391193 2.077983 1.000000
-79.955688 -48.391193 1.922017 1.000000
-79.955688 -48.391197 1.765884 1.000000
-79.955688 -48.391197 1.609248 1.000000
-79.955688 -48.391197 1.451769 1.000000
-79.955688 -48.391193 1.293099 1.000000
-79.955688 -48.391193 1.132881 1.000000
-79.955688 -48.391193 0.970742 1.000000
-79.955688 -48.391193 0.806294 1.000000
-79.922470 -48.396568 3.194941 1.000000
-79.922470 -48.396568 3.030323 1.000000
-79.922470 -48.396568 2.868016 1.000000
-79.922470 -48.396568 2.707633 1.000000
-79.922470 -48.396568 2.548798 1.000000
-79.922470 -48.396568 2.391156 1.000000
-79.922470 -48.396568 2.234358 1.000000
-79.922470 -48.396568 2.078063 1.000000
