# This PCD file was generated using the MATLABÂ® pcwrite function
# from Computer Vision ToolboxÂ®.
# .PCD v.7 - Point Cloud Data file format
VERSION .7
FIELDS x y z intensity
SIZE 4 4 4 4
TYPE F F F F
COUNT 1 1 1 1
WIDTH 1155
HEIGHT 1
VIEWPOINT 0 0 0 1 0 0 0
POINTS 1155
DATA ascii
337.258728 -539.227051 1.722858 1.000000
337.258759 -539.227051 1.167981 1.000000
337.258759 -539.227051 0.611316 1.000000
337.258728 -539.227051 0.051655 1.000000
340.710724 -539.316406 -0.000014 0.534615
343.201172 -539.380859 -0.000011 0.577920
344.932129 -539.425659 -0.000010 0.557671
346.207397 -539.458679 -0.000008 0.526680
337.242462 -539.108215 6.247228 1.000000
337.242493 -539.108215 5.662120 1.000000
337.242493 -539.108215 5.085228 1.000000
337.242462 -539.108215 4.515168 1.000000
337.242462 -539.108215 3.950617 1.000000
337.242462 -539.108215 3.390303 1.000000
337.242462 -539.108215 2.832989 1.000000
337.242462 -539.108215 2.277465 1.000000
337.242462 -539.108215 1.722535 1.000000
337.242462 -539.108215 1.167011 1.000000
337.242462 -539.108215 0.609696 1.000000
337.242462 -539.108215 0.049382 1.000000
340.713501 -539.222290 -0.000014 0.537575
343.203430 -539.304138 -0.000011 0.568414
344.934021 -539.361023 -0.000010 0.532036
346.209045 -539.402954 -0.000009 0.538430
337.226166 -538.989075 6.252393 1.000000
337.226166 -538.989075 5.666574 1.000000
337.226166 -538.989075 5.088980 1.000000
337.226166 -538.989075 4.518227 1.000000
337.226166 -538.989075 3.952990 1.000000
337.226166 -538.989075 3.391994 1.000000
337.226166 -538.989075 2.834002 1.000000
337.226166 -538.989075 2.277802 1.000000
337.226166 -538.989075 1.722198 1.000000
337.226166 -538.989075 1.165997 1.000000
337.226166 -538.989075 0.608006 1.000000
337.226166 -538.989075 0.047010 1.000000
340.716919 -539.128235 -0.000014 0.536812
343.206207 -539.227478 -0.000012 0.563989
344.936371 -539.296448 -0.000010 0.533974
346.211060 -539.347229 -0.000009 0.537621
337.209839 -538.869690 6.257780 1.000000
337.209808 -538.869690 5.671219 1.000000
337.209839 -538.869690 5.092893 1.000000
337.209808 -538.869690 4.521418 1.000000
337.209839 -538.869690 3.955464 1.000000
337.209839 -538.869690 3.393757 1.000000
337.209839 -538.869690 2.835059 1.000000
337.209839 -538.869690 2.278154 1.000000
337.209839 -538.869690 1.721846 1.000000
337.209839 -538.869690 1.164941 1.000000
337.209808 -538.869690 0.606242 1.000000
337.209808 -538.869690 0.044536 1.000000
340.720978 -539.034180 -0.000014 0.528634
343.209534 -539.150818 -0.000011 0.528176
344.939178 -539.231812 -0.000010 0.526925
346.213470 -539.291565 -0.000009 0.511864
337.193420 -538.749939 6.263389 1.000000
337.193420 -538.749939 5.676055 1.000000
337.193420 -538.749939 5.096967 1.000000
337.193420 -538.749939 4.524738 1.000000
337.193420 -538.749939 3.958040 1.000000
337.193420 -538.749939 3.395593 1.000000
337.193420 -538.749939 2.836159 1.000000
337.193420 -538.749939 2.278521 1.000000
337.193420 -538.749939 1.721480 1.000000
337.193420 -538.749939 1.163841 1.000000
337.193420 -538.749939 0.604406 1.000000
337.193420 -538.749939 0.041960 1.000000
340.725708 -538.940186 -0.000014 0.542336
343.213379 -539.074158 -0.000011 0.500191
344.942413 -539.167236 -0.000010 0.545174
346.216278 -539.235840 -0.000009 0.537942
337.177002 -538.629944 6.269219 1.000000
337.177002 -538.629944 5.681083 1.000000
337.177002 -538.629944 5.101203 1.000000
337.177002 -538.629944 4.528192 1.000000
337.177002 -538.629944 3.960718 1.000000
337.177002 -538.629944 3.397501 1.000000
337.177002 -538.629944 2.837302 1.000000
337.177002 -538.629944 2.278901 1.000000
337.177002 -538.629944 1.721098 1.000000
337.177002 -538.629944 1.162698 1.000000
337.177002 -538.629944 0.602497 1.000000
337.177002 -538.629944 0.039282 1.000000
340.731110 -538.846191 -0.000014 0.546105
343.217773 -538.997559 -0.000011 0.529900
344.946106 -539.102722 -0.000010 0.570367
346.219482 -539.180237 -0.000009 0.549187
337.160522 -538.509521 6.275275 1.000000
337.160522 -538.509521 5.686304 1.000000
337.160522 -538.509521 5.105602 1.000000
337.160522 -538.509521 4.531777 1.000000
337.160522 -538.509521 3.963499 1.000000
337.160522 -538.509521 3.399485 1.000000
337.160522 -538.509521 2.838490 1.000000
337.160522 -538.509521 2.279297 1.000000
337.160522 -538.509521 1.720703 1.000000
337.160522 -538.509521 1.161510 1.000000
337.160522 -538.509521 0.600515 1.000000
337.160522 -538.509521 0.036501 1.000000
340.737152 -538.752258 -0.000014 0.525734
343.222717 -538.920959 -0.000011 0.522652
344.950256 -539.038208 -0.000010 0.524712
346.223053 -539.124573 -0.000009 0.495705
337.143982 -538.388794 6.281558 1.000000
337.143982 -538.388794 5.691721 1.000000
337.143982 -538.388794 5.110166 1.000000
337.143982 -538.388794 4.535498 1.000000
337.143982 -538.388794 3.966384 1.000000
337.143982 -538.388794 3.401541 1.000000
337.143982 -538.388794 2.839722 1.000000
337.143982 -538.388794 2.279707 1.000000
337.143982 -538.388794 1.720292 1.000000
337.143982 -538.388794 1.160277 1.000000
337.143982 -538.388794 0.598459 1.000000
337.143982 -538.388794 0.033615 1.000000
340.743866 -538.658386 -0.000014 0.520531
343.228180 -538.844421 -0.000011 0.566857
344.954865 -538.973694 -0.000010 0.536233
346.227020 -539.068970 -0.000009 0.507240
337.127411 -538.267761 6.288069 1.000000
337.127411 -538.267761 5.697333 1.000000
337.127411 -538.267761 5.114894 1.000000
337.127411 -538.267761 4.539353 1.000000
337.127411 -538.267761 3.969375 1.000000
337.127411 -538.267761 3.403672 1.000000
337.127411 -538.267761 2.840999 1.000000
337.127411 -538.267761 2.280133 1.000000
337.127411 -538.267761 1.719867 1.000000
337.127411 -538.267761 1.159001 1.000000
337.127411 -538.267700 0.596327 1.000000
337.127411 -538.267761 0.030625 1.000000
340.751221 -538.564575 -0.000014 0.541238
343.234161 -538.767944 -0.000011 0.551217
344.959930 -538.909302 -0.000010 0.580987
346.231384 -539.013428 -0.000009 0.548638
337.110779 -538.146240 6.294807 1.000000
337.110779 -538.146240 5.703146 1.000000
337.110779 -538.146240 5.119790 1.000000
337.110779 -538.146240 4.543344 1.000000
337.110779 -538.146240 3.972469 1.000000
337.110779 -538.146240 3.405878 1.000000
337.110779 -538.146240 2.842321 1.000000
337.110779 -538.146240 2.280573 1.000000
337.110779 -538.146240 1.719427 1.000000
337.110779 -538.146240 1.157679 1.000000
337.110779 -538.146240 0.594121 1.000000
337.110779 -538.146240 0.027530 1.000000
340.759216 -538.470764 -0.000014 0.512123
343.240723 -538.691467 -0.000011 0.527718
344.965424 -538.844849 -0.000010 0.579293
346.236115 -538.957886 -0.000008 0.524620
337.094116 -538.024414 6.301777 1.000000
337.094116 -538.024414 5.709156 1.000000
337.094116 -538.024414 5.124854 1.000000
337.094116 -538.024414 4.547472 1.000000
337.094116 -538.024414 3.975670 1.000000
337.094116 -538.024414 3.408160 1.000000
337.094116 -538.024414 2.843688 1.000000
337.094116 -538.024414 2.281028 1.000000
337.094116 -538.024414 1.718972 1.000000
337.094116 -538.024414 1.156312 1.000000
337.094116 -538.024414 0.591840 1.000000
337.094116 -538.024414 0.024329 1.000000
340.767883 -538.377014 -0.000013 0.539132
343.247772 -538.615051 -0.000011 0.542123
344.971375 -538.780457 -0.000010 0.516075
346.241241 -538.902344 -0.000009 0.551720
337.077362 -537.902161 6.308981 1.000000
337.077362 -537.902161 5.715366 1.000000
337.077362 -537.902161 5.130086 1.000000
337.077362 -537.902161 4.551738 1.000000
337.077362 -537.902161 3.978979 1.000000
337.077362 -537.902161 3.410518 1.000000
337.077362 -537.902161 2.845100 1.000000
337.077362 -537.902161 2.281499 1.000000
337.077362 -537.902161 1.718501 1.000000
337.077362 -537.902161 1.154899 1.000000
337.077362 -537.902161 0.589482 1.000000
337.077362 -537.902161 0.021021 1.000000
340.777222 -538.283386 -0.000013 0.539315
343.255371 -538.538696 -0.000011 0.554559
344.977783 -538.716125 -0.000010 0.543923
346.246765 -538.846924 -0.000009 0.532723
337.060577 -537.779480 6.316419 1.000000
337.060577 -537.779480 5.721782 1.000000
337.060577 -537.779480 5.135490 1.000000
337.060577 -537.779480 4.556143 1.000000
337.060577 -537.779480 3.982395 1.000000
337.060577 -537.779480 3.412953 1.000000
337.060577 -537.779480 2.846559 1.000000
337.060577 -537.779480 2.281985 1.000000
337.060577 -537.779480 1.718015 1.000000
337.060577 -537.779480 1.153440 1.000000
337.060577 -537.779480 0.587047 1.000000
337.060577 -537.779480 0.017604 1.000000
340.787170 -538.189758 -0.000014 0.554391
343.263489 -538.462402 -0.000011 0.541360
344.984619 -538.651855 -0.000009 0.524361
346.252686 -538.791504 -0.000008 0.535424
337.043732 -537.656372 6.324096 1.000000
337.043732 -537.656372 5.728398 1.000000
337.043732 -537.656372 5.141065 1.000000
337.043732 -537.656372 4.560688 1.000000
337.043732 -537.656372 3.985919 1.000000
337.043732 -537.656372 3.415465 1.000000
337.043732 -537.656372 2.848064 1.000000
337.043732 -537.656372 2.282486 1.000000
337.043732 -537.656372 1.717514 1.000000
337.043732 -537.656372 1.151935 1.000000
337.043732 -537.656372 0.584534 1.000000
337.043732 -537.656372 0.014080 1.000000
340.797821 -538.096252 -0.000014 0.533349
343.272156 -538.386169 -0.000011 0.557626
344.991913 -538.587646 -0.000010 0.552254
346.258972 -538.736084 -0.000009 0.509194
337.026825 -537.532837 6.332010 1.000000
337.026825 -537.532837 5.735223 1.000000
337.026825 -537.532837 5.146814 1.000000
337.026825 -537.532837 4.565375 1.000000
337.026825 -537.532837 3.989556 1.000000
337.026825 -537.532837 3.418056 1.000000
337.026825 -537.532837 2.849617 1.000000
337.026825 -537.532837 2.283003 1.000000
337.026825 -537.532837 1.716997 1.000000
337.026825 -537.532837 1.150383 1.000000
337.026825 -537.532837 0.581943 1.000000
337.026825 -537.532837 0.010444 1.000000
340.809082 -538.002808 -0.000014 0.544228
343.281372 -538.309937 -0.000011 0.523384
344.999664 -538.523438 -0.000010 0.518196
346.265656 -538.680725 -0.000008 0.532708
337.009857 -537.408875 6.340165 1.000000
337.009857 -537.408875 5.742254 1.000000
337.009827 -537.408875 5.152739 1.000000
337.009857 -537.408875 4.570204 1.000000
337.009827 -537.408875 3.993301 1.000000
337.009827 -537.408875 3.420726 1.000000
337.009857 -537.408875 2.851216 1.000000
337.009827 -537.408875 2.283536 1.000000
337.009827 -537.408875 1.716464 1.000000
337.009857 -537.408875 1.148783 1.000000
337.009827 -537.408875 0.579273 1.000000
337.009827 -537.408875 0.006699 1.000000
340.821014 -537.909424 -0.000014 0.534463
343.291077 -538.233826 -0.000011 0.501091
345.007874 -538.459351 -0.000010 0.563806
346.272705 -538.625427 -0.000008 0.567819
336.992798 -537.284363 6.348564 1.000000
336.992798 -537.284363 5.749496 1.000000
336.992798 -537.284363 5.158839 1.000000
336.992798 -537.284363 4.575177 1.000000
336.992798 -537.284363 3.997157 1.000000
336.992798 -537.284363 3.423474 1.000000
336.992798 -537.284363 2.852864 1.000000
336.992798 -537.284363 2.284085 1.000000
336.992798 -537.284363 1.715915 1.000000
336.992798 -537.284363 1.147136 1.000000
336.992798 -537.284363 0.576525 1.000000
336.992798 -537.284363 0.002843 1.000000
340.833618 -537.816162 -0.000014 0.534737
343.301331 -538.157776 -0.000011 0.557992
345.016510 -538.395264 -0.000010 0.524788
346.280182 -538.570190 -0.000008 0.539300
336.975708 -537.159424 6.357207 1.000000
336.975708 -537.159424 5.756948 1.000000
336.975708 -537.159424 5.165118 1.000000
336.975708 -537.159424 4.580297 1.000000
336.975708 -537.159424 4.001127 1.000000
336.975708 -537.159424 3.426304 1.000000
336.975708 -537.159424 2.854558 1.000000
336.975708 -537.159424 2.284649 1.000000
336.975708 -537.159424 1.715350 1.000000
336.975708 -537.159424 1.145441 1.000000
336.975708 -537.159424 0.573695 1.000000
336.985260 -537.160828 -0.000017 0.514565
340.846832 -537.722961 -0.000014 0.524529
343.312134 -538.081848 -0.000011 0.523583
345.025604 -538.331238 -0.000010 0.555856
346.287994 -538.515015 -0.000008 0.541939
336.958527 -537.033936 6.366098 1.000000
336.958527 -537.033936 5.764616 1.000000
336.958527 -537.033936 5.171576 1.000000
336.958527 -537.033936 4.585562 1.000000
336.958527 -537.033936 4.005211 1.000000
336.958527 -537.033936 3.429215 1.000000
336.958527 -537.033936 2.856303 1.000000
336.958527 -537.033936 2.285230 1.000000
336.958527 -537.033936 1.714769 1.000000
336.958527 -537.033936 1.143697 1.000000
336.958527 -537.033936 0.570785 1.000000
337.003143 -537.040771 -0.000017 0.530205
340.860718 -537.629822 -0.000014 0.541787
343.323456 -538.005920 -0.000011 0.503655
345.035126 -538.267334 -0.000010 0.493660
346.296234 -538.459900 -0.000008 0.483192
336.941284 -536.907959 6.375239 1.000000
336.941284 -536.907959 5.772496 1.000000
336.941284 -536.907959 5.178216 1.000000
336.941284 -536.907959 4.590975 1.000000
336.941284 -536.907959 4.009409 1.000000
336.941284 -536.907959 3.432207 1.000000
336.941284 -536.907959 2.858095 1.000000
336.941284 -536.907959 2.285827 1.000000
336.941284 -536.907959 1.714172 1.000000
336.941284 -536.907959 1.141904 1.000000
336.941284 -536.907959 0.567793 1.000000
337.021881 -536.920837 -0.000017 0.545022
340.875275 -537.536865 -0.000014 0.519677
343.335297 -537.930115 -0.000011 0.508629
345.045135 -538.203430 -0.000010 0.558679
346.304840 -538.404846 -0.000008 0.520287
336.923950 -536.781433 6.384633 1.000000
336.923950 -536.781433 5.780596 1.000000
336.923950 -536.781433 5.185040 1.000000
336.923950 -536.781433 4.596538 1.000000
336.923950 -536.781433 4.013723 1.000000
336.923950 -536.781433 3.435282 1.000000
336.923950 -536.781433 2.859938 1.000000
336.923950 -536.781433 2.286441 1.000000
336.923950 -536.781433 1.713559 1.000000
336.923950 -536.781433 1.140062 1.000000
336.923950 -536.781433 0.564717 1.000000
337.041473 -536.801025 -0.000017 0.540871
340.890442 -537.443970 -0.000013 0.542031
343.347687 -537.854370 -0.000011 0.507744
345.055542 -538.139648 -0.000009 0.550973
346.313843 -538.349792 -0.000008 0.555230
336.906555 -536.654358 6.394281 1.000000
336.906555 -536.654358 5.788916 1.000000
336.906555 -536.654358 5.192050 1.000000
336.906555 -536.654358 4.602252 1.000000
336.906555 -536.654358 4.018155 1.000000
336.906555 -536.654358 3.438440 1.000000
336.906555 -536.654358 2.861830 1.000000
336.906555 -536.654358 2.287071 1.000000
336.906555 -536.654358 1.712929 1.000000
336.906555 -536.654358 1.138170 1.000000
336.906555 -536.654358 0.561559 1.000000
337.061890 -536.681396 -0.000017 0.541436
340.906281 -537.351135 -0.000013 0.528588
343.360596 -537.778748 -0.000011 0.564401
345.066437 -538.075928 -0.000010 0.543862
346.323212 -538.294861 -0.000008 0.506111
336.889099 -536.526733 6.404188 1.000000
336.889099 -536.526733 5.797458 1.000000
336.889099 -536.526733 5.199245 1.000000
336.889069 -536.526733 4.608119 1.000000
336.889099 -536.526733 4.022705 1.000000
336.889099 -536.526733 3.441683 1.000000
336.889069 -536.526733 2.863773 1.000000
336.889069 -536.526733 2.287719 1.000000
336.889069 -536.526733 1.712281 1.000000
336.889069 -536.526733 1.136227 1.000000
336.889069 -536.526733 0.558316 1.000000
337.083130 -536.561890 -0.000018 0.543755
340.922760 -537.258484 -0.000014 0.519173
343.374023 -537.703186 -0.000011 0.525979
345.077728 -538.012268 -0.000010 0.550423
346.332977 -538.239990 -0.000008 0.546456
336.871521 -536.398499 6.414355 1.000000
336.871521 -536.398499 5.806224 1.000000
336.871521 -536.398499 5.206631 1.000000
336.871521 -536.398499 4.614139 1.000000
336.871521 -536.398499 4.027374 1.000000
336.871521 -536.398499 3.445011 1.000000
336.871521 -536.398499 2.865767 1.000000
336.871521 -536.398499 2.288383 1.000000
336.871521 -536.398499 1.711617 1.000000
336.871521 -536.398499 1.134233 1.000000
336.871521 -536.398499 0.554988 1.000000
337.105194 -536.442566 -0.000018 0.543511
340.939880 -537.165955 -0.000013 0.551888
343.387970 -537.627747 -0.000011 0.545968
345.089508 -537.948669 -0.000009 0.520745
346.343109 -538.185181 -0.000008 0.503044
336.853882 -536.269653 6.424787 1.000000
336.853882 -536.269653 5.815218 1.000000
336.853882 -536.269653 5.214208 1.000000
336.853882 -536.269653 4.620316 1.000000
336.853882 -536.269653 4.032164 1.000000
336.853912 -536.269653 3.448425 1.000000
336.853882 -536.269653 2.867813 1.000000
336.853882 -536.269653 2.289064 1.000000
336.853882 -536.269653 1.710936 1.000000
336.853882 -536.269653 1.132187 1.000000
336.853912 -536.269653 0.551574 1.000000
337.128113 -536.323364 -0.000018 0.529778
340.957642 -537.073486 -0.000014 0.544198
343.402466 -537.552368 -0.000011 0.504585
345.101715 -537.885193 -0.000009 0.520745
346.353638 -538.130432 -0.000008 0.578256
336.836182 -536.140198 6.435482 1.000000
336.836182 -536.140198 5.824441 1.000000
336.836182 -536.140198 5.221977 1.000000
336.836182 -536.140198 4.626651 1.000000
336.836182 -536.140198 4.037077 1.000000
336.836182 -536.140198 3.451926 1.000000
336.836182 -536.140198 2.869910 1.000000
336.836182 -536.140198 2.289763 1.000000
336.836182 -536.140198 1.710237 1.000000
336.836182 -536.140198 1.130089 1.000000
336.836182 -536.140198 0.548073 1.000000
337.151855 -536.204346 -0.000018 0.537774
340.976074 -536.981201 -0.000013 0.524956
343.417480 -537.477112 -0.000011 0.543465
345.114349 -537.821777 -0.000009 0.568109
346.364532 -538.075745 -0.000008 0.560143
336.818359 -536.010132 6.446447 1.000000
336.818359 -536.010132 5.833896 1.000000
336.818359 -536.010132 5.229943 1.000000
336.818359 -536.010132 4.633143 1.000000
336.818359 -536.010132 4.042113 1.000000
336.818359 -536.010132 3.455516 1.000000
336.818359 -536.010132 2.872061 1.000000
336.818359 -536.010132 2.290480 1.000000
336.818359 -536.010132 1.709520 1.000000
336.818359 -536.010132 1.127938 1.000000
336.818359 -536.010132 0.544483 1.000000
337.176453 -536.085510 -0.000017 0.535988
340.995117 -536.888977 -0.000013 0.541863
343.433014 -537.401978 -0.000011 0.503090
345.127441 -537.758484 -0.000009 0.519661
346.375824 -538.021179 -0.000008 0.511666
336.800476 -535.879456 6.457685 1.000000
336.800476 -535.879456 5.843584 1.000000
336.800476 -535.879395 5.238106 1.000000
336.800476 -535.879395 4.639799 1.000000
336.800476 -535.879395 4.047274 1.000000
336.800476 -535.879395 3.459195 1.000000
336.800476 -535.879395 2.874265 1.000000
336.800476 -535.879395 2.291214 1.000000
336.800476 -535.879395 1.708786 1.000000
336.800476 -535.879395 1.125734 1.000000
336.800476 -535.879395 0.540804 1.000000
337.201843 -535.966797 -0.000017 0.544472
341.014832 -536.796936 -0.000013 0.527352
343.449097 -537.326904 -0.000011 0.566476
345.140991 -537.695313 -0.000009 0.568826
346.387482 -537.966675 -0.000008 0.516258
336.782471 -535.748047 6.469198 1.000000
336.782471 -535.748047 5.853511 1.000000
336.782471 -535.748047 5.246469 1.000000
336.782471 -535.748047 4.646616 1.000000
336.782471 -535.748047 4.052561 1.000000
336.782471 -535.748047 3.462964 1.000000
336.782471 -535.748047 2.876523 1.000000
336.782471 -535.748047 2.291965 1.000000
336.782471 -535.748047 1.708034 1.000000
336.782471 -535.748047 1.123477 1.000000
336.782471 -535.748047 0.537036 1.000000
337.228088 -535.848328 -0.000017 0.538338
341.035187 -536.705078 -0.000013 0.529061
343.465668 -537.252014 -0.000011 0.567651
345.154968 -537.632141 -0.000009 0.540368
346.399536 -537.912231 -0.000008 0.527245
336.764404 -535.615967 6.480989 1.000000
336.764404 -535.615967 5.863677 1.000000
336.764404 -535.615967 5.255034 1.000000
336.764404 -535.615967 4.653599 1.000000
336.764404 -535.615967 4.057977 1.000000
336.764404 -535.615967 3.466824 1.000000
336.764404 -535.615967 2.878836 1.000000
336.764404 -535.615967 2.292736 1.000000
336.764404 -535.615967 1.707264 1.000000
336.764404 -535.615967 1.121164 1.000000
336.764404 -535.615967 0.533176 1.000000
337.255157 -535.729980 -0.000018 0.542794
341.056152 -536.613281 -0.000013 0.531014
343.482788 -537.177185 -0.000011 0.555215
345.169373 -537.569153 -0.000009 0.524483
346.411957 -537.857910 -0.000008 0.514366
336.746216 -535.483154 6.493063 1.000000
336.746246 -535.483154 5.874088 1.000000
336.746216 -535.483154 5.263804 1.000000
336.746216 -535.483154 4.660748 1.000000
336.746216 -535.483154 4.063522 1.000000
336.746216 -535.483154 3.470776 1.000000
336.746216 -535.483154 2.881203 1.000000
336.746216 -535.483154 2.293525 1.000000
336.746216 -535.483154 1.706475 1.000000
336.746216 -535.483154 1.118796 1.000000
336.746216 -535.483154 0.529224 1.000000
337.283020 -535.611877 -0.000017 0.540978
341.077789 -536.521667 -0.000013 0.523308
343.500397 -537.102539 -0.000011 0.566293
345.184235 -537.506226 -0.000009 0.538933
346.424774 -537.803650 -0.000008 0.526299
336.727966 -535.349670 6.505421 1.000000
336.727966 -535.349670 5.884745 1.000000
336.727966 -535.349670 5.272781 1.000000
336.727966 -535.349670 4.668068 1.000000
336.727966 -535.349670 4.069198 1.000000
336.727936 -535.349670 3.474821 1.000000
336.727936 -535.349670 2.883628 1.000000
336.727936 -535.349670 2.294333 1.000000
336.727936 -535.349670 1.705668 1.000000
336.727936 -535.349670 1.116372 1.000000
336.727936 -535.349670 0.525178 1.000000
337.311737 -535.493958 -0.000018 0.533242
341.100067 -536.430237 -0.000013 0.546441
343.518555 -537.027954 -0.000011 0.517235
345.199524 -537.443420 -0.000009 0.553872
346.437958 -537.749512 -0.000008 0.509361
336.709564 -535.215393 6.518068 1.000000
336.709564 -535.215393 5.895650 1.000000
336.709564 -535.215393 5.281969 1.000000
336.709564 -535.215393 4.675557 1.000000
336.709564 -535.215393 4.075006 1.000000
336.709564 -535.215393 3.478961 1.000000
336.709564 -535.215393 2.886108 1.000000
336.709564 -535.215393 2.295158 1.000000
336.709564 -535.215393 1.704842 1.000000
336.709564 -535.215393 1.113892 1.000000
336.709564 -535.215393 0.521039 1.000000
337.341278 -535.376221 -0.000017 0.545068
341.122955 -536.338928 -0.000013 0.537499
343.537231 -536.953552 -0.000011 0.561669
345.215240 -537.380676 -0.000009 0.582208
346.451508 -537.695435 -0.000008 0.543191
336.691101 -535.080383 6.531010 1.000000
336.691101 -535.080383 5.906808 1.000000
336.691101 -535.080383 5.291369 1.000000
336.691101 -535.080383 4.683222 1.000000
336.691101 -535.080383 4.080949 1.000000
336.691101 -535.080383 3.483197 1.000000
336.691101 -535.080383 2.888645 1.000000
336.691101 -535.080383 2.296004 1.000000
336.691101 -535.080383 1.703996 1.000000
336.691101 -535.080383 1.111354 1.000000
336.691101 -535.080383 0.516802 1.000000
337.371643 -535.258728 -0.000017 0.537148
341.146515 -536.247803 -0.000013 0.546456
343.556427 -536.879211 -0.000010 0.509468
345.231415 -537.318115 -0.000009 0.526986
346.465454 -537.641479 -0.000008 0.567864
336.672516 -534.944580 6.544246 1.000000
336.672516 -534.944580 5.918220 1.000000
336.672516 -534.944580 5.300984 1.000000
336.672516 -534.944580 4.691059 1.000000
336.672516 -534.944580 4.087029 1.000000
336.672485 -534.944580 3.487531 1.000000
336.672516 -534.944580 2.891242 1.000000
336.672485 -534.944580 2.296868 1.000000
336.672485 -534.944580 1.703132 1.000000
336.672485 -534.944580 1.108758 1.000000
336.672485 -534.944580 0.512469 1.000000
337.402802 -535.141418 -0.000017 0.536980
341.170685 -536.156799 -0.000013 0.566598
343.576141 -536.805054 -0.000011 0.539574
345.248016 -537.255615 -0.000009 0.522591
346.479767 -537.587585 -0.000007 0.544121
336.653809 -534.807983 6.557784 1.000000
336.653809 -534.807983 5.929893 1.000000
336.653809 -534.807983 5.310819 1.000000
336.653809 -534.807983 4.699076 1.000000
336.653809 -534.807983 4.093246 1.000000
336.653809 -534.807983 3.491961 1.000000
336.653809 -534.807983 2.893896 1.000000
336.653809 -534.807983 2.297753 1.000000
336.653809 -534.807983 1.702247 1.000000
336.653809 -534.807983 1.106103 1.000000
336.653809 -534.807983 0.508038 1.000000
337.434784 -535.024292 -0.000017 0.529351
341.195496 -536.066040 -0.000013 0.544671
343.596375 -536.731018 -0.000010 0.544427
345.265045 -537.193298 -0.000009 0.527993
346.494476 -537.533813 -0.000008 0.560204
336.634979 -534.670593 6.571625 1.000000
336.634979 -534.670593 5.941828 1.000000
336.634979 -534.670593 5.320872 1.000000
336.634979 -534.670593 4.707273 1.000000
336.634979 -534.670593 4.099604 1.000000
336.634979 -534.670593 3.496492 1.000000
336.634979 -534.670593 2.896611 1.000000
336.634979 -534.670593 2.298657 1.000000
336.634979 -534.670593 1.701343 1.000000
336.634979 -534.670593 1.103388 1.000000
336.634979 -534.670593 0.503507 1.000000
337.467590 -534.907471 -0.000017 0.541970
341.220947 -535.975403 -0.000013 0.531777
343.617096 -536.657166 -0.000011 0.535546
345.282532 -537.131042 -0.000009 0.553323
346.509552 -537.480164 -0.000007 0.527153
336.616058 -534.532288 6.585775 1.000000
336.616058 -534.532288 5.954029 1.000000
336.616058 -534.532288 5.331152 1.000000
336.616058 -534.532288 4.715652 1.000000
336.616058 -534.532288 4.106101 1.000000
336.616058 -534.532288 3.501124 1.000000
336.616058 -534.532288 2.899387 1.000000
336.616058 -534.532288 2.299582 1.000000
336.616058 -534.532288 1.700418 1.000000
336.616058 -534.532288 1.100613 1.000000
336.616058 -534.532288 0.498875 1.000000
337.501221 -534.790833 -0.000017 0.547311
341.247009 -535.884949 -0.000013 0.551995
343.638367 -536.583435 -0.000011 0.548592
345.300446 -537.068909 -0.000008 0.537209
346.524994 -537.426575 -0.000007 0.569238
336.597015 -534.393188 6.600238 1.000000
336.597015 -534.393188 5.966499 1.000000
336.597015 -534.393188 5.341658 1.000000
336.597015 -534.393188 4.724216 1.000000
336.597015 -534.393188 4.112744 1.000000
336.597015 -534.393188 3.505859 1.000000
336.597015 -534.393188 2.902223 1.000000
336.597015 -534.393188 2.300526 1.000000
336.597015 -534.393188 1.699474 1.000000
336.597015 -534.393188 1.097776 1.000000
336.597015 -534.393188 0.494141 1.000000
337.535675 -534.674438 -0.000017 0.534585
341.273712 -535.794678 -0.000013 0.541222
343.660126 -536.509827 -0.000010 0.531518
345.318787 -537.006897 -0.000008 0.555856
346.540802 -537.373108 -0.000007 0.541527
336.577850 -534.253174 6.615018 1.000000
336.577850 -534.253174 5.979241 1.000000
336.577850 -534.253174 5.352394 1.000000
336.577850 -534.253174 4.732969 1.000000
336.577850 -534.253174 4.119532 1.000000
336.577850 -534.253174 3.510697 1.000000
336.577850 -534.253174 2.905122 1.000000
336.577850 -534.253174 2.301492 1.000000
336.577850 -534.253174 1.698508 1.000000
336.577850 -534.253174 1.094878 1.000000
336.577850 -534.253174 0.489302 1.000000
337.570892 -534.558289 -0.000017 0.544579
341.301056 -535.704590 -0.000013 0.547723
343.682434 -536.436401 -0.000010 0.537163
345.337555 -536.945068 -0.000008 0.534051
346.556976 -537.319824 -0.000007 0.530282
336.558563 -534.112244 6.630120 1.000000
336.558563 -534.112244 5.992264 1.000000
336.558563 -534.112244 5.363364 1.000000
336.558563 -534.112244 4.741912 1.000000
336.558563 -534.112244 4.126468 1.000000
336.558563 -534.112244 3.515640 1.000000
336.558563 -534.112244 2.908084 1.000000
336.558563 -534.112244 2.302478 1.000000
336.558563 -534.112244 1.697522 1.000000
336.558563 -534.112244 1.091916 1.000000
336.558563 -534.112244 0.484359 1.000000
337.606964 -534.442444 -0.000017 0.541405
341.329010 -535.614746 -0.000013 0.537911
343.705200 -536.363159 -0.000010 0.512535
345.356781 -536.883301 -0.000008 0.528252
346.573547 -537.266541 -0.000008 0.527718
336.539124 -533.970337 6.645548 1.000000
336.539154 -533.970337 6.005567 1.000000
336.539124 -533.970337 5.374570 1.000000
336.539124 -533.970337 4.751049 1.000000
336.539124 -533.970337 4.133553 1.000000
336.539124 -533.970337 3.520690 1.000000
336.539124 -533.970337 2.911110 1.000000
336.539124 -533.970337 2.303486 1.000000
336.539124 -533.970337 1.696514 1.000000
336.539124 -533.970337 1.088890 1.000000
336.539124 -533.970337 0.479309 1.000000
337.643829 -534.326782 -0.000017 0.540261
341.357605 -535.525024 -0.000013 0.529747
343.728516 -536.290039 -0.000010 0.543084
345.376404 -536.821716 -0.000008 0.497398
346.590485 -537.213440 -0.000007 0.640009
336.519592 -533.827515 6.661306 1.000000
336.519592 -533.827515 6.019156 1.000000
336.519592 -533.827515 5.386019 1.000000
336.519592 -533.827515 4.760382 1.000000
336.519592 -533.827515 4.140792 1.000000
336.519592 -533.827515 3.525849 1.000000
336.519592 -533.827515 2.914200 1.000000
336.519592 -533.827515 2.304516 1.000000
336.519592 -533.827515 1.695484 1.000000
336.519592 -533.827515 1.085799 1.000000
336.519592 -533.827515 0.474150 1.000000
337.681488 -534.211426 -0.000017 0.555489
341.386810 -535.435547 -0.000013 0.532372
343.752350 -536.217102 -0.000010 0.550835
345.396454 -536.760254 -0.000008 0.536507
346.607788 -537.160461 -0.000007 0.544701
336.499908 -533.683716 6.677401 1.000000
336.499908 -533.683716 6.033032 1.000000
336.499908 -533.683716 5.397710 1.000000
336.499908 -533.683716 4.769913 1.000000
336.499908 -533.683716 4.148184 1.000000
336.499908 -533.683716 3.531117 1.000000
336.499908 -533.683716 2.917357 1.000000
336.499908 -533.683716 2.305567 1.000000
336.499908 -533.683716 1.694432 1.000000
336.499908 -533.683716 1.082643 1.000000
336.499908 -533.683716 0.468882 1.000000
337.719971 -534.096313 -0.000017 0.550668
341.416656 -535.346313 -0.000013 0.529091
343.776672 -536.144287 -0.000010 0.558480
345.416962 -536.698975 -0.000008 0.551522
346.625458 -537.107605 -0.000007 0.511742
336.480072 -533.538940 6.693838 1.000000
336.480072 -533.538940 6.047204 1.000000
336.480072 -533.538940 5.409650 1.000000
336.480072 -533.538940 4.779646 1.000000
336.480072 -533.538940 4.155731 1.000000
336.480072 -533.538940 3.536498 1.000000
336.480072 -533.538940 2.920581 1.000000
336.480072 -533.538940 2.306641 1.000000
336.480072 -533.538940 1.693359 1.000000
336.480072 -533.538940 1.079419 1.000000
336.480072 -533.538940 0.463501 1.000000
337.759247 -533.981445 -0.000017 0.544137
341.447113 -535.257263 -0.000013 0.556588
343.801514 -536.071716 -0.000010 0.517510
345.437897 -536.637817 -0.000008 0.558587
346.643494 -537.054871 -0.000007 0.549249
336.460114 -533.393127 6.710620 1.000000
336.460114 -533.393127 6.061675 1.000000
336.460114 -533.393127 5.421841 1.000000
336.460114 -533.393127 4.789585 1.000000
336.460114 -533.393127 4.163439 1.000000
336.460114 -533.393127 3.541992 1.000000
336.460114 -533.393127 2.923872 1.000000
336.460114 -533.393127 2.307738 1.000000
336.460114 -533.393127 1.692263 1.000000
336.460114 -533.393127 1.076128 1.000000
336.460114 -533.393127 0.458007 1.000000
337.799347 -533.866882 -0.000017 0.532708
341.478210 -535.168396 -0.000012 0.558221
343.826843 -535.999268 -0.000010 0.524071
345.459229 -536.576782 -0.000008 0.543938
346.661896 -537.002258 -0.000007 0.548196
336.440002 -533.246216 6.727753 1.000000
336.440002 -533.246216 6.076448 1.000000
336.440002 -533.246216 5.434287 1.000000
336.440002 -533.246216 4.799731 1.000000
336.440002 -533.246216 4.171309 1.000000
336.440002 -533.246216 3.547601 1.000000
336.440002 -533.246216 2.927233 1.000000
336.440002 -533.246216 2.308857 1.000000
336.440002 -533.246216 1.691143 1.000000
336.440002 -533.246216 1.072767 1.000000
336.440002 -533.246216 0.452398 1.000000
337.840210 -533.752625 -0.000017 0.529870
341.509918 -535.079773 -0.000013 0.529473
343.852692 -535.927002 -0.000010 0.554543
345.481018 -536.515930 -0.000008 0.535714
346.680664 -536.949768 -0.000007 0.563027
336.419769 -533.098267 6.745245 1.000000
336.419739 -533.098267 6.091530 1.000000
336.419739 -533.098267 5.446994 1.000000
336.419739 -533.098267 4.810090 1.000000
336.419739 -533.098267 4.179342 1.000000
336.419739 -533.098267 3.553327 1.000000
336.419739 -533.098267 2.930663 1.000000
336.419739 -533.098267 2.309999 1.000000
336.419739 -533.098267 1.690001 1.000000
336.419739 -533.098267 1.069336 1.000000
336.419739 -533.098267 0.446673 1.000000
337.881897 -533.638611 -0.000016 0.539651
341.542236 -534.991333 -0.000012 0.553903
343.879028 -535.854980 -0.000010 0.547616
345.503204 -536.455200 -0.000008 0.584695
346.699829 -536.897400 -0.000007 0.546304
336.399353 -532.949219 6.763100 1.000000
336.399353 -532.949219 6.106925 1.000000
336.399353 -532.949219 5.459963 1.000000
336.399353 -532.949219 4.820662 1.000000
336.399353 -532.949219 4.187541 1.000000
336.399353 -532.949219 3.559171 1.000000
336.399353 -532.949219 2.934165 1.000000
336.399353 -532.949219 2.311166 1.000000
336.399353 -532.949219 1.688834 1.000000
336.399353 -532.949219 1.065835 1.000000
336.399353 -532.949219 0.440828 1.000000
337.924377 -533.524902 -0.000016 0.551904
341.575165 -534.903198 -0.000012 0.534997
343.905884 -535.783081 -0.000010 0.509743
345.525818 -536.394653 -0.000008 0.535988
346.719330 -536.845215 -0.000007 0.563760
336.378784 -532.799011 6.781324 1.000000
336.378784 -532.799011 6.122637 1.000000
336.378784 -532.799011 5.473200 1.000000
336.378784 -532.799011 4.831455 1.000000
336.378784 -532.799011 4.195910 1.000000
336.378784 -532.799011 3.565136 1.000000
336.378784 -532.799011 2.937739 1.000000
336.378784 -532.799011 2.312356 1.000000
336.378784 -532.799011 1.687644 1.000000
336.378784 -532.799011 1.062261 1.000000
336.378784 -532.799011 0.434863 1.000000
337.967651 -533.411499 -0.000016 0.543481
341.608734 -534.815247 -0.000012 0.553887
343.933258 -535.711365 -0.000010 0.578515
345.548859 -536.334229 -0.000008 0.560708
346.739197 -536.793091 -0.000007 0.555200
336.358063 -532.647644 6.799922 1.000000
336.358063 -532.647644 6.138674 1.000000
336.358063 -532.647644 5.486711 1.000000
336.358063 -532.647644 4.842468 1.000000
336.358063 -532.647644 4.204453 1.000000
336.358063 -532.647644 3.571224 1.000000
336.358063 -532.647644 2.941386 1.000000
336.358063 -532.647644 2.313571 1.000000
336.358063 -532.647644 1.686429 1.000000
336.358063 -532.647644 1.058613 1.000000
336.358063 -532.647644 0.428775 1.000000
338.011688 -533.298401 -0.000016 0.545480
341.642883 -534.727539 -0.000012 0.524163
343.961090 -535.639893 -0.000010 0.551843
345.572327 -536.273987 -0.000008 0.549828
346.759430 -536.741150 -0.000007 0.539696
336.337189 -532.495056 6.818900 1.000000
336.337189 -532.495056 6.155038 1.000000
336.337189 -532.495056 5.500497 1.000000
336.337189 -532.495056 4.853707 1.000000
336.337189 -532.495056 4.213169 1.000000
336.337189 -532.495056 3.577437 1.000000
336.337189 -532.495056 2.945108 1.000000
336.337189 -532.495056 2.314811 1.000000
336.337189 -532.495056 1.685189 1.000000
336.337189 -532.495056 1.054891 1.000000
336.337189 -532.495056 0.422562 1.000000
338.056519 -533.185669 -0.000016 0.532509
341.677673 -534.640076 -0.000012 0.547173
343.989441 -535.568542 -0.000010 0.529763
345.596222 -536.213928 -0.000008 0.552636
346.780029 -536.689392 -0.000007 0.548898
336.316132 -532.341309 6.838267 1.000000
336.316132 -532.341309 6.171738 1.000000
336.316132 -532.341309 5.514564 1.000000
336.316132 -532.341309 4.865175 1.000000
336.316132 -532.341309 4.222063 1.000000
336.316132 -532.341309 3.583776 1.000000
336.316132 -532.341309 2.948907 1.000000
336.316132 -532.341309 2.316076 1.000000
336.316132 -532.341309 1.683923 1.000000
336.316132 -532.341309 1.051093 1.000000
336.316132 -532.341309 0.416223 1.000000
338.102173 -533.073181 -0.000016 0.528847
341.713043 -534.552856 -0.000012 0.520409
344.018311 -535.497437 -0.000010 0.513207
345.620514 -536.153992 -0.000008 0.543145
346.800964 -536.637695 -0.000007 0.532891
336.294922 -532.186279 6.858027 1.000000
336.294922 -532.186279 6.188775 1.000000
336.294922 -532.186279 5.528919 1.000000
336.294922 -532.186279 4.876878 1.000000
336.294922 -532.186279 4.231139 1.000000
336.294922 -532.186279 3.590245 1.000000
336.294922 -532.186279 2.952782 1.000000
336.294922 -532.186279 2.317368 1.000000
336.294922 -532.186279 1.682633 1.000000
336.294922 -532.186279 1.047217 1.000000
336.294922 -532.186279 0.409754 1.000000
338.148560 -532.961060 -0.000016 0.531594
341.749054 -534.465881 -0.000012 0.564111
344.047638 -535.426575 -0.000010 0.538476
345.645233 -536.094299 -0.000008 0.546304
346.822296 -536.586243 -0.000006 0.560037
336.273529 -532.029968 6.878189 1.000000
336.273529 -532.029968 6.206159 1.000000
336.273529 -532.029968 5.543564 1.000000
336.273499 -532.029968 4.888818 1.000000
336.273529 -532.029968 4.240398 1.000000
336.273529 -532.029968 3.596844 1.000000
336.273529 -532.029968 2.956737 1.000000
336.273499 -532.029968 2.318684 1.000000
336.273499 -532.029968 1.681316 1.000000
336.273499 -532.029968 1.043263 1.000000
336.273499 -532.029968 0.403155 1.000000
338.195770 -532.849182 -0.000016 0.534768
341.785645 -534.379150 -0.000012 0.537102
344.077484 -535.355835 -0.000010 0.543526
345.670380 -536.034729 -0.000008 0.547646
346.843964 -536.534851 -0.000006 0.537987
336.251953 -531.872375 6.898757 1.000000
336.251953 -531.872375 6.223894 1.000000
336.251953 -531.872375 5.558505 1.000000
336.251953 -531.872375 4.900998 1.000000
336.251953 -531.872375 4.249844 1.000000
336.251953 -531.872375 3.603577 1.000000
336.251953 -531.872375 2.960770 1.000000
336.251953 -531.872375 2.320028 1.000000
336.251953 -531.872375 1.679972 1.000000
336.251953 -531.872375 1.039229 1.000000
336.251953 -531.872375 0.396422 1.000000
338.243744 -532.737732 -0.000016 0.529229
341.822845 -534.292664 -0.000012 0.521996
344.107819 -535.285339 -0.000010 0.537453
345.695923 -535.975342 -0.000008 0.563821
346.865997 -536.483643 -0.000006 0.533196
336.230194 -531.713440 6.919740 1.000000
336.230194 -531.713440 6.241988 1.000000
336.230194 -531.713440 5.573749 1.000000
336.230194 -531.713440 4.913424 1.000000
336.230194 -531.713440 4.259482 1.000000
336.230194 -531.713440 3.610446 1.000000
336.230164 -531.713440 2.964886 1.000000
336.230164 -531.713440 2.321399 1.000000
336.230164 -531.713440 1.678601 1.000000
336.230164 -531.713440 1.035113 1.000000
336.230164 -531.713440 0.389553 1.000000
338.292480 -532.626587 -0.000016 0.557687
341.860657 -534.206482 -0.000012 0.528298
344.138641 -535.215088 -0.000010 0.523552
345.721924 -535.916138 -0.000007 0.538399
346.888397 -536.432617 -0.000006 0.523262
336.208221 -531.553101 6.941148 1.000000
336.208252 -531.553101 6.260444 1.000000
336.208221 -531.553101 5.589298 1.000000
336.208252 -531.553101 4.926101 1.000000
336.208221 -531.553101 4.269313 1.000000
336.208221 -531.553101 3.617454 1.000000
336.208221 -531.553101 2.969085 1.000000
336.208221 -531.553101 2.322798 1.000000
336.208221 -531.553101 1.677202 1.000000
336.208221 -531.553101 1.030915 1.000000
336.208221 -531.553101 0.382545 1.000000
338.342010 -532.515747 -0.000016 0.557839
341.899078 -534.120544 -0.000012 0.537926
344.169952 -535.145020 -0.000009 0.528359
345.748291 -535.857117 -0.000007 0.550515
346.911133 -536.381714 -0.000006 0.557809
336.186096 -531.391357 6.962986 1.000000
336.186096 -531.391357 6.279274 1.000000
336.186096 -531.391357 5.605162 1.000000
336.186096 -531.391357 4.939033 1.000000
336.186096 -531.391357 4.279343 1.000000
336.186096 -531.391357 3.624602 1.000000
336.186096 -531.391357 2.973367 1.000000
336.186096 -531.391357 2.324224 1.000000
336.186096 -531.391357 1.675776 1.000000
336.186096 -531.391357 1.026632 1.000000
336.186096 -531.391357 0.375397 1.000000
338.392334 -532.405334 -0.000016 0.540627
341.938080 -534.034851 -0.000012 0.542000
344.201752 -535.075195 -0.000010 0.545968
345.775085 -535.798279 -0.000007 0.543557
346.934235 -536.330994 -0.000006 0.556039
336.163757 -531.228210 6.985260 1.000000
336.163757 -531.228210 6.298479 1.000000
336.163757 -531.228210 5.621341 1.000000
336.163757 -531.228210 4.952224 1.000000
336.163757 -531.228210 4.289572 1.000000
336.163757 -531.228210 3.631893 1.000000
336.163757 -531.228210 2.977736 1.000000
336.163757 -531.228210 2.325679 1.000000
336.163757 -531.228210 1.674321 1.000000
336.163757 -531.228210 1.022264 1.000000
336.163757 -531.228210 0.368106 1.000000
338.443390 -532.295227 -0.000016 0.532921
341.977692 -533.949463 -0.000012 0.537804
344.234039 -535.005554 -0.000010 0.559533
345.802277 -535.739624 -0.000007 0.528771
346.957703 -536.280396 -0.000006 0.545144
336.141205 -531.063538 7.007980 1.000000
336.141205 -531.063538 6.318069 1.000000
336.141205 -531.063538 5.637846 1.000000
336.141205 -531.063538 4.965678 1.000000
336.141205 -531.063538 4.300008 1.000000
336.141205 -531.063538 3.639330 1.000000
336.141205 -531.063538 2.982192 1.000000
336.141205 -531.063538 2.327164 1.000000
336.141205 -531.063538 1.672836 1.000000
336.141205 -531.063538 1.017808 1.000000
336.141205 -531.063538 0.360669 1.000000
338.495209 -532.185425 -0.000016 0.529564
342.017883 -533.864380 -0.000012 0.552346
344.266815 -534.936218 -0.000009 0.546670
345.829895 -535.681152 -0.000007 0.554833
346.981506 -536.230042 -0.000006 0.507027
336.118469 -530.897339 7.031153 1.000000
336.118469 -530.897339 6.338052 1.000000
336.118469 -530.897339 5.654680 1.000000
336.118469 -530.897339 4.979402 1.000000
336.118469 -530.897339 4.310650 1.000000
336.118469 -530.897339 3.646917 1.000000
336.118469 -530.897339 2.986738 1.000000
336.118469 -530.897339 2.328677 1.000000
336.118469 -530.897339 1.671322 1.000000
336.118469 -530.897339 1.013262 1.000000
336.118469 -530.897339 0.353082 1.000000
338.547821 -532.076050 -0.000016 0.555016
342.058685 -533.779541 -0.000012 0.553155
344.300079 -534.867065 -0.000009 0.519051
345.857910 -535.622925 -0.000007 0.539086
347.005646 -536.179810 -0.000006 0.505455
336.095520 -530.729614 7.054791 1.000000
336.095520 -530.729614 6.358434 1.000000
336.095520 -530.729614 5.671851 1.000000
336.095490 -530.729614 4.993401 1.000000
336.095520 -530.729614 4.321507 1.000000
336.095520 -530.729614 3.654654 1.000000
336.095490 -530.729614 2.991373 1.000000
336.095490 -530.729614 2.330222 1.000000
336.095490 -530.729614 1.669778 1.000000
336.095490 -530.729614 1.008626 1.000000
336.095490 -530.729614 0.345345 1.000000
338.601196 -531.967041 -0.000016 0.529747
342.100067 -533.695007 -0.000012 0.542535
344.333801 -534.798096 -0.000009 0.565682
345.886322 -535.564819 -0.000007 0.537575
347.030151 -536.129700 -0.000006 0.541390
336.072327 -530.560303 7.078902 1.000000
336.072327 -530.560303 6.379222 1.000000
336.072327 -530.560303 5.689364 1.000000
336.072327 -530.560303 5.007678 1.000000
336.072327 -530.560303 4.332579 1.000000
336.072327 -530.560303 3.662547 1.000000
336.072327 -530.560303 2.996102 1.000000
336.072327 -530.560303 2.331796 1.000000
336.072327 -530.560303 1.668203 1.000000
336.072327 -530.560303 1.003898 1.000000
336.072327 -530.560303 0.337453 1.000000
338.655304 -531.858398 -0.000015 0.534340
342.142059 -533.610718 -0.000011 0.559335
344.368042 -534.729431 -0.000009 0.539055
345.915161 -535.506958 -0.000007 0.535607
347.055023 -536.079834 -0.000006 0.551125
336.048920 -530.389343 7.103493 1.000000
336.048920 -530.389343 6.400424 1.000000
336.048920 -530.389343 5.707227 1.000000
336.048920 -530.389343 5.022240 1.000000
336.048920 -530.389343 4.343873 1.000000
336.048920 -530.389343 3.670596 1.000000
336.048920 -530.389343 3.000924 1.000000
336.048920 -530.389343 2.333403 1.000000
336.048920 -530.389343 1.666597 1.000000
336.048920 -530.389343 0.999075 1.000000
336.048920 -530.389343 0.329403 1.000000
338.710205 -531.750183 -0.000015 0.549325
342.184601 -533.526794 -0.000012 0.519142
344.402710 -534.661011 -0.000009 0.530999
345.944397 -535.449341 -0.000007 0.534218
347.080231 -536.030090 -0.000005 0.559548
336.025299 -530.216736 7.128573 1.000000
336.025299 -530.216736 6.422050 1.000000
336.025299 -530.216736 5.725446 1.000000
336.025299 -530.216736 5.037094 1.000000
336.025299 -530.216736 4.355392 1.000000
336.025299 -530.216736 3.678806 1.000000
336.025299 -530.216736 3.005844 1.000000
336.025299 -530.216736 2.335041 1.000000
336.025299 -530.216736 1.664958 1.000000
336.025299 -530.216736 0.994156 1.000000
336.025299 -530.216736 0.321193 1.000000
338.765839 -531.642273 -0.000015 0.543175
342.227753 -533.443115 -0.000012 0.522606
344.437897 -534.592773 -0.000009 0.524849
345.974030 -535.391846 -0.000007 0.544335
347.105774 -535.980591 -0.000006 0.520684
336.001434 -530.042419 7.154154 1.000000
336.001434 -530.042419 6.444107 1.000000
336.001434 -530.042419 5.744028 1.000000
336.001434 -530.042419 5.052241 1.000000
336.001434 -530.042419 4.367141 1.000000
336.001434 -530.042419 3.687181 1.000000
336.001434 -530.042419 3.010861 1.000000
336.001434 -530.042419 2.336713 1.000000
336.001434 -530.042419 1.663287 1.000000
336.001434 -530.042419 0.989139 1.000000
336.001434 -530.042419 0.312819 1.000000
338.822205 -531.534851 -0.000015 0.542062
342.271484 -533.359741 -0.000011 0.569238
344.473541 -534.524841 -0.000009 0.531792
346.004059 -535.334595 -0.000007 0.535988
347.131683 -535.931213 -0.000005 0.548394
335.977325 -529.866272 7.180248 1.000000
335.977325 -529.866333 6.466604 1.000000
335.977325 -529.866333 5.762981 1.000000
335.977325 -529.866272 5.067693 1.000000
335.977325 -529.866272 4.379123 1.000000
335.977325 -529.866272 3.695721 1.000000
335.977325 -529.866272 3.015978 1.000000
335.977325 -529.866272 2.338418 1.000000
335.977325 -529.866272 1.661582 1.000000
335.977325 -529.866272 0.984022 1.000000
335.977325 -529.866272 0.304278 1.000000
338.879333 -531.427734 -0.000015 0.532967
342.315796 -533.276733 -0.000012 0.516686
344.509674 -534.457153 -0.000009 0.568887
346.034485 -535.277588 -0.000007 0.554192
347.157898 -535.882019 -0.000006 0.539742
335.952972 -529.688416 7.206858 1.000000
335.952972 -529.688416 6.489551 1.000000
335.952972 -529.688416 5.782313 1.000000
335.952972 -529.688416 5.083452 1.000000
335.952972 -529.688416 4.391346 1.000000
335.952972 -529.688416 3.704433 1.000000
335.952972 -529.688416 3.021197 1.000000
335.952972 -529.688416 2.340156 1.000000
335.952972 -529.688416 1.659844 1.000000
335.952972 -529.688416 0.978802 1.000000
335.952972 -529.688416 0.295567 1.000000
338.937225 -531.321045 -0.000015 0.524193
342.360687 -533.193970 -0.000011 0.531243
344.546265 -534.389709 -0.000008 0.515007
346.065308 -535.220764 -0.000007 0.543694
347.184479 -535.833008 -0.000005 0.546548
335.928375 -529.508667 7.234001 1.000000
335.928375 -529.508667 6.512954 1.000000
335.928375 -529.508667 5.802031 1.000000
335.928375 -529.508667 5.099526 1.000000
335.928375 -529.508667 4.403812 1.000000
335.928375 -529.508667 3.713318 1.000000
335.928375 -529.508667 3.026520 1.000000
335.928375 -529.508667 2.341929 1.000000
335.928375 -529.508667 1.658071 1.000000
335.928375 -529.508667 0.973479 1.000000
335.928345 -529.508667 0.286681 1.000000
338.995850 -531.214783 -0.000015 0.537591
342.406158 -533.111572 -0.000011 0.540764
344.583344 -534.322510 -0.000009 0.536187
346.096558 -535.164124 -0.000007 0.531319
347.211426 -535.784241 -0.000005 0.530007
335.903503 -529.327026 7.261688 1.000000
335.903503 -529.327026 6.536827 1.000000
335.903503 -529.327026 5.822141 1.000000
335.903503 -529.327026 5.115921 1.000000
335.903503 -529.327026 4.416527 1.000000
335.903503 -529.327026 3.722381 1.000000
335.903503 -529.327026 3.031950 1.000000
335.903503 -529.327026 2.343738 1.000000
335.903503 -529.327026 1.656262 1.000000
335.903503 -529.327026 0.968049 1.000000
335.903503 -529.327026 0.277619 1.000000
339.055206 -531.108948 -0.000015 0.535958
342.452209 -533.029480 -0.000011 0.531182
344.620880 -534.255554 -0.000008 0.540902
346.128174 -535.107727 -0.000007 0.523323
347.238678 -535.735596 -0.000005 0.551797
335.878357 -529.143433 7.289928 1.000000
335.878357 -529.143433 6.561176 1.000000
335.878357 -529.143433 5.842655 1.000000
335.878357 -529.143433 5.132646 1.000000
335.878357 -529.143433 4.429497 1.000000
335.878357 -529.143433 3.731625 1.000000
335.878357 -529.143433 3.037489 1.000000
335.878357 -529.143433 2.345583 1.000000
335.878357 -529.143433 1.654417 1.000000
335.878357 -529.143433 0.962511 1.000000
335.878357 -529.143433 0.268374 1.000000
339.115326 -531.003479 -0.000015 0.543145
342.498810 -532.947693 -0.000011 0.546868
344.658875 -534.188904 -0.000008 0.522515
346.160187 -535.051575 -0.000007 0.524208
347.266296 -535.687195 -0.000005 0.521950
335.852966 -528.957886 7.318732 1.000000
335.852966 -528.957886 6.586011 1.000000
335.852966 -528.957886 5.863579 1.000000
335.852966 -528.957886 5.149703 1.000000
335.852966 -528.957886 4.442725 1.000000
335.852966 -528.957886 3.741054 1.000000
335.852966 -528.957886 3.043139 1.000000
335.852966 -528.957886 2.347464 1.000000
335.852966 -528.957886 1.652535 1.000000
335.852966 -528.957886 0.956862 1.000000
335.852966 -528.957886 0.258946 1.000000
