# This PCD file was generated using the MATLABÂ® pcwrite function
# from Computer Vision ToolboxÂ®.
# .PCD v.7 - Point Cloud Data file format
VERSION .7
FIELDS x y z intensity
SIZE 4 4 4 4
TYPE F F F F
COUNT 1 1 1 1
WIDTH 1175
HEIGHT 1
VIEWPOINT 0 0 0 1 0 0 0
POINTS 1175
DATA ascii
309.888153 -558.298462 6.688261 1.000000
309.888153 -558.298462 5.949721 1.000000
309.888153 -558.298462 5.219927 1.000000
309.888153 -558.298462 4.497188 1.000000
309.888153 -558.298462 3.779871 1.000000
309.888153 -558.298462 3.066396 1.000000
309.888153 -558.298462 2.355211 1.000000
309.888153 -558.298462 1.644789 1.000000
309.888153 -558.298462 0.933604 1.000000
309.888153 -558.298462 0.220128 1.000000
309.947998 -562.620117 0.000027 0.536324
310.001984 -566.521912 0.000024 0.547021
310.036469 -569.012878 0.000019 0.547723
310.060425 -570.744202 0.000017 0.523110
310.078094 -572.019714 0.000014 0.576425
310.043274 -558.818420 7.306674 1.000000
310.043274 -558.818420 6.575615 1.000000
310.043274 -558.818420 5.854819 1.000000
310.043274 -558.818420 5.142562 1.000000
310.043274 -558.818420 4.437187 1.000000
310.043274 -558.818420 3.737106 1.000000
310.043274 -558.818420 3.040774 1.000000
310.043274 -558.818420 2.346677 1.000000
310.043274 -558.818420 1.653324 1.000000
310.043274 -558.818420 0.959226 1.000000
310.043274 -558.818420 0.262894 1.000000
310.069336 -562.618835 0.000027 0.570123
310.096130 -566.520935 0.000024 0.556725
310.113190 -569.012085 0.000019 0.527993
310.125092 -570.743530 0.000016 0.553841
310.133820 -572.019165 0.000015 0.525383
310.191132 -559.314026 7.182411 1.000000
310.191132 -559.314026 6.468471 1.000000
310.191132 -559.314026 5.764554 1.000000
310.191132 -559.314026 5.068974 1.000000
310.191132 -559.314026 4.380117 1.000000
310.191132 -559.314026 3.696430 1.000000
310.191132 -559.314026 3.016402 1.000000
310.191132 -559.314026 2.338559 1.000000
310.191132 -559.314026 1.661441 1.000000
310.191132 -559.314026 0.983598 1.000000
310.191132 -559.314026 0.303570 1.000000
310.190704 -562.618469 0.000027 0.549081
310.190247 -566.520630 0.000023 0.543099
310.189941 -569.011780 0.000019 0.541680
310.189728 -570.743286 0.000017 0.558755
310.189575 -572.018982 0.000014 0.531182
310.332214 -559.786987 7.064072 1.000000
310.332214 -559.786987 6.366434 1.000000
310.332214 -559.786987 5.678589 1.000000
310.332214 -559.786987 4.998895 1.000000
310.332214 -559.786987 4.325768 1.000000
310.332214 -559.786987 3.657692 1.000000
310.332214 -559.786926 2.993193 1.000000
310.332214 -559.786987 2.330828 1.000000
310.332214 -559.786987 1.669172 1.000000
310.332214 -559.786926 1.006807 1.000000
310.332214 -559.786987 0.342308 1.000000
310.312073 -562.618896 0.000027 0.554925
310.284363 -566.520935 0.000024 0.555825
310.266663 -569.012085 0.000019 0.496254
310.254364 -570.743530 0.000017 0.525505
310.245300 -572.019165 0.000014 0.556008
310.466980 -560.238770 6.951256 1.000000
310.466980 -560.238770 6.269161 1.000000
310.466980 -560.238770 5.596642 1.000000
310.466980 -560.238770 4.932087 1.000000
310.466980 -560.238770 4.273956 1.000000
310.466980 -560.238770 3.620763 1.000000
310.466980 -560.238770 2.971066 1.000000
310.466980 -560.238770 2.323458 1.000000
310.466980 -560.238770 1.676542 1.000000
310.466980 -560.238770 1.028933 1.000000
310.466980 -560.238770 0.379237 1.000000
310.433441 -562.620178 0.000027 0.550637
310.378479 -566.521973 0.000023 0.546395
310.343414 -569.012878 0.000019 0.548577
310.319031 -570.744202 0.000016 0.532189
310.301056 -572.019775 0.000014 0.550881
310.595917 -560.670959 6.843587 1.000000
310.595917 -560.670959 6.176324 1.000000
310.595917 -560.670959 5.518428 1.000000
310.595917 -560.670959 4.868325 1.000000
310.595917 -560.670959 4.224506 1.000000
310.595917 -560.670959 3.585518 1.000000
310.595917 -560.670959 2.949950 1.000000
310.595917 -560.670959 2.316424 1.000000
310.595917 -560.670959 1.683576 1.000000
310.595917 -560.670959 1.050050 1.000000
310.595917 -560.670959 0.414482 1.000000
310.554810 -562.622314 0.000027 0.538552
310.472595 -566.523621 0.000023 0.525521
310.420135 -569.014221 0.000020 0.513863
310.383667 -570.745361 0.000016 0.536904
310.356781 -572.020752 0.000014 0.570809
310.719360 -561.084778 6.740727 1.000000
310.719360 -561.084778 6.087634 1.000000
310.719360 -561.084778 5.443710 1.000000
310.719360 -561.084778 4.807413 1.000000
310.719360 -561.084778 4.177266 1.000000
310.719360 -561.084778 3.551847 1.000000
310.719360 -561.084778 2.929777 1.000000
310.719360 -561.084778 2.309704 1.000000
310.719360 -561.084778 1.690296 1.000000
310.719360 -561.084778 1.070223 1.000000
310.719360 -561.084778 0.448152 1.000000
310.676117 -562.625305 0.000027 0.528069
310.566711 -566.525940 0.000024 0.535027
310.496826 -569.016113 0.000020 0.543313
310.448273 -570.746948 0.000017 0.565225
310.412506 -572.022095 0.000015 0.552041
310.837646 -561.481323 6.642368 1.000000
310.837646 -561.481323 6.002826 1.000000
310.837646 -561.481323 5.372261 1.000000
310.837646 -561.481323 4.749166 1.000000
310.837646 -561.481323 4.132093 1.000000
310.837646 -561.481323 3.519650 1.000000
310.837646 -561.481323 2.910486 1.000000
310.837646 -561.481323 2.303279 1.000000
310.837646 -561.481323 1.696721 1.000000
310.837646 -561.481323 1.089514 1.000000
310.837646 -561.481323 0.480349 1.000000
310.797455 -562.629089 0.000027 0.535378
310.660767 -566.528870 0.000024 0.511833
310.573547 -569.018555 0.000020 0.545037
310.512909 -570.748962 0.000016 0.546761
310.468231 -572.023865 0.000015 0.557885
310.959991 -561.651978 6.600843 1.000000
310.959991 -561.651978 5.967021 1.000000
310.959991 -561.651978 5.342097 1.000000
310.959991 -561.651978 4.724576 1.000000
310.959991 -561.651978 4.113021 1.000000
310.959991 -561.651978 3.506057 1.000000
310.959991 -561.651978 2.902342 1.000000
310.959991 -561.651978 2.300565 1.000000
310.959991 -561.651978 1.699434 1.000000
310.959991 -561.651978 1.097657 1.000000
310.959991 -561.651978 0.493942 1.000000
310.918732 -562.633789 0.000027 0.535821
310.754852 -566.532532 0.000024 0.548012
310.650208 -569.021484 0.000020 0.550500
310.577484 -570.751465 0.000016 0.555840
310.523926 -572.026001 0.000015 0.515846
311.090118 -561.616638 6.611168 1.000000
311.090118 -561.616638 5.975924 1.000000
311.090118 -561.616638 5.349597 1.000000
311.090118 -561.616638 4.730690 1.000000
311.090118 -561.616638 4.117764 1.000000
311.090118 -561.616638 3.509437 1.000000
311.090118 -561.616638 2.904367 1.000000
311.090118 -561.616638 2.301240 1.000000
311.090118 -561.616638 1.698760 1.000000
311.090118 -561.616638 1.095633 1.000000
311.090118 -561.616638 0.490563 1.000000
311.039978 -562.639282 0.000026 0.522499
310.848877 -566.536804 0.000024 0.530083
310.726868 -569.024963 0.000019 0.562936
310.642090 -570.754395 0.000016 0.579522
310.579620 -572.028564 0.000014 0.536797
311.220825 -561.581116 6.621763 1.000000
311.220825 -561.581116 5.985060 1.000000
311.220825 -561.581116 5.357295 1.000000
311.220825 -561.581116 4.736964 1.000000
311.220825 -561.581116 4.122630 1.000000
311.220825 -561.581116 3.512905 1.000000
311.220825 -561.581116 2.906445 1.000000
311.220825 -561.581116 2.301932 1.000000
311.220825 -561.581116 1.698067 1.000000
311.220825 -561.581116 1.093555 1.000000
311.220825 -561.581116 0.487094 1.000000
311.161163 -562.645691 0.000026 0.540841
310.942871 -566.541748 0.000024 0.508629
310.803497 -569.028992 0.000020 0.538949
310.706635 -570.757813 0.000016 0.563470
310.635284 -572.031494 0.000015 0.542229
311.352142 -561.545471 6.632635 1.000000
311.352142 -561.545471 5.994432 1.000000
311.352142 -561.545471 5.365191 1.000000
311.352142 -561.545471 4.743402 1.000000
311.352142 -561.545471 4.127623 1.000000
311.352142 -561.545471 3.516464 1.000000
311.352142 -561.545471 2.908577 1.000000
311.352142 -561.545471 2.302643 1.000000
311.352142 -561.545471 1.697357 1.000000
311.352142 -561.545471 1.091423 1.000000
311.352142 -561.545471 0.483536 1.000000
311.282318 -562.652893 0.000027 0.545968
311.036835 -566.547302 0.000023 0.554345
310.880096 -569.033569 0.000019 0.538552
310.771179 -570.761658 0.000016 0.544579
310.690918 -572.034790 0.000015 0.559442
311.484070 -561.509644 6.643784 1.000000
311.484070 -561.509644 6.004046 1.000000
311.484070 -561.509644 5.373290 1.000000
311.484070 -561.509644 4.750004 1.000000
311.484070 -561.509644 4.132743 1.000000
311.484070 -561.509644 3.520113 1.000000
311.484070 -561.509644 2.910764 1.000000
311.484070 -561.509644 2.303371 1.000000
311.484070 -561.509644 1.696629 1.000000
311.484070 -561.509644 1.089236 1.000000
311.484070 -561.509644 0.479887 1.000000
311.403412 -562.660950 0.000027 0.531777
311.130737 -566.553589 0.000023 0.555520
310.956665 -569.038696 0.000019 0.523796
310.835663 -570.765930 0.000017 0.540703
310.746521 -572.038513 0.000015 0.536507
311.616669 -561.473633 6.655215 1.000000
311.616669 -561.473633 6.013901 1.000000
311.616669 -561.473633 5.381594 1.000000
311.616669 -561.473633 4.756773 1.000000
311.616669 -561.473633 4.137993 1.000000
311.616669 -561.473633 3.523854 1.000000
311.616638 -561.473633 2.913005 1.000000
311.616669 -561.473633 2.304118 1.000000
311.616669 -561.473633 1.695882 1.000000
311.616638 -561.473633 1.086995 1.000000
311.616669 -561.473633 0.476145 1.000000
311.524475 -562.669861 0.000026 0.541756
311.224609 -566.560486 0.000023 0.530236
311.033203 -569.044312 0.000019 0.540978
310.900146 -570.770691 0.000017 0.525795
310.802124 -572.042603 0.000014 0.521492
311.749908 -561.437439 6.666929 1.000000
311.749908 -561.437439 6.024002 1.000000
311.749908 -561.437439 5.390102 1.000000
311.749908 -561.437439 4.763711 1.000000
311.749908 -561.437439 4.143373 1.000000
311.749908 -561.437439 3.527690 1.000000
311.749908 -561.437439 2.915303 1.000000
311.749908 -561.437439 2.304883 1.000000
311.749908 -561.437439 1.695117 1.000000
311.749908 -561.437439 1.084697 1.000000
311.749908 -561.437439 0.472310 1.000000
311.645447 -562.679565 0.000026 0.545083
311.318451 -566.568054 0.000023 0.555367
311.109680 -569.050476 0.000020 0.540032
310.964600 -570.775879 0.000016 0.551431
310.857697 -572.047058 0.000014 0.548745
311.883820 -561.401123 6.678931 1.000000
311.883820 -561.401123 6.034352 1.000000
311.883820 -561.401123 5.398821 1.000000
311.883820 -561.401123 4.770819 1.000000
311.883820 -561.401123 4.148886 1.000000
311.883820 -561.401123 3.531618 1.000000
311.883820 -561.401123 2.917657 1.000000
311.883820 -561.401123 2.305667 1.000000
311.883820 -561.401123 1.694333 1.000000
311.883820 -561.401123 1.082343 1.000000
311.883820 -561.401123 0.468381 1.000000
311.766357 -562.690186 0.000026 0.532769
311.412201 -566.576233 0.000024 0.562936
311.186127 -569.057190 0.000020 0.567300
311.028992 -570.781494 0.000016 0.528481
310.913208 -572.051941 0.000015 0.557992
312.018433 -561.364563 6.691225 1.000000
312.018433 -561.364563 6.044951 1.000000
312.018433 -561.364563 5.407751 1.000000
312.018433 -561.364563 4.778098 1.000000
312.018433 -561.364563 4.154531 1.000000
312.018433 -561.364563 3.535643 1.000000
312.018433 -561.364563 2.920068 1.000000
312.018433 -561.364563 2.306470 1.000000
312.018433 -561.364563 1.693530 1.000000
312.018433 -561.364563 1.079932 1.000000
312.018433 -561.364563 0.464357 1.000000
311.887177 -562.701599 0.000026 0.542611
311.505920 -566.585144 0.000023 0.517143
311.262512 -569.064392 0.000020 0.538705
311.093353 -570.787598 0.000016 0.510765
310.968719 -572.057190 0.000014 0.534279
312.153778 -561.327820 6.703813 1.000000
312.153778 -561.327820 6.055805 1.000000
312.153778 -561.327820 5.416895 1.000000
312.153778 -561.327820 4.785553 1.000000
312.153778 -561.327820 4.160313 1.000000
312.153778 -561.327759 3.539763 1.000000
312.153778 -561.327820 2.922537 1.000000
312.153778 -561.327820 2.307293 1.000000
312.153778 -561.327820 1.692707 1.000000
312.153778 -561.327820 1.077463 1.000000
312.153778 -561.327820 0.460236 1.000000
312.007935 -562.713867 0.000026 0.542733
311.599579 -566.594666 0.000024 0.523339
311.338867 -569.072144 0.000019 0.533089
311.157654 -570.794128 0.000017 0.542397
311.024170 -572.062805 0.000014 0.505791
312.289856 -561.290833 6.716700 1.000000
312.289856 -561.290833 6.066917 1.000000
312.289856 -561.290833 5.426257 1.000000
312.289856 -561.290833 4.793185 1.000000
312.289856 -561.290833 4.166232 1.000000
312.289856 -561.290833 3.543981 1.000000
312.289856 -561.290833 2.925064 1.000000
312.289856 -561.290833 2.308135 1.000000
312.289856 -561.290833 1.691865 1.000000
312.289856 -561.290833 1.074935 1.000000
312.289856 -561.290833 0.456018 1.000000
312.128571 -562.727051 0.000026 0.548821
311.693146 -566.604797 0.000023 0.514305
311.415161 -569.080444 0.000019 0.554589
311.221924 -570.801147 0.000016 0.527642
311.079590 -572.068848 0.000015 0.552850
312.426666 -561.253662 6.729889 1.000000
312.426666 -561.253662 6.078289 1.000000
312.426666 -561.253662 5.435837 1.000000
312.426666 -561.253662 4.800995 1.000000
312.426666 -561.253662 4.172288 1.000000
312.426666 -561.253662 3.548299 1.000000
312.426666 -561.253662 2.927651 1.000000
312.426666 -561.253662 2.308996 1.000000
312.426666 -561.253662 1.691004 1.000000
312.426666 -561.253662 1.072349 1.000000
312.426666 -561.253662 0.451701 1.000000
312.249146 -562.740967 0.000026 0.548623
311.786652 -566.615662 0.000023 0.535546
311.491364 -569.089294 0.000019 0.544457
311.286133 -570.808533 0.000016 0.534813
311.134949 -572.075256 0.000015 0.519402
312.564270 -561.216309 6.743382 1.000000
312.564270 -561.216309 6.089923 1.000000
312.564270 -561.216309 5.445639 1.000000
312.564270 -561.216309 4.808986 1.000000
312.564270 -561.216309 4.178486 1.000000
312.564270 -561.216309 3.552716 1.000000
312.564270 -561.216309 2.930297 1.000000
312.564270 -561.216309 2.309877 1.000000
312.564270 -561.216309 1.690122 1.000000
312.564270 -561.216309 1.069702 1.000000
312.564270 -561.216309 0.447284 1.000000
312.369598 -562.755798 0.000026 0.550652
311.880066 -566.627136 0.000024 0.552300
311.567535 -569.098633 0.000019 0.495613
311.350311 -570.816467 0.000016 0.541497
311.190277 -572.082031 0.000015 0.537240
312.702667 -561.178772 6.757186 1.000000
312.702667 -561.178772 6.101825 1.000000
312.702667 -561.178772 5.455666 1.000000
312.702667 -561.178772 4.817160 1.000000
312.702667 -561.178772 4.184825 1.000000
312.702667 -561.178772 3.557234 1.000000
312.702667 -561.178711 2.933005 1.000000
312.702667 -561.178772 2.310779 1.000000
312.702667 -561.178772 1.689221 1.000000
312.702667 -561.178772 1.066995 1.000000
312.702667 -561.178772 0.442765 1.000000
312.489960 -562.771423 0.000026 0.551019
311.973419 -566.639282 0.000023 0.558221
311.643616 -569.108521 0.000020 0.519844
311.414429 -570.824768 0.000016 0.539544
311.245544 -572.089233 0.000014 0.547829
312.841888 -561.140930 6.771305 1.000000
312.841888 -561.140930 6.113999 1.000000
312.841888 -561.140930 5.465922 1.000000
312.841888 -561.140930 4.825521 1.000000
312.841888 -561.140930 4.191309 1.000000
312.841888 -561.140930 3.561856 1.000000
312.841888 -561.140930 2.935774 1.000000
312.841888 -561.140930 2.311702 1.000000
312.841888 -561.140930 1.688298 1.000000
312.841888 -561.140930 1.064226 1.000000
312.841888 -561.140930 0.438144 1.000000
312.610199 -562.787903 0.000026 0.548379
312.066650 -566.652039 0.000023 0.548516
311.719666 -569.118958 0.000020 0.548989
311.478455 -570.833557 0.000016 0.539666
311.300781 -572.096802 0.000015 0.549294
312.981934 -561.102905 6.785740 1.000000
312.981934 -561.102905 6.126446 1.000000
312.981934 -561.102905 5.476408 1.000000
312.981934 -561.102905 4.834068 1.000000
312.981934 -561.102905 4.197938 1.000000
312.981934 -561.102905 3.566582 1.000000
312.981934 -561.102905 2.938605 1.000000
312.981934 -561.102905 2.312645 1.000000
312.981934 -561.102905 1.687355 1.000000
312.981934 -561.102905 1.061395 1.000000
312.981934 -561.102905 0.433418 1.000000
312.730347 -562.805237 0.000026 0.531548
312.159821 -566.665466 0.000023 0.530892
311.795593 -569.129944 0.000019 0.546609
311.542450 -570.842773 0.000016 0.545388
311.355957 -572.104736 0.000014 0.508003
313.122833 -561.064636 6.800497 1.000000
313.122833 -561.064636 6.139170 1.000000
313.122833 -561.064636 5.487127 1.000000
313.122833 -561.064636 4.842810 1.000000
313.122833 -561.064636 4.204717 1.000000
313.122833 -561.064636 3.571412 1.000000
313.122833 -561.064636 2.941499 1.000000
313.122833 -561.064636 2.313609 1.000000
313.122833 -561.064636 1.686391 1.000000
313.122833 -561.064636 1.058501 1.000000
313.122833 -561.064636 0.428587 1.000000
312.850342 -562.823425 0.000026 0.535409
312.252899 -566.679565 0.000023 0.550088
311.871460 -569.141418 0.000019 0.528527
311.606384 -570.852478 0.000017 0.516289
311.411072 -572.113098 0.000015 0.556649
313.264618 -561.026123 6.815582 1.000000
313.264618 -561.026184 6.152177 1.000000
313.264618 -561.026184 5.498085 1.000000
313.264618 -561.026184 4.851742 1.000000
313.264618 -561.026123 4.211645 1.000000
313.264618 -561.026184 3.576350 1.000000
313.264618 -561.026123 2.944458 1.000000
313.264618 -561.026184 2.314595 1.000000
313.264618 -561.026184 1.685405 1.000000
313.264618 -561.026123 1.055542 1.000000
313.264618 -561.026184 0.423650 1.000000
312.970215 -562.842407 0.000026 0.536294
312.345856 -566.694336 0.000023 0.536171
311.947266 -569.153442 0.000019 0.555947
311.670227 -570.862610 0.000017 0.555367
311.466125 -572.121826 0.000015 0.541390
313.407288 -560.987427 6.830998 1.000000
313.407288 -560.987427 6.165469 1.000000
313.407288 -560.987427 5.509285 1.000000
313.407288 -560.987427 4.860871 1.000000
313.407288 -560.987427 4.218725 1.000000
313.407288 -560.987427 3.581397 1.000000
313.407288 -560.987427 2.947482 1.000000
313.407288 -560.987427 2.315602 1.000000
313.407288 -560.987427 1.684398 1.000000
313.407288 -560.987427 1.052518 1.000000
313.407288 -560.987427 0.418603 1.000000
313.089935 -562.862244 0.000026 0.522850
312.438721 -566.709717 0.000023 0.559853
312.022980 -569.165955 0.000019 0.538537
311.734009 -570.873169 0.000017 0.542062
311.521118 -572.130920 0.000015 0.508568
313.550903 -560.948425 6.846750 1.000000
313.550903 -560.948425 6.179051 1.000000
313.550903 -560.948425 5.520728 1.000000
313.550903 -560.948425 4.870199 1.000000
313.550903 -560.948425 4.225959 1.000000
313.550903 -560.948425 3.586553 1.000000
313.550903 -560.948425 2.950570 1.000000
313.550903 -560.948425 2.316631 1.000000
313.550903 -560.948425 1.683369 1.000000
313.550903 -560.948425 1.049429 1.000000
313.550903 -560.948425 0.413446 1.000000
313.209534 -562.882935 0.000026 0.548363
312.531464 -566.725708 0.000023 0.547784
312.098572 -569.179016 0.000019 0.525368
311.797699 -570.884155 0.000016 0.559442
311.576019 -572.140442 0.000015 0.550439
313.695435 -560.909180 6.862844 1.000000
313.695435 -560.909180 6.192927 1.000000
313.695435 -560.909180 5.532416 1.000000
313.695435 -560.909180 4.879729 1.000000
313.695435 -560.909180 4.233350 1.000000
313.695435 -560.909180 3.591821 1.000000
313.695435 -560.909180 2.953727 1.000000
313.695435 -560.909180 2.317682 1.000000
313.695435 -560.909180 1.682318 1.000000
313.695435 -560.909180 1.046273 1.000000
313.695435 -560.909180 0.408179 1.000000
313.328979 -562.904419 0.000025 0.545556
312.624115 -566.742432 0.000023 0.587869
312.174103 -569.192627 0.000019 0.534630
311.861328 -570.895630 0.000016 0.519738
311.630890 -572.150330 0.000014 0.530465
313.840973 -560.869629 6.879283 1.000000
313.840973 -560.869629 6.207101 1.000000
313.840973 -560.869629 5.544358 1.000000
313.840973 -560.869629 4.889464 1.000000
313.840973 -560.869629 4.240900 1.000000
313.840973 -560.869629 3.597202 1.000000
313.840973 -560.869629 2.956951 1.000000
313.840973 -560.869629 2.318755 1.000000
313.840973 -560.869629 1.681244 1.000000
313.840973 -560.869629 1.043049 1.000000
313.840973 -560.869629 0.402798 1.000000
313.448303 -562.926758 0.000025 0.547112
312.716614 -566.759705 0.000023 0.545754
312.249512 -569.206726 0.000019 0.555611
311.924866 -570.907532 0.000016 0.542443
311.685669 -572.160583 0.000014 0.715038
313.987488 -560.829834 6.896072 1.000000
313.987488 -560.829834 6.221578 1.000000
313.987488 -560.829834 5.556555 1.000000
313.987488 -560.829834 4.899407 1.000000
313.987488 -560.829834 4.248611 1.000000
313.987488 -560.829834 3.602698 1.000000
313.987488 -560.829834 2.960244 1.000000
313.987488 -560.829834 2.319853 1.000000
313.987488 -560.829834 1.680147 1.000000
313.987488 -560.829834 1.039756 1.000000
313.987488 -560.829834 0.397302 1.000000
313.567413 -562.949951 0.000025 0.542962
312.809021 -566.777710 0.000023 0.552514
312.324860 -569.221375 0.000019 0.497093
311.988342 -570.919861 0.000016 0.468971
311.740387 -572.171204 0.000014 0.511299
314.135010 -560.789795 6.913218 1.000000
314.135010 -560.789795 6.236362 1.000000
314.135010 -560.789795 5.569008 1.000000
314.135010 -560.789795 4.909561 1.000000
314.135010 -560.789795 4.256485 1.000000
314.135010 -560.789795 3.608311 1.000000
314.135010 -560.789795 2.963607 1.000000
314.135010 -560.789795 2.320973 1.000000
314.135010 -560.789795 1.679027 1.000000
314.135010 -560.789795 1.036393 1.000000
314.135010 -560.789795 0.391689 1.000000
313.686401 -562.973938 0.000025 0.544991
312.901306 -566.796326 0.000023 0.533989
312.400055 -569.236572 0.000019 0.550301
312.051697 -570.932617 0.000016 0.496178
311.795044 -572.182251 0.000014 0.580484
314.283600 -560.749451 6.930725 1.000000
314.283600 -560.749451 6.251458 1.000000
314.283600 -560.749451 5.581727 1.000000
314.283600 -560.749451 4.919929 1.000000
314.283600 -560.749451 4.264526 1.000000
314.283600 -560.749451 3.614041 1.000000
314.283600 -560.749451 2.967040 1.000000
314.283600 -560.749451 2.322116 1.000000
314.283600 -560.749451 1.677883 1.000000
314.283600 -560.749451 1.032959 1.000000
314.283600 -560.749451 0.385958 1.000000
313.805206 -562.998779 0.000025 0.538384
312.993439 -566.815552 0.000023 0.524620
312.475189 -569.252258 0.000019 0.549477
312.114990 -570.945862 0.000016 0.542794
311.849609 -572.193665 0.000015 0.602716
314.433258 -560.708801 6.948600 1.000000
314.433258 -560.708801 6.266870 1.000000
314.433258 -560.708801 5.594712 1.000000
314.433258 -560.708801 4.930514 1.000000
314.433258 -560.708801 4.272736 1.000000
314.433258 -560.708801 3.619893 1.000000
314.433258 -560.708801 2.970546 1.000000
314.433258 -560.708801 2.323284 1.000000
314.433258 -560.708801 1.676716 1.000000
314.433258 -560.708801 1.029454 1.000000
314.433258 -560.708801 0.380107 1.000000
313.923828 -563.024414 0.000025 0.549828
313.085419 -566.835449 0.000023 0.534264
312.550171 -569.268494 0.000019 0.534737
312.178162 -570.959534 0.000016 0.521172
311.904083 -572.205444 0.000015 0.549615
314.583984 -560.667908 6.966848 1.000000
314.583984 -560.667908 6.282603 1.000000
314.583984 -560.667908 5.607966 1.000000
314.583984 -560.667908 4.941320 1.000000
314.583984 -560.667908 4.281116 1.000000
314.583984 -560.667908 3.625866 1.000000
314.583984 -560.667908 2.974124 1.000000
314.583984 -560.667908 2.324476 1.000000
314.583984 -560.667908 1.675524 1.000000
314.583984 -560.667908 1.025875 1.000000
314.583984 -560.667908 0.374133 1.000000
314.042267 -563.050903 0.000025 0.523156
313.177277 -566.856018 0.000023 0.552163
312.625061 -569.285278 0.000019 0.550149
312.241241 -570.973633 0.000016 0.536782
311.958466 -572.217590 0.000015 0.527031
314.735870 -560.626648 6.985475 1.000000
314.735870 -560.626648 6.298664 1.000000
314.735870 -560.626648 5.621496 1.000000
314.735870 -560.626648 4.952351 1.000000
314.735870 -560.626648 4.289670 1.000000
314.735870 -560.626648 3.631964 1.000000
314.735870 -560.626648 2.977778 1.000000
314.735870 -560.626648 2.325693 1.000000
314.735870 -560.626648 1.674307 1.000000
314.735870 -560.626648 1.022222 1.000000
314.735870 -560.626648 0.368036 1.000000
314.160522 -563.078247 0.000025 0.523232
313.268982 -566.877197 0.000023 0.550454
312.699829 -569.302490 0.000019 0.509743
312.304230 -570.988220 0.000016 0.547021
312.012787 -572.230164 0.000014 0.598413
314.888885 -560.585083 7.004487 1.000000
314.888885 -560.585083 6.315056 1.000000
314.888885 -560.585083 5.635307 1.000000
314.888885 -560.585083 4.963610 1.000000
314.888885 -560.585083 4.298403 1.000000
314.888885 -560.585083 3.638186 1.000000
314.888885 -560.585083 2.981506 1.000000
314.888885 -560.585083 2.326935 1.000000
314.888885 -560.585083 1.673065 1.000000
314.888885 -560.585083 1.018493 1.000000
314.888885 -560.585083 0.361813 1.000000
314.278595 -563.106384 0.000025 0.527626
313.360565 -566.899048 0.000023 0.518853
312.774475 -569.320313 0.000019 0.536614
312.367126 -571.003174 0.000016 0.499275
312.067017 -572.243042 0.000015 0.537072
315.043091 -560.543213 7.023890 1.000000
315.043060 -560.543213 6.331787 1.000000
315.043060 -560.543213 5.649403 1.000000
315.043060 -560.543213 4.975100 1.000000
315.043060 -560.543213 4.307314 1.000000
315.043060 -560.543213 3.644538 1.000000
315.043060 -560.543213 2.985312 1.000000
315.043060 -560.543213 2.328203 1.000000
315.043060 -560.543213 1.671797 1.000000
315.043060 -560.543213 1.014688 1.000000
315.043060 -560.543213 0.355461 1.000000
314.396454 -563.135376 0.000025 0.541039
313.451965 -566.921509 0.000023 0.528115
312.848999 -569.338623 0.000019 0.538430
312.429901 -571.018616 0.000016 0.542184
312.121155 -572.256348 0.000015 0.542901
315.198486 -560.501038 7.043691 1.000000
315.198486 -560.501038 6.348861 1.000000
315.198486 -560.501038 5.663787 1.000000
315.198486 -560.501038 4.986826 1.000000
315.198486 -560.501038 4.316408 1.000000
315.198486 -560.501038 3.651020 1.000000
315.198486 -560.501038 2.989196 1.000000
315.198486 -560.501038 2.329496 1.000000
315.198486 -560.501038 1.670504 1.000000
315.198486 -560.501038 1.010804 1.000000
315.198486 -560.501038 0.348980 1.000000
314.514099 -563.165161 0.000025 0.543420
313.543213 -566.944580 0.000023 0.539132
312.923370 -569.357483 0.000019 0.552300
312.492584 -571.034485 0.000016 0.548333
312.175171 -572.270081 0.000014 0.557092
315.355133 -560.458496 7.063896 1.000000
315.355133 -560.458496 6.366282 1.000000
315.355133 -560.458496 5.678463 1.000000
315.355133 -560.458496 4.998791 1.000000
315.355133 -560.458496 4.325687 1.000000
315.355133 -560.458496 3.657633 1.000000
315.355133 -560.458496 2.993158 1.000000
315.355133 -560.458496 2.330816 1.000000
315.355133 -560.458496 1.669184 1.000000
315.355133 -560.458496 1.006842 1.000000
315.355133 -560.458496 0.342366 1.000000
314.631561 -563.195740 0.000025 0.531563
313.634308 -566.968323 0.000023 0.563973
312.997650 -569.376831 0.000019 0.507225
312.555145 -571.050781 0.000016 0.549538
312.229126 -572.284119 0.000015 0.597436
315.513031 -560.415588 7.084513 1.000000
315.513031 -560.415588 6.384058 1.000000
315.513031 -560.415588 5.693440 1.000000
315.513031 -560.415588 5.011000 1.000000
315.513031 -560.415588 4.335156 1.000000
315.513031 -560.415588 3.664383 1.000000
315.513031 -560.415588 2.997201 1.000000
315.513031 -560.415588 2.332163 1.000000
315.513031 -560.415588 1.667837 1.000000
315.513031 -560.415588 1.002798 1.000000
315.513031 -560.415588 0.335617 1.000000
314.748779 -563.227173 0.000025 0.543694
313.725220 -566.992737 0.000023 0.542489
313.071747 -569.396667 0.000019 0.544900
312.617584 -571.067505 0.000017 0.539513
312.282959 -572.298523 0.000015 0.501762
315.672241 -560.372375 7.105548 1.000000
315.672241 -560.372375 6.402197 1.000000
315.672241 -560.372375 5.708720 1.000000
315.672241 -560.372375 5.023458 1.000000
315.672241 -560.372375 4.344816 1.000000
315.672241 -560.372375 3.671269 1.000000
315.672241 -560.372375 3.001327 1.000000
315.672241 -560.372375 2.333538 1.000000
315.672241 -560.372375 1.666463 1.000000
315.672241 -560.372375 0.998672 1.000000
315.672241 -560.372375 0.328731 1.000000
314.865784 -563.259399 0.000024 0.534173
313.815948 -567.017700 0.000022 0.555230
313.145721 -569.417053 0.000019 0.517098
312.679901 -571.084717 0.000016 0.533669
312.336700 -572.313354 0.000014 0.532952
315.832794 -560.328796 7.127009 1.000000
315.832794 -560.328796 6.420701 1.000000
315.832794 -560.328796 5.724309 1.000000
315.832794 -560.328796 5.036166 1.000000
315.832794 -560.328796 4.354673 1.000000
315.832794 -560.328796 3.678293 1.000000
315.832794 -560.328796 3.005536 1.000000
315.832794 -560.328796 2.334939 1.000000
315.832794 -560.328796 1.665061 1.000000
315.832794 -560.328796 0.994463 1.000000
315.832794 -560.328796 0.321706 1.000000
314.982574 -563.292480 0.000024 0.536614
313.906525 -567.043335 0.000022 0.547372
313.219574 -569.437988 0.000019 0.553460
312.742096 -571.102295 0.000016 0.515373
312.390320 -572.328552 0.000014 0.501228
315.994690 -560.284790 7.148903 1.000000
315.994690 -560.284790 6.439579 1.000000
315.994690 -560.284790 5.740214 1.000000
315.994690 -560.284790 5.049131 1.000000
315.994690 -560.284790 4.364729 1.000000
315.994690 -560.284790 3.685461 1.000000
315.994690 -560.284790 3.009830 1.000000
315.994690 -560.284790 2.336370 1.000000
315.994690 -560.284790 1.663630 1.000000
315.994690 -560.284790 0.990170 1.000000
315.994690 -560.284790 0.314539 1.000000
315.099121 -563.326355 0.000024 0.553216
313.996918 -567.069641 0.000022 0.532525
313.293243 -569.459412 0.000019 0.515312
312.804169 -571.120361 0.000016 0.436744
312.443848 -572.344116 0.000014 0.537926
316.157990 -560.240479 7.171238 1.000000
316.157990 -560.240479 6.458838 1.000000
316.157990 -560.240479 5.756439 1.000000
316.157990 -560.240479 5.062358 1.000000
316.157990 -560.240479 4.374986 1.000000
316.157990 -560.240479 3.692772 1.000000
316.157990 -560.240479 3.014211 1.000000
316.157990 -560.240479 2.337829 1.000000
316.157990 -560.240479 1.662171 1.000000
316.157990 -560.240479 0.985789 1.000000
316.157990 -560.240479 0.307227 1.000000
315.215424 -563.361023 0.000024 0.529397
314.087128 -567.096558 0.000022 0.522850
313.366791 -569.481323 0.000019 0.529519
312.866119 -571.138855 0.000016 0.526772
312.497284 -572.360046 0.000014 0.524315
316.322723 -560.195740 7.194021 1.000000
316.322723 -560.195740 6.478482 1.000000
316.322723 -560.195740 5.772989 1.000000
316.322723 -560.195740 5.075850 1.000000
316.322723 -560.195740 4.385450 1.000000
316.322723 -560.195740 3.700230 1.000000
316.322723 -560.195740 3.018679 1.000000
316.322723 -560.195740 2.339317 1.000000
316.322723 -560.195740 1.660683 1.000000
316.322723 -560.195740 0.981321 1.000000
316.322723 -560.195740 0.299770 1.000000
315.331482 -563.396545 0.000024 0.551919
314.177124 -567.124084 0.000023 0.548058
313.440186 -569.503784 0.000018 0.511620
312.927948 -571.157715 0.000016 0.523964
312.550568 -572.376343 0.000014 0.499870
316.488922 -560.150635 7.217264 1.000000
316.488922 -560.150635 6.498522 1.000000
316.488922 -560.150635 5.789871 1.000000
316.488922 -560.150635 5.089613 1.000000
316.488922 -560.150635 4.396123 1.000000
316.488922 -560.150635 3.707838 1.000000
316.488922 -560.150635 3.023237 1.000000
316.488922 -560.150635 2.340836 1.000000
316.488922 -560.150635 1.659164 1.000000
316.488922 -560.150635 0.976762 1.000000
316.488922 -560.150635 0.292161 1.000000
315.447296 -563.432861 0.000024 0.528603
314.266937 -567.152222 0.000022 0.548409
313.513397 -569.526733 0.000019 0.514885
312.989655 -571.177063 0.000016 0.560113
312.603760 -572.393005 0.000014 0.502297
316.656616 -560.105042 7.240972 1.000000
316.656616 -560.105042 6.518963 1.000000
316.656616 -560.105042 5.807092 1.000000
316.656616 -560.105042 5.103653 1.000000
316.656616 -560.105042 4.407011 1.000000
316.656616 -560.105042 3.715599 1.000000
316.656616 -560.105042 3.027887 1.000000
316.656616 -560.105042 2.342384 1.000000
316.656616 -560.105042 1.657616 1.000000
316.656616 -560.105042 0.972112 1.000000
316.656616 -560.105103 0.284401 1.000000
315.562866 -563.469971 0.000024 0.545174
314.356567 -567.181030 0.000022 0.535927
313.586456 -569.550171 0.000018 0.546441
313.051178 -571.196838 0.000016 0.542443
312.656830 -572.410034 0.000014 0.579889
316.825867 -560.059082 7.265151 1.000000
316.825867 -560.059143 6.539812 1.000000
316.825867 -560.059143 5.824656 1.000000
316.825867 -560.059143 5.117972 1.000000
316.825867 -560.059082 4.418118 1.000000
316.825867 -560.059143 3.723514 1.000000
316.825867 -560.059143 3.032629 1.000000
316.825867 -560.059143 2.343964 1.000000
316.825867 -560.059143 1.656036 1.000000
316.825867 -560.059143 0.967370 1.000000
316.825867 -560.059143 0.276486 1.000000
315.678162 -563.507874 0.000024 0.599542
314.445984 -567.210388 0.000022 0.523125
313.659332 -569.574158 0.000018 0.666835
313.112610 -571.217041 0.000016 0.566613
312.709778 -572.427490 0.000014 0.540871
316.996674 -560.012695 7.289815 1.000000
316.996674 -560.012756 6.561078 1.000000
316.996674 -560.012756 5.842573 1.000000
316.996674 -560.012756 5.132578 1.000000
316.996674 -560.012756 4.429445 1.000000
316.996674 -560.012756 3.731587 1.000000
316.996674 -560.012756 3.037467 1.000000
316.996674 -560.012756 2.345576 1.000000
316.996674 -560.012756 1.654425 1.000000
316.996674 -560.012756 0.962533 1.000000
316.996674 -560.012756 0.268412 1.000000
315.793182 -563.546631 0.000024 0.544518
314.535187 -567.240417 0.000022 0.539986
313.732056 -569.598633 0.000019 0.570886
313.173859 -571.237671 0.000016 0.552254
312.762604 -572.445251 0.000014 0.560098
317.169128 -559.965881 7.314972 1.000000
317.169128 -559.965881 6.582769 1.000000
317.169128 -559.965881 5.860848 1.000000
317.169128 -559.965881 5.147475 1.000000
317.169128 -559.965881 4.440999 1.000000
317.169128 -559.965881 3.739822 1.000000
317.169128 -559.965881 3.042401 1.000000
317.169128 -559.965881 2.347219 1.000000
317.169128 -559.965881 1.652781 1.000000
317.169128 -559.965881 0.957599 1.000000
317.169098 -559.965942 0.260178 1.000000
315.907928 -563.586121 0.000023 0.529320
314.624176 -567.271118 0.000022 0.535698
313.804626 -569.623657 0.000018 0.573831
313.234985 -571.258728 0.000016 0.495949
312.815308 -572.463379 0.000014 0.577096
317.343201 -559.918640 7.340630 1.000000
317.343201 -559.918640 6.604892 1.000000
317.343201 -559.918640 5.879485 1.000000
317.343201 -559.918640 5.162670 1.000000
317.343201 -559.918640 4.452782 1.000000
317.343201 -559.918640 3.748221 1.000000
317.343201 -559.918640 3.047432 1.000000
317.343201 -559.918640 2.348895 1.000000
317.343201 -559.918640 1.651105 1.000000
317.343201 -559.918640 0.952567 1.000000
317.343201 -559.918640 0.251779 1.000000
316.022400 -563.626465 0.000023 0.546792
314.712952 -567.302368 0.000022 0.533043
313.876984 -569.649109 0.000018 0.551369
313.295959 -571.280212 0.000016 0.555642
312.867889 -572.481934 0.000014 0.531975
317.518982 -559.870911 7.366799 1.000000
317.518982 -559.870911 6.627457 1.000000
317.518982 -559.870911 5.898496 1.000000
317.518982 -559.870911 5.178167 1.000000
317.518982 -559.870911 4.464801 1.000000
317.518982 -559.870911 3.756787 1.000000
317.518982 -559.870911 3.052565 1.000000
317.518982 -559.870911 2.350604 1.000000
317.518982 -559.870911 1.649396 1.000000
317.518982 -559.870911 0.947435 1.000000
317.518982 -559.870911 0.243212 1.000000
316.136597 -563.667603 0.000023 0.553628
314.801514 -567.334290 0.000022 0.511788
313.949188 -569.675110 0.000018 0.564858
313.356781 -571.302124 0.000016 0.541833
312.920349 -572.500793 0.000014 0.530571
317.696533 -559.822693 7.393490 1.000000
317.696533 -559.822693 6.650472 1.000000
317.696503 -559.822693 5.917884 1.000000
317.696503 -559.822693 5.193974 1.000000
317.696533 -559.822693 4.477059 1.000000
317.696503 -559.822693 3.765524 1.000000
317.696503 -559.822693 3.057800 1.000000
317.696503 -559.822693 2.352348 1.000000
317.696503 -559.822693 1.647652 1.000000
317.696503 -559.822693 0.942200 1.000000
317.696503 -559.822693 0.234475 1.000000
316.250488 -563.709473 0.000023 0.549386
314.889862 -567.366760 0.000022 0.539330
314.021210 -569.701660 0.000018 0.536355
313.417450 -571.324463 0.000016 0.504692
312.972656 -572.520081 0.000014 0.519310
317.875824 -559.773987 7.420716 1.000000
317.875824 -559.773987 6.673946 1.000000
317.875824 -559.773987 5.937661 1.000000
317.875824 -559.773987 5.210096 1.000000
317.875824 -559.773987 4.489563 1.000000
317.875824 -559.773987 3.774436 1.000000
317.875824 -559.773987 3.063139 1.000000
317.875824 -559.773987 2.354127 1.000000
317.875824 -559.773987 1.645873 1.000000
317.875824 -559.773987 0.936860 1.000000
317.875824 -559.773987 0.225563 1.000000
316.364105 -563.752197 0.000023 0.539376
314.977966 -567.399902 0.000021 0.540871
314.093018 -569.728638 0.000018 0.566766
313.477966 -571.347229 0.000015 0.493004
313.024811 -572.539673 0.000014 0.566476
318.056976 -559.724792 7.448483 1.000000
318.056976 -559.724792 6.697887 1.000000
318.056976 -559.724792 5.957831 1.000000
318.056976 -559.724792 5.226540 1.000000
318.056976 -559.724792 4.502316 1.000000
318.056976 -559.724792 3.783526 1.000000
318.056976 -559.724792 3.068585 1.000000
318.056976 -559.724792 2.355941 1.000000
318.056976 -559.724792 1.644059 1.000000
318.056976 -559.724792 0.931414 1.000000
318.056976 -559.724792 0.216474 1.000000
316.477386 -563.795715 0.000023 0.525048
315.065826 -567.433655 0.000021 0.548882
314.164673 -569.756165 0.000018 0.525231
313.538330 -571.370361 0.000016 0.521920
313.076843 -572.559692 0.000014 0.549630
318.239990 -559.675110 7.476805 1.000000
318.239990 -559.675110 6.722307 1.000000
318.239990 -559.675110 5.978405 1.000000
318.239990 -559.675110 5.243311 1.000000
318.239990 -559.675110 4.515323 1.000000
318.239990 -559.675110 3.792797 1.000000
318.239990 -559.675110 3.074140 1.000000
318.239990 -559.675110 2.357791 1.000000
318.239990 -559.675110 1.642209 1.000000
318.239990 -559.675110 0.925860 1.000000
318.239990 -559.675110 0.207203 1.000000
316.590393 -563.840027 0.000023 0.539315
315.153473 -567.468018 0.000022 0.526009
314.236115 -569.784180 0.000018 0.569345
313.598511 -571.393982 0.000015 0.538323
313.128754 -572.580017 0.000014 0.573297
318.424927 -559.624878 7.505693 1.000000
318.424927 -559.624878 6.747216 1.000000
318.424927 -559.624878 5.999389 1.000000
318.424927 -559.624878 5.260418 1.000000
318.424927 -559.624878 4.528590 1.000000
318.424927 -559.624878 3.802254 1.000000
318.424927 -559.624878 3.079806 1.000000
318.424927 -559.624878 2.359678 1.000000
318.424927 -559.624878 1.640322 1.000000
318.424927 -559.624878 0.920194 1.000000
318.424927 -559.624878 0.197746 1.000000
316.703094 -563.885132 0.000023 0.525017
315.240845 -567.502991 0.000021 0.545007
314.307343 -569.812683 0.000018 0.509377
313.658539 -571.417969 0.000015 0.595560
313.180511 -572.600708 0.000014 0.582803
318.611816 -559.574158 7.535159 1.000000
318.611816 -559.574158 6.772622 1.000000
318.611816 -559.574158 6.020792 1.000000
318.611816 -559.574158 5.277867 1.000000
318.611816 -559.574158 4.542123 1.000000
318.611816 -559.574158 3.811898 1.000000
318.611816 -559.574158 3.085584 1.000000
318.611816 -559.574158 2.361603 1.000000
318.611816 -559.574158 1.638397 1.000000
318.611816 -559.574158 0.914415 1.000000
318.611816 -559.574158 0.188101 1.000000
316.815430 -563.930969 0.000023 0.510109
315.328003 -567.538574 0.000021 0.516930
314.378387 -569.841675 0.000018 0.549523
313.718384 -571.442444 0.000016 0.536995
313.232117 -572.621765 0.000014 0.565423
318.800751 -559.522827 7.565212 1.000000
318.800751 -559.522827 6.798537 1.000000
318.800751 -559.522827 6.042624 1.000000
318.800751 -559.522827 5.295666 1.000000
318.800751 -559.522827 4.555925 1.000000
318.800751 -559.522827 3.821737 1.000000
318.800751 -559.522827 3.091479 1.000000
318.800751 -559.522827 2.363567 1.000000
318.800751 -559.522827 1.636433 1.000000
318.800751 -559.522827 0.908521 1.000000
318.800751 -559.522827 0.178263 1.000000
316.927490 -563.977661 0.000023 0.534279
315.414886 -567.574707 0.000021 0.547433
314.449249 -569.871155 0.000018 0.545571
313.778076 -571.467285 0.000015 0.555230
313.283569 -572.643188 0.000014 0.554299
318.991760 -559.471008 7.595870 1.000000
318.991760 -559.471008 6.824969 1.000000
318.991760 -559.471008 6.064893 1.000000
318.991760 -559.471008 5.313821 1.000000
318.991760 -559.471008 4.570005 1.000000
318.991760 -559.471008 3.831772 1.000000
318.991760 -559.471008 3.097491 1.000000
318.991760 -559.471008 2.365569 1.000000
318.991760 -559.471008 1.634431 1.000000
318.991760 -559.471008 0.902508 1.000000
318.991760 -559.471008 0.168228 1.000000
317.039215 -564.025085 0.000023 0.523247
315.501526 -567.611511 0.000021 0.571939
314.519867 -569.901123 0.000018 0.514122
313.837555 -571.492554 0.000015 0.564218
313.334869 -572.664978 0.000014 0.548302
319.184875 -559.418518 7.627142 1.000000
319.184875 -559.418518 6.851934 1.000000
319.184875 -559.418518 6.087611 1.000000
319.184875 -559.418518 5.332340 1.000000
319.184875 -559.418518 4.584368 1.000000
319.184875 -559.418518 3.842009 1.000000
319.184875 -559.418518 3.103626 1.000000
319.184875 -559.418518 2.367613 1.000000
319.184875 -559.418518 1.632388 1.000000
319.184875 -559.418518 0.896374 1.000000
319.184875 -559.418518 0.157991 1.000000
317.150604 -564.073303 0.000023 0.597696
315.587921 -567.648926 0.000021 0.558434
314.590302 -569.931641 0.000018 0.517906
313.896881 -571.518250 0.000016 0.553368
313.386047 -572.687134 0.000014 0.563165
319.380188 -559.365479 7.659043 1.000000
319.380188 -559.365479 6.879440 1.000000
319.380188 -559.365479 6.110783 1.000000
319.380188 -559.365479 5.351231 1.000000
319.380188 -559.365479 4.599018 1.000000
319.380188 -559.365540 3.852451 1.000000
319.380188 -559.365479 3.109881 1.000000
319.380188 -559.365479 2.369696 1.000000
319.380188 -559.365479 1.630304 1.000000
319.380188 -559.365479 0.890118 1.000000
319.380188 -559.365540 0.147548 1.000000
317.261627 -564.122253 0.000022 0.532509
315.674042 -567.686890 0.000021 0.558923
314.660492 -569.962585 0.000018 0.563500
313.956055 -571.544312 0.000015 0.529427
313.437042 -572.709656 0.000014 0.542107
319.577728 -559.311890 7.691588 1.000000
319.577728 -559.311890 6.907501 1.000000
319.577728 -559.311890 6.134424 1.000000
319.577728 -559.311890 5.370502 1.000000
319.577728 -559.311890 4.613966 1.000000
319.577728 -559.311890 3.863105 1.000000
319.577728 -559.311890 3.116264 1.000000
319.577728 -559.311890 2.371823 1.000000
319.577728 -559.311890 1.628178 1.000000
319.577728 -559.311890 0.883736 1.000000
319.577728 -559.311890 0.136895 1.000000
317.372345 -564.172058 0.000022 0.543450
315.759888 -567.725525 0.000021 0.536324
314.730469 -569.994080 0.000018 0.549966
314.015015 -571.570801 0.000015 0.499779
313.487885 -572.732483 0.000013 0.571679
319.777557 -559.257568 7.724789 1.000000
319.777557 -559.257568 6.936129 1.000000
319.777557 -559.257629 6.158542 1.000000
319.777557 -559.257629 5.390164 1.000000
319.777557 -559.257629 4.629214 1.000000
319.777557 -559.257629 3.873973 1.000000
319.777557 -559.257629 3.122776 1.000000
319.777557 -559.257629 2.373991 1.000000
319.777557 -559.257629 1.626009 1.000000
319.777557 -559.257629 0.877224 1.000000
319.777557 -559.257629 0.126026 1.000000
317.482666 -564.222595 0.000023 0.522362
315.845459 -567.764709 0.000021 0.550668
314.800262 -570.026001 0.000017 0.520027
314.073792 -571.597717 0.000015 0.578683
313.538544 -572.755737 0.000013 0.541604
319.979736 -559.202698 7.758662 1.000000
319.979736 -559.202698 6.965336 1.000000
319.979736 -559.202698 6.183148 1.000000
319.979736 -559.202698 5.410223 1.000000
319.979736 -559.202698 4.644771 1.000000
319.979736 -559.202698 3.885061 1.000000
319.979736 -559.202698 3.129419 1.000000
319.979736 -559.202698 2.376204 1.000000
319.979736 -559.202698 1.623796 1.000000
319.979736 -559.202698 0.870580 1.000000
319.979736 -559.202698 0.114938 1.000000
317.592682 -564.273865 0.000022 0.554498
315.930756 -567.804504 0.000021 0.538903
314.869781 -570.058472 0.000017 0.505577
314.132355 -571.625061 0.000015 0.561440
313.589081 -572.779297 0.000013 0.541802
320.184357 -559.147156 7.793222 1.000000
320.184357 -559.147156 6.995134 1.000000
320.184357 -559.147156 6.208253 1.000000
320.184357 -559.147156 5.430691 1.000000
320.184357 -559.147156 4.660644 1.000000
320.184357 -559.147156 3.896374 1.000000
320.184357 -559.147156 3.136198 1.000000
320.184357 -559.147156 2.378462 1.000000
320.184357 -559.147156 1.621538 1.000000
320.184357 -559.147156 0.863802 1.000000
320.184357 -559.147156 0.103625 1.000000
317.702301 -564.325928 0.000022 0.524376
316.015808 -567.844849 0.000020 0.537636
314.939117 -570.091370 0.000017 0.585733
314.190765 -571.652832 0.000015 0.555825
313.639404 -572.803162 0.000013 0.570138
320.391449 -559.090881 7.828487 1.000000
320.391449 -559.090881 7.025542 1.000000
320.391449 -559.090881 6.233868 1.000000
320.391449 -559.090881 5.451573 1.000000
320.391449 -559.090881 4.676839 1.000000
320.391449 -559.090881 3.907917 1.000000
320.391449 -559.090881 3.143113 1.000000
320.391449 -559.090881 2.380766 1.000000
320.391449 -559.090881 1.619234 1.000000
320.391449 -559.090881 0.856886 1.000000
320.391449 -559.090881 0.092082 1.000000
317.811554 -564.378784 0.000022 0.546975
316.100525 -567.885864 0.000020 0.520134
315.008179 -570.124817 0.000017 0.536721
314.248962 -571.680969 0.000015 0.490013
313.689606 -572.827454 0.000013 0.492699
nan nan nan 0.000000
nan nan nan 0.000000
nan nan nan 0.000000
nan nan nan 0.000000
275.686157 -649.486816 10.924651 1.000000
275.686157 -649.486816 8.361048 1.000000
275.686157 -649.486816 5.811170 1.000000
275.686157 -649.486877 3.269484 1.000000
275.686157 -649.486877 0.730517 1.000000
292.172913 -616.284607 0.009973 1.000000
299.340637 -601.849731 0.000014 0.538003
302.456696 -595.574402 0.000010 0.553613
304.192169 -592.079346 0.000008 0.540902
305.300140 -589.848083 0.000007 0.545480
306.070221 -588.297241 0.000006 0.557244
306.637573 -587.154663 0.000005 0.505928
nan nan nan 0.000000
nan nan nan 0.000000
nan nan nan 0.000000
nan nan nan 0.000000
275.234314 -649.180176 10.916389 1.000000
275.234314 -649.180176 8.355158 1.000000
275.234314 -649.180176 5.807643 1.000000
275.234314 -649.180176 3.268308 1.000000
275.234314 -649.180176 0.731692 1.000000
291.920532 -616.157043 0.010022 1.000000
299.188385 -601.773499 0.000014 0.528359
302.348175 -595.520081 0.000010 0.524392
304.108032 -592.037231 0.000008 0.535317
305.231537 -589.813721 0.000007 0.556481
306.012421 -588.268311 0.000006 0.532540
306.587738 -587.129700 0.000005 0.550408
nan nan nan 0.000000
nan nan nan 0.000000
nan nan nan 0.000000
nan nan nan 0.000000
274.783264 -648.874023 10.908575 1.000000
274.783264 -648.874023 8.349589 1.000000
274.783264 -648.874023 5.804306 1.000000
274.783264 -648.874023 3.267195 1.000000
274.783264 -648.874023 0.732804 1.000000
291.575134 -616.210388 -0.000018 0.339040
299.036682 -601.696167 0.000014 0.556313
302.240051 -595.464966 0.000011 0.527489
304.024170 -591.994446 0.000009 0.527153
305.163147 -589.778870 0.000007 0.554635
305.954803 -588.238953 0.000006 0.495979
306.538055 -587.104370 0.000005 0.553948
nan nan nan 0.000000
nan nan nan 0.000000
nan nan nan 0.000000
nan nan nan 0.000000
274.333008 -648.568481 10.901207 1.000000
274.333008 -648.568420 8.344336 1.000000
274.333008 -648.568481 5.801159 1.000000
274.333008 -648.568481 3.266148 1.000000
274.333008 -648.568481 0.733852 1.000000
291.322845 -616.079529 -0.000015 0.339132
298.885498 -601.617798 0.000014 0.541207
302.132294 -595.409058 0.000011 0.525139
303.940582 -591.951172 0.000008 0.505165
305.095032 -589.743530 0.000007 0.520272
305.897430 -588.209167 0.000006 0.542916
306.488586 -587.078735 0.000005 0.519249
nan nan nan 0.000000
nan nan nan 0.000000
nan nan nan 0.000000
nan nan nan 0.000000
273.883484 -648.263306 10.894282 1.000000
273.883484 -648.263306 8.339403 1.000000
273.883453 -648.263367 5.798203 1.000000
273.883453 -648.263306 3.265165 1.000000
273.883453 -648.263306 0.734837 1.000000
291.071503 -615.946838 -0.000011 0.338003
298.734894 -601.538330 0.000014 0.550881
302.024933 -595.352478 0.000010 0.535470
303.857330 -591.907227 0.000008 0.540337
305.027161 -589.707764 0.000007 0.538750
305.840240 -588.179016 0.000006 0.565240
306.439270 -587.052734 0.000005 0.573465
nan nan nan 0.000000
nan nan nan 0.000000
nan nan nan 0.000000
nan nan nan 0.000000
273.434601 -647.958679 10.887804 1.000000
273.434601 -647.958679 8.334786 1.000000
273.434601 -647.958679 5.795436 1.000000
273.434601 -647.958679 3.264242 1.000000
