# This PCD file was generated using the MATLABÂ® pcwrite function
# from Computer Vision ToolboxÂ®.
# .PCD v.7 - Point Cloud Data file format
VERSION .7
FIELDS x y z intensity
SIZE 4 4 4 4
TYPE F F F F
COUNT 1 1 1 1
WIDTH 1223
HEIGHT 1
VIEWPOINT 0 0 0 1 0 0 0
POINTS 1223
DATA ascii
-90.604401 11.807369 0.867400 1.000000
-90.604401 11.807369 0.686441 1.000000
-90.643028 11.813622 3.310068 1.000000
-90.643028 11.813622 3.129590 1.000000
-90.643028 11.813622 2.951646 1.000000
-90.643028 11.813622 2.775810 1.000000
-90.643028 11.813622 2.601673 1.000000
-90.643028 11.813622 2.428842 1.000000
-90.643028 11.813620 2.256938 1.000000
-90.643028 11.813622 2.085585 1.000000
-90.643028 11.813622 1.914415 1.000000
-90.643028 11.813620 1.743062 1.000000
-90.643028 11.813622 1.571157 1.000000
-90.643028 11.813622 1.398327 1.000000
-90.643028 11.813622 1.224190 1.000000
-90.643028 11.813621 1.048354 1.000000
-90.643028 11.813622 0.870410 1.000000
-90.643028 11.813622 0.689932 1.000000
-90.681450 11.819841 3.306658 1.000000
-90.681450 11.819841 3.126650 1.000000
-90.681450 11.819840 2.949170 1.000000
-90.681450 11.819841 2.773791 1.000000
-90.681450 11.819839 2.600107 1.000000
-90.681450 11.819839 2.427727 1.000000
-90.681450 11.819840 2.256269 1.000000
-90.681450 11.819839 2.085362 1.000000
-90.681450 11.819839 1.914638 1.000000
-90.681450 11.819840 1.743731 1.000000
-90.681450 11.819839 1.572273 1.000000
-90.681450 11.819839 1.399893 1.000000
-90.681450 11.819840 1.226209 1.000000
-90.681450 11.819839 1.050830 1.000000
-90.681450 11.819839 0.873350 1.000000
-90.681450 11.819841 0.693342 1.000000
-90.719673 11.826029 3.303330 1.000000
-90.719673 11.826028 3.123781 1.000000
-90.719673 11.826029 2.946752 1.000000
-90.719673 11.826029 2.771820 1.000000
-90.719673 11.826029 2.598578 1.000000
-90.719673 11.826027 2.426637 1.000000
-90.719673 11.826028 2.255616 1.000000
-90.719673 11.826029 2.085145 1.000000
-90.719673 11.826029 1.914855 1.000000
-90.719673 11.826028 1.744384 1.000000
-90.719673 11.826027 1.573363 1.000000
-90.719673 11.826028 1.401422 1.000000
-90.719673 11.826029 1.228180 1.000000
-90.719673 11.826029 1.053248 1.000000
-90.719673 11.826028 0.876219 1.000000
-90.719673 11.826028 0.696670 1.000000
-90.757706 11.832184 3.300082 1.000000
-90.757706 11.832184 3.120980 1.000000
-90.757706 11.832184 2.944393 1.000000
-90.757706 11.832184 2.769897 1.000000
-90.757706 11.832185 2.597087 1.000000
-90.757706 11.832184 2.425574 1.000000
-90.757706 11.832185 2.254979 1.000000
-90.757706 11.832186 2.084932 1.000000
-90.757706 11.832185 1.915068 1.000000
-90.757706 11.832185 1.745021 1.000000
-90.757706 11.832184 1.574426 1.000000
-90.757706 11.832185 1.402913 1.000000
-90.757706 11.832184 1.230103 1.000000
-90.757706 11.832184 1.055607 1.000000
-90.757706 11.832184 0.879020 1.000000
-90.757706 11.832184 0.699917 1.000000
-90.795547 11.838310 3.296914 1.000000
-90.795547 11.838311 3.118248 1.000000
-90.795547 11.838311 2.942091 1.000000
-90.795547 11.838310 2.768020 1.000000
-90.795547 11.838310 2.595631 1.000000
-90.795547 11.838311 2.424536 1.000000
-90.795547 11.838310 2.254358 1.000000
-90.795547 11.838311 2.084725 1.000000
-90.795547 11.838311 1.915275 1.000000
-90.795547 11.838310 1.745642 1.000000
-90.795547 11.838310 1.575464 1.000000
-90.795547 11.838310 1.404369 1.000000
-90.795547 11.838310 1.231980 1.000000
-90.795547 11.838310 1.057909 1.000000
-90.795547 11.838310 0.881752 1.000000
-90.795547 11.838310 0.703086 1.000000
-90.833214 11.844408 3.293823 1.000000
-90.833214 11.844408 3.115583 1.000000
-90.833214 11.844408 2.939846 1.000000
-90.833214 11.844408 2.766190 1.000000
-90.833214 11.844408 2.594212 1.000000
-90.833214 11.844408 2.423525 1.000000
-90.833214 11.844408 2.253751 1.000000
-90.833214 11.844408 2.084523 1.000000
-90.833214 11.844408 1.915477 1.000000
-90.833214 11.844408 1.746248 1.000000
-90.833214 11.844408 1.576475 1.000000
-90.833214 11.844408 1.405788 1.000000
-90.833214 11.844408 1.233810 1.000000
-90.833214 11.844408 1.060154 1.000000
-90.833214 11.844408 0.884417 1.000000
-90.833214 11.844408 0.706177 1.000000
-90.870697 11.850475 3.290810 1.000000
-90.870697 11.850475 3.112985 1.000000
-90.870697 11.850475 2.937657 1.000000
-90.870697 11.850476 2.764405 1.000000
-90.870697 11.850475 2.592828 1.000000
-90.870697 11.850475 2.422538 1.000000
-90.870697 11.850475 2.253160 1.000000
-90.870697 11.850475 2.084327 1.000000
-90.870697 11.850475 1.915673 1.000000
-90.870697 11.850475 1.746839 1.000000
-90.870697 11.850475 1.577461 1.000000
-90.870697 11.850475 1.407172 1.000000
-90.870697 11.850475 1.235595 1.000000
-90.870697 11.850475 1.062343 1.000000
-90.870697 11.850475 0.887015 1.000000
-90.870697 11.850475 0.709190 1.000000
-90.908012 11.856516 3.287873 1.000000
-90.908012 11.856516 3.110453 1.000000
-90.908012 11.856516 2.935524 1.000000
-90.908012 11.856516 2.762666 1.000000
-90.908012 11.856516 2.591480 1.000000
-90.908012 11.856515 2.421577 1.000000
-90.908012 11.856516 2.252585 1.000000
-90.908012 11.856516 2.084135 1.000000
-90.908012 11.856516 1.915865 1.000000
-90.908012 11.856516 1.747415 1.000000
-90.908012 11.856515 1.578423 1.000000
-90.908012 11.856516 1.408520 1.000000
-90.908012 11.856516 1.237334 1.000000
-90.908012 11.856516 1.064476 1.000000
-90.908012 11.856515 0.889547 1.000000
-90.908012 11.856516 0.712127 1.000000
-90.945160 11.862530 3.285012 1.000000
-90.945160 11.862530 3.107986 1.000000
-90.945160 11.862529 2.933446 1.000000
-90.945160 11.862530 2.760972 1.000000
-90.945160 11.862529 2.590166 1.000000
-90.945160 11.862530 2.420641 1.000000
-90.945160 11.862529 2.252024 1.000000
-90.945160 11.862529 2.083948 1.000000
-90.945160 11.862529 1.916052 1.000000
-90.945160 11.862528 1.747976 1.000000
-90.945160 11.862530 1.579359 1.000000
-90.945160 11.862529 1.409834 1.000000
-90.945160 11.862530 1.239028 1.000000
-90.945160 11.862528 1.066554 1.000000
-90.945160 11.862529 0.892013 1.000000
-90.945160 11.862529 0.714987 1.000000
-90.982140 11.868515 3.282227 1.000000
-90.982140 11.868515 3.105585 1.000000
-90.982140 11.868516 2.931422 1.000000
-90.982140 11.868516 2.759323 1.000000
-90.982140 11.868516 2.588886 1.000000
-90.982140 11.868515 2.419729 1.000000
-90.982140 11.868515 2.251477 1.000000
-90.982140 11.868517 2.083766 1.000000
-90.982140 11.868516 1.916234 1.000000
-90.982140 11.868515 1.748523 1.000000
-90.982140 11.868515 1.580271 1.000000
-90.982140 11.868516 1.411114 1.000000
-90.982140 11.868515 1.240677 1.000000
-90.982140 11.868516 1.068578 1.000000
-90.982140 11.868515 0.894415 1.000000
-90.982140 11.868515 0.717773 1.000000
-91.018967 11.874477 3.279516 1.000000
-91.018967 11.874477 3.103247 1.000000
-91.018967 11.874477 2.929453 1.000000
-91.018967 11.874477 2.757717 1.000000
-91.018967 11.874476 2.587641 1.000000
-91.018967 11.874477 2.418841 1.000000
-91.018967 11.874477 2.250946 1.000000
-91.018967 11.874476 2.083589 1.000000
-91.018967 11.874476 1.916411 1.000000
-91.018967 11.874477 1.749055 1.000000
-91.018967 11.874476 1.581159 1.000000
-91.018967 11.874476 1.412359 1.000000
-91.018967 11.874477 1.242283 1.000000
-91.018967 11.874477 1.070547 1.000000
-91.018967 11.874477 0.896753 1.000000
-91.018967 11.874476 0.720484 1.000000
-91.055634 11.880413 3.276878 1.000000
-91.055634 11.880413 3.100972 1.000000
-91.055634 11.880415 2.927536 1.000000
-91.055634 11.880413 2.756155 1.000000
-91.055634 11.880414 2.586430 1.000000
-91.055634 11.880413 2.417978 1.000000
-91.055634 11.880414 2.250428 1.000000
-91.055634 11.880413 2.083416 1.000000
-91.055634 11.880413 1.916584 1.000000
-91.055634 11.880414 1.749572 1.000000
-91.055634 11.880413 1.582022 1.000000
-91.055634 11.880414 1.413571 1.000000
-91.055634 11.880413 1.243845 1.000000
-91.055634 11.880414 1.072464 1.000000
-91.055634 11.880413 0.899028 1.000000
-91.055634 11.880413 0.723122 1.000000
-91.092155 11.886326 3.274313 1.000000
-91.092155 11.886326 3.098761 1.000000
-91.092155 11.886326 2.925673 1.000000
-91.092155 11.886326 2.754636 1.000000
-91.092155 11.886324 2.585252 1.000000
-91.092155 11.886326 2.417138 1.000000
-91.092155 11.886326 2.249925 1.000000
-91.092155 11.886324 2.083249 1.000000
-91.092155 11.886324 1.916751 1.000000
-91.092155 11.886325 1.750075 1.000000
-91.092155 11.886326 1.582862 1.000000
-91.092155 11.886324 1.414748 1.000000
-91.092155 11.886326 1.245364 1.000000
-91.092155 11.886326 1.074327 1.000000
-91.092155 11.886325 0.901239 1.000000
-91.092155 11.886325 0.725687 1.000000
-91.128532 11.892214 3.271820 1.000000
-91.128532 11.892214 3.096611 1.000000
-91.128532 11.892214 2.923862 1.000000
-91.128532 11.892214 2.753160 1.000000
-91.128532 11.892214 2.584107 1.000000
-91.128532 11.892214 2.416322 1.000000
-91.128532 11.892214 2.249436 1.000000
-91.128532 11.892214 2.083086 1.000000
-91.128532 11.892214 1.916914 1.000000
-91.128532 11.892214 1.750564 1.000000
-91.128532 11.892213 1.583678 1.000000
-91.128532 11.892214 1.415893 1.000000
-91.128532 11.892214 1.246840 1.000000
-91.128532 11.892213 1.076137 1.000000
-91.128532 11.892214 0.903389 1.000000
-91.128532 11.892213 0.728180 1.000000
-91.164772 11.898080 3.269399 1.000000
-91.164772 11.898081 3.094523 1.000000
-91.164772 11.898080 2.922104 1.000000
-91.164772 11.898079 2.751726 1.000000
-91.164772 11.898080 2.582995 1.000000
-91.164772 11.898080 2.415530 1.000000
-91.164772 11.898080 2.248961 1.000000
-91.164772 11.898081 2.082928 1.000000
-91.164772 11.898081 1.917072 1.000000
-91.164772 11.898080 1.751039 1.000000
-91.164772 11.898080 1.584470 1.000000
-91.164772 11.898079 1.417005 1.000000
-91.164772 11.898079 1.248274 1.000000
-91.164772 11.898079 1.077896 1.000000
-91.164772 11.898080 0.905476 1.000000
-91.164772 11.898079 0.730601 1.000000
-91.200874 11.903924 3.267048 1.000000
-91.200874 11.903923 3.092497 1.000000
-91.200874 11.903924 2.920396 1.000000
-91.200874 11.903923 2.750334 1.000000
-91.200874 11.903924 2.581915 1.000000
-91.200874 11.903925 2.414760 1.000000
-91.200874 11.903924 2.248500 1.000000
-91.200874 11.903923 2.082774 1.000000
-91.200874 11.903923 1.917226 1.000000
-91.200874 11.903924 1.751500 1.000000
-91.200874 11.903925 1.585240 1.000000
-91.200874 11.903923 1.418085 1.000000
-91.200874 11.903923 1.249666 1.000000
-91.200874 11.903923 1.079604 1.000000
-91.200874 11.903923 0.907503 1.000000
-91.200874 11.903923 0.732952 1.000000
-91.236839 11.909748 3.264768 1.000000
-91.236839 11.909746 3.090531 1.000000
-91.236839 11.909748 2.918739 1.000000
-91.236839 11.909747 2.748983 1.000000
-91.236839 11.909746 2.580868 1.000000
-91.236839 11.909747 2.414014 1.000000
-91.236839 11.909747 2.248053 1.000000
-91.236839 11.909746 2.082625 1.000000
-91.236839 11.909746 1.917375 1.000000
-91.236839 11.909747 1.751947 1.000000
-91.236839 11.909747 1.585986 1.000000
-91.236839 11.909746 1.419132 1.000000
-91.236839 11.909747 1.251017 1.000000
-91.236839 11.909746 1.081260 1.000000
-91.236839 11.909746 0.909469 1.000000
-91.236839 11.909746 0.735232 1.000000
-91.272682 11.915549 3.262557 1.000000
-91.272682 11.915548 3.088624 1.000000
-91.272682 11.915548 2.917134 1.000000
-91.272682 11.915548 2.747674 1.000000
-91.272682 11.915548 2.579853 1.000000
-91.272682 11.915548 2.413290 1.000000
-91.272682 11.915548 2.247619 1.000000
-91.272682 11.915548 2.082481 1.000000
-91.272682 11.915548 1.917519 1.000000
-91.272682 11.915548 1.752380 1.000000
-91.272682 11.915548 1.586710 1.000000
-91.272682 11.915548 1.420147 1.000000
-91.272682 11.915548 1.252326 1.000000
-91.272682 11.915548 1.082866 1.000000
-91.272682 11.915548 0.911376 1.000000
-91.272682 11.915548 0.737443 1.000000
-91.308403 11.921331 3.260415 1.000000
-91.308403 11.921331 3.086778 1.000000
-91.308403 11.921331 2.915578 1.000000
-91.308403 11.921331 2.746406 1.000000
-91.308403 11.921331 2.578869 1.000000
-91.308403 11.921330 2.412589 1.000000
-91.308403 11.921330 2.247200 1.000000
-91.308403 11.921331 2.082341 1.000000
-91.308403 11.921331 1.917659 1.000000
-91.308403 11.921330 1.752800 1.000000
-91.308403 11.921330 1.587411 1.000000
-91.308403 11.921331 1.421131 1.000000
-91.308403 11.921330 1.253594 1.000000
-91.308403 11.921330 1.084422 1.000000
-91.308403 11.921330 0.913222 1.000000
-91.308403 11.921330 0.739585 1.000000
-91.344002 11.927094 3.258343 1.000000
-91.344002 11.927094 3.084990 1.000000
-91.344002 11.927094 2.914072 1.000000
-91.344002 11.927093 2.745178 1.000000
-91.344002 11.927094 2.577917 1.000000
-91.344002 11.927094 2.411910 1.000000
-91.344002 11.927094 2.246793 1.000000
-91.344002 11.927093 2.082206 1.000000
-91.344002 11.927093 1.917794 1.000000
-91.344002 11.927094 1.753207 1.000000
-91.344002 11.927094 1.588089 1.000000
-91.344002 11.927093 1.422083 1.000000
-91.344002 11.927092 1.254822 1.000000
-91.344002 11.927093 1.085928 1.000000
-91.344002 11.927094 0.915010 1.000000
-91.344002 11.927093 0.741657 1.000000
-91.379486 11.932837 3.256337 1.000000
-91.379486 11.932837 3.083261 1.000000
-91.379486 11.932837 2.912616 1.000000
-91.379486 11.932837 2.743991 1.000000
-91.379486 11.932837 2.576996 1.000000
-91.379486 11.932837 2.411254 1.000000
-91.379486 11.932837 2.246400 1.000000
-91.379486 11.932837 2.082075 1.000000
-91.379486 11.932837 1.917925 1.000000
-91.379486 11.932837 1.753600 1.000000
-91.379486 11.932837 1.588746 1.000000
-91.379486 11.932837 1.423004 1.000000
-91.379486 11.932837 1.256009 1.000000
-91.379486 11.932837 1.087384 1.000000
-91.379486 11.932837 0.916739 1.000000
-91.379486 11.932837 0.743663 1.000000
-91.414856 11.938564 3.254399 1.000000
-91.414856 11.938562 3.081591 1.000000
-91.414856 11.938564 2.911208 1.000000
-91.414856 11.938564 2.742843 1.000000
-91.414856 11.938564 2.576106 1.000000
-91.414856 11.938564 2.410619 1.000000
-91.414856 11.938563 2.246020 1.000000
-91.414856 11.938563 2.081948 1.000000
-91.414856 11.938563 1.918052 1.000000
-91.414856 11.938563 1.753980 1.000000
-91.414856 11.938563 1.589380 1.000000
-91.414856 11.938564 1.423894 1.000000
-91.414856 11.938563 1.257157 1.000000
-91.414856 11.938563 1.088792 1.000000
-91.414856 11.938562 0.918409 1.000000
-91.414856 11.938563 0.745600 1.000000
-91.450127 11.944273 3.252528 1.000000
-91.450127 11.944272 3.079978 1.000000
-91.450127 11.944273 2.909849 1.000000
-91.450127 11.944271 2.741735 1.000000
-91.450127 11.944273 2.575247 1.000000
-91.450127 11.944272 2.410007 1.000000
-91.450127 11.944272 2.245652 1.000000
-91.450127 11.944273 2.081826 1.000000
-91.450127 11.944273 1.918174 1.000000
-91.450127 11.944272 1.754347 1.000000
-91.450127 11.944272 1.589993 1.000000
-91.450127 11.944273 1.424753 1.000000
-91.450127 11.944271 1.258265 1.000000
-91.450127 11.944272 1.090151 1.000000
-91.450127 11.944271 0.920022 1.000000
-91.450127 11.944272 0.747472 1.000000
-91.485283 11.949965 3.250724 1.000000
-91.485283 11.949965 3.078421 1.000000
-91.485283 11.949965 2.908538 1.000000
-91.485283 11.949965 2.740667 1.000000
-91.485283 11.949965 2.574418 1.000000
-91.485283 11.949965 2.409416 1.000000
-91.485283 11.949965 2.245299 1.000000
-91.485283 11.949965 2.081708 1.000000
-91.485283 11.949965 1.918292 1.000000
-91.485283 11.949965 1.754701 1.000000
-91.485283 11.949965 1.590583 1.000000
-91.485283 11.949965 1.425582 1.000000
-91.485283 11.949964 1.259333 1.000000
-91.485283 11.949965 1.091462 1.000000
-91.485283 11.949965 0.921579 1.000000
-91.485283 11.949965 0.749276 1.000000
-91.520348 11.955641 3.248985 1.000000
-91.520348 11.955641 3.076922 1.000000
-91.520348 11.955641 2.907275 1.000000
-91.520348 11.955641 2.739637 1.000000
-91.520348 11.955640 2.573620 1.000000
-91.520348 11.955641 2.408847 1.000000
-91.520348 11.955640 2.244958 1.000000
-91.520348 11.955641 2.081594 1.000000
-91.520348 11.955641 1.918406 1.000000
-91.520348 11.955640 1.755042 1.000000
-91.520348 11.955641 1.591152 1.000000
-91.520348 11.955639 1.426380 1.000000
-91.520348 11.955640 1.260363 1.000000
-91.520348 11.955641 1.092725 1.000000
-91.520348 11.955641 0.923078 1.000000
-91.520348 11.955641 0.751015 1.000000
-91.555313 11.961302 3.247312 1.000000
-91.555313 11.961300 3.075480 1.000000
-91.555313 11.961301 2.906060 1.000000
-91.555313 11.961300 2.738647 1.000000
-91.555313 11.961301 2.572851 1.000000
-91.555313 11.961300 2.408300 1.000000
-91.555313 11.961300 2.244630 1.000000
-91.555313 11.961301 2.081485 1.000000
-91.555313 11.961300 1.918515 1.000000
-91.555313 11.961300 1.755370 1.000000
-91.555313 11.961300 1.591700 1.000000
-91.555313 11.961300 1.427149 1.000000
-91.555313 11.961300 1.261353 1.000000
-91.555313 11.961300 1.093940 1.000000
-91.555313 11.961300 0.924520 1.000000
-91.555313 11.961300 0.752687 1.000000
-91.590195 11.966947 3.245705 1.000000
-91.590195 11.966946 3.074094 1.000000
-91.590195 11.966946 2.904892 1.000000
-91.590195 11.966946 2.737695 1.000000
-91.590195 11.966946 2.572113 1.000000
-91.590195 11.966946 2.407773 1.000000
-91.590195 11.966946 2.244314 1.000000
-91.590195 11.966946 2.081380 1.000000
-91.590195 11.966946 1.918620 1.000000
-91.590195 11.966946 1.755686 1.000000
-91.590195 11.966946 1.592226 1.000000
-91.590195 11.966946 1.427887 1.000000
-91.590195 11.966946 1.262305 1.000000
-91.590195 11.966946 1.095108 1.000000
-91.590195 11.966946 0.925906 1.000000
-91.590195 11.966946 0.754295 1.000000
-91.624977 11.972578 3.244162 1.000000
-91.624977 11.972578 3.072763 1.000000
-91.624977 11.972577 2.903771 1.000000
-91.624977 11.972577 2.736781 1.000000
-91.624977 11.972578 2.571404 1.000000
-91.624977 11.972578 2.407268 1.000000
-91.624977 11.972577 2.244012 1.000000
-91.624977 11.972576 2.081279 1.000000
-91.624977 11.972576 1.918721 1.000000
-91.624977 11.972577 1.755988 1.000000
-91.624977 11.972577 1.592731 1.000000
-91.624977 11.972578 1.428596 1.000000
-91.624977 11.972577 1.263219 1.000000
-91.624977 11.972576 1.096229 1.000000
-91.624977 11.972577 0.927237 1.000000
-91.624977 11.972577 0.755838 1.000000
-91.659683 11.978195 3.242682 1.000000
-91.659683 11.978195 3.071488 1.000000
-91.659683 11.978195 2.902697 1.000000
-91.659683 11.978195 2.735905 1.000000
-91.659683 11.978195 2.570725 1.000000
-91.659683 11.978195 2.406784 1.000000
-91.659683 11.978195 2.243721 1.000000
-91.659683 11.978195 2.081182 1.000000
-91.659683 11.978195 1.918818 1.000000
-91.659683 11.978195 1.756278 1.000000
-91.659683 11.978195 1.593216 1.000000
-91.659683 11.978195 1.429275 1.000000
-91.659683 11.978195 1.264095 1.000000
-91.659683 11.978195 1.097303 1.000000
-91.659683 11.978195 0.928512 1.000000
-91.659683 11.978195 0.757317 1.000000
-91.694305 11.983800 3.241268 1.000000
-91.694305 11.983800 3.070268 1.000000
-91.694305 11.983799 2.901669 1.000000
-91.694305 11.983800 2.735067 1.000000
-91.694305 11.983799 2.570075 1.000000
-91.694305 11.983799 2.406321 1.000000
-91.694305 11.983799 2.243444 1.000000
-91.694305 11.983799 2.081090 1.000000
-91.694305 11.983799 1.918910 1.000000
-91.694305 11.983799 1.756556 1.000000
-91.694305 11.983799 1.593679 1.000000
-91.694305 11.983799 1.429925 1.000000
-91.694305 11.983799 1.264933 1.000000
-91.694305 11.983799 1.098330 1.000000
-91.694305 11.983799 0.929732 1.000000
-91.694305 11.983799 0.758732 1.000000
-91.728851 11.989391 3.239916 1.000000
-91.728851 11.989391 3.069103 1.000000
-91.728851 11.989391 2.900688 1.000000
-91.728851 11.989391 2.734267 1.000000
-91.728851 11.989391 2.569455 1.000000
-91.728851 11.989391 2.405879 1.000000
-91.728851 11.989391 2.243179 1.000000
-91.728851 11.989391 2.081002 1.000000
-91.728851 11.989391 1.918998 1.000000
-91.728851 11.989391 1.756821 1.000000
-91.728851 11.989391 1.594121 1.000000
-91.728851 11.989390 1.430545 1.000000
-91.728851 11.989390 1.265733 1.000000
-91.728851 11.989391 1.099312 1.000000
-91.728851 11.989391 0.930897 1.000000
-91.728851 11.989391 0.760083 1.000000
-91.763321 11.994972 3.238629 1.000000
-91.763321 11.994972 3.067992 1.000000
-91.763321 11.994971 2.899752 1.000000
-91.763321 11.994972 2.733504 1.000000
-91.763321 11.994972 2.568863 1.000000
-91.763321 11.994972 2.405457 1.000000
-91.763321 11.994970 2.242926 1.000000
-91.763321 11.994972 2.080918 1.000000
-91.763321 11.994972 1.919082 1.000000
-91.763321 11.994970 1.757073 1.000000
-91.763321 11.994971 1.594543 1.000000
-91.763321 11.994971 1.431137 1.000000
-91.763321 11.994971 1.266496 1.000000
-91.763321 11.994971 1.100248 1.000000
-91.763321 11.994972 0.932008 1.000000
-91.763321 11.994970 0.761371 1.000000
-91.797722 12.000542 3.237403 1.000000
-91.797722 12.000541 3.066936 1.000000
-91.797722 12.000542 2.898862 1.000000
-91.797722 12.000541 2.732779 1.000000
-91.797722 12.000540 2.568300 1.000000
-91.797722 12.000541 2.405056 1.000000
-91.797722 12.000542 2.242686 1.000000
-91.797722 12.000541 2.080837 1.000000
-91.797722 12.000541 1.919162 1.000000
-91.797722 12.000541 1.757314 1.000000
-91.797722 12.000541 1.594944 1.000000
-91.797722 12.000540 1.431700 1.000000
-91.797722 12.000540 1.267221 1.000000
-91.797722 12.000541 1.101138 1.000000
-91.797722 12.000540 0.933064 1.000000
-91.797722 12.000540 0.762596 1.000000
-91.832062 12.006099 3.236241 1.000000
-91.832062 12.006099 3.065934 1.000000
-91.832054 12.006100 2.898017 1.000000
-91.832062 12.006099 2.732090 1.000000
-91.832054 12.006100 2.567766 1.000000
-91.832054 12.006100 2.404675 1.000000
-91.832062 12.006099 2.242458 1.000000
-91.832054 12.006100 2.080762 1.000000
-91.832054 12.006100 1.919238 1.000000
-91.832062 12.006099 1.757542 1.000000
-91.832054 12.006100 1.595324 1.000000
-91.832054 12.006100 1.432234 1.000000
-91.832062 12.006098 1.267910 1.000000
-91.832054 12.006100 1.101982 1.000000
-91.832062 12.006098 0.934066 1.000000
-91.832062 12.006098 0.763759 1.000000
-91.866333 12.011647 3.235141 1.000000
-91.866333 12.011646 3.064985 1.000000
-91.866333 12.011647 2.897218 1.000000
-91.866333 12.011646 2.731438 1.000000
-91.866333 12.011646 2.567261 1.000000
-91.866333 12.011647 2.404315 1.000000
-91.866333 12.011646 2.242243 1.000000
-91.866333 12.011646 2.080690 1.000000
-91.866333 12.011646 1.919310 1.000000
-91.866333 12.011646 1.757758 1.000000
-91.866333 12.011646 1.595684 1.000000
-91.866333 12.011646 1.432739 1.000000
-91.866333 12.011646 1.268561 1.000000
-91.866333 12.011646 1.102782 1.000000
-91.866333 12.011646 0.935015 1.000000
-91.866333 12.011646 0.764859 1.000000
-91.900543 12.017185 3.234103 1.000000
-91.900543 12.017185 3.064090 1.000000
-91.900543 12.017185 2.896464 1.000000
-91.900543 12.017185 2.730824 1.000000
-91.900543 12.017185 2.566784 1.000000
-91.900543 12.017185 2.403976 1.000000
-91.900543 12.017185 2.242039 1.000000
-91.900543 12.017185 2.080622 1.000000
-91.900543 12.017185 1.919378 1.000000
-91.900543 12.017184 1.757961 1.000000
-91.900543 12.017185 1.596024 1.000000
-91.900543 12.017185 1.433216 1.000000
-91.900543 12.017185 1.269176 1.000000
-91.900543 12.017185 1.103536 1.000000
-91.900543 12.017185 0.935910 1.000000
-91.900543 12.017184 0.765897 1.000000
-91.934700 12.022715 3.233126 1.000000
-91.934700 12.022715 3.063248 1.000000
-91.934700 12.022715 2.895755 1.000000
-91.934700 12.022715 2.730246 1.000000
-91.934700 12.022715 2.566336 1.000000
-91.934700 12.022715 2.403656 1.000000
-91.934700 12.022715 2.241847 1.000000
-91.934700 12.022715 2.080558 1.000000
-91.934700 12.022715 1.919442 1.000000
-91.934700 12.022715 1.758153 1.000000
-91.934700 12.022715 1.596344 1.000000
-91.934700 12.022715 1.433664 1.000000
-91.934700 12.022715 1.269754 1.000000
-91.934700 12.022715 1.104245 1.000000
-91.934700 12.022715 0.936752 1.000000
-91.934700 12.022715 0.766873 1.000000
-91.968803 12.028235 3.232212 1.000000
-91.968803 12.028236 3.062459 1.000000
-91.968803 12.028235 2.895090 1.000000
-91.968803 12.028236 2.729704 1.000000
-91.968803 12.028236 2.565916 1.000000
-91.968803 12.028235 2.403357 1.000000
-91.968803 12.028235 2.241668 1.000000
-91.968803 12.028235 2.080498 1.000000
-91.968803 12.028234 1.919502 1.000000
-91.968803 12.028235 1.758332 1.000000
-91.968803 12.028234 1.596643 1.000000
-91.968803 12.028236 1.434084 1.000000
-91.968803 12.028235 1.270296 1.000000
-91.968803 12.028234 1.104909 1.000000
-91.968803 12.028235 0.937541 1.000000
-91.968803 12.028234 0.767788 1.000000
-92.002861 12.033749 3.231358 1.000000
-92.002861 12.033748 3.061723 1.000000
-92.002861 12.033749 2.894471 1.000000
-92.002861 12.033749 2.729198 1.000000
-92.002861 12.033749 2.565524 1.000000
-92.002861 12.033747 2.403077 1.000000
-92.002861 12.033749 2.241500 1.000000
-92.002861 12.033749 2.080443 1.000000
-92.002861 12.033749 1.919557 1.000000
-92.002861 12.033749 1.758499 1.000000
-92.002861 12.033747 1.596923 1.000000
-92.002861 12.033749 1.434476 1.000000
-92.002861 12.033749 1.270801 1.000000
-92.002861 12.033748 1.105529 1.000000
-92.002861 12.033747 0.938276 1.000000
-92.002861 12.033748 0.768642 1.000000
-92.036873 12.039254 3.230566 1.000000
-92.036873 12.039253 3.061040 1.000000
-92.036873 12.039254 2.893895 1.000000
-92.036873 12.039255 2.728729 1.000000
-92.036873 12.039253 2.565160 1.000000
-92.036873 12.039254 2.402818 1.000000
-92.036873 12.039254 2.241345 1.000000
-92.036873 12.039253 2.080391 1.000000
-92.036873 12.039253 1.919609 1.000000
-92.036873 12.039253 1.758655 1.000000
-92.036873 12.039254 1.597182 1.000000
-92.036873 12.039253 1.434840 1.000000
-92.036873 12.039254 1.271271 1.000000
-92.036873 12.039253 1.106105 1.000000
-92.036873 12.039253 0.938960 1.000000
-92.036873 12.039254 0.769434 1.000000
-92.070839 12.044754 3.229834 1.000000
-92.070839 12.044752 3.060410 1.000000
-92.070839 12.044753 2.893363 1.000000
-92.070839 12.044753 2.728296 1.000000
-92.070839 12.044752 2.564824 1.000000
-92.070839 12.044752 2.402578 1.000000
-92.070839 12.044752 2.241202 1.000000
-92.070839 12.044754 2.080343 1.000000
-92.070839 12.044754 1.919657 1.000000
-92.070839 12.044752 1.758798 1.000000
-92.070839 12.044752 1.597421 1.000000
-92.070839 12.044752 1.435176 1.000000
-92.070839 12.044752 1.271704 1.000000
-92.070839 12.044753 1.106636 1.000000
-92.070839 12.044752 0.939590 1.000000
-92.070839 12.044753 0.770166 1.000000
-92.104774 12.050245 3.229163 1.000000
-92.104774 12.050245 3.059831 1.000000
-92.104774 12.050244 2.892877 1.000000
-92.104774 12.050245 2.727899 1.000000
-92.104774 12.050245 2.564516 1.000000
-92.104774 12.050245 2.402359 1.000000
-92.104774 12.050245 2.241070 1.000000
-92.104774 12.050245 2.080299 1.000000
-92.104774 12.050245 1.919701 1.000000
-92.104774 12.050244 1.758930 1.000000
-92.104774 12.050245 1.597641 1.000000
-92.104774 12.050244 1.435484 1.000000
-92.104774 12.050245 1.272101 1.000000
-92.104774 12.050244 1.107123 1.000000
-92.104774 12.050245 0.940169 1.000000
-92.104774 12.050245 0.770836 1.000000
-92.138664 12.055733 3.228554 1.000000
-92.138664 12.055733 3.059305 1.000000
-92.138664 12.055733 2.892433 1.000000
-92.138664 12.055733 2.727538 1.000000
-92.138664 12.055733 2.564236 1.000000
-92.138664 12.055733 2.402159 1.000000
-92.138664 12.055733 2.240951 1.000000
-92.138664 12.055733 2.080260 1.000000
-92.138664 12.055733 1.919741 1.000000
-92.138664 12.055733 1.759049 1.000000
-92.138664 12.055733 1.597841 1.000000
-92.138664 12.055733 1.435764 1.000000
-92.138664 12.055732 1.272462 1.000000
-92.138664 12.055732 1.107567 1.000000
-92.138664 12.055732 0.940695 1.000000
-92.138664 12.055732 0.771446 1.000000
-92.172531 12.061214 3.228004 1.000000
-92.172531 12.061214 3.058831 1.000000
-92.172531 12.061214 2.892034 1.000000
-92.172531 12.061214 2.727212 1.000000
-92.172531 12.061214 2.563983 1.000000
-92.172531 12.061214 2.401979 1.000000
-92.172531 12.061214 2.240843 1.000000
-92.172531 12.061214 2.080224 1.000000
-92.172531 12.061214 1.919776 1.000000
-92.172531 12.061214 1.759157 1.000000
-92.172531 12.061214 1.598021 1.000000
-92.172531 12.061213 1.436017 1.000000
-92.172531 12.061214 1.272788 1.000000
-92.172531 12.061213 1.107966 1.000000
-92.172531 12.061214 0.941169 1.000000
-92.172531 12.061213 0.771996 1.000000
-92.206360 12.066690 3.227514 1.000000
-92.206360 12.066690 3.058410 1.000000
-92.206360 12.066691 2.891678 1.000000
-92.206360 12.066690 2.726923 1.000000
-92.206360 12.066690 2.563759 1.000000
-92.206360 12.066690 2.401819 1.000000
-92.206360 12.066692 2.240746 1.000000
-92.206360 12.066691 2.080192 1.000000
-92.206360 12.066691 1.919808 1.000000
-92.206360 12.066692 1.759253 1.000000
-92.206360 12.066690 1.598181 1.000000
-92.206360 12.066690 1.436241 1.000000
-92.206360 12.066690 1.273078 1.000000
-92.206360 12.066690 1.108321 1.000000
-92.206360 12.066690 0.941591 1.000000
-92.206360 12.066690 0.772485 1.000000
-92.240173 12.072164 3.227086 1.000000
-92.240173 12.072165 3.058039 1.000000
-92.240173 12.072163 2.891366 1.000000
-92.240173 12.072165 2.726668 1.000000
-92.240173 12.072164 2.563561 1.000000
-92.240173 12.072164 2.401679 1.000000
-92.240173 12.072165 2.240663 1.000000
-92.240173 12.072163 2.080163 1.000000
-92.240173 12.072163 1.919837 1.000000
-92.240173 12.072164 1.759337 1.000000
-92.240173 12.072164 1.598321 1.000000
-92.240173 12.072164 1.436439 1.000000
-92.240173 12.072164 1.273332 1.000000
-92.240173 12.072163 1.108633 1.000000
-92.240173 12.072164 0.941961 1.000000
-92.240173 12.072163 0.772914 1.000000
-92.273956 12.077633 3.226716 1.000000
-92.273956 12.077633 3.057721 1.000000
-92.273956 12.077633 2.891098 1.000000
-92.273956 12.077633 2.726449 1.000000
-92.273956 12.077633 2.563392 1.000000
-92.273956 12.077633 2.401558 1.000000
-92.273956 12.077633 2.240590 1.000000
-92.273956 12.077633 2.080139 1.000000
-92.273956 12.077633 1.919861 1.000000
-92.273956 12.077633 1.759410 1.000000
-92.273956 12.077633 1.598442 1.000000
-92.273956 12.077633 1.436608 1.000000
-92.273956 12.077633 1.273551 1.000000
-92.273956 12.077633 1.108902 1.000000
-92.273956 12.077633 0.942279 1.000000
-92.273956 12.077632 0.773284 1.000000
-92.307724 12.083099 3.226407 1.000000
-92.307724 12.083101 3.057454 1.000000
-92.307724 12.083100 2.890874 1.000000
-92.307724 12.083100 2.726266 1.000000
-92.307724 12.083100 2.563250 1.000000
-92.307724 12.083100 2.401456 1.000000
-92.307724 12.083099 2.240530 1.000000
-92.307724 12.083099 2.080119 1.000000
-92.307724 12.083099 1.919881 1.000000
-92.307724 12.083099 1.759470 1.000000
-92.307724 12.083100 1.598543 1.000000
-92.307724 12.083100 1.436750 1.000000
-92.307724 12.083099 1.273734 1.000000
-92.307724 12.083099 1.109126 1.000000
-92.307724 12.083100 0.942546 1.000000
-92.307732 12.083098 0.773593 1.000000
-92.341484 12.088563 3.226158 1.000000
-92.341484 12.088564 3.057240 1.000000
-92.341476 12.088564 2.890693 1.000000
-92.341484 12.088564 2.726119 1.000000
-92.341476 12.088564 2.563135 1.000000
-92.341484 12.088563 2.401375 1.000000
-92.341484 12.088563 2.240480 1.000000
-92.341484 12.088562 2.080103 1.000000
-92.341484 12.088562 1.919897 1.000000
-92.341484 12.088563 1.759519 1.000000
-92.341484 12.088563 1.598625 1.000000
-92.341476 12.088564 1.436865 1.000000
-92.341484 12.088563 1.273881 1.000000
-92.341484 12.088564 1.109307 1.000000
-92.341484 12.088564 0.942761 1.000000
-92.341484 12.088562 0.773842 1.000000
-92.375221 12.094027 3.225968 1.000000
-92.375221 12.094026 3.057076 1.000000
-92.375221 12.094026 2.890555 1.000000
-92.375221 12.094027 2.726007 1.000000
-92.375221 12.094025 2.563048 1.000000
-92.375221 12.094026 2.401313 1.000000
-92.375221 12.094027 2.240443 1.000000
-92.375221 12.094025 2.080091 1.000000
-92.375221 12.094025 1.919909 1.000000
-92.375221 12.094026 1.759557 1.000000
-92.375221 12.094026 1.598687 1.000000
-92.375221 12.094025 1.436952 1.000000
-92.375221 12.094027 1.273993 1.000000
-92.375221 12.094026 1.109445 1.000000
-92.375221 12.094025 0.942924 1.000000
-92.375221 12.094027 0.774032 1.000000
-92.408951 12.099485 3.225838 1.000000
-92.408951 12.099485 3.056964 1.000000
-92.408951 12.099485 2.890461 1.000000
-92.408951 12.099485 2.725930 1.000000
-92.408951 12.099485 2.562989 1.000000
-92.408951 12.099486 2.401270 1.000000
-92.408951 12.099485 2.240418 1.000000
-92.408951 12.099485 2.080082 1.000000
-92.408951 12.099485 1.919918 1.000000
-92.408951 12.099485 1.759582 1.000000
-92.408951 12.099485 1.598730 1.000000
-92.408951 12.099485 1.437011 1.000000
-92.408951 12.099485 1.274070 1.000000
-92.408951 12.099485 1.109539 1.000000
-92.408951 12.099484 0.943036 1.000000
-92.408951 12.099485 0.774161 1.000000
-92.442680 12.104944 3.225769 1.000000
-92.442680 12.104945 3.056904 1.000000
-92.442680 12.104944 2.890410 1.000000
-92.442680 12.104944 2.725889 1.000000
-92.442680 12.104944 2.562957 1.000000
-92.442680 12.104945 2.401248 1.000000
-92.442680 12.104946 2.240404 1.000000
-92.442680 12.104946 2.080078 1.000000
-92.442680 12.104944 1.919922 1.000000
-92.442680 12.104945 1.759596 1.000000
-92.442680 12.104944 1.598752 1.000000
-92.442680 12.104944 1.437043 1.000000
-92.442680 12.104944 1.274111 1.000000
-92.442680 12.104944 1.109590 1.000000
-92.442680 12.104944 0.943096 1.000000
-92.442680 12.104944 0.774231 1.000000
-92.476402 12.110403 3.225759 1.000000
-92.476402 12.110405 3.056895 1.000000
-92.476402 12.110405 2.890403 1.000000
-92.476402 12.110404 2.725883 1.000000
-92.476402 12.110405 2.562952 1.000000
-92.476402 12.110405 2.401244 1.000000
-92.476402 12.110403 2.240402 1.000000
-92.476402 12.110403 2.080077 1.000000
-92.476402 12.110403 1.919923 1.000000
-92.476402 12.110403 1.759598 1.000000
-92.476402 12.110405 1.598756 1.000000
-92.476402 12.110405 1.437048 1.000000
-92.476402 12.110403 1.274117 1.000000
-92.476402 12.110404 1.109597 1.000000
-92.476402 12.110404 0.943105 1.000000
-92.476402 12.110403 0.774241 1.000000
-92.510132 12.115864 3.225808 1.000000
-92.510132 12.115864 3.056938 1.000000
-92.510132 12.115864 2.890439 1.000000
-92.510132 12.115864 2.725912 1.000000
-92.510132 12.115864 2.562975 1.000000
-92.510132 12.115864 2.401261 1.000000
-92.510132 12.115864 2.240412 1.000000
-92.510132 12.115865 2.080080 1.000000
-92.510132 12.115864 1.919920 1.000000
-92.510132 12.115864 1.759588 1.000000
-92.510132 12.115864 1.598739 1.000000
-92.510132 12.115864 1.437025 1.000000
-92.510132 12.115864 1.274088 1.000000
-92.510132 12.115864 1.109561 1.000000
-92.510132 12.115864 0.943062 1.000000
-92.510132 12.115864 0.774192 1.000000
-92.543861 12.121323 3.225918 1.000000
-92.543861 12.121325 3.057032 1.000000
-92.543861 12.121324 2.890518 1.000000
-92.543861 12.121325 2.725977 1.000000
-92.543861 12.121324 2.563025 1.000000
-92.543861 12.121325 2.401296 1.000000
-92.543861 12.121324 2.240433 1.000000
-92.543861 12.121325 2.080087 1.000000
-92.543861 12.121325 1.919913 1.000000
-92.543861 12.121324 1.759566 1.000000
-92.543861 12.121325 1.598704 1.000000
-92.543861 12.121324 1.436975 1.000000
-92.543861 12.121325 1.274023 1.000000
-92.543861 12.121323 1.109481 1.000000
-92.543861 12.121325 0.942968 1.000000
-92.543861 12.121323 0.774082 1.000000
-92.577599 12.126785 3.226087 1.000000
-92.577599 12.126785 3.057178 1.000000
-92.577599 12.126785 2.890641 1.000000
-92.577599 12.126785 2.726077 1.000000
-92.577599 12.126786 2.563103 1.000000
-92.577599 12.126785 2.401352 1.000000
-92.577599 12.126785 2.240467 1.000000
-92.577599 12.126785 2.080098 1.000000
-92.577599 12.126785 1.919902 1.000000
-92.577599 12.126785 1.759533 1.000000
-92.577599 12.126785 1.598648 1.000000
-92.577599 12.126785 1.436897 1.000000
-92.577599 12.126784 1.273923 1.000000
-92.577599 12.126785 1.109359 1.000000
-92.577599 12.126785 0.942822 1.000000
-92.577599 12.126785 0.773913 1.000000
-92.611343 12.132248 3.226316 1.000000
-92.611343 12.132250 3.057375 1.000000
-92.611343 12.132250 2.890807 1.000000
-92.611343 12.132250 2.726212 1.000000
-92.611343 12.132250 2.563208 1.000000
-92.611343 12.132249 2.401427 1.000000
-92.611343 12.132249 2.240511 1.000000
-92.611343 12.132250 2.080113 1.000000
-92.611343 12.132250 1.919887 1.000000
-92.611343 12.132249 1.759488 1.000000
-92.611343 12.132249 1.598573 1.000000
-92.611343 12.132249 1.436792 1.000000
-92.611343 12.132249 1.273788 1.000000
-92.611343 12.132250 1.109193 1.000000
-92.611343 12.132249 0.942624 1.000000
-92.611343 12.132248 0.773684 1.000000
-92.645103 12.137713 3.226605 1.000000
-92.645103 12.137714 3.057625 1.000000
-92.645103 12.137714 2.891017 1.000000
-92.645103 12.137714 2.726383 1.000000
-92.645103 12.137714 2.563341 1.000000
-92.645103 12.137714 2.401521 1.000000
-92.645103 12.137713 2.240568 1.000000
-92.645103 12.137713 2.080132 1.000000
-92.645103 12.137713 1.919868 1.000000
-92.645103 12.137713 1.759432 1.000000
-92.645103 12.137714 1.598479 1.000000
-92.645103 12.137714 1.436659 1.000000
-92.645103 12.137714 1.273617 1.000000
-92.645103 12.137714 1.108983 1.000000
-92.645103 12.137714 0.942375 1.000000
-92.645103 12.137712 0.773395 1.000000
-92.678886 12.143181 3.226954 1.000000
-92.678886 12.143183 3.057925 1.000000
-92.678886 12.143182 2.891271 1.000000
-92.678886 12.143183 2.726590 1.000000
-92.678886 12.143183 2.563501 1.000000
-92.678886 12.143183 2.401635 1.000000
-92.678886 12.143183 2.240637 1.000000
-92.678886 12.143183 2.080155 1.000000
-92.678886 12.143183 1.919845 1.000000
-92.678886 12.143182 1.759363 1.000000
-92.678886 12.143182 1.598364 1.000000
-92.678886 12.143182 1.436499 1.000000
-92.678886 12.143183 1.273410 1.000000
-92.678886 12.143182 1.108729 1.000000
-92.678886 12.143182 0.942074 1.000000
-92.678886 12.143181 0.773046 1.000000
-92.712685 12.148654 3.227362 1.000000
-92.712685 12.148655 3.058278 1.000000
-92.712685 12.148654 2.891568 1.000000
-92.712685 12.148653 2.726832 1.000000
-92.712685 12.148655 2.563688 1.000000
-92.712685 12.148655 2.401769 1.000000
-92.712685 12.148654 2.240717 1.000000
-92.712685 12.148654 2.080182 1.000000
-92.712685 12.148654 1.919818 1.000000
-92.712685 12.148654 1.759283 1.000000
-92.712685 12.148655 1.598231 1.000000
-92.712685 12.148653 1.436311 1.000000
-92.712685 12.148653 1.273168 1.000000
-92.712685 12.148653 1.108432 1.000000
-92.712685 12.148654 0.941722 1.000000
-92.712685 12.148653 0.772638 1.000000
-92.746513 12.154130 3.227831 1.000000
-92.746513 12.154130 3.058682 1.000000
-92.746513 12.154130 2.891908 1.000000
-92.746513 12.154131 2.727110 1.000000
-92.746513 12.154129 2.563904 1.000000
-92.746513 12.154129 2.401923 1.000000
-92.746513 12.154130 2.240809 1.000000
-92.746513 12.154129 2.080212 1.000000
-92.746513 12.154129 1.919788 1.000000
-92.746513 12.154129 1.759191 1.000000
-92.746513 12.154129 1.598077 1.000000
-92.746513 12.154129 1.436096 1.000000
-92.746513 12.154131 1.272890 1.000000
-92.746513 12.154129 1.108091 1.000000
-92.746513 12.154129 0.941318 1.000000
-92.746513 12.154129 0.772169 1.000000
-92.780365 12.159609 3.228360 1.000000
-92.780365 12.159610 3.059139 1.000000
-92.780365 12.159609 2.892293 1.000000
-92.780365 12.159611 2.727423 1.000000
-92.780365 12.159610 2.564147 1.000000
-92.780365 12.159610 2.402096 1.000000
-92.780365 12.159610 2.240912 1.000000
-92.780365 12.159611 2.080247 1.000000
-92.780365 12.159610 1.919753 1.000000
-92.780365 12.159610 1.759087 1.000000
-92.780365 12.159609 1.597904 1.000000
-92.780365 12.159609 1.435853 1.000000
-92.780365 12.159611 1.272577 1.000000
-92.780365 12.159609 1.107707 1.000000
-92.780365 12.159609 0.940861 1.000000
-92.780365 12.159609 0.771640 1.000000
-92.814247 12.165094 3.228950 1.000000
-92.814247 12.165094 3.059647 1.000000
-92.814247 12.165094 2.892721 1.000000
-92.814247 12.165094 2.727772 1.000000
-92.814247 12.165094 2.564418 1.000000
-92.814247 12.165095 2.402289 1.000000
-92.814247 12.165094 2.241028 1.000000
-92.814247 12.165094 2.080285 1.000000
-92.814247 12.165094 1.919715 1.000000
-92.814247 12.165094 1.758972 1.000000
-92.814247 12.165094 1.597711 1.000000
-92.814247 12.165094 1.435582 1.000000
-92.814247 12.165094 1.272227 1.000000
-92.814247 12.165094 1.107279 1.000000
-92.814247 12.165093 0.940353 1.000000
-92.814247 12.165093 0.771050 1.000000
-92.848167 12.170586 3.229600 1.000000
-92.848167 12.170586 3.060207 1.000000
-92.848167 12.170586 2.893193 1.000000
-92.848167 12.170585 2.728158 1.000000
-92.848167 12.170586 2.564716 1.000000
-92.848167 12.170586 2.402502 1.000000
-92.848167 12.170586 2.241156 1.000000
-92.848167 12.170586 2.080328 1.000000
-92.848167 12.170586 1.919672 1.000000
-92.848167 12.170586 1.758844 1.000000
-92.848167 12.170586 1.597498 1.000000
-92.848167 12.170586 1.435284 1.000000
-92.848167 12.170585 1.271842 1.000000
-92.848167 12.170585 1.106806 1.000000
-92.848167 12.170586 0.939793 1.000000
-92.848167 12.170586 0.770400 1.000000
-92.882118 12.176082 3.230310 1.000000
-92.882118 12.176081 3.060821 1.000000
-92.882118 12.176082 2.893710 1.000000
-92.882118 12.176081 2.728578 1.000000
-92.882118 12.176082 2.565043 1.000000
-92.882118 12.176081 2.402735 1.000000
-92.882118 12.176082 2.241295 1.000000
-92.882118 12.176082 2.080374 1.000000
-92.882118 12.176082 1.919626 1.000000
-92.882118 12.176082 1.758705 1.000000
-92.882118 12.176081 1.597265 1.000000
-92.882118 12.176082 1.434957 1.000000
-92.882118 12.176081 1.271422 1.000000
-92.882118 12.176081 1.106290 1.000000
-92.882118 12.176081 0.939179 1.000000
-92.882118 12.176081 0.769689 1.000000
-92.916115 12.181585 3.231082 1.000000
-92.916115 12.181584 3.061486 1.000000
-92.916115 12.181585 2.894270 1.000000
-92.916115 12.181585 2.729035 1.000000
-92.916115 12.181585 2.565397 1.000000
-92.916115 12.181584 2.402987 1.000000
-92.916115 12.181585 2.241446 1.000000
-92.916115 12.181585 2.080425 1.000000
-92.916115 12.181585 1.919575 1.000000
-92.916115 12.181585 1.758553 1.000000
-92.916115 12.181584 1.597013 1.000000
-92.916115 12.181584 1.434603 1.000000
-92.916115 12.181584 1.270965 1.000000
-92.916115 12.181584 1.105730 1.000000
-92.916115 12.181583 0.938514 1.000000
-92.916115 12.181584 0.768917 1.000000
-92.950157 12.187096 3.231915 1.000000
-92.950157 12.187096 3.062204 1.000000
-92.950157 12.187096 2.894875 1.000000
-92.950157 12.187096 2.729528 1.000000
-92.950157 12.187096 2.565780 1.000000
-92.950157 12.187096 2.403260 1.000000
-92.950157 12.187096 2.241610 1.000000
-92.950157 12.187096 2.080479 1.000000
-92.950157 12.187096 1.919521 1.000000
-92.950157 12.187096 1.758390 1.000000
-92.950157 12.187096 1.596740 1.000000
-92.950157 12.187096 1.434220 1.000000
-92.950157 12.187096 1.270472 1.000000
-92.950157 12.187096 1.105125 1.000000
-92.950157 12.187095 0.937796 1.000000
-92.950157 12.187096 0.768085 1.000000
-92.984245 12.192614 3.232809 1.000000
-92.984245 12.192614 3.062974 1.000000
-92.984245 12.192614 2.895525 1.000000
-92.984245 12.192614 2.730058 1.000000
-92.984245 12.192614 2.566190 1.000000
-92.984245 12.192614 2.403552 1.000000
-92.984245 12.192614 2.241785 1.000000
-92.984245 12.192614 2.080537 1.000000
-92.984245 12.192614 1.919463 1.000000
-92.984245 12.192614 1.758215 1.000000
-92.984245 12.192614 1.596448 1.000000
-92.984245 12.192614 1.433810 1.000000
-92.984245 12.192614 1.269942 1.000000
-92.984245 12.192614 1.104475 1.000000
-92.984245 12.192614 0.937025 1.000000
-92.984245 12.192613 0.767191 1.000000
-93.018387 12.198141 3.233765 1.000000
-93.018387 12.198139 3.063798 1.000000
-93.018387 12.198140 2.896219 1.000000
-93.018387 12.198141 2.730623 1.000000
-93.018387 12.198139 2.566629 1.000000
-93.018387 12.198139 2.403865 1.000000
-93.018387 12.198141 2.241972 1.000000
-93.018387 12.198141 2.080600 1.000000
-93.018387 12.198141 1.919400 1.000000
-93.018387 12.198140 1.758027 1.000000
-93.018387 12.198139 1.596135 1.000000
-93.018387 12.198139 1.433371 1.000000
-93.018387 12.198140 1.269376 1.000000
-93.018387 12.198139 1.103781 1.000000
-93.018387 12.198139 0.936202 1.000000
-93.018387 12.198140 0.766235 1.000000
-93.052582 12.203674 3.234782 1.000000
-93.052582 12.203674 3.064676 1.000000
-93.052582 12.203674 2.896958 1.000000
-93.052582 12.203675 2.731226 1.000000
-93.052582 12.203674 2.567096 1.000000
-93.052582 12.203674 2.404198 1.000000
-93.052582 12.203675 2.242172 1.000000
-93.052582 12.203674 2.080666 1.000000
-93.052582 12.203674 1.919334 1.000000
-93.052582 12.203675 1.757828 1.000000
-93.052582 12.203674 1.595802 1.000000
-93.052582 12.203674 1.432904 1.000000
-93.052582 12.203674 1.268774 1.000000
-93.052582 12.203674 1.103042 1.000000
-93.052582 12.203674 0.935324 1.000000
-93.052582 12.203674 0.765218 1.000000
-93.086830 12.209220 3.235861 1.000000
-93.086830 12.209219 3.065606 1.000000
-93.086830 12.209221 2.897741 1.000000
-93.086830 12.209220 2.731865 1.000000
-93.086830 12.209221 2.567592 1.000000
-93.086830 12.209220 2.404551 1.000000
-93.086830 12.209220 2.242384 1.000000
-93.086830 12.209219 2.080737 1.000000
-93.086830 12.209219 1.919263 1.000000
-93.086830 12.209220 1.757616 1.000000
-93.086830 12.209220 1.595449 1.000000
-93.086830 12.209220 1.432408 1.000000
-93.086830 12.209219 1.268135 1.000000
-93.086830 12.209220 1.102259 1.000000
-93.086830 12.209219 0.934394 1.000000
-93.086830 12.209219 0.764139 1.000000
-93.121147 12.214775 3.237002 1.000000
-93.121147 12.214775 3.066590 1.000000
-93.121147 12.214775 2.898571 1.000000
-93.121147 12.214775 2.732541 1.000000
-93.121147 12.214775 2.568116 1.000000
-93.121147 12.214775 2.404925 1.000000
-93.121147 12.214775 2.242607 1.000000
-93.121147 12.214774 2.080812 1.000000
-93.121147 12.214774 1.919189 1.000000
-93.121147 12.214775 1.757393 1.000000
-93.121147 12.214775 1.595075 1.000000
-93.121147 12.214775 1.431884 1.000000
-93.121147 12.214774 1.267459 1.000000
-93.121147 12.214775 1.101429 1.000000
-93.121147 12.214775 0.933410 1.000000
-93.121147 12.214774 0.762998 1.000000
-93.155525 12.220341 3.238206 1.000000
-93.155525 12.220341 3.067628 1.000000
-93.155525 12.220340 2.899445 1.000000
-93.155525 12.220340 2.733254 1.000000
-93.155525 12.220340 2.568669 1.000000
-93.155525 12.220341 2.405319 1.000000
-93.155525 12.220340 2.242844 1.000000
-93.155525 12.220341 2.080890 1.000000
-93.155525 12.220341 1.919110 1.000000
-93.155525 12.220340 1.757156 1.000000
-93.155525 12.220340 1.594681 1.000000
-93.155525 12.220340 1.431331 1.000000
-93.155525 12.220339 1.266746 1.000000
-93.155525 12.220339 1.100555 1.000000
-93.155525 12.220340 0.932372 1.000000
-93.155525 12.220340 0.761794 1.000000
-93.189972 12.225917 3.239473 1.000000
-93.189972 12.225916 3.068720 1.000000
-93.189972 12.225916 2.900365 1.000000
-93.189972 12.225916 2.734004 1.000000
-93.189972 12.225917 2.569250 1.000000
-93.189972 12.225916 2.405734 1.000000
-93.189972 12.225916 2.243092 1.000000
-93.189972 12.225916 2.080973 1.000000
-93.189972 12.225916 1.919027 1.000000
-93.189972 12.225916 1.756908 1.000000
-93.189972 12.225916 1.594266 1.000000
-93.189972 12.225916 1.430749 1.000000
-93.189972 12.225916 1.265996 1.000000
-93.189972 12.225916 1.099635 1.000000
-93.189972 12.225916 0.931280 1.000000
-93.189972 12.225916 0.760527 1.000000
-93.224495 12.231504 3.240802 1.000000
-93.224495 12.231504 3.069867 1.000000
-93.224495 12.231504 2.901331 1.000000
-93.224495 12.231504 2.734791 1.000000
-93.224495 12.231504 2.569861 1.000000
-93.224495 12.231504 2.406169 1.000000
-93.224495 12.231504 2.243353 1.000000
-93.224495 12.231504 2.081060 1.000000
-93.224495 12.231504 1.918940 1.000000
-93.224495 12.231504 1.756647 1.000000
-93.224495 12.231503 1.593831 1.000000
-93.224495 12.231504 1.430139 1.000000
-93.224495 12.231503 1.265208 1.000000
-93.224495 12.231504 1.098669 1.000000
-93.224495 12.231503 0.930133 1.000000
-93.224495 12.231503 0.759197 1.000000
-93.259087 12.237104 3.242196 1.000000
-93.259087 12.237104 3.071068 1.000000
-93.259087 12.237104 2.902343 1.000000
-93.259087 12.237104 2.735616 1.000000
-93.259087 12.237104 2.570501 1.000000
-93.259087 12.237104 2.406625 1.000000
-93.259087 12.237104 2.243626 1.000000
-93.259087 12.237104 2.081151 1.000000
-93.259087 12.237104 1.918849 1.000000
-93.259087 12.237104 1.756374 1.000000
-93.259087 12.237103 1.593375 1.000000
-93.259087 12.237104 1.429499 1.000000
-93.259087 12.237104 1.264384 1.000000
-93.259087 12.237104 1.097656 1.000000
-93.259087 12.237103 0.928932 1.000000
-93.259087 12.237104 0.757804 1.000000
-93.293762 12.242718 3.243653 1.000000
-93.293762 12.242716 3.072325 1.000000
-93.293762 12.242718 2.903402 1.000000
-93.293762 12.242718 2.736479 1.000000
-93.293762 12.242718 2.571171 1.000000
