# This PCD file was generated using the MATLABÂ® pcwrite function
# from Computer Vision ToolboxÂ®.
# .PCD v.7 - Point Cloud Data file format
VERSION .7
FIELDS x y z intensity
SIZE 4 4 4 4
TYPE F F F F
COUNT 1 1 1 1
WIDTH 1311
HEIGHT 1
VIEWPOINT 0 0 0 1 0 0 0
POINTS 1311
DATA ascii
207.818024 134.474594 0.000008 0.301488
208.301910 136.918381 0.000006 0.317708
208.638229 138.616898 0.000003 0.283070
208.886002 139.868286 0.000003 0.329076
207.962372 135.645874 5.082527 0.233417
207.965744 135.662338 4.654243 0.277455
nan nan nan 0.000000
nan nan nan 0.000000
207.846878 135.083282 3.481779 0.433555
208.097641 136.304871 2.953885 0.628077
206.498489 128.514404 2.962213 0.585290
206.482391 128.435989 2.321818 0.523781
nan nan nan 0.000000
202.250885 107.821686 0.000022 0.292424
206.471649 128.383682 0.383072 0.543740
206.941101 130.670685 0.000010 0.304646
207.725754 134.493195 0.000007 0.297185
208.226685 136.933548 0.000006 0.293523
208.574844 138.629669 0.000003 0.280324
208.831360 139.879303 0.000002 0.234058
207.532257 134.035568 5.499400 0.369436
207.545441 134.097595 5.003620 0.192157
207.558167 134.157516 4.519313 0.333928
nan nan nan 0.000000
207.815414 135.367767 3.450483 0.456931
208.001221 136.241882 2.960557 0.349493
207.868149 135.615814 2.606954 0.610849
206.488861 129.126770 2.310732 0.207828
206.345093 128.450409 1.677953 0.569726
206.347458 128.461563 1.033728 0.549020
206.355453 128.499130 0.390390 0.545419
206.822296 130.695511 0.000009 0.292256
207.633621 134.512451 0.000007 0.261723
208.151566 136.949234 0.000006 0.313603
208.511566 138.642899 0.000003 0.272877
208.776794 139.890717 0.000002 0.328496
207.775055 135.594131 5.104961 0.286824
207.493103 134.311722 4.960805 0.306630
207.506531 134.372772 4.483017 0.245579
207.917816 136.243439 3.740112 0.290196
207.785217 135.640320 3.420570 0.470985
207.969482 136.478378 2.942153 0.264225
nan nan nan 0.000000
206.048828 127.742798 2.334389 0.268406
206.196228 128.413162 1.676842 0.591485
206.200180 128.431183 1.030740 0.560525
206.211197 128.481247 0.386457 0.497185
206.703674 130.721161 0.000010 0.279133
207.541611 134.532333 0.000007 0.325460
208.076569 136.965454 0.000006 0.334874
208.448380 138.656555 0.000003 0.263905
208.722321 139.902481 0.000002 0.270115
207.680359 135.567886 5.116550 0.215412
207.440964 134.514191 4.920584 0.304021
207.454041 134.571747 4.449765 0.316960
206.229523 129.181992 4.816991 0.281559
207.756989 135.905197 3.391540 0.279530
207.939117 136.706818 2.924417 0.242618
207.681015 135.570770 2.611090 0.494484
207.688934 135.605621 2.202966 1.000000
nan nan nan 0.000000
201.417511 108.001869 0.000022 0.293538
205.032959 123.915344 0.000013 0.283955
206.585220 130.747635 0.000009 0.264149
207.449753 134.552872 0.000007 0.308507
208.001678 136.982193 0.000006 0.310826
208.385284 138.670654 0.000003 0.274189
208.667923 139.914642 0.000002 0.254810
207.584961 135.541519 5.128362 0.280064
207.390717 134.713348 4.881114 0.330694
nan nan nan 0.000000
207.516449 135.249466 3.897084 0.552544
207.729019 136.155716 3.364183 0.310765
207.578217 135.512772 3.026471 0.935729
nan nan nan 0.000000
207.594711 135.583130 2.203672 0.226871
nan nan nan 0.000000
201.140579 108.065811 0.000022 0.287694
204.867050 123.953651 0.000013 0.292958
206.466965 130.774933 0.000010 0.282597
207.358032 134.574036 0.000007 0.319203
207.926910 136.999451 0.000006 0.306432
208.322296 138.685196 0.000003 0.308812
208.613602 139.927185 0.000002 0.284489
207.488815 135.514908 5.140429 0.247486
207.342133 134.908585 4.842527 0.289998
nan nan nan 0.000000
207.493591 135.534653 3.856718 0.351431
207.473999 135.453659 3.449549 0.646220
207.482681 135.489563 3.030138 0.705272
205.713028 128.174683 2.986923 0.261799
205.705551 128.143768 2.329259 0.223529
nan nan nan 0.000000
200.864105 108.131668 0.000022 0.294331
204.701401 123.993111 0.000013 0.275090
206.348892 130.803070 0.000010 0.320760
207.266479 134.595856 0.000007 0.350591
207.852264 137.017242 0.000006 0.277226
208.259415 138.700180 0.000002 0.269291
208.559387 139.940109 0.000003 0.293370
207.281158 135.043823 5.267431 0.223529
207.294479 135.097260 4.805408 0.274586
207.307953 135.151306 4.353339 0.547204
207.470032 135.801407 3.819124 0.301961
205.417191 127.567879 4.386995 0.269429
207.386520 135.466431 3.033860 0.225116
205.537399 128.050018 2.994928 0.388312
207.404251 135.537521 2.205130 0.275761
203.374695 119.375885 1.522306 0.207950
200.588089 108.199455 0.000022 0.293675
204.536026 124.033737 0.000013 0.288273
206.231033 130.832016 0.000010 0.301686
207.175064 134.618317 0.000007 0.289418
207.777740 137.035538 0.000006 0.272740
208.196625 138.715607 0.000003 0.282658
208.505249 139.953400 0.000002 0.287724
207.241440 135.255356 5.218505 0.197513
nan nan nan 0.000000
207.260452 135.329361 4.324049 0.257679
207.446060 136.052277 3.783921 0.537865
207.280289 135.406647 3.460188 0.541100
207.289597 135.442902 3.037681 0.338048
205.381775 128.012436 2.998593 0.634745
203.281052 119.830658 2.470855 0.251377
203.154419 119.337433 1.520812 0.665354
200.312576 108.269196 0.000023 0.289982
204.370941 124.075500 0.000013 0.287861
206.113373 130.861786 0.000010 0.289067
207.083801 134.641403 0.000008 0.311681
207.703354 137.054367 0.000006 0.250477
208.133957 138.731461 0.000002 0.295735
208.451202 139.967072 0.000002 0.294041
207.189697 135.410675 5.184123 0.288258
205.146240 127.676514 6.473210 0.172427
204.848816 126.550812 5.980404 0.267918
207.424255 136.298462 3.749398 0.260517
204.887253 126.696274 4.499279 0.309117
207.192017 135.419449 3.041558 0.298726
207.201553 135.455505 2.622209 0.200229
203.033356 119.679527 2.474271 0.273289
202.954193 119.379906 1.520658 0.192157
200.037537 108.340820 0.000022 0.296590
204.206161 124.118423 0.000013 0.271427
205.995911 130.892380 0.000010 0.278126
206.992722 134.665131 0.000007 0.324453
207.629089 137.073715 0.000006 0.300618
208.071396 138.747757 0.000003 0.263249
208.397263 139.981125 0.000002 0.304494
204.753113 126.781006 7.430066 0.523751
207.159531 135.638123 4.699706 0.295308
207.172699 135.686584 4.265283 0.238819
207.404373 136.539291 3.715653 0.218631
207.083603 135.358658 3.471305 0.609033
207.093643 135.395569 3.045537 0.536248
205.067123 127.936768 3.006136 0.263035
202.865402 119.833099 2.472554 0.228229
202.868256 119.843567 1.527623 0.279576
202.774704 119.499283 0.564330 0.288045
204.041672 124.162498 0.000013 0.299123
205.878677 130.923798 0.000010 0.281147
206.901794 134.689484 0.000007 0.250355
207.554977 137.093567 0.000006 0.301030
208.008957 138.764481 0.000003 0.258396
208.343430 139.995544 0.000002 0.261448
204.676270 127.068573 7.365730 0.269459
207.116455 135.808350 4.666732 0.223529
207.151871 135.935165 4.222684 0.255344
206.973755 135.297195 3.910250 0.654902
206.984222 135.334717 3.476996 0.596689
204.960831 128.087738 3.669674 0.313436
207.004745 135.408218 2.626986 0.310445
204.924286 127.956879 2.335443 0.904479
202.821777 120.426537 1.536618 0.277790
199.488998 108.489853 0.000022 0.292973
203.877502 124.207718 0.000013 0.304250
205.761673 130.956024 0.000009 0.291997
206.811050 134.714493 0.000008 0.285145
207.480988 137.113953 0.000006 0.267659
207.946625 138.781647 0.000003 0.247181
208.289688 140.010361 0.000002 0.355291
207.061020 135.927734 5.067806 0.247059
207.074997 135.976440 4.634237 0.228214
207.137466 136.194305 4.178026 0.310857
206.873154 135.272552 3.917831 0.286748
204.663925 127.568039 4.409409 0.554162
206.894577 135.347275 3.053741 0.290044
204.747528 127.859619 3.014009 0.261784
202.403137 119.683731 2.476943 0.235294
202.617569 120.431549 1.535788 0.260456
199.215515 108.567223 0.000022 0.292393
203.713654 124.254082 0.000013 0.290486
205.644882 130.989075 0.000009 0.277531
206.720474 134.740112 0.000008 0.280339
207.407150 137.134842 0.000006 0.306096
207.884415 138.799255 0.000002 0.313771
208.236053 140.025528 0.000002 0.341405
206.737152 135.130127 5.282301 0.638727
207.032990 136.135330 4.603813 0.223529
207.123352 136.442337 4.135405 0.256474
206.771759 135.247696 3.925566 0.249332
204.594559 127.850258 4.380457 0.223865
206.793869 135.322830 3.057970 0.420172
206.804718 135.359695 2.631986 0.530571
nan nan nan 0.000000
202.414856 120.444260 1.535062 0.290196
198.942596 108.646530 0.000022 0.294606
203.550140 124.301590 0.000013 0.297398
205.528336 131.022934 0.000009 0.315022
206.630096 134.766373 0.000007 0.345129
207.333466 137.156250 0.000006 0.291630
207.822342 138.817291 0.000003 0.278981
208.182526 140.041077 0.000002 0.263401
206.633865 135.104553 5.295829 0.528008
204.468170 127.931404 6.460111 0.273457
nan nan nan 0.000000
206.669540 135.222702 3.933453 0.284703
204.525253 128.120483 4.352943 0.459327
nan nan nan 0.000000
204.422958 127.781677 3.022184 0.575296
nan nan nan 0.000000
201.923294 119.502396 1.517994 0.289647
198.670227 108.727722 0.000022 0.290333
203.386948 124.350235 0.000013 0.295628
205.412018 131.057602 0.000009 0.289631
206.539886 134.793259 0.000007 0.316106
207.259933 137.178177 0.000006 0.297124
207.760391 138.835754 0.000002 0.284199
208.129105 140.057007 0.000002 0.326375
206.529556 135.078217 5.309779 0.291417
206.542175 135.118988 4.844599 0.807324
207.091415 136.893280 4.058532 0.388235
206.566467 135.197479 3.941501 0.233295
206.578339 135.235809 3.501099 0.182361
nan nan nan 0.000000
206.601593 135.310928 2.637163 0.258824
204.277054 127.801559 2.340872 0.342184
201.737610 119.597946 1.518600 0.258488
198.398438 108.810822 0.000022 0.295796
203.224106 124.400024 0.000013 0.289235
205.295959 131.093094 0.000009 0.305699
206.449875 134.820786 0.000007 0.293614
207.186539 137.200607 0.000006 0.286290
207.698563 138.854660 0.000002 0.290059
208.075790 140.073303 0.000002 0.272938
206.424530 135.052200 5.323864 0.348486
206.437363 135.092667 4.856791 0.303136
207.075531 137.104416 4.022736 0.290196
206.462540 135.172043 3.949710 0.192157
204.404617 128.684601 4.295052 0.262287
206.486755 135.248367 3.071171 0.289982
206.498734 135.286133 2.639838 0.160784
nan nan nan 0.000000
201.552216 119.692711 1.519173 0.239063
198.127243 108.895813 0.000022 0.291539
203.061615 124.450943 0.000013 0.300587
205.180145 131.129379 0.000009 0.280049
206.360046 134.848938 0.000008 0.316884
207.113327 137.223557 0.000006 0.356023
207.636871 138.873993 0.000003 0.258778
208.022598 140.089981 0.000002 0.302296
nan nan nan 0.000000
206.331818 135.066650 4.869112 0.193927
207.062943 137.316818 3.986639 0.197543
206.357605 135.145996 3.958148 0.319799
206.370193 135.184769 3.513935 0.215152
206.382660 135.223145 3.075750 0.280110
206.395004 135.261108 2.642565 0.439216
206.407150 135.298477 2.213392 0.277699
nan nan nan 0.000000
197.856628 108.982689 0.000022 0.291112
202.899475 124.502998 0.000013 0.292088
205.064575 131.166489 0.000009 0.267185
206.270432 134.877716 0.000008 0.307713
207.040253 137.247009 0.000006 0.255375
207.575317 138.893753 0.000003 0.299550
207.969528 140.107010 0.000002 0.311696
206.211380 134.998428 5.353173 0.757961
nan nan nan 0.000000
203.680725 127.391006 5.894575 0.198398
203.695267 127.434708 5.168139 0.444923
204.328125 129.337128 4.226377 0.220340
203.736816 127.559608 3.740451 0.626245
206.290375 135.235901 2.645348 1.000000
203.777420 127.681679 2.345239 0.265309
nan nan nan 0.000000
197.586624 109.071465 0.000022 0.294774
202.737717 124.556183 0.000013 0.291859
204.949280 131.204391 0.000009 0.306798
206.181000 134.907120 0.000008 0.320790
206.967361 137.270981 0.000006 0.271931
207.513901 138.913940 0.000002 0.274189
207.916580 140.124420 0.000002 0.319127
206.103592 134.971786 5.368110 0.223529
206.117584 135.012909 4.894731 0.241856
206.131592 135.054031 4.430821 0.294316
206.145081 135.093658 3.975465 0.194141
203.544952 127.455856 4.460234 0.360967
nan nan nan 0.000000
206.184738 135.210144 2.648201 0.263600
203.608002 127.641052 2.346754 0.517647
nan nan nan 0.000000
197.317261 109.162109 0.000021 0.294240
202.576324 124.610497 0.000013 0.288304
204.834244 131.243103 0.000009 0.290639
206.091797 134.937134 0.000007 0.283818
206.894638 137.295456 0.000006 0.252567
207.452637 138.934570 0.000002 0.280446
207.863739 140.142197 0.000001 0.254963
205.994858 134.944962 5.383329 0.405646
206.009216 134.986237 4.907795 0.316121
206.023438 135.027069 4.441866 0.217227
203.349884 127.349648 5.196595 0.192157
203.371979 127.413101 4.471363 0.534173
nan nan nan 0.000000
206.078262 135.184494 2.651096 0.442084
206.091614 135.222824 2.216213 0.488151
nan nan nan 0.000000
197.048523 109.254639 0.000021 0.291051
202.415314 124.665939 0.000013 0.284962
204.719482 131.282623 0.000009 0.308354
206.002792 134.967773 0.000007 0.288212
206.822083 137.320435 0.000006 0.275822
207.391510 138.955612 0.000003 0.270817
207.811035 140.160355 0.000001 0.304616
205.889404 134.929916 5.395658 0.376150
nan nan nan 0.000000
205.914490 135.000381 4.453031 0.646464
205.928757 135.040436 3.993475 0.486702
203.197723 127.370804 4.482612 0.597971
nan nan nan 0.000000
nan nan nan 0.000000
203.264648 127.558769 2.349873 0.192157
nan nan nan 0.000000
196.780457 109.349045 0.000021 0.291859
202.254700 124.722504 0.000013 0.295369
204.605011 131.322937 0.000009 0.286183
205.914017 134.999039 0.000007 0.276539
206.749695 137.345932 0.000006 0.329992
207.330536 138.977081 0.000002 0.252430
207.758469 140.178864 0.000001 0.286931
205.783157 134.914719 5.408258 0.299229
205.789124 134.931122 4.934957 0.325856
205.804352 134.972946 4.464516 0.346197
nan nan nan 0.000000
203.021881 127.328171 4.494079 0.282963
203.044983 127.391663 3.772115 1.000000
201.919739 124.300102 3.223374 0.292424
205.876541 135.171326 2.218188 0.211978
nan nan nan 0.000000
196.513046 109.445313 0.000021 0.295598
202.094482 124.780182 0.000013 0.285573
204.490814 131.364059 0.000009 0.267521
205.825455 135.030930 0.000007 0.282353
206.677505 137.371918 0.000006 0.295201
207.269699 138.998993 0.000002 0.251331
207.706024 140.197754 0.000002 0.271000
205.675934 134.898926 5.421244 0.238010
205.677750 134.903809 4.948802 0.259800
205.693176 134.945282 4.476226 0.372152
nan nan nan 0.000000
nan nan nan 0.000000
nan nan nan 0.000000
201.796829 124.468338 3.217703 0.245960
201.520782 123.726074 2.418570 0.210559
201.757568 124.362747 1.592546 0.241672
196.246323 109.543457 0.000021 0.290135
201.934677 124.838989 0.000013 0.303502
204.376907 131.405960 0.000009 0.288197
205.737106 135.063431 0.000007 0.262806
206.605484 137.398422 0.000006 0.294087
207.209030 139.021301 0.000002 0.257801
207.653702 140.216995 0.000002 0.307973
205.568054 134.883453 5.434380 0.204562
205.565735 134.877335 4.962666 0.320714
205.581146 134.917923 4.488057 0.340719
nan nan nan 0.000000
205.612289 134.999893 3.562972 0.285344
201.586334 124.401497 4.043613 0.258824
202.713791 127.369568 3.068438 0.219120
205.657501 135.118927 2.220241 0.530999
201.541611 124.283775 1.590093 0.211902
195.980270 109.643448 0.000021 0.294224
201.775269 124.898895 0.000013 0.296834
204.263306 131.448669 0.000009 0.272221
205.649002 135.096558 0.000008 0.278248
206.533661 137.425415 0.000006 0.347616
207.148514 139.044052 0.000002 0.264729
207.601532 140.236603 0.000002 0.330785
nan nan nan 0.000000
205.456955 134.861710 4.974233 0.280980
202.492737 127.219498 5.997190 0.239094
nan nan nan 0.000000
nan nan nan 0.000000
201.435028 124.492561 4.041089 0.284153
201.554428 124.800415 3.206680 0.234897
205.546417 135.092377 2.221297 0.192157
201.215347 123.926201 1.582716 0.278431
195.714935 109.745300 0.000021 0.291051
201.616302 124.959915 0.000013 0.281666
204.149994 131.492157 0.000009 0.278660
205.561127 135.130280 0.000008 0.285283
206.462021 137.452911 0.000006 0.292866
207.088165 139.067215 0.000002 0.291783
207.549484 140.256577 0.000002 0.324605
nan nan nan 0.000000
205.347122 134.845459 4.986156 0.216403
205.353653 134.861954 4.512522 0.413199
202.313858 127.184326 5.273166 0.236133
202.309967 127.174484 4.539693 0.223529
201.150879 124.246986 4.068338 0.597787
201.160110 124.270287 3.237997 0.554849
201.346405 124.740822 2.404090 0.242939
201.223282 124.429825 1.590437 0.316548
201.173920 124.305161 0.763845 0.545403
201.457764 125.022049 0.000013 0.292912
204.036987 131.536438 0.000009 0.311818
205.473480 135.164627 0.000007 0.273808
206.390564 137.480911 0.000006 0.281468
207.027969 139.090805 0.000002 0.329427
207.497589 140.276917 0.000001 0.246677
nan nan nan 0.000000
205.236786 134.830048 4.998098 0.393606
205.237839 134.832642 4.525300 0.287251
nan nan nan 0.000000
nan nan nan 0.000000
205.288345 134.957642 3.126927 0.691646
201.021332 124.396408 3.234776 0.937697
201.169510 124.763168 2.404825 0.435752
201.128632 124.662018 1.593390 0.228504
195.186432 109.954559 0.000022 0.290211
201.299652 125.085289 0.000013 0.287373
203.924301 131.581512 0.000009 0.283162
205.386093 135.199585 0.000007 0.264927
206.319321 137.509415 0.000006 0.268040
206.967957 139.114822 0.000002 0.318853
207.445831 140.297623 0.000002 0.329717
nan nan nan 0.000000
205.125336 134.813950 5.010413 0.344121
205.122787 134.807770 4.537398 0.672480
nan nan nan 0.000000
nan nan nan 0.000000
nan nan nan 0.000000
200.898621 124.559166 3.229651 0.242390
200.916809 124.603302 2.408810 0.263142
201.277130 125.477516 1.606663 0.256748
201.064941 124.962677 0.791790 0.266453
201.141983 125.149628 0.000013 0.291203
203.811920 131.627380 0.000009 0.306065
205.298935 135.235153 0.000007 0.299870
206.248276 137.538406 0.000006 0.310842
206.908096 139.139236 0.000002 0.330694
207.394226 140.318680 0.000001 0.307347
nan nan nan 0.000000
205.012955 134.797714 5.022978 0.288167
nan nan nan 0.000000
201.780258 127.107407 5.313638 0.801190
nan nan nan 0.000000
nan nan nan 0.000000
200.814255 124.809402 3.219894 0.296239
201.112427 125.518738 2.393749 0.303197
201.096329 125.480415 1.605570 0.206226
194.660904 110.171165 0.000022 0.292668
200.984787 125.215065 0.000013 0.288838
203.699875 131.674011 0.000009 0.283375
205.212036 135.271317 0.000007 0.291585
206.177429 137.567902 0.000006 0.250401
206.848419 139.164093 0.000002 0.326970
207.342758 140.340103 0.000001 0.336126
nan nan nan 0.000000
204.899643 134.781372 5.035790 0.258824
nan nan nan 0.000000
201.599106 127.080658 5.327789 0.202152
nan nan nan 0.000000
nan nan nan 0.000000
198.525375 119.909096 3.485431 0.274296
nan nan nan 0.000000
200.914291 125.482849 1.604443 0.226429
194.399277 110.282211 0.000022 0.291661
200.828033 125.281601 0.000013 0.301472
203.588150 131.721436 0.000009 0.301259
205.125397 135.308105 0.000007 0.320470
206.106781 137.597855 0.000003 0.306310
206.788895 139.189346 0.000002 0.309422
207.291458 140.361877 0.000001 0.268940
204.788223 134.771439 5.534193 0.643931
204.785339 134.764847 5.048869 0.296010
nan nan nan 0.000000
nan nan nan 0.000000
nan nan nan 0.000000
nan nan nan 0.000000
198.187866 119.663818 3.503075 0.704875
199.980621 123.767288 2.427389 0.267109
200.296158 124.489517 1.585508 0.296574
194.138443 110.395096 0.000021 0.296635
200.671753 125.349228 0.000012 0.287312
203.476761 131.769638 0.000009 0.278630
205.039001 135.345490 0.000007 0.289448
206.036362 137.628342 0.000003 0.271077
206.729568 139.215027 0.000002 0.272602
207.240295 140.384018 0.000001 0.277699
nan nan nan 0.000000
204.670151 134.748428 5.062152 0.540673
nan nan nan 0.000000
nan nan nan 0.000000
nan nan nan 0.000000
nan nan nan 0.000000
198.082443 119.952217 3.492201 0.611765
197.968292 119.695801 2.501638 0.243076
200.127121 124.544632 1.585217 0.250843
193.878387 110.509750 0.000021 0.292180
200.515945 125.417946 0.000013 0.292546
203.365707 131.818619 0.000009 0.285740
204.952881 135.383469 0.000007 0.331029
205.966156 137.659302 0.000003 0.346288
206.670425 139.241119 0.000002 0.300908
207.189285 140.406509 0.000001 0.338384
204.556702 134.737946 5.565448 0.404761
nan nan nan 0.000000
nan nan nan 0.000000
nan nan nan 0.000000
nan nan nan 0.000000
197.967636 120.212433 4.474960 0.537255
198.128082 120.566124 3.463773 1.000000
199.825241 124.307503 2.420347 0.309804
199.980499 124.649757 1.585802 0.252171
197.993927 120.270378 0.520272 0.280888
200.360626 125.487747 0.000013 0.286213
203.255005 131.868378 0.000009 0.312078
204.867035 135.422043 0.000007 0.259251
205.896164 137.690765 0.000003 0.251606
206.611450 139.267609 0.000002 0.313436
207.138443 140.429367 0.000001 0.326314
204.439240 134.720642 5.581635 0.257023
nan nan nan 0.000000
nan nan nan 0.000000
nan nan nan 0.000000
nan nan nan 0.000000
206.620300 139.440887 2.746067 0.258824
197.626724 119.977013 3.500341 0.254139
203.432373 132.541565 2.273263 0.248676
197.896423 120.560692 1.510765 0.249943
197.761780 120.269302 0.515476 0.236164
200.205795 125.558640 0.000013 0.292638
203.144653 131.918900 0.000009 0.275731
204.781448 135.461243 0.000007 0.299519
205.826385 137.722702 0.000003 0.279011
206.552673 139.294525 0.000002 0.293828
207.087769 140.452576 0.000001 0.284123
204.320709 134.703201 5.598144 0.727855
nan nan nan 0.000000
nan nan nan 0.000000
nan nan nan 0.000000
nan nan nan 0.000000
206.544052 139.428040 2.749665 0.258824
197.648788 120.524651 3.475499 0.253376
203.303619 132.541779 2.274151 0.206699
198.043793 121.364075 1.523699 0.303792
193.103165 110.864700 0.000021 0.291875
200.051468 125.630600 0.000013 0.296757
203.034653 131.970200 0.000010 0.283619
204.696136 135.501007 0.000007 0.268498
205.756836 137.755127 0.000003 0.319188
206.494080 139.321838 0.000002 0.256428
207.037247 140.476135 0.000001 0.249638
nan nan nan 0.000000
nan nan nan 0.000000
nan nan nan 0.000000
nan nan nan 0.000000
nan nan nan 0.000000
206.467041 139.415024 2.753337 0.258824
206.567596 139.624893 2.439924 0.258824
203.164505 132.522095 2.275418 0.236652
203.188873 132.572952 1.725505 0.192157
192.846420 110.986603 0.000021 0.291081
199.897644 125.703644 0.000013 0.285039
202.925018 132.022247 0.000009 0.285710
204.611115 135.541382 0.000007 0.342840
205.687531 137.788040 0.000002 0.338521
206.435684 139.349579 0.000002 0.348943
206.986893 140.500046 0.000001 0.285130
nan nan nan 0.000000
nan nan nan 0.000000
nan nan nan 0.000000
nan nan nan 0.000000
nan nan nan 0.000000
206.389420 139.402176 2.757056 0.258824
206.537109 139.705002 2.437032 0.258824
203.139908 132.739700 2.272387 0.235294
197.615143 121.412277 1.521379 0.207660
192.590546 111.110298 0.000021 0.291600
199.744339 125.777756 0.000012 0.297459
202.815750 132.075073 0.000009 0.268467
204.526367 135.582367 0.000008 0.317220
205.618439 137.821442 0.000003 0.297505
206.377487 139.377716 0.000002 0.286107
206.936707 140.524292 0.000001 0.339910
nan nan nan 0.000000
nan nan nan 0.000000
nan nan nan 0.000000
nan nan nan 0.000000
nan nan nan 0.000000
nan nan nan 0.000000
206.329361 139.426178 2.453828 0.318868
203.083527 132.887466 2.270625 0.242054
197.393921 121.425858 1.519981 0.229023
192.335526 111.235771 0.000020 0.297856
199.591553 125.852936 0.000013 0.298390
202.706848 132.128662 0.000009 0.267277
204.441910 135.623917 0.000008 0.345205
205.549591 137.855316 0.000003 0.331060
206.319473 139.406250 0.000002 0.275364
206.886688 140.548904 0.000001 0.317494
nan nan nan 0.000000
nan nan nan 0.000000
nan nan nan 0.000000
nan nan nan 0.000000
nan nan nan 0.000000
nan nan nan 0.000000
206.250488 139.413055 2.456140 0.258824
202.719574 132.423050 2.280087 0.309987
196.756592 120.618347 1.503496 0.222370
192.081390 111.363045 0.000020 0.289311
199.439285 125.929184 0.000012 0.295628
202.598312 132.182999 0.000009 0.319295
204.357742 135.666061 0.000007 0.297887
205.480972 137.889679 0.000003 0.323812
206.261673 139.435196 0.000002 0.281682
206.836853 140.573868 0.000001 0.294697
nan nan nan 0.000000
nan nan nan 0.000000
nan nan nan 0.000000
nan nan nan 0.000000
206.372284 139.791855 3.022958 0.258824
205.655640 138.397415 2.857667 0.258824
206.170807 139.399826 2.458497 0.258824
nan nan nan 0.000000
202.613953 132.478928 1.719943 0.289128
191.828156 111.492065 0.000020 0.290288
199.287567 126.006485 0.000012 0.287114
202.490173 132.238098 0.000009 0.273823
204.273865 135.708801 0.000007 0.316945
205.412598 137.924515 0.000002 0.304692
206.204071 139.464554 0.000002 0.258595
206.787186 140.599167 0.000001 0.307652
nan nan nan 0.000000
nan nan nan 0.000000
nan nan nan 0.000000
nan nan nan 0.000000
206.340744 139.865524 3.017104 0.258824
205.610825 138.469330 2.854123 0.258824
202.432632 132.390015 2.848749 0.993835
201.924377 131.417786 2.300666 0.226902
206.129150 139.460785 1.847849 0.246693
202.434555 132.393692 1.151455 0.564385
199.136383 126.084854 0.000012 0.300633
202.382431 132.293961 0.000009 0.297063
204.190308 135.752121 0.000007 0.285481
205.344467 137.959839 0.000003 0.286564
206.146667 139.494293 0.000001 0.251499
206.737701 140.624832 0.000001 0.326223
nan nan nan 0.000000
nan nan nan 0.000000
nan nan nan 0.000000
206.004349 139.364319 3.400514 0.243107
nan nan nan 0.000000
206.145172 139.629181 2.749563 0.258824
206.263306 139.851364 2.436732 0.258824
206.084793 139.515625 2.151696 0.258824
206.048798 139.447937 1.847050 0.258824
202.292419 132.383224 1.147743 0.571893
202.247665 132.299042 0.569720 0.304051
202.275070 132.350571 0.000009 0.285603
204.107040 135.796005 0.000007 0.282780
205.276596 137.995621 0.000002 0.280537
206.089493 139.524445 0.000002 0.285771
206.688385 140.650818 0.000001 0.322133
nan nan nan 0.000000
nan nan nan 0.000000
nan nan nan 0.000000
205.936249 139.376968 3.403634 0.258824
205.754440 139.040710 3.132552 0.258824
206.063034 139.611465 2.754025 0.258824
206.218597 139.899170 2.435700 0.258824
202.033356 132.158722 2.289124 0.258518
202.216431 132.497314 1.717175 0.235294
202.074005 132.233902 1.136207 0.246418
202.105499 132.292145 0.563713 0.258824
202.168106 132.407928 0.000009 0.279698
204.024094 135.840500 0.000007 0.291051
205.208969 138.031891 0.000002 0.260533
206.032516 139.554993 0.000002 0.366583
206.639267 140.677170 0.000001 0.264363
nan nan nan 0.000000
nan nan nan 0.000000
nan nan nan 0.000000
205.865555 139.385483 3.407545 0.258824
205.864609 139.383789 3.091833 0.258824
206.112488 139.834656 2.736016 0.258824
206.174088 139.946701 2.434697 0.258824
205.864273 139.383179 2.155319 0.378866
205.885284 139.421387 1.845395 0.258824
202.115356 132.563919 1.151415 0.275059
205.619003 138.937027 1.179993 0.258824
202.061539 132.466019 0.000009 0.303761
203.941437 135.885559 0.000007 0.344228
205.141602 138.068619 0.000002 0.316136
205.975754 139.585953 0.000001 0.293172
206.590332 140.703842 0.000001 0.241657
nan nan nan 0.000000
nan nan nan 0.000000
nan nan nan 0.000000
205.794479 139.394104 3.411539 0.258824
205.793488 139.392334 3.094939 0.257115
206.032684 139.820343 2.740215 0.258824
206.130035 139.994522 2.433691 0.258824
201.997620 132.600433 2.283071 0.651041
201.854614 132.344543 1.712132 0.248020
202.005005 132.613632 1.150923 0.321706
205.551788 138.959869 1.178958 0.294209
201.955383 132.524857 0.000009 0.305425
203.859116 135.931183 0.000007 0.251301
205.074478 138.105820 0.000003 0.275502
205.919205 139.617294 0.000001 0.309636
206.541565 140.730865 0.000001 0.257877
nan nan nan 0.000000
nan nan nan 0.000000
205.805771 139.548477 3.705981 0.258824
205.722961 139.402725 3.415631 0.258824
205.758728 139.465683 3.089551 0.258915
206.001846 139.893631 2.736221 0.258824
206.085953 140.041687 2.432736 0.258824
205.972580 139.842102 2.147898 0.258824
201.953705 132.767624 1.718960 0.321920
205.964798 139.828430 1.555215 0.258824
205.514465 139.035690 1.182872 0.258824
201.849640 132.584442 0.000009 0.290639
203.777115 135.977402 0.000008 0.334417
205.007629 138.143494 0.000002 0.291524
205.862885 139.649017 0.000001 0.251011
206.493011 140.758240 0.000001 0.247410
nan nan nan 0.000000
nan nan nan 0.000000
205.745728 139.575394 3.707160 0.258824
205.632736 139.379700 3.425247 0.258824
205.818634 139.701660 3.062569 0.247150
205.482285 139.119095 2.812503 0.258824
206.294754 140.526321 2.406978 0.258824
205.858994 139.771561 2.149824 0.258824
205.902740 139.847351 1.851608 0.258824
205.912781 139.864746 1.555493 0.258824
205.477432 139.110703 1.186701 0.258824
201.744324 132.644745 0.000008 0.291402
203.695435 136.024170 0.000007 0.270253
204.941040 138.181625 0.000002 0.266087
205.806793 139.681152 0.000001 0.309392
206.444641 140.785934 0.000000 0.253971
nan nan nan 0.000000
nan nan nan 0.000000
nan nan nan 0.000000
205.644485 139.532257 3.404812 0.258824
205.750549 139.713043 3.065377 0.258824
205.644211 139.531815 2.776577 0.258824
201.308746 132.142181 2.886177 0.265202
206.420380 140.854752 2.129883 0.258824
206.246429 140.558273 1.864492 0.258824
205.860840 139.901016 1.555750 0.258824
198.093948 126.662682 0.000012 0.302327
201.639435 132.705811 0.000009 0.298863
203.614075 136.071518 0.000007 0.323644
204.874710 138.220230 0.000002 0.293446
205.750916 139.713669 0.000001 0.256306
206.396454 140.813980 0.000001 0.329198
nan nan nan 0.000000
nan nan nan 0.000000
205.420288 139.285294 3.782656 0.258824
205.562775 139.524307 3.411996 0.271077
205.504883 139.427200 3.108068 0.258824
205.607803 139.599838 2.773295 0.258824
205.574387 139.543793 2.466519 0.258824
206.377686 140.891342 2.129723 0.258824
205.819351 139.954727 1.852433 0.431739
205.547241 139.498245 1.530876 0.258824
205.128250 138.795395 1.149912 0.258824
201.534958 132.767593 0.000009 0.316014
203.533051 136.119431 0.000007 0.327016
204.808670 138.259293 0.000002 0.275669
205.695267 139.746582 0.000001 0.261311
206.348480 140.842346 0.000001 0.281682
nan nan nan 0.000000
nan nan nan 0.000000
205.331512 139.270737 3.793245 0.258824
nan nan nan 0.000000
nan nan nan 0.000000
205.756210 139.972015 2.740870 0.258824
205.480667 139.517029 2.470018 0.247059
206.335098 140.927872 2.129570 0.258824
206.149612 140.621582 1.864571 0.258824
189.347702 112.878342 0.000020 0.291814
205.083038 138.860458 1.152577 0.258824
201.430923 132.830109 0.000009 0.303319
203.452377 136.167908 0.000007 0.275364
204.742889 138.298813 0.000002 0.264469
205.639862 139.779877 0.000001 0.247623
206.300705 140.871063 0.000001 0.334752
nan nan nan 0.000000
nan nan nan 0.000000
205.303391 139.356339 3.782616 0.258824
205.396805 139.508163 3.426798 0.258824
nan nan nan 0.000000
205.698471 139.998535 2.741480 0.223529
205.868805 140.275406 2.428282 0.255055
205.347610 139.428223 2.158936 0.258824
205.463654 139.616852 1.844689 0.429725
189.105118 113.026421 0.000020 0.291203
204.983276 138.835999 1.146603 0.258824
201.327332 132.893341 0.000009 0.282399
205.298676 139.348663 0.545424 0.258824
204.677383 138.338791 0.000002 0.247929
205.584671 139.813553 0.000001 0.368872
206.253128 140.900101 0.000001 0.266987
nan nan nan 0.000000
nan nan nan 0.000000
205.313965 139.502319 3.759027 0.258824
205.346359 139.554169 3.424941 0.214343
205.216049 139.345627 3.133390 0.466453
205.641174 140.025970 2.742045 0.258824
205.324783 139.519638 2.473921 0.388830
205.631653 140.010727 2.148385 0.456535
206.052917 140.684906 1.864624 0.268940
205.316467 139.506332 1.525308 0.380087
205.318054 139.508881 1.207959 0.320287
205.319244 139.510773 0.889011 0.348989
205.321121 139.513794 0.567995 0.347616
205.326569 139.522491 0.245299 0.368856
205.529724 139.847626 0.000001 0.263813
206.205750 140.929474 0.000000 0.285634
nan nan nan 0.000000
nan nan nan 0.000000
nan nan nan 0.000000
205.251221 139.529419 3.435569 0.258824
205.172440 139.405273 3.130259 0.258824
205.583282 140.052658 2.742721 0.258824
205.015823 139.158493 2.497023 0.258824
205.231674 139.498611 2.158964 0.306340
206.004608 140.716553 1.864641 0.262013
205.602112 140.082321 1.556730 0.357900
205.250595 139.528427 1.206369 0.452628
205.253067 139.532318 0.887052 0.419577
205.256790 139.538177 0.565972 0.357259
205.265549 139.551987 0.243925 0.463813
205.475021 139.882065 0.000001 0.305577
206.158585 140.959183 0.000001 0.332052
nan nan nan 0.000000
nan nan nan 0.000000
205.188583 139.556946 3.762860 0.238605
nan nan nan 0.000000
205.118057 139.447495 3.129537 0.227481
205.525818 140.080231 2.743356 0.247059
205.380844 139.855270 2.458524 0.258824
204.857422 139.043091 2.168543 0.258824
205.199890 139.574478 1.841802 0.428519
204.732712 138.849564 1.482698 0.258824
197.445389 127.541855 0.033553 0.526497
201.019226 133.087357 0.000009 0.306600
205.159302 139.511505 0.554847 0.258824
204.482590 138.461456 0.000002 0.263737
205.420563 139.916901 0.000001 0.264408
206.111618 140.989212 0.000001 0.304204
nan nan nan 0.000000
nan nan nan 0.000000
205.195038 139.690338 3.741864 0.258824
nan nan nan 0.000000
205.166901 139.647339 3.107195 0.258824
205.467773 140.107101 2.744101 0.258824
205.321152 139.883057 2.458976 0.321569
197.521423 127.963829 2.385977 0.244419
205.454468 140.086777 1.851101 0.258824
197.326248 127.665550 0.823728 0.253864
205.351227 139.929001 1.238447 0.258824
205.147949 139.618362 0.888821 0.376013
203.054138 136.418701 0.000007 0.313634
204.418243 138.503250 0.000002 0.292515
205.366348 139.952118 0.000001 0.263340
206.064865 141.019562 0.000000 0.274098
nan nan nan 0.000000
nan nan nan 0.000000
nan nan nan 0.000000
204.919617 139.396561 3.478889 0.211307
204.917480 139.393326 3.147386 0.258824
197.267929 127.879837 3.951222 0.149020
205.261383 139.910934 2.459449 0.258824
205.456299 140.204330 2.147276 0.258824
205.464935 140.217331 1.852979 0.258824
205.096283 139.662445 1.525895 0.258824
205.410690 140.135681 1.255279 0.162783
200.816101 133.220276 0.000009 0.289296
202.975555 136.470520 0.000007 0.287953
204.354172 138.545486 0.000002 0.327672
205.312378 139.987701 0.000001 0.258457
206.018341 141.050262 0.000001 0.328450
nan nan nan 0.000000
nan nan nan 0.000000
nan nan nan 0.000000
205.071472 139.746155 3.423266 0.136492
204.776291 139.308533 3.164528 0.258824
nan nan nan 0.000000
205.011261 139.656891 2.476655 0.258824
205.412872 140.252304 2.147019 0.258824
197.318512 128.251907 1.616112 0.215686
204.710968 139.211700 1.496963 0.427695
205.341858 140.147003 1.252911 0.258824
205.050827 139.715546 0.891951 0.258824
202.897324 136.522858 0.000003 0.287419
204.290405 138.588181 0.000002 0.327932
205.258652 140.023666 0.000002 0.287404
205.972015 141.081268 0.000001 0.321126
nan nan nan 0.000000
nan nan nan 0.000000
nan nan nan 0.000000
204.702576 139.325943 3.505578 0.258824
204.702652 139.326080 3.167620 0.258824
204.867371 139.566650 2.808316 0.258824
204.831161 139.513763 2.487445 0.496635
nan nan nan 0.000000
204.554886 139.110275 1.829633 0.258824
205.343277 140.261673 1.557086 0.258824
205.015839 139.783463 1.213231 0.258824
200.614868 133.356018 0.000009 0.279561
202.819473 136.575760 0.000003 0.275669
204.226944 138.631317 0.000002 0.312383
205.205185 140.059998 0.000001 0.285084
205.925903 141.112595 0.000000 0.291218
nan nan nan 0.000000
nan nan nan 0.000000
nan nan nan 0.000000
nan nan nan 0.000000
204.833328 139.638260 3.129522 0.258824
204.808853 139.603027 2.808584 0.258824
204.767303 139.543243 2.488034 0.258824
196.454712 127.583000 2.400906 0.244022
205.074509 139.985260 1.846247 0.258824
205.640274 140.799286 1.587111 0.258824
205.106995 140.032013 1.234251 0.258824
200.514954 133.424927 0.000009 0.278477
202.741989 136.629211 0.000003 0.291707
204.163773 138.674881 0.000002 0.244968
205.151978 140.096710 0.000001 0.308156
205.880035 141.144241 0.000001 0.280919
nan nan nan 0.000000
nan nan nan 0.000000
nan nan nan 0.000000
nan nan nan 0.000000
204.759857 139.653015 3.132979 0.258824
204.735046 139.617828 2.811062 0.256794
nan nan nan 0.000000
nan nan nan 0.000000
205.503281 140.706879 1.859944 0.258824
205.239624 140.333130 1.557063 0.258824
204.919464 139.879272 1.215172 0.258824
200.415543 133.494553 0.000009 0.271015
202.664886 136.683197 0.000003 0.267109
204.100922 138.718903 0.000002 0.270939
205.099014 140.133789 0.000001 0.285161
205.834366 141.176224 0.000000 0.313390
nan nan nan 0.000000
nan nan nan 0.000000
nan nan nan 0.000000
nan nan nan 0.000000
nan nan nan 0.000000
204.440201 139.324615 2.844664 0.258824
204.914154 139.986649 2.466075 0.248707
204.970795 140.065750 2.153655 0.258824
205.510101 140.819061 1.861505 0.258824
205.342072 140.584351 1.570038 0.252750
204.871002 139.926361 1.216018 0.258824
200.316605 133.564850 0.000009 0.281804
202.588165 136.737732 0.000003 0.282780
204.038361 138.763351 0.000002 0.278004
205.046310 140.171234 0.000001 0.303609
205.788925 141.208511 0.000001 0.362387
nan nan nan 0.000000
nan nan nan 0.000000
nan nan nan 0.000000
nan nan nan 0.000000
nan nan nan 0.000000
204.442825 139.450592 2.836160 0.258824
204.890442 140.066681 2.463567 0.258824
205.667679 141.136459 2.132774 0.258824
204.012314 138.858047 1.821141 0.285237
205.353378 140.703857 1.575125 0.258824
204.822632 139.973343 1.216821 0.258824
200.218170 133.635849 0.000009 0.276158
202.511810 136.792786 0.000003 0.243992
203.976135 138.808243 0.000002 0.284016
204.993881 140.209061 0.000001 0.264286
205.743713 141.241119 0.000001 0.302602
nan nan nan 0.000000
nan nan nan 0.000000
nan nan nan 0.000000
nan nan nan 0.000000
204.503082 139.652283 3.150328 0.258824
204.449921 139.580185 2.827242 0.258824
nan nan nan 0.000000
204.923920 140.223114 2.152023 0.258824
205.523010 141.035675 1.864497 0.258824
186.278458 114.933014 0.000019 0.291417
204.774353 140.020248 1.217587 0.258824
200.120224 133.707535 0.000009 0.319905
202.435852 136.848373 0.000003 0.332204
203.914200 138.853561 0.000002 0.332799
204.941711 140.247238 0.000001 0.307912
205.698730 141.274033 0.000000 0.274388
nan nan nan 0.000000
nan nan nan 0.000000
nan nan nan 0.000000
nan nan nan 0.000000
204.379486 139.603607 3.163300 0.258824
204.446930 139.693756 2.819911 0.258824
nan nan nan 0.000000
202.687119 137.341370 2.211704 0.268971
205.530182 141.141785 1.865961 0.258824
186.050278 115.102463 0.000019 0.300343
204.726151 140.067017 1.218310 0.325567
200.022797 133.779892 0.000009 0.306828
202.360291 136.904495 0.000003 0.277409
203.852600 138.899307 0.000002 0.249500
204.889816 140.285782 0.000001 0.223819
205.653992 141.307266 0.000000 0.283543
nan nan nan 0.000000
nan nan nan 0.000000
nan nan nan 0.000000
nan nan nan 0.000000
204.385666 139.728516 3.151398 0.258824
nan nan nan 0.000000
204.913406 140.423782 2.448810 0.258824
204.686905 140.125397 2.155627 0.258824
205.534622 141.242218 1.867318 0.258824
185.823303 115.273514 0.000019 0.300404
195.689789 128.272125 0.000012 0.297612
199.925858 133.852936 0.000009 0.299229
202.285110 136.961151 0.000003 0.260288
203.791321 138.945496 0.000002 0.291188
204.838181 140.324692 0.000001 0.283055
205.609467 141.340820 0.000001 0.254124
nan nan nan 0.000000
nan nan nan 0.000000
nan nan nan 0.000000
nan nan nan 0.000000
204.204163 139.607346 3.175153 0.258824
202.433777 137.308456 3.075507 0.349050
204.798553 140.379181 2.453977 0.258824
204.604721 140.127487 2.156416 0.258824
201.456253 136.039108 1.759143 0.278187
185.597519 115.446129 0.000019 0.285191
195.554504 128.375549 0.000011 0.282902
199.829437 133.926666 0.000009 0.296376
202.210342 137.018326 0.000003 0.271687
203.730362 138.992096 0.000002 0.255970
204.786835 140.363953 0.000001 0.305760
205.565186 141.374680 0.000000 0.322820
nan nan nan 0.000000
nan nan nan 0.000000
nan nan nan 0.000000
nan nan nan 0.000000
201.859085 136.721619 3.602818 0.290166
202.304657 137.291916 3.083067 0.280140
204.741486 140.410919 2.454463 0.258824
204.521652 140.129547 2.157223 0.207263
nan nan nan 0.000000
201.569717 136.351257 1.292445 0.257862
195.419952 128.479919 0.000011 0.292409
199.733536 134.001053 0.000008 0.269398
202.135971 137.076004 0.000003 0.317128
203.669724 139.039139 0.000002 0.260655
204.735748 140.403580 0.000001 0.239002
205.521149 141.408844 0.000001 0.328344
nan nan nan 0.000000
nan nan nan 0.000000
nan nan nan 0.000000
201.695175 136.671402 4.087597 0.263493
201.798950 136.802338 3.599798 0.244495
202.173828 137.275314 3.090771 0.587594
204.653976 140.404495 2.457370 0.258824
205.378662 141.318817 2.133256 0.258824
202.239899 137.358673 1.784054 0.389334
202.036148 137.101608 1.335583 0.289525
195.286133 128.585220 0.000012 0.298390
199.638153 134.076096 0.000009 0.314717
202.061996 137.134216 0.000003 0.288029
203.609421 139.086578 0.000002 0.291249
204.684937 140.443558 0.000001 0.252918
205.477341 141.443314 0.000000 0.272618
nan nan nan 0.000000
nan nan nan 0.000000
nan nan nan 0.000000
201.656311 136.779877 4.078620 0.235447
201.739044 136.882767 3.596867 0.222553
202.083755 137.311508 3.093060 0.278431
201.664001 136.789444 2.687807 0.248341
202.532059 137.869080 2.206436 0.256916
202.081924 137.309235 1.781809 0.264302
201.707428 136.843445 1.315597 0.348211
195.153061 128.691452 0.000012 0.281437
199.543304 134.151825 0.000008 0.283101
201.988434 137.192947 0.000003 0.251606
203.549454 139.134460 0.000002 0.288808
204.634415 140.483887 0.000001 0.260822
205.433777 141.478088 0.000001 0.295872
nan nan nan 0.000000
nan nan nan 0.000000
nan nan nan 0.000000
201.965820 137.314148 3.988134 0.293385
201.679352 136.962906 3.594023 0.543969
202.044601 137.410736 3.088756 0.391775
201.622650 136.893372 2.685118 0.208057
201.655441 136.933578 2.227360 1.000000
201.965164 137.313339 1.780659 0.543236
201.656311 136.934662 1.317499 0.269871
195.020721 128.798615 0.000012 0.290761
199.448990 134.228195 0.000008 0.302434
201.915283 137.252182 0.000003 0.281529
203.489822 139.182755 0.000002 0.280644
204.584183 140.524567 0.000001 0.255497
205.390457 141.513168 0.000001 0.283452
nan nan nan 0.000000
201.733414 137.180008 4.949003 0.261662
nan nan nan 0.000000
201.505859 136.904953 4.078347 0.266423
201.619843 137.042725 3.591273 0.265324
202.183685 137.724304 3.061650 0.252354
201.791077 137.249725 2.666338 0.297810
201.797073 137.256958 2.221800 0.971344
201.847656 137.318115 1.779499 0.599100
201.744049 137.192871 1.330037 0.278431
201.798218 137.258347 0.888765 0.235294
199.355194 134.305237 0.000009 0.285420
201.842545 137.311920 0.000003 0.302556
203.430511 139.231461 0.000001 0.324147
204.534225 140.565613 0.000001 0.363531
205.347382 141.548553 0.000000 0.276600
nan nan nan 0.000000
nan nan nan 0.000000
nan nan nan 0.000000
201.732101 137.326736 4.008796 0.225818
201.873779 137.495590 3.532547 0.132845
201.915359 137.545151 3.087019 0.269398
201.834946 137.449295 2.657426 0.245548
201.517319 137.070786 2.227071 0.257420
201.669006 137.251556 1.776790 0.201709
201.627686 137.202301 1.326734 0.273594
201.552032 137.112152 0.866633 0.265446
201.407486 136.939880 0.383999 0.247364
201.770233 137.372177 0.000003 0.334524
203.371567 139.280579 0.000001 0.256458
204.484558 140.606995 0.000001 0.304692
205.304550 141.584229 0.000000 0.324483
nan nan nan 0.000000
nan nan nan 0.000000
201.514114 137.216476 4.505013 0.580392
201.671158 137.401016 4.006216 0.203189
201.517853 137.220886 3.583114 0.553429
201.859711 137.622543 3.085117 0.239643
201.573242 137.285950 2.671853 0.557366
201.538818 137.245499 2.224660 0.536034
201.849274 137.610291 1.783178 0.277943
201.548141 137.256470 1.326244 0.536431
201.638840 137.363037 0.886940 0.327810
201.563995 137.275085 0.425074 0.549203
201.698334 137.432938 0.000003 0.326909
203.312958 139.330109 0.000002 0.303151
204.435181 140.648712 0.000001 0.354452
205.261978 141.620209 0.000000 0.401236
nan nan nan 0.000000
nan nan nan 0.000000
201.550583 137.405823 4.474533 0.292119
201.431747 137.268143 4.044291 0.290196
201.368286 137.194626 3.596606 0.227527
201.550049 137.405197 3.115173 0.258824
201.516464 137.366287 2.670672 0.245884
201.550659 137.405914 2.222541 0.808270
197.214996 132.382996 1.668879 0.235294
201.499130 137.346222 1.328025 0.319722
201.519714 137.370056 0.881020 0.282338
201.481628 137.325943 0.423351 0.538720
201.626862 137.494186 0.000002 0.245197
203.254684 139.380051 0.000001 0.296483
204.386093 140.690781 0.000001 0.280949
205.219650 141.656479 0.000000 0.270970
nan nan nan 0.000000
nan nan nan 0.000000
201.737930 137.763962 4.402990 0.264134
201.351120 137.322113 4.046095 0.321569
201.657959 137.672607 3.533244 0.192157
201.385727 137.361633 3.126708 0.192157
201.507019 137.500198 2.666011 0.267521
201.527924 137.524063 2.221326 0.185016
201.776764 137.808319 1.784856 0.269429
183.621231 117.069427 0.000018 0.292500
201.454819 137.440567 0.881892 0.829053
201.387512 137.363678 0.419522 0.268482
201.555817 137.555939 0.000003 0.342473
203.196777 139.430389 0.000002 0.316686
204.337296 140.733200 0.000001 0.251057
205.177582 141.693054 0.000000 0.273381
nan nan nan 0.000000
nan nan nan 0.000000
nan nan nan 0.000000
nan nan nan 0.000000
201.319305 137.431320 3.579829 0.237705
201.341675 137.456528 3.123260 0.330236
201.834229 138.011292 2.636547 0.224948
201.509567 137.645615 2.220033 0.258640
201.659332 137.814301 1.783659 0.263966
201.610458 137.759262 1.346895 0.246754
201.440231 137.567520 0.888910 0.277455
198.894455 134.700150 0.000009 0.272145
201.485214 137.618195 0.000003 0.275608
203.139221 139.481140 0.000002 0.248417
204.288803 140.775955 0.000001 0.327779
205.135773 141.729919 0.000000 0.348165
nan nan nan 0.000000
nan nan nan 0.000000
nan nan nan 0.000000
201.189438 137.430359 4.050012 1.000000
201.380203 137.642242 3.557070 0.296376
201.291977 137.544250 3.120614 0.988083
201.716248 138.015442 2.640258 0.214099
201.467316 137.738983 2.219355 0.241703
201.540573 137.820343 1.782437 0.229267
201.496780 137.771713 1.343629 0.268147
197.651947 133.501587 0.433335 0.192157
198.803970 134.781036 0.000009 0.294057
201.415039 137.680939 0.000003 0.301625
203.082016 139.532288 0.000002 0.279896
204.240616 140.819046 0.000001 0.286732
205.094223 141.767075 0.000000 0.268528
nan nan nan 0.000000
nan nan nan 0.000000
nan nan nan 0.000000
197.387955 133.410294 4.870555 0.197162
201.249680 137.639420 3.567398 0.412467
200.856903 137.209274 3.164925 0.206989
201.597336 138.020157 2.644011 0.233921
200.413635 136.723831 2.243243 0.247059
201.455734 137.865082 1.782047 0.249317
200.988419 137.353317 1.311627 0.221378
197.409637 133.434052 0.415887 0.207858
198.714066 134.862564 0.000009 0.271824
201.345322 137.744156 0.000003 0.266178
203.025162 139.583832 0.000002 0.305348
204.192719 140.862473 0.000001 0.227420
205.052933 141.804520 0.000001 0.306508
nan nan nan 0.000000
nan nan nan 0.000000
nan nan nan 0.000000
nan nan nan 0.000000
201.197357 137.722900 3.564402 0.290196
200.827744 137.323776 3.159632 0.266667
201.502411 138.052353 2.646003 0.277729
201.473373 138.020996 2.215880 0.220279
201.444870 137.990204 1.783434 0.244633
201.463852 138.010712 1.351209 0.230121
201.395767 137.937180 0.908917 0.233387
198.624725 134.944717 0.000008 0.275517
201.276031 137.807877 0.000003 0.314153
202.968674 139.635773 0.000002 0.309514
204.145142 140.906219 0.000001 0.255650
205.011902 141.842239 0.000000 0.250965
nan nan nan 0.000000
nan nan nan 0.000000
nan nan nan 0.000000
nan nan nan 0.000000
201.083755 137.740631 3.571824 0.941405
197.460983 133.882767 3.554255 0.306935
201.480652 138.163269 2.642747 0.268284
197.321671 133.734406 2.313515 0.283467
201.172150 137.834747 1.778530 0.285878
201.439774 138.119751 1.354320 0.354910
193.739731 129.920029 0.000011 0.279500
198.535934 135.027466 0.000004 0.306676
201.207184 137.872070 0.000003 0.229603
202.912552 139.688110 0.000002 0.240726
204.097855 140.950317 0.000001 0.256031
204.971130 141.880264 0.000000 0.339361
nan nan nan 0.000000
nan nan nan 0.000000
nan nan nan 0.000000
nan nan nan 0.000000
nan nan nan 0.000000
197.279633 133.884216 3.564385 0.257862
197.111160 133.707306 2.949291 0.334554
200.306351 137.062576 2.240386 0.258946
201.437134 138.250031 1.786446 0.242725
201.221436 138.023529 1.343516 0.241840
193.616013 130.037033 0.000011 0.307774
198.447754 135.110870 0.000004 0.295109
201.138794 137.936737 0.000003 0.320867
202.856796 139.740829 0.000001 0.265858
204.050888 140.994736 0.000001 0.265232
204.930634 141.918564 0.000000 0.258473
nan nan nan 0.000000
nan nan nan 0.000000
nan nan nan 0.000000
nan nan nan 0.000000
196.892670 133.675262 4.243020 0.235782
196.996384 133.782654 3.586473 0.263386
197.313446 134.110977 2.928099 0.231815
201.498734 138.444977 2.210553 0.279164
201.431091 138.374939 1.787853 0.261921
201.442703 138.386963 1.363926 0.243717
193.493103 130.154892 0.000011 0.299199
