# This PCD file was generated using the MATLABÂ® pcwrite function
# from Computer Vision ToolboxÂ®.
# .PCD v.7 - Point Cloud Data file format
VERSION .7
FIELDS x y z intensity
SIZE 4 4 4 4
TYPE F F F F
COUNT 1 1 1 1
WIDTH 1332
HEIGHT 1
VIEWPOINT 0 0 0 1 0 0 0
POINTS 1332
DATA ascii
-7.685392 220.066376 0.000042 0.293950
5.633797 210.637665 0.000024 0.291310
11.352295 206.589508 0.000017 0.306050
14.537208 204.334900 0.000011 0.324056
16.615372 202.863754 0.010009 1.000000
17.983757 201.895081 0.000011 0.334691
19.024958 201.158005 0.000009 0.343374
nan nan nan 0.000000
nan nan nan 0.000000
nan nan nan 0.000000
2.911945 212.802811 6.133315 0.347341
nan nan nan 0.000000
1.754602 213.634293 4.401610 0.283940
1.868401 213.552536 3.432022 0.302586
2.694042 212.959366 2.460363 0.276356
-2.246111 216.508545 1.440096 0.218997
-7.520376 220.297775 0.000042 0.290608
5.732664 210.776306 0.000024 0.284260
11.422763 206.688324 0.000016 0.268894
14.591863 204.411530 0.000012 0.281575
16.615078 202.957993 0.000010 0.327794
18.021294 201.947708 0.000011 0.343252
19.057322 201.203384 0.000008 0.339559
nan nan nan 0.000000
nan nan nan 0.000000
nan nan nan 0.000000
nan nan nan 0.000000
nan nan nan 0.000000
nan nan nan 0.000000
0.975645 214.455261 3.493553 0.244846
nan nan nan 0.000000
nan nan nan 0.000000
-7.353758 220.528015 0.000041 0.292424
5.832499 210.914261 0.000023 0.299886
11.493920 206.786652 0.000016 0.284764
14.647053 204.487793 0.000012 0.268391
16.660063 203.020157 0.000009 0.252872
18.059198 202.000076 0.000011 0.337606
19.090000 201.248550 0.000008 0.334035
nan nan nan 0.000000
2.792358 213.375229 8.111873 1.000000
2.556135 213.549988 7.202538 0.250187
3.084929 213.158783 6.143690 0.488136
nan nan nan 0.000000
nan nan nan 0.000000
nan nan nan 0.000000
nan nan nan 0.000000
2.388767 213.673813 1.528712 0.507439
2.417311 213.652695 0.586869 0.577859
5.933298 211.051498 0.000024 0.291539
11.565763 206.884476 0.000016 0.299001
14.702769 204.563660 0.000012 0.270161
16.705482 203.082001 0.000009 0.274327
18.097466 202.052185 0.000011 0.340002
19.122995 201.293472 0.000007 0.340948
nan nan nan 0.000000
2.955336 213.499924 8.099741 0.666010
nan nan nan 0.000000
2.479681 213.856979 6.277566 0.220371
2.689354 213.699585 5.287270 0.290196
3.118422 213.377487 4.299010 0.214252
nan nan nan 0.000000
2.565895 213.792267 2.470123 0.533898
2.482857 213.854599 1.528179 0.559442
2.536268 213.814499 0.586804 0.551110
6.035049 211.188034 0.000023 0.282841
11.638288 206.981796 0.000016 0.284169
14.759015 204.639130 0.000012 0.326543
16.751339 203.143524 0.000009 0.325032
18.136095 202.104019 0.000011 0.339666
19.156303 201.338165 0.000007 0.343374
nan nan nan 0.000000
3.235758 213.534180 8.055895 0.250843
2.752831 213.901993 7.212367 0.258824
2.713003 213.932327 6.256700 0.985306
2.835054 213.839371 5.283599 0.569635
3.830360 213.081299 4.237800 0.219089
2.693316 213.947327 3.410977 0.509239
-13.080595 225.961578 2.794457 0.167865
-12.183672 225.278442 1.223992 0.240177
-6.844275 221.211670 0.000041 0.290944
6.137747 211.323868 0.000023 0.292027
11.711487 207.078613 0.000016 0.287266
14.815785 204.714203 0.000012 0.287160
16.797621 203.204742 0.000009 0.272847
18.175085 202.155594 0.000011 0.336065
19.189922 201.382629 0.000007 0.339788
nan nan nan 0.000000
nan nan nan 0.000000
3.245041 213.774384 7.127174 0.186053
4.451366 212.842209 5.953681 0.248295
3.528751 213.555145 5.200379 0.277699
4.123295 213.095718 4.219461 0.215717
nan nan nan 0.000000
-12.645376 226.053619 2.789722 1.000000
-12.189360 225.701233 1.219707 0.223804
-6.671282 221.437164 0.000041 0.292607
6.241405 211.458969 0.000023 0.281483
11.785369 207.174896 0.000016 0.292210
14.873081 204.788895 0.000011 0.287587
16.844330 203.265625 0.000009 0.240024
18.214437 202.206879 0.000011 0.333837
19.223854 201.426865 0.000007 0.317052
nan nan nan 0.000000
1.955790 215.035065 8.472860 0.238834
3.320213 213.965408 7.137731 0.210330
3.291071 213.988251 6.193922 0.206622
3.214407 214.048355 5.263767 0.518166
4.060562 213.385010 4.238091 0.294545
-12.291101 226.203979 4.361665 0.130556
-12.013529 225.986374 2.780888 0.231434
-11.915201 225.909286 1.221156 0.260273
-6.496714 221.661438 0.000041 0.288563
6.345991 211.593338 0.000023 0.291630
11.859915 207.270676 0.000016 0.288380
14.930892 204.863174 0.000012 0.312261
16.891460 203.326172 0.000009 0.308095
18.254145 202.257889 0.000011 0.336873
19.258089 201.470840 0.000007 0.329656
nan nan nan 0.000000
nan nan nan 0.000000
3.395908 214.157074 7.148534 0.271931
4.648529 213.160889 5.959830 0.244327
3.283785 214.246246 5.271611 0.429664
3.588129 214.004211 4.299957 0.316152
-8.738050 223.807083 4.151700 0.218021
13.566085 206.068848 2.250387 0.258824
13.035364 206.490936 1.738517 0.374182
-6.320585 221.884491 0.000041 0.290333
6.451519 211.726990 0.000023 0.283940
11.935127 207.365936 0.000016 0.307225
14.989228 204.937042 0.000012 0.255879
16.939014 203.386398 0.000009 0.338415
18.294207 202.308624 0.000011 0.329320
19.292631 201.514587 0.000006 0.337987
nan nan nan 0.000000
3.058321 214.683228 8.239185 0.265309
3.078434 214.667007 7.251626 0.222721
4.746151 213.321579 5.963429 0.290196
4.177900 213.780014 5.157798 0.320272
3.616676 214.232773 4.309847 0.497383
-2.479887 219.151169 3.768745 0.212253
-2.596964 219.245636 2.591622 0.296101
8.215385 210.522766 1.635709 0.258824
-6.142914 222.106323 0.000041 0.295018
6.557976 211.859894 0.000023 0.305715
12.011004 207.460663 0.000015 0.281483
15.048071 205.010513 0.000011 0.288716
16.986984 203.446289 0.000008 0.283024
18.334621 202.359085 0.000011 0.336202
19.327478 201.558105 0.000006 0.348531
nan nan nan 0.000000
3.461475 214.613922 8.162165 0.290196
nan nan nan 0.000000
nan nan nan 0.000000
4.273289 213.949570 5.161582 0.580392
3.835470 214.307861 4.299806 0.223529
3.137978 214.878647 3.422187 0.433951
2.801207 215.154236 2.480845 0.358831
8.310986 210.645370 1.635658 0.258824
-2.672520 219.633606 0.208963 0.583871
6.665350 211.992050 0.000023 0.281819
12.087541 207.554855 0.000016 0.313878
15.107429 205.083557 0.000011 0.306142
17.035376 203.505844 0.000009 0.279454
18.375389 202.409256 0.000011 0.334188
19.362629 201.601364 0.000006 0.339040
nan nan nan 0.000000
nan nan nan 0.000000
nan nan nan 0.000000
nan nan nan 0.000000
4.567904 213.954376 5.135778 0.269154
-6.172091 222.869247 5.379507 0.677241
-2.617884 219.919037 3.797884 1.000000
2.930706 215.313354 2.480865 0.241154
13.088959 206.881348 1.735168 0.258824
-5.782942 222.546234 0.000040 0.286687
6.773651 212.123459 0.000023 0.298344
12.164729 207.648529 0.000015 0.267399
15.167295 205.156204 0.000012 0.282506
17.084179 203.565063 0.000008 0.317891
18.416506 202.459152 0.000011 0.344274
19.398079 201.644379 0.000005 0.341741
nan nan nan 0.000000
nan nan nan 0.000000
nan nan nan 0.000000
nan nan nan 0.000000
4.217054 214.498520 5.206895 0.281254
-6.300838 223.353775 5.413089 0.545617
-7.262320 224.163284 4.106672 0.296834
-2.595238 220.233948 2.601888 0.223529
13.782361 206.445251 1.748451 0.258824
-5.600649 222.764282 0.000040 0.291936
6.882870 212.254105 0.000023 0.296132
12.242569 207.741638 0.000015 0.291722
15.227666 205.228424 0.000011 0.271534
17.133396 203.623932 0.000008 0.299535
18.457968 202.508743 0.000010 0.329961
19.433828 201.687149 0.000005 0.329290
nan nan nan 0.000000
nan nan nan 0.000000
nan nan nan 0.000000
-6.518435 223.921722 8.253653 0.304753
-6.493605 223.900528 6.846210 0.494453
-6.433714 223.849380 5.447680 0.230930
nan nan nan 0.000000
1.179594 217.348190 2.524233 0.248524
14.059684 206.349564 1.752925 0.258824
-5.416845 222.981049 0.000040 0.299550
6.992990 212.383987 0.000022 0.309010
12.321070 207.834213 0.000016 0.293584
15.288542 205.300217 0.000011 0.306874
17.183025 203.682465 0.000009 0.295109
18.499779 202.558060 0.000010 0.332158
19.469881 201.729660 0.000005 0.330755
nan nan nan 0.000000
nan nan nan 0.000000
nan nan nan 0.000000
-6.655397 224.429703 8.318186 0.179156
nan nan nan 0.000000
-6.569605 224.355408 5.483182 0.249363
1.605091 217.275543 3.555646 0.292226
1.025383 217.777618 2.530727 0.225925
14.037420 206.508286 1.750955 0.258824
-5.231548 223.196548 0.000039 0.293812
7.104021 212.513092 0.000023 0.303960
12.400204 207.926239 0.000015 0.292836
15.349912 205.371582 0.000011 0.321950
17.233055 203.740646 0.000008 0.281910
18.576881 202.576797 0.009997 1.000000
19.506224 201.771927 0.000005 0.324132
nan nan nan 0.000000
nan nan nan 0.000000
nan nan nan 0.000000
nan nan nan 0.000000
nan nan nan 0.000000
1.405098 217.745453 4.634142 0.239185
1.807028 217.392410 3.551943 0.228550
1.393583 217.755569 2.525950 0.234714
13.515191 207.108414 1.738060 0.258824
13.948556 206.727753 1.241955 0.258824
7.215954 212.641418 0.000023 0.299321
12.479981 208.017700 0.000015 0.273777
15.411784 205.442520 0.000011 0.292165
17.283497 203.798477 0.000008 0.309148
18.619173 202.625275 0.010000 1.000000
19.542862 201.813934 0.000005 0.320760
nan nan nan 0.000000
nan nan nan 0.000000
nan nan nan 0.000000
nan nan nan 0.000000
nan nan nan 0.000000
1.545464 217.920776 4.635045 0.215641
10.033467 210.359604 3.020323 0.258824
1.462643 217.994553 2.527695 0.285679
9.345295 210.972641 1.645054 0.258824
1.441467 218.013412 0.414391 0.268360
7.328773 212.768967 0.000023 0.292241
12.560393 208.108612 0.000015 0.294591
15.474150 205.513016 0.000011 0.291920
17.334339 203.855957 0.000008 0.310735
18.661808 202.673431 0.010005 1.000000
19.579794 201.855682 0.000004 0.345617
nan nan nan 0.000000
nan nan nan 0.000000
nan nan nan 0.000000
nan nan nan 0.000000
-4.161385 223.378723 6.604991 0.289418
nan nan nan 0.000000
13.995132 206.976028 2.764449 0.258824
9.493778 211.042572 2.353902 0.258824
2.106495 217.716278 1.483188 0.187839
14.084482 206.895309 1.241466 0.258824
7.442478 212.895721 0.000022 0.294804
12.641441 208.198959 0.000015 0.271534
15.537003 205.583084 0.000011 0.307927
17.385582 203.913071 0.000009 0.285374
18.704777 202.721298 0.010009 1.000000
19.617014 201.897186 0.000004 0.336690
nan nan nan 0.000000
nan nan nan 0.000000
nan nan nan 0.000000
nan nan nan 0.000000
-3.767967 223.397278 6.572951 0.233234
nan nan nan 0.000000
14.071806 207.053101 2.764211 0.258824
14.162937 206.969620 2.252533 0.262776
13.586252 207.497955 1.734669 0.258824
14.304337 206.840073 1.251281 0.258824
7.557066 213.021683 0.000022 0.315602
12.723116 208.288727 0.000015 0.281956
15.600345 205.652710 0.000011 0.294774
17.437218 203.969833 0.000008 0.272251
18.713928 202.800156 0.000010 0.347585
19.654526 201.938416 0.000004 0.340398
nan nan nan 0.000000
nan nan nan 0.000000
nan nan nan 0.000000
nan nan nan 0.000000
-3.870577 223.871429 6.618615 0.473548
13.984735 207.282242 3.293497 0.258824
14.665815 206.649460 2.729317 0.258824
14.222644 207.061203 2.252831 0.258824
14.237279 207.047607 1.747496 0.258824
14.336232 206.955673 1.248582 0.258824
7.672539 213.146835 0.000022 0.285649
12.805416 208.377930 0.000015 0.310460
15.664174 205.721893 0.000011 0.300481
17.489252 204.026230 0.000008 0.270954
18.757767 202.847672 0.000010 0.334157
19.692322 201.979385 0.000003 0.340581
nan nan nan 0.000000
nan nan nan 0.000000
nan nan nan 0.000000
-4.277102 224.639526 8.077217 0.478279
1.773968 218.938324 5.756710 0.193866
9.680884 211.488571 3.786831 0.396307
14.862356 206.606674 2.720830 0.258824
14.284857 207.150787 2.253089 0.258824
14.162273 207.266281 1.744155 0.258824
9.700130 211.470428 0.930734 0.376196
9.713414 211.457916 0.216834 0.440253
12.888335 208.466568 0.000015 0.281132
15.728481 205.790634 0.000011 0.262547
17.541676 204.082275 0.000008 0.325933
18.801920 202.894882 0.000007 0.288457
19.730404 202.020081 0.000003 0.342138
nan nan nan 0.000000
nan nan nan 0.000000
nan nan nan 0.000000
-5.372324 226.081543 8.342301 0.258366
-4.369171 225.123077 6.759107 0.433173
14.079748 207.496094 3.299851 0.258824
14.803407 206.804672 2.729626 0.258824
10.070126 211.327087 2.350160 0.258824
9.796916 211.588120 1.643656 0.277058
-3.892883 224.668015 0.000039 0.290761
7.906080 213.394714 0.000022 0.286305
12.971874 208.554611 0.000015 0.288899
15.793271 205.858917 0.000011 0.294667
17.594494 204.137939 0.000008 0.288197
18.846416 202.941788 0.000006 0.244907
19.768772 202.060532 0.000003 0.335821
nan nan nan 0.000000
nan nan nan 0.000000
nan nan nan 0.000000
nan nan nan 0.000000
-4.162342 225.324814 6.758053 0.254063
2.355253 219.009964 4.647192 0.218051
14.745540 207.005112 2.738502 0.190066
14.422807 207.317810 2.253345 0.258824
nan nan nan 0.000000
-3.695822 224.872803 0.000039 0.290013
8.024143 213.517426 0.000022 0.286046
13.056026 208.642059 0.000015 0.282689
15.858532 205.926743 0.000011 0.264790
17.647696 204.193237 0.000008 0.264378
18.891239 202.988373 0.000007 0.320531
19.807419 202.100693 0.000003 0.331487
nan nan nan 0.000000
nan nan nan 0.000000
nan nan nan 0.000000
-4.181822 225.748749 8.181118 0.228504
2.623705 219.062180 5.696142 0.247379
14.318379 207.571930 3.290125 0.258824
14.341398 207.549316 2.771383 0.375387
10.435990 211.386459 2.346537 0.258824
9.716172 212.093689 1.636950 0.258824
14.826843 207.072357 1.262050 0.169696
8.143061 213.639313 0.000022 0.285405
13.140784 208.728943 0.000015 0.317327
15.924265 205.994110 0.000011 0.300984
17.701286 204.248154 0.000008 0.266987
18.936386 203.034637 0.000007 0.345571
19.846344 202.140594 0.000002 0.334737
nan nan nan 0.000000
nan nan nan 0.000000
nan nan nan 0.000000
nan nan nan 0.000000
14.630896 207.415619 3.771862 0.258824
2.880690 219.122757 4.622941 0.845319
14.701034 207.345734 2.751789 0.258824
10.615806 211.416000 2.344785 0.258824
6.587778 215.429260 1.562169 0.249042
-3.297470 225.278290 0.000038 0.293278
8.262823 213.760345 0.000022 0.285924
14.485216 207.560760 0.204481 0.394858
15.990466 206.061020 0.000010 0.293675
17.755257 204.302704 0.000008 0.267674
18.981853 203.080597 0.000006 0.309148
19.885548 202.180222 0.000002 0.343008
nan nan nan 0.000000
nan nan nan 0.000000
nan nan nan 0.000000
nan nan nan 0.000000
14.565907 207.634125 3.794944 0.347997
14.570389 207.629608 3.278825 0.419608
14.574876 207.625061 2.765884 0.365164
14.579817 207.620071 2.254997 0.435508
14.584031 207.615814 1.745101 0.311421
14.589095 207.610703 1.235109 0.329046
14.593434 207.606323 0.723861 0.562158
14.604287 207.595352 0.211332 0.366491
16.057137 206.127472 0.000011 0.271595
17.809607 204.356873 0.000008 0.337682
19.027643 203.126236 0.000007 0.329580
19.925026 202.219574 0.000001 0.314260
nan nan nan 0.000000
nan nan nan 0.000000
nan nan nan 0.000000
3.436657 219.192596 6.694454 0.428382
3.448198 219.180756 5.638844 0.198840
14.790606 207.559860 3.262089 0.258824
7.362402 215.170456 3.278625 0.973037
14.881668 207.466568 2.249743 0.258824
14.078061 208.289902 1.731430 0.258824
0.932678 221.758057 0.269146 0.290196
8.504877 213.999924 0.000021 0.279973
13.398669 208.985977 0.000015 0.297688
16.124268 206.193451 0.000011 0.306462
17.864334 204.410660 0.000008 0.281895
19.073750 203.171555 0.000007 0.308782
19.964783 202.258636 0.000002 0.340856
nan nan nan 0.000000
nan nan nan 0.000000
4.759304 218.137009 7.453030 0.319509
4.789230 218.105911 6.439067 0.250233
4.834511 218.058868 5.435170 0.234684
15.115591 207.377167 3.232787 0.258824
14.855918 207.646957 2.757010 0.258824
14.810596 207.694046 2.253226 0.258824
14.741107 207.766251 1.745134 0.258824
14.390738 208.130264 1.210035 0.258824
8.627144 214.118439 0.000021 0.290028
13.485818 209.070450 0.000014 0.297520
16.191858 206.258972 0.000011 0.310262
17.919434 204.464066 0.000008 0.354147
19.120171 203.216553 0.000007 0.394018
20.004807 202.297440 0.000001 0.340322
nan nan nan 0.000000
nan nan nan 0.000000
4.644547 218.561829 7.523335 0.160784
4.674593 218.530167 6.496312 0.263142
4.720848 218.481430 5.479347 0.370123
15.137916 207.506119 3.239165 0.241733
14.870044 207.788345 2.761551 0.258824
14.904417 207.752136 2.252852 0.258824
7.649773 215.395554 1.574703 0.565988
7.664778 215.379730 0.724268 0.528328
8.750248 214.236099 0.000021 0.290730
13.573557 209.154312 0.000015 0.283101
16.259903 206.324005 0.000011 0.305577
17.974909 204.517090 0.000008 0.270451
19.166904 203.261215 0.000007 0.300603
20.045101 202.335953 0.000000 0.335195
nan nan nan 0.000000
nan nan nan 0.000000
nan nan nan 0.000000
4.556942 218.965546 6.555279 0.219638
4.604147 218.915115 5.524860 0.388327
15.288470 207.499649 3.230312 0.157717
7.727724 215.577789 3.280691 0.517647
15.261320 207.528671 2.246185 0.235279
14.898272 207.916550 1.745121 0.420798
14.604797 208.230118 1.213717 0.251789
8.874166 214.352890 0.000021 0.298131
13.661876 209.237564 0.000014 0.279362
16.328400 206.388565 0.000011 0.314504
18.030746 204.569717 0.000008 0.388708
19.213949 203.305557 0.000007 0.301534
20.085663 202.374191 -0.000000 0.316426
nan nan nan 0.000000
nan nan nan 0.000000
4.406141 219.445038 7.670316 0.383001
4.436249 219.412415 6.616023 0.230045
7.855803 215.707352 4.999893 0.252903
4.571070 219.266342 4.535288 0.346685
7.842333 215.721954 3.282046 0.984344
10.728906 212.594360 2.357398 0.215686
14.668078 208.326294 1.737645 0.258824
-2.068945 226.460754 0.000037 0.293202
8.998894 214.468826 0.000021 0.288029
13.750783 209.320175 0.000014 0.295171
16.397346 206.452652 0.000010 0.255558
18.086956 204.621964 0.000008 0.276448
19.261303 203.349564 0.000007 0.307637
20.126493 202.412140 0.000000 0.335775
nan nan nan 0.000000
nan nan nan 0.000000
nan nan nan 0.000000
4.735147 219.406754 6.585446 0.273548
4.673252 219.474762 5.566784 0.311696
5.284937 218.802658 4.467710 0.223804
15.344116 207.749771 2.744307 0.258824
15.184277 207.925400 2.251812 0.258824
14.433572 208.750259 1.729938 0.482353
-1.859426 226.652786 0.000037 0.289265
9.124426 214.583878 0.000021 0.274723
13.840258 209.402191 0.000014 0.278599
16.466740 206.516235 0.000011 0.292012
18.143528 204.673813 0.000008 0.257832
19.308960 203.393250 0.000006 0.262409
20.194450 202.420288 0.009997 1.000000
nan nan nan 0.000000
nan nan nan 0.000000
nan nan nan 0.000000
4.972652 219.465210 6.568257 0.253346
nan nan nan 0.000000
5.417427 218.969604 4.470581 0.435004
15.672475 207.542236 2.725927 0.270588
15.277245 207.982651 2.251486 0.258824
8.462967 215.575912 1.581560 0.194064
-1.648563 226.843353 0.000037 0.286702
9.250761 214.698059 0.000021 0.287739
13.930303 209.483566 0.000014 0.295277
16.536572 206.579361 0.000010 0.325734
18.200460 204.725266 0.000008 0.239185
19.356926 203.436600 0.000006 0.231067
20.235613 202.457458 0.010002 1.000000
nan nan nan 0.000000
nan nan nan 0.000000
nan nan nan 0.000000
5.208504 219.523117 6.551394 0.258824
nan nan nan 0.000000
nan nan nan 0.000000
15.792525 207.562241 2.722737 0.258824
15.206412 208.224594 2.255213 0.258824
14.700245 208.796616 1.732288 0.258824
-1.436380 227.032440 0.000036 0.298619
9.377886 214.811340 0.000021 0.295003
14.020912 209.564316 0.000014 0.311467
16.606846 206.641983 0.000010 0.324590
18.257748 204.776321 0.000008 0.265812
19.405190 203.479599 0.000007 0.318822
20.277023 202.494354 0.010003 1.000000
nan nan nan 0.000000
nan nan nan 0.000000
nan nan nan 0.000000
nan nan nan 0.000000
nan nan nan 0.000000
nan nan nan 0.000000
15.498084 208.055923 2.750504 0.258824
15.275722 208.310776 2.255524 0.258824
14.978283 208.651672 1.737073 0.258824
-1.222895 227.220047 0.000036 0.289967
9.505808 214.923752 0.000020 0.314046
14.112085 209.644424 0.000014 0.300252
16.677555 206.704117 0.000010 0.294911
18.315392 204.826965 0.000008 0.298848
19.453753 203.522278 0.000006 0.297368
20.318689 202.530960 0.010004 1.000000
nan nan nan 0.000000
nan nan nan 0.000000
nan nan nan 0.000000
nan nan nan 0.000000
nan nan nan 0.000000
nan nan nan 0.000000
15.583989 208.119598 2.750105 0.258824
5.444622 219.905548 2.504269 0.196323
14.716263 209.128235 1.728371 0.258824
-1.008097 227.406158 0.000036 0.294560
9.634506 215.035248 0.000021 0.296284
14.203815 209.723907 0.000014 0.273625
16.748699 206.765747 0.000011 0.281910
18.373388 204.877213 0.000008 0.336095
19.502613 203.564606 0.000006 0.301930
20.360613 202.567276 0.010006 1.000000
nan nan nan 0.000000
nan nan nan 0.000000
nan nan nan 0.000000
nan nan nan 0.000000
nan nan nan 0.000000
nan nan nan 0.000000
6.197798 219.350174 3.469111 0.224521
5.679016 219.961792 2.502478 0.550088
1.324184 225.095901 1.387356 0.274647
1.253971 225.178680 0.155420 0.553429
9.763979 215.145859 0.000020 0.291951
14.296102 209.802734 0.000014 0.298390
16.820267 206.826889 0.000010 0.294377
18.431734 204.927048 0.000008 0.275349
19.551765 203.606598 0.000006 0.278141
20.376940 202.633759 -0.000002 0.334768
nan nan nan 0.000000
nan nan nan 0.000000
6.128063 219.759003 7.506371 0.822919
6.717653 219.053986 6.352625 0.192157
6.326624 219.521561 5.445764 0.311223
6.120728 219.767761 4.482285 0.254520
5.575384 220.419876 3.529004 0.938796
15.484640 208.570709 2.256537 0.258824
1.535933 225.250122 1.387658 0.209430
-0.574615 227.773834 0.000036 0.290379
9.894219 215.255554 0.000020 0.287663
14.388932 209.880920 0.000014 0.297353
16.892262 206.887512 0.000010 0.308309
18.490425 204.976486 0.000008 0.270207
19.601215 203.648239 0.000006 0.315755
20.419573 202.669678 -0.000002 0.350072
nan nan nan 0.000000
6.638329 219.472214 8.417925 0.278599
6.016838 220.226013 7.584676 0.265080
7.117899 218.890564 6.296047 0.290196
6.470961 219.675217 5.448755 0.235294
6.117910 220.103409 4.503607 0.222095
6.255136 219.936981 3.489419 0.235294
15.554529 208.657990 2.256906 0.258824
13.159148 211.563278 1.681477 0.258824
6.223406 219.975464 0.508131 0.572427
10.025229 215.364334 0.000020 0.295033
14.482307 209.958450 0.000014 0.282002
16.964678 206.947647 0.000010 0.286503
18.549463 205.025513 0.000008 0.373220
19.650949 203.689545 0.000006 0.264302
20.462458 202.705292 -0.000003 0.345663
nan nan nan 0.000000
6.618202 219.825882 8.479782 0.883391
6.601431 219.846512 7.463862 0.307103
6.987133 219.371994 6.363592 0.274632
6.535686 219.927399 5.466486 0.590097
6.734993 219.682190 4.444830 0.245396
nan nan nan 0.000000
6.385429 220.112244 2.496987 0.570459
13.189226 211.741714 1.679529 0.258824
6.368742 220.132782 0.506673 0.496788
10.156990 215.472198 0.000020 0.290517
14.576219 210.035339 0.000013 0.300023
17.037510 207.007278 0.000010 0.295567
18.608839 205.074112 0.000008 0.369192
19.700974 203.730499 0.000006 0.282963
20.505610 202.740570 0.000005 0.244129
nan nan nan 0.000000
6.976679 219.713455 8.412264 0.261692
nan nan nan 0.000000
7.199743 219.435074 6.351069 0.233570
6.625841 220.151291 5.480019 0.282170
6.607607 220.174042 4.482775 0.538109
6.550005 220.245941 3.492060 0.494118
nan nan nan 0.000000
13.277371 211.850357 1.679051 0.258824
0.085115 228.313934 0.000035 0.294987
10.289507 215.579132 0.000020 0.305623
14.670668 210.111557 0.000013 0.290852
17.110760 207.066391 0.000010 0.329152
18.668556 205.122299 0.000008 0.273579
19.751282 203.771088 0.000006 0.313741
20.548988 202.775574 0.000005 0.264836
nan nan nan 0.000000
7.222137 219.737106 8.383254 0.243427
6.298962 220.905823 7.648699 0.223529
6.930258 220.106613 6.453909 0.243473
nan nan nan 0.000000
7.302345 219.635559 4.412756 0.697749
7.070595 219.928955 3.463951 0.467094
nan nan nan 0.000000
13.810806 211.395935 1.690305 0.258824
0.307535 228.490875 0.000035 0.291752
10.422762 215.685150 0.000020 0.299763
14.765649 210.187134 0.000014 0.293111
17.184422 207.125000 0.000010 0.250233
18.728603 205.170090 0.000008 0.277302
19.801872 203.811340 0.000006 0.317891
20.592609 202.810287 0.000005 0.320394
nan nan nan 0.000000
nan nan nan 0.000000
7.052082 220.291351 7.476153 0.242145
6.768940 220.654999 6.532685 0.243091
7.355413 219.901779 5.405466 0.362692
7.795427 219.336655 4.368521 0.235706
7.733154 219.416641 3.424059 0.320333
nan nan nan 0.000000
13.453699 212.069641 1.678024 0.258824
0.531164 228.666275 0.000034 0.289296
10.556752 215.790237 0.000020 0.287633
14.861151 210.262024 0.000014 0.271473
17.258488 207.183075 0.000010 0.283742
18.788986 205.217438 0.000008 0.279759
19.852741 203.851242 0.000006 0.344549
20.636471 202.844681 0.000005 0.259449
nan nan nan 0.000000
nan nan nan 0.000000
7.233454 220.400131 7.471630 0.269978
nan nan nan 0.000000
nan nan nan 0.000000
7.979694 219.427795 4.365192 0.244419
nan nan nan 0.000000
nan nan nan 0.000000
13.970817 211.621460 1.689002 0.258824
0.756023 228.840103 0.000034 0.294789
10.691474 215.894394 0.000020 0.288960
14.957175 210.336258 0.000013 0.270314
17.332960 207.240646 0.000010 0.269093
18.849697 205.264374 0.000008 0.260258
19.903889 203.890778 0.000006 0.283513
20.680573 202.878769 0.000005 0.301335
nan nan nan 0.000000
6.888561 221.204071 8.678001 0.276310
7.410357 220.514252 7.468637 0.585931
7.652658 220.193939 6.398616 0.227222
7.645424 220.203491 5.412688 0.296452
8.318474 219.313721 4.340917 0.256474
nan nan nan 0.000000
6.636192 221.537689 2.512812 0.212528
14.191902 211.549118 1.692136 0.258824
0.982082 229.012360 0.000034 0.292058
10.826917 215.997589 0.000020 0.286183
15.053713 210.409821 0.000013 0.300862
17.407829 207.297699 0.000010 0.283360
18.910732 205.310883 0.000008 0.290623
19.955311 203.929962 0.000006 0.249256
20.724909 202.912552 0.000005 0.311940
nan nan nan 0.000000
7.007990 221.405014 8.697218 0.265095
nan nan nan 0.000000
7.808775 220.330887 6.400954 0.273655
nan nan nan 0.000000
nan nan nan 0.000000
nan nan nan 0.000000
nan nan nan 0.000000
13.725171 212.394913 1.676482 0.258824
1.209351 229.183029 0.000034 0.292668
10.963079 216.099854 0.000019 0.309056
15.150766 210.482697 0.000013 0.271901
17.483095 207.354218 0.000010 0.302312
18.972095 205.356949 0.000008 0.257450
20.007006 203.968781 0.000006 0.293034
20.769482 202.946030 0.000005 0.304829
nan nan nan 0.000000
6.992161 221.792175 8.766464 0.230152
nan nan nan 0.000000
7.758354 220.749329 6.455296 0.288975
8.244696 220.087372 5.360773 0.260334
7.881248 220.582062 4.445724 0.271565
7.192093 221.520050 3.522517 0.248157
14.240874 211.926117 2.312331 0.258824
13.815301 212.505356 1.675907 0.258824
1.437792 229.352112 0.000034 0.289189
11.099955 216.201141 0.000020 0.282704
15.248324 210.554901 0.000014 0.279316
17.558756 207.410217 0.000010 0.299779
19.033772 205.402603 0.000008 0.371023
20.058968 204.007233 0.000006 0.285145
20.814285 202.979187 0.000005 0.262455
nan nan nan 0.000000
nan nan nan 0.000000
nan nan nan 0.000000
nan nan nan 0.000000
8.267197 220.404068 5.388683 0.223529
nan nan nan 0.000000
14.014345 212.466202 2.965657 0.258824
nan nan nan 0.000000
14.312359 212.054596 1.686660 0.258824
14.244419 212.148438 1.053616 0.258824
11.237533 216.301498 0.000019 0.297551
15.346382 210.626419 0.000013 0.284794
17.634804 207.465683 0.000010 0.278630
19.095770 205.447830 0.000008 0.289296
20.111202 204.045334 0.000006 0.363531
20.859324 203.012039 0.000005 0.245594
nan nan nan 0.000000
nan nan nan 0.000000
nan nan nan 0.000000
nan nan nan 0.000000
nan nan nan 0.000000
nan nan nan 0.000000
14.176465 212.475250 2.961370 0.258824
14.398834 212.163559 2.313962 0.251743
14.408085 212.150589 1.686298 0.258824
14.466661 212.068481 1.063178 0.258824
11.375807 216.400879 0.000019 0.297795
15.444937 210.697250 0.000013 0.276112
17.711237 207.520630 0.000009 0.275013
19.158081 205.492615 0.000007 0.272389
20.163696 204.083054 0.000006 0.259251
20.904587 203.044571 0.000005 0.244511
nan nan nan 0.000000
nan nan nan 0.000000
nan nan nan 0.000000
11.220638 216.917725 5.693992 0.203372
11.226569 216.909286 4.863658 0.811399
8.378199 220.961334 4.447196 0.280797
15.030025 211.498550 2.897977 0.258824
14.430531 212.351379 2.316171 0.258824
nan nan nan 0.000000
2.130144 229.849701 0.000033 0.293843
11.514774 216.499283 0.000019 0.300725
15.543986 210.767395 0.000013 0.287373
17.788057 207.575012 0.000010 0.277333
19.220707 205.536957 0.000008 0.267964
20.216454 204.120422 0.000006 0.264958
20.950077 203.076782 0.000005 0.286870
nan nan nan 0.000000
37.832706 178.797775 6.662464 0.258824
38.035404 178.505096 5.992767 0.264378
38.520721 177.804352 5.381462 0.257862
43.262489 170.957687 5.580562 0.288701
38.179981 178.296341 3.820091 0.472404
43.163742 171.100266 3.520518 0.505470
43.115150 171.170425 2.505081 0.450980
37.909332 178.687134 1.644541 0.258824
48.720764 163.076447 -0.000007 0.291722
39.429245 176.492523 -0.000003 0.295430
35.440063 182.252518 -0.000002 0.297612
33.218300 185.460541 -0.000001 0.275776
31.799900 187.508575 -0.000001 0.300145
30.814054 188.932037 -0.000000 0.329778
30.087730 189.980774 -0.000001 0.325124
nan nan nan 0.000000
nan nan nan 0.000000
37.786308 178.598373 5.953105 0.143572
38.379028 177.729645 5.378687 0.258824
37.871670 178.473267 4.516752 0.258824
38.094669 178.146423 3.826258 0.517647
42.938820 171.046539 3.516434 0.529198
42.890846 171.116852 2.503724 0.186419
nan nan nan 0.000000
48.486542 162.915451 -0.000007 0.295644
39.288914 176.396057 -0.000004 0.285267
35.340042 182.183777 -0.000002 0.324178
33.140732 185.407211 -0.000001 0.294362
31.736662 187.465103 -0.000001 0.245197
30.760780 188.895416 -0.000001 0.243687
30.041794 189.949203 -0.000000 0.316060
37.999928 178.008636 7.594296 0.258824
38.347790 177.491058 6.958300 0.258824
38.276203 177.597580 6.153869 0.258824
38.249504 177.637299 5.379255 0.258824
43.292355 170.134201 5.660755 0.414282
38.166939 177.760147 3.855807 0.409644
45.053627 167.513672 3.718398 0.290990
42.667786 171.063477 2.502400 0.317556
nan nan nan 0.000000
48.251213 162.756088 -0.000007 0.294469
39.147919 176.300583 -0.000003 0.284794
35.239544 182.115723 -0.000002 0.309987
33.062790 185.354431 -0.000001 0.353491
31.673122 187.422073 -0.000001 0.285664
30.707251 188.859161 -0.000001 0.295018
29.995640 189.917953 -0.000000 0.313252
38.109257 177.561035 7.702764 0.258824
38.180401 177.453568 6.944974 0.258824
37.918823 177.848694 6.079772 0.385504
38.119930 177.544907 5.379991 0.258824
42.586185 170.798462 5.552102 0.581018
nan nan nan 0.000000
31.021835 188.266861 2.487705 0.276524
38.496876 176.975525 2.384043 0.258824
38.882393 176.393188 1.604529 0.258824
48.014774 162.598358 -0.000007 0.301549
39.006256 176.206085 -0.000003 0.282383
35.138573 182.048370 -0.000002 0.285054
32.984486 185.302200 -0.000001 0.264042
31.609287 187.379486 -0.000001 0.241932
30.653469 188.823288 -0.000000 0.264317
29.949268 189.887024 -0.000000 0.276127
nan nan nan 0.000000
38.016014 177.413040 6.932796 0.258824
44.298042 167.778320 8.248558 0.215702
44.829029 166.963959 7.238217 0.250370
44.513153 167.448410 5.995923 0.254780
37.813210 177.724075 3.842261 0.448585
38.096687 177.289307 3.129274 0.258824
31.116083 187.995422 2.167011 0.248035
37.984680 177.461090 1.627200 0.346441
47.777237 162.442307 -0.000008 0.294530
38.863937 176.112579 -0.000004 0.297398
35.037140 181.981720 -0.000002 0.276020
32.905819 185.250519 -0.000001 0.305043
31.545153 187.337357 -0.000000 0.364477
30.599440 188.787796 -0.000001 0.287617
29.902683 189.856415 -0.000001 0.329992
37.714722 177.587158 7.643303 0.258824
37.987282 177.162689 6.974820 0.258824
44.157623 167.553299 8.269054 0.237186
44.690662 166.723175 7.257054 0.249393
42.141315 170.693390 5.534273 0.526329
37.803394 177.449066 3.860756 0.469947
37.408260 178.064423 3.078931 0.258824
31.038372 187.984573 2.166470 1.000000
31.018620 188.015335 1.834129 0.190661
47.538620 162.287903 -0.000007 0.294438
38.720970 176.020081 -0.000004 0.284047
34.935246 181.915771 -0.000003 0.295583
32.826790 185.199387 -0.000001 0.341894
31.480728 187.295670 -0.000001 0.248371
30.545164 188.752670 -0.000000 0.331472
29.855883 189.826126 -0.000000 0.284703
37.684669 177.340378 7.691391 0.258824
37.712677 177.296082 6.918650 0.454810
37.703236 177.311020 6.140602 0.412406
37.696568 177.321564 5.373690 0.268162
37.691326 177.329865 4.615308 0.415000
37.686195 177.337967 3.863274 0.339834
37.247345 178.032028 3.076025 0.258824
30.734364 188.332489 2.158995 0.226505
30.942820 188.002808 1.834622 0.253529
37.666122 177.369720 0.885478 0.503899
37.645813 177.401840 0.142921 0.395224
34.832886 181.850555 -0.000002 0.295781
32.747410 185.148804 -0.000001 0.345098
31.416012 187.254440 -0.000000 0.242741
30.490643 188.717941 -0.000000 0.280293
29.808872 189.796173 -0.000000 0.270695
37.536312 177.278549 7.684759 0.258824
37.472755 177.380646 6.875641 0.266667
nan nan nan 0.000000
nan nan nan 0.000000
41.684093 170.616211 5.513669 0.502007
36.920387 178.267883 3.765314 0.258824
37.253387 177.733002 3.088627 0.277028
30.764381 188.155930 2.161703 0.262150
37.667984 177.067062 1.624547 0.476371
44.271492 166.460205 0.259022 0.573617
37.536110 177.278870 0.139161 0.405264
34.730072 181.786057 -0.000002 0.287404
32.667675 185.098770 -0.000001 0.273747
31.351013 187.213654 -0.000001 0.267918
30.435883 188.683578 -0.000001 0.303029
29.761656 189.766541 -0.000000 0.344274
nan nan nan 0.000000
37.192112 177.536926 6.815068 0.258824
nan nan nan 0.000000
30.530506 188.405487 3.416085 0.255344
30.835772 187.907440 3.165435 0.245411
37.347485 177.283432 3.852392 0.398703
30.808731 187.951553 2.495144 0.612024
30.795475 187.973175 2.164515 0.263035
46.811066 161.843414 1.333974 0.218021
46.816376 161.834747 -0.000008 0.295308
38.288242 175.748566 -0.000003 0.302022
34.626816 181.722275 -0.000002 0.298054
32.587597 185.049301 -0.000001 0.278416
31.285728 187.173325 -0.000001 0.294331
30.380882 188.649597 -0.000001 0.281971
29.714231 189.737259 -0.000000 0.248234
37.179245 177.256989 7.642624 0.223529
36.732239 177.997833 6.678405 0.258824
nan nan nan 0.000000
37.075920 177.428238 5.311841 0.362173
44.334892 165.397339 6.184926 0.197177
37.619862 176.526718 3.917011 0.434730
37.966713 175.951843 3.181545 0.258824
30.741667 187.926498 2.164710 0.433402
36.989704 177.571121 1.637380 0.258824
46.573532 161.687073 -0.000008 0.288106
38.142754 175.660080 -0.000004 0.290974
34.523117 181.659195 -0.000003 0.286763
32.507172 185.000381 -0.000002 0.257038
31.220163 187.133453 -0.000001 0.294575
30.325645 188.616013 -0.000001 0.311574
29.666605 189.708282 -0.000001 0.299886
nan nan nan 0.000000
nan nan nan 0.000000
30.309191 188.517105 3.698844 0.266667
37.447243 176.497742 5.458561 0.258824
30.440338 188.296280 3.103631 0.263203
36.936707 177.357391 3.829799 0.418967
30.657574 187.930481 2.492193 0.290196
30.667183 187.914307 2.164255 0.229480
37.886089 175.758789 1.604399 0.258824
30.009647 189.021500 1.570143 0.223545
37.996647 175.572617 -0.000004 0.294835
34.418976 181.596863 -0.000002 0.281361
32.426407 184.952042 -0.000001 0.329107
31.154324 187.094040 -0.000001 0.305409
30.270176 188.582809 -0.000001 0.302815
29.618778 189.679657 -0.000001 0.275257
nan nan nan 0.000000
nan nan nan 0.000000
nan nan nan 0.000000
nan nan nan 0.000000
30.388386 188.252441 3.104943 0.244938
37.538460 176.019089 3.949391 0.258824
36.477226 177.834793 3.064644 0.258824
39.853432 172.058319 2.464115 0.275395
39.479790 172.697586 1.548002 0.231800
29.936167 189.026154 1.572173 0.259312
37.849930 175.486176 -0.000004 0.295415
34.314404 181.535248 -0.000002 0.281331
32.345306 184.904266 -0.000001 0.324376
31.088207 187.055084 -0.000001 0.315679
30.214476 188.549988 -0.000001 0.259693
29.570751 189.651367 -0.000001 0.311254
nan nan nan 0.000000
36.390678 177.681808 6.699766 0.258274
36.956974 176.697205 6.166088 0.258824
30.224388 188.403091 3.393202 0.265690
30.336327 188.208466 3.106315 0.252842
30.045732 188.713715 2.740735 0.246204
30.234337 188.385788 2.462390 0.238376
30.519377 187.890198 2.163375 0.257145
37.735317 175.343903 1.599783 0.258824
29.863434 189.030670 1.574158 0.290196
37.702614 175.400772 -0.000004 0.290211
34.209408 181.474380 -0.000002 0.264912
32.263878 184.857056 -0.000001 0.291112
31.021824 187.016602 -0.000001 0.264576
30.158550 188.517563 -0.000001 0.264073
29.522530 189.623398 -0.000001 0.335775
nan nan nan 0.000000
36.484989 177.206711 6.798989 0.258824
nan nan nan 0.000000
37.239872 175.872742 5.523338 0.258824
30.284065 188.164505 3.107729 0.229282
29.974993 188.710663 2.738078 0.232349
36.158089 177.784378 3.058974 0.258824
29.833065 188.961472 2.142584 0.246128
30.424089 187.917053 1.837779 0.302007
29.707134 189.184006 1.584505 0.281163
30.456455 187.859863 1.181765 0.202197
34.103985 181.414230 -0.000003 0.267796
32.182121 184.810410 -0.000002 0.262272
30.955172 186.978577 -0.000001 0.287678
30.102398 188.485519 -0.000001 0.298436
29.474112 189.595779 -0.000000 0.325612
nan nan nan 0.000000
nan nan nan 0.000000
30.137939 188.288773 3.719325 0.232044
42.715050 165.696960 7.237138 0.433967
30.230349 188.122787 3.108889 0.237171
29.904732 188.707672 2.735471 0.273198
30.086081 188.381927 2.458968 0.288106
36.336075 177.155289 2.363142 0.424552
30.193216 188.189484 1.843516 0.863279
29.721699 189.036453 1.577834 0.263416
37.406216 175.233032 -0.000004 0.294606
33.998146 181.354828 -0.000002 0.298863
32.100037 184.764343 -0.000001 0.348669
30.888256 186.941010 -0.000001 0.310109
30.046022 188.453888 -0.000001 0.279240
29.425505 189.568497 -0.000000 0.268162
nan nan nan 0.000000
nan nan nan 0.000000
30.016762 188.372726 3.695296 0.229236
42.979652 164.700592 7.385496 0.290959
30.175169 188.083450 3.109782 0.298848
29.746090 188.867004 2.717747 0.194263
30.091148 188.236877 2.465326 0.248432
29.698032 188.954773 2.141604 0.259419
29.945503 188.502853 1.849964 0.261311
29.652515 189.037888 1.579538 0.514870
29.717697 188.918854 1.287100 0.247059
33.891899 181.296158 -0.000003 0.291112
32.017635 184.718842 -0.000001 0.254734
30.821079 186.903915 -0.000001 0.301534
29.989429 188.422638 -0.000001 0.261616
29.376707 189.541550 -0.000000 0.301274
nan nan nan 0.000000
nan nan nan 0.000000
30.044212 188.184570 3.727765 0.289067
30.046680 188.179993 3.409296 0.224262
42.207260 165.600220 6.043321 0.421317
30.121433 188.041183 2.791939 0.221363
29.751463 188.728149 2.436153 0.839841
29.710144 188.804871 2.143855 0.240406
29.710302 188.804581 1.856140 0.204517
29.582399 189.042068 1.581363 0.385779
30.085007 188.108826 1.214359 1.000000
33.785240 181.238235 -0.000003 0.311528
31.934917 184.673920 -0.000002 0.326406
30.753645 186.867294 -0.000001 0.292531
29.932617 188.391785 -0.000001 0.336156
29.327723 189.514954 -0.000001 0.275761
nan nan nan 0.000000
nan nan nan 0.000000
29.999149 188.128021 3.732978 0.223529
29.902534 188.310455 3.382153 0.258824
30.064493 188.004639 3.111728 0.299504
29.696798 188.698944 2.727964 0.282109
29.748850 188.600647 2.441618 0.254826
29.564806 188.948166 2.140666 0.198581
29.709904 188.674194 1.854261 0.246418
29.514359 189.043427 1.582997 0.326482
29.748158 188.601959 1.263037 0.198672
33.678185 181.181061 -0.000003 0.270100
31.851887 184.629578 -0.000001 0.275807
30.685959 186.831146 -0.000001 0.285191
29.875595 188.361328 -0.000001 0.314961
29.278553 189.488693 -0.000001 0.293751
nan nan nan 0.000000
29.909723 188.155792 4.042729 0.351507
29.934523 188.108170 3.730710 1.000000
29.953720 188.071304 3.417091 0.526574
29.958651 188.061829 3.100242 0.216510
29.720882 188.518478 2.741983 0.281437
29.795717 188.374756 2.452514 0.281468
29.979746 188.021317 2.157251 0.879683
29.714172 188.531357 1.852159 0.224491
29.445486 189.047394 1.584742 0.305867
29.795328 188.375504 1.244799 0.190066
30.054571 187.877609 0.875865 0.290196
31.768551 184.585815 -0.000001 0.340993
30.618019 186.795471 -0.000001 0.338094
29.818357 188.331268 -0.000001 0.320241
29.229202 189.462784 -0.000001 0.290639
29.876804 188.075195 4.383260 0.218585
29.929865 187.971527 4.080089 0.257969
29.696213 188.428024 3.659103 0.285237
29.789150 188.246445 3.382807 0.226947
29.939577 187.952545 3.110405 0.317800
29.776632 188.270905 2.762118 0.254963
29.724518 188.372726 2.450998 0.247608
29.738787 188.344849 2.150738 0.247120
29.709311 188.402435 1.850321 0.241047
29.732033 188.358032 1.548192 0.247425
29.712467 188.396255 1.249429 0.239658
29.668461 188.482239 0.958049 0.258137
31.684912 184.542633 -0.000002 0.285328
30.549833 186.760269 -0.000001 0.314137
29.760912 188.301620 -0.000000 0.254078
29.179672 189.437210 -0.000001 0.289372
29.943050 187.795700 4.453200 0.278325
30.064697 187.553894 4.173705 0.235782
29.641094 188.395935 3.659770 0.177981
29.738909 188.201508 3.385380 0.985656
29.883717 187.913651 3.111489 0.201709
29.850771 187.979141 2.786203 0.265568
29.724930 188.229294 2.457290 0.227741
29.736088 188.207108 2.152727 0.999603
29.571970 188.533340 1.853248 0.871870
29.951763 187.778381 1.517912 0.225788
29.644081 188.389999 1.251509 0.388464
29.860294 187.960205 0.894508 0.933822
31.600971 184.500031 -0.000002 0.304524
30.481403 186.725540 -0.000001 0.291630
29.703262 188.272354 -0.000001 0.331624
29.129963 189.411987 -0.000001 0.264698
29.705990 188.120956 4.353789 0.259586
29.835621 187.858734 4.092705 0.269459
29.585655 188.364380 3.660407 0.271687
29.717270 188.098145 3.397667 0.210361
29.847515 187.834671 3.117761 0.235401
29.955658 187.615906 2.816694 0.233433
29.583138 188.369476 2.448019 0.258824
29.732975 188.066376 2.154766 0.978683
29.499615 188.538437 1.853851 0.215579
29.747557 188.036880 1.533754 0.218997
29.564655 188.406860 1.255653 0.971359
29.715168 188.102402 0.916596 0.826825
29.745663 188.040710 0.592828 0.253376
29.818302 187.893768 0.244069 0.585290
29.645409 188.243515 -0.000001 0.263493
29.080080 189.387100 -0.000001 0.330495
29.661299 188.062820 4.361942 0.249836
29.776558 187.825500 4.093536 0.574380
29.557495 188.276550 3.672504 0.253666
29.662439 188.060471 3.399107 0.228763
29.763577 187.852234 3.111697 0.536461
29.759933 187.859741 2.791679 0.516411
29.581802 188.226501 2.454297 0.202609
29.684624 188.014801 2.155175 0.247059
29.498896 188.397202 1.851781 0.245640
29.699795 187.983551 1.532434 0.579721
29.484333 188.427185 1.260046 0.261097
29.696140 187.991089 0.906061 0.176806
29.723467 187.934814 0.580173 0.247196
29.735287 187.910477 0.253447 0.522240
29.587357 188.215057 -0.000001 0.237400
29.030025 189.362579 -0.000001 0.272251
29.616274 188.004318 4.370255 0.258473
nan nan nan 0.000000
29.475101 188.300217 3.662121 0.242741
29.480827 188.288208 3.356982 0.273716
29.624540 187.986984 3.090792 0.239658
29.825794 187.565140 2.815786 0.235935
29.510935 188.225113 2.452849 0.223941
29.611824 188.013641 2.154676 0.244694
29.430153 188.394440 1.852228 0.213886
29.621069 187.994263 1.534586 0.223529
29.695068 187.839157 1.209107 0.517876
29.615398 188.006149 0.911651 0.261097
29.687878 187.854233 0.571690 0.539727
29.676512 187.878052 0.252768 0.571435
29.529106 188.187027 -0.000001 0.299016
28.979799 189.338394 -0.000001 0.258488
29.576813 187.932831 4.382216 0.223529
29.691978 187.687042 4.112662 0.210330
29.419432 188.268723 3.662971 0.194965
29.552368 187.985001 3.402179 0.217655
29.643927 187.789597 3.112274 0.557351
29.640619 187.796661 2.792134 0.208377
29.637238 187.803879 2.474209 0.229984
29.594440 187.895203 2.156306 0.283558
29.789631 187.478622 1.836166 0.549050
29.543577 188.003769 1.536635 0.267765
29.440445 188.223877 1.246550 0.258824
32.917953 180.801941 -0.000003 0.301717
29.617805 187.845337 0.574942 0.215351
29.616783 187.847519 0.252393 0.211688
29.470661 188.159393 -0.000001 0.293706
28.929407 189.314575 -0.000001 0.406744
29.471186 188.003571 4.355003 0.254170
nan nan nan 0.000000
29.396240 188.166473 3.678069 0.384039
29.448677 188.052490 3.386622 0.855756
29.602251 187.718689 3.117654 0.266667
29.571507 187.785507 2.790577 0.425910
29.572365 187.783646 2.473769 0.260533
29.521248 187.894760 2.155808 0.254124
29.786217 187.318802 1.833817 0.160784
29.575899 187.775970 1.525816 0.232090
29.542839 187.847824 1.215047 0.379400
29.459328 188.029343 0.921685 0.554498
31.176928 184.295898 -0.000002 0.305211
30.135712 186.559128 -0.000001 0.295354
29.412025 188.132156 -0.000001 0.309300
28.878849 189.291107 -0.000001 0.311986
29.479485 187.825729 4.396399 0.230121
nan nan nan 0.000000
29.341963 188.130234 3.679973 0.258152
29.552259 187.664597 3.445353 1.000000
29.552830 187.663330 3.121091 0.206378
29.631878 187.488297 2.814805 0.223529
29.503504 187.772552 2.472862 0.265110
29.448509 187.894318 2.155322 0.237980
29.494064 187.793442 1.842867 0.237858
29.477928 187.829178 1.530191 0.265797
29.395666 188.011322 1.232251 0.258824
29.382648 188.040146 0.926475 1.000000
31.091278 184.256866 -0.000002 0.308110
29.515579 187.745804 0.243274 0.241535
29.353201 188.105347 -0.000001 0.315145
28.828127 189.267975 -0.000001 0.245212
nan nan nan 0.000000
29.526747 187.554276 4.123950 0.442298
29.510401 187.591156 3.782026 0.255741
29.386156 187.871460 3.407279 0.252781
29.444815 187.739120 3.108056 0.990127
29.434078 187.763351 2.787594 0.244862
29.434904 187.761490 2.471981 0.243397
29.468071 187.686661 2.158554 0.252064
29.415241 187.805847 1.843579 0.590631
29.413956 187.808746 1.530559 0.299748
29.377157 187.891769 1.223923 0.867140
29.444071 187.740799 0.892155 0.796872
31.005356 184.218414 -0.000002 0.287053
29.995842 186.495972 -0.000002 0.301778
29.294191 188.078949 -0.000001 0.305531
28.777246 189.245209 -0.000001 0.248020
nan nan nan 0.000000
nan nan nan 0.000000
29.446392 187.566910 3.781384 0.279835
29.255514 188.005783 3.381245 0.241825
29.413202 187.643219 3.116697 0.259678
41.281319 160.355133 5.235876 0.557534
29.582758 187.253357 2.497758 0.226871
29.737665 186.897186 2.172157 0.235966
29.337263 187.817825 1.844272 0.981765
29.655869 187.085251 1.493236 0.264454
29.293980 187.917343 1.228585 0.234653
32.475513 180.602112 -0.000003 0.287602
30.919170 184.180573 -0.000002 0.329442
29.925581 186.465118 -0.000002 0.322087
29.234997 188.052963 -0.000001 0.336873
28.726208 189.222809 -0.000001 0.258701
nan nan nan 0.000000
29.424982 187.442917 4.137242 0.272923
29.453583 187.375870 3.813825 0.206256
29.298889 187.738464 3.420208 0.562982
29.329990 187.665558 3.110548 0.223529
29.328400 187.669296 2.791211 0.195636
29.298449 187.739487 2.470298 0.274846
29.705151 186.786224 2.173614 0.278477
29.361328 187.592102 1.840724 0.290196
41.517616 159.099213 -0.000009 0.295018
29.211704 187.942810 1.233172 0.452644
32.364044 180.554092 -0.000003 0.289189
30.832724 184.143341 -0.000002 0.273716
29.855106 186.434753 -0.000002 0.251057
29.175625 188.027374 -0.000001 0.270909
28.675014 189.200745 -0.000001 0.267811
nan nan nan 0.000000
nan nan nan 0.000000
nan nan nan 0.000000
40.573483 160.619339 7.776704 0.309880
29.289551 187.587616 3.116998 0.287922
29.264141 187.648346 2.790743 0.291615
nan nan nan 0.000000
29.179440 187.850784 2.154219 0.227359
29.183075 187.842087 1.845627 0.261952
29.502678 187.078247 1.495873 0.224704
29.130394 187.967987 1.237668 0.284215
29.243504 187.697662 0.896726 0.227848
30.746017 184.106705 -0.000002 0.311711
29.784420 186.404892 -0.000001 0.340490
29.116074 188.002213 -0.000001 0.273991
28.623669 189.179062 -0.000001 0.256306
nan nan nan 0.000000
nan nan nan 0.000000
nan nan nan 0.000000
nan nan nan 0.000000
29.255280 187.492554 3.125592 0.236408
40.152477 160.929276 5.156483 0.968627
40.639221 159.742767 3.954185 0.230228
29.103464 187.862625 2.153564 0.239796
29.107040 187.853912 1.846282 0.258640
40.452087 160.198944 0.070037 0.556374
34.799370 173.978149 -0.000005 0.293919
32.140114 180.460403 -0.000003 0.291112
30.659058 184.070679 -0.000002 0.254429
29.713528 186.375519 -0.000001 0.275990
29.056351 187.977478 -0.000002 0.283925
28.572170 189.157715 -0.000001 0.308110
nan nan nan 0.000000
nan nan nan 0.000000
nan nan nan 0.000000
nan nan nan 0.000000
29.137344 187.602753 3.108740 0.253803
29.135836 187.606506 2.789923 0.271809
29.642673 186.346039 2.540018 0.234730
29.028120 187.874390 2.152921 0.258824
38.349438 164.692932 1.438221 1.000000
28.807768 188.422394 1.569924 0.305760
28.970516 188.017654 1.246411 0.208392
32.027668 180.414734 -0.000003 0.301488
30.571846 184.035248 -0.000002 0.284215
29.642429 186.346649 -0.000001 0.253483
28.996452 187.953140 -0.000001 0.304006
28.520527 189.136749 -0.000001 0.304387
nan nan nan 0.000000
nan nan nan 0.000000
nan nan nan 0.000000
nan nan nan 0.000000
29.073257 187.581863 3.108247 0.239704
nan nan nan 0.000000
39.774929 160.421280 3.907417 0.251194
28.953398 187.886063 2.152292 0.539284
42.495319 153.516998 1.243214 0.258824
28.798145 188.280090 1.563604 0.210483
34.483387 173.851089 -0.000005 0.281636
31.914902 180.369843 -0.000003 0.330571
30.484392 184.000443 -0.000002 0.290639
