# This PCD file was generated using the MATLABÂ® pcwrite function
# from Computer Vision ToolboxÂ®.
# .PCD v.7 - Point Cloud Data file format
VERSION .7
FIELDS x y z intensity
SIZE 4 4 4 4
TYPE F F F F
COUNT 1 1 1 1
WIDTH 1244
HEIGHT 1
VIEWPOINT 0 0 0 1 0 0 0
POINTS 1244
DATA ascii
226.410400 137.609451 -0.000042 0.294286
210.702423 142.036453 -0.000023 0.284245
203.958527 143.937103 -0.000017 0.278691
200.202545 144.995667 -0.000013 0.261524
197.804672 145.671463 -0.000010 0.318074
196.093521 146.153717 0.009987 1.000000
194.910187 146.487213 -0.000005 0.343648
nan nan nan 0.000000
nan nan nan 0.000000
nan nan nan 0.000000
214.294159 140.819809 6.180061 0.258824
229.026764 136.556442 7.006200 0.258824
227.249527 137.070740 5.416468 0.258824
214.803543 140.672394 3.410430 0.258824
211.225220 141.707901 2.408850 0.258824
nan nan nan 0.000000
226.332336 137.336166 -0.000042 0.293965
210.655670 141.872711 -0.000023 0.292119
203.925201 143.820404 -0.000017 0.301869
200.176697 144.905151 -0.000013 0.287327
197.783600 145.597672 -0.000010 0.309300
196.075867 146.091858 0.009987 1.000000
194.894882 146.433624 -0.000005 0.329412
nan nan nan 0.000000
nan nan nan 0.000000
nan nan nan 0.000000
nan nan nan 0.000000
228.239197 136.473404 6.921946 0.258824
228.804672 136.305481 5.556485 0.247059
nan nan nan 0.000000
227.307251 136.750153 2.684211 0.258824
230.334305 135.851227 1.264117 0.258824
226.252380 137.063416 -0.000042 0.291432
210.607758 141.709305 -0.000023 0.297230
203.891052 143.703934 -0.000017 0.280751
200.150208 144.814819 -0.000013 0.326970
197.762009 145.524033 -0.000011 0.305943
196.102112 146.016968 -0.000005 0.330266
194.879196 146.380127 -0.000005 0.330068
nan nan nan 0.000000
nan nan nan 0.000000
nan nan nan 0.000000
nan nan nan 0.000000
229.039963 135.917267 7.028589 0.258824
227.510986 136.382965 5.453072 0.258824
213.163605 140.752838 3.332072 0.258824
212.243546 141.033066 2.427968 0.258824
212.066422 141.087021 1.575062 0.258824
226.170517 136.791229 -0.000042 0.291524
210.558716 141.546234 -0.000023 0.279469
203.856094 143.587708 -0.000017 0.304707
200.123093 144.724686 -0.000013 0.330678
197.739914 145.450546 -0.000011 0.274754
196.083496 145.955063 -0.000004 0.344106
194.863144 146.326752 -0.000005 0.340230
nan nan nan 0.000000
nan nan nan 0.000000
nan nan nan 0.000000
213.756714 140.369354 6.122959 0.258824
227.504303 136.077057 6.854354 0.250294
nan nan nan 0.000000
212.902954 140.635925 3.321528 0.258824
212.029099 140.908752 2.425215 0.261860
212.551575 140.745636 1.565829 0.258824
226.086761 136.519638 -0.000042 0.294286
210.508530 141.383514 -0.000023 0.291325
203.820328 143.471725 -0.000017 0.280690
200.095367 144.634735 -0.000013 0.285405
197.717300 145.377228 -0.000010 0.255741
196.064438 145.893280 -0.000005 0.337072
194.808624 146.285370 0.009992 1.000000
nan nan nan 0.000000
nan nan nan 0.000000
nan nan nan 0.000000
213.586456 140.220093 6.105550 0.230564
200.938004 144.266342 3.656296 0.275395
nan nan nan 0.000000
212.874481 140.447861 3.322979 0.258824
212.260742 140.644196 2.430133 0.270283
211.931213 140.749603 1.575528 0.258824
226.001099 136.248627 -0.000042 0.296071
210.457214 141.221146 -0.000023 0.284901
203.783752 143.355988 -0.000017 0.298543
200.067001 144.544983 -0.000013 0.309911
197.694168 145.304047 -0.000011 0.264286
196.044983 145.831635 -0.000009 0.326650
194.791901 146.232498 0.009992 1.000000
nan nan nan 0.000000
nan nan nan 0.000000
221.044662 137.573349 8.475504 0.258824
nan nan nan 0.000000
200.528152 144.294846 3.610429 0.175387
nan nan nan 0.000000
220.953384 137.603256 3.743620 1.000000
212.302216 140.437500 2.431821 0.395468
212.353088 140.420837 1.567303 0.453529
212.750534 140.290619 0.680435 0.258824
210.404755 141.059128 -0.000023 0.305241
203.746368 143.240524 -0.000017 0.283818
200.038010 144.455429 -0.000013 0.279561
197.670532 145.231049 -0.000011 0.293675
196.025070 145.770126 -0.000009 0.296178
194.774826 146.179718 0.009992 1.000000
nan nan nan 0.000000
nan nan nan 0.000000
220.648453 137.444168 8.414467 0.237888
200.514526 144.196335 4.079203 0.277394
200.846909 144.084869 3.652838 0.214405
nan nan nan 0.000000
220.889572 137.363312 3.744354 0.406195
212.252289 140.259933 2.431959 0.261967
211.795410 140.413147 1.575925 0.258824
212.659012 140.123535 0.682120 0.212222
210.351181 140.897491 -0.000023 0.307546
203.708160 143.125320 -0.000016 0.286763
200.008377 144.366089 -0.000013 0.307546
197.646393 145.158203 -0.000011 0.283894
196.004730 145.708771 -0.000009 0.296345
194.757370 146.127075 0.009991 1.000000
nan nan nan 0.000000
nan nan nan 0.000000
219.976135 137.414688 8.300344 0.298817
200.491501 144.100784 4.080522 0.227665
212.487122 139.984512 5.072503 0.258824
227.608978 134.795486 5.500817 0.258824
nan nan nan 0.000000
211.691650 140.257477 2.423285 0.284321
211.726852 140.245407 1.576106 0.345098
211.941620 140.171707 0.716256 0.258824
210.296478 140.736237 -0.000024 0.293889
203.669174 143.010376 -0.000017 0.277852
199.978149 144.276947 -0.000013 0.262531
197.621735 145.085541 -0.000011 0.300237
195.983948 145.647537 -0.000009 0.298116
194.777298 146.061600 -0.000006 0.338979
nan nan nan 0.000000
nan nan nan 0.000000
202.152176 143.414169 4.878499 0.215854
200.297729 144.065018 4.055106 0.182361
221.028671 136.789093 6.121345 0.238682
219.986237 137.154953 4.846903 0.941909
220.713882 136.899567 3.743584 0.239780
213.212219 139.532425 2.450681 0.258824
213.207428 139.534103 1.549401 0.258824
212.474976 139.791183 0.685372 0.256153
210.240646 140.575363 -0.000023 0.289326
203.629379 142.895706 -0.000016 0.294911
199.947281 144.188019 -0.000013 0.262791
197.596588 145.013046 -0.000010 0.280369
195.962753 145.586472 -0.000009 0.254139
194.759033 146.008942 -0.000006 0.338537
201.166901 143.650375 5.710264 0.382818
nan nan nan 0.000000
201.910522 143.383545 4.838924 0.227176
219.891129 136.931549 7.148060 0.232471
220.631165 136.666000 6.082985 0.287984
228.099640 133.986084 5.560760 0.258824
220.506836 136.710617 3.737103 0.258824
213.269485 139.307602 2.452796 0.258824
213.261383 139.310501 1.547345 0.258824
225.544556 134.902924 -0.000042 0.290913
210.183685 140.414871 -0.000023 0.302129
203.588791 142.781326 -0.000016 0.273259
199.915802 144.099304 -0.000013 0.287236
197.570923 144.940720 -0.000010 0.296818
195.941132 145.525543 -0.000009 0.350851
194.740387 145.956406 -0.000008 0.294987
nan nan nan 0.000000
nan nan nan 0.000000
nan nan nan 0.000000
200.418137 143.814835 4.084451 0.263005
200.406113 143.819244 3.615107 0.276692
220.699844 136.376907 4.923525 0.549020
220.363159 136.500366 3.733991 0.227832
228.911102 133.365585 2.726571 0.258824
211.450790 139.768814 1.577755 0.258824
225.447632 134.635742 -0.000042 0.293278
210.125610 140.254807 -0.000023 0.291463
203.547394 142.667236 -0.000016 0.291890
199.883698 144.010818 -0.000013 0.293965
197.544739 144.868591 -0.000010 0.303319
195.919083 145.464767 -0.000009 0.303639
194.721375 145.904007 -0.000008 0.292470
nan nan nan 0.000000
nan nan nan 0.000000
nan nan nan 0.000000
220.079041 136.343689 7.204254 0.203189
220.303421 136.259628 6.063682 0.308675
220.393524 136.225861 4.904280 0.266072
218.810013 136.819168 3.657002 0.288518
220.266937 136.273285 2.577399 0.561959
211.446472 139.578064 1.576736 0.258824
220.105377 136.333832 0.275040 0.563119
210.066422 140.095139 -0.000023 0.305272
203.505219 142.553436 -0.000017 0.291783
199.850983 143.922562 -0.000013 0.278767
197.518066 144.796646 -0.000010 0.263828
195.896622 145.404144 -0.000009 0.272404
194.702011 145.851746 -0.000007 0.253895
nan nan nan 0.000000
201.816284 143.069748 5.374234 0.176089
201.483765 143.196991 4.777910 0.290196
201.487473 143.195572 4.265224 0.236072
220.837555 135.791199 6.140230 0.279881
219.574829 136.274368 4.840093 0.258824
220.067505 136.085846 3.727532 0.244831
219.917786 136.143143 2.572810 0.511910
227.590958 133.206970 1.292748 0.258824
225.248199 134.103439 -0.000042 0.292699
210.006119 139.935883 -0.000022 0.288579
203.462219 142.439926 -0.000016 0.292149
199.817642 143.834534 -0.000013 0.273930
197.490906 144.724869 -0.000011 0.256214
195.873734 145.343689 -0.000009 0.287800
194.682266 145.799606 -0.000008 0.259724
nan nan nan 0.000000
nan nan nan 0.000000
nan nan nan 0.000000
200.420319 143.498032 4.101396 0.565377
221.083145 135.425507 6.181753 0.579522
218.378448 136.482162 4.742451 0.295659
218.904388 136.276688 3.670857 0.317739
nan nan nan 0.000000
nan nan nan 0.000000
212.020203 138.966202 0.692235 0.258824
209.944702 139.777054 -0.000023 0.280201
203.418457 142.326721 -0.000016 0.280995
199.783707 143.746735 -0.000013 0.317311
197.463226 144.653305 -0.000010 0.302617
195.850418 145.283401 -0.000009 0.260761
194.662170 145.747620 -0.000008 0.255238
200.758911 143.256546 5.649613 0.240986
nan nan nan 0.000000
nan nan nan 0.000000
200.385681 143.405365 4.101664 0.258824
nan nan nan 0.000000
218.449722 136.202362 4.756310 0.312123
218.952789 136.001770 3.678027 0.212207
219.090881 135.946701 2.561376 0.565255
214.959473 137.594101 1.511407 0.979995
211.929794 138.802185 0.693408 0.258824
209.882187 139.618652 -0.000023 0.302571
203.373901 142.213821 -0.000016 0.270207
199.749146 143.659180 -0.000013 0.274479
197.435059 144.581924 -0.000010 0.308324
195.826675 145.223267 -0.000009 0.259464
194.641693 145.695770 -0.000008 0.278096
199.446533 143.680679 5.304990 0.251881
201.876205 142.692139 5.416219 0.306264
201.788910 142.727661 4.860916 0.256107
200.349640 143.313248 4.101812 0.638025
200.243896 143.356262 3.616909 0.216022
218.971466 135.736725 4.810258 0.500374
219.000534 135.724899 3.685285 0.561410
nan nan nan 0.000000
214.731552 137.461792 1.514057 0.208103
224.935181 133.310333 -0.000042 0.295872
209.818558 139.460709 -0.000023 0.289021
203.328552 142.101242 -0.000016 0.319921
199.713974 143.571869 -0.000013 0.286687
197.406387 144.510742 -0.000011 0.308568
195.802521 145.163300 -0.000009 0.312612
194.620865 145.644058 -0.000008 0.318761
199.385620 143.606232 5.297965 0.172549
nan nan nan 0.000000
218.479462 135.681870 8.157243 0.300710
200.889877 142.981934 4.194614 0.249454
218.528503 135.661514 5.898992 0.277958
200.252289 143.246552 3.156508 0.274815
219.049866 135.445129 3.692751 0.206317
218.295959 135.758026 2.550490 0.292943
214.979431 137.134460 1.508269 0.238010
224.827133 133.047440 -0.000042 0.292409
209.753830 139.303192 -0.000023 0.282963
203.282410 141.988983 -0.000016 0.293065
199.678192 143.484818 -0.000013 0.269856
197.377213 144.439774 -0.000010 0.261372
195.777954 145.103500 -0.000009 0.338476
194.599686 145.592499 -0.000008 0.297398
199.326920 143.531265 5.291665 0.242878
nan nan nan 0.000000
218.556870 135.392578 8.190582 0.267277
218.572296 135.386047 7.049226 0.277256
218.605057 135.372192 5.919978 0.617655
218.180344 135.551941 4.756150 0.604593
218.045197 135.609131 3.644116 0.635431
214.983246 136.905045 2.493239 0.212711
205.420929 140.952103 1.676675 0.258824
224.717178 132.785355 -0.000037 0.287770
209.688019 139.146149 -0.000023 0.284413
203.235504 141.877045 -0.000016 0.284825
199.641815 143.397995 -0.000013 0.293095
197.347549 144.369003 -0.000011 0.305898
195.752960 145.043869 -0.000010 0.307164
194.578140 145.541092 -0.000008 0.268147
199.265717 143.457764 5.284802 0.210559
199.617661 143.305908 4.915068 0.253605
199.929306 143.171432 4.517619 0.265293
217.925644 135.406250 6.959844 0.527764
200.139053 143.080933 3.618028 0.521080
218.750870 135.050186 4.815335 0.415610
214.803940 136.753235 3.475605 0.562173
200.010971 143.136185 2.227873 0.225422
205.412643 140.805450 1.675857 0.258824
224.605469 132.524002 -0.000037 0.294972
209.621094 138.989563 -0.000023 0.286091
203.187805 141.765427 -0.000016 0.302266
199.604828 143.311447 -0.000013 0.265873
197.317398 144.298431 -0.000011 0.273289
195.727554 144.984436 -0.000009 0.272801
194.556229 145.489838 -0.000008 0.332937
199.207886 143.383179 5.278984 0.238331
nan nan nan 0.000000
199.773102 143.134598 4.494236 0.208179
218.727524 134.798599 7.104894 0.235325
200.108627 142.987045 3.619134 0.538491
214.820709 136.516785 4.471868 0.211307
214.593018 136.616913 3.468781 0.256153
199.984070 143.041824 2.228086 0.293614
205.403275 140.658493 1.675037 0.258824
224.491974 132.263428 -0.000037 0.292988
209.553085 138.833435 -0.000023 0.303883
203.139328 141.654160 -0.000016 0.283970
199.567230 143.225143 -0.000013 0.279088
197.286743 144.228088 -0.000010 0.269383
195.701736 144.925156 -0.000009 0.274113
194.533966 145.438736 -0.000008 0.292973
199.149551 143.309174 5.273149 0.254566
200.339569 142.775864 5.103883 0.215686
199.815277 143.010834 4.510387 0.368078
201.013290 142.473938 4.241280 0.196323
200.065689 142.898621 3.618746 0.215686
214.702316 136.339203 4.468904 0.278599
215.333176 136.056488 3.513186 0.248997
214.828064 136.282852 2.494977 0.306615
200.210602 142.833664 1.767143 0.264775
214.947128 136.229492 0.507596 0.574380
209.483978 138.677795 -0.000023 0.287434
203.090088 141.543228 -0.000016 0.305745
199.529037 143.139114 -0.000013 0.297765
197.255615 144.157944 -0.000010 0.298436
195.675507 144.866074 -0.000009 0.265385
194.511353 145.387787 -0.000008 0.348211
200.162369 142.746475 5.562392 0.548821
200.202148 142.728317 5.081074 0.546670
197.817856 143.816895 4.118799 0.312276
198.091431 143.691986 3.771917 0.192157
200.017090 142.812820 3.617721 0.252247
198.670990 143.427383 3.031698 0.299046
205.957367 140.100723 3.011633 0.258824
199.503983 143.047073 2.220882 0.204257
205.937378 140.109848 1.663389 0.258824
224.259491 131.744705 -0.000037 0.294987
209.413803 138.522659 -0.000022 0.295781
203.040070 141.432648 -0.000017 0.287144
199.490234 143.053360 -0.000013 0.308461
197.223984 144.088028 -0.000010 0.280400
195.648865 144.807175 -0.000009 0.277165
194.488373 145.337006 -0.000007 0.253422
200.234909 142.603256 5.593907 0.301961
200.201782 142.618652 5.090914 0.319539
197.830490 143.721375 4.128160 0.243107
198.103119 143.594589 3.779539 0.284993
199.956696 142.732635 3.615270 0.537346
198.687561 143.322815 3.036520 0.209003
199.927490 142.746216 2.688201 0.550210
199.589783 142.903259 2.223142 0.666667
215.050888 135.713470 1.497836 0.277897
224.140564 131.486572 -0.000037 0.294926
209.342545 138.367996 -0.000023 0.301335
202.989273 141.322418 -0.000016 0.300572
199.450851 142.967865 -0.000013 0.277241
197.191879 144.018341 -0.000010 0.257221
195.621796 144.748459 -0.000009 0.321767
194.465057 145.286377 -0.000008 0.243961
nan nan nan 0.000000
nan nan nan 0.000000
197.840683 143.626190 4.137197 0.243427
199.022003 143.066788 3.936193 0.247059
198.403732 143.359558 3.422899 0.284092
198.704254 143.217255 3.041436 0.250629
199.797775 142.699432 2.683408 0.560678
199.769806 142.712677 2.227134 0.550759
199.763992 142.715424 1.772972 0.577401
199.755341 142.719528 1.318898 0.569711
199.743057 142.725342 0.864320 0.557916
199.704391 142.743652 0.411544 0.553368
199.410858 142.882645 -0.000013 0.346334
197.159271 143.948868 -0.000010 0.288075
195.594345 144.689926 -0.000009 0.292363
194.441376 145.235916 -0.000008 0.321172
nan nan nan 0.000000
200.065140 142.462708 5.078655 0.174914
197.853516 143.528976 4.146930 0.256489
200.011032 142.488800 4.105530 0.261463
199.272522 142.844849 3.538608 0.637415
198.702759 143.119537 3.044780 0.239582
199.778488 142.600906 2.684640 0.259617
199.710159 142.633850 2.226809 0.571633
199.660599 142.657745 1.774091 0.573938
199.653839 142.661011 1.322158 0.540124
199.644928 142.665298 0.869457 0.535821
199.616913 142.678802 0.417408 0.535027
199.370270 142.797714 -0.000013 0.302007
197.126190 143.879639 -0.000010 0.279423
195.566467 144.631607 -0.000009 0.286961
194.417343 145.185623 -0.000008 0.324147
nan nan nan 0.000000
nan nan nan 0.000000
197.863861 143.432144 4.156328 0.245716
198.142883 143.295197 3.804009 0.302144
219.829803 132.652328 6.178200 0.249149
198.686417 143.028473 3.046841 0.294438
199.056915 142.846649 2.647481 0.276722
199.406250 142.675217 2.222041 0.207630
199.637848 142.561554 1.773738 0.557061
199.627289 142.566742 1.321305 0.563043
199.613358 142.573578 0.868495 0.564126
199.577759 142.591049 0.417043 0.550668
199.329102 142.713074 -0.000013 0.310475
197.092621 143.810623 -0.000011 0.312337
195.538193 144.573471 -0.000009 0.336797
194.392960 145.135483 -0.000008 0.271763
200.054932 142.245346 5.592233 0.217182
199.740662 142.402313 5.021487 0.221790
199.536423 142.504318 4.503974 0.311421
198.154861 143.194321 3.812240 0.349447
198.448349 143.047745 3.443207 0.213382
198.564255 142.989853 3.039270 0.258824
199.559021 142.493027 2.677296 0.423026
199.426788 142.559067 2.223186 0.411475
199.459885 142.542542 1.776209 0.577691
223.646835 130.462524 -0.000037 0.294072
209.046738 137.754456 -0.000022 0.290578
199.618317 142.463409 0.406346 0.517647
199.287338 142.628708 -0.000013 0.297017
197.058578 143.741852 -0.000011 0.268559
195.509506 144.515533 -0.000009 0.266056
194.368225 145.085541 -0.000008 0.320806
200.009262 142.156250 5.592058 0.247059
nan nan nan 0.000000
197.887405 143.234573 4.176225 0.263447
198.169189 143.091370 3.821010 0.591592
198.464050 142.941513 3.450319 0.348394
198.771515 142.785263 3.061995 0.274846
205.286789 139.474228 2.995321 0.258824
199.410233 142.460678 2.223668 0.334340
205.237167 139.499451 1.669374 0.359899
205.227203 139.504501 1.007962 0.509789
205.216019 139.510193 0.345265 0.269123
202.723816 140.776718 -0.000016 0.311162
199.244980 142.544647 -0.000013 0.301808
197.024048 143.673325 -0.000010 0.311498
195.480423 144.457794 -0.000009 0.290852
194.343140 145.035751 -0.000008 0.327840
199.899902 142.100082 5.574097 0.594491
199.009521 142.560425 4.865238 0.379843
199.601227 142.254501 4.535081 0.239460
198.183670 142.987396 3.829955 0.458793
198.478104 142.835175 3.457339 0.201160
198.639694 142.751633 3.053634 0.216876
199.315567 142.402191 2.668655 0.310780
199.267914 142.426834 2.221848 0.311864
nan nan nan 0.000000
205.412460 139.250015 0.994160 0.258824
208.892441 137.450836 -0.000022 0.297765
202.668457 140.668716 -0.000016 0.263478
199.202042 142.460892 -0.000013 0.273640
196.989044 143.605042 -0.000010 0.312078
195.450928 144.400269 -0.000009 0.313283
194.317719 144.986145 -0.000008 0.244007
199.747589 142.067642 5.544028 0.637064
199.013184 142.453857 4.876579 0.271824
197.911392 143.033279 4.196923 0.277211
198.195938 142.883636 3.838685 0.259556
198.494095 142.726837 3.464732 0.284733
198.964111 142.479675 3.087530 0.257725
199.134018 142.390320 2.661016 0.539986
199.489716 142.203247 2.226758 0.646754
nan nan nan 0.000000
205.182785 139.209305 1.003240 0.258824
208.813705 137.299835 -0.000022 0.292653
202.612335 140.561096 -0.000016 0.308904
199.158524 142.377426 -0.000012 0.268132
196.953568 143.537003 -0.000010 0.293477
195.421036 144.342941 -0.000009 0.341070
194.291946 144.936722 -0.000008 0.276219
199.680908 141.991287 5.538231 0.616373
199.002304 142.354233 4.884584 0.629892
nan nan nan 0.000000
198.210693 142.777618 3.847988 0.357443
198.510254 142.617401 3.472273 0.466194
209.542618 136.716873 4.075220 0.939467
199.035812 142.336319 2.657997 0.511193
199.511124 142.082092 2.227996 0.301900
204.479065 139.425049 1.679812 0.258824
205.144028 139.069412 1.001702 0.422553
208.733917 137.149399 -0.000022 0.302205
202.555481 140.453857 -0.000016 0.280613
199.114426 142.294266 -0.000012 0.293431
196.917618 143.469208 -0.000011 0.308415
195.390747 144.285828 -0.000009 0.278248
194.265823 144.887482 -0.000008 0.314458
198.647095 142.441269 5.256804 0.215198
199.595001 141.925751 5.041186 0.275090
197.935852 142.828079 4.218459 0.211704
198.223175 142.671829 3.857066 0.750607
198.524658 142.507858 3.479713 0.274861
198.841187 142.335724 3.084210 0.239261
204.322403 139.354767 2.956116 0.258824
204.888626 139.046814 2.329025 0.258824
204.391083 139.317413 1.680243 0.258824
222.989777 129.202515 -0.000036 0.290959
208.653076 136.999527 -0.000022 0.282094
202.497849 140.347046 -0.000016 0.286809
199.069733 142.211426 -0.000013 0.264897
196.881180 143.401657 -0.000010 0.295644
195.360062 144.228928 -0.000009 0.292103
194.239365 144.838425 -0.000008 0.334432
198.658157 142.331436 5.272463 0.298756
197.857971 142.773880 4.624158 0.232349
200.516357 141.303986 4.763501 0.472557
199.368118 141.938873 4.058260 0.518746
198.540741 142.396362 3.487504 0.246036
198.809555 142.247726 3.085405 0.353079
198.765121 142.272293 2.647817 0.553124
199.464752 141.885437 2.228867 0.231907
214.469437 133.588898 1.490563 0.251133
222.853134 128.953308 -0.000036 0.290349
208.571198 136.850220 -0.000022 0.306844
202.439499 140.240616 -0.000016 0.306828
199.024475 142.128891 -0.000012 0.279896
196.844284 143.334381 -0.000010 0.245945
195.328979 144.172241 -0.000009 0.294255
194.212555 144.789536 -0.000008 0.271473
198.634827 142.239929 5.278518 0.548760
197.887131 142.660187 4.641616 0.197696
209.311340 136.238846 6.610053 0.577173
199.307266 141.861954 4.055932 0.223529
198.555389 142.284576 3.495236 0.257404
198.676422 142.216537 3.077116 0.517647
198.632675 142.241135 2.642879 0.611765
204.845840 138.748825 2.330772 0.258824
204.347061 139.029190 1.678591 0.265629
222.714722 128.705048 -0.000036 0.296269
208.488281 136.701477 -0.000022 0.286519
202.380386 140.134613 -0.000015 0.284413
198.978638 142.046677 -0.000012 0.278309
196.806915 143.267349 -0.000010 0.297292
195.297501 144.115784 -0.000009 0.283879
194.185425 144.740860 -0.000008 0.271443
197.887039 142.561905 5.075790 0.229191
197.916580 142.545029 4.659411 0.247761
197.971375 142.513718 4.251959 0.272877
198.263184 142.347015 3.885715 0.254978
198.572205 142.170471 3.503392 0.282109
198.545074 142.185959 3.068982 0.563485
198.502197 142.210464 2.638046 0.537728
198.459763 142.234711 2.211730 0.931151
204.126816 138.997101 1.681468 0.290196
222.574615 128.457779 -0.000036 0.292897
208.404327 136.553329 -0.000022 0.297520
202.320557 140.029022 -0.000016 0.284077
198.932236 141.964783 -0.000013 0.297215
196.769089 143.200592 -0.000010 0.293965
195.265625 144.059540 -0.000009 0.320180
194.157944 144.692352 -0.000008 0.251225
198.385025 142.173645 5.232424 0.269764
197.944656 142.429321 4.677137 0.232166
197.981979 142.407654 4.263262 0.209812
198.278168 142.235687 3.895881 0.235660
198.458801 142.130814 3.494363 0.240040
198.415970 142.155685 3.061047 0.607691
207.761261 136.729782 3.166595 0.258732
208.934067 136.048843 2.410779 0.536492
203.981613 138.924255 1.682932 0.258824
208.885254 136.077194 0.769555 0.561791
208.319336 136.405762 -0.000022 0.308141
202.259979 139.923843 -0.000016 0.271839
198.885254 141.883209 -0.000012 0.326558
196.730789 143.134094 -0.000010 0.315923
195.233353 144.003510 -0.000009 0.275517
194.130112 144.644058 -0.000008 0.308568
198.705017 141.880264 5.338720 0.235233
197.974762 142.311096 4.695648 0.228244
198.005966 142.292679 4.277597 0.280201
198.291229 142.124390 3.905893 0.250828
198.330414 142.101273 3.483333 0.583154
198.288666 142.125885 3.053273 0.433204
207.797592 136.515869 3.173443 0.377203
198.206375 142.174438 2.208639 0.280659
203.951202 138.785141 1.682212 0.258824
208.778412 135.937210 0.770611 0.549508
208.233322 136.258789 -0.000022 0.301778
202.198669 139.819092 -0.000016 0.279698
198.837708 141.801971 -0.000012 0.304204
196.692032 143.067871 -0.000010 0.267857
195.200699 143.947723 -0.000009 0.277409
194.101959 144.595947 -0.000008 0.297063
nan nan nan 0.000000
198.005737 142.190933 4.714664 0.282628
200.652695 140.604279 4.848555 0.191852
198.306549 142.010620 3.916473 0.217807
198.204208 142.071960 3.472578 0.473610
198.163284 142.096497 3.045668 0.345129
207.831497 136.301132 3.180267 0.323033
208.640411 135.816238 2.408574 0.321569
203.867966 138.676971 1.682477 0.258824
222.143921 127.721901 -0.000036 0.291478
208.146286 136.112442 -0.000022 0.286854
202.136627 139.714767 -0.000016 0.288609
198.789597 141.721069 -0.000012 0.299977
196.652802 143.001923 -0.000010 0.269306
195.167664 143.892151 -0.000009 0.344121
194.073471 144.548035 -0.000008 0.245716
198.005432 142.088379 5.161610 0.192157
nan nan nan 0.000000
198.066315 142.051315 4.309595 0.320806
198.319916 141.896881 3.926893 0.531502
198.079742 142.043137 3.462038 0.335454
198.039368 142.067719 3.038190 0.284550
207.868668 136.082108 3.187394 0.489632
208.399292 135.758987 2.405681 0.568627
203.800354 138.559540 1.682430 0.258824
221.996948 127.478630 -0.000036 0.292058
208.058228 135.966690 -0.000022 0.288685
202.073868 139.610886 -0.000016 0.284794
198.740921 141.640503 -0.000013 0.272953
196.613129 142.936234 -0.000010 0.281605
195.134232 143.836823 -0.000009 0.273365
194.044647 144.500320 -0.000008 0.262165
198.036453 141.965576 5.184327 0.401434
198.068161 141.945969 4.753696 0.333333
198.098862 141.926987 4.326476 0.206271
197.997208 141.989853 3.878882 0.513191
197.957092 142.014679 3.451724 0.211887
197.917725 142.039032 3.030921 0.582055
208.115402 135.731079 3.206745 0.210666
208.709198 135.363785 2.413387 0.236362
203.803207 138.398468 1.681012 0.258824
221.848251 127.236404 -0.000036 0.291722
207.969147 135.821548 -0.000022 0.305425
202.010376 139.507446 -0.000016 0.279988
198.691681 141.560272 -0.000012 0.267964
196.572983 142.870834 -0.000010 0.263874
195.100403 143.781723 -0.000009 0.248508
194.015488 144.452820 -0.000007 0.245228
198.067871 141.841034 5.207510 0.439292
198.100159 141.820740 4.773870 0.583276
197.916031 141.936432 4.297337 0.570214
197.875778 141.961716 3.865804 0.550668
198.668762 141.463516 3.554745 0.818021
197.797516 142.010895 3.023777 0.430320
197.759079 142.035034 2.611157 0.336400
221.293701 127.249161 2.658391 0.275639
221.385956 127.191200 1.339826 0.270985
221.697906 126.995209 -0.000036 0.294011
207.879059 135.677048 -0.000021 0.305867
201.946167 139.404449 -0.000015 0.295476
198.641891 141.480392 -0.000013 0.282139
196.532394 142.805710 -0.000010 0.281392
195.066208 143.726868 -0.000009 0.284703
193.985992 144.405518 -0.000007 0.315801
198.099701 141.714676 5.231176 0.229480
198.132538 141.693741 4.794452 0.223529
197.795151 141.908997 4.281422 0.505882
nan nan nan 0.000000
207.063782 135.995239 4.707237 0.253681
197.678940 141.983154 3.016779 0.386816
207.769791 135.544769 3.197237 0.642832
221.709091 126.650932 2.669370 0.240833
221.405273 126.844780 1.336527 0.237629
221.545868 126.755074 -0.000036 0.293339
207.787964 135.533173 -0.000022 0.290364
201.881241 139.301910 -0.000015 0.282094
198.591537 141.400879 -0.000012 0.284428
196.491333 142.740875 -0.000010 0.237186
195.031631 143.672241 -0.000009 0.330510
193.956177 144.358414 -0.000007 0.275563
198.132599 141.586060 5.255531 0.244617
197.715515 141.856293 4.699704 0.536675
207.837997 135.297852 6.469069 0.924636
197.637161 141.907059 3.840327 0.324178
207.125748 135.759323 4.727911 0.267430
207.400558 135.581268 3.971169 0.443900
197.524872 141.979813 2.602917 0.514336
221.303116 126.573692 2.664466 0.167529
220.836243 126.876183 1.344637 0.235981
221.392151 126.516006 -0.000035 0.292302
207.695862 135.389938 -0.000022 0.291218
201.815613 139.199814 -0.000016 0.303670
198.540619 141.321701 -0.000012 0.351995
196.449829 142.676331 -0.000010 0.247913
194.996658 143.617859 -0.000009 0.291875
193.926025 144.311539 -0.000007 0.313512
197.636963 141.803528 5.121794 0.551095
197.597046 141.829773 4.681412 0.635294
207.092804 135.582840 6.327184 0.368994
197.520584 141.880081 3.828033 0.236835
207.185181 135.522064 4.748558 0.186877
197.446426 141.928864 3.003200 0.286931
207.313980 135.437332 3.181314 0.408927
221.057281 126.396103 2.662686 0.266636
220.721405 126.617058 1.343893 0.290196
221.236771 126.278015 -0.000035 0.291691
207.602768 135.247345 -0.000021 0.295171
201.749252 139.098175 -0.000016 0.306477
198.489166 141.242874 -0.000012 0.269093
196.407883 142.612076 -0.000010 0.262043
194.961319 143.563736 -0.000009 0.320745
193.895554 144.264862 -0.000007 0.265049
197.519669 141.777237 5.100944 0.258824
197.480530 141.803360 4.663588 0.287617
197.442764 141.828598 4.235730 0.516365
197.405518 141.853470 3.815988 0.294362
nan nan nan 0.000000
197.332474 141.902252 2.996616 0.302861
197.296844 141.926056 2.595010 0.605020
207.020950 135.431183 2.389549 0.257527
215.035492 130.078156 1.452739 0.268528
221.079727 126.041122 -0.000035 0.296742
207.508698 135.105423 -0.000022 0.299443
201.682190 138.997009 -0.000015 0.282185
198.437164 141.164429 -0.000012 0.300877
196.365494 142.548126 -0.000010 0.266331
194.925598 143.509842 -0.000008 0.276265
193.864761 144.218399 -0.000008 0.266102
198.231979 141.189819 5.331120 0.290288
197.365524 141.777328 4.646121 0.186648
197.328491 141.802444 4.221136 0.525490
207.254074 135.072327 5.589601 0.418845
207.009064 135.238464 4.749830 0.255497
206.939438 135.285660 3.953046 0.409552
nan nan nan 0.000000
215.077011 129.767914 2.550660 0.210498
214.810135 129.948883 1.454616 0.200885
220.921051 125.805328 -0.000035 0.292882
207.413620 134.964142 -0.000021 0.293385
201.614426 138.896317 -0.000015 0.271092
198.384613 141.086334 -0.000012 0.269566
196.322647 142.484467 -0.000010 0.280735
194.889511 143.456207 -0.000008 0.285756
193.833633 144.172150 -0.000007 0.321599
197.290009 141.725464 5.060607 0.357931
198.298965 141.031006 4.903512 0.223529
197.215668 141.776642 4.206833 0.581033
197.179840 141.801300 3.792622 0.639399
197.144440 141.825668 3.385310 0.192157
197.109467 141.849731 2.983898 0.287098
215.056732 129.496674 3.659855 0.240314
214.914459 129.594604 2.550063 0.251560
nan nan nan 0.000000
220.760712 125.570648 -0.000034 0.292668
207.317551 134.823532 -0.000021 0.290318
201.545959 138.796112 -0.000015 0.265553
198.331512 141.008606 -0.000012 0.287861
196.279358 142.421097 -0.000010 0.298512
194.853043 143.402832 -0.000009 0.301122
193.802185 144.126129 -0.000007 0.295064
197.177170 141.700241 5.040979 0.563500
197.140259 141.726044 4.612322 0.887861
197.104263 141.751175 4.192815 0.556771
206.641449 135.088165 5.513411 0.258824
206.572220 135.136536 4.715082 0.160784
196.999756 141.824188 2.977701 0.265782
196.966064 141.847733 2.583762 0.442939
206.371780 135.276566 2.382205 0.430777
196.899261 141.894394 1.806885 0.974762
220.598740 125.337105 -0.000034 0.289784
207.220520 134.683609 -0.000021 0.299062
201.476807 138.696381 -0.000015 0.286763
198.277863 140.931259 -0.000012 0.280186
196.235626 142.358047 -0.000010 0.339101
194.816193 143.349701 -0.000008 0.243992
193.770432 144.080322 -0.000007 0.266377
197.066147 141.675079 5.021868 0.565225
197.029907 141.700760 4.595975 0.342321
198.403564 140.726730 4.493436 0.262272
206.424881 135.039017 5.491337 0.597330
206.357788 135.086594 4.698215 0.805325
206.291367 135.133682 3.916478 0.283482
215.041916 128.928894 3.675234 0.290196
196.825317 141.845825 2.192583 0.416129
201.440262 138.573486 1.714840 0.278431
214.996750 128.960907 0.327487 0.561013
207.122498 134.544357 -0.000021 0.297566
201.406937 138.597122 -0.000015 0.291218
198.223694 140.854294 -0.000012 0.310262
196.191467 142.295288 -0.000010 0.271504
194.778992 143.296844 -0.000008 0.272251
193.738342 144.034729 -0.000007 0.317143
196.956451 141.650253 5.003121 0.227115
198.407394 140.606125 4.975487 0.227909
196.885895 141.701035 4.165679 0.402762
206.212631 134.989319 5.470003 0.495750
207.577988 134.006775 4.884646 0.309804
206.080841 135.084152 3.904792 0.192996
196.752197 141.797241 2.576626 0.207965
196.719772 141.820572 2.191418 0.218051
201.426697 138.433380 1.713688 0.550912
220.269943 124.873398 -0.000034 0.291905
207.023514 134.405792 -0.000021 0.303410
201.336395 138.498367 -0.000015 0.291325
198.168976 140.777695 -0.000012 0.299229
196.146851 142.232849 -0.000010 0.330114
194.741409 143.244232 -0.000008 0.304128
193.705948 143.989380 -0.000007 0.260884
196.847687 141.626022 4.984627 0.345159
196.812836 141.651474 4.564138 0.374166
205.984238 134.953888 6.226611 0.663569
196.744949 141.701050 3.748597 0.721508
nan nan nan 0.000000
nan nan nan 0.000000
196.647263 141.772400 2.573168 0.224048
196.615189 141.795822 2.190270 0.506889
214.251450 128.916580 1.452369 0.239658
220.103119 124.643288 -0.000034 0.291005
206.923569 134.267914 -0.000021 0.296025
201.265152 138.400085 -0.000015 0.299031
198.113724 140.701477 -0.000012 0.274266
196.101822 142.170715 -0.000010 0.298802
194.703461 143.191895 -0.000008 0.310109
193.673233 143.944244 -0.000007 0.286107
196.740601 141.601852 4.966605 0.341833
196.706421 141.627182 4.548731 0.231800
205.756775 134.920609 6.196860 0.160204
205.767273 134.912827 5.423341 0.252689
196.607269 141.700653 3.343379 0.675105
nan nan nan 0.000000
201.550369 138.037674 2.875921 0.231342
196.512314 141.771011 2.189154 0.372030
210.971207 131.056549 1.516359 0.986557
219.934692 124.414337 -0.000034 0.286748
206.822662 134.130753 -0.000021 0.299077
201.193237 138.302322 -0.000015 0.268986
198.057953 140.625656 -0.000011 0.298985
196.056351 142.108902 -0.000010 0.257908
194.665161 143.139816 -0.000008 0.270787
193.640198 143.899338 -0.000007 0.249363
196.634796 141.577957 4.948950 0.400031
196.600876 141.603455 4.533531 0.242374
196.567810 141.628326 4.126898 0.266667
196.535202 141.652847 3.727855 0.575021
201.805328 137.690247 4.098564 0.185290
210.836975 130.899323 4.422290 0.249439
202.334961 137.291992 2.928723 0.273899
196.410141 141.746887 2.188051 0.192157
201.451340 137.956406 1.708738 0.332265
201.670547 137.791580 1.112116 0.266468
206.720795 133.994293 -0.000021 0.283192
201.120636 138.205063 -0.000015 0.294118
198.001648 140.550232 -0.000012 0.275364
196.010437 142.047409 -0.000010 0.284703
194.626495 143.088013 -0.000009 0.277195
193.606857 143.854675 -0.000007 0.326070
196.530167 141.554398 4.931621 0.235172
196.496902 141.579788 4.518717 0.531899
205.311661 134.855118 6.139286 0.502037
nan nan nan 0.000000
196.401138 141.652832 3.327730 0.274144
201.750580 137.571823 3.498037 0.235416
201.827179 137.513382 2.902270 1.000000
196.309387 141.722839 2.186974 0.287190
201.454681 137.797562 1.707125 0.425650
201.423233 137.821548 1.122690 0.311162
206.617996 133.858536 -0.000021 0.285054
201.047348 138.108307 -0.000015 0.295171
197.944809 140.475189 -0.000012 0.283589
195.964111 141.986237 -0.000010 0.270695
194.587463 143.036469 -0.000008 0.256214
193.573196 143.810242 -0.000007 0.349401
nan nan nan 0.000000
196.394104 141.556396 4.504188 0.374853
205.093979 134.822784 6.111465 0.289006
196.330856 141.605362 3.708028 0.229679
196.300110 141.629150 3.320175 0.392279
201.362930 137.710571 3.465899 0.235019
201.762955 137.400955 2.903133 0.264332
201.466324 137.630554 2.294691 0.192157
201.369843 137.705231 1.707305 0.237736
201.201355 137.835632 1.131755 0.254566
206.514236 133.723511 -0.000021 0.287922
200.973389 138.012070 -0.000015 0.295109
197.887466 140.400558 -0.000012 0.294453
195.917358 141.925400 -0.000010 0.282124
194.548065 142.985214 -0.000008 0.307713
193.539230 143.766037 -0.000007 0.349325
196.322968 141.509338 4.897483 0.254612
196.292816 141.533020 4.490040 0.492805
nan nan nan 0.000000
201.958084 137.084564 4.778647 0.258824
196.199905 141.605972 3.312723 0.190570
201.452820 137.481293 3.483273 0.254383
201.519989 137.428558 2.892886 0.170382
201.293198 137.606628 2.292697 0.255879
201.369797 137.546494 1.705709 0.519768
201.419281 137.507629 1.113404 0.192157
201.563309 137.394547 0.505209 0.211307
200.898773 137.916351 -0.000015 0.301060
197.829590 140.326324 -0.000012 0.302266
195.870178 141.864868 -0.000010 0.345418
194.508316 142.934235 -0.000008 0.266423
193.504959 143.722076 -0.000007 0.252659
196.213760 141.493073 4.878556 0.202823
196.192261 141.510208 4.476063 0.142550
nan nan nan 0.000000
201.672058 137.145203 4.739789 0.204898
196.101089 141.582840 3.305457 0.219242
201.139923 137.569092 3.458683 0.245670
201.537857 137.252106 2.898952 0.573892
201.492996 137.287842 2.298498 0.550561
201.173828 137.542068 1.708179 0.929686
201.382095 137.376175 1.110831 0.695033
201.461761 137.312714 0.507579 0.545754
200.823486 137.821152 -0.000015 0.300099
197.771194 140.252487 -0.000011 0.306706
195.822571 141.804688 -0.000010 0.301442
194.468216 142.883530 -0.000008 0.318486
193.470383 143.678360 -0.000006 0.254551
196.105652 141.477295 4.859905 0.238499
196.092804 141.487671 4.462352 0.256977
215.474609 125.826431 8.608522 0.222080
201.527771 137.096024 4.727661 0.407050
196.003326 141.559982 3.298329 0.634195
201.161667 137.391846 3.469168 0.236271
216.249390 125.200386 3.833188 0.188632
201.404938 137.195267 2.298322 0.294606
201.381729 137.214020 1.702166 0.270588
201.330338 137.255554 1.109106 0.576593
201.344559 137.244049 0.511551 0.235294
200.747528 137.726471 -0.000014 0.297581
197.712296 140.179062 -0.000011 0.300710
195.774551 141.744843 -0.000009 0.260685
194.427765 142.833099 -0.000008 0.264347
193.435501 143.634872 -0.000007 0.357504
195.999298 141.461411 4.841754 0.272969
195.994400 141.465424 4.448902 0.255970
nan nan nan 0.000000
216.523148 124.639160 7.619264 0.349828
201.348526 137.076950 4.100805 0.293385
201.629028 136.847031 3.527089 0.258824
201.080765 137.296417 2.880116 0.969909
201.429932 137.010223 2.300551 0.224186
201.176834 137.217667 1.704804 0.264393
201.050049 137.321594 1.121834 0.255390
206.089844 133.190750 -0.000021 0.285618
200.670914 137.632339 -0.000014 0.278553
197.652878 140.106064 -0.000012 0.279179
195.726120 141.685318 -0.000009 0.265415
194.386948 142.782959 -0.000008 0.274098
193.400314 143.591644 -0.000007 0.325063
195.893982 141.445969 4.823873 0.622049
195.897400 141.443130 4.435810 0.248600
nan nan nan 0.000000
215.784927 124.908989 7.509335 1.000000
195.810577 141.515305 3.284438 0.269718
201.198593 137.035797 3.490016 0.223529
201.113419 137.106613 2.887290 0.257847
201.612320 136.691849 2.306169 0.243595
200.935303 137.254700 1.708238 0.694072
201.552979 136.741165 1.084627 0.215564
205.981445 133.059433 -0.000020 0.291157
200.593643 137.538742 -0.000014 0.289891
197.592957 140.033478 -0.000011 0.258976
195.677261 141.626144 -0.000009 0.269184
194.345795 142.733093 -0.000008 0.294591
193.364822 143.548660 -0.000007 0.267140
nan nan nan 0.000000
195.795151 141.426361 4.421202 0.220829
nan nan nan 0.000000
nan nan nan 0.000000
195.715836 141.493240 3.277711 0.905882
201.055603 136.990433 3.483415 0.207263
215.792542 124.563393 3.835802 0.582589
201.262177 136.816238 2.300469 0.266667
200.215546 137.698822 1.721934 0.206424
218.348175 122.408340 -0.000033 0.291051
205.872116 132.928864 -0.000020 0.284733
200.515732 137.445679 -0.000014 0.278035
197.532532 139.961304 -0.000011 0.294453
195.628006 141.567307 -0.000010 0.292714
194.304291 142.683533 -0.000008 0.255772
193.329041 143.505920 -0.000007 0.273762
nan nan nan 0.000000
195.692368 141.411270 4.406392 0.273869
nan nan nan 0.000000
nan nan nan 0.000000
216.544586 123.576897 6.438321 0.290196
215.218674 124.710930 5.020353 0.216373
200.832458 137.015091 2.879637 0.201343
200.312134 137.460114 2.281798 0.287846
200.205704 137.551132 1.720493 0.300877
201.566513 136.387268 1.072911 0.247059
205.761887 132.799072 -0.000019 0.292012
200.437164 137.353180 -0.000014 0.295644
197.471588 139.889557 -0.000011 0.354574
195.578339 141.508804 -0.000010 0.319417
194.262451 142.634262 -0.000008 0.341680
193.292969 143.463425 -0.000007 0.264302
nan nan nan 0.000000
nan nan nan 0.000000
nan nan nan 0.000000
nan nan nan 0.000000
nan nan nan 0.000000
200.700317 136.964233 3.462672 0.292775
200.693771 136.969910 2.875923 0.239521
200.185684 137.410645 2.280759 0.223529
nan nan nan 0.000000
217.978683 121.976364 -0.000032 0.295140
205.650757 132.670044 -0.000020 0.286580
200.357956 137.261215 -0.000014 0.271611
197.410156 139.818237 -0.000011 0.342641
195.528259 141.450668 -0.000009 0.283757
194.220245 142.585281 -0.000007 0.283360
193.256577 143.421204 -0.000006 0.308263
195.485886 141.385742 4.755988 0.370382
nan nan nan 0.000000
nan nan nan 0.000000
nan nan nan 0.000000
nan nan nan 0.000000
214.217255 124.906914 4.947796 0.232380
214.701019 124.481323 3.797802 0.205982
211.576508 127.230095 2.530740 0.220096
201.487488 136.105865 1.689150 0.246754
217.791702 121.762306 -0.000032 0.299550
205.538727 132.541809 -0.000020 0.311162
200.278107 137.169815 -0.000014 0.292073
197.348236 139.747345 -0.000011 0.248005
195.477768 141.392883 -0.000009 0.323781
194.177719 142.536591 -0.000008 0.254719
193.219910 143.379211 -0.000007 0.236530
nan nan nan 0.000000
nan nan nan 0.000000
nan nan nan 0.000000
nan nan nan 0.000000
214.252060 124.539505 6.166830 0.624323
214.327927 124.471817 4.978245 0.560265
214.760544 124.085831 3.812875 0.494118
201.473633 135.940491 2.312474 0.235462
211.927643 126.613365 1.458266 0.209140
217.603226 121.549576 -0.000032 0.297063
205.425797 132.414352 -0.000019 0.290883
200.197617 137.078964 -0.000014 0.295430
197.285812 139.676895 -0.000011 0.289433
195.426880 141.335449 -0.000009 0.304555
194.134857 142.488205 -0.000008 0.271077
193.182938 143.337494 -0.000006 0.253529
195.288986 141.356720 4.724024 0.829099
nan nan nan 0.000000
214.318619 124.138268 8.648342 0.276387
214.330658 124.127365 7.422333 0.539727
214.370148 124.091637 6.211371 0.255604
214.336975 124.121658 4.997988 0.160784
211.153839 127.001839 3.585330 0.213504
200.385406 136.745361 2.290425 0.172549
211.263992 126.902168 1.469503 0.201816
217.413269 121.338150 -0.000032 0.290517
205.311981 132.287674 -0.000019 0.286778
200.116501 136.988678 -0.000014 0.290654
197.222900 139.606873 -0.000011 0.294255
195.375595 141.278366 -0.000009 0.274220
194.091644 142.440109 -0.000008 0.257771
193.145691 143.296036 -0.000007 0.231281
nan nan nan 0.000000
nan nan nan 0.000000
nan nan nan 0.000000
214.453629 123.668182 7.481693 0.205264
214.491165 123.633743 6.257141 0.255390
211.297058 126.564651 4.678825 0.393347
210.867661 126.958679 3.576367 0.209995
211.226746 126.629173 2.533055 0.258915
210.515305 127.281998 1.482745 0.285695
211.175552 126.676147 0.403104 0.268376
205.197296 132.161804 -0.000019 0.294591
200.034760 136.898972 -0.000014 0.319554
197.159500 139.537292 -0.000011 0.262058
195.323914 141.221649 -0.000009 0.321279
194.048096 142.392319 -0.000008 0.372045
193.108139 143.254822 -0.000006 0.341115
nan nan nan 0.000000
nan nan nan 0.000000
nan nan nan 0.000000
214.579300 123.198830 7.542634 0.161624
213.809570 123.915100 6.177584 0.468376
213.738419 123.981308 4.969606 0.686824
211.092773 126.443207 3.601675 0.290196
210.996887 126.532425 2.531367 0.273106
211.068619 126.465668 1.467029 0.258213
217.028946 120.919327 -0.000032 0.293523
205.081726 132.036743 -0.000019 0.292668
199.952377 136.809830 -0.000014 0.280156
197.095627 139.468170 -0.000010 0.284779
195.271835 141.165283 -0.000009 0.282094
194.004227 142.344849 -0.000007 0.244648
193.070313 143.213882 -0.000006 0.257481
nan nan nan 0.000000
nan nan nan 0.000000
nan nan nan 0.000000
214.707794 122.718910 7.605220 0.400046
208.315872 128.750687 5.336038 0.231525
207.057007 129.938629 4.235837 0.514412
211.024918 126.194275 3.607605 0.198169
213.281891 124.064476 2.586267 0.160784
210.432205 126.753601 1.477850 0.205692
216.834595 120.711937 -0.000032 0.292851
204.965271 131.912491 -0.000019 0.296361
199.869385 136.721252 -0.000013 0.269429
197.031250 139.399475 -0.000010 0.319554
195.219360 141.109283 -0.000009 0.274174
193.960022 142.297668 -0.000007 0.261204
193.032196 143.173218 -0.000006 0.311131
nan nan nan 0.000000
nan nan nan 0.000000
nan nan nan 0.000000
nan nan nan 0.000000
213.172989 123.822510 6.131630 0.342351
213.151337 123.843216 4.942366 0.364706
213.071579 123.919548 3.757471 0.351370
210.126266 126.738029 2.518696 0.647059
211.009491 125.892845 1.461299 0.237964
216.638809 120.505905 -0.000032 0.288853
204.847977 131.789063 -0.000019 0.285069
199.785782 136.633270 -0.000014 0.288716
196.966415 139.331253 -0.000010 0.261219
195.166504 141.053665 -0.000009 0.256672
193.915482 142.250809 -0.000007 0.282521
192.993805 143.132813 -0.000007 0.297917
nan nan nan 0.000000
nan nan nan 0.000000
nan nan nan 0.000000
207.722366 128.762436 6.236745 0.352941
212.860260 123.776596 6.109391 0.365698
207.038666 129.425903 4.263819 0.436255
212.783356 123.851227 3.749604 0.829969
206.746445 129.709488 2.445130 0.299016
nan nan nan 0.000000
216.441574 120.301254 -0.000031 0.288441
204.729813 131.666428 -0.000019 0.294133
199.701553 136.545883 -0.000013 0.275547
196.901093 139.263474 -0.000010 0.291707
195.113251 140.998413 -0.000009 0.274586
193.870621 142.204254 -0.000007 0.307393
192.955124 143.092667 -0.000006 0.340932
nan nan nan 0.000000
206.873520 129.318008 7.953774 0.266453
206.940781 129.251816 7.033051 0.213382
206.553360 129.633057 6.022461 0.554314
nan nan nan 0.000000
206.962219 129.230713 4.270521 0.310277
nan nan nan 0.000000
218.509293 117.867767 2.718233 0.258824
218.167801 118.203812 1.289608 0.258824
216.242950 120.097984 -0.000031 0.289769
204.610794 131.544647 -0.000019 0.310552
199.616730 136.459076 -0.000013 0.299413
196.835312 139.196152 -0.000010 0.335439
195.059616 140.943527 -0.000008 0.321660
193.825439 142.158020 -0.000007 0.320363
192.916168 143.052795 -0.000006 0.275196
nan nan nan 0.000000
206.551483 129.367477 7.896848 0.272328
207.160721 128.759521 7.124528 0.243717
207.397964 128.522797 6.227379 0.252415
nan nan nan 0.000000
206.885437 129.034241 4.277389 0.268666
nan nan nan 0.000000
nan nan nan 0.000000
nan nan nan 0.000000
216.042877 119.896095 -0.000031 0.292897
204.490936 131.423691 -0.000019 0.311681
199.531296 136.372864 -0.000014 0.327642
196.769058 139.129288 -0.000010 0.312688
195.005600 140.889023 -0.000008 0.307408
193.779938 142.112106 -0.000007 0.324071
192.876923 143.013214 -0.000006 0.298070
nan nan nan 0.000000
206.475739 129.172958 7.915089 0.232364
206.781158 128.863907 7.062347 1.000000
206.925873 128.717468 6.157512 0.266667
211.942276 123.641251 6.045334 0.563882
207.914627 127.716911 4.413479 0.247669
nan nan nan 0.000000
203.197861 132.489929 2.371853 0.258824
202.050659 133.650787 1.654854 0.280949
215.841415 119.695625 -0.000031 0.293538
204.370239 131.303558 -0.000018 0.294209
199.445267 136.287247 -0.000014 0.283070
196.702332 139.062881 -0.000010 0.260853
194.951218 140.834885 -0.000008 0.278721
193.734116 142.066498 -0.000007 0.258732
192.837418 142.973892 -0.000006 0.301534
nan nan nan 0.000000
206.264023 129.116257 7.891802 0.518639
206.309784 129.069305 6.975598 0.175174
206.768539 128.598541 6.153759 0.589578
206.047195 129.338760 5.102509 0.247761
211.653442 123.585884 4.869965 0.207416
202.641678 132.833344 3.085177 0.214405
201.871948 133.623199 2.343420 0.247059
201.839035 133.656967 1.657352 0.289265
215.638565 119.496536 -0.000031 0.290944
204.248688 131.184296 -0.000018 0.277577
199.358643 136.202240 -0.000013 0.285756
196.635147 138.996964 -0.000010 0.268498
194.896439 140.781143 -0.000009 0.260685
193.687973 142.021210 -0.000007 0.240543
192.797638 142.934845 -0.000006 0.272984
205.669037 129.460541 8.667535 0.217029
207.078064 127.994324 8.188198 0.968368
206.144531 128.965759 6.968225 0.218357
206.770050 128.314850 6.184155 0.977295
205.923492 129.195770 5.104434 0.291325
206.644135 128.445862 4.297965 0.568063
202.523514 132.733749 3.084656 0.210178
nan nan nan 0.000000
nan nan nan 0.000000
215.434311 119.298904 -0.000030 0.290150
204.126312 131.065887 -0.000018 0.278279
199.271423 136.117844 -0.000013 0.321248
196.567505 138.931503 -0.000010 0.292561
194.841293 140.727783 -0.000008 0.276081
193.641510 141.976257 -0.000007 0.260945
192.757568 142.896088 -0.000006 0.250767
nan nan nan 0.000000
206.724747 128.076370 8.122696 0.535134
nan nan nan 0.000000
207.009949 127.775406 6.266611 0.218082
nan nan nan 0.000000
202.281525 132.765015 3.794795 0.261753
206.089020 128.747192 3.347270 0.193301
201.993011 133.069473 2.351326 0.238209
201.936264 133.129349 1.650024 0.230030
206.326859 128.496231 0.635743 0.585534
204.003128 130.948318 -0.000018 0.295644
199.183609 136.034042 -0.000013 0.250965
196.499420 138.866516 -0.000010 0.339330
194.785782 140.674805 -0.000008 0.316167
193.594742 141.931625 -0.000007 0.283772
192.717255 142.857605 -0.000006 0.280354
nan nan nan 0.000000
nan nan nan 0.000000
nan nan nan 0.000000
nan nan nan 0.000000
206.476532 128.052124 5.243697 0.123095
