# This PCD file was generated using the MATLABÂ® pcwrite function
# from Computer Vision ToolboxÂ®.
# .PCD v.7 - Point Cloud Data file format
VERSION .7
FIELDS x y z intensity
SIZE 4 4 4 4
TYPE F F F F
COUNT 1 1 1 1
WIDTH 1290
HEIGHT 1
VIEWPOINT 0 0 0 1 0 0 0
POINTS 1290
DATA ascii
nan nan nan 0.000000
184.826752 123.034096 -0.000060 0.294102
177.764938 137.747208 -0.000035 0.299550
174.733078 144.063995 -0.000025 0.295583
173.044525 147.582077 -0.000019 0.342672
171.966522 149.828064 -0.000015 0.292165
171.217270 151.389114 -0.000013 0.286213
170.647949 152.575256 0.010006 1.000000
nan nan nan 0.000000
nan nan nan 0.000000
nan nan nan 0.000000
179.992340 132.622833 6.446579 0.277455
179.962860 132.685379 5.440554 0.258824
178.220581 136.381287 4.117225 0.246891
177.720032 137.443115 3.210848 0.255604
186.088394 119.691208 2.724478 0.253620
186.411926 119.004883 1.263106 0.258824
184.570099 122.911987 -0.000060 0.292470
177.611160 137.674072 -0.000035 0.292576
174.623474 144.011856 -0.000025 0.290517
172.959518 147.541641 -0.000019 0.269780
171.897217 149.795105 -0.000015 0.283162
171.158890 151.361343 -0.000013 0.270344
170.597870 152.551437 0.010007 1.000000
nan nan nan 0.000000
nan nan nan 0.000000
nan nan nan 0.000000
179.898834 132.326675 6.480511 0.191638
179.654877 132.853683 5.408016 0.566583
176.999039 138.591049 3.910669 0.263737
177.816132 136.825912 3.240318 0.602899
179.554276 133.071014 2.480853 0.190036
185.901855 119.358398 1.271880 0.258824
184.312592 122.791702 -0.000060 0.294804
174.353958 144.305176 0.605625 0.258824
174.513519 143.960495 -0.000025 0.307744
172.874237 147.501801 -0.000019 0.264195
171.827698 149.762619 -0.000016 0.257939
171.100311 151.333984 -0.000013 0.347295
170.547623 152.527954 0.010003 1.000000
nan nan nan 0.000000
179.147995 133.469162 8.231795 0.245624
177.713470 136.625778 6.619207 0.173281
178.959183 133.884644 6.212340 0.236164
179.512283 132.667572 5.420637 0.203922
177.073090 138.034912 3.954650 0.255421
177.601410 136.872345 3.233847 0.423209
nan nan nan 0.000000
nan nan nan 0.000000
184.054230 122.673210 -0.000060 0.291844
174.260056 144.224869 0.602849 0.258824
174.403198 143.909882 -0.000025 0.310674
172.788681 147.462570 -0.000019 0.284092
171.757950 149.730637 -0.000016 0.298238
171.041550 151.307022 -0.000013 0.299001
170.497223 152.504822 0.009999 1.000000
nan nan nan 0.000000
179.001755 133.302536 8.251644 0.221134
177.537857 136.584412 6.612952 0.250828
179.287003 132.663055 6.397537 0.940108
179.366776 132.484207 5.433002 0.591913
177.150620 137.452576 4.000799 0.223194
177.427856 136.831055 3.232196 0.190448
177.401199 136.890808 2.409368 0.182956
nan nan nan 0.000000
173.597702 145.417770 1.229705 0.258824
177.146820 137.461090 -0.000036 0.290669
174.292526 143.860062 -0.000025 0.296788
172.702850 147.423920 -0.000019 0.288685
171.687973 149.699127 -0.000015 0.289342
170.982605 151.280487 -0.000013 0.245884
170.462921 152.445572 -0.000005 0.341360
nan nan nan 0.000000
178.818832 133.216492 8.252674 0.286778
178.933960 132.953491 7.319931 0.276722
nan nan nan 0.000000
nan nan nan 0.000000
177.231918 136.841980 4.049287 0.272740
177.254745 136.789841 3.230610 0.390097
181.280045 127.593552 2.574182 0.271717
nan nan nan 0.000000
173.521790 145.318192 1.226738 0.258824
174.071106 144.063232 0.597058 0.258824
174.181503 143.811005 -0.000025 0.280125
172.616745 147.385880 -0.000019 0.268711
171.617783 149.668106 -0.000016 0.296681
170.923477 151.254349 -0.000013 0.270344
170.411926 152.423035 -0.000005 0.339223
nan nan nan 0.000000
176.831116 137.333145 7.266155 0.196567
176.886322 137.204590 6.462036 0.302541
176.957031 137.039932 5.664163 0.278431
173.703812 144.615829 3.893217 0.258824
nan nan nan 0.000000
177.082062 136.748749 3.229089 0.943206
177.056396 136.808517 2.408340 0.246143
182.388641 124.391121 1.370521 0.258824
183.274323 122.328590 -0.000060 0.294408
176.834808 137.324524 -0.000035 0.289601
174.070145 143.762726 -0.000025 0.274708
172.530380 147.348434 -0.000019 0.287526
171.547379 149.637589 -0.000016 0.269749
170.864166 151.228638 -0.000013 0.280171
170.360794 152.400848 -0.000011 0.256657
177.003159 136.486115 8.319658 0.336996
nan nan nan 0.000000
177.191635 136.038605 6.679016 0.266377
177.251694 135.896027 5.837419 0.529656
176.961121 136.585922 4.889958 0.191684
176.935349 136.647125 4.054374 0.593149
176.909805 136.707764 3.227630 0.393774
176.884628 136.767532 2.407856 0.268696
178.798157 132.224182 1.511472 1.000000
174.385315 142.701736 1.091887 0.258824
173.443130 144.938766 0.683342 0.258824
173.958450 143.715225 -0.000026 0.284977
172.443756 147.311600 -0.000019 0.343175
171.476761 149.607559 -0.000016 0.295781
170.804672 151.203339 -0.000013 0.264012
170.309494 152.379028 -0.000011 0.305257
176.823639 136.459351 8.308533 0.509194
178.187057 133.157913 8.210912 0.675776
178.526581 132.335770 7.394356 0.226307
178.494019 132.414658 6.384977 0.265888
176.788269 136.545013 4.886650 0.577569
176.763000 136.606201 4.052031 0.619257
nan nan nan 0.000000
178.546677 132.287125 2.485993 0.541741
178.511154 132.373154 1.515530 0.560784
173.293289 145.007935 1.217104 0.172885
176.520935 137.192337 -0.000035 0.294286
173.846436 143.668503 -0.000026 0.296727
172.356888 147.275360 -0.000019 0.284566
171.405945 149.578018 -0.000016 0.271687
170.744995 151.178452 -0.000013 0.251637
170.258057 152.357574 -0.000011 0.319768
176.644745 136.432709 8.297752 0.149462
178.051834 132.956955 8.240032 0.224292
178.082382 132.881500 7.271852 0.580392
176.641159 136.441574 5.728049 0.505241
178.005447 133.071548 5.309513 0.268788
173.160950 145.038330 3.300280 0.258824
181.892181 123.470581 3.922138 0.258824
179.913269 128.358856 2.553957 0.297993
178.357437 132.202072 1.513890 0.554330
174.127609 142.650513 1.094393 0.258824
176.363327 137.127884 -0.000036 0.295354
173.734085 143.622559 -0.000025 0.301747
172.269760 147.239731 -0.000019 0.285084
171.334915 149.548981 -0.000016 0.308370
170.685165 151.153976 -0.000013 0.271901
170.206451 152.336472 -0.000011 0.352987
nan nan nan 0.000000
nan nan nan 0.000000
176.473511 136.388351 6.570651 0.503792
nan nan nan 0.000000
178.214554 131.999847 5.432903 0.290196
173.051300 145.014496 3.298750 0.252155
178.061325 132.386078 3.445569 0.611765
176.371628 136.645157 2.406532 0.633127
179.625214 128.444092 1.449090 0.257038
173.589539 143.657806 1.150161 0.258824
176.205261 137.064529 -0.000036 0.281422
173.621429 143.577423 -0.000025 0.292424
172.182388 147.204712 -0.000019 0.287205
171.263687 149.520432 -0.000015 0.289128
170.625153 151.129929 -0.000013 0.315435
170.154709 152.315735 -0.000011 0.268971
nan nan nan 0.000000
176.291718 136.372009 7.414226 0.885130
nan nan nan 0.000000
176.296326 136.360184 5.720410 0.179171
176.272278 136.422028 4.877699 0.699489
172.860504 145.200180 3.278860 0.277668
178.034363 131.888382 3.467843 0.259983
178.006226 131.960785 2.487660 0.446479
179.977753 126.888229 1.423283 0.258824
173.379044 143.865997 1.163460 0.258824
173.447708 143.689362 0.588232 0.247517
173.508453 143.533051 -0.000025 0.286198
172.094772 147.170319 -0.000020 0.301625
171.192261 149.492386 -0.000015 0.261326
170.564987 151.106308 -0.000013 0.262104
170.102829 152.295364 -0.000011 0.313558
nan nan nan 0.000000
nan nan nan 0.000000
nan nan nan 0.000000
176.121964 136.326035 5.715851 0.563287
nan nan nan 0.000000
172.789642 145.080246 3.285952 0.258824
nan nan nan 0.000000
179.530869 127.370644 2.566723 0.251377
173.649231 142.822052 1.703821 0.258824
172.989075 144.556320 1.201991 0.194003
173.335693 143.645752 0.588192 0.362097
173.395172 143.489471 -0.000025 0.304601
172.006912 147.136520 -0.000019 0.315724
171.120636 149.464828 -0.000015 0.294972
170.504639 151.083084 -0.000013 0.320912
170.050812 152.275345 -0.000011 0.257542
nan nan nan 0.000000
175.937836 136.319336 7.397669 0.226734
nan nan nan 0.000000
nan nan nan 0.000000
172.993011 144.221039 3.904959 0.258824
172.717972 144.959030 3.293182 0.266331
nan nan nan 0.000000
nan nan nan 0.000000
172.993347 144.220154 1.729014 0.258824
173.161758 143.768234 1.162769 0.258824
175.728455 136.881134 -0.000035 0.277470
173.281586 143.446701 -0.000025 0.287419
171.918823 147.103333 -0.000019 0.272267
171.048828 149.437790 -0.000015 0.301793
170.444138 151.060303 -0.000013 0.277180
169.998642 152.255707 -0.000011 0.250156
nan nan nan 0.000000
nan nan nan 0.000000
175.764755 136.284668 6.542401 0.617090
175.768555 136.274261 5.704741 0.484398
nan nan nan 0.000000
172.939453 144.030518 3.370898 0.258824
177.210739 132.320358 3.433720 0.271504
nan nan nan 0.000000
172.769592 144.496185 1.734519 0.258824
181.161041 121.490219 -0.000059 0.291554
175.568680 136.822220 -0.000035 0.299245
173.167709 143.404709 -0.000025 0.294606
171.830505 147.070770 -0.000019 0.286854
170.976822 149.411240 -0.000015 0.291890
170.383484 151.037933 -0.000013 0.324788
169.946335 152.236420 -0.000011 0.295949
172.682541 144.403137 6.078310 0.258824
nan nan nan 0.000000
175.588852 136.259064 6.535920 0.482155
175.592392 136.249130 5.699379 0.289631
172.790695 144.100098 3.910055 0.258824
172.572098 144.712616 3.308065 0.258824
177.378891 131.242981 3.486310 0.505928
177.192032 131.766586 2.485986 0.271046
178.571747 127.900360 1.446840 0.238987
172.772171 144.152008 1.187040 0.258824
173.005890 143.497070 0.586108 0.258824
173.053543 143.363510 -0.000025 0.322240
171.741974 147.038834 -0.000019 0.285039
170.904648 149.385193 -0.000015 0.354849
170.322678 151.015991 -0.000013 0.282933
169.893906 152.217499 -0.000011 0.257786
172.554886 144.423965 6.062750 0.274205
nan nan nan 0.000000
175.413498 136.233322 6.529716 0.357076
175.416794 136.223877 5.694241 0.236576
172.562759 144.401413 3.868640 0.258824
nan nan nan 0.000000
177.014816 131.645172 3.461726 0.654902
nan nan nan 0.000000
nan nan nan 0.000000
172.355164 144.996216 1.232968 0.258824
175.247925 136.707748 -0.000036 0.293309
172.939087 143.323120 -0.000025 0.322118
171.653214 147.007507 -0.000019 0.284459
170.832291 149.359650 -0.000015 0.269795
170.261719 150.994476 -0.000013 0.254688
169.841339 152.198944 -0.000011 0.320455
nan nan nan 0.000000
172.732361 143.553192 5.693341 0.258824
172.170807 145.199020 4.795108 0.258824
176.887772 131.374268 6.445445 0.177859
175.245300 136.188110 4.862492 0.310323
172.656448 143.775650 3.382882 0.258824
176.811813 131.596863 3.460715 0.492836
nan nan nan 0.000000
172.549759 144.088348 1.729423 0.258824
172.470123 144.321732 1.199803 0.258824
175.086945 136.652191 -0.000036 0.301289
172.824356 143.283524 -0.000025 0.273060
171.564224 146.976791 -0.000019 0.287968
170.759750 149.334625 -0.000015 0.306874
170.200607 150.973389 -0.000013 0.271321
169.788651 152.180771 -0.000011 0.282612
172.953934 142.511185 6.548495 0.258824
176.678757 131.339691 8.465280 0.209613
nan nan nan 0.000000
172.101013 145.069290 4.293581 0.247059
172.516983 143.821686 3.930060 0.258824
172.330582 144.380768 3.327327 0.258824
175.037750 136.261368 3.215725 0.206958
174.648834 137.427826 2.384831 0.228489
172.473053 143.953445 1.727732 0.546822
172.948364 142.527893 1.108790 0.258824
172.674805 143.348328 0.583436 0.258824
172.709351 143.244736 -0.000025 0.271595
171.475037 146.946716 -0.000019 0.274144
170.687027 149.310089 -0.000015 0.279515
170.139343 150.952728 -0.000012 0.246815
169.735825 152.162949 -0.000011 0.260884
172.197220 144.425293 6.033797 0.258824
172.512817 143.456253 5.698204 0.258824
nan nan nan 0.000000
172.001526 145.026184 4.295033 0.258824
172.302551 144.101868 3.891726 0.258824
172.985321 142.005463 3.529111 0.258824
nan nan nan 0.000000
nan nan nan 0.000000
172.979187 142.024307 1.695157 0.258824
172.944763 142.129959 1.090278 0.258824
174.763870 136.544464 -0.000036 0.296391
172.594086 143.206741 -0.000025 0.275593
171.385635 146.917252 -0.000019 0.308446
170.614151 149.286087 -0.000015 0.326833
170.077942 150.932495 -0.000013 0.285039
169.682892 152.145508 -0.000011 0.324361
172.647964 142.636734 6.494858 0.258824
172.447372 143.267593 5.732661 0.258824
nan nan nan 0.000000
nan nan nan 0.000000
172.224884 143.967285 3.903728 0.258824
176.227615 131.379196 4.439970 1.000000
174.199921 137.756058 3.133158 0.973693
172.752609 142.307663 2.299293 0.258824
nan nan nan 0.000000
179.547180 120.939575 -0.000059 0.292927
174.601761 136.492310 -0.000036 0.280476
172.478546 143.169571 -0.000025 0.303960
171.296036 146.888412 -0.000019 0.304494
170.541107 149.262573 -0.000015 0.273594
170.016403 150.912689 -0.000013 0.313542
169.629822 152.128433 -0.000011 0.294026
nan nan nan 0.000000
172.308044 143.309494 5.715008 0.258824
176.054138 131.237244 7.429731 0.553582
174.546265 136.096542 5.671762 0.280156
171.767899 145.050171 3.769120 0.258824
nan nan nan 0.000000
172.769653 141.821869 2.921539 0.258824
nan nan nan 0.000000
172.663864 142.162796 1.698881 0.258824
179.276016 120.854393 -0.000059 0.291951
174.439301 136.441269 -0.000035 0.277882
172.362747 143.133194 -0.000025 0.303395
171.206223 146.860199 -0.000019 0.287663
170.467896 149.239563 -0.000015 0.314626
169.954727 150.893326 -0.000013 0.270344
169.576645 152.111725 -0.000011 0.256855
nan nan nan 0.000000
nan nan nan 0.000000
175.845856 131.206299 7.424010 0.626703
174.373489 136.070862 5.667892 0.223651
171.782562 144.631119 3.815707 0.258824
nan nan nan 0.000000
172.659531 141.733673 2.924097 0.226474
172.435440 142.474060 2.295154 0.485069
173.622955 138.550598 1.637767 0.197818
179.004272 120.771103 -0.000059 0.293507
174.276489 136.391373 -0.000035 0.287999
172.246704 143.097626 -0.000025 0.317098
171.116226 146.832626 -0.000019 0.285801
170.394531 149.217087 -0.000015 0.267964
169.892914 150.874374 -0.000013 0.302388
169.523346 152.095383 -0.000011 0.310246
171.952698 143.665161 6.197510 0.258824
nan nan nan 0.000000
nan nan nan 0.000000
175.641235 131.164429 6.419069 0.205798
173.872375 137.159195 4.708135 0.683589
173.739975 137.607941 3.891862 0.268833
nan nan nan 0.000000
173.697952 137.750351 2.375131 0.216541
173.460556 138.554901 1.638595 0.288167
172.235321 142.707352 1.127702 0.365179
174.113327 136.342621 -0.000035 0.288624
172.130417 143.062866 -0.000025 0.284794
171.026047 146.805664 -0.000019 0.301991
170.320999 149.195114 -0.000015 0.321645
169.830978 150.855865 -0.000013 0.275669
169.469940 152.079422 -0.000011 0.316564
172.103088 142.718628 6.435680 0.258824
nan nan nan 0.000000
171.990494 143.110275 5.147973 0.480522
171.517181 144.756622 4.312215 0.258824
173.644836 137.355896 4.679090 0.275456
173.639862 137.373184 3.908046 0.290196
173.633224 137.396286 3.142010 0.235538
173.531647 137.749603 2.374382 0.237934
173.620941 137.439011 1.620329 0.234974
171.693954 144.141754 1.202796 0.257816
173.949829 136.294983 -0.000035 0.295583
172.013885 143.028931 -0.000025 0.275807
170.935669 146.779343 -0.000019 0.307897
170.247330 149.173645 -0.000015 0.269932
169.768906 150.837784 -0.000013 0.326497
169.416428 152.063828 -0.000011 0.265614
nan nan nan 0.000000
nan nan nan 0.000000
nan nan nan 0.000000
171.437790 144.636566 4.326133 0.258824
173.508484 137.239899 4.687646 0.237598
175.216904 131.137238 4.435248 0.329976
173.490692 137.303391 3.144489 0.256886
173.365967 137.748962 2.373652 0.256474
171.961319 142.766449 1.711610 0.258824
173.480484 137.339859 0.857371 0.565805
173.471024 137.373657 0.095769 0.535729
171.897125 142.995804 -0.000025 0.309178
170.845123 146.753662 -0.000019 0.269947
170.173508 149.152710 -0.000015 0.260731
169.706711 150.820145 -0.000013 0.317830
169.362793 152.048615 -0.000011 0.256046
nan nan nan 0.000000
nan nan nan 0.000000
nan nan nan 0.000000
nan nan nan 0.000000
175.022461 131.062149 5.419063 0.301961
171.779358 142.966309 3.425278 0.406165
171.775925 142.978943 2.853301 0.379034
171.773926 142.986267 2.284106 0.377127
171.772491 142.991547 1.715983 0.476097
171.771088 142.996674 1.147602 0.456840
171.769638 143.001984 0.577752 0.469520
171.754517 143.057510 0.011186 0.300649
170.754379 146.728592 -0.000019 0.300908
170.099533 149.132278 -0.000015 0.306325
169.644394 150.802933 -0.000013 0.251957
169.309067 152.033783 -0.000011 0.252399
171.653427 142.967773 6.345536 0.455039
172.127838 141.177216 6.146951 0.238834
171.668365 142.911438 5.167243 0.441794
171.661224 142.938354 4.577898 0.368734
171.655899 142.958466 3.996874 0.438972
171.652130 142.972702 3.422065 0.330755
171.650101 142.980347 2.851631 0.373648
171.648132 142.987778 2.283548 0.435294
171.646210 142.995026 1.716574 0.247059
171.644318 143.002197 1.149480 0.349432
171.642380 143.009506 0.581056 0.420066
171.629807 143.056931 0.014844 0.369177
170.663483 146.704163 -0.000019 0.269230
170.025436 149.112366 -0.000015 0.330068
169.581955 150.786148 -0.000013 0.300450
169.255234 152.019318 -0.000011 0.274281
nan nan nan 0.000000
172.003555 141.122314 6.151638 0.258824
nan nan nan 0.000000
171.211105 144.199905 4.379963 0.258824
174.609451 131.001999 5.413584 0.435248
171.475479 143.173187 3.402499 0.364019
171.534698 142.943176 2.851965 0.258824
171.893372 141.550232 2.307323 0.258824
172.136169 140.607269 1.676743 0.258824
173.022247 137.166107 0.854968 0.294118
173.292648 136.115952 -0.000035 0.291585
171.530884 142.958023 0.006712 0.366217
170.572403 146.680374 -0.000019 0.276417
169.951187 149.092972 -0.000015 0.313939
169.519409 150.769806 -0.000013 0.281437
169.201309 152.005234 -0.000011 0.246693
nan nan nan 0.000000
171.879120 141.066742 6.156663 0.256794
175.452133 126.778122 8.181820 0.298970
171.125458 144.080673 4.393983 0.258824
175.652344 125.977493 6.003361 0.425574
171.857651 141.152603 3.570796 0.258824
171.455521 142.760773 2.859693 0.258824
171.777573 141.472839 2.308084 0.258824
172.025070 140.483109 1.675221 0.304417
177.086685 120.241516 -0.000057 0.294820
173.127594 136.074081 -0.000034 0.296971
171.427841 142.871460 -0.000025 0.306386
170.481171 146.657227 -0.000019 0.300206
169.876801 149.074097 -0.000015 0.319615
169.456757 150.753906 -0.000013 0.321157
169.147278 151.991516 -0.000011 0.271946
nan nan nan 0.000000
171.340393 142.717148 5.782722 0.258824
175.205246 126.789780 8.169016 0.537530
175.229004 126.691872 7.044107 0.290196
174.197617 130.942291 5.408754 0.452049
175.812134 124.288742 4.990983 0.250233
171.393326 142.499023 2.871448 0.345937
171.317841 142.810059 2.285038 0.258824
171.748596 141.034912 1.685071 0.258824
176.810715 120.173538 -0.000058 0.291493
172.962250 136.033340 -0.000034 0.296925
171.309982 142.842438 -0.000025 0.321645
170.389771 146.634705 -0.000019 0.279744
169.802292 149.055740 -0.000015 0.319387
169.393982 150.738449 -0.000013 0.293080
169.093155 151.978180 -0.000011 0.325490
171.088242 143.254990 6.241384 0.258824
nan nan nan 0.000000
175.028885 126.505875 8.211802 0.220905
175.081757 126.281174 7.098284 0.561913
170.945541 143.861481 3.876258 0.258824
171.615784 141.012711 3.577267 0.258824
171.263123 142.511658 2.869358 0.410788
175.271133 125.476212 2.575957 0.269291
172.399673 137.680923 1.629213 0.201740
171.492096 141.538422 1.081525 0.258824
171.502762 141.493103 0.463199 0.258824
171.191940 142.814224 -0.000024 0.284230
170.298218 146.612823 -0.000019 0.303990
169.727661 149.037903 -0.000015 0.312642
169.331100 150.723419 -0.000013 0.258000
169.038940 151.965225 -0.000011 0.280217
nan nan nan 0.000000
171.183990 142.302902 5.862079 0.258824
171.203033 142.219360 5.269276 0.465354
174.822205 126.340179 7.081070 0.223896
174.778336 126.532700 5.917866 0.274418
170.756836 144.177078 3.308602 0.258824
171.165009 142.386215 2.874274 0.366873
172.271988 137.529343 2.372732 0.249470
172.355606 137.162445 1.621110 0.330144
176.257370 120.043350 -0.000057 0.291020
172.630722 135.955338 -0.000034 0.285008
171.073700 142.786835 -0.000025 0.273884
170.206512 146.591599 -0.000019 0.274327
169.652908 149.020599 -0.000015 0.267002
169.268127 150.708832 -0.000013 0.264240
168.984634 151.952652 -0.000011 0.286152
nan nan nan 0.000000
171.077621 142.205612 5.877557 0.258824
171.230194 141.513916 5.395610 0.258824
171.220108 141.559631 4.761256 0.258824
173.019638 133.401749 5.102519 0.262837
171.337830 141.025940 3.571145 0.258824
172.907272 133.911148 3.299269 0.558404
172.835342 134.237213 2.427316 0.242679
171.199402 141.653503 1.696961 0.253178
171.221130 141.554993 1.085277 0.258824
171.315475 141.127319 0.437368 0.258824
170.955261 142.760284 -0.000024 0.298497
170.114670 146.570999 -0.000019 0.339162
169.578018 149.003799 -0.000015 0.292393
169.205032 150.694687 -0.000013 0.289525
168.930237 151.940460 -0.000011 0.330266
170.804260 142.886429 6.315907 0.258824
nan nan nan 0.000000
170.988159 142.024200 5.295534 0.441764
174.345123 126.284225 7.073930 0.258412
170.804932 142.883270 3.982531 0.258824
170.451813 144.538986 3.274235 0.258824
172.738525 133.817139 3.302025 0.976715
172.771149 133.664215 2.436257 0.375891
172.708099 133.959793 1.568689 0.221500
173.558487 129.972595 0.504857 0.598321
172.298141 135.881973 -0.000035 0.299321
170.836655 142.734558 -0.000024 0.274357
170.022675 146.551041 -0.000019 0.286671
169.503036 148.987534 -0.000015 0.315740
169.141861 150.680984 -0.000013 0.297383
168.875763 151.928635 -0.000011 0.233265
nan nan nan 0.000000
170.376877 144.365021 5.389847 0.258824
nan nan nan 0.000000
nan nan nan 0.000000
170.687881 142.855194 3.982929 0.258824
170.304428 144.716705 3.257493 0.261738
170.557343 143.488876 2.815003 0.258824
173.263596 130.351059 2.490974 0.250660
172.616745 133.491241 1.561491 0.192157
171.006271 141.309509 1.075683 0.234562
171.121902 140.748169 0.410273 0.258824
170.717865 142.709656 -0.000024 0.268070
169.930557 146.531738 -0.000019 0.280797
169.427933 148.971786 -0.000015 0.288746
169.078583 150.667725 -0.000012 0.306264
168.821213 151.917206 -0.000011 0.311513
nan nan nan 0.000000
170.289566 144.242233 5.412099 0.264302
170.769745 141.825882 5.322859 0.255283
nan nan nan 0.000000
170.414322 143.614380 3.891086 0.225589
170.160736 144.890518 3.241188 0.255055
172.424408 133.499313 3.314205 0.228183
170.731628 142.017624 2.295637 0.258824
170.876663 141.287842 1.692188 0.258824
170.946198 140.937943 1.058378 0.258824
171.964569 135.813278 -0.000034 0.282628
170.598892 142.685577 -0.000024 0.296391
169.838287 146.513062 -0.000019 0.299947
169.352722 148.956573 -0.000015 0.280812
169.015228 150.654892 -0.000013 0.305959
168.766571 151.906143 -0.000011 0.312200
nan nan nan 0.000000
170.356522 143.306030 5.613327 0.258824
170.659103 141.725769 5.336884 0.320912
170.809784 140.938812 4.839179 0.258824
nan nan nan 0.000000
nan nan nan 0.000000
170.318329 143.505524 2.811912 0.258824
nan nan nan 0.000000
170.597748 142.046188 1.705242 0.258824
170.833344 140.815765 1.053548 0.258824
171.797440 135.780655 -0.000034 0.297871
170.479767 142.662338 -0.000024 0.292866
169.745911 146.495041 -0.000019 0.275547
169.277405 148.941879 -0.000015 0.315358
168.951767 150.642517 -0.000013 0.368475
168.711868 151.895477 -0.000011 0.254978
nan nan nan 0.000000
nan nan nan 0.000000
170.547577 141.624527 5.351242 0.258824
nan nan nan 0.000000
nan nan nan 0.000000
170.066101 144.237686 3.292304 0.299428
170.204376 143.487244 2.811761 0.258824
nan nan nan 0.000000
170.637894 141.134293 1.690455 0.258824
174.587219 119.699318 -0.000057 0.297795
170.818512 140.154022 0.367218 0.258824
170.360489 142.639938 -0.000024 0.289845
169.653397 146.477661 -0.000019 0.266041
169.201981 148.927704 -0.000015 0.299580
168.888229 150.630585 -0.000013 0.257908
168.657074 151.885178 -0.000011 0.312474
nan nan nan 0.000000
170.017960 143.878494 5.478481 0.258824
nan nan nan 0.000000
nan nan nan 0.000000
170.226440 142.700851 3.990387 0.258824
169.853287 144.808640 3.243132 0.258824
173.189697 125.962845 3.685044 0.306477
170.209763 142.795090 2.281555 0.301961
170.497162 141.171677 1.691466 0.258824
174.307526 119.648804 -0.000057 0.293690
170.713715 139.948456 0.352158 0.253956
170.241043 142.618347 -0.000024 0.324773
169.560760 146.460922 -0.000019 0.297612
169.126465 148.914063 -0.000015 0.259510
168.824615 150.619095 -0.000013 0.307286
168.602219 151.875275 -0.000011 0.254566
nan nan nan 0.000000
169.942108 143.653549 5.523550 0.258824
nan nan nan 0.000000
nan nan nan 0.000000
nan nan nan 0.000000
nan nan nan 0.000000
nan nan nan 0.000000
170.091934 142.771423 2.281608 0.258824
170.328522 141.378525 1.695273 0.258824
170.471634 140.535904 1.043176 0.258824
171.294724 135.689850 -0.000034 0.298955
170.121460 142.597610 -0.000024 0.302785
169.468018 146.444839 -0.000019 0.282506
169.050858 148.900955 -0.000015 0.285939
168.760925 150.608047 -0.000012 0.389105
168.547302 151.865753 -0.000010 0.333745
nan nan nan 0.000000
169.870438 143.384857 5.578258 0.258824
172.840332 125.127922 8.380204 0.246235
nan nan nan 0.000000
172.772781 125.543182 5.985448 0.322103
nan nan nan 0.000000
169.867096 143.405396 2.812891 0.258824
170.049698 142.282852 2.289381 0.319005
nan nan nan 0.000000
170.293121 140.786407 1.056755 0.258824
171.126740 135.661926 -0.000034 0.306386
170.001740 142.577698 -0.000024 0.301274
169.375168 146.429413 -0.000018 0.255756
168.975159 148.888367 -0.000015 0.310780
168.697144 150.597443 -0.000012 0.265034
168.492310 151.856598 -0.000011 0.279667
nan nan nan 0.000000
nan nan nan 0.000000
172.617767 124.965965 8.402945 0.330663
nan nan nan 0.000000
nan nan nan 0.000000
172.604187 125.053276 4.878128 0.472801
nan nan nan 0.000000
169.854340 142.735596 2.281562 0.258824
170.149902 140.835037 1.686964 0.251743
173.466400 119.508972 -0.000057 0.293889
170.176056 140.666870 0.417501 0.247059
169.881866 142.558640 -0.000024 0.304204
169.282211 146.414612 -0.000018 0.308934
168.899384 148.876312 -0.000015 0.321279
168.633301 150.587280 -0.000013 0.293324
168.437256 151.847855 -0.000010 0.380636
nan nan nan 0.000000
nan nan nan 0.000000
nan nan nan 0.000000
nan nan nan 0.000000
172.378464 124.905006 6.051023 0.347860
172.364944 124.996140 4.879814 0.524147
nan nan nan 0.000000
169.734131 142.727417 2.281399 0.258824
169.710098 142.889359 1.721280 0.258824
173.185410 119.466286 -0.000056 0.290715
170.790207 135.609589 -0.000034 0.300923
169.761871 142.540405 -0.000024 0.284108
169.189148 146.400467 -0.000019 0.299748
168.823517 148.864792 -0.000015 0.255955
168.569382 150.577576 -0.000012 0.279347
168.382156 151.839478 -0.000011 0.293553
nan nan nan 0.000000
nan nan nan 0.000000
nan nan nan 0.000000
nan nan nan 0.000000
172.135284 124.868896 6.051125 0.547768
nan nan nan 0.000000
172.112732 125.028549 3.722065 0.192157
169.583130 142.938034 2.277634 0.258824
nan nan nan 0.000000
172.904114 119.425552 -0.000056 0.293873
170.621674 135.585190 -0.000033 0.295247
169.641754 142.523010 -0.000024 0.297581
169.095993 146.386978 -0.000019 0.302235
168.747574 148.853790 -0.000015 0.332708
168.505402 150.568314 -0.000012 0.313634
168.326981 151.831482 -0.000011 0.248249
nan nan nan 0.000000
nan nan nan 0.000000
nan nan nan 0.000000
nan nan nan 0.000000
nan nan nan 0.000000
171.885666 124.880646 4.883695 0.306600
171.873489 124.971405 3.723244 0.299168
171.861404 125.061501 2.572517 0.395041
169.693680 141.222839 1.694314 0.256062
172.622559 119.386780 -0.000056 0.296208
170.452972 135.561966 -0.000033 0.299153
169.521515 142.506454 -0.000024 0.267994
169.002747 146.374146 -0.000019 0.288151
168.671555 148.843323 -0.000015 0.258396
168.441360 150.559494 -0.000013 0.251164
168.271759 151.823883 -0.000011 0.317952
nan nan nan 0.000000
nan nan nan 0.000000
nan nan nan 0.000000
nan nan nan 0.000000
171.648727 124.797455 6.051829 0.987045
171.645432 124.823425 4.885797 0.236667
169.210831 143.989044 2.779889 0.247059
171.622437 125.004425 2.572937 0.210300
169.353683 142.864517 1.721673 0.258824
172.340729 119.349983 -0.000056 0.294606
170.284119 135.539917 -0.000033 0.299275
169.401154 142.490753 -0.000024 0.310750
168.909409 146.361954 -0.000019 0.315633
168.595459 148.833389 -0.000015 0.364721
168.377258 150.551117 -0.000013 0.296590
168.216492 151.816666 -0.000010 0.345800
nan nan nan 0.000000
nan nan nan 0.000000
nan nan nan 0.000000
nan nan nan 0.000000
169.838730 137.823380 4.539086 0.197894
171.404831 124.766205 4.888035 0.192767
169.120087 143.814972 2.787830 0.258824
nan nan nan 0.000000
169.235046 142.856491 1.721781 0.258824
172.058640 119.315170 -0.000056 0.297963
170.115112 135.519043 -0.000033 0.287953
169.280701 142.475876 -0.000023 0.275364
168.815979 146.350418 -0.000018 0.292760
168.519302 148.823990 -0.000015 0.273945
168.313095 150.543198 -0.000012 0.246662
168.161179 151.809830 -0.000010 0.261463
nan nan nan 0.000000
nan nan nan 0.000000
nan nan nan 0.000000
nan nan nan 0.000000
169.690979 137.758652 4.544516 0.218585
171.163376 124.713104 4.890069 0.246571
169.027847 143.634018 2.796136 0.258824
nan nan nan 0.000000
169.116486 142.848694 1.721878 0.258824
171.776321 119.282288 -0.000056 0.293248
169.945969 135.499359 -0.000033 0.298955
169.160141 142.461838 -0.000024 0.291478
168.722488 146.339539 -0.000018 0.292866
168.443085 148.815109 -0.000015 0.322255
168.248886 150.535721 -0.000012 0.322255
168.105804 151.803391 -0.000010 0.293477
nan nan nan 0.000000
nan nan nan 0.000000
nan nan nan 0.000000
nan nan nan 0.000000
169.564346 137.487900 4.573896 0.252125
170.919739 124.677155 4.890830 0.259174
nan nan nan 0.000000
nan nan nan 0.000000
nan nan nan 0.000000
171.493790 119.251404 -0.000056 0.294347
169.776688 135.480850 -0.000033 0.299916
169.039490 142.448639 -0.000024 0.325277
168.628906 146.329315 -0.000018 0.299290
168.366791 148.806778 -0.000015 0.310872
168.184616 150.528702 -0.000012 0.259739
168.050385 151.797333 -0.000010 0.259922
nan nan nan 0.000000
nan nan nan 0.000000
nan nan nan 0.000000
nan nan nan 0.000000
169.393417 137.629318 4.555712 0.195102
170.675949 124.641319 4.891719 0.418143
170.369446 127.745277 3.579320 0.220890
169.927780 132.217941 2.452518 0.228992
170.374283 127.696259 1.473130 0.234409
171.211029 119.222519 -0.000055 0.284215
169.607285 135.463531 -0.000033 0.285939
168.918747 142.436295 -0.000023 0.297002
168.535278 146.319733 -0.000018 0.311894
168.290451 148.798965 -0.000015 0.335714
168.120300 150.522125 -0.000012 0.286549
167.994934 151.791656 -0.000010 0.261799
nan nan nan 0.000000
nan nan nan 0.000000
nan nan nan 0.000000
nan nan nan 0.000000
169.368622 136.201385 4.718973 0.236301
170.431931 124.606209 4.892688 0.238621
169.756561 131.970978 3.369805 0.960266
169.747559 132.069092 2.454663 0.259617
169.675552 132.854309 1.558240 0.279469
170.928101 119.195564 -0.000054 0.295705
169.437775 135.447388 -0.000033 0.306523
168.797928 142.424789 -0.000024 0.318318
168.441574 146.310806 -0.000018 0.321981
168.214066 148.791687 -0.000014 0.272465
168.055939 150.515991 -0.000012 0.313283
167.939453 151.786377 -0.000010 0.386633
nan nan nan 0.000000
nan nan nan 0.000000
169.128036 137.087204 6.136106 0.224979
169.185349 136.410248 5.472652 0.256123
nan nan nan 0.000000
169.204819 136.180252 3.938494 0.238163
169.553207 132.065369 3.364309 0.301381
169.540314 132.217758 2.451942 0.267308
169.486053 132.858582 1.558582 0.181521
169.587509 131.660263 0.615719 0.574136
169.268127 135.432434 -0.000033 0.299489
168.677017 142.414139 -0.000023 0.281529
168.347809 146.302551 -0.000018 0.295048
168.137619 148.784958 -0.000014 0.271580
167.991547 150.510315 -0.000012 0.315984
167.883926 151.781479 -0.000010 0.269703
nan nan nan 0.000000
168.904282 137.919128 6.726500 0.263401
nan nan nan 0.000000
nan nan nan 0.000000
nan nan nan 0.000000
169.379547 131.797546 4.297840 0.323583
169.373993 131.869034 3.373210 0.309804
169.346924 132.217697 2.451687 0.253773
169.296844 132.862885 1.558903 0.256123
169.695999 127.721733 0.422433 0.282963
169.098404 135.418655 -0.000033 0.287877
168.556046 142.404327 -0.000023 0.302953
168.253983 146.294937 -0.000018 0.294469
168.061142 148.778748 -0.000014 0.273808
167.927109 150.505081 -0.000012 0.295872
167.828369 151.776978 -0.000010 0.276982
nan nan nan 0.000000
168.773697 137.599289 6.793304 0.281102
168.784363 137.448349 6.065750 0.203922
168.846832 136.563705 5.446068 0.476127
168.853256 136.472778 4.683057 0.263737
168.822937 136.901962 3.877070 0.242237
168.855713 136.438049 3.147480 0.306249
169.196930 131.606201 2.461485 0.228153
169.193832 131.650055 1.539235 0.258656
170.078232 119.126587 -0.000054 0.298802
168.928589 135.406067 -0.000032 0.313497
168.434998 142.395340 -0.000023 0.293736
168.160110 146.287964 -0.000018 0.255131
167.984619 148.773071 -0.000015 0.250065
167.862640 150.500305 -0.000012 0.288380
167.772766 151.772842 -0.000010 0.335607
168.637207 137.304428 7.630547 0.230579
168.609558 137.738953 6.760835 0.262791
168.612656 137.690445 6.019706 0.271107
168.678619 136.653198 5.431152 0.545708
168.699020 136.332504 4.697968 0.204181
168.563629 138.461136 3.748088 0.250828
168.706726 136.211380 3.158100 0.395315
nan nan nan 0.000000
nan nan nan 0.000000
169.794647 119.107574 -0.000055 0.293935
168.758682 135.394669 -0.000033 0.294347
168.313904 142.387207 -0.000023 0.306813
168.066193 146.281677 -0.000018 0.311223
167.908051 148.767929 -0.000014 0.267994
167.798126 150.495972 -0.000012 0.305303
167.717148 151.769119 -0.000011 0.282078
nan nan nan 0.000000
168.447754 137.874664 6.729478 0.290196
168.533646 136.357162 6.261006 0.290196
168.472305 137.440750 5.312705 0.608454
168.526474 136.483734 4.679413 0.361471
168.410294 138.536469 3.741168 0.251774
nan nan nan 0.000000
nan nan nan 0.000000
169.008469 127.967850 1.479292 0.461540
169.510941 119.090515 -0.000054 0.292729
168.588699 135.384460 -0.000032 0.303304
168.192749 142.379944 -0.000023 0.284794
167.972229 146.276016 -0.000018 0.275288
167.831451 148.763336 -0.000014 0.267872
167.733597 150.492096 -0.000012 0.287068
167.661514 151.765778 -0.000010 0.283421
nan nan nan 0.000000
168.287964 138.010147 6.698428 0.246723
168.405212 135.646103 6.388967 0.249165
168.319092 137.382538 5.320122 0.580392
nan nan nan 0.000000
168.258148 138.611206 3.734386 0.235294
nan nan nan 0.000000
nan nan nan 0.000000
168.582367 132.074554 1.546769 0.281361
169.227112 119.075447 -0.000054 0.286351
168.418640 135.375427 -0.000032 0.313405
168.071548 142.373505 -0.000023 0.304662
167.878235 146.271027 -0.000018 0.275547
167.754822 148.759262 -0.000014 0.313283
167.669037 150.488663 -0.000012 0.261814
167.605850 151.762817 -0.000010 0.319158
168.138901 137.941238 7.464633 0.282048
168.153992 137.586792 6.788435 0.225559
168.162582 137.385071 6.070851 0.206928
168.159851 137.449402 5.309125 0.259632
168.132202 138.098419 4.491635 0.256764
168.126465 138.232880 3.764878 0.688075
168.189423 136.755051 3.130079 0.311391
nan nan nan 0.000000
168.390381 132.038055 1.546317 0.908675
168.693787 124.916504 0.287802 0.258824
168.248535 135.367584 -0.000032 0.291463
167.950302 142.367920 -0.000023 0.282628
167.784210 146.266693 -0.000018 0.317327
167.678162 148.755722 -0.000014 0.325277
167.604462 150.485687 -0.000012 0.320165
167.550171 151.760254 -0.000010 0.349508
167.997559 137.630432 7.541044 0.301961
168.004303 137.441345 6.818561 0.290196
168.008713 137.317261 6.082088 0.203922
nan nan nan 0.000000
nan nan nan 0.000000
167.999573 137.573944 3.818459 0.546014
168.029877 136.723175 3.131338 0.290196
168.348312 127.780891 2.523267 0.290196
168.499939 123.522934 1.407012 0.258824
168.457565 124.713097 0.278270 0.258824
168.078384 135.360931 -0.000032 0.302708
167.829025 142.363174 -0.000022 0.279667
167.690155 146.263016 -0.000018 0.292622
167.601486 148.752731 -0.000014 0.286061
167.539871 150.483170 -0.000012 0.257130
167.494461 151.758072 -0.000010 0.232761
167.842926 137.635208 7.538605 0.223529
167.845825 137.534286 6.797400 0.258991
167.851959 137.319717 6.080726 0.191791
167.865982 136.829803 5.399427 0.568505
167.858521 137.090347 4.606413 0.554177
167.842773 137.640732 3.812573 0.218494
167.856979 137.144196 3.110392 0.240513
167.835281 137.902313 2.357455 0.230610
nan nan nan 0.000000
168.218704 124.506577 0.268507 0.258824
167.908188 135.355469 -0.000032 0.293843
167.707718 142.359283 -0.000022 0.289677
167.596069 146.259995 -0.000017 0.276112
167.524796 148.750275 -0.000014 0.252857
167.475250 150.481094 -0.000012 0.253834
167.438751 151.756287 -0.000010 0.320897
167.689056 137.610443 7.543838 0.508980
167.693726 137.394943 6.826660 0.314000
nan nan nan 0.000000
167.712524 136.526398 5.443847 0.220432
nan nan nan 0.000000
167.687988 137.660110 3.810667 0.262135
167.700043 137.102844 3.112229 0.538354
nan nan nan 0.000000
nan nan nan 0.000000
168.090973 119.035011 -0.000053 0.298466
167.737946 135.351196 -0.000032 0.290410
167.586380 142.356232 -0.000023 0.303136
167.501968 146.257629 -0.000017 0.256901
167.448074 148.748337 -0.000014 0.313878
167.410629 150.479462 -0.000012 0.277882
167.383026 151.754883 -0.000010 0.266041
167.533203 137.701813 7.520244 0.260761
167.537109 137.435272 6.817339 0.226459
167.540619 137.195648 6.102070 0.218662
167.550278 136.535950 5.441996 0.257298
167.537323 137.420593 4.567629 0.238804
167.539856 137.246948 3.844318 0.216083
167.542267 137.082977 3.113065 0.201755
167.542282 137.081787 2.370776 0.549874
167.543076 137.027954 1.628343 0.559442
167.542877 137.041733 0.884909 0.554788
167.542099 137.094498 0.143180 0.548379
167.465027 142.354019 -0.000023 0.264652
167.407852 146.255936 -0.000017 0.260243
167.371353 148.746948 -0.000014 0.237293
167.345993 150.478302 -0.000011 0.295811
167.327301 151.753876 -0.000010 0.260639
167.378693 137.786285 7.498654 0.231891
nan nan nan 0.000000
167.395126 135.643341 6.384211 0.225330
167.385376 136.914597 5.385558 0.233616
167.380417 137.560394 4.551346 0.251133
167.387772 136.603241 3.896957 0.537591
167.469147 125.993317 3.657794 0.258824
nan nan nan 0.000000
167.382248 137.322266 1.633188 0.164858
167.384399 137.041534 0.884985 0.559167
167.383972 137.097107 0.143538 0.574258
167.343658 142.352676 -0.000022 0.298024
167.313736 146.254883 -0.000017 0.266758
167.294617 148.746094 -0.000014 0.324285
167.281342 150.477570 -0.000011 0.259434
167.271561 151.753250 -0.000010 0.333806
167.225937 137.060638 7.680260 1.000000
nan nan nan 0.000000
nan nan nan 0.000000
167.226563 136.159836 5.497418 0.792966
167.234375 124.825661 6.016284 0.258824
167.226364 136.444885 3.909886 0.244480
167.234482 124.660469 3.723225 0.408270
167.226105 136.817276 2.375065 0.194003
167.234406 124.778023 1.427926 0.258824
167.238373 119.025497 -0.000053 0.291310
167.227127 135.345490 -0.000032 0.287053
167.222290 142.352173 -0.000022 0.300328
167.219604 146.254486 -0.000017 0.271717
167.217880 148.745773 -0.000014 0.270512
167.216690 150.477310 -0.000011 0.293751
167.215820 151.753021 -0.000010 0.278172
167.067337 137.015213 7.691750 1.000000
nan nan nan 0.000000
nan nan nan 0.000000
167.073090 137.929596 5.234963 0.174090
166.991928 125.031258 5.992711 0.258824
167.068192 137.150528 3.852063 0.276280
166.993225 125.236099 3.694979 0.179965
167.070099 137.455109 2.364634 0.274876
nan nan nan 0.000000
166.954147 119.026321 -0.000051 0.294133
167.056839 135.345978 -0.000031 0.302068
167.100922 142.352509 -0.000022 0.306950
167.125473 146.254745 -0.000017 0.346014
167.141144 148.745987 -0.000014 0.304936
167.152039 150.477493 -0.000011 0.301411
167.160080 151.753174 -0.000010 0.282536
nan nan nan 0.000000
nan nan nan 0.000000
nan nan nan 0.000000
166.918121 137.725143 5.265513 0.262898
166.736389 124.034927 6.107614 0.273594
166.903412 136.617676 3.895885 1.000000
166.905579 136.780121 3.127923 0.230259
166.905045 136.740433 2.376356 0.286473
166.755539 125.476913 1.439313 0.258824
166.669937 119.029114 -0.000051 0.282048
166.886551 135.347641 -0.000031 0.286961
166.979553 142.353699 -0.000022 0.262425
167.031357 146.255676 -0.000017 0.308019
167.064423 148.746735 -0.000014 0.299199
167.087402 150.478119 -0.000011 0.305638
167.104340 151.753723 -0.000010 0.333791
nan nan nan 0.000000
nan nan nan 0.000000
nan nan nan 0.000000
166.598633 129.542145 6.479977 0.247791
166.743942 136.715286 4.649036 0.220340
166.755890 137.304855 3.839749 0.227543
166.744354 136.735947 3.130226 0.423407
nan nan nan 0.000000
nan nan nan 0.000000
166.385757 119.033875 -0.000052 0.294133
166.716293 135.350494 -0.000031 0.285176
166.858200 142.355728 -0.000022 0.304067
166.937241 146.257248 -0.000017 0.314275
166.987686 148.748032 -0.000014 0.248219
167.022766 150.479202 -0.000011 0.250660
167.048599 151.754654 -0.000010 0.295735
nan nan nan 0.000000
nan nan nan 0.000000
nan nan nan 0.000000
166.220108 123.389816 7.393671 0.258824
166.581909 136.670853 4.654589 0.266789
166.596359 137.201080 3.848566 0.253620
166.598694 137.286926 3.103335 0.326680
166.230301 123.764397 2.588879 0.428260
166.230591 123.774750 1.411290 0.341268
166.231415 123.805122 0.234100 0.363531
166.546051 135.354553 -0.000031 0.295369
166.736862 142.358612 -0.000022 0.268589
166.843140 146.259491 -0.000017 0.253376
166.910980 148.749847 -0.000014 0.267750
166.958130 150.480743 -0.000011 0.268132
166.992874 151.755981 -0.000010 0.240406
nan nan nan 0.000000
nan nan nan 0.000000
166.182281 129.705139 7.467774 0.233738
166.175888 129.518524 6.485187 0.258824
166.204346 130.349792 5.382763 0.245014
166.147781 128.697311 4.546640 0.288029
166.442474 137.306427 3.102612 0.206989
165.980927 123.822998 2.588047 0.258824
nan nan nan 0.000000
165.817520 119.049362 -0.000051 0.294545
166.375839 135.359772 -0.000031 0.292454
166.615540 142.362350 -0.000022 0.275700
166.749054 146.262375 -0.000017 0.301381
166.834274 148.752197 -0.000013 0.274861
166.893509 150.482727 -0.000011 0.325856
166.937164 151.757690 -0.000010 0.272847
nan nan nan 0.000000
nan nan nan 0.000000
165.966370 129.561005 7.495463 0.252781
166.171387 134.534393 5.741703 0.272236
165.984863 130.009415 5.422845 0.998703
166.250778 136.460373 3.910236 0.636332
166.286453 137.325851 3.101949 0.280232
nan nan nan 0.000000
nan nan nan 0.000000
165.533508 119.060074 -0.000051 0.296468
166.205673 135.366196 -0.000031 0.287144
166.494263 142.366913 -0.000022 0.287663
166.654984 146.265930 -0.000016 0.249821
166.757599 148.755096 -0.000013 0.320394
166.828918 150.485168 -0.000011 0.265248
166.881454 151.759796 -0.000010 0.267750
nan nan nan 0.000000
166.016098 134.970322 7.355413 0.228916
nan nan nan 0.000000
166.090256 136.508286 5.449731 0.285664
166.030121 135.261078 4.819057 0.264622
nan nan nan 0.000000
166.089081 136.483704 3.143713 0.233783
166.092072 136.545868 2.379947 0.301366
165.479050 123.832008 1.411763 0.258824
165.249573 119.072784 -0.000051 0.291585
166.035568 135.373810 -0.000031 0.304067
166.373016 142.372345 -0.000022 0.311101
166.560959 146.270126 -0.000016 0.302632
166.680939 148.758530 -0.000013 0.314687
166.764328 150.488052 -0.000011 0.260716
166.825775 151.762283 -0.000010 0.240162
nan nan nan 0.000000
165.872528 135.510040 7.240602 0.326848
165.876236 135.577026 6.402843 0.512016
165.880753 135.658768 5.577184 0.346777
165.889282 135.813370 4.756443 0.576822
165.595230 130.487900 4.401984 0.260487
165.924118 136.444122 3.146074 0.169879
165.927551 136.506454 2.380730 0.323751
nan nan nan 0.000000
164.965729 119.087463 -0.000051 0.294194
165.865494 135.382599 -0.000031 0.284916
166.251801 142.378616 -0.000021 0.293156
166.466949 146.274994 -0.000017 0.304006
166.604294 148.762497 -0.000013 0.293324
166.699768 150.491394 -0.000011 0.253956
166.770096 151.765167 -0.000009 0.339452
165.733582 136.004410 7.956327 0.409827
165.735474 136.034805 7.129194 0.258824
165.739456 136.098801 6.309525 0.550683
165.745224 136.191498 5.499475 0.196872
165.329651 129.512848 5.483791 0.568643
165.754517 136.341064 3.922109 0.547860
165.758438 136.403992 3.148519 0.192157
165.009995 124.375504 2.579780 0.258824
164.809586 121.154633 1.367412 0.258824
164.681992 119.104126 -0.000051 0.283787
165.695511 135.392578 -0.000030 0.287984
166.130630 142.385727 -0.000021 0.269123
166.372986 146.280518 -0.000017 0.276783
166.527695 148.766983 -0.000013 0.305806
166.635223 150.495178 -0.000011 0.242252
166.714447 151.768433 -0.000009 0.322576
165.601456 136.499634 7.834716 0.242283
165.604065 136.537460 7.022725 0.274266
165.608322 136.598923 6.220285 0.537774
165.225815 131.074020 6.262005 0.235462
165.624817 136.837006 4.640796 0.220798
165.587677 136.300552 3.926321 0.689662
165.117737 129.512878 3.488394 0.562219
164.759293 124.335754 2.580698 0.190066
nan nan nan 0.000000
164.398376 119.122780 -0.000050 0.295415
165.525589 135.403763 -0.000030 0.287266
166.009521 142.393692 -0.000021 0.282719
166.279053 146.286682 -0.000016 0.315145
166.451126 148.772018 -0.000013 0.262348
166.570724 150.499420 -0.000011 0.268910
166.658829 151.772095 -0.000009 0.243503
165.407028 136.088760 7.940897 0.160784
nan nan nan 0.000000
164.942581 129.997681 7.427053 0.229465
165.021591 131.033981 6.270127 0.271397
165.415176 136.195587 4.716141 0.505882
165.420120 136.260422 3.930600 0.396490
nan nan nan 0.000000
164.902435 129.471375 2.496711 0.534417
164.898788 129.423477 1.502504 0.557519
164.901749 129.462341 0.508359 0.537026
165.355743 135.416107 -0.000030 0.283009
165.888474 142.402496 -0.000022 0.303380
166.185181 146.293518 -0.000016 0.280461
166.374588 148.777588 -0.000013 0.274952
166.506241 150.504105 -0.000011 0.247013
166.603241 151.776138 -0.000009 0.276967
nan nan nan 0.000000
nan nan nan 0.000000
165.237198 136.044434 6.326024 0.496483
165.240891 136.088913 5.520080 0.696590
165.246368 136.154572 4.722388 0.622400
165.251770 136.219589 3.935034 0.202686
164.609741 128.510132 3.539412 0.235294
164.251160 124.204178 2.583477 0.258824
nan nan nan 0.000000
164.683884 129.400375 0.504473 0.515114
165.185989 135.429657 -0.000030 0.271916
165.767487 142.412155 -0.000021 0.284764
166.091339 146.300995 -0.000016 0.350011
166.298096 148.783691 -0.000013 0.337606
166.441803 150.509247 -0.000011 0.302632
166.547668 151.780563 -0.000009 0.250080
nan nan nan 0.000000
165.069244 136.030075 7.141151 0.493431
nan nan nan 0.000000
165.070892 136.048431 5.528242 0.160784
165.076828 136.114120 4.728713 0.171283
165.082703 136.179199 3.939532 0.206088
164.441788 129.082428 3.512116 0.390097
163.994751 124.132614 2.585007 0.258824
nan nan nan 0.000000
163.548431 119.190590 -0.000049 0.297658
165.016342 135.444382 -0.000030 0.279774
165.646576 142.422638 -0.000021 0.282383
165.997574 146.309143 -0.000016 0.250477
166.221649 148.790329 -0.000013 0.271824
166.377396 150.514847 -0.000011 0.256107
166.492142 151.785385 -0.000009 0.268559
164.900696 136.013870 7.970555 0.251087
164.355499 130.413727 8.363272 0.303532
164.327866 130.129868 7.412762 0.235431
164.900024 136.007034 5.536724 0.551614
164.906433 136.072830 4.735272 0.782971
164.912781 136.138062 3.944191 0.659190
164.275223 129.589188 3.488093 0.504845
164.925323 136.266876 2.385888 0.582574
nan nan nan 0.000000
163.265457 119.217148 -0.000049 0.294850
164.846802 135.460297 -0.000030 0.284550
165.525726 142.433990 -0.000021 0.285664
165.903854 146.317932 -0.000016 0.290517
166.145248 148.797501 -0.000013 0.261524
166.313034 150.520889 -0.000010 0.259937
166.436646 151.790588 -0.000009 0.393683
nan nan nan 0.000000
164.159882 130.520920 8.344477 0.265202
164.728851 135.970398 6.348079 0.247898
164.728333 135.965515 5.545408 0.196201
164.735214 136.031403 4.741991 0.904936
164.742111 136.097412 3.948913 0.486854
nan nan nan 0.000000
nan nan nan 0.000000
nan nan nan 0.000000
162.982666 119.245674 -0.000049 0.288243
164.677368 135.477386 -0.000030 0.275608
165.404968 142.446167 -0.000020 0.297353
165.810196 146.327377 -0.000016 0.281651
166.068893 148.805191 -0.000013 0.289982
166.248703 150.527374 -0.000011 0.309728
166.381180 151.796188 -0.000009 0.274891
nan nan nan 0.000000
nan nan nan 0.000000
164.558258 135.945862 6.355846 0.300267
164.557114 135.935623 5.552543 0.451164
164.563171 135.989975 4.748853 0.435004
nan nan nan 0.000000
163.708618 128.323776 3.552815 0.224781
nan nan nan 0.000000
nan nan nan 0.000000
162.700073 119.276184 -0.000048 0.287449
164.508072 135.495667 -0.000029 0.297795
165.284302 142.459198 -0.000021 0.295445
165.716614 146.337494 -0.000015 0.309041
165.992599 148.813431 -0.000013 0.258335
166.184433 150.534302 -0.000010 0.258274
166.325760 151.802170 -0.000009 0.317494
nan nan nan 0.000000
nan nan nan 0.000000
