# This PCD file was generated using the MATLABÂ® pcwrite function
# from Computer Vision ToolboxÂ®.
# .PCD v.7 - Point Cloud Data file format
VERSION .7
FIELDS x y z intensity
SIZE 4 4 4 4
TYPE F F F F
COUNT 1 1 1 1
WIDTH 1289
HEIGHT 1
VIEWPOINT 0 0 0 1 0 0 0
POINTS 1289
DATA ascii
198.941010 157.219757 -0.000008 0.302632
199.806778 155.720215 -0.000006 0.314900
200.444626 154.615417 -0.000006 0.345815
194.556854 165.092636 7.010334 0.192996
194.857513 164.563385 6.188635 0.223529
nan nan nan 0.000000
194.717422 164.809967 4.918849 0.494423
194.793381 164.676254 4.245998 0.224002
191.154999 171.080963 4.204813 0.206271
194.727478 164.792267 2.965683 0.307713
194.701553 164.837906 2.322523 0.248890
198.759781 157.694122 1.811923 0.258824
198.252579 158.586975 1.384919 0.258824
192.388718 168.909241 -0.000016 0.291264
195.849564 162.817047 -0.000011 0.271534
197.777054 159.424042 -0.000009 0.334737
199.007599 157.257889 -0.000007 0.245457
199.862869 155.752350 -0.000006 0.258778
200.492996 154.643127 -0.000006 0.324315
nan nan nan 0.000000
nan nan nan 0.000000
194.968048 164.643112 5.531567 0.247517
nan nan nan 0.000000
194.644379 165.222260 4.309137 0.329076
194.891510 164.780060 3.604301 0.514916
194.866058 164.825577 2.963766 0.566674
191.612030 170.647980 2.430174 0.208270
198.725311 157.920273 1.808422 0.258824
198.606522 158.132828 1.412892 0.321630
192.537079 168.992828 -0.000016 0.279881
195.955292 162.876633 -0.000011 0.271244
197.859070 159.470245 -0.000009 0.267628
199.074448 157.295563 -0.000007 0.313024
199.919189 155.784088 -0.000007 0.260243
200.541565 154.670486 -0.000005 0.267796
nan nan nan 0.000000
nan nan nan 0.000000
nan nan nan 0.000000
195.581436 163.808609 4.726657 0.287251
194.495270 165.784348 4.374009 0.261769
198.296661 158.869644 3.045072 0.258824
195.004089 164.858810 2.961906 0.818784
191.312881 171.573090 2.445787 0.227329
198.777954 157.994171 1.807782 0.258824
198.660110 158.208542 1.410916 0.258824
192.686005 169.075394 -0.000016 0.280095
196.061447 162.935471 -0.000011 0.301274
197.941391 159.515884 -0.000009 0.298222
199.141571 157.332764 -0.000008 0.284520
199.975739 155.815430 -0.000006 0.276631
200.590317 154.697510 -0.000006 0.294728
nan nan nan 0.000000
nan nan nan 0.000000
nan nan nan 0.000000
195.619125 164.008728 4.750043 0.247059
195.190872 164.800781 4.236358 0.525979
195.246857 164.697235 3.584313 0.302480
195.141602 164.891891 2.960099 0.090974
191.319870 171.960022 2.451292 0.250416
191.739182 171.184525 1.563135 0.346807
198.516235 158.650635 1.388463 0.258824
192.835510 169.156906 -0.000016 0.296223
196.168015 162.993576 -0.000012 0.263722
198.024033 159.560944 -0.000009 0.303014
199.208939 157.369507 -0.000007 0.257710
200.032501 155.846375 -0.000007 0.352743
200.639252 154.724197 -0.000005 0.336248
nan nan nan 0.000000
nan nan nan 0.000000
nan nan nan 0.000000
189.968292 174.912094 6.571543 0.236210
189.515823 175.763062 5.656297 0.240513
198.406708 159.041718 3.053192 0.258824
198.792343 158.316467 2.590659 0.300008
191.664474 171.722046 2.445195 0.290196
198.637802 158.607101 1.797868 0.258824
198.779785 158.340057 1.408028 0.258824
192.985596 169.237381 -0.000016 0.297032
196.274979 163.050934 -0.000012 0.313268
198.106995 159.605423 -0.000009 0.326513
199.276566 157.405762 -0.000007 0.313817
200.089478 155.876923 -0.000006 0.311711
200.688385 154.750534 -0.000005 0.301503
nan nan nan 0.000000
nan nan nan 0.000000
189.034439 177.162781 8.049188 0.215045
190.204544 174.924561 6.556835 0.253498
198.664551 158.742096 3.433320 0.258824
198.638535 158.791840 3.026202 0.258824
198.854385 158.378952 2.591953 0.258824
198.922607 158.248474 2.194767 0.257816
198.786484 158.508850 1.800425 0.258824
189.444916 176.377625 0.410288 0.549859
193.136215 169.316803 -0.000017 0.281682
196.382339 163.107544 -0.000012 0.286870
198.190247 159.649323 -0.000009 0.277928
199.344452 157.441559 -0.000008 0.252567
200.146652 155.907074 -0.000006 0.310384
200.737686 154.776535 -0.000005 0.295766
nan nan nan 0.000000
nan nan nan 0.000000
189.767166 176.244812 7.839540 0.272557
190.218185 175.367218 6.614199 0.370596
198.748383 158.769241 3.431654 0.258824
198.559143 159.137451 3.054358 0.242313
198.916519 158.442093 2.593302 0.258824
198.918991 158.437286 2.197538 0.258824
198.993805 158.291718 1.805141 0.258824
198.845108 158.581024 1.399024 0.376745
193.287399 169.395172 -0.000017 0.296361
196.490097 163.163391 -0.000012 0.302571
198.273819 159.692642 -0.000009 0.286793
199.412582 157.476868 -0.000008 0.332769
200.204056 155.936813 -0.000006 0.278050
200.787170 154.802185 -0.000006 0.321767
nan nan nan 0.000000
nan nan nan 0.000000
nan nan nan 0.000000
195.664978 165.066055 4.885898 0.611765
195.950043 164.501709 4.165400 0.609552
198.833298 158.793854 3.019049 0.258824
198.727753 159.002777 2.622055 0.258824
199.068954 158.327316 2.194820 0.258824
199.055511 158.353928 1.804692 0.266636
199.185944 158.095703 1.427870 0.258824
193.439133 169.472473 -0.000017 0.294713
196.598236 163.218491 -0.000012 0.312352
198.357697 159.735382 -0.000010 0.289082
199.480942 157.511703 -0.000008 0.319509
200.261658 155.966171 -0.000006 0.249409
200.836838 154.827499 -0.000006 0.260471
nan nan nan 0.000000
196.323746 164.044418 5.940902 0.262638
189.787033 177.212555 7.995088 0.261753
195.798477 165.102570 4.881874 0.349813
198.915390 158.823593 3.428572 0.258824
198.981873 158.689651 3.005955 0.258824
199.041992 158.568542 2.596067 0.258824
199.214905 158.220230 2.192184 0.258824
nan nan nan 0.000000
199.174942 158.300735 1.418621 0.258824
199.057373 158.537582 1.007966 0.352941
196.706772 163.272842 -0.000012 0.281819
198.441864 159.777527 -0.000009 0.305547
199.549561 157.546066 -0.000008 0.368933
200.319458 155.995117 -0.000006 0.295369
200.886688 154.852448 -0.000006 0.267414
nan nan nan 0.000000
196.393036 164.192947 5.963077 0.216632
190.112640 177.069672 7.945603 0.254292
nan nan nan 0.000000
190.241257 176.805954 5.725318 0.930785
196.234344 164.518326 3.534244 0.204395
195.926392 165.149704 2.953740 0.376135
199.139694 158.561462 2.197737 0.247059
nan nan nan 0.000000
199.036041 158.774002 1.394747 0.450980
199.183136 158.472397 1.017315 0.258824
196.815674 163.326431 -0.000012 0.287907
198.526321 159.819077 -0.000009 0.289784
199.618408 157.579941 -0.000008 0.300526
200.377472 156.023651 -0.000006 0.295827
200.936691 154.877060 -0.000006 0.332250
nan nan nan 0.000000
196.463196 164.342987 5.985659 0.600000
nan nan nan 0.000000
190.194031 177.427734 6.889594 1.000000
199.129578 158.777802 3.413037 0.258824
199.084579 158.871735 3.015682 0.258824
196.059250 165.186096 2.952509 0.921813
199.195770 158.639679 2.198490 0.258824
199.190460 158.650742 1.801309 0.258824
199.156219 158.722198 1.399608 0.357855
193.897491 169.698013 -0.000016 0.287953
196.924942 163.379242 -0.000012 0.318196
198.611053 159.860046 -0.000009 0.289021
199.687500 157.613342 -0.000008 0.263386
200.435669 156.051804 -0.000006 0.328420
200.986877 154.901321 -0.000006 0.236469
nan nan nan 0.000000
196.534790 164.493408 6.008374 0.290196
196.214478 165.174133 5.513825 0.278950
190.519836 177.275848 6.848511 0.265507
199.190674 158.849396 3.417461 0.258824
199.679337 157.810913 2.916189 0.258824
199.492538 158.207886 2.570481 0.258824
198.816437 159.644684 2.216009 0.290196
198.805313 159.668304 1.783564 0.258824
198.952774 159.354935 1.367241 0.258824
194.051331 169.771057 -0.000016 0.289723
197.034576 163.431320 -0.000012 0.299214
198.696091 159.900421 -0.000010 0.285176
199.756821 157.646255 -0.000008 0.338613
200.494064 156.079529 -0.000007 0.320546
201.037231 154.925232 -0.000006 0.290318
197.071960 163.639786 6.398150 0.264958
nan nan nan 0.000000
197.210678 163.339569 5.134681 0.237919
199.350006 158.709641 3.798927 0.258824
199.588959 158.192474 3.329605 0.258824
199.456207 158.479767 2.973626 0.258824
199.494354 158.397217 2.578873 0.258824
196.103302 165.736130 2.325114 0.270283
199.227890 158.973907 1.796785 0.258824
199.183258 159.070496 1.384691 0.258824
199.415283 158.568359 1.018371 0.218387
197.144577 163.482605 -0.000012 0.314382
199.279266 158.862732 0.176057 0.390936
199.826370 157.678680 -0.000008 0.307500
200.552658 156.106842 -0.000007 0.248447
201.087753 154.948792 -0.000006 0.310399
197.053528 163.977112 6.476899 0.275013
nan nan nan 0.000000
196.605621 164.964523 5.449347 0.309026
199.333878 158.950119 3.832358 0.370977
199.365829 158.879700 3.412174 0.258824
199.530777 158.516068 2.973787 0.258824
199.390381 158.825577 2.600133 0.569604
199.352341 158.909424 2.201408 0.436042
199.394333 158.816849 1.800255 0.258824
199.358566 158.895691 1.396084 0.364691
199.361343 158.889572 0.992583 0.338506
199.364243 158.883194 0.587384 0.419608
199.371964 158.866180 0.181314 0.396292
199.896133 157.710632 -0.000008 0.263218
200.611435 156.133759 -0.000007 0.318166
201.138443 154.972000 -0.000006 0.256275
196.455963 165.626053 6.915000 0.279988
196.985016 164.437775 5.956964 0.279774
199.403748 159.005234 4.251595 0.234562
197.227875 163.892303 4.629100 0.255421
199.427795 158.951202 3.416754 0.258824
199.606049 158.550858 2.973860 0.258824
196.615860 165.266907 2.944643 0.540017
199.392166 159.031219 2.202959 0.258824
199.419205 158.970490 1.798129 0.352972
199.314133 159.206512 1.381261 0.422980
199.339737 159.149002 0.972454 0.258824
197.365646 163.582886 -0.000012 0.296483
198.952835 160.017975 -0.000009 0.314305
199.966125 157.742081 -0.000008 0.293538
200.670410 156.160263 -0.000007 0.263386
201.189285 154.994843 -0.000006 0.271519
197.317688 163.995819 6.454265 0.918624
196.921143 164.903458 6.054559 0.237095
197.599442 163.350922 5.107567 0.239170
196.718857 165.366470 4.859648 0.214206
196.882996 164.990784 4.170611 0.195285
196.743942 165.309067 3.575583 0.543572
199.487976 159.028229 2.607278 0.244205
199.592133 158.789825 2.198024 0.258824
199.486328 159.031982 1.797651 0.201297
199.525986 158.941193 1.397387 0.261158
194.671616 170.052444 -0.000017 0.271397
197.476685 163.631866 -0.000012 0.279530
199.038971 160.055954 -0.000010 0.361074
200.036346 157.773056 -0.000008 0.319036
200.729553 156.186356 -0.000007 0.244022
201.240280 155.017349 -0.000006 0.335576
197.448761 164.005127 6.443365 0.238834
197.084335 164.855408 6.031037 0.427054
nan nan nan 0.000000
197.086151 164.851151 4.767856 0.487327
199.607376 158.968689 3.410326 0.258824
199.702545 158.746658 2.985404 0.258824
199.607819 158.967651 2.602209 0.253910
199.684250 158.789352 2.197419 0.258824
199.552795 159.096039 1.797122 0.258824
199.342590 159.586472 1.364716 0.258824
194.827896 170.120071 -0.000017 0.296986
197.588074 163.680069 -0.000012 0.302449
199.125351 160.093338 -0.000010 0.292256
200.106766 157.803528 -0.000008 0.311070
200.788895 156.212021 -0.000007 0.263661
201.291443 155.039474 -0.000006 0.272328
197.440598 164.344116 6.522328 0.290196
197.223724 164.860031 6.020191 0.219974
196.989548 165.417145 5.496854 0.585779
197.392776 164.457886 4.696384 0.227070
199.749908 158.850479 3.391402 0.241642
199.750931 158.848053 2.991506 0.278431
199.621323 159.156387 2.610485 0.258824
199.636414 159.120483 2.202712 0.258824
199.619812 159.159988 1.796587 0.258824
199.406769 159.666779 1.362316 0.258824
195.345474 169.328201 0.076333 0.531395
197.699799 163.727493 -0.000012 0.284947
199.211990 160.130127 -0.000010 0.264378
200.177399 157.833511 -0.000008 0.270237
200.848389 156.237289 -0.000007 0.274128
201.342758 155.061264 -0.000006 0.273167
197.563766 164.376022 6.517850 0.217945
197.307312 164.998260 6.040818 0.247059
nan nan nan 0.000000
197.496094 164.540222 4.701771 0.269673
199.846024 158.838882 3.385922 0.258824
199.758682 159.050781 3.006608 0.258824
199.681427 159.238220 2.613061 0.258824
199.703400 159.184906 2.203264 0.258824
199.484848 159.715149 1.787351 0.258824
199.557175 159.539658 1.370921 0.258824
195.515869 169.344604 0.080461 0.554131
197.811859 163.774124 -0.000012 0.279026
199.298904 160.166290 -0.000010 0.283192
200.248245 157.863007 -0.000008 0.315419
200.908081 156.262131 -0.000007 0.278233
201.394211 155.082672 -0.000006 0.309789
197.686768 164.407730 6.513562 0.295552
nan nan nan 0.000000
197.482803 164.912567 5.377766 0.202457
197.599792 164.623016 4.707330 0.303792
199.941406 158.827301 3.380542 0.258824
199.806396 159.161484 3.013535 0.258824
199.862671 159.022186 2.599871 0.196643
195.656937 169.431763 2.383533 0.247059
199.921616 158.876282 1.802761 0.162783
199.738068 159.330597 1.383788 0.258824
195.299515 170.316391 -0.000017 0.280186
197.924225 163.819992 -0.000012 0.315160
199.386047 160.201859 -0.000010 0.288136
200.319290 157.891998 -0.000008 0.296834
200.967941 156.286560 -0.000007 0.233112
201.445831 155.103745 -0.000006 0.311070
nan nan nan 0.000000
197.517303 165.177490 6.059719 0.248386
197.583298 165.010803 5.387572 0.245777
nan nan nan 0.000000
200.036011 158.815948 3.375288 0.258824
195.810455 169.488464 3.921426 0.258824
199.947418 159.039703 2.599123 0.262379
199.886536 159.193481 2.202271 0.336828
199.512558 160.138031 1.781104 0.258824
199.684921 159.702698 1.365845 0.258824
195.457626 170.379623 -0.000017 0.287816
198.036926 163.865067 -0.000012 0.341268
199.473450 160.236816 -0.000010 0.290608
200.390549 157.920502 -0.000008 0.290669
201.027954 156.310562 -0.000007 0.312001
201.497574 155.124435 -0.000006 0.333577
197.276154 166.162079 6.960017 0.260121
nan nan nan 0.000000
197.724136 165.007111 5.377597 0.333730
197.807663 164.791748 4.719249 0.222797
197.832443 164.727859 4.101008 0.230762
194.478928 173.373749 4.257877 0.299474
200.125961 158.814819 2.585636 0.258824
200.110092 158.855728 2.195791 0.258824
199.522980 160.369400 1.777641 0.266667
199.875046 159.461716 1.380276 0.258824
195.616165 170.441757 -0.000017 0.282032
198.149918 163.909363 -0.000012 0.289570
199.561081 160.271164 -0.000009 0.288319
200.461990 157.948502 -0.000008 0.248966
201.088150 156.334152 -0.000007 0.360174
201.549484 155.144775 -0.000006 0.267689
nan nan nan 0.000000
197.675262 165.500702 6.112469 0.552148
197.898331 164.913483 5.350331 0.275578
195.804535 170.425400 5.605909 0.248890
197.989731 164.672867 4.088618 0.230716
200.132294 159.032532 2.993939 0.258824
200.209778 158.828537 2.584791 0.258824
200.194260 158.869385 2.195506 0.258824
199.952667 159.505386 1.793361 0.271443
199.943985 159.528244 1.378439 0.258824
195.775146 170.502777 -0.000017 0.295933
198.263229 163.952850 -0.000013 0.294240
199.648956 160.304901 -0.000009 0.267704
200.533630 157.975998 -0.000008 0.244877
201.148499 156.357315 -0.000007 0.259953
201.601517 155.164749 -0.000006 0.327474
nan nan nan 0.000000
197.753204 165.672470 6.141270 0.263081
nan nan nan 0.000000
195.976151 170.450851 5.600485 0.279927
198.150909 164.603073 4.074579 0.225422
200.215988 159.050262 2.992886 0.258824
200.131561 159.277267 2.606777 0.258824
200.278168 158.883041 2.195232 0.258824
200.016983 159.585358 1.792506 0.258824
200.012878 159.596405 1.376495 0.251743
195.934540 170.562698 -0.000017 0.287999
198.376846 163.995560 -0.000013 0.280735
199.737076 160.338013 -0.000010 0.285557
200.605453 158.002991 -0.000008 0.307164
201.209015 156.380066 -0.000007 0.267247
201.653702 155.184372 -0.000006 0.261723
nan nan nan 0.000000
nan nan nan 0.000000
197.719666 166.155991 5.573574 0.247517
198.377151 164.349594 4.628130 0.379644
198.309845 164.534485 4.060860 0.247150
200.299606 159.067688 2.991859 0.258824
195.210693 173.049377 3.325222 0.229877
196.483459 169.552460 2.380530 0.274556
200.081818 159.666046 1.791634 0.258824
192.746506 179.819641 0.320830 0.223529
196.094360 170.621506 -0.000017 0.298451
198.490753 164.037460 -0.000013 0.308888
199.825409 160.370514 -0.000010 0.271733
200.677475 158.029495 -0.000008 0.265370
201.269699 156.402390 -0.000007 0.309758
201.706009 155.203613 -0.000006 0.303548
197.893402 166.076828 6.886100 0.224537
198.445297 164.526917 5.857642 0.271000
197.913452 166.020523 5.538435 0.211765
nan nan nan 0.000000
nan nan nan 0.000000
nan nan nan 0.000000
200.459793 158.869568 2.582441 0.258824
200.151169 159.736298 2.209064 0.213321
194.937836 174.377014 1.536621 0.277226
190.780121 186.053253 -0.000029 0.291814
196.254578 170.679184 -0.000017 0.294194
198.604950 164.078583 -0.000013 0.308141
199.913971 160.402405 -0.000010 0.348669
200.749680 158.055481 -0.000008 0.279286
201.330521 156.424286 -0.000007 0.300893
201.758453 155.222504 -0.000006 0.250996
198.297302 165.331070 6.676299 0.310903
198.539917 164.634369 5.872746 0.281437
197.991791 166.208389 5.565945 0.255009
198.567688 164.554642 4.647305 0.549020
196.491684 170.516098 4.779298 0.361791
197.685135 167.088974 3.683387 0.297948
200.542694 158.883194 2.581719 0.258824
195.356232 173.776688 2.451839 0.233936
194.164261 177.199570 1.488851 0.978683
191.048203 186.147659 -0.000029 0.293080
196.415192 170.735748 -0.000017 0.300938
198.719421 164.118896 -0.000013 0.286213
200.002762 160.433670 -0.000010 0.266011
200.822052 158.080978 -0.000008 0.280369
201.391495 156.445755 -0.000007 0.280659
201.811035 155.241013 -0.000006 0.314443
nan nan nan 0.000000
198.688980 164.584961 5.852176 0.234058
198.505203 165.124802 5.349106 0.200610
198.665527 164.653870 4.656495 0.199237
198.229355 165.935104 4.215924 0.273304
193.061264 181.116272 4.894340 0.239612
200.625397 158.896759 2.581027 0.258824
200.283493 159.901108 2.210899 0.258824
194.478439 176.953339 1.494334 0.226215
191.316940 186.240204 -0.000029 0.294514
196.576202 170.791199 -0.000018 0.304128
198.834183 164.158401 -0.000013 0.312657
200.091766 160.464310 -0.000010 0.291859
200.894608 158.105957 -0.000008 0.290028
201.452621 156.466812 -0.000007 0.289387
201.863739 155.259155 -0.000006 0.248005
nan nan nan 0.000000
198.734253 164.843353 5.901950 0.289357
196.824539 170.584152 6.388129 0.594263
198.761230 164.762222 4.667201 0.181491
196.828354 170.572693 4.772980 0.490791
nan nan nan 0.000000
nan nan nan 0.000000
200.350540 159.984619 2.211844 0.258824
194.562973 177.382675 1.488117 0.274937
191.586304 186.330841 -0.000029 0.298451
196.737595 170.845505 -0.000018 0.292699
198.949219 164.197128 -0.000013 0.292271
200.180969 160.494339 -0.000010 0.262287
200.967346 158.130432 -0.000008 0.320455
201.513885 156.487427 -0.000007 0.281483
201.916565 155.276947 -0.000006 0.251316
nan nan nan 0.000000
nan nan nan 0.000000
196.993607 170.608627 6.382752 0.271916
193.368362 181.765991 7.313156 0.258824
193.009216 182.871323 6.254277 0.434440
nan nan nan 0.000000
195.080917 176.495285 3.487386 0.248707
196.092041 173.383392 2.441897 0.194461
195.230347 176.035400 1.512471 0.268742
194.954468 176.884476 0.492510 0.186801
196.899368 170.898697 -0.000018 0.303456
199.064514 164.235031 -0.000013 0.286473
200.270386 160.523743 -0.000010 0.271855
201.040237 158.154404 -0.000008 0.293294
201.575302 156.507614 -0.000007 0.287953
201.969528 155.294357 -0.000006 0.244388
nan nan nan 0.000000
nan nan nan 0.000000
197.162262 170.633118 6.377612 0.715312
198.599701 166.101715 4.863581 0.223804
nan nan nan 0.000000
195.260529 176.628128 4.488396 0.203922
195.407608 176.164459 3.467006 0.216648
195.381409 176.247070 2.490071 0.284153
195.448669 176.035019 1.513570 0.500908
193.471237 182.268677 0.218387 0.514611
197.061508 170.950745 -0.000017 0.305592
199.180084 164.272141 -0.000013 0.280247
200.360016 160.552505 -0.000010 0.292332
201.113297 158.177856 -0.000008 0.282353
201.636856 156.527390 -0.000007 0.265476
202.022598 155.311401 -0.000006 0.317861
nan nan nan 0.000000
nan nan nan 0.000000
197.330612 170.657257 6.372643 0.617670
197.333633 170.647476 5.563189 0.255268
197.320160 170.691010 4.768644 0.226963
197.301743 170.750519 3.978459 0.348257
197.283493 170.809479 3.188410 1.000000
195.429337 176.799286 2.498459 0.502525
195.666031 176.034653 1.514639 0.233204
195.448059 176.738770 0.506665 0.262669
197.223999 171.001663 -0.000018 0.278782
199.295898 164.308426 -0.000013 0.287205
200.449829 160.580658 -0.000010 0.305364
201.186523 158.200806 -0.000008 0.275013
201.698547 156.546722 -0.000007 0.264637
202.075790 155.328064 -0.000006 0.344854
nan nan nan 0.000000
nan nan nan 0.000000
nan nan nan 0.000000
197.501434 170.671890 5.559375 0.847669
197.483856 170.730148 4.767445 0.348959
nan nan nan 0.000000
195.784302 176.359344 3.470680 0.258686
195.513245 177.257126 2.505223 0.231281
195.668686 176.742264 1.503578 0.202060
195.630646 176.868286 0.503203 0.290196
197.386841 171.051453 -0.000018 0.295583
199.411972 164.343903 -0.000012 0.328084
200.539856 160.608185 -0.000010 0.302983
201.259903 158.223236 -0.000008 0.279789
201.760376 156.565613 -0.000007 0.282460
202.129089 155.344360 -0.000006 0.280049
nan nan nan 0.000000
nan nan nan 0.000000
nan nan nan 0.000000
197.664963 170.709595 5.557804 0.538460
197.647598 170.768585 4.766300 0.833265
nan nan nan 0.000000
195.973236 176.457581 3.472653 0.178561
nan nan nan 0.000000
195.571472 177.822693 1.486180 0.246143
192.942307 186.755814 -0.000029 0.298604
197.550034 171.100113 -0.000018 0.302327
199.528275 164.378586 -0.000013 0.295399
200.630051 160.635071 -0.000010 0.301427
201.333450 158.245163 -0.000008 0.261524
201.822327 156.584091 -0.000007 0.287648
202.182510 155.360275 -0.000006 0.279118
nan nan nan 0.000000
nan nan nan 0.000000
nan nan nan 0.000000
nan nan nan 0.000000
197.810806 170.808456 4.765467 0.225986
197.793823 170.867706 3.976141 0.249241
194.129684 183.646042 3.837047 0.258824
197.759674 170.986771 2.396408 0.630106
196.150345 176.599182 1.508050 0.277287
193.215240 186.835114 -0.000029 0.292576
197.713562 171.147614 -0.000018 0.291173
199.644836 164.412445 -0.000013 0.285786
200.720444 160.661331 -0.000010 0.279530
201.407135 158.266571 -0.000008 0.260639
201.884415 156.602127 -0.000007 0.296376
202.236038 155.375839 -0.000006 0.306676
197.994934 170.773026 8.000362 0.167865
nan nan nan 0.000000
198.000137 170.754425 6.355207 0.630884
nan nan nan 0.000000
197.974121 170.847580 4.764682 0.551400
197.957550 170.906967 3.975582 0.412039
194.338150 183.870163 3.844853 0.258824
nan nan nan 0.000000
194.536606 183.159424 1.397564 0.258824
193.488724 186.912506 -0.000030 0.294133
197.877411 171.193985 -0.000018 0.289235
199.761627 164.445496 -0.000013 0.296895
200.811020 160.686966 -0.000010 0.287694
201.480972 158.287460 -0.000008 0.244144
201.946609 156.619720 -0.000007 0.360723
202.289673 155.391006 -0.000006 0.346105
198.161530 170.797699 7.995239 0.370428
nan nan nan 0.000000
nan nan nan 0.000000
nan nan nan 0.000000
198.137527 170.886047 4.763956 0.639841
198.121185 170.946228 3.975124 0.231312
196.816788 175.747208 3.427787 0.272801
nan nan nan 0.000000
195.067352 182.186188 1.415224 0.258824
193.762726 186.987976 -0.000030 0.290562
198.041580 171.239197 -0.000018 0.289235
199.878632 164.477722 -0.000013 0.283803
200.901764 160.711960 -0.000010 0.279179
201.554947 158.307846 -0.000008 0.339467
202.008942 156.636887 -0.000007 0.311223
202.343414 155.405823 -0.000006 0.298634
nan nan nan 0.000000
nan nan nan 0.000000
nan nan nan 0.000000
197.035355 175.714233 6.298013 0.255329
197.038544 175.702164 5.331853 0.338643
198.284744 170.985474 3.974760 0.314427
195.062653 183.180588 3.802828 0.258824
198.253143 171.105103 2.396131 0.231525
195.619736 181.072113 1.435173 0.258824
194.037262 187.061539 -0.000030 0.295186
198.206070 171.283279 -0.000018 0.290425
199.995865 164.509140 -0.000012 0.285695
200.992691 160.736328 -0.000010 0.265644
201.629074 158.327698 -0.000008 0.290379
202.071381 156.653625 -0.000007 0.289845
202.397263 155.420242 -0.000006 0.331746
nan nan nan 0.000000
nan nan nan 0.000000
nan nan nan 0.000000
197.236649 175.743652 6.294709 0.298802
nan nan nan 0.000000
198.448410 171.024170 3.974449 0.577935
198.433014 171.084106 3.186015 0.884916
nan nan nan 0.000000
nan nan nan 0.000000
194.312317 187.133163 -0.000029 0.289464
198.370850 171.326202 -0.000018 0.286961
200.113327 164.539734 -0.000013 0.312169
201.083786 160.760040 -0.000010 0.267659
201.703339 158.347046 -0.000008 0.269780
202.133942 156.669922 -0.000007 0.324819
202.451202 155.434296 -0.000006 0.285512
nan nan nan 0.000000
nan nan nan 0.000000
nan nan nan 0.000000
198.641739 170.943604 5.553311 0.226246
nan nan nan 0.000000
197.426819 175.816406 4.375934 0.179278
198.596909 171.123428 3.185912 0.194278
197.390732 175.961121 2.476609 0.254810
nan nan nan 0.000000
194.587845 187.202911 -0.000030 0.294301
198.535934 171.367966 -0.000018 0.301625
200.230988 164.569504 -0.000013 0.298604
201.175034 160.783142 -0.000010 0.283604
201.777725 158.365875 -0.000008 0.287572
202.196625 156.685776 -0.000007 0.324025
202.505234 155.447968 -0.000006 0.274937
nan nan nan 0.000000
nan nan nan 0.000000
nan nan nan 0.000000
198.804535 170.981918 5.553071 0.262638
197.641174 175.790665 5.324715 0.309804
198.598572 171.833221 4.035840 0.916671
198.760880 171.162354 3.185848 0.717586
198.746292 171.222672 2.396016 0.294179
196.110184 182.119019 1.420533 0.247059
195.799606 183.402802 0.195469 0.258824
198.701309 171.408585 -0.000018 0.290867
200.348846 164.598465 -0.000012 0.279149
201.266449 160.805603 -0.000010 0.278721
201.852249 158.384171 -0.000008 0.332845
202.259399 156.701202 -0.000007 0.295232
202.559372 155.461258 -0.000006 0.299641
nan nan nan 0.000000
nan nan nan 0.000000
198.981247 170.960800 6.347182 0.225650
198.967148 171.020935 5.553111 0.196826
198.952881 171.081726 4.762768 0.485481
197.820389 175.910156 4.375817 0.236683
198.924744 171.201675 3.185863 0.343542
198.910583 171.262070 2.396020 0.304540
196.305115 182.370544 1.417269 0.258824
195.140350 187.336548 -0.000030 0.288655
198.866959 171.448059 -0.000018 0.293889
200.466919 164.626587 -0.000013 0.284947
201.358017 160.827408 -0.000010 0.292363
201.926895 158.401962 -0.000008 0.269230
202.322296 156.716187 -0.000007 0.284550
202.613602 155.474182 -0.000006 0.291798
nan nan nan 0.000000
nan nan nan 0.000000
199.143616 170.998947 6.347299 0.192157
nan nan nan 0.000000
199.283356 170.383881 4.675995 0.237461
nan nan nan 0.000000
199.088715 171.240646 3.185916 0.580362
nan nan nan 0.000000
nan nan nan 0.000000
195.417282 187.400497 -0.000030 0.295476
199.032883 171.486374 -0.000018 0.292988
200.585175 164.653900 -0.000013 0.283467
201.449722 160.848587 -0.000010 0.308309
202.001663 158.419220 -0.000009 0.288060
202.385284 156.730728 -0.000007 0.294804
202.667908 155.486725 -0.000006 0.277226
nan nan nan 0.000000
nan nan nan 0.000000
198.236649 175.900833 7.253752 0.563424
nan nan nan 0.000000
199.484268 170.226334 4.653264 0.263844
199.502426 170.143768 3.884182 0.227481
198.197922 176.077026 3.427338 0.783642
198.181854 176.150085 2.476663 0.564462
nan nan nan 0.000000
195.694656 187.462494 -0.000030 0.288548
199.199066 171.523514 -0.000018 0.272648
200.703629 164.680374 -0.000013 0.271427
201.541595 160.869110 -0.000010 0.350393
202.076553 158.435959 -0.000008 0.274479
202.448380 156.744827 -0.000007 0.310155
202.722305 155.498886 -0.000006 0.277348
nan nan nan 0.000000
nan nan nan 0.000000
nan nan nan 0.000000
nan nan nan 0.000000
198.426239 175.978409 5.325768 0.535073
199.611221 170.403534 3.903117 0.238514
199.416626 171.318985 3.186215 0.462745
nan nan nan 0.000000
nan nan nan 0.000000
195.972458 187.522552 -0.000029 0.295201
199.365509 171.559494 -0.000018 0.293050
200.822266 164.706024 -0.000013 0.301854
201.633591 160.889008 -0.000010 0.261463
202.151550 158.452179 -0.000008 0.296025
202.511566 156.758484 -0.000007 0.267750
202.776794 155.510666 -0.000006 0.296147
nan nan nan 0.000000
nan nan nan 0.000000
nan nan nan 0.000000
nan nan nan 0.000000
nan nan nan 0.000000
199.803680 170.271774 3.889313 0.245365
199.580704 171.358032 3.186445 0.225177
200.482346 166.965576 2.321822 0.235477
nan nan nan 0.000000
196.250671 187.580688 -0.000030 0.292226
199.532196 171.594330 -0.000018 0.305669
200.941071 164.730835 -0.000013 0.308797
201.725739 160.908249 -0.000010 0.291814
202.226669 158.467865 -0.000008 0.292592
202.574844 156.771713 -0.000007 0.242329
202.831360 155.522064 -0.000006 0.333486
nan nan nan 0.000000
198.738083 176.481598 8.336768 0.269154
198.714600 176.600204 7.360540 0.278431
198.645325 176.950073 6.422974 0.248096
199.769821 171.270966 4.764188 0.224353
199.879181 170.718658 3.924009 0.301793
198.790115 176.218842 3.428208 0.289250
200.598724 167.084625 2.323356 0.274876
200.541367 167.374329 1.671812 0.277607
196.529266 187.636902 -0.000031 0.294102
199.699127 171.627991 -0.000018 0.278431
201.060043 164.754822 -0.000013 0.310719
201.818008 160.926865 -0.000010 0.294697
202.301895 158.483032 -0.000008 0.304204
202.638214 156.784485 -0.000007 0.249363
202.886002 155.533081 -0.000006 0.307820
199.642120 172.835571 8.409494 0.259922
nan nan nan 0.000000
nan nan nan 0.000000
199.362854 174.299530 6.016713 0.231479
199.268906 174.792068 5.172813 0.278431
199.922256 171.367020 3.975521 0.289769
200.823273 166.643723 2.947393 0.230610
200.744720 167.055542 2.322433 0.216098
200.699493 167.292633 1.673617 0.492302
196.808273 187.691101 -0.000031 0.291035
199.866287 171.660477 -0.000018 0.296498
201.179184 164.777985 -0.000013 0.283467
201.910400 160.944824 -0.000010 0.302083
202.377213 158.497681 -0.000008 0.253941
202.701675 156.796829 -0.000007 0.270588
202.940720 155.543716 -0.000006 0.258137
199.860992 172.632645 8.349448 0.298650
200.134018 171.145004 7.148067 0.188098
200.257172 170.473999 6.212960 0.237598
nan nan nan 0.000000
nan nan nan 0.000000
200.123764 171.200851 3.959090 0.243717
200.127167 171.182343 3.172849 0.217945
200.182175 170.882629 2.385684 0.172549
nan nan nan 0.000000
197.087646 187.743393 -0.000031 0.295094
200.033661 171.691803 -0.000018 0.303288
201.298492 164.800308 -0.000013 0.295552
202.002930 160.962143 -0.000010 0.298085
202.452652 158.511795 -0.000008 0.321233
202.765213 156.808716 -0.000007 0.264179
202.995514 155.553970 -0.000006 0.308812
nan nan nan 0.000000
200.269562 171.334625 7.183189 0.264637
200.436096 170.390106 6.192172 0.275624
nan nan nan 0.000000
200.203339 171.710144 4.804677 0.761715
200.285980 171.241501 3.960014 0.290547
201.081818 166.728027 2.949174 0.253864
199.370499 176.433472 2.477434 0.247288
200.237076 171.518814 1.604229 0.573587
200.240738 171.498077 0.812872 0.564462
200.251556 171.436691 0.023733 0.529793
201.417938 164.821808 -0.000013 0.297841
202.095566 160.978806 -0.000010 0.285130
202.528168 158.525375 -0.000008 0.254170
202.828842 156.820160 -0.000007 0.266880
203.050369 155.563843 -0.000006 0.380789
nan nan nan 0.000000
200.422272 171.436310 7.199216 0.192157
nan nan nan 0.000000
200.476593 171.115204 5.522547 0.190448
200.376648 171.706039 4.800818 0.470878
201.240540 166.598465 3.571538 0.221698
200.404572 171.541031 3.187836 0.555398
200.400620 171.564392 2.396050 0.552361
201.226974 166.678665 1.685035 0.244877
201.162521 167.059738 1.035442 0.236637
200.415680 171.475296 0.022904 0.561486
201.537537 164.842468 -0.000013 0.305608
202.188324 160.994827 -0.000010 0.275441
202.603790 158.538452 -0.000008 0.298802
202.892548 156.831161 -0.000007 0.290196
203.105301 155.573334 -0.000006 0.293111
200.603851 171.366364 8.005198 0.212039
200.492981 172.050873 7.327672 0.247761
200.510559 171.942413 6.468416 0.236942
200.640060 171.142838 5.522631 0.253773
200.549423 171.702408 4.797159 0.286030
201.282440 167.176620 3.617748 0.248234
201.341400 166.812653 2.951147 0.636942
201.391754 166.501740 2.311669 0.238636
201.368896 166.642792 1.685993 0.266667
201.334900 166.852737 1.046858 0.282490
200.537064 171.778748 -0.000018 0.295689
201.657288 164.862289 -0.000013 0.287404
202.281189 161.010193 -0.000010 0.291356
202.679489 158.550980 -0.000008 0.236652
202.956329 156.841721 -0.000007 0.288853
203.160294 155.582428 -0.000006 0.328984
200.771683 171.376266 8.001070 0.245136
200.717987 171.723160 7.250165 0.248585
200.868454 170.751129 6.244135 0.294942
200.820801 171.059006 5.506155 0.252338
201.524078 166.516113 4.190326 0.255024
201.525986 166.503815 3.560134 0.248508
201.471588 166.855103 2.952205 0.291875
201.414841 167.221710 2.323246 0.224369
201.502792 166.653595 1.686162 0.224720
201.451874 166.982452 1.041463 0.273487
201.448471 167.004486 0.398323 0.957031
201.777161 164.881271 -0.000013 0.292500
202.374161 161.024933 -0.000010 0.271015
202.755280 158.562988 -0.000008 0.340002
203.020187 156.851837 -0.000007 0.287266
203.215347 155.591156 -0.000006 0.289342
200.939163 171.387054 7.997468 0.321569
200.866501 171.879028 7.278655 0.957321
201.033875 170.745651 6.238647 0.168032
200.871384 171.846039 5.620467 0.155032
201.612198 166.829239 4.224428 0.223529
201.601685 166.900391 3.591358 0.247059
201.565674 167.144302 2.965562 0.246662
201.784378 165.663177 2.297124 0.231464
201.598251 166.923660 1.682025 0.493355
201.627701 166.724258 1.055297 0.258640
201.606857 166.865387 0.411542 0.249042
201.897171 164.899429 -0.000013 0.282765
202.467224 161.039001 -0.000010 0.282567
202.831161 158.574463 -0.000008 0.258106
203.084106 156.861511 -0.000007 0.303624
203.270462 155.599487 -0.000006 0.396323
200.944763 172.548264 8.285167 0.220874
201.003159 172.132767 7.328685 0.226276
201.198929 170.739700 6.233292 0.320562
200.502655 175.694016 6.193230 0.345006
201.743317 166.866165 4.226481 0.270954
201.834290 166.218933 3.533334 0.263828
201.779236 166.610687 2.938119 0.192157
201.792694 166.514923 2.310900 0.308751
202.378067 162.349747 1.757928 0.258824
201.742142 166.874542 1.048791 0.544503
201.744873 166.855087 0.413991 0.528862
202.017303 164.916733 -0.000013 0.298741
202.560394 161.052429 -0.000010 0.331014
202.907104 158.585403 -0.000008 0.278386
203.148087 156.870728 -0.000007 0.275044
203.325638 155.607437 -0.000006 0.322484
201.161987 172.244751 8.202458 0.278553
201.227615 171.752884 7.240818 0.234928
201.323227 171.036316 6.283694 0.195468
200.715546 175.590591 6.173742 0.357992
201.854721 167.052902 4.246025 0.191424
201.956726 166.288452 3.537618 0.221515
201.888443 166.800171 2.946614 0.256886
201.868088 166.952682 2.317831 0.283360
202.477905 162.382370 1.757621 0.258824
201.917114 166.585266 1.064038 0.285985
201.210876 171.878250 -0.000018 0.293065
202.137543 164.933212 -0.000013 0.283238
202.653656 161.065201 -0.000010 0.260471
202.983139 158.595810 -0.000008 0.279225
203.212143 156.879501 -0.000007 0.255360
203.380859 155.615005 -0.000006 0.307073
201.283798 172.659698 8.301603 0.272740
201.393494 171.791443 7.244464 0.991424
nan nan nan 0.000000
202.020676 166.826767 4.859637 0.242924
202.039749 166.675751 4.200257 0.245319
202.066971 166.460251 3.550423 0.243259
201.959000 167.314972 2.971248 0.276402
202.705338 161.407043 2.226073 0.258824
202.578171 162.413696 1.757323 0.258824
200.772049 176.710709 0.563501 0.598535
201.379745 171.900177 -0.000018 0.291539
202.257904 164.948837 -0.000013 0.288121
202.746994 161.077332 -0.000010 0.334874
203.059235 158.605698 -0.000008 0.259510
203.276245 156.887833 -0.000007 0.297932
203.436142 155.622177 -0.000006 0.342840
nan nan nan 0.000000
201.013504 176.409760 8.244495 0.280110
200.963898 176.825760 7.337033 0.175418
200.967010 176.799683 6.347010 0.816403
201.641922 171.139786 4.715555 0.243290
202.203827 166.427475 3.546389 0.209339
202.130936 167.038757 2.956749 0.258824
202.798676 161.438858 2.226403 0.258824
202.678711 162.444916 1.757017 0.258824
202.139053 166.970612 1.046621 1.000000
201.548767 171.920929 -0.000018 0.303929
202.378372 164.963623 -0.000013 0.279744
202.840424 161.088791 -0.000010 0.283619
203.135391 158.615051 -0.000008 0.296712
203.340424 156.895706 -0.000007 0.265934
203.491470 155.628967 -0.000006 0.293767
nan nan nan 0.000000
201.215393 176.420700 8.241832 0.251102
201.746124 171.689072 6.392210 0.228641
201.797714 171.229156 5.512007 0.262058
201.396744 174.803970 5.137537 0.233875
202.328461 166.497437 3.550912 0.209857
201.799149 171.216400 3.162498 0.265812
nan nan nan 0.000000
202.780182 162.470291 1.756795 0.264729
202.752548 162.716614 1.257687 0.258824
201.717926 171.940506 -0.000018 0.289967
202.498947 164.977585 -0.000013 0.301686
202.933929 161.099609 -0.000010 0.299199
203.211624 158.623871 -0.000008 0.269352
203.404633 156.903137 -0.000007 0.320500
203.546844 155.635376 -0.000006 0.280888
nan nan nan 0.000000
201.305862 177.490082 8.469335 0.264439
201.330917 177.251709 7.406611 0.236072
201.939148 171.464874 5.544504 0.228061
201.989609 170.984680 4.693365 0.281743
nan nan nan 0.000000
202.410095 166.984039 2.952549 0.953552
202.982407 161.538864 2.227694 0.258824
202.960709 161.745270 1.768909 0.268650
202.851181 162.787445 1.254751 0.258824
201.887222 171.958893 -0.000018 0.296376
202.619598 164.990692 -0.000013 0.273716
203.027512 161.109787 -0.000010 0.321889
203.287918 158.632156 -0.000008 0.307042
203.468903 156.910126 -0.000007 0.281926
203.602249 155.641403 -0.000006 0.292134
nan nan nan 0.000000
201.618729 176.442215 8.237347 0.234165
nan nan nan 0.000000
201.527451 177.373154 6.422605 0.641047
201.597809 176.655533 5.346963 0.576135
202.922623 163.144012 3.272354 0.258824
202.930313 163.065674 2.758453 0.258824
202.539841 167.047974 2.318116 0.194537
203.047653 161.868851 1.767041 0.258824
202.959412 162.768829 1.256199 0.258824
202.056625 171.976105 -0.000018 0.299535
202.740356 165.002945 -0.000013 0.266972
203.121155 161.119293 -0.000010 0.308095
203.364258 158.639908 -0.000008 0.310048
203.533218 156.916656 -0.000007 0.371069
203.657715 155.647034 -0.000006 0.256382
nan nan nan 0.000000
nan nan nan 0.000000
nan nan nan 0.000000
nan nan nan 0.000000
202.337448 170.769302 4.664800 0.231754
203.064453 162.780869 3.241616 0.258824
201.719574 177.558578 3.472886 0.247745
201.200989 183.256943 2.584244 0.258824
203.136017 161.994553 1.765130 0.258824
203.060974 162.819122 1.254209 0.258824
202.226166 171.992142 -0.000019 0.271656
202.861191 165.014374 -0.000013 0.286107
203.214859 161.128143 -0.000010 0.273625
203.440659 158.647141 -0.000008 0.337102
203.597580 156.922729 -0.000007 0.264622
203.713211 155.652283 -0.000006 0.242786
nan nan nan 0.000000
nan nan nan 0.000000
201.964630 177.141693 7.375829 1.000000
nan nan nan 0.000000
202.495621 170.818329 4.668833 0.284810
203.167725 162.814453 3.243621 0.258824
203.207977 162.335007 2.721469 0.258824
202.809067 167.085495 2.318328 0.329091
203.188065 162.572235 1.755787 0.251972
201.030212 188.269440 -0.000031 0.296727
202.395798 172.006973 -0.000018 0.291981
202.982101 165.024963 -0.000013 0.294423
203.308640 161.136353 -0.000010 0.307088
203.517105 158.653824 -0.000008 0.306874
203.661987 156.928375 -0.000007 0.265431
203.768738 155.657135 -0.000006 0.288914
nan nan nan 0.000000
nan nan nan 0.000000
nan nan nan 0.000000
202.184143 176.977402 6.355630 0.497475
202.637863 171.080780 4.697615 0.239246
203.271332 162.848145 3.245693 0.258824
203.302734 162.439911 2.726233 0.258824
203.201981 163.749329 2.263395 0.258824
203.290588 162.597839 1.755503 0.252476
203.330444 162.079834 1.291509 0.258824
202.565536 172.020630 -0.000018 0.297139
203.103073 165.034698 -0.000013 0.293156
203.402466 161.143906 -0.000010 0.300999
203.593582 158.659973 -0.000008 0.329137
203.726425 156.933563 -0.000007 0.299763
203.824295 155.661606 -0.000006 0.297642
nan nan nan 0.000000
nan nan nan 0.000000
nan nan nan 0.000000
nan nan nan 0.000000
202.698944 172.554031 4.866131 0.211551
202.437622 176.291183 4.350013 0.196963
nan nan nan 0.000000
203.314743 163.747589 2.263232 0.258824
203.393356 162.623459 1.755208 0.258824
203.337540 163.421600 1.225794 0.258824
202.735367 172.033112 -0.000018 0.281407
203.224121 165.043579 -0.000014 0.268772
203.496338 161.150803 -0.000010 0.288945
203.670120 158.665604 -0.000008 0.260258
203.790909 156.938293 -0.000007 0.274174
203.879898 155.665695 -0.000006 0.281773
nan nan nan 0.000000
nan nan nan 0.000000
nan nan nan 0.000000
nan nan nan 0.000000
nan nan nan 0.000000
203.479721 162.913986 3.249887 0.258824
202.270874 182.128082 3.694654 0.258824
202.295761 181.732391 2.557993 0.346120
202.370010 180.552338 1.461355 0.258824
203.454971 163.307434 1.231773 0.258824
202.905289 172.044388 -0.000018 0.291127
203.345230 165.051620 -0.000013 0.292607
203.590256 161.157043 -0.000010 0.274464
203.746689 158.670685 -0.000008 0.277668
203.855408 156.942566 -0.000007 0.276402
203.935516 155.669388 -0.000006 0.353384
nan nan nan 0.000000
nan nan nan 0.000000
nan nan nan 0.000000
nan nan nan 0.000000
203.577362 163.073944 3.771315 0.258824
203.590195 162.844482 3.243660 0.352941
203.585022 162.936768 2.749670 0.480980
203.600388 162.662155 2.245211 0.258824
202.562256 181.230530 1.450463 0.250599
203.553818 163.494888 1.222868 0.258824
203.075272 172.054489 -0.000018 0.292409
203.466385 165.058823 -0.000013 0.304524
203.684219 161.162613 -0.000010 0.269215
203.823288 158.675232 -0.000008 0.313222
203.919937 156.946411 -0.000007 0.314565
203.991150 155.672684 -0.000006 0.324025
nan nan nan 0.000000
nan nan nan 0.000000
nan nan nan 0.000000
202.722290 182.757568 7.206417 0.258824
203.700089 162.765137 3.735098 0.258824
203.699814 162.770752 3.237153 0.258824
202.811752 180.928452 3.634327 0.247059
203.708359 162.595932 2.244036 0.258824
202.765366 181.876984 1.440073 0.321569
203.691208 162.946732 1.250114 0.372457
203.245331 172.063400 -0.000018 0.292500
203.692688 162.916412 0.247477 0.355245
203.778214 161.167542 -0.000010 0.297520
203.899918 158.679245 -0.000008 0.234653
203.984497 156.949799 -0.000007 0.264408
204.046814 155.675598 -0.000006 0.243763
nan nan nan 0.000000
nan nan nan 0.000000
nan nan nan 0.000000
202.982407 182.402878 7.152105 0.258824
203.804916 162.778336 3.736068 0.258824
nan nan nan 0.000000
203.835876 162.039764 2.705053 0.258824
203.807129 162.725662 2.246083 0.450126
203.797882 162.946091 1.750306 0.385077
203.796570 162.977631 1.248832 0.346975
203.797333 162.959320 0.747763 0.395911
203.798691 162.926743 0.246843 0.229709
203.872253 161.171814 -0.000010 0.284611
203.976578 158.682739 -0.000008 0.275059
204.049088 156.952728 -0.000006 0.330510
204.102509 155.678131 -0.000006 0.293156
nan nan nan 0.000000
nan nan nan 0.000000
203.210663 182.814392 8.393054 0.258824
203.211334 182.795288 7.208967 0.449531
203.212524 182.761246 6.035853 0.439216
203.926239 162.323105 3.199702 0.258824
203.913544 162.686447 2.736652 0.258824
203.898895 163.105850 2.252243 0.476967
203.871414 163.893021 1.734868 0.258824
203.217041 182.631744 0.282900 0.449866
203.585602 172.077652 -0.000018 0.290471
203.830124 165.075348 -0.000013 0.293019
203.966309 161.175430 -0.000010 0.275746
204.053253 158.685669 -0.000008 0.258045
204.113678 156.955200 -0.000006 0.284337
204.158203 155.680283 -0.000006 0.261280
nan nan nan 0.000000
nan nan nan 0.000000
nan nan nan 0.000000
203.465317 182.482361 7.161390 0.258824
203.461929 182.604034 6.016874 0.437186
204.022964 162.518188 3.215441 0.258824
204.035553 162.067795 2.706086 0.258824
204.014420 162.824005 2.247573 0.258824
204.004501 163.179352 1.746609 0.258824
204.025116 162.441360 1.275554 0.258824
203.755798 172.083023 -0.000018 0.300450
203.951431 165.079147 -0.000013 0.302663
204.060394 161.178375 -0.000010 0.287160
204.129959 158.688080 -0.000008 0.288319
204.178299 156.957230 -0.000007 0.271855
204.213913 155.682022 -0.000006 0.294240
nan nan nan 0.000000
nan nan nan 0.000000
nan nan nan 0.000000
203.717148 182.059341 7.097746 0.258824
nan nan nan 0.000000
204.129837 162.357498 3.202055 0.318379
204.135620 162.081772 2.706654 0.239277
204.119980 162.828186 2.247600 0.258824
204.110489 163.281265 1.744985 0.482353
204.132568 162.227570 1.286183 0.258824
203.926041 172.087173 -0.000018 0.295964
204.072769 165.082123 -0.000013 0.286687
204.154495 161.180679 -0.000010 0.287984
204.206665 158.689957 -0.000008 0.297948
204.242935 156.958817 -0.000007 0.230579
204.269653 155.683395 -0.000006 0.313832
nan nan nan 0.000000
nan nan nan 0.000000
nan nan nan 0.000000
203.957260 182.047424 7.095356 0.258824
203.955063 182.205200 5.969815 0.258824
204.224792 162.888199 3.245428 0.258824
204.217819 163.387619 2.770725 0.258824
204.221954 163.091202 2.251874 0.258824
nan nan nan 0.000000
203.868439 188.408264 -0.000031 0.290898
204.096298 172.090149 -0.000018 0.289601
204.194122 165.084229 -0.000013 0.269551
204.248611 161.182327 -0.000010 0.269917
204.283386 158.691299 -0.000008 0.302632
204.307571 156.959946 -0.000007 0.276081
204.325378 155.684357 -0.000006 0.345541
nan nan nan 0.000000
nan nan nan 0.000000
nan nan nan 0.000000
nan nan nan 0.000000
204.198471 181.846329 5.928237 0.258824
204.330917 162.875427 3.244290 0.278920
204.329636 163.059601 2.754553 0.258824
204.326859 163.457825 2.257855 0.458732
204.186813 183.516022 1.413906 0.258824
204.152649 188.411224 -0.000031 0.290364
204.266571 172.091934 -0.000018 0.300038
204.315491 165.085510 -0.000013 0.298161
204.342728 161.183319 -0.000010 0.300237
204.360123 158.692108 -0.000008 0.309651
204.372208 156.960617 -0.000007 0.246159
204.381119 155.684952 -0.000006 0.300160
nan nan nan 0.000000
nan nan nan 0.000000
nan nan nan 0.000000
nan nan nan 0.000000
nan nan nan 0.000000
nan nan nan 0.000000
204.436859 163.081406 2.755607 0.258824
204.436859 163.310699 2.255441 0.258824
nan nan nan 0.000000
204.436859 188.412231 -0.000031 0.292988
204.436859 172.092529 -0.000018 0.297932
204.436859 165.085922 -0.000013 0.302739
204.436859 161.183640 -0.000010 0.301686
204.436859 158.692368 -0.000008 0.289357
204.436859 156.960846 -0.000006 0.312840
204.436859 155.685135 -0.000006 0.272206
nan nan nan 0.000000
nan nan nan 0.000000
nan nan nan 0.000000
nan nan nan 0.000000
204.686996 183.529083 6.121828 0.258824
nan nan nan 0.000000
204.544388 163.103561 2.756714 0.258824
204.542953 162.897827 2.248691 0.220066
204.549057 163.771790 1.737007 0.255558
204.721085 188.411240 -0.000031 0.287343
204.607147 172.091919 -0.000018 0.310918
204.558228 165.085510 -0.000013 0.286381
204.530991 161.183319 -0.000010 0.271000
204.513596 158.692108 -0.000008 0.302815
204.501511 156.960617 -0.000007 0.285588
204.492599 155.684952 -0.000006 0.288701
nan nan nan 0.000000
nan nan nan 0.000000
nan nan nan 0.000000
nan nan nan 0.000000
nan nan nan 0.000000
nan nan nan 0.000000
204.655746 163.375946 2.770152 0.157717
204.649307 162.915039 2.248991 0.258824
nan nan nan 0.000000
205.005280 188.408264 -0.000031 0.296132
204.777420 172.090149 -0.000018 0.298970
204.679596 165.084229 -0.000013 0.269581
204.625107 161.182327 -0.000010 0.318608
204.590332 158.691299 -0.000008 0.333074
204.566147 156.959946 -0.000007 0.287022
204.548340 155.684357 -0.000006 0.347585
nan nan nan 0.000000
nan nan nan 0.000000
nan nan nan 0.000000
nan nan nan 0.000000
nan nan nan 0.000000
nan nan nan 0.000000
204.766922 163.457748 2.774266 0.258824
204.756409 162.955521 2.249684 0.258824
205.144226 181.470184 1.447277 0.258824
205.289459 188.403305 -0.000031 0.293553
204.947693 172.087173 -0.000018 0.293629
204.800949 165.082123 -0.000013 0.297490
204.719223 161.180679 -0.000010 0.258824
204.667053 158.689957 -0.000008 0.261814
204.630783 156.958817 -0.000007 0.303883
204.604080 155.683395 -0.000006 0.286564
nan nan nan 0.000000
nan nan nan 0.000000
nan nan nan 0.000000
nan nan nan 0.000000
nan nan nan 0.000000
nan nan nan 0.000000
204.861237 162.893738 2.746678 0.258824
nan nan nan 0.000000
205.411636 182.598129 1.428718 0.258824
205.444260 183.766006 0.227532 0.258824
205.117920 172.083008 -0.000018 0.301427
204.922287 165.079147 -0.000013 0.291234
204.813324 161.178375 -0.000010 0.313588
204.743759 158.688080 -0.000008 0.289143
204.695419 156.957230 -0.000006 0.278202
204.659805 155.682022 -0.000006 0.258366
nan nan nan 0.000000
nan nan nan 0.000000
nan nan nan 0.000000
205.159225 168.386383 5.070306 0.247059
nan nan nan 0.000000
nan nan nan 0.000000
nan nan nan 0.000000
nan nan nan 0.000000
nan nan nan 0.000000
205.703827 183.981873 0.216533 0.177935
205.288116 172.077652 -0.000018 0.297642
205.043594 165.075333 -0.000013 0.325231
204.907410 161.175430 -0.000010 0.294270
204.820465 158.685669 -0.000008 0.318151
204.760040 156.955200 -0.000006 0.279759
204.715515 155.680283 -0.000006 0.267475
nan nan nan 0.000000
nan nan nan 0.000000
nan nan nan 0.000000
nan nan nan 0.000000
nan nan nan 0.000000
nan nan nan 0.000000
