# This PCD file was generated using the MATLABÂ® pcwrite function
# from Computer Vision ToolboxÂ®.
# .PCD v.7 - Point Cloud Data file format
VERSION .7
FIELDS x y z intensity
SIZE 4 4 4 4
TYPE F F F F
COUNT 1 1 1 1
WIDTH 1256
HEIGHT 1
VIEWPOINT 0 0 0 1 0 0 0
POINTS 1256
DATA ascii
141.753586 170.724396 1.034271 0.258824
142.066284 170.362869 0.683864 0.258824
142.135315 170.283051 0.366361 0.258824
142.319778 170.069778 -0.000007 0.290227
141.485229 171.034653 -0.000007 0.275135
141.457886 170.980804 4.005774 0.258824
141.401093 171.047409 3.710548 0.348577
nan nan nan 0.000000
nan nan nan 0.000000
147.155655 164.299530 3.931350 0.412024
nan nan nan 0.000000
169.763184 137.789642 4.536375 0.256611
173.176697 133.786911 2.930938 0.263203
141.545654 170.877899 1.866753 0.258824
141.604813 170.808533 1.595494 0.278431
141.876785 170.489609 1.290490 0.258824
141.724197 170.668549 1.031598 0.247700
145.010834 166.814575 -0.000011 0.280720
143.394287 168.710159 -0.000009 0.279774
142.270737 170.027664 -0.000008 0.287953
141.442947 170.998337 -0.000006 0.294377
140.867050 171.596649 3.792408 0.258824
141.364105 171.005493 3.712297 0.386099
nan nan nan 0.000000
nan nan nan 0.000000
nan nan nan 0.000000
148.406937 162.629227 3.547390 0.258824
169.417938 137.640182 4.531017 0.396384
181.161209 123.673553 3.141670 0.226474
141.514648 170.826431 1.866438 0.258824
142.209534 169.999985 1.545982 0.258824
141.819229 170.464188 1.291949 0.258824
147.450348 163.766937 -0.000015 0.293904
144.938995 166.753754 -0.000011 0.290822
143.335739 168.660568 -0.000009 0.279500
142.221405 169.985886 -0.000008 0.249180
141.400406 170.962311 -0.000007 0.325307
140.860062 171.526810 3.804717 0.258824
141.327011 170.963501 3.714123 0.301961
nan nan nan 0.000000
141.220581 171.091888 3.152534 0.209598
nan nan nan 0.000000
148.156174 162.725281 3.528167 0.258824
174.475098 130.975998 4.941560 0.424811
147.899124 163.035370 2.298388 0.258824
141.461044 170.801819 1.866691 0.494896
162.243973 145.730774 -0.000036 0.292836
151.828766 158.294937 -0.000021 0.287388
147.357178 163.689148 -0.000015 0.277302
144.866745 166.693420 -0.000012 0.275151
143.276825 168.611389 -0.000009 0.332250
142.171768 169.944443 -0.000008 0.302358
141.357620 170.926590 -0.000007 0.237095
141.360123 170.835449 4.018031 0.258824
141.291946 170.918869 3.716754 0.258824
nan nan nan 0.000000
142.616592 169.298004 3.489589 0.258824
nan nan nan 0.000000
nan nan nan 0.000000
168.110031 138.103821 4.472474 0.221134
147.612106 163.185410 2.293507 0.362753
147.085236 163.830093 1.720117 0.258824
141.058105 171.204987 1.627659 0.258824
151.697281 158.186722 -0.000021 0.299321
147.263474 163.612015 -0.000016 0.325780
144.794067 166.633606 -0.000012 0.310780
141.895447 170.180405 0.380153 0.258824
142.121857 169.903366 -0.000008 0.311330
141.314590 170.891159 -0.000007 0.272312
141.331039 170.781876 4.023862 0.258824
141.225449 170.912949 3.708695 0.322530
nan nan nan 0.000000
nan nan nan 0.000000
167.862579 137.850937 7.794466 0.258244
167.568604 138.215820 6.091585 0.528328
147.947495 162.569534 2.915026 0.258824
142.085785 169.845093 2.151901 0.258824
146.989227 163.758942 1.720203 0.258824
142.315674 169.559753 1.525968 0.247059
141.670471 170.360596 1.293142 0.417960
147.169220 163.535538 -0.000015 0.267506
144.720978 166.574295 -0.000012 0.293202
143.157990 168.514267 -0.000009 0.260365
142.071655 169.862625 -0.000008 0.319036
141.271301 170.856033 -0.000007 0.279484
146.892242 163.689133 6.281404 0.428672
141.483475 170.499252 3.813282 0.418341
146.763748 163.850906 5.072463 0.461830
146.870331 163.716705 4.530181 0.482353
146.864105 163.724548 3.961109 0.307469
146.858047 163.732178 3.396982 0.303899
146.853348 163.738098 2.836620 0.349752
146.848846 163.743759 2.278556 0.287190
142.114853 169.704300 1.846002 0.258824
141.648911 170.290955 1.574481 0.321569
146.835602 163.760437 0.605977 0.415015
146.806229 163.797424 0.049597 0.445426
144.647476 166.515488 -0.000012 0.289158
143.098068 168.466339 -0.000010 0.307973
142.021179 169.822250 -0.000008 0.323293
141.227768 170.821213 -0.000007 0.263355
nan nan nan 0.000000
141.200287 170.765900 3.730186 0.458305
nan nan nan 0.000000
nan nan nan 0.000000
146.386932 164.140991 3.889500 0.529625
146.770294 163.651321 3.397732 0.220752
146.755814 163.669815 2.836287 0.439216
146.755508 163.670197 2.278555 0.379904
141.357193 170.565475 1.864745 0.379721
146.740753 163.689056 1.164914 0.372381
146.733398 163.698441 0.607174 0.361532
146.699356 163.741928 0.052196 0.419150
144.573563 166.457214 -0.000012 0.257862
143.037811 168.418823 -0.000010 0.308553
141.970413 169.782211 -0.000008 0.242786
141.184006 170.786697 -0.000007 0.284718
nan nan nan 0.000000
141.187210 170.691299 3.741176 0.469215
142.016449 169.616745 3.713860 0.258824
nan nan nan 0.000000
167.234741 136.937927 7.832222 0.174166
146.345352 164.007187 3.353312 0.378500
146.682266 163.570587 2.837918 0.258824
164.051682 141.062637 2.744344 0.247059
141.325226 170.512451 1.864381 0.490639
161.134308 144.843079 -0.000037 0.288869
151.163925 157.763092 -0.000022 0.282170
146.663788 163.594543 0.041320 0.395499
144.499237 166.399445 -0.000012 0.304860
142.977219 168.371735 -0.000010 0.296849
141.919373 169.742538 -0.000008 0.294408
141.139984 170.752487 -0.000007 0.255924
nan nan nan 0.000000
141.362305 170.368134 3.819579 0.368261
141.972687 169.565659 3.716397 0.258824
nan nan nan 0.000000
nan nan nan 0.000000
146.200226 164.007660 3.346044 0.351537
146.588165 163.497620 2.837953 0.258824
164.014359 140.587173 2.750148 0.258824
142.860626 168.398270 1.821638 0.258824
142.842178 168.422531 1.466028 0.258824
142.171814 169.303864 1.199566 0.258824
146.786957 163.236267 -0.000016 0.320745
144.424530 166.342194 -0.000012 0.347723
142.916306 168.325058 -0.000010 0.286107
141.868057 169.703217 -0.000008 0.306157
141.095734 170.718582 -0.000007 0.306508
145.898621 164.218918 6.024264 0.258824
141.321777 170.324142 3.821888 0.334966
146.619995 163.256638 5.142095 0.229389
142.351807 168.950150 3.506009 0.526772
nan nan nan 0.000000
174.084335 126.620895 7.170263 0.773617
nan nan nan 0.000000
142.430527 168.845139 2.168285 0.258824
141.785538 169.705521 1.849311 0.441123
142.676132 168.517517 1.474667 0.258824
142.004456 169.413483 1.215009 0.258824
146.690094 163.163116 -0.000016 0.273548
144.349411 166.285477 -0.000012 0.257069
142.855072 168.278824 -0.000010 0.267964
141.816452 169.664261 -0.000008 0.310719
141.051254 170.684998 -0.000008 0.307500
145.999313 163.893875 6.104640 0.258824
141.281174 170.279999 3.824299 0.452628
146.641220 163.025040 5.178205 0.303532
nan nan nan 0.000000
146.190750 163.634766 3.922192 0.342260
nan nan nan 0.000000
145.794357 164.171280 2.788080 0.258824
163.246704 140.549103 2.743112 0.258824
141.708374 169.701782 1.850016 0.404105
147.106537 162.395218 1.103438 0.340887
150.756241 157.455246 -0.000022 0.274266
146.592743 163.090668 -0.000016 0.312779
144.273895 166.229279 -0.000012 0.280720
142.793518 168.233002 -0.000010 0.283574
141.764603 169.625671 -0.000009 0.390585
141.006546 170.651718 -0.000007 0.299641
nan nan nan 0.000000
141.240250 170.236023 3.826733 0.364706
146.586151 162.893494 5.191582 0.305898
nan nan nan 0.000000
nan nan nan 0.000000
145.669220 164.152893 3.310494 0.258824
145.706085 164.102249 2.788249 0.258824
142.193207 168.927155 2.164898 0.258824
141.631973 169.697983 1.850705 0.519371
142.360031 168.698013 1.491027 0.258824
150.618927 157.354538 -0.000023 0.280735
146.494873 163.018875 -0.000016 0.265843
144.197998 166.173599 -0.000012 0.303685
142.731644 168.187622 -0.000010 0.240711
141.712463 169.587433 -0.000009 0.259541
140.961594 170.618759 -0.000007 0.321843
nan nan nan 0.000000
140.738449 170.834152 3.658545 0.258824
146.533279 162.757141 5.206054 0.235294
nan nan nan 0.000000
145.977158 163.532272 3.917261 0.306859
145.535950 164.147247 3.304467 0.258824
145.465454 164.245499 2.775621 0.258824
146.936996 162.194412 2.299664 0.258824
162.724045 140.189911 1.257170 0.258824
141.264359 170.101120 1.578424 0.461402
150.480927 157.254776 -0.000023 0.273945
140.505768 171.158463 1.162499 0.258824
144.121704 166.118469 -0.000013 0.299290
142.669449 168.142670 -0.000010 0.253635
141.660065 169.549561 -0.000008 0.249363
140.916412 170.586105 -0.000007 0.351980
nan nan nan 0.000000
140.676880 170.828369 3.651850 0.258824
nan nan nan 0.000000
142.088837 168.831055 3.497329 0.258824
145.794647 163.588898 3.899774 0.258824
145.046158 164.647690 3.247746 0.258824
141.829346 169.198120 2.473811 0.258824
165.103714 136.274689 2.817606 0.489708
142.040817 168.898972 1.836181 0.258824
141.217804 170.063187 1.578234 0.407782
150.342224 157.156006 -0.000023 0.298802
146.297638 162.877380 -0.000016 0.306844
144.045029 166.063858 -0.000013 0.338369
142.606934 168.098160 -0.000010 0.307454
141.607407 169.512070 -0.000009 0.250324
140.871002 170.553772 -0.000007 0.297673
nan nan nan 0.000000
140.602600 170.841599 3.640296 0.258824
141.705368 169.258301 3.732982 0.334386
146.420898 162.488037 4.636642 0.258824
149.869446 157.536835 4.738959 0.254932
145.626709 163.628296 3.343510 0.258824
146.781662 161.970078 2.904229 0.364187
141.810913 169.106781 2.158875 0.274998
145.570679 163.708740 1.733478 0.258824
141.171143 170.025330 1.578028 0.392691
146.611191 162.214828 0.515250 0.258824
146.198288 162.807663 -0.000016 0.295155
143.967987 166.009796 -0.000013 0.280217
142.544128 168.054077 -0.000010 0.386694
141.554489 169.474930 -0.000009 0.305577
140.825378 170.521744 -0.000007 0.297505
nan nan nan 0.000000
141.075836 170.058212 3.837594 0.383734
146.388443 162.316025 5.256618 0.258824
146.372162 162.339752 4.650624 0.258824
145.196686 164.052811 3.816663 0.258824
146.547424 162.084335 3.490577 0.258824
145.112366 164.175674 2.768465 0.374060
169.816406 128.173798 2.970463 0.228916
141.333481 169.682755 1.853321 0.312154
141.124527 169.987274 1.577793 0.287510
150.062744 156.961349 -0.000024 0.274601
146.098450 162.738632 -0.000017 0.307912
143.890549 165.956268 -0.000013 0.254215
142.481003 168.010437 -0.000011 0.290394
141.501312 169.438171 -0.000009 0.255726
140.779526 170.490051 -0.000008 0.291264
nan nan nan 0.000000
141.034409 170.013443 3.840549 0.210437
141.708038 169.016907 3.769475 0.258824
158.536453 144.121613 7.899947 0.257527
145.066376 164.048737 3.808613 0.258824
158.784790 143.754227 5.297660 0.598779
145.002762 164.142822 2.766767 0.315435
142.210251 168.273956 2.173810 0.258824
141.029099 170.021317 1.860704 0.258824
141.773010 168.920792 1.516555 0.295964
146.477844 161.960648 0.504250 0.258824
145.998138 162.670319 -0.000017 0.308980
143.812759 165.903275 -0.000012 0.319509
142.417587 167.967239 -0.000010 0.352590
141.447891 169.401779 -0.000009 0.237995
140.733459 170.458664 -0.000008 0.299367
144.741943 164.337936 5.832596 0.258824
nan nan nan 0.000000
145.931046 162.552094 5.174424 0.258824
158.756897 143.289520 8.020664 0.696620
145.339188 163.440948 3.884161 0.258824
146.466187 161.748383 3.509670 0.258824
144.672546 164.442139 2.745519 0.258824
145.288086 163.517700 2.266503 0.261891
140.995163 169.965042 1.860249 0.258824
158.825455 143.186569 -0.000039 0.293568
146.410400 161.832153 0.498582 0.283513
145.897339 162.602692 -0.000016 0.302312
143.734589 165.850830 -0.000013 0.282551
142.353851 167.924500 -0.000010 0.263966
141.394196 169.365753 -0.000009 0.341741
140.687164 170.427612 -0.000008 0.281773
nan nan nan 0.000000
140.886551 170.021957 3.821319 0.258824
145.840347 162.468277 5.178048 0.258824
nan nan nan 0.000000
158.502396 143.160904 6.665478 0.260655
148.520996 158.380768 3.832933 0.216541
141.223312 169.508438 2.444447 0.364706
145.890808 162.391342 2.287318 0.258824
140.961029 169.908371 1.859783 0.258824
140.984177 169.873077 1.576975 0.258824
149.638535 156.676727 -0.000024 0.286168
145.796082 162.535782 -0.000017 0.308385
143.656052 165.798935 -0.000013 0.301991
142.289841 167.882187 -0.000011 0.339330
141.340256 169.330109 -0.000009 0.244434
140.640656 170.396881 -0.000008 0.239261
nan nan nan 0.000000
140.866241 169.944885 3.832877 0.407980
146.169479 161.733948 5.322703 0.258824
148.979965 157.382507 5.477166 0.277760
144.795410 163.861389 3.809407 0.258824
146.369949 161.423569 3.527614 0.258824
141.110809 169.566223 2.439053 0.303365
140.871979 169.935989 2.139043 0.258824
140.926651 169.851349 1.859308 0.258824
140.935989 169.836884 1.576776 0.258824
146.274033 161.572067 0.486880 0.265034
145.694351 162.469574 -0.000017 0.268818
143.577164 165.747589 -0.000013 0.272847
142.225525 167.840332 -0.000011 0.328420
141.286072 169.294846 -0.000009 0.316457
140.593948 170.366470 -0.000008 0.318822
nan nan nan 0.000000
140.798080 169.941650 3.825523 0.596918
146.110641 161.588898 5.339147 0.286122
nan nan nan 0.000000
149.770218 155.835083 4.895620 0.246662
141.740875 168.459320 2.837095 0.161761
141.001160 169.622375 2.433824 0.396170
144.916321 163.466705 2.263884 0.276524
140.973892 169.665237 1.856327 0.258824
140.887573 169.800949 1.576573 0.258824
146.204956 161.440613 0.480863 0.258824
145.592178 162.404083 -0.000017 0.278950
143.497910 165.696808 -0.000013 0.297459
142.160919 167.798920 -0.000011 0.275227
140.843994 169.869461 0.155999 0.465415
140.547012 170.336395 -0.000008 0.367330
140.801895 169.824402 4.142538 0.455634
140.799652 169.827957 3.846469 0.248188
140.797485 169.831436 3.554851 0.394614
140.795349 169.834839 3.266963 0.353002
140.793259 169.838196 2.982128 0.435996
140.791199 169.841476 2.699694 0.350881
140.789154 169.844727 2.419028 0.354757
140.787140 169.847946 2.139514 0.527962
140.785141 169.851135 1.860548 0.354223
140.783157 169.854294 1.581527 0.419608
140.781189 169.857452 1.301852 0.408545
140.779221 169.860596 1.020913 0.351034
140.777252 169.863754 0.738097 0.347601
140.775360 169.866760 0.452734 0.270039
140.756866 169.896301 0.170946 0.375586
140.499878 170.306641 -0.000008 0.261433
140.741089 169.809235 4.137723 0.356558
139.412613 171.963806 3.296540 0.194125
140.737167 169.815598 3.551505 0.425437
140.735245 169.818695 3.264291 0.498924
140.733368 169.821747 2.980098 0.463203
140.731491 169.824783 2.698272 0.272496
140.729645 169.827789 2.418191 0.336446
140.727798 169.830780 2.139240 0.437217
140.725967 169.833755 1.860817 0.376059
140.724136 169.836716 1.582324 0.412604
140.722305 169.839691 1.303162 0.367468
140.720474 169.842667 1.022729 0.347250
140.718628 169.845657 0.740408 0.370748
140.716705 169.848770 0.455586 0.353338
140.701477 169.873459 0.173069 0.489738
140.452530 170.277222 -0.000008 0.292012
148.199341 157.407166 7.762673 0.306889
139.376480 171.942566 3.296379 0.258824
140.704605 169.754517 3.557894 0.440040
140.605377 169.917984 3.241674 0.258824
140.697723 169.765839 2.983445 0.288487
140.659668 169.828552 2.694935 0.258824
140.690994 169.776947 2.419331 0.361471
140.687637 169.782455 2.139571 0.400534
140.684296 169.787964 1.860534 0.341726
140.680954 169.793488 1.581619 0.343099
140.677597 169.799011 1.302231 0.291661
140.674210 169.804581 1.021769 0.405509
140.670807 169.810196 0.739622 0.420432
140.667374 169.815857 0.455164 0.390753
140.647812 169.848083 0.174442 0.371618
140.404984 170.248138 -0.000008 0.313359
147.965225 157.485870 7.715528 0.210925
140.053406 170.727905 3.596542 0.290410
147.717911 157.899796 6.064082 0.225925
139.855896 171.058472 3.039394 0.258824
148.399384 156.759232 4.722340 0.647059
140.584259 169.839401 2.690984 0.258824
140.977829 169.180679 2.451694 0.484474
147.853683 157.672562 2.369828 0.254520
140.796738 169.483780 1.855320 0.258824
140.763596 169.539230 1.568825 0.228489
140.692627 169.658035 1.291693 0.381613
140.656113 169.719131 1.014422 0.448035
140.641754 169.743164 0.733326 0.345098
140.638504 169.748611 0.447392 0.461707
140.618683 169.781784 0.165422 0.366430
140.357224 170.219376 -0.000008 0.279393
139.997131 170.721771 3.845761 0.258824
139.907410 170.874344 3.553254 0.446342
139.797562 171.061142 3.269141 0.258824
140.253204 170.286301 3.167978 0.258824
156.642593 142.415298 6.625395 0.344091
140.516937 169.837814 2.688282 0.258824
140.606613 169.685318 2.421069 0.258824
159.302063 137.892731 2.743792 0.215686
140.766022 169.414230 1.854598 0.258824
140.734848 169.467239 1.566502 0.223529
145.488388 161.383606 0.507542 0.258824
145.074539 162.087387 -0.000017 0.288121
143.096466 165.451202 -0.000013 0.296910
141.833649 167.598694 -0.000011 0.320928
140.649918 169.611664 0.130376 0.542840
140.309280 170.190948 -0.000008 0.277302
147.710999 157.289139 7.725730 0.251606
140.461975 169.815781 3.811092 0.229038
147.437912 157.761047 6.060019 0.227955
140.249878 170.182312 3.181053 0.258824
147.890442 156.979034 4.670865 0.230213
140.530029 169.698181 2.698711 0.258824
140.555374 169.654388 2.421113 0.258824
156.008865 142.949997 2.645153 0.258824
141.525742 167.977539 1.828026 0.258824
140.697205 169.409317 1.564976 0.255589
140.632919 169.520401 1.284446 0.478370
144.969696 162.026230 -0.000018 0.287221
143.015167 165.403763 -0.000014 0.325277
141.767365 167.560028 -0.000012 0.303822
140.900085 169.058701 -0.000010 0.251286
140.261124 170.162857 -0.000008 0.288945
139.688950 171.055099 3.734825 0.258824
140.408630 169.791183 3.809963 0.347127
147.295837 157.695740 6.057453 0.267842
140.684906 169.305969 3.325919 0.494667
147.860855 156.703430 4.696666 0.589700
140.485580 169.656021 2.699896 0.258824
140.507004 169.618408 2.421463 0.258824
155.729858 142.883743 2.643821 0.658274
141.460831 167.943283 1.828069 0.258824
140.659088 169.351303 1.563437 0.339803
140.594696 169.464401 1.282024 0.343008
144.864441 161.965805 -0.000018 0.280415
142.933533 165.356903 -0.000014 0.355047
141.700806 167.521820 -0.000011 0.243839
140.844025 169.026520 -0.000010 0.319753
140.212784 170.135117 -0.000008 0.271962
147.852753 156.383072 7.940531 0.217990
147.607468 156.820923 7.013753 0.276020
139.241104 171.755585 3.109138 0.258824
141.112579 168.414856 3.472213 0.258824
147.324448 157.326141 4.603943 0.234897
140.445801 169.605118 2.701925 0.258824
140.461044 169.577896 2.422086 0.258824
155.452057 142.817657 2.642528 0.765270
141.395813 167.909241 1.828107 0.288808
140.620804 169.292709 1.561856 0.313359
148.183136 155.793304 -0.000025 0.279042
144.758759 161.906113 -0.000018 0.273472
142.851563 165.310608 -0.000014 0.271397
141.633987 167.484085 -0.000011 0.268025
140.787735 168.994736 -0.000010 0.317647
140.164246 170.107697 -0.000008 0.286732
147.421478 156.822632 7.791819 0.201068
139.194916 171.751236 3.312509 0.258228
148.366562 155.107605 6.563536 0.235294
147.012878 157.564117 5.304274 0.246937
141.022598 168.434586 3.134751 0.258824
141.196381 168.119202 2.838320 0.258824
147.424911 156.816406 3.136271 0.522683
141.073090 168.342941 2.163124 0.397360
147.456924 156.758316 1.620428 0.568627
140.582199 169.233780 1.560246 0.395987
147.425156 156.815979 0.103462 0.521660
144.652664 161.847168 -0.000018 0.267903
142.769287 165.264893 -0.000014 0.315953
141.566910 167.446823 -0.000011 0.290410
140.731232 168.963333 -0.000010 0.249622
140.115524 170.080627 -0.000008 0.322683
nan nan nan 0.000000
139.066666 171.898834 3.271249 0.258824
148.120193 155.194717 6.528128 0.242420
146.904434 157.437836 5.312999 0.228626
140.959610 168.406281 3.134133 0.427115
140.650497 168.976593 2.755163 0.258824
154.949310 142.594711 3.926632 0.385260
140.931427 168.458267 2.160357 0.242100
147.341187 156.632019 1.619523 0.532235
140.034424 170.113281 1.611066 0.258824
140.496567 169.260620 1.271325 0.315435
144.546158 161.788956 -0.000018 0.285527
142.686691 165.219757 -0.000014 0.287495
141.499573 167.410019 -0.000011 0.317891
140.674500 168.932327 -0.000010 0.280858
140.066605 170.053894 -0.000008 0.290364
139.023178 171.893066 3.470479 0.258824
nan nan nan 0.000000
nan nan nan 0.000000
147.228073 156.499130 5.458377 0.258824
154.695007 142.489761 6.508394 0.182986
141.000244 168.183716 2.826005 0.258824
162.179810 128.446854 4.707017 0.570565
147.219391 156.515411 2.381215 0.192157
140.856583 168.453262 1.840151 0.258824
139.999344 170.061600 1.609645 0.258824
147.734863 155.548309 -0.000026 0.295827
144.439255 161.731491 -0.000018 0.286259
142.603775 165.175186 -0.000014 0.261219
141.431992 167.373688 -0.000012 0.336049
140.617554 168.901718 -0.000010 0.288502
140.017517 170.027512 -0.000008 0.253391
nan nan nan 0.000000
139.036407 171.779541 3.290915 0.258824
nan nan nan 0.000000
140.062744 169.821106 3.214591 0.317464
140.700943 168.603333 3.100131 0.430777
140.097443 169.754898 2.677514 0.391196
147.035294 156.516357 3.140193 0.242664
147.028152 156.529953 2.379542 0.278065
165.311646 121.642044 0.975909 0.258824
139.967545 170.002762 1.607820 0.258824
147.584305 155.468735 -0.000025 0.304753
144.331940 161.674789 -0.000018 0.304417
142.520554 165.131210 -0.000015 0.314137
141.364136 167.337830 -0.000011 0.300252
140.560394 168.871506 -0.000010 0.258305
139.968231 170.001465 -0.000008 0.251789
nan nan nan 0.000000
138.997818 171.763321 3.290179 0.258824
nan nan nan 0.000000
141.008148 167.861267 3.537220 0.258824
140.715179 168.429901 3.118591 0.258824
140.038605 169.743164 2.676144 0.458030
140.651794 168.552963 2.470881 0.260731
140.936264 168.000793 2.167012 0.258824
140.857635 168.153397 1.835797 0.258824
139.951691 169.911850 1.604216 0.276478
139.934921 169.944397 1.342418 0.258824
144.224243 161.618820 -0.000018 0.285725
142.437027 165.087799 -0.000015 0.245655
141.296051 167.302444 -0.000012 0.299580
140.503036 168.841705 -0.000010 0.269017
139.918762 169.975754 -0.000008 0.280339
nan nan nan 0.000000
138.960358 171.744995 3.290023 0.258824
nan nan nan 0.000000
140.946411 167.823029 3.538105 0.258824
140.636826 168.434402 3.114029 0.416876
139.630203 170.422211 2.611326 0.258824
140.587402 168.531982 2.470359 0.258824
140.937668 167.840317 2.169362 0.258824
140.448547 168.806213 1.848355 0.517647
140.970383 167.775696 1.487994 0.258824
139.912872 169.864014 1.337370 0.224445
144.116150 161.563599 -0.000018 0.307881
142.353210 165.044983 -0.000015 0.261921
141.227707 167.267548 -0.000011 0.300130
140.445450 168.812302 -0.000010 0.289036
139.869125 169.950394 -0.000009 0.239307
nan nan nan 0.000000
138.922791 171.726868 3.289884 0.258824
140.501984 168.553604 3.731632 0.422858
139.624878 170.316071 3.119653 0.258824
146.566910 156.366577 4.660834 0.233829
139.576263 170.413788 2.609960 0.258824
146.222336 157.058975 3.098285 0.240787
140.764832 168.025436 2.165385 0.258824
140.402618 168.753281 1.847919 0.364706
140.964264 167.624680 1.481498 0.258000
147.129364 155.236343 -0.000026 0.319234
140.629349 168.297668 0.872299 0.258824
140.570358 168.416199 0.565557 0.258824
141.159134 167.233109 -0.000012 0.284352
140.387680 168.783295 -0.000010 0.276844
139.819305 169.925385 -0.000009 0.324437
139.864090 169.706909 4.054053 0.258824
138.884933 171.709381 3.289654 0.214343
139.607224 170.232239 3.385682 0.258824
139.569824 170.308716 3.117018 0.257481
nan nan nan 0.000000
146.864655 155.390076 3.979118 0.203800
140.091385 169.242065 2.428272 0.461997
140.635223 168.129868 2.162914 0.258824
140.356674 168.699539 1.847462 0.483864
140.963013 167.459488 1.474248 0.258824
140.307724 168.799652 1.244811 0.258824
143.898834 161.455460 -0.000019 0.292180
140.532486 168.339966 0.557902 0.258824
141.090317 167.199158 -0.000012 0.266896
140.329697 168.754684 -0.000010 0.259159
139.769318 169.900726 -0.000009 0.335485
139.806381 169.694839 4.050466 0.258824
nan nan nan 0.000000
139.539886 170.249603 3.377493 0.258824
139.515701 170.299988 3.114683 0.219989
146.677994 155.389481 4.767431 0.290196
140.804062 167.617874 2.860137 0.258824
140.049408 169.188889 2.429723 0.341543
140.346634 168.570129 2.154372 0.258824
156.736389 134.449860 1.226212 0.198810
140.413300 168.431335 1.528990 0.258824
140.272263 168.724976 1.240569 0.258824
140.532150 168.183929 0.865455 0.258824
142.099960 164.920059 -0.000015 0.281071
141.021255 167.165695 -0.000012 0.303059
140.271530 168.726501 -0.000010 0.260746
139.719162 169.876419 -0.000009 0.249134
nan nan nan 0.000000
nan nan nan 0.000000
139.992157 169.167145 3.590706 0.279545
139.711655 169.761673 3.199275 0.258824
140.516418 168.055893 3.147066 0.263600
140.645828 167.781601 2.842439 0.421027
140.786911 167.482590 2.520983 0.215686
140.271164 168.575760 2.153758 0.258824
nan nan nan 0.000000
153.633118 140.253845 -0.000044 0.290959
140.236664 168.648880 1.236190 0.252064
140.483109 168.126495 0.861915 0.258824
142.014969 164.879593 -0.000015 0.294621
140.951981 167.132706 -0.000013 0.346716
140.213150 168.698700 -0.000010 0.246708
139.668823 169.852463 -0.000009 0.278981
139.386078 170.330154 3.861616 0.258824
nan nan nan 0.000000
139.657425 169.744476 3.469747 0.258824
139.229218 170.668747 3.047078 0.258824
139.384995 170.332520 2.854682 0.258824
139.362762 170.380508 2.604839 0.189059
140.891464 167.080780 2.541040 0.258824
155.839142 134.815994 2.762105 0.258640
140.216675 168.537323 1.846050 0.258824
153.375641 140.133484 -0.000044 0.294301
140.200317 168.572632 1.231789 0.258824
140.433853 168.068542 0.858276 0.256794
141.929703 164.839737 -0.000015 0.316442
140.882462 167.100204 -0.000012 0.294911
140.154587 168.671326 -0.000010 0.267445
139.618332 169.828857 -0.000009 0.263737
nan nan nan 0.000000
nan nan nan 0.000000
139.783112 169.331909 3.547512 0.258824
nan nan nan 0.000000
139.331741 170.324341 2.852982 0.258824
139.309937 170.372269 2.603645 0.258824
145.794739 156.114563 3.131151 0.178347
140.101837 168.631165 2.151770 0.258824
140.169434 168.482544 1.845558 0.258824
140.143951 168.538559 1.539366 0.258824
140.218124 168.375488 1.216488 0.258824
143.459778 161.248306 -0.000019 0.300572
140.377106 168.025955 0.525608 0.258824
140.812714 167.068192 -0.000012 0.277760
140.095840 168.644348 -0.000010 0.295491
139.567673 169.805603 -0.000009 0.314046
145.661560 156.018585 7.775704 0.291341
139.568359 169.667313 3.751774 0.258824
145.741623 155.839264 6.231260 0.388113
140.389587 167.827789 3.501954 0.258824
139.278702 170.316162 2.851333 0.258824
139.257355 170.363983 2.602494 0.258824
139.571457 169.660385 2.398833 0.266667
140.054932 168.577393 2.152257 0.258824
139.516846 169.782700 1.869343 0.258824
140.105026 168.465179 1.536865 0.258824
140.178894 168.299728 1.212147 0.258824
140.256165 168.126648 0.872824 0.258824
140.337128 167.945297 0.517136 0.258824
140.742767 167.036667 -0.000013 0.286076
140.036896 168.617798 -0.000010 0.284428
139.516846 169.782700 -0.000009 0.269474
nan nan nan 0.000000
139.514450 169.649261 3.750629 0.279744
140.095459 168.323013 3.738313 0.258824
139.247314 170.259033 3.103595 0.258824
139.225830 170.308075 2.849723 0.301793
139.539764 169.591492 2.669789 0.258824
139.514450 169.649261 2.398200 0.258824
145.452881 156.093781 2.374811 0.304326
140.073257 168.373703 1.844573 0.258824
140.065750 168.390808 1.534304 0.258824
146.049652 154.731537 -0.000027 0.284779
140.216217 168.047348 0.866339 0.288853
141.672241 164.723709 -0.000015 0.282994
140.672577 167.005630 -0.000013 0.256825
139.977768 168.591644 -0.000010 0.273121
139.465881 169.760147 -0.000009 0.313313
nan nan nan 0.000000
139.460419 169.631683 3.749468 0.327047
139.442200 169.674072 3.465480 0.258824
139.194244 170.250977 3.101555 0.258824
139.173203 170.299927 2.848173 0.439704
139.484741 169.575073 2.669228 0.258824
139.457733 169.637924 2.397601 0.203449
139.431229 169.699585 2.131341 0.440894
140.114670 168.109390 1.840336 0.258824
152.337555 139.670013 -0.000045 0.295140
139.933868 168.530075 1.237509 0.446723
140.175781 167.967209 0.859733 0.364126
141.585907 164.686249 -0.000015 0.264210
140.602188 166.975082 -0.000012 0.306996
139.918472 168.565918 -0.000010 0.289433
139.414734 169.737961 -0.000009 0.290333
145.244659 155.764450 7.792534 0.650767
nan nan nan 0.000000
139.388580 169.656525 3.464595 0.258824
139.141373 170.242935 3.099582 0.258824
145.207764 155.851944 4.649403 0.466697
139.427673 169.563766 2.668248 0.254780
139.401154 169.626663 2.397022 0.258824
139.741379 168.819580 2.146579 0.301961
140.031113 168.132248 1.841216 0.258824
152.076050 139.558685 -0.000045 0.293278
145.736755 154.597061 -0.000027 0.290044
140.134796 167.886292 0.853014 0.349477
141.499298 164.649384 -0.000015 0.286732
140.531586 166.945038 -0.000012 0.260029
139.858978 168.540588 -0.000010 0.264027
139.363449 169.716125 -0.000009 0.264912
145.080109 155.739914 7.782325 0.176776
145.083496 155.731705 6.987660 0.540444
nan nan nan 0.000000
139.088684 170.234955 3.097662 0.258824
nan nan nan 0.000000
145.026291 155.870087 3.881258 0.706188
147.050247 150.973557 3.387431 0.258824
139.699966 168.756073 2.147276 0.321569
139.734985 168.671356 1.851223 0.258824
139.648117 168.881500 1.564521 0.258824
140.017654 167.987473 1.193842 0.258824
140.093445 167.804138 0.846125 0.258824
140.172928 167.611816 0.481301 0.258824
140.460770 166.915466 -0.000012 0.311360
139.799332 168.515686 -0.000010 0.319371
139.312012 169.694656 -0.000009 0.270832
nan nan nan 0.000000
139.298691 169.579086 3.746495 0.258824
nan nan nan 0.000000
140.194412 167.368484 3.553312 0.258824
139.021881 170.262253 2.845467 0.258824
144.868332 155.833405 3.879137 0.962936
139.633850 168.751938 2.441103 0.357900
139.263458 169.666046 2.130790 0.258824
139.867020 168.176483 1.842910 0.165316
151.550720 139.341537 -0.000046 0.290608
139.975952 167.907623 1.189078 0.258824
140.051392 167.721466 0.839155 0.258824
140.130600 167.525955 0.471892 0.258824
140.389740 166.886398 -0.000013 0.326192
139.739502 168.491196 -0.000010 0.312551
139.260422 169.673538 -0.000009 0.288273
nan nan nan 0.000000
139.244965 169.561401 3.745719 0.258824
139.537308 168.825195 3.614849 0.258824
140.144302 167.296600 3.560440 0.258824
138.972549 170.247437 2.844936 0.258824
nan nan nan 0.000000
139.857834 168.018005 2.478664 0.258824
139.207840 169.654907 2.130620 0.258824
139.183762 169.715546 1.870447 0.258824
139.891022 167.934448 1.516919 0.258824
139.951218 167.782852 1.180338 0.258824
140.009048 167.637192 0.831972 0.258824
141.237946 164.542419 -0.000016 0.313573
140.318527 166.857834 -0.000013 0.272175
139.679489 168.467133 -0.000010 0.252491
139.208679 169.652786 -0.000009 0.261616
nan nan nan 0.000000
nan nan nan 0.000000
139.469437 168.828766 3.609728 0.233555
138.937119 170.197098 3.094506 0.258824
138.923370 170.232452 2.844470 0.258824
138.909805 170.267303 2.598830 0.258824
146.361282 151.113220 3.368461 0.355459
146.008606 152.019775 2.439910 0.257816
139.128113 169.706161 1.870638 0.258824
139.546509 168.630661 1.554943 0.258824
139.891556 167.743698 1.179139 0.258824
142.565155 160.871185 -0.000020 0.312703
140.044495 167.350601 0.452430 0.321843
140.247101 166.829758 -0.000013 0.328176
139.619324 168.443481 -0.000011 0.264973
139.156799 169.632401 -0.000009 0.261418
nan nan nan 0.000000
nan nan nan 0.000000
144.433411 155.626923 6.176017 0.160784
138.887665 170.182220 3.093930 0.258824
nan nan nan 0.000000
138.860947 170.252350 2.598536 0.258824
139.120621 169.570816 2.394437 0.258824
139.097076 169.632599 2.130303 0.455116
139.781891 167.835251 1.838223 0.258824
150.757156 139.029633 -0.000046 0.289937
144.946564 154.280075 -0.000028 0.302312
142.451889 160.827576 -0.000020 0.315190
140.000687 167.260986 0.442361 0.251835
140.175491 166.802185 -0.000013 0.292470
139.558990 168.420258 -0.000011 0.289784
139.104782 169.612366 -0.000009 0.327489
nan nan nan 0.000000
nan nan nan 0.000000
139.337875 168.828033 3.601329 0.258824
138.838211 170.167511 3.093382 0.200183
nan nan nan 0.000000
144.241150 155.683884 3.871916 0.729686
139.064865 169.559921 2.393972 0.258824
139.040924 169.624084 2.130109 0.321569
139.812134 167.556717 1.833783 0.258824
150.491211 138.929367 -0.000046 0.294697
144.787231 154.220001 -0.000028 0.301518
142.338318 160.784760 -0.000020 0.280400
139.956192 167.170517 0.432130 0.290700
140.103699 166.775116 -0.000013 0.305089
139.498505 168.397446 -0.000011 0.317082
139.052628 169.592697 -0.000009 0.286183
nan nan nan 0.000000
nan nan nan 0.000000
139.272537 168.827866 3.597239 0.258824
nan nan nan 0.000000
144.105728 155.590057 4.631061 0.384283
138.763153 170.223038 2.597984 0.428351
139.009384 169.548615 2.393549 0.258824
139.889404 167.138321 2.173078 0.258824
139.461929 168.309128 1.847318 0.258824
150.224579 138.830933 -0.000046 0.292561
139.562103 168.034744 1.211001 0.258824
139.775558 167.450119 0.821424 0.258824
139.911255 167.078445 0.421626 0.253697
140.031708 166.748550 -0.000013 0.287907
139.437851 168.375061 -0.000011 0.336049
139.000336 169.573395 -0.000010 0.337072
nan nan nan 0.000000
nan nan nan 0.000000
139.207901 168.826614 3.593461 0.258824
nan nan nan 0.000000
143.949448 155.552917 4.628972 0.160784
nan nan nan 0.000000
nan nan nan 0.000000
138.925735 169.616547 2.129579 0.258824
139.425217 168.218262 1.846124 0.258824
139.403366 168.279449 1.541233 0.258824
144.467316 154.103195 -0.000028 0.290166
139.717743 167.399353 0.818189 0.258824
139.865631 166.985367 0.410939 0.242679
139.959534 166.722488 -0.000013 0.313069
139.377045 168.353104 -0.000011 0.302831
138.947906 169.554474 -0.000010 0.293721
nan nan nan 0.000000
140.623596 164.589035 4.856230 0.212757
nan nan nan 0.000000
nan nan nan 0.000000
138.484116 170.712997 2.775100 0.215351
138.804749 169.795212 2.632167 0.258824
nan nan nan 0.000000
138.868484 169.612793 2.129324 0.258824
138.842804 169.686310 1.871950 0.318898
139.365616 168.189835 1.537700 0.258824
139.565109 167.618805 1.178800 0.258824
141.995865 160.661072 -0.000020 0.303319
139.819473 166.890717 0.399981 0.317388
139.887177 166.696930 -0.000013 0.261128
139.316101 168.331573 -0.000010 0.332509
138.895355 169.535904 -0.000009 0.308476
138.643143 170.101852 3.845387 0.247059
140.512360 164.629044 4.840218 0.290196
143.627304 155.508926 6.146383 0.362631
143.630295 155.500168 5.381627 0.459358
138.429581 170.727158 2.771513 0.258824
nan nan nan 0.000000
138.837128 169.533920 2.391410 0.258824
138.811493 169.608963 2.129079 0.258824
138.786392 169.682465 1.872192 0.258824
149.420593 138.546982 -0.000043 0.292912
139.536774 167.485443 1.169223 0.279377
141.881149 160.621445 -0.000020 0.295521
139.772629 166.794891 0.388815 0.244343
139.814651 166.671875 -0.000013 0.274113
139.254990 168.310455 -0.000011 0.261540
138.842667 169.517700 -0.000009 0.329274
138.598877 170.072037 3.848917 0.258824
140.427841 164.592316 4.841892 0.305272
nan nan nan 0.000000
nan nan nan 0.000000
138.376740 170.737595 2.768431 0.293019
nan nan nan 0.000000
138.548813 170.222015 2.354851 0.258824
138.991684 168.895126 2.141090 0.258824
138.730164 169.678680 1.872427 0.258824
139.288925 168.004593 1.530306 0.319493
139.508743 167.345978 1.159123 0.254963
141.766144 160.582611 -0.000020 0.312520
139.424683 167.597839 0.518174 0.258824
139.741943 166.647324 -0.000013 0.304021
139.193741 168.289780 -0.000011 0.275822
138.789841 169.499863 -0.000009 0.357733
nan nan nan 0.000000
140.343613 164.554291 4.843995 0.284199
140.344330 164.552109 4.396399 0.235538
143.310654 155.453735 5.373146 0.519280
138.321762 170.755768 2.764463 0.258824
nan nan nan 0.000000
138.498245 170.214432 2.354427 0.258824
nan nan nan 0.000000
138.674255 169.674591 1.872651 0.258824
139.248962 167.911850 1.526594 0.290196
139.447861 167.301758 1.157244 0.305974
141.650894 160.544586 -0.000020 0.275532
139.403381 167.438202 0.496676 0.258824
139.669067 166.623276 -0.000013 0.289235
139.132339 168.269531 -0.000011 0.282322
138.736908 169.482407 -0.000009 0.287663
138.546356 169.897247 3.886463 0.250736
138.694504 169.431870 3.732064 0.258824
nan nan nan 0.000000
143.151459 155.430466 5.369190 0.270222
nan nan nan 0.000000
nan nan nan 0.000000
138.447845 170.206711 2.354029 0.258824
138.765366 169.209259 2.135054 0.332845
nan nan nan 0.000000
139.226486 167.760651 1.519862 0.258824
143.660660 153.830826 -0.000028 0.282551
139.554138 166.731354 0.751392 0.258824
140.351700 164.225830 -0.000015 0.290196
139.596024 166.599747 -0.000013 0.279561
139.070816 168.249695 -0.000011 0.270024
138.683853 169.465302 -0.000009 0.248005
nan nan nan 0.000000
138.646103 169.398941 3.735713 0.258824
140.525009 163.350632 4.614693 0.235294
142.992584 155.407394 5.365385 0.443931
nan nan nan 0.000000
138.412445 170.151077 2.594374 0.258824
138.397583 170.198929 2.353653 0.258824
145.586105 147.058701 2.514316 0.258824
138.562805 169.667068 1.873086 0.332219
139.204163 167.602509 1.512780 0.258824
139.327103 167.206772 1.152826 0.223529
141.419586 160.470963 -0.000021 0.288060
139.310760 167.259369 0.475566 0.252476
139.522827 166.576721 -0.000013 0.350637
139.009140 168.230301 -0.000011 0.248936
138.630676 169.448593 -0.000009 0.331426
nan nan nan 0.000000
138.603409 169.346344 3.743866 0.275486
140.469925 163.186462 4.640309 0.274205
140.559692 162.890259 4.198369 0.267918
nan nan nan 0.000000
138.361893 170.143402 2.593760 0.258824
138.347412 170.191193 2.353293 0.256794
138.557922 169.496490 2.129559 0.352941
138.507370 169.663330 1.873294 0.258824
139.172791 167.467300 1.506882 0.258824
139.262863 167.170059 1.151493 0.258824
141.303543 160.435364 -0.000021 0.306233
139.240341 167.244354 0.476501 0.247059
139.449463 166.554214 -0.000013 0.248646
138.947342 168.211349 -0.000011 0.248951
138.577393 169.432236 -0.000009 0.307012
nan nan nan 0.000000
nan nan nan 0.000000
140.406845 163.042450 4.662124 0.278462
nan nan nan 0.000000
138.176437 170.592773 2.777411 0.251606
138.311478 170.135666 2.593182 0.258824
nan nan nan 0.000000
nan nan nan 0.000000
138.452103 169.659592 1.873495 0.258824
139.105881 167.446426 1.506842 0.258824
143.172272 153.680969 -0.000029 0.278904
141.187271 160.400558 -0.000021 0.298619
140.081741 164.143005 -0.000016 0.291264
139.375946 166.532227 -0.000013 0.295109
138.885406 168.192810 -0.000011 0.320150
138.523987 169.416260 -0.000009 0.301747
nan nan nan 0.000000
nan nan nan 0.000000
139.982452 164.147644 4.447449 0.443503
nan nan nan 0.000000
138.144165 170.534348 2.782825 0.223529
138.261139 170.127960 2.592634 0.258824
nan nan nan 0.000000
nan nan nan 0.000000
147.391846 138.405365 1.341546 0.258824
139.038910 167.425781 1.506789 0.258824
143.008789 153.633301 -0.000029 0.293217
141.070755 160.366577 -0.000021 0.312352
139.991364 164.116653 -0.000016 0.295262
139.302277 166.510742 -0.000013 0.255482
138.823334 168.174713 -0.000011 0.319448
138.470474 169.400650 -0.000010 0.288075
nan nan nan 0.000000
139.948639 163.920319 4.950321 0.326375
139.834015 164.329269 4.408279 0.491295
139.485001 165.574524 3.771464 0.273899
138.224564 170.071487 2.836573 0.258824
138.210892 170.120270 2.592114 0.258824
nan nan nan 0.000000
nan nan nan 0.000000
138.342117 169.652069 1.873874 0.258824
138.971863 167.405243 1.506718 0.258824
142.844986 153.586777 -0.000028 0.295674
140.953995 160.333420 -0.000021 0.283680
139.900818 164.090927 -0.000016 0.295399
139.228470 166.489761 -0.000013 0.294484
138.761154 168.157043 -0.000011 0.281544
138.416855 169.385422 -0.000010 0.343450
nan nan nan 0.000000
nan nan nan 0.000000
139.748535 164.291565 4.410747 0.449744
139.453049 165.374802 3.798757 0.317525
147.122131 137.259293 6.747608 0.258824
138.160721 170.112625 2.591622 0.258824
nan nan nan 0.000000
nan nan nan 0.000000
138.287384 169.648270 1.874053 0.258824
138.267929 169.719559 1.625519 0.258824
142.680862 153.541382 -0.000029 0.274250
140.837021 160.301071 -0.000021 0.283543
139.810104 164.065842 -0.000016 0.298756
139.154510 166.469315 -0.000013 0.302815
138.698837 168.139816 -0.000011 0.262669
138.363129 169.370560 -0.000010 0.365087
139.790268 163.773514 5.446740 0.159136
139.752121 163.917313 4.939775 0.549081
139.620499 164.413437 4.383278 0.206653
139.355499 165.412384 3.789615 0.289158
146.641022 137.949234 6.656583 0.473899
138.110641 170.104950 2.591163 0.210300
146.397018 138.869019 3.941791 0.258824
nan nan nan 0.000000
138.232819 169.644409 1.874224 0.258824
146.701050 137.722992 -0.000040 0.291905
142.516418 153.497131 -0.000029 0.289418
140.719818 160.269547 -0.000021 0.288701
139.719208 164.041397 -0.000016 0.289921
139.080399 166.449387 -0.000013 0.297093
138.636414 168.123016 -0.000011 0.293965
138.309296 169.356079 -0.000009 0.352850
139.798859 163.355408 5.548606 0.507622
nan nan nan 0.000000
nan nan nan 0.000000
139.259171 165.448639 3.780796 0.231830
146.060623 139.068497 6.515115 0.257404
146.319290 138.065231 5.303103 0.258824
148.329819 130.267212 4.374649 0.260594
nan nan nan 0.000000
138.178406 169.640488 1.874387 0.258824
146.426071 137.651077 -0.000040 0.293889
142.351669 153.454041 -0.000029 0.289677
140.602386 160.238831 -0.000021 0.317510
139.628143 164.017578 -0.000016 0.329839
139.006165 166.429962 -0.000013 0.284108
138.573868 168.106659 -0.000011 0.285405
138.255371 169.341980 -0.000010 0.316320
nan nan nan 0.000000
nan nan nan 0.000000
nan nan nan 0.000000
139.163422 165.485977 3.771929 0.237491
139.397461 164.551285 3.485053 0.239002
147.773560 131.099457 5.886043 0.246036
147.763168 131.140961 4.326190 0.573877
146.589005 135.830231 2.695740 0.258824
138.124161 169.636505 1.874542 0.258824
146.150604 137.581100 -0.000039 0.288579
142.186630 153.412125 -0.000029 0.282063
140.484756 160.208939 -0.000021 0.298802
139.536911 163.994385 -0.000016 0.285908
138.931793 166.411057 -0.000013 0.268757
138.511215 168.090744 -0.000011 0.281437
138.201355 169.328247 -0.000010 0.316197
nan nan nan 0.000000
nan nan nan 0.000000
nan nan nan 0.000000
139.622177 163.244797 4.111001 0.276219
145.814774 137.759430 6.654337 0.394171
139.635574 163.189682 3.171544 0.477714
145.807907 137.787720 3.986151 0.299321
145.804123 137.803253 2.661316 0.475868
138.064240 169.656433 1.875094 0.258824
145.786667 137.875122 0.018268 0.470909
142.021301 153.371323 -0.000029 0.291371
140.366913 160.179871 -0.000021 0.291768
139.445511 163.971848 -0.000016 0.308782
138.857285 166.392685 -0.000013 0.337362
138.448441 168.075256 -0.000011 0.249729
138.147232 169.314896 -0.000010 0.282261
nan nan nan 0.000000
nan nan nan 0.000000
138.976349 165.552719 4.153696 0.236652
139.007584 165.420151 3.775959 0.269505
139.386032 163.813889 3.567175 0.209079
139.560898 163.071701 3.179527 0.261006
147.018921 131.416931 4.304382 0.234485
145.515182 137.799377 2.660278 0.258824
138.004440 169.677887 1.875663 0.258824
145.598236 137.446884 -0.000039 0.295277
141.855682 153.331696 -0.000029 0.286015
140.248871 160.151627 -0.000021 0.276036
139.353973 163.949936 -0.000016 0.270329
138.782654 166.374832 -0.000013 0.304189
138.385574 168.060211 -0.000011 0.319722
138.093018 169.301926 -0.000010 0.280186
139.206467 164.173187 5.314496 0.267628
nan nan nan 0.000000
138.891205 165.554428 4.149892 0.221927
139.403076 163.311798 4.093874 0.275639
139.046783 164.872818 3.439687 0.567193
139.485092 162.952469 3.187647 0.259724
145.029922 138.659515 3.935698 0.258824
137.971542 169.583603 2.125718 0.258824
137.944733 169.701080 1.876253 0.258824
145.321350 137.382675 -0.000038 0.291722
141.689804 153.293228 -0.000029 0.283070
140.130646 160.124207 -0.000021 0.321416
139.262283 163.928665 -0.000016 0.312901
138.707901 166.357483 -0.000013 0.319738
138.322586 168.045609 -0.000011 0.301076
138.038712 169.289337 -0.000010 0.265446
139.108719 164.187378 5.305661 0.481529
nan nan nan 0.000000
138.806305 165.556351 4.146166 0.256016
138.916351 165.058182 3.825295 0.241566
139.254120 163.529266 3.595722 0.661585
nan nan nan 0.000000
139.337097 163.153656 2.700332 0.201678
137.911514 169.606735 2.125134 0.258824
145.241791 136.425262 1.318796 0.258824
145.044037 137.320404 -0.000038 0.296895
141.523651 153.255920 -0.000029 0.285557
140.012222 160.097610 -0.000021 0.305715
139.170441 163.908051 -0.000016 0.302907
138.633026 166.340668 -0.000013 0.291417
138.259521 168.031433 -0.000011 0.290272
137.984329 169.277115 -0.000010 0.239918
139.039352 164.071106 5.330433 0.523568
nan nan nan 0.000000
138.911423 164.670029 4.307825 0.233295
138.868927 164.868958 3.851231 0.521477
139.145966 163.572021 3.588274 0.261067
144.517578 138.424484 5.240538 0.258824
142.072723 149.870239 3.366564 0.259159
137.852707 169.626480 2.124614 0.258824
nan nan nan 0.000000
144.766296 137.260086 -0.000037 0.292683
141.357254 153.219757 -0.000029 0.295384
139.893616 160.071838 -0.000021 0.300816
139.078461 163.888062 -0.000016 0.307454
138.558044 166.324387 -0.000013 0.341329
138.196335 168.017715 -0.000011 0.246479
137.929855 169.265289 -0.000010 0.261326
138.910736 164.235123 5.283609 0.331746
nan nan nan 0.000000
138.852371 164.518005 4.332687 0.238880
138.819214 164.678711 3.877336 0.558022
nan nan nan 0.000000
144.646866 136.432358 5.402577 0.252888
139.099472 163.320313 2.689887 0.252079
141.767822 150.386963 2.445895 0.258824
141.617538 151.115341 1.566274 0.258824
144.488144 137.201675 -0.000037 0.294438
141.190598 153.184769 -0.000029 0.279423
139.774826 160.046890 -0.000021 0.315145
138.986328 163.868713 -0.000016 0.292058
138.482941 166.308624 -0.000013 0.264683
138.133072 168.004440 -0.000011 0.297765
137.875305 169.253830 -0.000010 0.232059
nan nan nan 0.000000
nan nan nan 0.000000
nan nan nan 0.000000
nan nan nan 0.000000
nan nan nan 0.000000
nan nan nan 0.000000
141.650742 150.000748 3.356096 0.258824
138.806732 164.288879 2.213313 0.258824
141.436005 151.079544 1.566290 0.258824
144.209579 137.145233 -0.000036 0.290150
141.023697 153.150940 -0.000029 0.308705
139.655884 160.022797 -0.000021 0.277653
138.894073 163.850021 -0.000016 0.309361
138.407745 166.293381 -0.000013 0.307515
138.069717 167.991592 -0.000011 0.302510
137.820679 169.242752 -0.000010 0.274708
138.776154 163.965134 5.343356 0.542062
138.779388 163.948242 4.886481 0.537255
nan nan nan 0.000000
138.661728 164.561707 3.889796 0.242985
nan nan nan 0.000000
141.459641 149.973999 4.262545 0.216358
138.837479 163.645401 2.671710 0.349554
143.768326 137.936996 2.652102 0.258824
138.731522 164.197845 1.785461 0.192157
142.382904 145.160263 0.403620 0.258824
140.856567 153.118286 -0.000029 0.294087
139.536758 159.999512 -0.000021 0.297429
138.801697 163.831970 -0.000016 0.332677
138.332428 166.278656 -0.000013 0.248264
138.006271 167.979187 -0.000011 0.295109
137.765961 169.232071 -0.000010 0.276295
138.682999 163.956467 5.341171 0.542397
138.686081 163.939743 4.884558 0.546029
138.680389 163.970612 4.424444 0.576944
138.547226 164.692139 3.867641 0.251347
nan nan nan 0.000000
138.703461 163.845627 3.102953 0.539910
138.733871 163.680832 2.669059 0.231739
138.663223 164.063614 2.216491 0.261524
nan nan nan 0.000000
142.183777 144.989304 0.397175 0.258824
140.689224 153.086792 -0.000029 0.276036
139.417480 159.977066 -0.000021 0.285374
138.709198 163.814560 -0.000016 0.292302
138.257019 166.264465 -0.000013 0.303105
137.942734 167.967239 -0.000011 0.305867
137.711182 169.221756 -0.000010 0.243763
138.642990 163.648819 5.415220 0.516396
139.330917 159.770157 5.795515 0.247700
139.622772 158.124588 5.501704 0.207095
138.457092 164.696991 3.864552 0.258091
138.586700 163.966232 3.531416 0.547280
nan nan nan 0.000000
138.587204 163.963364 2.654118 0.283787
140.343674 154.059982 2.382470 0.605692
nan nan nan 0.000000
141.982590 144.819397 0.390722 0.258824
140.521652 153.056458 -0.000029 0.299596
139.298050 159.955444 -0.000021 0.303059
138.616562 163.797791 -0.000016 0.304524
138.181503 166.250793 -0.000013 0.323323
137.879120 167.955719 -0.000011 0.269596
137.656326 169.211838 -0.000009 0.341512
138.571045 163.504227 5.447818 0.493996
138.545563 163.653992 4.940029 1.000000
138.459518 164.159607 4.383564 0.258824
nan nan nan 0.000000
138.489944 163.980835 3.527857 0.544289
138.494095 163.956390 3.091013 0.533150
138.495941 163.945526 2.654213 0.274800
140.722183 150.862946 2.435075 0.258824
140.921387 149.692291 1.545493 0.258824
141.780441 144.644104 0.383938 0.258824
140.353882 153.027313 -0.000029 0.294514
139.178467 159.934677 -0.000021 0.290150
138.523834 163.781677 -0.000017 0.278859
138.105896 166.237656 -0.000014 0.344778
137.815430 167.944656 -0.000011 0.334508
137.601410 169.202286 -0.000010 0.261082
nan nan nan 0.000000
139.174576 159.204041 5.910390 0.234379
138.355896 164.226837 4.368400 0.265202
