# This PCD file was generated using the MATLABÂ® pcwrite function
# from Computer Vision ToolboxÂ®.
# .PCD v.7 - Point Cloud Data file format
VERSION .7
FIELDS x y z intensity
SIZE 4 4 4 4
TYPE F F F F
COUNT 1 1 1 1
WIDTH 1327
HEIGHT 1
VIEWPOINT 0 0 0 1 0 0 0
POINTS 1327
DATA ascii
nan nan nan 0.000000
nan nan nan 0.000000
72.393311 197.339813 6.098146 0.289601
nan nan nan 0.000000
nan nan nan 0.000000
74.357330 199.003967 4.057833 0.227817
nan nan nan 0.000000
nan nan nan 0.000000
nan nan nan 0.000000
86.270264 209.098007 -0.000018 0.293370
73.819199 198.548004 0.000000 0.291615
68.473587 194.018555 0.000005 0.301976
65.496391 191.495926 0.000004 0.284871
63.595707 189.885437 0.000003 0.263279
62.274658 188.766098 0.000002 0.310170
61.301369 187.941406 0.000002 0.268803
nan nan nan 0.000000
nan nan nan 0.000000
nan nan nan 0.000000
nan nan nan 0.000000
72.698380 197.389786 4.621584 0.229633
72.799477 197.474243 3.879336 0.279103
92.962662 214.318466 4.416710 0.352956
nan nan nan 0.000000
nan nan nan 0.000000
86.453232 208.880524 -0.000018 0.294957
73.928833 198.417694 -0.000000 0.296101
68.551727 193.925690 0.000004 0.326513
65.556992 191.423904 0.000004 0.356542
63.645107 189.826721 0.000003 0.294057
62.316277 188.716629 0.000003 0.280201
61.337257 187.898758 0.000002 0.290410
75.532425 199.517822 8.594883 0.298848
74.175591 198.400330 7.306713 0.268360
72.996040 197.428833 6.192698 0.383612
72.981628 197.416962 5.415240 0.277150
74.255745 198.466339 4.838551 0.267506
74.439919 198.618027 4.042742 0.241733
74.930420 199.022003 3.255110 0.327504
84.849953 207.191833 2.628361 0.272145
69.759026 194.762802 1.691560 0.279911
86.634697 208.661774 -0.000018 0.293416
74.037552 198.286636 -0.000000 0.291981
68.629211 193.832275 0.000005 0.288792
65.617088 191.351456 0.000004 0.278553
63.694099 189.767654 0.000003 0.344594
62.357552 188.666870 0.000002 0.294667
61.372841 187.855850 0.000002 0.337636
74.217438 198.213348 8.133045 0.165042
74.224388 198.218994 7.290078 0.568704
73.306541 197.473740 6.241605 0.434531
nan nan nan 0.000000
74.305611 198.284943 4.829780 0.235950
73.512466 197.640930 3.933153 0.758434
nan nan nan 0.000000
69.779961 194.610291 2.307125 0.275853
69.914391 194.719437 1.690041 0.334340
86.814606 208.441742 -0.000017 0.295659
74.145348 198.154816 -0.000000 0.284657
68.706047 193.738312 0.000005 0.276585
65.676674 191.278580 0.000003 0.298604
63.742680 189.708252 0.000003 0.234455
62.398476 188.616821 0.000002 0.286275
61.408127 187.812698 0.000002 0.337209
73.654938 197.544159 7.918150 0.223529
74.272881 198.038788 7.273804 0.223529
74.290382 198.052795 6.447103 0.262928
nan nan nan 0.000000
73.772736 197.638443 4.735377 0.160784
73.883820 197.727356 3.961307 0.230488
75.009995 198.628799 3.245968 0.685435
69.761589 194.427750 2.305017 0.694575
69.680901 194.363159 1.696675 0.296925
84.720039 206.401123 0.143011 0.552087
74.252220 198.022247 -0.000000 0.298009
68.782219 193.643829 0.000004 0.313649
65.735748 191.205307 0.000004 0.284977
63.790840 189.648514 0.000003 0.304082
62.439049 188.566498 0.000002 0.270161
61.443115 187.769302 0.000002 0.260212
73.983971 197.593674 7.990389 0.565789
74.320961 197.859573 7.257852 0.297642
74.338577 197.873474 6.433668 0.273381
74.361130 197.891266 5.618717 0.247623
75.986176 199.173508 5.044600 0.321569
74.264961 197.815384 3.990265 0.546151
74.380981 197.906937 3.199712 0.651743
69.743431 194.247665 2.302951 0.218647
70.936859 195.189346 1.672173 0.218448
70.442825 194.799530 1.046732 0.270954
74.358170 197.888931 -0.000000 0.295735
68.857735 193.548813 0.000004 0.309606
65.794312 191.131607 0.000004 0.328267
63.838581 189.588440 0.000003 0.305394
62.479271 188.515884 0.000002 0.240360
61.477795 187.725662 0.000002 0.290318
74.362221 197.676361 8.077747 0.270344
74.368866 197.681534 7.242282 0.406317
76.081673 199.013718 6.811294 0.271427
74.408844 197.712616 5.607946 0.264271
74.450165 197.744751 4.804134 0.501228
70.631401 194.774582 3.601965 0.633265
74.780083 198.001358 3.218007 0.274022
70.178513 194.422333 2.310318 0.255314
84.869400 205.848679 1.385127 0.249592
70.884628 194.971542 1.024435 0.279164
74.463181 197.754883 -0.000000 0.303807
68.932579 193.453262 0.000005 0.308705
65.852364 191.057526 0.000003 0.301091
63.885906 189.528046 0.000002 0.266606
62.519138 188.464996 0.000002 0.250233
61.512169 187.681778 0.000002 0.345724
74.409866 197.499435 8.060109 0.749035
74.416481 197.504517 7.227055 0.196201
74.434082 197.517990 6.407672 0.496483
74.456253 197.535004 5.597408 0.438087
70.610085 194.586380 4.232409 0.235874
70.713882 194.665939 3.601874 0.243168
75.128311 198.050217 3.233014 0.622797
70.654556 194.620468 2.318465 0.282963
70.849625 194.770004 1.677513 0.404288
70.441750 194.457321 1.057095 0.267964
74.567261 197.620102 -0.000000 0.299199
69.006767 193.357208 0.000005 0.275639
65.909897 190.983017 0.000003 0.296834
63.932808 189.467300 0.000003 0.321126
62.558655 188.413818 0.000002 0.296727
61.546242 187.637665 0.000002 0.298802
nan nan nan 0.000000
74.463829 197.328522 7.212171 0.733791
74.481400 197.341797 6.395106 0.221942
74.503349 197.358383 5.587099 0.439246
74.544037 197.389114 4.787811 0.348653
70.831741 194.584061 3.605497 0.258824
70.584686 194.397385 2.946709 0.235294
69.870140 193.857452 2.300689 0.172549
70.951538 194.674576 1.677132 0.565728
70.599266 194.408401 1.052393 0.329763
74.670395 197.484604 -0.000000 0.283192
69.080276 193.260620 0.000005 0.276799
65.966904 190.908112 0.000004 0.324605
63.979279 189.406235 0.000003 0.292378
62.597805 188.362381 0.000002 0.324239
61.580002 187.593307 0.000002 0.284108
nan nan nan 0.000000
74.510895 197.153503 7.197621 0.253025
74.528458 197.166580 6.382826 0.632227
74.549988 197.182617 5.576989 0.356466
70.506111 194.171127 4.194065 0.278431
70.510796 194.174622 3.564300 0.235294
70.540497 194.196732 2.939057 0.237064
70.998787 194.538025 2.322146 1.000000
70.718323 194.329163 1.683576 0.229984
70.630531 194.263779 1.055428 0.249729
70.795090 194.386337 0.406635 0.221973
69.153107 193.163544 0.000004 0.274601
66.023384 190.832825 0.000003 0.314763
64.025330 189.344849 0.000003 0.271275
62.636600 188.310669 0.000002 0.294560
61.613449 187.548721 0.000002 0.342718
nan nan nan 0.000000
74.557709 196.979462 7.183406 0.277119
74.575241 196.992340 6.370821 0.247059
71.105553 194.445908 4.924808 0.259174
70.919128 194.309082 4.241708 0.217517
70.947739 194.330078 3.600688 0.551949
70.635620 194.101013 2.940020 1.000000
70.882927 194.282516 2.318136 0.607843
70.734680 194.173721 1.684873 0.296666
70.787796 194.212692 1.050707 0.265965
70.806870 194.226700 0.413640 0.290196
69.225258 193.065933 0.000005 0.290990
66.079346 190.757126 0.000003 0.264729
64.070946 189.283157 0.000003 0.273884
62.675034 188.258682 0.000002 0.366751
61.646584 187.503891 0.000002 0.277333
76.555695 198.217682 8.598711 0.215686
74.604271 196.806366 7.169518 0.640375
74.621765 196.819031 6.359096 0.212375
74.642838 196.834259 5.557519 0.252262
70.704964 193.986313 4.199929 0.290196
70.713104 193.992203 3.568824 0.280430
70.688705 193.974548 2.938469 0.225879
70.589676 193.902939 2.310600 0.288914
66.380173 190.858536 1.774411 0.258824
70.812813 194.064316 1.054006 0.259220
71.145554 194.304947 0.387416 0.276478
69.296722 192.967834 0.000004 0.285435
66.134773 190.681061 0.000003 0.271870
64.116135 189.221130 0.000003 0.350011
62.713100 188.206436 0.000002 0.268620
61.679409 187.458847 0.000002 0.265965
76.568306 198.000824 8.569599 0.253254
74.650459 196.634094 7.155922 0.263233
74.668045 196.646622 6.347641 0.374136
74.688858 196.661453 5.548115 0.278859
71.068291 194.081299 4.240256 0.253498
75.967575 197.572723 4.090032 0.293339
71.475502 194.371490 2.981240 0.758083
84.103790 203.370926 2.580600 0.234043
66.488434 190.817505 1.773364 0.258824
71.015854 194.043930 1.046488 0.894850
75.073387 196.935486 0.000000 0.292424
69.367508 192.869247 0.000005 0.319661
66.189667 190.604584 0.000003 0.280491
64.160881 189.158798 0.000003 0.291691
62.750801 188.153915 0.000002 0.302052
61.711918 187.413559 0.000002 0.341833
74.690331 196.458450 7.962447 0.276982
74.696518 196.462799 7.142679 0.384939
76.844597 197.971100 6.810140 0.257359
74.734604 196.489548 5.538929 0.422675
71.225975 194.025894 4.251385 0.300694
71.211212 194.015533 3.603196 0.216922
71.437881 194.174683 2.974148 0.238666
66.276085 190.550262 2.221274 0.215686
67.644913 191.511398 1.751356 0.228916
66.526154 190.725845 1.320693 0.312047
75.171730 196.796478 -0.000000 0.299611
69.437599 192.770157 0.000004 0.264973
66.244026 190.527740 0.000003 0.301183
64.205200 189.096146 0.000003 0.271687
62.788136 188.101135 0.000002 0.320592
61.744106 187.368057 0.000002 0.308873
nan nan nan 0.000000
74.742348 196.292374 7.129751 0.252247
74.759857 196.304489 6.325538 0.326284
74.780106 196.318497 5.529958 0.521965
74.821068 196.346817 4.743358 0.219013
71.235130 193.866104 3.597799 0.583093
71.410179 193.987198 2.967765 0.290196
66.404984 190.524628 2.222765 0.368612
67.650940 191.386581 1.752443 0.268147
71.051117 193.738800 1.053684 0.257542
75.269096 196.656769 -0.000000 0.299519
69.506996 192.670593 0.000005 0.314748
66.297852 190.450516 0.000003 0.296712
64.249077 189.033188 0.000003 0.283848
62.825104 188.048096 0.000002 0.274403
61.775982 187.322327 0.000002 0.306966
74.781898 196.118668 7.932884 0.228809
74.787941 196.122787 7.117136 0.290196
74.805412 196.134689 6.314883 0.278431
88.409439 205.406113 7.959666 0.247059
77.968498 198.290405 5.168416 0.243580
84.551033 202.776535 4.911452 0.277440
81.038071 200.382370 3.535524 0.327916
66.572548 190.523834 2.225018 0.259815
66.782974 190.667236 1.770815 0.262974
67.579727 191.210236 1.264587 0.216510
75.365486 196.516388 -0.000000 0.284092
69.575699 192.570541 0.000005 0.292103
66.351128 190.372925 0.000003 0.319936
64.292511 188.969940 0.000003 0.257771
62.861694 187.994812 0.000002 0.264210
61.807533 187.276367 0.000002 0.243198
nan nan nan 0.000000
nan nan nan 0.000000
74.850739 195.965729 6.304490 0.277958
74.870422 195.978928 5.512661 0.290196
76.665138 197.183807 4.972894 0.290196
77.630821 197.832108 4.214300 0.200305
67.840866 191.259674 2.747400 0.269154
66.560638 190.400208 2.223723 0.267918
67.347878 190.928711 1.760761 0.219730
67.447968 190.995911 1.275848 0.288121
75.460892 196.375336 -0.000000 0.308446
69.643700 192.470001 0.000004 0.269780
66.403862 190.294952 0.000003 0.325780
64.335503 188.906372 0.000003 0.250370
62.897915 187.941254 0.000002 0.267109
61.838764 187.230194 0.000002 0.247166
nan nan nan 0.000000
nan nan nan 0.000000
76.752968 197.025604 6.699464 0.280629
nan nan nan 0.000000
76.850105 197.089828 4.984606 0.325505
77.850548 197.751389 4.225624 0.507668
88.779930 204.978592 3.977165 0.521660
66.802567 190.445755 2.227431 0.253925
67.512901 190.915482 1.758634 0.211521
67.256111 190.745667 1.290508 0.218051
75.555313 196.233643 -0.000001 0.286351
69.710999 192.369003 0.000004 0.262516
66.456055 190.216629 0.000003 0.276997
64.378059 188.842514 0.000002 0.331106
62.933762 187.887451 0.000002 0.336492
61.869675 187.183807 0.000002 0.287678
nan nan nan 0.000000
nan nan nan 0.000000
nan nan nan 0.000000
78.251976 197.786682 6.078985 0.241337
67.288292 190.646301 3.658246 0.244709
78.065987 197.665558 4.236530 0.240879
67.718491 190.926483 2.733356 0.283284
66.537674 190.157440 2.221218 0.268956
67.465790 190.761902 1.760657 0.308888
67.077751 190.509186 1.304209 0.245472
75.648743 196.091263 0.000000 0.301595
69.777588 192.267532 0.000004 0.303838
66.507706 190.137924 0.000003 0.278050
64.420158 188.778366 0.000002 0.293996
62.969231 187.833405 0.000002 0.251926
61.900257 187.137207 0.000002 0.280827
nan nan nan 0.000000
nan nan nan 0.000000
nan nan nan 0.000000
78.411285 197.660797 6.088696 0.251652
67.463554 190.639175 3.674735 0.262684
67.065979 190.384171 3.154938 0.235859
67.398560 190.597488 2.711382 0.235126
67.496872 190.660538 2.238870 0.213550
67.661743 190.766281 1.757925 0.371145
67.201416 190.471039 1.300123 0.358526
67.653938 190.761276 0.787788 0.279957
69.843468 192.165588 0.000005 0.305211
66.558792 190.058868 0.000004 0.318288
64.461807 188.713913 0.000002 0.270222
63.004322 187.779114 0.000003 0.251438
61.930511 187.090393 0.000002 0.267674
nan nan nan 0.000000
nan nan nan 0.000000
nan nan nan 0.000000
nan nan nan 0.000000
68.035233 190.880020 3.745093 0.258824
67.098167 190.288193 3.152940 0.242924
67.439537 190.503799 2.710609 0.182223
66.585167 189.964203 2.220165 0.288045
67.224396 190.367920 1.767463 0.294163
67.326706 190.432541 1.295946 0.246784
67.666275 190.646988 0.791965 0.192157
69.908638 192.063202 0.000004 0.280400
66.609337 189.979462 0.000003 0.289128
64.503014 188.649170 0.000003 0.302739
63.039036 187.724579 0.000002 0.246647
61.960442 187.043365 0.000002 0.311162
nan nan nan 0.000000
nan nan nan 0.000000
nan nan nan 0.000000
67.520248 190.435074 4.150381 0.244892
67.889542 190.664719 3.717738 0.980224
67.009064 190.117188 3.139302 0.275639
67.381203 190.348602 2.704133 0.290196
66.624092 189.877808 2.219954 0.270680
67.356499 190.333237 1.765933 0.240589
67.129730 190.192230 1.310415 0.763027
67.207817 190.240784 0.841506 0.257877
67.680527 190.534744 0.310577 0.235569
66.659325 189.899704 0.000003 0.315175
64.543762 188.584152 0.000003 0.304692
63.073364 187.669800 0.000002 0.245045
61.990044 186.996140 0.000002 0.282506
nan nan nan 0.000000
nan nan nan 0.000000
67.623291 190.379486 4.648407 0.290196
nan nan nan 0.000000
nan nan nan 0.000000
67.162071 190.097122 3.149117 0.286397
67.205322 190.123611 2.690975 0.977859
67.698601 190.425598 2.239625 0.246708
66.807343 189.879959 1.777476 0.288640
67.646469 190.393677 1.283614 0.526528
67.554741 190.337524 0.813132 0.244709
67.504845 190.306976 0.341536 0.222721
66.708748 189.819595 0.000003 0.332860
64.584061 188.518845 0.000002 0.294026
63.107311 187.614777 0.000002 0.315358
62.019314 186.948700 0.000002 0.239048
nan nan nan 0.000000
67.983955 190.478210 5.221268 0.262821
67.640312 190.271103 4.640818 0.257801
67.601158 190.247513 4.146090 0.234424
67.679749 190.294876 3.674938 0.527169
67.187088 189.997971 3.146648 0.247532
67.635681 190.268311 2.712736 0.283757
66.701714 189.705460 2.219565 0.313313
67.340462 190.090408 1.768232 0.181170
67.670738 190.289444 1.285253 0.572564
67.663116 190.284851 0.807779 0.549264
67.596344 190.244614 0.336265 0.282567
66.757614 189.739151 0.000003 0.312673
64.623894 188.453262 0.000003 0.265003
63.140877 187.559525 0.000002 0.334340
62.048252 186.901062 0.000002 0.310735
nan nan nan 0.000000
68.040375 190.390610 5.222018 0.258824
67.715317 190.197784 4.645685 0.245396
67.433372 190.030548 4.108213 0.319234
nan nan nan 0.000000
67.225365 189.907166 3.145521 0.253407
67.667709 190.169556 2.711596 0.268025
67.658432 190.164047 2.236853 0.247059
67.379028 189.998306 1.768463 0.239033
67.646561 190.157013 1.289611 0.247059
76.188248 195.223694 -0.000000 0.294163
67.649445 190.158722 0.336092 0.978454
66.805916 189.658356 0.000004 0.305165
64.663269 188.387405 0.000003 0.287236
63.174049 187.504044 0.000002 0.249134
62.076859 186.853210 0.000002 0.340093
nan nan nan 0.000000
nan nan nan 0.000000
67.929413 190.205231 4.679945 0.287129
67.508392 189.959457 4.112455 0.290196
67.462494 189.932663 3.632183 0.223529
67.256790 189.812576 3.143808 0.238605
67.974602 190.231613 2.726136 0.230076
67.769974 190.112152 2.237995 0.195697
67.735832 190.092224 1.762652 0.511147
67.478424 189.941956 1.302088 0.203555
67.722816 190.084625 0.811945 0.204089
70.223679 191.544556 0.000004 0.279408
66.853653 189.577240 0.000003 0.311192
64.702187 188.321274 0.000003 0.349889
63.206837 187.448318 0.000002 0.260746
62.105129 186.805176 0.000002 0.263508
nan nan nan 0.000000
nan nan nan 0.000000
nan nan nan 0.000000
67.583580 189.887985 4.116795 0.278431
nan nan nan 0.000000
67.897781 190.068481 3.199807 0.224964
67.830032 190.029572 2.715016 0.290517
67.726692 189.970200 2.236218 0.213230
67.632736 189.916229 1.765555 0.255802
68.150917 190.213898 1.266804 0.964096
76.359940 194.929565 -0.000000 0.282628
70.284500 191.439529 0.000004 0.285649
66.900826 189.495789 0.000003 0.284688
64.740646 188.254868 0.000002 0.315618
63.239235 187.392380 0.000002 0.259541
62.133064 186.756943 0.000001 0.324056
nan nan nan 0.000000
nan nan nan 0.000000
67.706970 189.843292 4.612044 0.235538
87.811981 201.206696 7.555104 0.226291
85.917206 200.135742 6.057829 0.560723
68.461449 190.269730 3.248133 0.226215
80.709770 197.192505 3.438991 0.223529
67.759277 189.872864 2.235893 0.261097
67.732452 189.857697 1.764611 0.806409
67.920372 189.963913 1.282724 0.316411
76.444244 194.781616 0.000000 0.280308
70.344582 191.334076 0.000004 0.292699
66.947433 189.414001 0.000003 0.291722
64.778633 188.188187 0.000003 0.309667
63.271240 187.336212 0.000003 0.271962
62.160660 186.708511 0.000002 0.275090
nan nan nan 0.000000
nan nan nan 0.000000
nan nan nan 0.000000
67.891708 189.831345 4.152452 0.288548
68.025665 189.905823 3.686948 0.617182
68.467621 190.151566 3.243836 0.240024
76.222610 194.463547 3.181145 0.258824
67.730789 189.741867 2.234438 0.322972
67.729805 189.741318 1.765580 0.231922
67.780487 189.769501 1.293389 0.514641
76.527512 194.633087 -0.000000 0.286610
70.403931 191.228210 0.000004 0.277760
66.993454 189.331894 0.000004 0.248310
64.816162 188.121262 0.000003 0.256947
63.302853 187.279816 0.000002 0.311711
62.187916 186.659882 0.000002 0.281193
nan nan nan 0.000000
nan nan nan 0.000000
nan nan nan 0.000000
87.358322 200.362610 7.435440 0.482353
68.087418 189.822922 3.688564 0.290196
80.892075 196.826065 4.400215 0.208682
80.624176 196.679550 3.423070 0.266667
68.900993 190.267883 2.255363 0.226154
67.727325 189.625977 1.766527 0.250156
67.781975 189.655869 1.296021 0.245472
76.609749 194.483963 -0.000000 0.281163
70.462547 191.121933 0.000004 0.288884
67.038910 189.249466 0.000004 0.265553
64.853218 188.054062 0.000003 0.298299
63.334072 187.223206 0.000002 0.251057
62.214836 186.611069 0.000002 0.289952
nan nan nan 0.000000
nan nan nan 0.000000
88.137138 200.491043 8.803087 0.260761
75.825104 193.868561 5.472322 0.258824
88.046043 200.442047 6.289313 0.566171
68.064713 189.694351 3.196861 0.240757
76.446823 194.202972 3.184666 0.258824
68.919907 190.154343 2.254750 0.338903
81.027306 196.666763 1.520283 0.318196
67.783524 189.543106 1.298595 0.240345
76.690941 194.334290 0.000000 0.293996
70.520416 191.015244 0.000004 0.306600
67.083794 189.166733 0.000003 0.316548
64.889801 187.986603 0.000002 0.299519
63.364895 187.166382 0.000002 0.266300
62.241413 186.562073 0.000002 0.331960
nan nan nan 0.000000
nan nan nan 0.000000
nan nan nan 0.000000
88.090431 200.171051 7.517623 0.278920
88.115051 200.184082 6.282350 0.239033
80.976479 196.408356 4.390085 0.261845
78.682869 195.195221 3.304533 0.236576
81.033478 196.438492 2.478048 0.568933
81.133072 196.491180 1.520109 0.268330
67.785080 189.431168 1.301116 0.215351
76.771072 194.184036 0.000000 0.284428
70.577545 190.908157 0.000004 0.297368
67.128090 189.083679 0.000003 0.303243
64.925919 187.918900 0.000003 0.269291
63.395321 187.109344 0.000002 0.305653
62.267647 186.512894 0.000002 0.242893
nan nan nan 0.000000
nan nan nan 0.000000
nan nan nan 0.000000
90.185867 200.968033 7.847802 0.231617
88.183823 199.926941 6.275617 0.241337
75.330460 193.242950 3.859549 0.258824
76.686272 193.947998 3.189209 0.258824
80.881195 196.129440 2.473492 0.290196
67.703232 189.276672 1.769565 0.287663
91.329140 201.562561 -0.000017 0.288319
76.850159 194.033234 0.000000 0.292058
70.633904 190.800659 0.000004 0.289845
67.171806 189.000320 0.000004 0.250645
64.961555 187.850952 0.000003 0.296437
63.425346 187.052094 0.000002 0.259831
62.293533 186.463531 0.000002 0.246952
nan nan nan 0.000000
nan nan nan 0.000000
nan nan nan 0.000000
75.763535 193.286530 5.424131 0.258824
88.252365 199.670563 6.269111 0.274723
88.299545 199.694687 5.047154 0.271183
75.795792 193.303009 3.135805 0.258824
67.605087 189.116089 2.227803 0.245380
81.929924 196.438660 1.508936 0.258824
91.459396 201.309937 -0.000018 0.287648
76.928200 193.881882 0.000000 0.311025
70.689529 190.692795 0.000004 0.271366
67.214951 188.916656 0.000003 0.325368
64.996727 187.782745 0.000002 0.241352
63.454971 186.994629 0.000002 0.260563
62.319080 186.413986 0.000002 0.332296
nan nan nan 0.000000
nan nan nan 0.000000
nan nan nan 0.000000
76.030540 193.240326 5.456362 0.334249
77.696030 194.077072 4.894974 0.258824
75.262650 192.854538 3.840102 0.257496
76.307854 193.379654 3.159946 0.252201
67.539879 188.974564 2.225804 0.209430
78.675575 194.569199 1.570267 0.258824
79.177567 194.821411 0.682281 0.255787
77.005173 193.729980 0.000000 0.281865
70.744392 190.584534 0.000004 0.301396
67.257500 188.832687 0.000003 0.283452
65.031410 187.714294 0.000002 0.270970
63.484192 186.936966 0.000002 0.269642
62.344276 186.364258 0.000002 0.323644
nan nan nan 0.000000
nan nan nan 0.000000
76.747108 193.412674 6.370435 0.423789
88.365463 199.148575 7.484912 0.223865
88.388840 199.160110 6.256776 0.239338
75.253693 192.675385 3.832895 0.258824
78.710350 194.381912 3.287547 0.258824
98.703384 204.252319 2.793738 0.258824
78.521393 194.288620 1.574573 0.258824
91.714569 200.802002 -0.000017 0.298238
77.081093 193.577560 0.000000 0.290288
70.798500 190.475891 0.000004 0.266926
67.299461 188.748428 0.000003 0.270405
65.065620 187.645599 0.000003 0.299504
63.513020 186.879089 0.000002 0.300267
62.369129 186.314362 0.000002 0.327031
nan nan nan 0.000000
nan nan nan 0.000000
76.688110 193.197678 6.343596 0.258824
88.433868 198.894836 7.477480 0.280507
77.637627 193.658234 4.867618 0.258824
78.040970 193.853882 4.080653 0.235569
76.896072 193.298553 3.184095 0.258824
75.478165 192.610809 2.368628 0.258824
78.370529 194.013733 1.578767 0.407507
91.839493 200.546707 -0.000017 0.291569
77.155945 193.424606 -0.000000 0.279301
70.851852 190.366867 0.000004 0.325261
67.340836 188.663895 0.000003 0.300786
65.099350 187.576675 0.000003 0.293019
63.541435 186.821030 0.000002 0.362753
62.393631 186.264297 0.000002 0.276539
nan nan nan 0.000000
77.100067 193.209366 7.237070 0.344533
nan nan nan 0.000000
76.092499 192.729309 5.431298 0.258824
76.544975 192.944885 4.718775 0.258824
nan nan nan 0.000000
nan nan nan 0.000000
75.723923 192.553711 2.371848 0.303838
76.655243 192.997421 1.611270 0.307103
91.962646 200.290558 -0.000017 0.287297
77.229713 193.271133 0.000000 0.304646
70.904434 190.257477 0.000004 0.268315
67.381622 188.579056 0.000003 0.310826
65.132599 187.507523 0.000003 0.250217
63.569443 186.762756 0.000002 0.247120
62.417782 186.214066 0.000002 0.283604
nan nan nan 0.000000
77.239723 193.087814 7.253136 0.327672
76.756714 192.861801 6.328579 0.416388
nan nan nan 0.000000
nan nan nan 0.000000
nan nan nan 0.000000
77.192947 193.065918 3.192346 0.258824
99.328751 203.423416 2.797085 0.258824
72.576614 190.905899 1.686237 0.283848
92.084000 200.033539 -0.000017 0.299428
77.302422 193.117142 0.000000 0.289021
70.956261 190.147736 0.000004 0.326345
67.421806 188.493942 0.000003 0.287556
65.165359 187.438126 0.000002 0.289815
63.597046 186.704300 0.000002 0.295964
62.441582 186.163651 0.000002 0.287800
nan nan nan 0.000000
77.072296 192.824020 7.196364 0.258824
77.304520 192.930710 6.424284 0.385199
77.455704 193.000168 5.631485 0.328695
nan nan nan 0.000000
nan nan nan 0.000000
nan nan nan 0.000000
nan nan nan 0.000000
78.604385 193.527908 1.578701 0.258824
92.203537 199.775696 -0.000017 0.295735
77.374054 192.962662 0.000001 0.283970
71.007317 190.037628 0.000004 0.280461
67.461403 188.408539 0.000003 0.282277
65.197639 187.368515 0.000002 0.267185
63.624237 186.645660 0.000002 0.344900
62.465027 186.113083 0.000002 0.290288
77.569351 192.863937 8.144064 0.258824
77.490982 192.828583 7.279075 0.376440
77.468430 192.818420 6.442964 0.349493
77.450134 192.810165 5.619056 0.408453
77.433502 192.802673 4.804629 0.351232
77.416908 192.795181 3.997508 0.385214
77.400253 192.787674 3.195894 0.230930
77.178276 192.687561 2.394362 0.258824
77.366722 192.772552 1.602256 0.385779
77.349808 192.764923 0.806825 0.367224
77.294647 192.740036 0.013489 0.457008
71.057602 189.927155 0.000004 0.319936
67.500397 188.322876 0.000003 0.311742
65.229431 187.298676 0.000003 0.239094
63.651024 186.586807 0.000002 0.330175
62.488121 186.062347 0.000002 0.305516
nan nan nan 0.000000
77.346283 192.577942 7.228456 0.258824
nan nan nan 0.000000
nan nan nan 0.000000
86.132111 196.466736 5.890232 0.256184
115.166718 209.318085 7.376248 0.251469
77.359863 192.583954 3.189999 0.258824
77.494354 192.643478 2.398790 0.258824
71.271484 189.889099 1.712570 0.251743
92.437233 199.257523 -0.000017 0.286549
77.446404 192.622253 0.006068 0.376715
71.107117 189.816345 0.000003 0.283894
67.538795 188.236923 0.000003 0.291157
65.260735 187.228607 0.000002 0.265187
63.677395 186.527786 0.000002 0.270146
62.510860 186.011459 0.000002 0.271580
nan nan nan 0.000000
77.688446 192.542282 7.293047 0.258824
77.878967 192.625031 6.497027 0.258824
77.665009 192.532104 5.631507 0.415778
77.220497 192.339050 4.760634 0.343053
115.286835 208.871185 7.370553 0.321569
77.513924 192.466492 3.194613 0.258824
77.838440 192.607422 2.403710 0.376730
71.386063 189.805176 1.711404 0.290700
92.551376 198.997223 -0.000017 0.293156
77.582451 192.496246 0.000000 0.282658
71.155846 189.705185 0.000004 0.273747
67.576599 188.150726 0.000003 0.286717
65.291550 187.158325 0.000003 0.293614
63.703354 186.468582 0.000002 0.261219
62.533245 185.960403 0.000002 0.279057
nan nan nan 0.000000
77.674164 192.350235 7.273823 0.258824
78.064316 192.516449 6.520204 0.258824
77.256805 192.172424 5.554801 0.258824
nan nan nan 0.000000
84.052353 195.067505 4.570640 0.240955
84.557281 195.282608 3.567142 0.362692
71.462029 189.703705 2.289082 0.243839
71.357117 189.659012 1.712785 0.267811
71.453934 189.700256 1.132567 0.266667
77.649734 192.339828 0.000001 0.285679
71.203804 189.593689 0.000004 0.306462
67.613792 188.064255 0.000003 0.354192
65.321869 187.087845 0.000002 0.298619
63.728901 186.409195 0.000002 0.272877
62.555271 185.909195 0.000001 0.304006
nan nan nan 0.000000
nan nan nan 0.000000
78.706177 192.596649 6.633481 0.258824
76.299606 191.591187 5.390465 0.258824
nan nan nan 0.000000
84.109177 194.854034 4.568130 0.273930
72.644981 190.064285 2.928295 0.290715
71.358719 189.526886 2.286399 0.214466
72.596954 190.044220 1.691641 0.321569
72.240067 189.895111 1.093263 0.249439
77.715927 192.182922 0.000001 0.283345
71.250984 189.481873 0.000004 0.292424
67.650375 187.977539 0.000003 0.273625
65.351700 187.017151 0.000002 0.251698
63.754028 186.349640 0.000002 0.324819
62.576939 185.857849 0.000002 0.320592
nan nan nan 0.000000
nan nan nan 0.000000
77.824089 192.043213 6.446675 0.258824
84.077042 194.604584 6.627398 0.247059
77.066681 191.732971 4.717225 0.258824
72.411789 189.826202 3.524243 0.261677
77.396820 191.868195 3.177886 0.403418
71.432648 189.425125 2.286880 0.568963
72.390915 189.817657 1.696174 0.249500
72.503426 189.863739 1.081897 0.267475
77.781029 192.025574 0.000000 0.284092
71.297386 189.369720 0.000003 0.311788
67.686371 187.890549 0.000002 0.305379
65.381035 186.946228 0.000002 0.261128
63.778744 186.289902 0.000002 0.295445
62.598270 185.806351 -0.000004 0.339529
nan nan nan 0.000000
nan nan nan 0.000000
nan nan nan 0.000000
76.549759 191.347733 5.411115 0.258824
72.237297 189.616302 4.110860 0.234043
72.375397 189.671753 3.516717 0.218585
72.647575 189.781021 2.923138 0.249226
72.610649 189.766205 2.306842 0.192157
72.610382 189.766098 1.693163 0.411032
72.590202 189.757996 1.079899 0.980789
72.584923 189.755875 0.464769 0.279728
71.342995 189.257248 0.000004 0.273396
67.721741 187.803329 0.000003 0.271183
65.409874 186.875122 0.000003 0.358694
63.803040 186.229980 0.000002 0.303609
62.619221 185.754684 -0.000005 0.333349
nan nan nan 0.000000
38.427040 176.177322 5.895112 0.258824
nan nan nan 0.000000
46.076538 179.186722 3.455840 0.165805
46.137585 179.210739 3.121518 0.258824
37.440643 175.789261 3.565671 0.258824
nan nan nan 0.000000
39.156403 176.464264 2.282292 0.258824
39.717022 176.684814 1.727566 0.258824
37.973553 175.998917 1.090074 0.259327
37.498508 175.812027 0.439427 0.258824
39.031647 176.415176 0.000023 0.315908
42.662823 177.843719 0.000006 0.236805
44.981094 178.755753 0.000003 0.272618
46.592392 179.389664 0.000002 0.283925
47.779522 179.856689 0.000000 0.254231
nan nan nan 0.000000
38.555691 176.361832 5.854760 0.258824
nan nan nan 0.000000
nan nan nan 0.000000
46.090038 179.265350 3.124335 0.258824
nan nan nan 0.000000
nan nan nan 0.000000
37.884380 176.103119 2.303833 0.258824
36.372101 175.520340 1.669646 0.258824
40.546700 177.129105 1.228017 0.258824
32.449913 174.008835 0.000027 0.303487
38.987610 176.528275 0.000023 0.306950
42.628670 177.931442 0.000006 0.318700
44.953255 178.827271 0.000003 0.289418
46.568935 179.449905 0.000002 0.263523
47.759296 179.908630 0.000001 0.269810
nan nan nan 0.000000
nan nan nan 0.000000
36.266136 175.630981 5.684163 0.258824
nan nan nan 0.000000
nan nan nan 0.000000
nan nan nan 0.000000
26.356739 171.891434 3.515025 0.239704
38.854877 176.607910 2.286051 0.258824
38.650734 176.530869 1.710379 0.258824
39.896324 177.000931 1.195919 0.294102
32.389233 174.167938 0.000027 0.274830
38.944363 176.641678 0.000023 0.327977
42.595131 178.019379 0.000006 0.259373
44.925915 178.898956 0.000004 0.292317
46.545898 179.510300 0.000002 0.302754
47.739433 179.960709 0.000001 0.273442
nan nan nan 0.000000
38.603199 176.645035 5.823564 0.258824
37.339531 176.178207 5.466358 0.258824
nan nan nan 0.000000
38.612930 176.648621 4.035416 0.258824
nan nan nan 0.000000
nan nan nan 0.000000
37.850861 176.367096 2.302821 0.497734
36.975433 176.043701 1.681907 0.433875
38.774071 176.708160 1.139238 0.423285
32.329678 174.327469 0.000028 0.310094
38.901909 176.755386 0.000024 0.273823
42.562206 178.107574 0.000006 0.269886
44.899071 178.970856 0.000004 0.301122
46.523285 179.570862 0.000002 0.354208
47.719936 180.012939 0.000001 0.313329
38.528069 176.749283 6.443177 0.258824
nan nan nan 0.000000
nan nan nan 0.000000
nan nan nan 0.000000
38.628159 176.785477 4.028367 0.258824
36.800102 176.124619 3.605104 0.258824
36.945168 176.177063 2.954108 0.258824
38.564018 176.762283 2.289640 0.449973
26.052961 172.239471 1.492663 0.247532
40.353539 177.409210 1.223940 0.258824
32.271225 174.487396 0.000027 0.276036
38.860245 176.869370 0.000023 0.330602
42.529896 178.195984 0.000006 0.300267
44.872734 179.042923 0.000004 0.303777
46.501095 179.631592 0.000002 0.272862
47.700802 180.065292 0.000001 0.262425
38.754478 176.960709 6.371945 0.258824
nan nan nan 0.000000
37.446449 176.498138 5.428271 0.258824
nan nan nan 0.000000
nan nan nan 0.000000
nan nan nan 0.000000
26.560579 172.648560 3.492851 0.154864
26.053913 172.469376 2.506056 0.266133
39.355469 177.173233 1.724819 0.258824
36.520954 176.170853 1.026166 0.258824
32.213890 174.647751 0.000028 0.284672
38.819374 176.983658 0.000023 0.275395
42.498207 178.284607 0.000007 0.261128
44.846897 179.115173 0.000004 0.307698
46.479332 179.692459 0.000002 0.282643
47.682037 180.117783 0.000001 0.298894
38.071701 176.853531 6.542248 0.258824
nan nan nan 0.000000
nan nan nan 0.000000
nan nan nan 0.000000
45.850014 179.543243 3.139299 0.258824
26.148102 172.730392 4.521358 0.254551
26.861349 172.977036 3.473576 0.266072
25.973753 172.670105 2.506209 0.241611
38.971939 177.164825 1.718849 0.258824
25.998055 172.678497 0.481548 0.255467
32.157677 174.808487 0.000028 0.281849
38.779316 177.098221 0.000024 0.299977
42.467133 178.373459 0.000006 0.330510
44.821568 179.187622 0.000004 0.336461
46.457989 179.753479 0.000002 0.321736
47.663635 180.170395 0.000001 0.229175
38.192192 177.027893 6.499559 0.258824
38.579399 177.158768 5.791414 0.258824
nan nan nan 0.000000
nan nan nan 0.000000
45.801239 179.599747 3.142505 0.258824
nan nan nan 0.000000
26.373173 173.033066 3.495378 0.243473
29.968355 174.248245 2.436003 0.258824
39.156548 177.353836 1.722708 0.373571
16.642918 169.744247 0.000037 0.296590
32.102592 174.969604 0.000028 0.281147
38.740051 177.213074 0.000023 0.269718
42.436680 178.462524 0.000006 0.329122
44.796738 179.260223 0.000003 0.297978
46.437077 179.814651 0.000002 0.353460
47.645603 180.223145 0.000001 0.377935
38.100742 177.129761 6.513200 0.258824
37.058655 176.785629 6.128476 0.258824
nan nan nan 0.000000
nan nan nan 0.000000
45.749168 179.655563 3.146152 0.258824
37.024323 176.774277 3.570317 0.258824
37.295815 176.863937 2.926797 0.462135
37.960205 177.083344 2.297262 0.258824
39.074059 177.451187 1.721933 0.233204
39.665688 177.646561 1.195812 0.258824
32.048637 175.131119 0.000028 0.290181
38.701591 177.328186 0.000024 0.295705
42.406853 178.551804 0.000006 0.281407
44.772423 179.333008 0.000004 0.300832
46.416588 179.875977 0.000002 0.359716
47.627937 180.276001 0.000001 0.311864
nan nan nan 0.000000
37.896378 177.196014 5.928972 0.371328
nan nan nan 0.000000
37.684620 177.127716 4.731448 0.258824
nan nan nan 0.000000
nan nan nan 0.000000
37.589294 177.096970 2.909539 0.344488
31.043840 174.985977 2.415505 0.258824
28.883535 174.289246 1.547351 0.258824
16.464676 170.283997 0.000038 0.287678
37.785225 177.160172 0.498811 0.355550
38.663933 177.443558 0.000023 0.294881
42.377647 178.641281 0.000006 0.273655
44.748619 179.405960 0.000004 0.252308
46.396530 179.937439 0.000002 0.270024
47.610641 180.328995 0.000001 0.298589
38.123688 177.400726 6.486897 0.258824
37.772625 177.290192 5.948262 0.481773
37.777481 177.291733 5.325367 0.479896
45.576485 179.747040 3.498087 0.258824
37.786831 177.294678 4.101316 0.347524
37.791367 177.296097 3.497324 0.408713
37.795815 177.297501 2.896881 0.338033
37.800243 177.298889 2.298671 0.363958
37.804520 177.300247 1.701402 0.322332
39.628635 177.874512 1.197516 0.246418
37.813141 177.302948 0.504547 0.352941
38.627083 177.559204 0.000023 0.326055
42.349068 178.730972 0.000006 0.261463
44.725319 179.479065 0.000004 0.287617
46.376907 179.999023 0.000003 0.270817
47.593719 180.382111 0.000001 0.282200
39.388134 177.919937 6.145833 0.258824
38.538544 177.658966 5.766649 0.247059
38.217598 177.560394 5.234381 0.258824
45.521542 179.803925 3.503364 0.258824
nan nan nan 0.000000
nan nan nan 0.000000
30.040028 175.048508 3.293522 0.258824
29.465122 174.871918 2.440707 0.258824
30.528849 175.198654 1.577502 0.258824
39.550255 177.969742 1.195229 0.258824
31.893534 175.617844 0.000028 0.300389
38.591045 177.675095 0.000024 0.281376
42.321121 178.820862 0.000007 0.291569
44.702530 179.552338 0.000004 0.277043
46.357704 180.060760 0.000002 0.275090
47.577164 180.435333 0.000001 0.328435
39.319984 178.020142 6.154882 0.258824
nan nan nan 0.000000
38.145844 177.668442 5.241167 0.258824
nan nan nan 0.000000
nan nan nan 0.000000
35.709335 176.938599 3.669127 0.258824
36.505768 177.177170 2.959200 0.258824
35.892799 176.993561 2.329976 0.431983
14.939537 170.717148 1.312095 0.258824
39.471603 178.065552 1.192898 0.258824
39.381084 178.038452 0.645155 0.301472
39.942924 178.206741 0.166604 0.258824
42.293797 178.910934 0.000007 0.330358
44.680252 179.625778 0.000004 0.267979
46.338940 180.122620 0.000002 0.256138
47.560982 180.488678 0.000001 0.301106
37.620701 177.644669 6.589730 0.258824
nan nan nan 0.000000
37.290726 177.548340 5.396572 0.419608
nan nan nan 0.000000
nan nan nan 0.000000
nan nan nan 0.000000
nan nan nan 0.000000
15.608047 171.218048 2.675091 0.258824
30.131117 175.458069 1.572485 0.451957
16.130882 171.370697 0.000037 0.290562
39.963161 178.328552 0.697670 0.265110
40.142136 178.380798 0.194259 0.210300
42.267097 179.001190 0.000007 0.296712
44.658493 179.699356 0.000004 0.255970
46.320602 180.184616 0.000002 0.296788
47.545177 180.542130 0.000001 0.371084
37.774567 177.821411 6.540436 0.258824
36.788025 177.540848 6.136458 0.258824
nan nan nan 0.000000
nan nan nan 0.000000
nan nan nan 0.000000
nan nan nan 0.000000
nan nan nan 0.000000
30.797924 175.837326 2.415311 0.258824
29.840397 175.565018 1.568398 0.337926
16.052177 171.643784 0.000037 0.288563
31.748657 176.107712 0.000028 0.311147
40.331921 178.548706 0.220587 0.245686
42.241035 179.091644 0.000007 0.281971
44.637245 179.773102 0.000004 0.277363
46.302708 180.246735 0.000003 0.285283
47.529743 180.595688 0.000001 0.319509
39.115250 178.323898 6.183094 0.258824
nan nan nan 0.000000
nan nan nan 0.000000
37.844379 177.972046 4.672795 0.247944
38.467781 178.144653 3.998449 0.258824
nan nan nan 0.000000
nan nan nan 0.000000
35.644684 177.363052 2.332203 0.258824
35.148865 177.225769 1.659378 0.258824
38.984566 178.287720 1.172928 0.443244
31.702652 176.271652 0.000028 0.292119
38.454990 178.141098 0.000024 0.322621
42.215607 179.182266 0.000007 0.285359
44.616512 179.846985 0.000004 0.248096
46.285240 180.308975 0.000002 0.311742
47.514683 180.649368 0.000001 0.295857
nan nan nan 0.000000
nan nan nan 0.000000
nan nan nan 0.000000
nan nan nan 0.000000
nan nan nan 0.000000
38.967182 178.404755 3.379274 0.258824
nan nan nan 0.000000
35.560883 177.487259 2.332991 0.258824
38.455254 178.266876 1.716061 0.315938
15.900536 172.191605 0.000038 0.296040
31.657784 176.435928 0.000028 0.281086
38.423016 178.258194 0.000024 0.272450
42.190807 179.273071 0.000007 0.311147
44.596294 179.921005 0.000004 0.300679
46.268208 180.371338 0.000003 0.299184
47.499996 180.703140 0.000001 0.270024
nan nan nan 0.000000
38.004486 178.274048 5.841273 0.420615
35.932178 177.731339 5.625943 0.258824
37.864792 178.237457 4.659632 0.258824
38.285713 178.347687 4.012599 0.258824
nan nan nan 0.000000
nan nan nan 0.000000
nan nan nan 0.000000
38.540947 178.414536 1.718036 0.258824
38.764740 178.473145 1.164869 0.258824
31.614075 176.600510 0.000028 0.302327
38.391853 178.375488 0.000023 0.330907
42.166645 179.364044 0.000007 0.270985
44.576599 179.995163 0.000004 0.323690
46.251610 180.433823 0.000003 0.271580
47.485687 180.757004 0.000001 0.289693
36.680855 178.065384 6.789099 0.258824
38.028687 178.408325 5.828963 0.258824
nan nan nan 0.000000
nan nan nan 0.000000
nan nan nan 0.000000
nan nan nan 0.000000
nan nan nan 0.000000
35.341446 177.724594 2.335481 0.258824
nan nan nan 0.000000
38.839790 178.614700 1.170177 0.257267
31.571510 176.765381 0.000028 0.290105
38.361523 178.493011 0.000024 0.272877
42.143120 179.455185 0.000008 0.278431
44.557419 180.069473 0.000005 0.366445
46.235451 180.496414 0.000003 0.266865
47.471756 180.810974 0.000002 0.288167
36.832718 178.240387 6.741540 0.247059
38.049149 178.540863 5.817713 0.258824
35.888260 178.007080 5.621316 0.258824
nan nan nan 0.000000
39.699654 178.948563 3.837912 0.258824
nan nan nan 0.000000
nan nan nan 0.000000
nan nan nan 0.000000
-10.894913 166.450882 0.885757 0.259037
15.687431 173.017151 0.000039 0.289525
31.530102 176.930557 0.000028 0.286168
38.332005 178.610733 0.000024 0.301411
42.120228 179.546478 0.000007 0.280018
44.538757 180.143906 0.000005 0.273091
46.219730 180.559128 0.000003 0.274907
47.458199 180.865051 0.000001 0.278019
37.812988 178.611176 6.480997 0.258824
nan nan nan 0.000000
nan nan nan 0.000000
37.928951 178.638962 4.635915 0.258824
39.778397 179.082123 3.825477 0.258824
38.732613 178.831528 3.389286 0.258824
nan nan nan 0.000000
-10.827675 166.955811 3.111220 0.290196
38.771011 178.840729 1.723384 0.258824
38.989456 178.893082 1.180595 0.265568
31.489840 177.096008 0.000028 0.288777
38.303307 178.728653 0.000024 0.278019
42.097973 179.637939 0.000008 0.270207
44.520615 180.218460 0.000005 0.264530
46.204445 180.621948 0.000003 0.292073
47.445019 180.919205 0.000001 0.267353
38.635586 178.930435 6.262087 0.258824
nan nan nan 0.000000
nan nan nan 0.000000
37.960625 178.773666 4.626753 0.258824
nan nan nan 0.000000
1.034527 170.197525 6.560339 0.192096
-6.855190 168.365128 5.130203 0.258824
nan nan nan 0.000000
-6.925449 168.348816 0.956163 0.258824
15.554955 173.569916 0.000038 0.296269
31.450735 177.261734 0.000028 0.278706
38.275436 178.846786 0.000024 0.303288
42.076363 179.729553 0.000008 0.268452
44.502995 180.293152 0.000005 0.263157
46.189602 180.684860 0.000003 0.334188
47.432220 180.973465 0.000001 0.277592
nan nan nan 0.000000
nan nan nan 0.000000
nan nan nan 0.000000
nan nan nan 0.000000
22.997257 175.535034 5.798305 0.283070
38.594803 179.043015 3.396370 0.258824
1.010948 170.590195 4.729121 0.245914
-5.882187 169.039902 3.024673 0.245502
-6.358150 168.932846 0.967343 0.258824
37.457993 178.787338 1.106133 0.235569
31.412794 177.427734 0.000028 0.285756
38.248394 178.965103 0.000024 0.272496
42.055386 179.821320 0.000008 0.348028
44.485893 180.367950 0.000005 0.301930
46.175198 180.747879 0.000003 0.271382
47.419800 181.027802 0.000002 0.298390
nan nan nan 0.000000
nan nan nan 0.000000
nan nan nan 0.000000
nan nan nan 0.000000
nan nan nan 0.000000
36.537708 178.717102 3.566834 0.258824
4.223038 171.685989 4.563417 0.279744
-6.868004 169.272781 3.039601 0.258824
nan nan nan 0.000000
37.456139 178.916931 1.107419 0.258824
31.376019 177.594009 0.000028 0.304006
38.222179 179.083618 0.000024 0.286381
42.035053 179.913223 0.000008 0.310567
44.469322 180.442871 0.000005 0.270100
46.161232 180.811005 0.000003 0.260014
47.407757 181.082230 0.000002 0.310185
nan nan nan 0.000000
nan nan nan 0.000000
nan nan nan 0.000000
nan nan nan 0.000000
22.878101 175.981064 5.800790 0.273869
38.786743 179.326355 3.376051 0.247059
4.503784 172.117279 4.545497 0.279408
-15.206963 167.972473 3.177492 0.301961
nan nan nan 0.000000
37.454491 179.046204 1.108668 0.258824
31.340385 177.760513 0.000028 0.288106
38.196785 179.202286 0.000023 0.284016
42.015362 180.005264 0.000008 0.302693
44.453266 180.517914 0.000005 0.280980
46.147705 180.874222 0.000003 0.263737
47.396095 181.136734 0.000001 0.283436
nan nan nan 0.000000
nan nan nan 0.000000
nan nan nan 0.000000
38.083515 179.303146 4.592239 0.258824
22.818775 176.204376 5.802275 0.265873
38.890984 179.467056 3.365346 0.258824
2.907951 172.162430 4.621825 0.564706
1.645679 171.906189 2.894394 0.305882
7.705326 173.136307 1.206787 0.593744
37.453003 179.175156 1.109879 0.251102
31.305935 177.927277 0.000029 0.290761
38.172226 179.321152 0.000023 0.307729
41.996315 180.097443 0.000008 0.265660
44.437737 180.593063 0.000005 0.277623
46.134624 180.937531 0.000003 0.332967
47.384815 181.191330 0.000002 0.291218
nan nan nan 0.000000
nan nan nan 0.000000
nan nan nan 0.000000
38.113880 179.433411 4.584044 0.284688
22.759056 176.427795 5.803987 0.704845
38.917175 179.590637 3.361259 0.258824
23.592077 176.590851 3.582749 0.295445
2.518269 172.465805 2.878601 0.543008
7.701172 173.480316 1.207821 0.224704
39.575920 179.719589 1.217388 0.258824
31.272636 178.094269 0.000028 0.299733
38.148499 179.440186 0.000024 0.291539
41.977997 180.189774 0.000021 0.254841
44.422733 180.668320 0.000005 0.316854
46.121986 181.000931 0.000003 0.280278
47.373917 181.245987 0.000002 0.266835
nan nan nan 0.000000
nan nan nan 0.000000
nan nan nan 0.000000
25.095734 177.103180 6.545650 0.304555
22.699265 176.651443 5.805887 0.277592
26.120998 177.296448 4.427140 0.248936
23.172653 176.740677 3.601595 0.456504
7.886318 173.859131 2.788034 0.218997
8.004810 173.881470 1.213939 0.238270
37.430824 179.428406 1.111200 0.258824
31.240515 178.261505 0.000029 0.297795
38.125595 179.559372 0.000024 0.316289
41.960243 180.282211 0.000022 0.265309
44.408257 180.743683 0.000005 0.273579
46.109787 181.064423 0.000003 0.350164
47.363403 181.300735 0.000002 0.312154
nan nan nan 0.000000
nan nan nan 0.000000
22.597286 176.867676 8.030741 0.285389
25.031984 177.309052 6.549397 0.268360
24.646713 177.239212 5.573291 0.286519
26.145557 177.510925 4.421962 0.274083
23.999672 177.121902 3.558239 0.290196
7.860794 174.196182 2.787441 0.287221
7.972157 174.216370 1.214410 0.568627
15.152420 175.518036 0.000040 0.291020
31.209553 178.428940 0.000029 0.287007
38.103531 179.678711 0.000024 0.283040
41.943123 180.374771 0.000021 0.331044
44.394306 180.819138 0.000005 0.325460
46.098038 181.127991 0.000003 0.244602
47.353268 181.355545 0.000002 0.320943
nan nan nan 0.000000
nan nan nan 0.000000
22.536995 177.092041 8.034399 0.299321
22.552399 177.094727 6.917099 0.554650
24.502943 177.434280 5.585649 0.611765
25.165615 177.549637 4.500520 0.516625
25.437801 177.597031 3.484593 0.990814
1.362396 173.405914 2.894404 0.203922
7.652840 174.500977 1.210080 0.422202
15.102715 175.797867 0.000040 0.288106
31.179758 178.596603 0.000028 0.301732
38.082294 179.798218 0.000024 0.281743
41.926659 180.467453 0.000021 0.294255
44.380882 180.894684 0.000005 0.295186
46.086727 181.191650 0.000003 0.255894
47.343513 181.410431 0.000002 0.253697
nan nan nan 0.000000
24.714771 177.690247 8.677363 0.259190
22.476612 177.316696 8.038361 0.246693
25.756985 177.864182 6.429320 0.293996
26.346125 177.962509 5.366409 0.266773
26.075514 177.917343 4.421905 0.290196
24.965023 177.732010 3.506375 0.235294
nan nan nan 0.000000
7.662987 174.844330 1.211189 0.294697
15.054958 176.078033 0.000040 0.297230
31.151142 178.764465 0.000028 0.293584
38.061897 179.917862 0.000024 0.300877
41.910839 180.560242 0.000021 0.292409
44.367989 180.970337 0.000006 0.283925
46.075863 181.255371 0.000003 0.254429
47.334148 181.465378 0.000002 0.282597
nan nan nan 0.000000
nan nan nan 0.000000
25.575558 178.046310 7.460461 1.000000
25.773691 178.077957 6.421764 0.245914
24.902651 177.938828 5.530738 0.251133
23.994642 177.793793 4.591930 0.303578
23.000645 177.635025 3.602385 0.575036
24.438105 177.864624 2.509927 0.548974
24.405567 177.859421 1.489534 0.560876
24.448742 177.866333 0.469657 0.526528
31.123693 178.932526 0.000028 0.299413
38.042339 180.037643 0.000024 0.295857
41.895668 180.653137 0.000021 0.256062
44.355621 181.046066 0.000006 0.300435
46.065441 181.319168 0.000003 0.367071
47.325165 181.520386 0.000002 0.323186
nan nan nan 0.000000
nan nan nan 0.000000
25.625710 178.265900 7.445280 0.290196
25.812922 178.294464 6.411059 0.615045
26.326239 178.372787 5.361224 0.270359
22.465042 177.783646 4.715977 0.238193
24.613153 178.111404 3.520505 0.558953
24.411453 178.080627 2.509812 0.514870
24.254730 178.056717 1.487594 0.497185
24.363731 178.073349 0.467099 0.534829
31.097418 179.100769 0.000028 0.298833
38.023613 180.157562 0.000024 0.281025
41.881142 180.746140 0.000021 0.284367
44.343784 181.121887 0.000006 0.278843
46.055470 181.383041 0.000003 0.313954
47.316563 181.575470 0.000002 0.292393
nan nan nan 0.000000
nan nan nan 0.000000
25.259514 178.423752 7.506950 0.206165
25.804115 178.502960 6.407793 0.225818
17.251450 177.259048 6.412684 0.224903
25.851709 178.509888 4.432542 0.249638
23.795532 178.210831 3.559514 0.192157
16.089317 177.090027 2.646898 0.217426
-2.381672 174.403549 1.047665 0.196841
15.788239 177.046234 0.042973 0.548440
31.072330 179.269180 0.000028 0.286915
38.005722 180.277603 0.000024 0.268223
41.867275 180.839233 0.000021 0.280064
44.332474 181.197784 0.000006 0.339666
46.045944 181.446991 0.000004 0.311818
47.308350 181.630600 0.000003 0.304799
nan nan nan 0.000000
24.978201 178.598145 8.591536 0.281651
24.885601 178.585342 7.570182 0.215686
16.365517 177.406830 7.816844 0.262867
nan nan nan 0.000000
25.788893 178.710281 4.435332 0.259861
22.872868 178.306931 3.603729 0.348348
15.011402 177.219528 2.664064 0.223529
nan nan nan 0.000000
14.883484 177.201843 0.000040 0.292927
31.048412 179.437790 0.000029 0.287510
37.988678 180.397766 0.000024 0.327199
41.854050 180.932434 0.000021 0.248768
44.321697 181.273758 0.000006 0.256626
46.036858 181.511002 0.000003 0.297078
47.300522 181.685791 0.000003 0.273045
nan nan nan 0.000000
24.928082 178.806458 8.596254 0.253056
24.320585 178.726746 7.668633 0.307897
24.928400 178.806503 6.530302 0.235294
25.370358 178.864487 5.462159 0.503395
15.631298 177.586594 5.273057 0.240650
16.252502 177.668106 3.930246 0.229877
25.364021 178.863663 2.492578 0.282780
nan nan nan 0.000000
14.845512 177.483505 0.000040 0.288060
31.025669 179.606537 0.000028 0.297017
37.972469 180.518051 0.000024 0.287861
41.841476 181.025711 0.000021 0.299641
44.311443 181.349808 0.000006 0.311681
46.028225 181.575058 0.000004 0.339895
