# This PCD file was generated using the MATLABÂ® pcwrite function
# from Computer Vision ToolboxÂ®.
# .PCD v.7 - Point Cloud Data file format
VERSION .7
FIELDS x y z intensity
SIZE 4 4 4 4
TYPE F F F F
COUNT 1 1 1 1
WIDTH 1270
HEIGHT 1
VIEWPOINT 0 0 0 1 0 0 0
POINTS 1270
DATA ascii
217.009613 108.131668 0.000022 0.294926
213.172318 123.993111 0.000013 0.273716
211.524826 130.803070 0.000010 0.288792
210.607254 134.595856 0.000007 0.319707
210.021454 137.017227 0.000006 0.256596
209.614304 138.700180 0.000004 0.341741
209.314331 139.940125 0.000005 0.321355
nan nan nan 0.000000
nan nan nan 0.000000
210.098450 136.352890 4.120833 0.290196
209.905075 137.177383 3.603343 0.223529
211.315445 131.164230 3.953990 0.286427
210.280777 135.575592 3.021180 0.290196
211.373138 130.918243 2.846842 0.226276
212.358017 126.719223 2.352656 0.264424
211.411743 130.753677 1.715155 0.743206
216.733124 108.065811 0.000022 0.288212
213.006668 123.953644 0.000013 0.298558
211.406754 130.774933 0.000009 0.292714
210.515686 134.574036 0.000007 0.306493
209.946808 136.999451 0.000005 0.307179
209.551422 138.685211 0.000004 0.256382
209.260117 139.927200 0.000005 0.305257
nan nan nan 0.000000
209.681396 137.821304 4.188113 0.273884
209.843842 137.106308 3.976834 0.302693
209.821838 137.203156 3.596841 0.247761
212.870163 123.785904 4.821282 0.262501
211.339737 130.522095 3.444459 0.278431
211.082687 131.653473 2.808438 0.349172
211.024704 131.908707 2.265004 0.233616
210.996704 132.031967 1.737065 0.266667
211.301071 130.692276 1.143138 0.317815
212.840759 123.915337 0.000013 0.287373
211.288498 130.747635 0.000009 0.304799
210.423965 134.552872 0.000007 0.309133
209.872040 136.982193 0.000005 0.243442
209.488419 138.670654 0.000004 0.296071
209.205795 139.914658 0.000005 0.306081
nan nan nan 0.000000
209.743240 137.210648 4.319741 0.257176
209.739609 137.227188 3.951233 0.208438
209.738907 137.230362 3.590219 0.275822
210.095901 135.606644 3.424538 0.758755
210.179764 135.225220 3.047361 0.290196
211.001877 131.486008 2.815601 0.307454
210.910233 131.902832 2.264689 0.257847
211.173187 130.706848 1.715273 0.230854
211.102707 131.027420 1.161332 0.680156
211.191238 130.624802 0.566416 0.226505
211.170044 130.721161 0.000009 0.274983
210.332108 134.532333 0.000007 0.285466
209.797150 136.965454 0.000005 0.307286
209.425339 138.656555 0.000004 0.316106
209.151398 139.902496 0.000005 0.292882
nan nan nan 0.000000
209.702621 137.041107 4.353677 0.272770
209.636093 137.354095 3.924682 0.582452
209.656586 137.257660 3.583681 0.262898
209.902390 136.101257 3.364216 0.197024
210.073151 135.297897 3.039689 0.437476
211.042557 130.737152 2.851981 0.245716
210.967056 131.092361 2.277848 0.263569
210.950851 131.168610 1.723427 0.285328
210.910706 131.357529 1.179176 0.387900
211.043243 130.733948 0.577728 0.571572
211.034470 130.775269 0.009389 0.549020
210.240097 134.512436 0.000007 0.316442
209.722153 136.949234 0.000006 0.290883
209.362152 138.642899 0.000004 0.272953
209.096909 139.890717 0.000005 0.251392
nan nan nan 0.000000
209.619934 137.065582 4.344852 0.192035
209.610352 137.112259 3.966797 0.319966
209.589920 137.211792 3.588320 0.332616
209.903702 135.683167 3.411327 0.225208
209.951431 135.450607 3.025391 0.299535
210.994949 130.366989 2.869305 0.229450
210.858780 131.030365 2.278479 0.971099
210.828690 131.176926 1.723969 0.224231
210.790741 131.361816 1.180588 0.257710
210.920898 130.727753 0.579283 0.604349
210.913361 130.764496 0.011026 0.580011
210.147964 134.493195 0.000007 0.269352
209.647034 136.933533 0.000005 0.289769
209.298859 138.629669 0.000004 0.309468
209.042358 139.879318 0.000005 0.357122
nan nan nan 0.000000
nan nan nan 0.000000
209.796631 135.782959 4.210602 0.203922
210.817230 130.628571 4.581571 0.216770
209.788116 135.825943 3.392599 0.538705
210.773849 130.847626 3.408698 0.282536
209.443832 137.564697 2.507616 0.263752
210.761490 130.910065 2.280094 0.223529
210.755005 130.942764 1.720451 1.000000
210.758987 130.922714 1.159750 0.223987
212.174515 123.773727 0.000013 0.278401
210.813629 130.646698 0.000009 0.297795
210.055695 134.474594 0.000007 0.297887
209.571808 136.918365 0.000005 0.311757
209.235489 138.616898 0.000004 0.290379
208.987717 139.868301 0.000005 0.351461
nan nan nan 0.000000
209.457016 137.110626 4.328474 0.287510
209.514130 136.811249 4.017124 0.509316
209.711441 135.776901 3.800617 0.220127
209.525909 136.749481 3.282551 0.521569
210.586548 131.189392 3.378259 0.270405
209.398743 137.416153 2.514356 0.560143
211.226624 127.834015 2.330958 0.240406
210.621597 131.005661 1.721878 0.258824
210.601990 131.108429 1.170177 0.245365
210.671082 130.746323 0.584754 0.290196
210.694489 130.623535 0.000009 0.278737
209.963287 134.456635 0.000007 0.272435
209.496490 136.903732 0.000006 0.307866
209.172028 138.604568 0.000005 0.305028
208.932999 139.857666 0.000005 0.376623
209.550415 136.184830 4.932747 0.256184
209.376099 137.134567 4.320176 0.281010
209.430969 136.835602 4.009986 0.258824
209.443115 136.769424 3.648580 0.581857
209.464218 136.654495 3.291986 0.365393
210.580536 130.572144 3.427917 0.265583
210.595871 130.488602 2.859698 0.996872
211.234024 127.011505 2.344211 0.289097
210.600632 130.462585 1.713206 0.711513
211.177017 127.322174 0.982147 0.271855
211.295517 126.676506 0.247323 0.564813
210.575195 130.601212 0.000009 0.276738
209.870773 134.439316 0.000007 0.257282
209.421051 136.889618 0.000006 0.376440
209.108490 138.592667 0.000004 0.314931
208.878204 139.847412 0.000005 0.305913
209.483017 136.096298 4.951585 0.559594
209.296204 137.155762 4.312614 0.224262
209.302017 137.122864 3.954387 0.253162
209.389755 136.625229 3.668231 0.306584
209.407654 136.523712 3.305640 0.557168
211.132553 126.741318 3.745080 0.298009
209.565140 135.630615 2.602111 0.254765
209.437134 136.356567 2.188497 0.247929
209.458374 136.236084 1.809500 0.597543
210.416016 130.805054 1.157167 0.288289
211.167099 126.545395 0.238606 0.218753
210.455750 130.579712 0.000009 0.314107
209.778137 134.422653 0.000007 0.291768
209.345535 136.876038 0.000006 0.325185
209.044861 138.581223 0.000005 0.357961
208.823334 139.837540 0.000005 0.256001
209.397598 136.108109 4.945025 0.514885
209.393646 136.131470 4.534196 0.506096
209.225433 137.125992 3.951455 0.236164
209.334778 136.479507 3.688144 0.315908
209.437378 135.872894 3.380001 0.250843
210.939651 126.990929 3.722219 0.219409
211.039261 126.401955 3.061199 0.251743
210.958344 126.880417 2.345540 0.209842
210.281082 130.884567 1.720914 0.259525
210.960144 126.869736 0.962107 0.194858
211.504593 123.650780 0.000013 0.292760
210.336151 130.559067 0.000009 0.294942
209.685379 134.406631 0.000007 0.281575
209.269913 136.862961 0.000006 0.278889
208.981155 138.570221 0.000005 0.279561
208.768417 139.828049 0.000005 0.300786
nan nan nan 0.000000
209.317963 136.086411 4.541126 0.515663
209.184647 136.909500 3.989106 0.236667
209.264175 136.418457 3.695366 0.240284
nan nan nan 0.000000
210.937515 126.086922 3.795321 0.231495
210.249817 130.332916 2.864341 0.266667
209.301270 136.189423 2.190824 0.491447
210.858154 126.576988 1.649829 0.976989
210.873123 126.484528 0.944135 0.258000
211.336594 123.622963 0.000013 0.285267
210.216400 130.539246 0.000009 0.272435
209.592514 134.391251 0.000007 0.311391
209.194214 136.850433 0.000006 0.288487
208.917374 138.559662 0.000005 0.266361
208.713425 139.818954 0.000004 0.343465
nan nan nan 0.000000
209.248032 136.001221 4.556938 1.000000
209.245117 136.020065 4.150675 0.568505
209.190964 136.369797 3.700796 0.190097
209.228897 136.124771 3.347562 0.581094
nan nan nan 0.000000
210.696930 126.641869 3.046875 0.290196
210.056808 130.776840 2.280239 0.275990
210.141602 130.229141 1.710692 0.203922
213.664978 107.469414 0.000022 0.287129
211.168411 123.596329 0.000013 0.270207
210.096527 130.520248 0.000010 0.294072
209.499542 134.376526 0.000007 0.287465
209.118423 136.838425 0.000006 0.279637
208.853531 138.549561 0.000006 0.259098
208.658371 139.810226 0.000005 0.267292
nan nan nan 0.000000
209.102524 136.420761 4.462645 0.235294
209.223770 135.599701 4.225722 0.258824
209.122971 136.282303 3.712122 0.264576
209.143707 136.141922 3.344146 0.544594
209.147751 136.114502 2.960314 0.568627
209.158676 136.040588 2.579034 0.567864
209.123230 136.280579 2.188904 0.480232
210.523148 126.800385 1.654281 0.242039
213.383972 107.426910 0.000022 0.293950
211.000046 123.570862 0.000013 0.290074
209.976517 130.502106 0.000010 0.279484
209.406479 134.362457 0.000007 0.313817
209.042557 136.826950 0.000006 0.363210
208.789612 138.539886 0.000005 0.335103
208.603256 139.801895 0.000005 0.298192
nan nan nan 0.000000
209.031662 136.353088 4.474929 0.223529
nan nan nan 0.000000
209.054062 136.193680 3.723674 0.233036
209.070267 136.078400 3.350174 0.560784
209.065506 136.112198 2.959538 0.572061
209.066681 136.103851 2.575314 0.559014
209.071854 136.067108 2.192241 0.538552
210.363983 126.873093 1.655830 0.217136
209.082840 135.988953 1.418986 0.260761
210.831497 123.546577 0.000013 0.287037
209.078140 136.022339 0.643313 0.596231
209.069351 136.084854 0.260023 0.546075
208.966599 136.816010 0.000005 0.245487
208.725616 138.530670 0.000005 0.313344
208.548080 139.793945 0.000005 0.254871
nan nan nan 0.000000
nan nan nan 0.000000
209.041870 135.671631 4.208155 0.194461
208.966095 136.239578 3.715158 0.266270
209.025864 135.791580 3.382172 0.258824
nan nan nan 0.000000
208.986908 136.083603 2.575768 0.577569
208.986313 136.088089 2.191712 0.561151
208.990601 136.055878 1.807757 0.542809
208.990295 136.058212 1.422974 0.535485
208.989365 136.065186 1.037489 0.534310
208.986282 136.088287 0.652264 0.553597
208.982285 136.118271 0.266688 0.560159
208.890564 136.805603 0.000006 0.270436
208.661575 138.521896 0.000005 0.262470
208.492844 139.786377 0.000005 0.257221
208.829056 136.680328 4.782391 0.564385
nan nan nan 0.000000
208.969498 135.568527 4.225063 0.173648
nan nan nan 0.000000
nan nan nan 0.000000
nan nan nan 0.000000
208.906372 136.068237 2.576006 0.536309
208.908112 136.054550 2.192091 0.538445
208.907455 136.059723 1.807994 0.533135
208.906570 136.066635 1.423914 0.561547
208.905869 136.072205 1.038942 0.559716
208.903290 136.092682 0.653996 0.565057
208.899872 136.119675 0.268468 0.580392
208.814468 136.795715 0.000006 0.252949
208.597458 138.513565 0.000005 0.256718
208.437576 139.779205 0.000004 0.278218
208.758560 136.616516 4.796103 0.261006
nan nan nan 0.000000
nan nan nan 0.000000
208.787842 136.371017 3.692500 0.277119
208.782150 136.418686 3.307083 0.185687
nan nan nan 0.000000
208.857407 135.787643 2.589395 0.309911
208.899704 135.432892 2.202171 1.000000
208.832306 135.998093 1.807143 0.573419
208.830048 136.017029 1.421953 0.516960
208.828674 136.028595 1.036165 0.518410
208.824722 136.061661 0.651555 0.580392
208.821533 136.088501 0.265295 0.547066
208.738312 136.786362 0.000006 0.293629
208.533295 138.505692 0.000005 0.254383
208.382248 139.772400 0.000004 0.250141
208.663208 136.767502 4.755789 0.254963
nan nan nan 0.000000
nan nan nan 0.000000
208.778641 135.738373 3.785565 0.350149
208.731354 136.159973 3.335976 0.307195
nan nan nan 0.000000
nan nan nan 0.000000
208.711304 136.338760 2.187092 0.214038
nan nan nan 0.000000
211.974808 107.243889 0.000022 0.293278
210.155746 123.461212 0.000014 0.286046
209.374756 130.423950 0.000010 0.265400
208.752411 135.972275 0.249347 0.545830
208.662079 136.777542 0.000006 0.264836
208.469070 138.498260 0.000005 0.255467
208.326874 139.765991 0.000004 0.252399
208.578156 136.841934 4.734953 0.298131
208.674957 135.920959 4.558187 0.215961
nan nan nan 0.000000
208.696228 135.718552 3.787169 0.258824
208.648209 136.175507 3.333166 0.542473
208.680939 135.864029 2.975894 0.247059
nan nan nan 0.000000
208.683075 135.843719 2.195095 0.470954
nan nan nan 0.000000
209.980469 123.499779 0.804538 0.258824
209.986465 123.442818 0.000013 0.293843
209.254089 130.410843 0.000010 0.277607
208.846207 134.291672 0.000007 0.287633
208.585800 136.769257 0.000006 0.252872
208.404800 138.491272 0.000005 0.275776
208.271454 139.759979 0.000004 0.335271
nan nan nan 0.000000
208.600510 135.832870 4.575492 0.611765
nan nan nan 0.000000
208.613663 135.698700 3.788862 0.693751
nan nan nan 0.000000
nan nan nan 0.000000
nan nan nan 0.000000
208.601364 135.824188 2.195278 0.930571
nan nan nan 0.000000
209.799683 123.602707 0.810466 0.258824
209.817047 123.425613 0.000013 0.290959
209.133347 130.398575 0.000010 0.274769
208.752548 134.282166 0.000007 0.283207
208.509460 136.761505 0.000006 0.262852
208.340485 138.484741 0.000005 0.262135
208.216003 139.754349 0.000005 0.288472
nan nan nan 0.000000
208.518753 135.812622 4.578184 0.521080
nan nan nan 0.000000
nan nan nan 0.000000
208.579742 135.142441 3.450678 0.231708
nan nan nan 0.000000
209.823883 121.471603 3.293876 0.258824
208.519485 135.804611 2.195470 0.284977
209.834961 121.349884 1.567016 0.312749
211.126556 107.157745 0.000022 0.294438
209.647522 123.409592 0.000013 0.280018
209.012512 130.387161 0.000010 0.282673
208.658844 134.273300 0.000007 0.265614
208.433060 136.754272 0.000006 0.324254
208.276123 138.478653 0.000005 0.291417
208.160507 139.749100 0.000004 0.311162
nan nan nan 0.000000
nan nan nan 0.000000
208.486832 135.196915 4.283142 0.258824
208.376465 136.511215 3.665641 0.215412
nan nan nan 0.000000
nan nan nan 0.000000
nan nan nan 0.000000
nan nan nan 0.000000
209.547134 122.569977 1.587316 0.258824
209.357483 124.828613 0.872414 0.258824
209.477875 123.394760 0.000014 0.275731
208.891602 130.376572 0.000009 0.301106
208.565079 134.265091 0.000007 0.294759
208.356613 136.747589 0.000006 0.259007
208.211731 138.473022 0.000005 0.245747
208.104980 139.744232 0.000004 0.343221
nan nan nan 0.000000
208.354813 135.770874 4.584206 0.246616
208.406952 135.093094 4.300807 0.259434
208.314285 136.297592 3.696486 0.188861
208.422043 134.897049 3.477291 0.707027
208.315735 136.278595 2.939324 0.290196
208.357620 135.734268 2.589609 0.536080
nan nan nan 0.000000
209.447876 121.565079 1.571055 0.215686
209.210587 124.649071 0.864200 0.246281
209.308151 123.381088 0.000014 0.297444
208.770630 130.366852 0.000009 0.303685
208.471252 134.257553 0.000007 0.259541
208.280121 136.741440 0.000006 0.286564
208.147293 138.467834 0.000005 0.316335
208.049423 139.739761 0.000004 0.327749
nan nan nan 0.000000
208.272644 135.748367 4.587752 0.199451
208.319000 135.085526 4.301009 0.258671
208.281708 135.618744 3.796561 0.769284
nan nan nan 0.000000
208.277222 135.682968 2.987801 0.567269
208.275009 135.714493 2.590281 0.482490
nan nan nan 0.000000
209.195313 122.553551 1.587490 0.229175
209.084915 124.132263 0.839331 0.258824
209.138321 123.368614 0.000014 0.276692
208.649582 130.357956 0.000009 0.264683
208.377380 134.250656 0.000007 0.283406
208.203598 136.735809 0.000006 0.256275
208.082809 138.463104 0.000005 0.293797
207.993820 139.735687 0.000004 0.229160
nan nan nan 0.000000
nan nan nan 0.000000
208.143097 136.475266 4.046569 0.179965
208.182373 135.850983 3.761211 0.221576
nan nan nan 0.000000
208.194199 135.663040 2.988980 0.556695
nan nan nan 0.000000
nan nan nan 0.000000
nan nan nan 0.000000
208.966583 123.386444 0.803157 0.258824
208.968414 123.357330 0.000013 0.277180
208.528473 130.349915 0.000009 0.308553
208.283447 134.244415 0.000007 0.298253
208.127029 136.730728 0.000006 0.353323
208.018311 138.458817 0.000005 0.245350
207.938202 139.731995 0.000004 0.343496
nan nan nan 0.000000
nan nan nan 0.000000
208.076431 136.261185 4.084734 0.257694
208.160172 134.763290 3.922076 0.236759
208.568298 127.463287 4.331759 0.290196
208.107391 135.707428 2.984926 0.266667
nan nan nan 0.000000
nan nan nan 0.000000
208.745255 124.298355 1.616448 0.258824
209.709381 107.053688 0.000023 0.287739
208.798431 123.347237 0.000014 0.303105
208.407318 130.342712 0.000010 0.311284
208.189499 134.238831 0.000007 0.286931
208.050430 136.726181 0.000006 0.320562
207.953766 138.454987 0.000005 0.283314
207.882568 139.728683 0.000004 0.288960
208.025482 135.665405 5.018280 0.244419
nan nan nan 0.000000
208.074615 134.660736 4.375532 0.240650
208.065628 134.844482 3.909315 0.290196
208.424606 127.504745 4.326130 0.271565
207.986786 136.456635 2.923060 0.222126
nan nan nan 0.000000
208.686569 122.148399 2.418635 0.258824
nan nan nan 0.000000
209.425552 107.038803 0.000022 0.294057
208.628372 123.338333 0.000014 0.282231
208.286118 130.336365 0.000010 0.311620
208.095490 134.233917 0.000007 0.311330
207.973801 136.722168 0.000006 0.293172
207.889221 138.451599 0.000005 0.289860
207.826889 139.725769 0.000004 0.278706
207.942245 135.642624 5.023034 0.241337
nan nan nan 0.000000
nan nan nan 0.000000
208.219284 129.032532 4.771587 0.258320
nan nan nan 0.000000
207.943909 135.602951 2.992827 0.577630
208.410706 124.465279 3.142483 0.200183
nan nan nan 0.000000
208.462830 123.221901 1.599080 0.364706
209.141632 107.025894 0.000023 0.284566
208.458267 123.330605 0.000014 0.278614
208.164871 130.330856 0.000010 0.282902
208.001465 134.229645 0.000008 0.286183
207.897141 136.718689 0.000006 0.260670
207.824631 138.448669 0.000005 0.266545
207.771210 139.723236 0.000004 0.306569
207.858734 135.619720 5.027966 0.235294
nan nan nan 0.000000
nan nan nan 0.000000
nan nan nan 0.000000
207.882813 134.930084 3.470033 0.195560
207.833633 136.338470 2.932214 0.262760
207.858902 135.614807 2.594102 0.491447
nan nan nan 0.000000
nan nan nan 0.000000
208.857635 107.014984 0.000022 0.294026
208.288101 123.324066 0.000013 0.302129
208.043594 130.326202 0.000009 0.313863
207.907410 134.226028 0.000007 0.280262
207.820465 136.715744 0.000006 0.283879
207.760025 138.446182 0.000005 0.271534
207.715515 139.721100 0.000003 0.255375
nan nan nan 0.000000
nan nan nan 0.000000
207.983475 128.131485 5.562122 0.228412
208.125900 123.032372 5.660623 0.395575
207.761963 136.061630 3.339486 0.226566
207.775909 135.562592 2.995653 0.343252
207.775009 135.594711 2.594959 0.511666
208.142624 122.434036 2.413622 0.348760
nan nan nan 0.000000
208.573563 107.006073 0.000023 0.295995
208.117905 123.318710 0.000014 0.292912
207.922272 130.322388 0.000010 0.332189
207.813324 134.223068 0.000008 0.307958
207.743759 136.713333 0.000006 0.280430
207.695419 138.444153 0.000005 0.276204
207.659790 139.719345 0.000004 0.282200
207.690887 135.573654 5.038326 0.231891
207.951202 123.145767 7.304514 0.258824
207.693619 135.443344 4.230785 0.583627
nan nan nan 0.000000
207.858780 127.558083 4.317726 0.242237
207.691544 135.542328 2.997146 0.257145
207.690857 135.574539 2.595849 0.500557
207.690201 135.606354 2.197954 1.000000
207.955688 122.931915 1.594597 0.358709
208.289429 106.999130 0.000023 0.293904
207.947678 123.314552 0.000013 0.284962
207.800949 130.319412 0.000009 0.300099
207.719223 134.220764 0.000008 0.263996
207.667053 136.711456 0.000006 0.274617
207.630783 138.442566 0.000004 0.282963
207.604065 139.717987 0.000004 0.327428
207.633102 133.646805 5.520653 0.301961
207.608780 135.388535 4.659426 0.542901
207.790848 122.349602 6.613232 0.258824
nan nan nan 0.000000
207.607376 135.489349 3.404937 0.385229
207.606918 135.521988 2.998692 0.420066
207.718979 127.496849 2.992646 0.265446
207.606018 135.586212 2.198259 0.419364
207.784622 122.795616 1.592416 0.258824
208.005264 106.994164 0.000023 0.297108
207.777420 123.311577 0.000014 0.302770
207.679596 130.317307 0.000010 0.285023
207.625107 134.219131 0.000007 0.319600
207.590332 136.710114 0.000006 0.304952
207.566147 138.441437 0.000004 0.278019
207.548340 139.717010 0.000003 0.332113
207.532120 134.054901 5.418169 0.290501
207.531265 134.178192 4.920647 0.286946
207.530426 134.297729 4.438807 0.474464
207.521194 135.619827 3.792066 0.203891
207.522247 135.468826 3.407193 0.496635
207.522018 135.501587 3.000292 0.945586
207.521805 135.534012 2.597724 0.223529
207.610687 122.802879 2.407435 0.314580
207.610596 122.814529 1.592755 0.276478
207.610519 122.825943 0.777953 0.407889
207.607147 123.309799 0.000014 0.300389
207.558228 130.316025 0.000010 0.302998
207.530991 134.218140 0.000007 0.272755
207.513596 136.709305 0.000006 0.249638
207.501511 138.440765 0.000004 0.299687
207.492599 139.716431 0.000003 0.268315
207.436859 134.435669 5.322708 0.778470
207.436859 134.545898 4.841157 0.290074
207.436859 128.970032 5.408155 0.547646
nan nan nan 0.000000
207.436859 135.447998 3.409556 0.539391
207.436859 135.480896 3.001965 0.517098
207.436859 122.911247 3.217826 0.258824
207.436859 135.545609 2.198904 0.254459
207.436859 122.209938 1.582872 0.364706
207.436859 122.914536 0.782335 0.258824
207.436859 123.309204 0.000014 0.310582
207.436859 130.315613 0.000010 0.332036
207.436859 134.217819 0.000007 0.307790
207.436859 136.709045 0.000006 0.321782
207.436859 138.440536 0.000005 0.321508
207.436859 139.716232 0.000004 0.311299
207.346771 134.797791 5.232081 0.374395
207.347519 134.903046 4.764089 0.230457
207.348221 135.003418 4.310399 0.425177
207.303986 128.668243 4.823262 0.209308
207.351166 135.427322 3.411968 0.319097
207.351410 135.460327 3.003675 0.572030
207.299622 128.043701 2.965708 0.266163
nan nan nan 0.000000
nan nan nan 0.000000
207.152649 106.991196 0.000023 0.290318
207.266571 123.309799 0.000014 0.293751
207.315491 130.316025 0.000010 0.300587
207.342728 134.218140 0.000007 0.293431
207.360123 136.709305 0.000006 0.268467
207.372208 138.440765 0.000004 0.259312
207.381119 139.716431 0.000003 0.345724
207.261475 135.140594 5.146443 0.452857
207.262878 135.241211 4.691248 0.895827
207.264206 135.336487 4.249958 0.266667
207.264725 135.373108 3.828798 0.566857
207.265182 135.406586 3.414459 0.341787
207.265656 135.439697 3.005440 0.345663
207.160095 127.880333 2.973805 0.275639
nan nan nan 0.000000
207.068039 121.287476 1.567734 0.327672
206.868454 106.994171 0.000023 0.291386
207.096298 123.311577 0.000014 0.296971
207.194122 130.317307 0.000010 0.285039
207.248611 134.219131 0.000008 0.277806
207.283386 136.710114 0.000006 0.275074
207.307571 138.441437 0.000004 0.282658
207.325378 139.717010 0.000003 0.324392
207.180573 135.465561 5.065408 0.223255
207.182587 135.561844 4.622311 0.283314
207.196564 136.229126 4.087776 0.983597
207.178192 135.352173 3.832128 0.671824
207.178894 135.385773 3.417026 0.519936
207.179596 135.419006 3.007260 0.502937
nan nan nan 0.000000
207.042511 128.874512 2.308137 0.237690
206.879074 121.072350 1.564161 0.258824
206.584274 106.999130 0.000023 0.298558
206.926041 123.314552 0.000013 0.303151
207.072769 130.319412 0.000010 0.302739
207.154495 134.220764 0.000008 0.290822
207.206665 136.711456 0.000006 0.268025
207.242935 138.442566 0.000004 0.227924
207.269638 139.717987 0.000003 0.270420
207.103714 135.774048 4.988629 0.254520
207.106293 135.866272 4.556982 0.271687
207.141937 137.142319 3.921906 0.243687
207.091354 135.331161 3.835558 0.653941
207.092285 135.364868 3.419673 0.269917
207.093216 135.398224 3.009137 0.396902
nan nan nan 0.000000
206.714569 121.842140 2.423311 0.258824
206.686951 120.853691 1.560507 0.258824
206.300156 107.006073 0.000023 0.292454
206.755814 123.318710 0.000014 0.289128
206.951447 130.322388 0.000010 0.317205
207.060394 134.223068 0.000008 0.303944
207.129959 136.713333 0.000006 0.374258
207.178299 138.444153 0.000004 0.268269
207.213928 139.719345 0.000003 0.253117
207.030609 136.067276 4.915789 0.212512
206.773605 128.707504 6.104632 0.257053
207.002960 135.275513 4.262212 0.508034
207.004166 135.310059 3.839092 0.162814
207.005356 135.343887 3.422400 0.197711
207.006516 135.377350 3.011070 0.611765
206.613129 124.112259 3.159530 0.258824
206.526657 121.636032 2.426780 0.258824
206.535858 121.899345 1.577532 0.258824
206.457306 119.649857 0.621112 0.258824
206.585602 123.324066 0.000014 0.300023
206.830124 130.326202 0.000010 0.271061
206.966309 134.226028 0.000008 0.280369
207.053253 136.715744 0.000006 0.310628
207.113678 138.446182 0.000004 0.278050
207.158203 139.721100 0.000003 0.320928
206.649048 128.904114 6.712427 0.259831
206.913727 135.219070 4.698133 0.573297
206.629547 128.438873 5.507878 1.000000
nan nan nan 0.000000
206.633469 128.532318 4.207076 0.645319
206.919479 135.356415 3.013060 0.471305
206.455902 124.295914 3.150811 0.258824
206.385391 122.613342 2.410887 0.258824
nan nan nan 0.000000
205.732086 107.025894 0.000023 0.283894
206.415451 123.330605 0.000014 0.295109
206.708847 130.330856 0.000010 0.288594
206.872253 134.229645 0.000008 0.285054
206.976578 136.718689 0.000006 0.298680
207.049088 138.448669 0.000004 0.325109
207.102509 139.723236 0.000003 0.273396
206.823578 135.161392 5.144681 0.587381
206.825348 135.197556 4.703643 0.473610
206.463165 127.792137 5.626809 0.266667
206.828781 135.267609 3.846474 0.304906
206.491379 128.368942 4.226594 0.575875
206.832092 135.335388 3.015107 0.452018
206.498413 128.512680 2.943772 0.583093
206.493408 128.410538 2.316039 0.523201
206.126862 120.915863 1.561172 0.258824
205.448166 107.038803 0.000023 0.296056
206.488281 128.305573 0.407791 0.530144
206.587601 130.336365 0.000010 0.311879
206.778229 134.233917 0.000008 0.293950
206.899918 136.722168 0.000006 0.264714
206.984497 138.451599 0.000004 0.265522
207.046814 139.725769 0.000003 0.289235
206.734589 135.139648 5.151285 0.402075
206.736618 135.175934 4.709308 0.556405
206.353683 128.326553 5.530745 0.254582
206.740555 135.246246 3.850323 0.268864
nan nan nan 0.000000
nan nan nan 0.000000
206.746231 135.347778 2.607806 0.561318
206.362411 128.482758 2.314971 0.563973
206.360291 128.444763 1.684406 0.570230
206.360931 128.456238 1.053105 0.524224
206.363037 128.493835 0.422670 0.577188
206.466400 130.342712 0.000010 0.271504
206.684219 134.238846 0.000008 0.266361
206.823288 136.726181 0.000006 0.304570
206.919952 138.454987 0.000004 0.323171
206.991150 139.728683 0.000003 0.251850
nan nan nan 0.000000
nan nan nan 0.000000
206.214218 128.267471 5.542980 0.288243
206.651947 135.224808 3.854279 0.243748
206.654099 135.259094 3.434117 0.209995
206.240738 128.688950 3.561954 0.286885
206.658356 135.326691 2.609096 0.399451
205.851654 122.504593 2.413121 0.258824
206.224823 128.435867 1.684129 0.566049
206.225632 128.448792 1.052346 0.560678
206.227997 128.486389 0.421404 0.557885
206.345245 130.349915 0.000010 0.290715
206.590256 134.244415 0.000008 0.270085
206.746689 136.730728 0.000006 0.273243
206.855408 138.458817 0.000004 0.291630
206.935516 139.731995 0.000003 0.325734
206.555450 135.095886 5.165045 0.649393
206.557999 135.132431 4.721107 0.167132
nan nan nan 0.000000
206.133957 129.068237 4.770608 0.306676
nan nan nan 0.000000
206.567749 135.271759 3.021600 0.310384
206.077667 128.263397 2.957224 0.259525
206.075531 128.232895 2.319347 0.298314
nan nan nan 0.000000
204.597046 107.089371 0.000023 0.298268
205.735397 123.368622 0.000014 0.286290
206.224136 130.357956 0.000010 0.284611
206.496338 134.250656 0.000007 0.258885
206.670120 136.735825 0.000006 0.295857
206.790909 138.463104 0.000004 0.269322
206.879898 139.735687 0.000003 0.272557
206.465271 135.073853 5.172203 0.632837
nan nan nan 0.000000
206.470856 135.146301 4.291098 0.363821
206.473541 135.181244 3.862571 0.708705
206.476227 135.216171 3.440472 0.991669
206.478867 135.250366 3.023883 0.328954
206.481461 135.284256 2.611782 0.385428
205.979309 128.758102 2.310891 0.117174
nan nan nan 0.000000
204.313583 107.110184 0.000023 0.292165
205.565567 123.381096 0.000014 0.301366
206.103088 130.366852 0.000010 0.310918
206.402466 134.257553 0.000008 0.293126
206.593597 136.741440 0.000006 0.291096
206.726425 138.467834 0.000004 0.306310
206.824295 139.739761 0.000003 0.289815
206.374695 135.051727 5.179546 0.192157
206.377747 135.088074 4.733645 0.777356
206.380798 135.124435 4.296377 0.551339
nan nan nan 0.000000
206.386688 135.194550 3.443777 0.415091
206.758133 139.617981 2.665074 0.258824
205.788635 128.072510 2.967664 0.192157
206.395248 135.296402 2.203697 0.273411
nan nan nan 0.000000
204.030289 107.132965 0.000022 0.297246
205.395828 123.394760 0.000014 0.294926
205.982117 130.376572 0.000010 0.269612
206.308640 134.265106 0.000008 0.282933
206.517105 136.747589 0.000006 0.248722
206.661987 138.473022 0.000004 0.265339
206.768738 139.744232 0.000003 0.267491
206.283691 135.029495 5.187080 0.310857
206.287018 135.065979 4.740109 0.642771
206.290329 135.102463 4.301794 0.500511
206.293533 135.137650 3.871248 0.404868
205.573288 127.223480 4.365446 0.387289
nan nan nan 0.000000
206.302948 135.241165 2.614625 1.000000
205.656021 128.132507 2.321535 0.223529
nan nan nan 0.000000
203.747162 107.157745 0.000023 0.292332
205.226196 123.409592 0.000014 0.286519
205.861206 130.387161 0.000010 0.311208
206.214874 134.273300 0.000008 0.297581
206.440659 136.754288 0.000006 0.331014
206.597595 138.478653 0.000004 0.309575
206.713211 139.749100 0.000003 0.263188
206.192200 135.006638 5.194937 0.166049
206.195831 135.043762 4.746737 0.899931
206.199387 135.079956 4.307429 0.597574
205.514526 128.095245 4.922136 0.510445
205.408310 127.011871 4.391468 0.224628
nan nan nan 0.000000
206.213074 135.219604 2.616095 0.273243
nan nan nan 0.000000
nan nan nan 0.000000
203.464203 107.184479 0.000022 0.292470
205.056671 123.425613 0.000014 0.298253
205.740372 130.398590 0.000010 0.271046
206.121155 134.282166 0.000008 0.314031
206.364258 136.761505 0.000006 0.266529
206.533234 138.484741 0.000004 0.250797
206.657715 139.754333 0.000003 0.255009
206.100296 134.984192 5.202856 0.676799
206.104218 135.021454 4.753531 0.472419
206.108032 135.057770 4.313125 0.258305
206.111801 135.093658 3.880374 0.160784
nan nan nan 0.000000
nan nan nan 0.000000
206.122772 135.197937 2.617602 0.836912
nan nan nan 0.000000
nan nan nan 0.000000
203.181458 107.213211 0.000022 0.285908
204.887253 123.442825 0.000014 0.293675
205.619629 130.410843 0.000010 0.275853
206.027512 134.291672 0.000008 0.300633
206.287918 136.769257 0.000006 0.345937
206.468918 138.491272 0.000004 0.265095
206.602264 139.759979 0.000003 0.284367
206.007950 134.961639 5.210971 0.180697
206.012146 134.999039 4.760492 0.640742
206.016235 135.035477 4.318961 0.160784
nan nan nan 0.000000
nan nan nan 0.000000
206.509140 139.429901 2.682416 0.258824
205.224457 127.976715 2.975052 0.540993
206.035858 135.210480 2.205670 0.423209
nan nan nan 0.000000
202.898895 107.243896 0.000022 0.294255
204.717972 123.461220 0.000014 0.287968
205.498962 130.423950 0.000010 0.289937
205.933945 134.301834 0.000008 0.318776
206.211639 136.777542 0.000006 0.300481
206.404648 138.498245 0.000004 0.272297
206.546844 139.765991 0.000003 0.304677
205.915115 134.938980 5.219283 0.237507
nan nan nan 0.000000
205.923950 135.013092 4.324939 0.599115
204.905975 126.476044 5.170680 0.883223
204.920029 126.593895 4.445341 0.255665
206.449463 139.420059 2.683781 0.258824
205.175278 128.734451 2.938351 0.210040
205.944901 135.188751 2.206194 0.285695
nan nan nan 0.000000
202.616577 107.276566 0.000022 0.289250
204.548813 123.480789 0.000014 0.297398
205.378403 130.437912 0.000010 0.282185
205.840439 134.312668 0.000008 0.285542
206.135406 136.786362 0.000006 0.268803
206.340424 138.505676 0.000004 0.257603
206.491470 139.772400 0.000003 0.245472
204.781250 126.679314 7.307426 0.213733
204.787064 126.725342 6.566243 0.212650
205.831207 134.990585 4.331060 0.752300
204.915421 127.741455 4.984200 0.858457
204.819778 126.984406 4.402155 0.330266
206.389526 139.410172 2.685185 0.258824
206.393494 139.441605 2.408967 0.258824
205.853470 135.166901 2.206732 0.147555
nan nan nan 0.000000
202.334488 107.311203 0.000023 0.293477
204.379791 123.501541 0.000014 0.289738
205.257935 130.452698 0.000010 0.277165
205.747009 134.324127 0.000008 0.291966
206.059250 136.795715 0.000006 0.261418
206.276260 138.513550 0.000003 0.284428
206.436142 139.779190 0.000003 0.273747
204.682159 127.055222 7.217247 0.277028
204.688477 127.102539 6.488195 0.564340
205.737946 134.967957 4.337327 0.467231
204.709122 127.257187 5.059379 0.616861
nan nan nan 0.000000
206.329346 139.400238 2.686628 0.258824
206.333557 139.431793 2.409824 0.258824
205.761566 135.144958 2.207282 0.234836
203.633591 119.196487 1.529426 0.235294
202.052643 107.347809 0.000022 0.296147
204.210938 123.523483 0.000014 0.283848
205.137573 130.468323 0.000010 0.281056
205.653671 134.336258 0.000008 0.285801
205.983139 136.805603 0.000006 0.253727
206.212143 138.521881 0.000004 0.234150
206.380859 139.786377 0.000003 0.271763
204.586823 127.421646 7.129550 0.246464
204.593170 127.466812 6.413043 0.511955
205.644058 134.944199 4.343929 0.276539
204.621597 127.669075 5.000608 0.241947
205.654297 135.017075 3.473470 0.490684
204.637466 127.781990 3.649289 0.580392
206.273315 139.421616 2.410721 0.419059
205.669128 135.122574 2.207850 0.430304
nan nan nan 0.000000
201.771057 107.386383 0.000023 0.292409
204.042221 123.546585 0.000014 0.288685
205.017334 130.484802 0.000010 0.281682
205.560410 134.349030 0.000008 0.305852
205.907120 136.816010 0.000006 0.297627
206.148102 138.530655 0.000003 0.239597
206.325638 139.793930 0.000003 0.284184
204.494583 127.775635 7.045084 0.293111
205.544281 134.884140 4.798121 0.601968
205.549774 134.921326 4.350495 0.302083
204.524246 127.976494 4.957532 0.544305
206.264725 139.762955 2.923062 0.247059
206.320770 140.142502 2.626455 0.258824
206.265442 139.767883 2.393939 0.258824
206.181885 139.202026 2.140579 0.239612
nan nan nan 0.000000
201.489746 107.426918 0.000023 0.292622
203.873672 123.570869 0.000014 0.286107
204.897202 130.502106 0.000010 0.291768
205.467239 134.362457 0.000008 0.292973
205.831177 136.826965 0.000006 0.258335
206.084106 138.539871 0.000003 0.263355
206.270462 139.801880 0.000003 0.276524
205.449661 134.864166 5.253675 0.240986
205.449097 134.860458 4.806252 0.613291
205.454956 134.898331 4.357211 0.171206
204.436569 128.320023 4.909092 0.277699
206.222122 139.853958 2.913443 0.258824
204.342285 127.710983 3.658584 0.250355
206.216614 139.818405 2.391843 0.258824
206.379761 140.872238 2.113071 0.258824
206.331116 140.557999 1.881726 0.258824
206.214661 139.805771 1.607529 0.258824
203.705307 123.596329 0.000014 0.267796
204.777191 130.520264 0.000010 0.284901
205.374176 134.376526 0.000008 0.329397
205.755295 136.838440 0.000006 0.302861
206.020187 138.549545 0.000004 0.332494
206.215347 139.810226 0.000003 0.332082
nan nan nan 0.000000
205.354645 134.844650 4.812818 0.192157
205.359589 134.875229 4.364079 0.587442
204.174957 127.561035 5.026362 0.630457
206.180954 139.946503 2.903669 0.258824
202.845551 119.353111 4.354657 0.290196
206.270203 140.497543 2.358478 0.258824
206.336807 140.908752 2.112591 0.258824
206.285004 140.588867 1.882107 0.258824
206.164108 139.842453 1.608920 0.258824
203.537125 123.622971 0.000014 0.291814
204.657318 130.539246 0.000010 0.276890
205.281204 134.391251 0.000008 0.300191
205.679504 136.850449 0.000007 0.246098
205.956345 138.559662 0.000004 0.310155
206.160294 139.818939 0.000003 0.271504
nan nan nan 0.000000
205.260071 134.830750 4.819115 0.325856
205.263580 134.851456 4.371200 0.323568
nan nan nan 0.000000
nan nan nan 0.000000
204.043716 127.639229 3.668307 0.654902
206.204742 140.415955 2.362958 0.258824
206.294220 140.944962 2.112120 0.258824
206.040512 139.445023 1.862987 0.258824
206.113892 139.878815 1.610279 0.258824
203.369125 123.650787 0.000014 0.287266
204.537567 130.559067 0.000010 0.317571
205.188339 134.406631 0.000008 0.277623
205.603806 136.862976 0.000006 0.270771
205.892563 138.570221 0.000003 0.321019
206.105301 139.828049 0.000003 0.280186
nan nan nan 0.000000
205.165176 134.817291 4.825469 0.282750
205.968613 139.373871 3.538486 0.258824
nan nan nan 0.000000
203.882828 127.544785 4.354518 0.605188
206.014648 139.634918 2.671556 0.258824
206.137497 140.331650 2.367602 0.258824
206.139648 140.343811 2.122244 0.316915
205.979340 139.434662 1.862649 0.258824
206.063980 139.914703 1.611599 0.258824
203.201324 123.679771 0.000014 0.276600
204.417969 130.579727 0.000010 0.288533
205.095581 134.422653 0.000008 0.267582
205.528183 136.876038 0.000006 0.332235
205.828857 138.581223 0.000004 0.243534
206.050369 139.837540 0.000003 0.357122
nan nan nan 0.000000
205.069824 134.803680 4.832006 0.611856
205.069870 134.804001 4.385824 0.342641
205.909607 139.379303 3.254974 0.258824
205.083588 134.878693 3.499687 0.212314
205.984100 139.785217 2.659870 0.258824
205.988922 139.811447 2.394046 0.258824
203.762222 127.679192 2.333102 0.226810
205.917969 139.424866 1.862314 0.258824
200.087845 107.659012 0.000023 0.296300
203.033737 123.709915 0.000013 0.297902
204.298523 130.601227 0.000010 0.305531
205.002945 134.439316 0.000008 0.291859
205.452667 136.889618 0.000007 0.305043
205.765228 138.592667 0.000003 0.367742
205.995514 139.847397 0.000002 0.260441
204.975052 134.795441 5.290881 0.312474
204.973938 134.789612 4.838805 0.370459
204.972809 134.783646 4.392715 0.222553
205.850830 139.386383 3.255546 0.254002
204.986481 134.855347 3.504382 0.243290
205.931305 139.808243 2.658811 0.258824
205.980011 140.063629 2.381949 0.257084
206.000443 140.170731 2.125441 0.258824
206.002899 140.183578 1.874773 0.258824
199.808472 107.711288 0.000022 0.290990
202.866348 123.741241 0.000013 0.296223
204.179230 130.623535 0.000010 0.271687
204.910431 134.456635 0.000008 0.321599
205.377228 136.903732 0.000007 0.342855
205.701691 138.604568 0.000004 0.253712
205.940720 139.857651 0.000003 0.359686
nan nan nan 0.000000
204.877609 134.775497 4.845768 0.236698
204.876511 134.769943 4.398505 0.269261
205.791992 139.393478 3.256180 0.258824
205.934387 140.112610 2.889884 0.258824
205.895279 139.915131 2.650771 0.258824
205.934128 140.111313 2.380079 0.276448
205.858353 139.728607 2.132987 0.258824
206.058563 140.739777 1.883881 0.319524
199.529480 107.765518 0.000022 0.294362
202.699188 123.773727 0.000014 0.284993
204.060074 130.646698 0.000010 0.313207
204.818024 134.474594 0.000008 0.301350
205.301910 136.918381 0.000006 0.317708
205.638229 138.616898 0.000003 0.283070
205.886002 139.868286 0.000003 0.329076
nan nan nan 0.000000
204.780930 134.761978 4.852757 0.444770
203.254868 127.327621 5.784295 0.466621
205.733093 139.400589 3.256872 0.258824
205.856064 139.999649 2.904404 0.258824
205.565948 138.586304 2.762918 0.258824
205.888733 140.158798 2.378234 0.258824
nan nan nan 0.000000
205.856293 140.000748 1.871372 0.309804
199.250885 107.821701 0.000023 0.292363
202.532272 123.807388 0.000013 0.291630
203.941101 130.670700 0.000010 0.304646
204.725754 134.493195 0.000008 0.297246
205.226685 136.933548 0.000007 0.293721
205.574844 138.629669 0.000003 0.280308
205.831360 139.879318 0.000003 0.234058
204.684906 134.753754 5.315483 0.198703
204.683624 134.747742 4.860065 0.264744
205.701843 139.538040 3.518422 0.258824
203.100250 127.298546 5.093979 0.288167
205.775131 139.882843 2.919461 0.258824
205.804764 140.022247 2.643660 0.258824
205.843735 140.205612 2.376435 0.258824
205.663300 139.356705 2.139590 0.258824
205.746521 139.748230 1.866960 0.258091
198.972672 107.879822 0.000023 0.294926
205.570190 138.918655 1.263828 0.258824
203.822296 130.695511 0.000010 0.292256
204.633621 134.512451 0.000008 0.261784
205.151566 136.949234 0.000007 0.313619
205.511566 138.642899 0.000003 0.272877
205.776794 139.890717 0.000003 0.328496
nan nan nan 0.000000
202.949783 127.292267 6.513072 0.443992
202.947754 127.283066 5.803843 0.168994
202.945648 127.273460 5.102464 0.454139
205.770340 140.120911 2.892808 0.247059
205.640808 139.531769 2.685810 0.258824
205.517792 138.972275 2.439040 0.258824
205.602417 139.357132 2.139794 0.258824
205.627960 139.473297 1.862152 0.347295
198.694885 107.939880 0.000023 0.289296
205.525757 139.008484 1.270258 0.258824
203.703674 130.721161 0.000010 0.279133
204.541611 134.532333 0.000008 0.325261
205.076569 136.965454 0.000006 0.335134
205.448380 138.656555 0.000003 0.264378
205.722321 139.902496 0.000003 0.270115
nan nan nan 0.000000
204.487625 134.719574 4.875097 0.192157
205.633499 139.763153 3.481085 0.258824
205.579544 139.525665 3.243550 0.258824
205.719666 140.142441 2.891662 0.258824
205.638657 139.785858 2.665515 0.258824
205.671036 139.928360 2.391560 0.258824
205.624237 139.722397 2.133883 0.258824
nan nan nan 0.000000
198.417511 108.001877 0.000023 0.293538
205.482178 139.097092 1.276569 0.258824
203.585220 130.747635 0.000010 0.264149
204.449753 134.552872 0.000008 0.307790
205.001678 136.982193 0.000007 0.310613
205.385284 138.670654 0.000003 0.274189
205.667923 139.914642 0.000002 0.254810
nan nan nan 0.000000
204.388794 134.705170 4.882927 0.420920
205.518143 139.520157 3.528888 0.258824
205.518021 139.519684 3.246468 0.418433
205.669205 140.164215 2.890527 0.258824
205.618011 139.945969 2.653104 0.334005
205.604263 139.887390 2.394258 0.247059
205.548370 139.649048 2.135332 0.258824
205.559525 139.696640 1.865468 0.283330
205.676727 140.196304 1.621329 0.422492
205.745270 140.488571 1.392594 0.258824
203.466965 130.774948 0.000010 0.282597
204.358032 134.574051 0.000008 0.318746
204.926910 136.999466 0.000007 0.306386
205.322296 138.685196 0.000003 0.308812
205.613602 139.927185 0.000002 0.284489
nan nan nan 0.000000
nan nan nan 0.000000
205.456329 139.514145 3.532558 0.258824
205.456207 139.513657 3.249461 0.392950
205.619080 140.186890 2.889326 0.258824
205.566269 139.968597 2.652283 0.258824
205.497635 139.684891 2.405149 0.258824
nan nan nan 0.000000
205.485001 139.632629 1.864167 0.523400
197.864120 108.131683 0.000023 0.294331
205.647568 140.304626 1.376064 0.249195
205.399216 139.278046 1.003103 0.301961
204.266479 134.595856 0.000008 0.350393
204.852264 137.017242 0.000007 0.277226
205.259415 138.700180 0.000003 0.269291
205.559387 139.940109 0.000003 0.293385
nan nan nan 0.000000
nan nan nan 0.000000
205.375336 139.432373 3.550525 0.258824
202.321350 127.183525 5.136601 0.290303
202.319077 127.174393 4.433647 0.238972
205.382172 139.459763 2.696401 0.601404
201.669418 124.568741 3.171187 0.232074
201.459137 123.725372 2.404341 0.245396
205.373291 139.424164 1.860418 0.388235
197.588104 108.199463 0.000023 0.293675
205.546082 140.117188 1.359154 0.286946
203.231033 130.832016 0.000010 0.301686
204.175064 134.618317 0.000008 0.289143
204.777740 137.035553 0.000007 0.272740
205.196625 138.715607 0.000003 0.282643
205.505249 139.953400 0.000002 0.287724
nan nan nan 0.000000
205.334030 139.510666 3.826246 0.250736
205.323639 139.470230 3.546155 0.258824
nan nan nan 0.000000
205.331558 139.501068 2.973885 0.326223
201.307114 123.826874 4.021034 0.321569
201.541992 124.741669 3.164488 0.281865
205.338074 139.526459 2.138101 0.339834
201.429153 124.302231 1.604691 0.144854
197.312576 108.269203 0.000023 0.289982
201.370941 124.075508 0.000014 0.287861
205.327072 139.483612 1.024043 0.412253
205.328217 139.488022 0.742256 0.431968
205.329529 139.493164 0.458155 0.309316
205.334915 139.514114 0.174524 0.371389
205.451202 139.967072 0.000002 0.294041
nan nan nan 0.000000
205.271317 139.504395 3.830971 0.258824
202.006119 127.146141 5.868362 0.249485
205.265533 139.482544 3.260874 0.564218
205.273392 139.512268 2.974325 0.427832
205.411926 140.036621 2.649980 0.257816
205.351959 139.809677 2.400962 0.258824
205.448578 140.175323 2.127370 0.258824
205.278091 139.530090 1.861709 0.347646
205.278778 139.532654 1.584962 0.436591
205.370209 139.878723 1.336628 0.258824
205.373596 139.891541 1.070804 0.258824
205.280380 139.538712 0.747742 0.442222
205.281052 139.541245 0.464397 0.401083
205.284164 139.553070 0.179901 0.437217
205.397263 139.981125 0.000002 0.304494
nan nan nan 0.000000
nan nan nan 0.000000
nan nan nan 0.000000
205.158249 139.313965 3.289148 0.258824
201.053513 124.206070 4.800818 0.254276
205.228012 139.570755 2.690781 0.223438
205.299347 139.833344 2.400508 0.258824
205.657120 141.150116 2.111079 0.258824
205.278519 139.756653 1.865292 0.490135
205.333588 139.959351 1.605907 0.254566
205.255325 139.671265 1.317760 0.294896
205.315048 139.891098 1.069013 0.258824
203.901794 134.689499 0.000008 0.250355
205.222427 139.550232 0.463216 0.258824
205.219711 139.540207 0.173617 0.351904
205.343430 139.995560 0.000002 0.261448
nan nan nan 0.000000
nan nan nan 0.000000
205.120773 139.405411 3.567102 0.218387
205.106979 139.355957 3.285162 0.266667
nan nan nan 0.000000
205.133682 139.451614 2.702253 0.278553
205.246857 139.856949 2.400075 0.258824
205.664230 141.351852 2.107865 0.258824
205.158310 139.539841 1.861349 0.246311
200.876221 124.203110 0.801489 0.259373
205.327164 140.144562 1.356739 0.231220
202.761673 130.956024 0.000010 0.291997
203.811050 134.714493 0.000008 0.285145
204.480988 137.113937 0.000004 0.267567
204.946625 138.781662 0.000003 0.246983
205.289688 140.010361 0.000003 0.355291
nan nan nan 0.000000
205.120209 139.621552 3.815242 0.258824
nan nan nan 0.000000
205.138168 139.684174 3.237057 0.321569
nan nan nan 0.000000
200.692383 124.179886 4.006315 0.228473
205.194427 139.880386 2.399668 0.258824
205.114853 139.602890 2.137851 0.258824
205.535843 141.071014 1.887141 0.258824
205.429916 140.701645 1.642303 0.252750
205.268463 140.138550 1.354954 0.258824
204.986221 139.154266 0.977195 0.258824
203.720474 134.740128 0.000008 0.280339
204.407150 137.134827 0.000004 0.306127
204.884415 138.799255 0.000003 0.313771
205.236053 140.025528 0.000002 0.341390
nan nan nan 0.000000
nan nan nan 0.000000
205.089600 139.725372 3.512701 0.258824
205.090530 139.728516 3.232710 0.258824
204.998383 139.415436 2.993563 0.258824
205.038620 139.552155 2.696477 0.258824
205.142166 139.903946 2.399273 0.258824
205.083923 139.706070 2.136372 0.258824
205.523941 141.201111 1.889131 0.258824
205.394028 140.759720 1.644551 0.258824
205.205109 140.117813 1.351872 0.356466
202.528336 131.022934 0.000010 0.315022
203.630096 134.766373 0.000008 0.345083
204.333466 137.156235 0.000004 0.291630
204.822342 138.817291 0.000003 0.278981
205.182526 140.041092 0.000002 0.263401
nan nan nan 0.000000
nan nan nan 0.000000
nan nan nan 0.000000
nan nan nan 0.000000
204.928909 139.393951 2.998216 0.258824
205.009109 139.659561 2.688728 0.258824
205.018280 139.689957 2.411086 0.258824
202.840775 132.477707 2.260214 0.235294
205.088394 139.922165 1.867038 0.293141
204.886642 139.253937 1.566539 0.364523
200.386948 124.350250 0.000014 0.295628
204.915680 139.350098 0.996516 0.258824
203.539886 134.793274 0.000008 0.316152
204.259933 137.178162 0.000004 0.297169
204.760391 138.835754 0.000003 0.284199
205.129105 140.057007 0.000002 0.326268
nan nan nan 0.000000
nan nan nan 0.000000
nan nan nan 0.000000
204.860352 139.377335 3.292450 0.184009
204.929352 139.600250 2.975504 0.258824
204.920425 139.571411 2.697766 0.265995
204.908356 139.532379 2.420069 0.258824
205.466019 141.333908 2.109063 0.258824
205.058838 140.018539 1.868405 0.258824
204.805954 139.201584 1.562920 0.258824
200.224106 124.400040 0.000014 0.289265
202.295959 131.093094 0.000010 0.305699
203.449875 134.820801 0.000008 0.293797
204.186539 137.200592 0.000004 0.285908
204.698563 138.854660 0.000003 0.290150
205.075790 140.073303 0.000002 0.273579
nan nan nan 0.000000
nan nan nan 0.000000
204.955322 139.877869 3.493308 0.258824
204.789200 139.354202 3.298882 0.258824
204.870911 139.611771 2.976251 0.258091
204.853867 139.558044 2.700445 0.258824
204.846451 139.534683 2.420870 0.258824
205.410934 141.314163 2.109641 0.258824
205.351395 141.126450 1.887137 0.258824
195.127243 108.895828 0.000023 0.291524
200.061615 124.450958 0.000014 0.300587
204.943115 139.839386 1.051220 0.258824
203.360046 134.848938 0.000008 0.316884
204.113312 137.223541 0.000004 0.356191
204.636871 138.873993 0.000003 0.258778
205.022598 140.089981 0.000003 0.302296
nan nan nan 0.000000
nan nan nan 0.000000
nan nan nan 0.000000
204.717331 139.330826 3.305442 0.258824
204.799530 139.583786 2.981827 0.258824
204.791931 139.560394 2.701813 0.258824
202.463150 132.393143 2.790710 0.992813
205.355301 141.294296 2.110228 0.258824
205.274063 141.044281 1.885470 0.258824
202.463562 132.394424 1.209356 0.238697
204.903748 139.904572 1.327859 0.258824
204.908798 139.920090 1.058854 0.258824
203.270432 134.877716 0.000008 0.307683
204.040253 137.246994 0.000004 0.255634
204.575317 138.893753 0.000003 0.299550
