# This PCD file was generated using the MATLABÂ® pcwrite function
# from Computer Vision ToolboxÂ®.
# .PCD v.7 - Point Cloud Data file format
VERSION .7
FIELDS x y z intensity
SIZE 4 4 4 4
TYPE F F F F
COUNT 1 1 1 1
WIDTH 1271
HEIGHT 1
VIEWPOINT 0 0 0 1 0 0 0
POINTS 1271
DATA ascii
62.138279 115.587402 -0.000028 0.544274
66.826614 120.794380 -0.000020 0.539788
70.340042 124.696472 0.200008 0.703258
71.840271 126.362663 0.200000 0.669825
72.883026 127.520775 0.200006 0.746365
73.143684 127.810265 0.009992 1.000000
54.737991 107.735519 10.812049 0.399878
54.737991 107.735519 9.598082 0.337636
54.737991 107.735519 8.401158 0.495506
54.737991 107.735519 7.218411 0.659342
54.737991 107.735519 6.047094 0.508553
54.737991 107.735519 4.884568 0.527123
54.643002 107.631485 3.735187 0.536889
54.643005 107.631493 2.577983 0.678431
54.643005 107.631493 1.422018 0.678431
54.643005 107.631493 0.264813 0.678431
62.012123 115.701790 -0.000028 0.544640
66.736702 120.875908 -0.000020 0.531319
70.277283 124.753380 0.200009 0.746365
71.789108 126.409058 0.200000 0.676280
72.839928 127.559860 0.200006 0.674937
73.075699 127.818069 0.000001 0.342702
54.737999 108.096992 10.745397 0.528557
54.737991 108.096992 9.540611 0.657908
54.737991 108.096992 8.352741 0.608865
54.737995 108.096992 7.178941 0.619074
54.737995 108.096992 6.016483 0.693355
54.737999 108.096992 4.862750 0.668101
54.643005 107.994415 3.722062 0.599069
54.643013 107.994415 2.573611 0.678431
54.643013 107.994415 1.426389 0.678431
54.643013 107.994415 0.277938 0.678431
61.886776 115.817047 -0.000028 0.543069
66.647362 120.958061 -0.000020 0.540780
70.214928 124.810722 0.200009 0.688914
71.738266 126.455795 0.199999 0.673320
72.797096 127.599243 0.200006 0.665965
73.034668 127.855797 0.000000 0.341985
54.737999 108.453064 10.680167 0.475303
54.737999 108.453064 9.484366 0.444053
54.737999 108.453064 8.305356 0.629862
54.737999 108.453064 7.140311 0.596689
54.737999 108.453064 5.986526 0.476860
54.737999 108.453064 4.841397 0.434379
54.643040 108.351944 3.709215 0.658900
54.643040 108.351936 2.569332 0.678431
54.643040 108.351936 1.430668 0.678431
54.643044 108.351944 0.290785 0.678431
61.762234 115.933182 -0.000028 0.545892
66.558594 121.040840 -0.000020 0.531258
70.152969 124.868500 0.200010 0.693935
71.687759 126.502899 0.199999 0.735698
72.754547 127.638924 0.200006 0.732357
72.993904 127.893814 0.000000 0.344167
56.901093 111.075363 9.830627 0.512276
56.901093 111.075363 8.751862 0.574609
56.901093 111.075363 7.688243 0.607004
56.901093 111.075363 6.637221 0.457191
56.901093 111.075363 5.596359 0.504875
56.901096 111.075363 4.563305 0.611490
54.643005 108.704109 3.696646 0.678431
54.643005 108.704109 2.565145 0.678431
54.643009 108.704109 1.434855 0.678431
54.643005 108.704109 0.303354 0.678431
61.638519 116.050194 -0.000027 0.527581
66.470413 121.124237 -0.000019 0.537072
70.091423 124.926712 0.200010 0.696605
71.637573 126.550346 0.199999 0.695735
72.712273 127.678894 0.200006 0.665309
72.959534 127.938545 0.002227 0.779599
56.901108 111.389557 9.773821 0.551843
56.901112 111.389557 8.702881 0.603235
56.901108 111.389557 7.646978 0.631357
56.901108 111.389549 6.603582 0.757992
56.901108 111.389549 5.570270 0.649760
56.901108 111.389557 4.544711 0.727520
56.806091 111.291161 3.531363 0.678431
56.806091 111.291161 2.510089 0.678431
56.806091 111.291161 1.489910 0.678431
56.806091 111.291161 0.468637 0.678431
61.515610 116.168060 -0.000027 0.530694
66.382813 121.208244 -0.000019 0.519341
70.030281 124.985352 0.200011 0.665019
71.587730 126.598145 0.199999 0.712367
72.670280 127.719170 0.200006 0.765270
72.959534 128.018707 0.016718 0.713878
56.744675 111.539474 9.774216 0.094118
56.744675 111.539474 8.703221 0.154223
56.901108 111.699219 7.606584 0.511055
56.744671 111.539474 6.603817 0.137316
56.744667 111.539467 5.570452 0.183398
56.744667 111.539467 4.544841 0.135302
56.831116 111.627747 3.518651 0.094118
56.831116 111.627747 2.505856 0.070420
56.831116 111.627747 1.494144 0.094118
56.831116 111.627747 0.481349 0.074510
61.393532 116.286774 -0.000027 0.550271
66.295799 121.292854 -0.000019 0.538369
69.969551 125.044411 0.200011 0.737057
71.538216 126.646294 0.199999 0.703716
72.628563 127.759727 0.200006 0.687694
72.959526 128.097702 0.030905 0.653010
56.901108 112.004501 9.663763 0.634882
56.901104 112.004501 8.607986 0.384726
56.901108 112.004501 7.567032 0.543160
56.901108 112.004501 6.538407 0.612985
56.901108 112.004509 5.519724 0.530556
56.901108 112.004501 4.508683 0.529778
56.806099 111.908829 3.509682 0.678431
56.806099 111.908829 2.502868 0.627878
56.806099 111.908829 1.497132 0.627878
56.806099 111.908829 0.490317 0.620279
61.272278 116.406342 -0.000027 0.535119
66.209381 121.378082 -0.000019 0.549554
68.959068 124.147057 -0.000014 0.511437
71.489044 126.694786 0.199999 0.737743
72.587135 127.800583 0.200006 0.719097
72.959526 128.175583 0.044796 0.667002
88.805435 143.988205 5.652220 0.711131
88.748245 143.931412 5.131675 0.711925
116.048676 171.042175 11.639062 0.471550
116.048676 171.042175 9.858046 0.643183
116.048676 171.042175 8.094242 0.629480
116.048676 171.042175 6.343673 0.685786
116.048676 171.042175 4.602477 0.639704
116.048676 171.042175 2.866874 0.595361
116.048676 171.042175 1.133127 0.648508
106.285721 161.347046 0.073460 0.721798
95.705338 150.840179 0.007138 0.731701
90.795609 145.964554 -0.000012 0.538979
88.026680 143.214859 -0.000010 0.547677
86.258957 141.459427 -0.000008 0.542062
85.030319 140.239319 -0.000007 0.514107
84.125122 139.340408 -0.000007 0.526421
88.805435 143.845734 5.627164 0.733333
88.748245 143.789734 5.110188 0.711635
116.048676 170.524551 11.572929 0.502312
116.048668 170.524536 9.804132 0.522423
116.048676 170.524551 8.052429 0.554223
116.048676 170.524551 6.313870 0.561578
116.048676 170.524551 4.584621 0.552514
116.048676 170.524551 2.860925 0.544564
116.048676 170.524551 1.139075 0.505745
106.677277 161.347321 0.059754 0.679576
95.886826 150.780411 -0.000018 0.530938
90.880829 145.878143 -0.000013 0.527321
88.092773 143.147842 -0.000010 0.531762
86.312836 141.404785 -0.000009 0.537072
85.075714 140.193283 -0.000007 0.546654
84.164261 139.300720 -0.000006 0.522194
88.805435 143.705200 5.602621 0.721660
88.748245 143.649979 5.089144 0.736736
116.048660 170.013947 11.508156 0.555261
116.048668 170.013947 9.751328 0.453956
116.048668 170.013947 8.011478 0.487739
116.048668 170.013947 6.284683 0.501732
116.048676 170.013947 4.567134 0.475303
116.048676 170.013947 2.855099 0.538415
116.048676 170.013947 1.144900 0.504906
107.074463 161.347580 0.045757 0.672190
96.005547 150.658340 -0.000018 0.542748
90.965446 145.791122 -0.000013 0.544350
88.158394 143.080353 -0.000010 0.549538
86.366333 141.349762 -0.000008 0.541466
85.120789 140.146942 -0.000007 0.570565
84.203125 139.260757 -0.000006 0.548363
88.805435 143.566559 5.578582 0.710628
88.748245 143.512085 5.068532 0.721569
116.048676 169.510193 11.444712 0.612284
116.048676 169.510193 9.699606 0.573678
116.048676 169.510193 7.971366 0.534829
116.048676 169.510193 6.256092 0.543542
116.048676 169.510193 4.550004 0.494194
116.048676 169.510193 2.849394 0.574578
116.048676 169.510193 1.150606 0.552712
107.477432 161.347839 0.031460 0.674723
96.123405 150.535431 -0.000018 0.536782
91.049454 145.703522 -0.000013 0.554574
88.223541 143.012421 -0.000010 0.537743
86.419449 141.294388 -0.000009 0.539681
85.165535 140.100281 -0.000007 0.556832
84.241707 139.220520 -0.000006 0.517113
88.805435 143.429733 5.555034 0.721569
88.748245 143.376022 5.048340 0.733150
115.831169 168.808838 11.328274 0.346960
116.048676 169.013092 9.648941 0.594583
116.048676 169.013092 7.932072 0.525460
116.048676 169.013092 6.228086 0.577539
116.048676 169.013092 4.533224 0.614191
116.048668 169.013092 2.843806 0.600214
116.048676 169.013092 1.156195 0.607416
107.886375 161.348099 0.016853 0.685649
96.240410 150.411713 -0.000018 0.537087
91.132851 145.615341 -0.000013 0.537514
88.288223 142.944031 -0.000010 0.534936
86.472168 141.238632 -0.000008 0.561395
85.209953 140.053314 -0.000007 0.527794
84.280006 139.180023 -0.000006 0.543420
88.805435 143.294693 5.531965 0.721569
88.748245 143.241730 5.028559 0.729839
116.226227 168.686890 11.365711 0.318105
116.470238 168.912842 9.684533 0.546990
116.470245 168.912842 7.959674 0.588113
116.470230 168.912842 6.247759 0.626871
116.470230 168.912842 4.545011 0.443244
116.470238 168.912842 2.847732 0.612421
116.470238 168.912842 1.152268 0.626413
108.181335 161.237152 0.009974 1.000000
96.356544 150.287170 -0.000018 0.546700
91.215630 145.526581 -0.000014 0.553704
88.352417 142.875183 -0.000010 0.518563
86.524506 141.182510 -0.000009 0.534890
85.254044 140.006027 -0.000007 0.483314
84.318024 139.139267 -0.000007 0.563394
88.748238 143.109161 5.489963 0.730510
88.748245 143.109161 5.009179 0.737652
116.759148 168.686890 11.437091 0.336919
117.165573 169.058014 9.775034 0.678431
117.006584 168.912842 8.005094 0.460197
117.084518 168.983994 6.288785 0.952758
117.006584 168.912842 4.564406 0.464622
117.165573 169.058014 2.857714 0.678431
117.084541 168.984024 1.144081 0.999939
108.372818 161.029053 0.009969 1.000000
96.471817 150.161819 -0.000018 0.534997
91.297783 145.437241 -0.000013 0.552560
88.416130 142.805893 -0.000010 0.542397
86.576447 141.126022 -0.000008 0.545022
85.297798 139.958450 -0.000007 0.510246
84.355751 139.098236 -0.000007 0.552666
88.748245 142.978271 5.467940 0.732723
88.748245 142.978271 4.990190 0.733333
117.300255 168.686890 11.510028 0.300710
117.712418 169.057999 9.835123 0.678431
117.551224 168.912857 8.051510 0.503090
117.712463 169.058044 6.331007 0.678431
117.551201 168.912842 4.584228 0.545251
117.712463 169.058044 2.864345 0.678431
117.630257 168.984009 1.137465 0.968627
108.713913 160.955627 -0.000021 0.339086
96.586197 150.035675 -0.000018 0.536065
91.379311 145.347321 -0.000013 0.543404
88.479362 142.736176 -0.000011 0.534768
86.627998 141.069183 -0.000009 0.517372
85.341225 139.910553 -0.000008 0.575463
84.393196 139.056931 -0.000007 0.518608
88.748238 142.849014 5.446360 0.733974
88.748245 142.849030 4.971582 0.731456
117.849838 168.686890 11.584577 0.306249
118.267876 169.058044 9.896549 0.678431
118.104355 168.912857 8.098949 0.450706
118.267830 169.057999 6.364951 0.678431
118.104340 168.912842 4.604486 0.592721
118.267807 169.057983 2.871119 0.678431
118.104324 168.912827 1.132459 0.741024
108.903366 160.743759 -0.000022 0.337819
96.699699 149.908722 -0.000018 0.550118
91.460213 145.256851 -0.000014 0.554681
88.542107 142.666000 -0.000011 0.540993
86.679146 141.011978 -0.000009 0.531273
85.384315 139.862366 -0.000008 0.526986
84.430351 139.015381 -0.000007 0.628656
88.748245 142.721359 5.425213 0.733333
88.748245 142.721359 4.953348 0.733333
118.408119 168.686890 11.660773 0.302403
118.747543 168.984039 9.942663 0.881895
118.666267 168.912872 8.147439 0.657176
118.747528 168.984009 6.390443 0.954101
118.666229 168.912842 4.625191 0.491890
118.747536 168.984024 2.876206 0.968627
118.666229 168.912842 1.125561 0.962310
109.091309 160.530548 -0.000021 0.338674
96.812317 149.781006 -0.000019 0.550317
91.540482 145.165802 -0.000014 0.548974
88.604355 142.595398 -0.000011 0.529122
86.729889 140.954407 -0.000009 0.536645
85.427071 139.813873 -0.000008 0.536187
84.467216 138.973572 -0.000007 0.550057
88.748245 142.595245 5.404489 0.721981
88.794029 142.634766 4.948542 0.715358
90.601616 144.195068 4.918545 0.729244
119.237183 168.912872 9.990552 0.577585
119.237190 168.912872 8.197006 0.606958
119.237160 168.912842 6.416914 0.616938
119.237152 168.912842 4.646359 0.449134
119.237183 168.912872 2.881490 0.454231
119.237183 168.912872 1.118509 0.547417
109.277771 160.316055 -0.000021 0.338552
96.924042 149.652481 -0.000019 0.542687
91.620110 145.074203 -0.000014 0.516655
88.666107 142.524353 -0.000011 0.562463
86.780235 140.896500 -0.000009 0.575860
85.469482 139.765076 -0.000008 0.531304
84.503784 138.931503 -0.000007 0.538445
88.748245 142.470657 5.384177 0.722576
88.805435 142.519333 4.934187 0.722438
90.674492 144.110031 4.918544 0.733166
119.817413 168.912857 10.055900 0.601877
119.817413 168.912857 8.247687 0.502068
119.817406 168.912842 6.453039 0.589578
119.817398 168.912842 4.668003 0.624949
119.817406 168.912842 2.888699 0.485145
119.817406 168.912842 1.111301 0.631174
109.462730 160.100250 -0.000021 0.338842
97.034859 149.523193 -0.000019 0.545571
91.699089 144.982056 -0.000013 0.544472
88.727364 142.452881 -0.000011 0.525032
86.830170 140.838226 -0.000009 0.531777
85.511559 139.715988 -0.000008 0.536690
84.540062 138.889175 -0.000007 0.527916
88.788712 142.381485 5.377503 0.723354
88.811188 142.400345 4.918549 0.733730
90.746765 144.024506 4.918545 0.753658
120.503181 168.993347 10.141305 0.930724
120.501434 168.991882 8.313658 0.814023
120.540680 169.024811 6.504262 0.940856
120.407242 168.912857 4.690136 0.534508
120.533699 169.018951 2.898772 0.989212
120.407227 168.912842 1.103929 0.985840
109.646172 159.883148 -0.000020 0.338216
97.144775 149.393127 -0.000019 0.530556
91.777435 144.889343 -0.000014 0.569039
88.788116 142.380997 -0.000011 0.524742
86.879707 140.779633 -0.000010 0.559518
85.553284 139.666611 -0.000008 0.538674
84.576042 138.846603 -0.000007 0.559396
88.748238 142.225830 5.344758 0.735241
88.871574 142.327866 4.918549 0.717479
90.818443 143.938477 4.918545 0.739879
121.092957 168.983978 10.207627 0.741924
121.146164 169.028000 8.373302 0.783062
121.123184 169.008987 6.540128 0.823896
121.006981 168.912857 4.712772 0.607874
121.116310 169.003311 2.905934 1.000000
121.006927 168.912811 1.096390 0.975250
109.828117 159.664795 -0.000021 0.337499
97.253777 149.262299 -0.000019 0.550576
91.855125 144.796097 -0.000014 0.527794
88.848373 142.308670 -0.000011 0.531518
86.928825 140.720673 -0.000010 0.531777
85.594666 139.616943 -0.000008 0.487236
84.611725 138.803772 -0.000007 0.541939
88.748238 142.105545 5.325631 0.733150
88.931458 142.254974 4.918548 0.727871
90.889519 143.851944 4.918544 0.751034
121.616852 168.912811 10.260979 0.870588
121.727051 169.002686 8.423092 0.668284
121.731911 169.006653 6.578574 0.827253
121.616928 168.912872 4.735927 0.905882
121.725060 169.001053 2.913607 0.995102
121.616898 168.912842 1.088676 1.000000
110.008514 159.445175 -0.000021 0.339071
97.361870 149.130722 -0.000019 0.535241
91.932167 144.702316 -0.000014 0.564126
88.908119 142.235931 -0.000011 0.542885
86.977531 140.661377 -0.000009 0.544610
85.635696 139.566986 -0.000008 0.544747
84.647102 138.760696 -0.000007 0.507118
88.748238 141.986603 5.306883 0.733333
88.990829 142.181656 4.918549 0.727550
90.959991 143.764923 4.918543 0.739025
122.237427 168.912872 10.332525 0.591379
122.237427 168.912872 8.462219 0.544015
122.237411 168.912872 6.605948 0.570642
122.237411 168.912872 4.759617 0.533883
122.237427 168.912888 2.919215 0.527642
122.237427 168.912888 1.080785 0.492683
110.187355 159.224274 -0.000019 0.337850
97.469032 148.998383 -0.000019 0.541802
92.008545 144.607986 -0.000014 0.544076
88.967361 142.162781 -0.000011 0.524529
87.025826 140.601746 -0.000009 0.549584
85.676384 139.516754 -0.000008 0.532631
84.682182 138.717377 -0.000007 0.547982
88.748238 141.869003 5.288505 0.723125
89.049683 142.107925 4.918547 0.715785
91.029854 143.677399 4.918543 0.737575
122.868752 168.912872 10.405710 0.578393
122.868759 168.912872 8.518981 0.792096
122.868774 168.912888 6.646405 0.814710
122.868767 168.912872 4.783856 0.838911
122.868774 168.912872 2.927290 0.935744
122.868767 168.912872 1.072710 1.000000
110.364655 159.002136 -0.000018 0.338659
97.575272 148.865295 -0.000020 0.559243
92.084274 144.513138 -0.000014 0.539101
89.026085 142.089233 -0.000011 0.524727
87.073700 140.541763 -0.000010 0.572015
85.716721 139.466232 -0.000008 0.516350
84.716957 138.673813 -0.000007 0.548180
88.748245 141.752701 5.270489 0.733333
89.108017 142.033783 4.918547 0.734813
91.099098 143.589417 4.918543 0.735027
123.511322 168.912872 10.480617 0.613474
123.697067 169.057999 8.604188 0.678431
123.602348 168.983994 6.697281 0.690257
123.511307 168.912857 4.808663 0.870588
123.602364 168.984009 2.937443 0.870588
123.511314 168.912872 1.064447 0.994247
110.540398 158.778778 -0.000017 0.340017
97.680588 148.731476 -0.000020 0.544137
92.159332 144.417755 -0.000015 0.527260
89.084290 142.015259 -0.000011 0.532036
87.121155 140.481461 -0.000010 0.531380
85.756699 139.415421 -0.000008 0.507042
84.751434 138.630020 -0.000007 0.527474
88.748238 141.637650 5.252824 0.726665
89.165840 141.959244 4.918547 0.723445
91.167725 143.500931 4.918542 0.724300
124.165466 168.912872 10.557288 0.574426
124.353958 169.058029 8.663903 0.678431
124.353958 169.058029 6.749698 0.678431
124.257828 168.983994 4.839783 0.905882
124.353935 169.058014 2.947904 0.678431
124.165466 168.912872 1.055990 0.587350
110.714600 158.554199 -0.000016 0.337850
97.784958 148.596924 -0.000020 0.541680
92.233719 144.321854 -0.000014 0.564950
89.141983 141.940872 -0.000011 0.541268
87.168190 140.420837 -0.000010 0.539391
85.796326 139.364349 -0.000008 0.536828
84.785599 138.585968 -0.000007 0.548913
88.748238 141.523834 5.235508 0.733883
89.223137 141.884308 4.918547 0.729900
91.235741 143.411972 4.918542 0.740154
124.831528 168.912811 10.635772 0.521157
124.831558 168.912842 8.697405 0.903502
124.831558 168.912842 6.773579 0.806134
124.831558 168.912842 4.860051 0.809125
124.831543 168.912842 2.952670 0.968627
124.831558 168.912842 1.047331 0.583246
110.887207 158.328400 -0.000016 0.338704
97.888382 148.461655 -0.000020 0.543175
92.307434 144.225433 -0.000014 0.546792
89.199158 141.866104 -0.000011 0.543969
87.214798 140.359863 -0.000010 0.538781
85.835587 139.312988 -0.000008 0.561074
84.819450 138.541687 -0.000007 0.579110
88.748238 141.411209 5.218531 0.718944
89.279907 141.808960 4.918546 0.720470
91.303131 143.322540 4.918542 0.755932
125.510025 168.912827 10.716152 0.527581
125.510025 168.912827 8.759737 0.545693
125.510025 168.912827 6.818006 0.540215
125.510040 168.912842 4.886671 0.504829
125.510025 168.912827 2.961535 0.514427
125.510025 168.912827 1.038463 0.558053
111.058243 158.101395 -0.000015 0.337438
97.990868 148.325653 -0.000020 0.540185
92.380486 144.128510 -0.000015 0.530083
89.255814 141.790924 -0.000012 0.545113
87.260979 140.298584 -0.000010 0.509834
85.874496 139.261353 -0.000008 0.514214
84.852997 138.497177 -0.000008 0.559426
88.748238 141.299759 5.201886 0.728832
89.336159 141.733215 4.918547 0.731960
91.369896 143.232635 4.918542 0.763836
nan nan nan 0.000000
nan nan nan 0.000000
nan nan nan 0.000000
nan nan nan 0.000000
nan nan nan 0.000000
nan nan nan 0.000000
111.227707 157.873230 -0.000015 0.338094
98.092407 148.188950 -0.000020 0.551354
92.452850 144.031067 -0.000015 0.546395
89.311935 141.715363 -0.000011 0.531334
87.306732 140.236984 -0.000010 0.556420
85.913040 139.209457 -0.000008 0.538705
84.886238 138.452423 -0.000007 0.563226
88.748238 141.189453 5.185568 0.733333
89.391876 141.657089 4.918546 0.732570
91.436028 143.142273 4.918541 0.743709
nan nan nan 0.000000
nan nan nan 0.000000
nan nan nan 0.000000
nan nan nan 0.000000
nan nan nan 0.000000
nan nan nan 0.000000
111.395554 157.643875 -0.000014 0.338018
98.192978 148.051529 -0.000020 0.530083
92.524536 143.933121 -0.000015 0.547097
89.367523 141.639404 -0.000012 0.518410
87.352051 140.175064 -0.000010 0.552102
85.951225 139.157288 -0.000009 0.507530
84.919159 138.407440 -0.000007 0.602548
88.748238 141.080261 5.169568 0.735668
89.447060 141.580582 4.918546 0.733211
91.501534 143.051453 4.918541 0.740383
nan nan nan 0.000000
nan nan nan 0.000000
nan nan nan 0.000000
nan nan nan 0.000000
nan nan nan 0.000000
nan nan nan 0.000000
111.561790 157.413330 -0.000013 0.338384
98.292580 147.913422 -0.000020 0.531792
92.595528 143.834686 -0.000015 0.553521
89.422592 141.563065 -0.000012 0.548287
87.396942 140.112823 -0.000010 0.523522
85.989044 139.104858 -0.000009 0.556146
84.951767 138.362228 -0.000007 0.512215
88.748238 140.972168 5.153882 0.722988
89.501709 141.503677 4.918546 0.733425
91.566399 142.960175 4.918541 0.724804
nan nan nan 0.000000
nan nan nan 0.000000
nan nan nan 0.000000
nan nan nan 0.000000
nan nan nan 0.000000
nan nan nan 0.000000
111.726425 157.181656 -0.000012 0.338537
98.391235 147.774628 -0.000021 0.544305
92.665840 143.735748 -0.000015 0.532067
89.477119 141.486328 -0.000012 0.553216
87.441391 140.050278 -0.000010 0.523262
86.026489 139.052155 -0.000009 0.560754
84.984055 138.316788 -0.000007 0.439658
88.748238 140.865112 5.138501 0.709804
89.555817 141.426407 4.918546 0.735500
91.630630 142.868439 4.918541 0.710124
nan nan nan 0.000000
nan nan nan 0.000000
nan nan nan 0.000000
nan nan nan 0.000000
nan nan nan 0.000000
nan nan nan 0.000000
111.889427 156.948837 -0.000012 0.338384
98.488907 147.635132 -0.000021 0.545235
92.735458 143.636337 -0.000015 0.541192
89.531113 141.409225 -0.000012 0.530571
87.485413 139.987411 -0.000010 0.527550
86.063568 138.999207 -0.000009 0.518944
85.016029 138.271133 -0.000007 0.564614
88.748238 140.759094 5.123421 0.709804
89.609390 141.348755 4.918545 0.730266
91.694214 142.776276 4.918540 0.736568
nan nan nan 0.000000
nan nan nan 0.000000
nan nan nan 0.000000
nan nan nan 0.000000
nan nan nan 0.000000
nan nan nan 0.000000
112.050797 156.714859 -0.000010 0.338506
98.585609 147.494965 -0.000021 0.542245
92.804382 143.536423 -0.000015 0.521981
89.584557 141.331741 -0.000012 0.536034
87.528984 139.924255 -0.000010 0.547372
86.100281 138.945984 -0.000009 0.560815
85.047684 138.225250 -0.000008 0.538201
88.748238 140.654099 5.108638 0.709804
89.662415 141.270721 4.918545 0.732448
91.757156 142.683655 4.918541 0.721828
nan nan nan 0.000000
nan nan nan 0.000000
nan nan nan 0.000000
nan nan nan 0.000000
nan nan nan 0.000000
nan nan nan 0.000000
112.210556 156.479797 -0.000010 0.338827
98.681320 147.354111 -0.000021 0.535851
92.872604 143.436050 -0.000015 0.527321
89.637466 141.253891 -0.000012 0.556390
87.572113 139.860779 -0.000010 0.549416
86.136620 138.892517 -0.000009 0.539055
85.079010 138.179138 -0.000008 0.530007
88.748238 140.550079 5.094143 0.709804
89.714897 141.192322 4.918545 0.698848
91.819443 142.590607 4.918540 0.734997
nan nan nan 0.000000
nan nan nan 0.000000
nan nan nan 0.000000
nan nan nan 0.000000
nan nan nan 0.000000
nan nan nan 0.000000
112.368652 156.243622 -0.000009 0.338170
98.776054 147.212616 -0.000021 0.542657
92.940125 143.335190 -0.000015 0.548882
89.689835 141.175674 -0.000012 0.529473
87.614807 139.797012 -0.000011 0.547082
86.172585 138.838791 -0.000009 0.481880
85.110023 138.132828 -0.000008 0.547524
88.748245 140.447021 5.079933 0.721569
89.766823 141.113571 4.918545 0.716243
91.881088 142.497116 4.918540 0.733577
nan nan nan 0.000000
nan nan nan 0.000000
nan nan nan 0.000000
nan nan nan 0.000000
nan nan nan 0.000000
nan nan nan 0.000000
112.525078 156.006317 -0.000008 0.337209
98.869797 147.070450 -0.000021 0.537972
93.006935 143.233856 -0.000015 0.557824
89.741653 141.097092 -0.000012 0.531350
87.657043 139.732956 -0.000010 0.543389
86.208176 138.784821 -0.000009 0.503822
85.140709 138.086288 -0.000008 0.568460
88.748238 140.344894 5.066000 0.714672
89.818207 141.034454 4.918545 0.712291
91.942070 142.403198 4.918539 0.733333
nan nan nan 0.000000
nan nan nan 0.000000
nan nan nan 0.000000
nan nan nan 0.000000
nan nan nan 0.000000
nan nan nan 0.000000
109.257217 153.562180 0.200030 0.710216
98.962540 146.927643 -0.000021 0.540261
93.073044 143.132080 -0.000016 0.550790
89.792915 141.018158 -0.000012 0.539666
87.698837 139.668594 -0.000010 0.544305
86.243378 138.730606 -0.000009 0.534905
85.171066 138.039536 -0.000008 0.539879
88.748238 140.243683 5.052341 0.702724
89.869034 140.954971 4.918544 0.719921
92.002403 142.308868 4.918539 0.733440
nan nan nan 0.000000
nan nan nan 0.000000
nan nan nan 0.000000
nan nan nan 0.000000
nan nan nan 0.000000
nan nan nan 0.000000
109.395302 153.346863 0.200014 0.705226
99.054291 146.784180 -0.000021 0.537774
93.138435 143.029816 -0.000015 0.534554
89.843628 140.938858 -0.000012 0.557809
87.740181 139.603943 -0.000010 0.523690
86.278214 138.676147 -0.000009 0.547234
85.201103 137.992584 -0.000008 0.514580
88.748238 140.143372 5.038951 0.721248
89.919304 140.875137 4.918544 0.695705
92.062073 142.214111 4.918539 0.733333
95.145187 144.140671 4.918561 0.728679
nan nan nan 0.000000
nan nan nan 0.000000
nan nan nan 0.000000
nan nan nan 0.000000
nan nan nan 0.000000
109.531677 153.130447 0.200010 0.709377
99.145042 146.640091 -0.000021 0.536751
93.203110 142.927124 -0.000015 0.543694
89.893791 140.859207 -0.000012 0.547616
87.781075 139.539017 -0.000010 0.551064
86.312660 138.621445 -0.000009 0.522347
85.230804 137.945404 -0.000008 0.534157
88.748238 140.043930 5.025825 0.725734
89.969009 140.794968 4.918543 0.687343
92.121078 142.118942 4.918538 0.734783
95.217583 144.023941 4.918563 0.735256
nan nan nan 0.000000
nan nan nan 0.000000
nan nan nan 0.000000
nan nan nan 0.000000
130.396805 165.666580 1.002147 0.678431
109.666740 152.913223 0.199994 0.709697
99.234772 146.495361 -0.000021 0.543420
93.267075 142.823975 -0.000016 0.530205
89.943390 140.779205 -0.000012 0.538842
87.821518 139.473801 -0.000010 0.510613
86.346733 138.566498 -0.000009 0.519463
85.260178 137.898041 -0.000008 0.568658
88.748238 139.945343 5.012959 0.721294
90.018166 140.714447 4.918544 0.712489
92.179420 142.023361 4.918538 0.737118
95.289146 143.906693 4.918563 0.729015
nan nan nan 0.000000
nan nan nan 0.000000
nan nan nan 0.000000
nan nan nan 0.000000
130.358170 165.145493 1.007129 0.364706
109.800278 152.695053 0.199979 0.711116
99.323494 146.350006 -0.000021 0.541222
93.330307 142.720367 -0.000016 0.521035
89.992432 140.698853 -0.000013 0.546349
87.861496 139.408295 -0.000010 0.545876
86.380417 138.511322 -0.000009 0.496986
85.289215 137.850464 -0.000007 0.501289
88.748238 139.847580 5.000345 0.739742
90.066750 140.633575 4.918543 0.727459
92.237091 141.927368 4.918538 0.731884
95.359894 143.788956 4.918563 0.721340
nan nan nan 0.000000
nan nan nan 0.000000
nan nan nan 0.000000
nan nan nan 0.000000
130.358170 164.652359 1.011285 0.018235
109.932312 152.475967 0.199963 0.711727
99.411194 146.204056 -0.000022 0.529961
93.392815 142.616333 -0.000015 0.553719
90.040916 140.618179 -0.000013 0.538430
87.901016 139.342529 -0.000011 0.523995
86.413712 138.455902 -0.000009 0.528908
85.317932 137.802673 -0.000008 0.527886
88.748238 139.750626 4.987984 0.733822
90.114777 140.552368 4.918543 0.733333
92.294098 141.830994 4.918538 0.736736
95.429810 143.670731 4.918562 0.727565
nan nan nan 0.000000
nan nan nan 0.000000
nan nan nan 0.000000
nan nan nan 0.000000
133.308182 165.894089 0.959391 0.266667
110.062508 152.255768 0.199963 0.708827
99.497887 146.057480 -0.000022 0.544396
93.454605 142.511871 -0.000016 0.556039
90.088837 140.537155 -0.000013 0.525460
87.940079 139.276474 -0.000010 0.575769
86.446617 138.400253 -0.000009 0.565133
85.346306 137.754700 -0.000008 0.581399
88.748238 139.654465 4.975867 0.709804
90.162231 140.470840 4.918543 0.751598
92.350418 141.734207 4.918538 0.733028
95.498901 143.552002 4.918562 0.718837
nan nan nan 0.000000
nan nan nan 0.000000
nan nan nan 0.000000
nan nan nan 0.000000
134.180206 165.884918 0.947133 0.254383
110.190918 152.034546 0.199978 0.709361
99.583542 145.910309 -0.000022 0.544869
93.515663 142.406967 -0.000016 0.528908
90.136185 140.455795 -0.000013 0.541466
87.978683 139.210159 -0.000011 0.528588
86.479141 138.344391 -0.000009 0.573770
85.374344 137.706528 -0.000008 0.491630
88.748238 139.559082 4.963993 0.709804
90.209114 140.388977 4.918542 0.738888
92.406067 141.637039 4.918537 0.721691
95.567162 143.432816 4.918561 0.725170
nan nan nan 0.000000
nan nan nan 0.000000
nan nan nan 0.000000
nan nan nan 0.000000
nan nan nan 0.000000
110.317810 151.812439 0.199992 0.705867
99.668175 145.762527 -0.000022 0.545144
93.575981 142.301636 -0.000016 0.526223
90.182961 140.374115 -0.000013 0.533593
88.016815 139.143570 -0.000011 0.532631
86.511269 138.288284 -0.000009 0.502785
85.402046 137.658157 -0.000008 0.525948
88.748238 139.464447 4.952356 0.709804
90.255424 140.306793 4.918543 0.726024
92.461044 141.539474 4.918537 0.721874
95.634598 143.313141 4.918561 0.735164
nan nan nan 0.000000
nan nan nan 0.000000
nan nan nan 0.000000
nan nan nan 0.000000
nan nan nan 0.000000
110.443108 151.589447 0.200007 0.709331
99.751770 145.614182 -0.000022 0.543542
93.635559 142.195908 -0.000016 0.524758
90.229172 140.292114 -0.000013 0.551171
88.054489 139.076706 -0.000010 0.488273
86.542999 138.231964 -0.000009 0.557549
85.429413 137.609589 -0.000008 0.555856
88.773804 139.384598 4.948259 0.709804
90.301155 140.224274 4.918542 0.723964
92.515335 141.441544 4.918538 0.732662
95.701187 143.193008 4.918561 0.731395
nan nan nan 0.000000
nan nan nan 0.000000
nan nan nan 0.000000
nan nan nan 0.000000
134.260132 164.391205 0.957993 0.269490
110.567108 151.365707 0.200008 0.708675
99.834328 145.465240 -0.000022 0.542214
93.694405 142.089752 -0.000016 0.523049
90.274803 140.209793 -0.000013 0.543893
88.091690 139.009598 -0.000011 0.522225
86.574348 138.175415 -0.000009 0.508324
85.456436 137.560837 -0.000008 0.464927
88.813171 139.312469 4.948268 0.709804
90.346313 140.141449 4.918542 0.733333
92.568939 141.343231 4.918537 0.721569
95.766937 143.072403 4.918560 0.738949
nan nan nan 0.000000
nan nan nan 0.000000
nan nan nan 0.000000
nan nan nan 0.000000
nan nan nan 0.000000
110.689270 151.140976 0.200024 0.709667
99.915848 145.315735 -0.000022 0.539010
93.752502 141.983185 -0.000016 0.521767
90.319862 140.127136 -0.000013 0.536599
88.128426 138.942230 -0.000010 0.547387
86.605293 138.118652 -0.000009 0.556207
85.483124 137.511902 -0.000008 0.483497
88.805435 139.215286 4.935060 0.733333
90.390892 140.058304 4.918541 0.722667
92.621857 141.244537 4.918538 0.717205
95.831848 142.951340 4.918560 0.729015
nan nan nan 0.000000
nan nan nan 0.000000
nan nan nan 0.000000
nan nan nan 0.000000
nan nan nan 0.000000
110.809975 150.915451 0.200034 0.709865
99.996323 145.165665 -0.000023 0.530678
93.809860 141.876221 -0.000016 0.545037
90.364349 140.044189 -0.000013 0.548501
88.164688 138.874588 -0.000011 0.549813
86.635841 138.061691 -0.000009 0.553445
85.509460 137.462769 -0.000008 0.588434
88.805435 139.122986 4.924275 0.730434
90.434891 139.974854 4.918541 0.734722
92.674088 141.145493 4.918539 0.721248
95.895912 142.829849 4.918561 0.742412
nan nan nan 0.000000
nan nan nan 0.000000
nan nan nan 0.000000
nan nan nan 0.000000
nan nan nan 0.000000
111.237350 150.850250 0.182955 0.697139
100.075745 145.015030 -0.000023 0.532845
93.866463 141.768860 -0.000016 0.537102
90.408249 139.960922 -0.000013 0.558618
88.200478 138.806717 -0.000011 0.500496
86.665993 138.004501 -0.000009 0.529747
85.535461 137.413467 -0.000008 0.515541
88.822594 139.040161 4.918543 0.734432
90.478302 139.891098 4.918540 0.722606
92.725616 141.046066 4.918538 0.727077
95.959122 142.707886 4.918559 0.733471
nan nan nan 0.000000
nan nan nan 0.000000
nan nan nan 0.000000
nan nan nan 0.000000
nan nan nan 0.000000
111.802963 150.850616 0.158277 0.686610
100.154114 144.863846 -0.000023 0.538445
93.922325 141.661102 -0.000016 0.531487
90.451569 139.877350 -0.000013 0.551781
88.235794 138.738586 -0.000011 0.541482
86.695747 137.947098 -0.000009 0.515099
85.561111 137.363968 -0.000008 0.564157
88.859520 138.967697 4.918543 0.723552
90.521133 139.807037 4.918541 0.719783
92.776451 140.946304 4.918539 0.735119
96.021484 142.585495 4.918560 0.721340
nan nan nan 0.000000
nan nan nan 0.000000
nan nan nan 0.000000
nan nan nan 0.000000
nan nan nan 0.000000
112.384186 150.850998 0.132827 0.691371
100.231415 144.712112 -0.000023 0.542748
93.977425 141.552963 -0.000016 0.540734
90.494301 139.793488 -0.000013 0.521050
88.270630 138.670212 -0.000011 0.537789
86.725098 137.889496 -0.000009 0.536324
85.586418 137.314301 -0.000008 0.523476
88.895943 138.894958 4.918543 0.732647
90.563370 139.722687 4.918540 0.714763
92.826599 140.846176 4.918540 0.724163
96.082977 142.462677 4.918559 0.726314
nan nan nan 0.000000
nan nan nan 0.000000
nan nan nan 0.000000
nan nan nan 0.000000
nan nan nan 0.000000
112.981720 150.851395 0.106571 0.704250
100.307663 144.559860 -0.000022 0.539666
94.031776 141.444443 -0.000017 0.559533
90.536446 139.709320 -0.000013 0.515404
88.304993 138.601608 -0.000011 0.552605
86.754044 137.831696 -0.000010 0.526360
85.611374 137.264465 -0.000008 0.550179
88.931854 138.821976 4.918543 0.735882
90.605026 139.638046 4.918540 0.694194
92.876045 140.745712 4.918540 0.710018
96.143631 142.339432 4.918559 0.725109
nan nan nan 0.000000
nan nan nan 0.000000
nan nan nan 0.000000
nan nan nan 0.000000
nan nan nan 0.000000
113.596313 150.851791 0.079471 0.685969
100.382858 144.407074 -0.000023 0.546715
94.085365 141.335541 -0.000017 0.537545
90.578003 139.624863 -0.000013 0.546746
88.338867 138.532745 -0.000011 0.552514
86.782585 137.773697 -0.000010 0.538430
85.635986 137.214447 -0.000008 0.515908
88.967255 138.748734 4.918543 0.738537
90.646080 139.553101 4.918540 0.706584
92.456749 140.420639 4.824109 0.062745
92.456749 140.420639 4.302296 0.075761
92.456741 140.420639 3.785526 0.101015
92.456741 140.420639 3.272634 0.101015
92.456741 140.420639 2.762488 0.056611
92.456741 140.420639 2.253981 0.056611
92.456741 140.420639 1.746019 0.062745
92.456741 140.420639 1.237511 0.141634
92.456741 140.420639 0.727366 0.166888
92.456741 140.420639 0.214474 0.173007
90.618973 139.540115 -0.000013 0.540459
88.372269 138.463669 -0.000011 0.539284
86.810722 137.715485 -0.000009 0.502220
85.660248 137.164261 -0.000008 0.554406
89.002144 138.675262 4.918542 0.752941
90.686546 139.467880 4.918539 0.721569
92.456741 140.300888 4.814761 0.339345
92.456741 140.300888 4.294676 0.342168
92.456741 140.300888 3.779616 0.324117
92.456741 140.300888 3.268422 0.342168
92.456741 140.300888 2.759965 0.094118
92.456741 140.300888 2.253141 0.191455
92.456741 140.300888 1.746859 0.204349
92.456741 140.300888 1.240035 0.183093
92.456741 140.300888 0.731578 0.183093
92.456734 140.300888 0.220385 0.214466
90.659355 139.455093 -0.000014 0.507652
88.405182 138.394348 -0.000011 0.527581
86.838455 137.657089 -0.000009 0.569009
85.684158 137.113907 -0.000008 0.519142
89.036522 138.601532 4.918542 0.752026
90.726418 139.382385 4.918540 0.724743
92.456741 140.181915 4.805613 0.321599
92.456741 140.181915 4.287218 0.340826
92.456741 140.181915 3.773833 0.332601
92.456741 140.181915 3.264299 0.345953
92.456741 140.181915 2.757495 0.085634
92.456741 140.181915 2.252318 0.263478
92.456741 140.181915 1.747682 0.224826
92.456741 140.181915 1.242505 0.235294
92.456741 140.181915 0.735700 0.220706
92.456734 140.181915 0.226168 0.246876
90.699135 139.369781 -0.000013 0.537820
88.437614 138.324799 -0.000011 0.521050
86.865776 137.598495 -0.000010 0.523949
85.707718 137.063385 -0.000008 0.547768
89.070381 138.527573 4.918542 0.741176
90.765686 139.296616 4.918539 0.734890
92.456741 140.063721 4.796659 0.338430
92.456741 140.063721 4.279919 0.338247
92.456741 140.063721 3.768172 0.343908
92.456741 140.063721 3.260264 0.334798
92.456741 140.063721 2.755077 0.087922
92.456741 140.063721 2.251513 0.227604
92.456741 140.063721 1.748487 0.230900
92.456741 140.063721 1.244923 0.237369
92.456734 140.063721 0.739735 0.225193
92.456734 140.063721 0.231829 0.247059
90.738319 139.284195 -0.000013 0.557855
88.469559 138.255020 -0.000011 0.508659
86.892685 137.539719 -0.000010 0.532647
85.730919 137.012711 -0.000009 0.565118
89.103729 138.453384 4.918542 0.741176
90.804359 139.210571 4.918539 0.740215
92.456741 139.946259 4.787898 0.377508
92.456741 139.946259 4.272776 0.345098
92.456741 139.946259 3.762632 0.345098
92.456741 139.946259 3.256316 0.344091
92.456741 139.946259 2.752712 0.162371
92.456741 139.946259 2.250725 0.238788
92.456741 139.946259 1.749275 0.259434
92.456741 139.946259 1.247288 0.258824
92.456734 139.946259 0.743683 0.229740
92.456734 139.946259 0.237368 0.230884
90.776901 139.198334 -0.000013 0.554696
88.501015 138.185028 -0.000011 0.512184
86.919189 137.480743 -0.000009 0.512291
85.753777 136.961868 -0.000008 0.556481
89.136559 138.378952 4.918542 0.728191
90.842430 139.124252 4.918539 0.734356
92.456741 139.829529 4.779326 0.377508
92.456741 139.829529 4.265788 0.336385
92.456741 139.829529 3.757213 0.345098
92.456741 139.829529 3.252454 0.332830
92.456741 139.829529 2.750398 0.115343
92.456741 139.829529 2.249954 0.149767
92.456741 139.829529 1.750046 0.178347
92.456741 139.829529 1.249602 0.182208
92.456741 139.829529 0.747546 0.195224
92.456741 139.829529 0.242788 0.216297
90.814888 139.112213 -0.000013 0.527871
88.531982 138.114822 -0.000011 0.537179
86.945274 137.421600 -0.000010 0.553109
85.776268 136.910858 -0.000009 0.527382
89.168861 138.304306 4.918542 0.726619
90.879898 139.037659 4.918539 0.730373
92.456741 139.713516 4.770943 0.384375
92.456741 139.713516 4.258953 0.351080
92.456741 139.713516 3.751912 0.345098
92.456741 139.713516 3.248676 0.329702
92.456741 139.713516 2.748134 0.099168
92.456741 139.713516 2.249200 0.125277
92.456741 139.713516 1.750800 0.149065
92.456734 139.713516 1.251866 0.141665
92.456734 139.713516 0.751324 0.160784
92.456734 139.713516 0.248088 0.211765
90.852272 139.025833 -0.000013 0.527871
88.562462 138.044403 -0.000011 0.522942
86.970955 137.362274 -0.000010 0.524956
85.798409 136.859711 -0.000009 0.538750
89.200645 138.229431 4.918542 0.733333
90.916756 138.950821 4.918539 0.725444
92.456741 139.598190 4.762743 0.369787
92.456741 139.598190 4.252268 0.339727
92.456741 139.598190 3.746728 0.343725
92.456741 139.598190 3.244981 0.332052
92.456741 139.598190 2.745921 0.139788
92.456741 139.598190 2.248462 0.157107
92.456734 139.598190 1.751537 0.172793
92.456734 139.598190 1.254080 0.151324
92.456734 139.598190 0.755019 0.152789
92.456741 139.598190 0.253272 0.236210
90.889053 138.939178 -0.000014 0.510307
88.592438 137.973755 -0.000011 0.557885
86.996216 137.302765 -0.000010 0.535729
85.820190 136.808395 -0.000008 0.541115
89.231903 138.154327 4.918542 0.737240
90.953011 138.863739 4.918538 0.733349
92.456741 139.483536 4.754725 0.369787
92.456741 139.483536 4.245733 0.329290
92.456741 139.483536 3.741660 0.343587
92.456741 139.483536 3.241368 0.337835
92.456741 139.483536 2.743756 0.160754
92.456741 139.483536 2.247741 0.181399
92.456734 139.483536 1.752259 0.197391
92.456734 139.483536 1.256244 0.183841
92.456734 139.483536 0.758632 0.172549
92.456734 139.483536 0.258341 0.227573
90.925224 138.852280 -0.000013 0.543557
88.621933 137.902924 -0.000011 0.531106
87.021057 137.243073 -0.000010 0.539681
85.841606 136.756927 -0.000008 0.529961
89.262634 138.079025 4.918542 0.730068
90.988655 138.776382 4.918538 0.713405
92.456741 139.369537 4.746889 0.355215
92.456734 139.369537 4.239344 0.336736
92.456741 139.369537 3.736704 0.345098
92.456734 139.369537 3.237836 0.331502
92.456734 139.369537 2.741640 0.174411
92.456734 139.369537 2.247036 0.180392
92.456734 139.369537 1.752963 0.218082
92.456734 139.369537 1.258360 0.207965
92.456734 139.369537 0.762164 0.173159
92.456734 139.369537 0.263296 0.230426
90.960793 138.765137 -0.000013 0.556680
88.650925 137.831863 -0.000011 0.570825
87.045486 137.183212 -0.000010 0.559945
85.862671 136.705322 -0.000008 0.565026
89.292847 138.003494 4.918542 0.726925
91.023689 138.688797 4.918538 0.698039
92.456741 139.256195 4.739228 0.388235
92.456741 139.256195 4.233099 0.333333
92.456741 139.256180 3.731861 0.333333
92.456741 139.256195 3.234385 0.331502
92.456741 139.256195 2.739572 0.174228
92.456734 139.256180 2.246348 0.178088
92.456734 139.256180 1.753652 0.217609
92.456734 139.256180 1.260428 0.196201
92.456741 139.256180 0.765615 0.209522
92.456734 139.256180 0.268139 0.244480
90.995750 138.677734 -0.000014 0.532692
88.679428 137.760620 -0.000011 0.540627
87.069496 137.123199 -0.000010 0.540246
85.883369 136.653564 -0.000008 0.511955
89.322533 137.927765 4.918542 0.756176
91.058113 138.600952 4.918538 0.721569
92.456741 139.143463 4.731744 0.382010
92.456741 139.143463 4.226997 0.333333
92.456741 139.143463 3.727129 0.335546
92.456741 139.143463 3.231012 0.324086
92.456734 139.143463 2.737550 0.183261
92.456734 139.143463 2.245674 0.180087
92.456734 139.143463 1.754325 0.217990
92.456734 139.143463 1.262449 0.212726
92.456734 139.143463 0.768988 0.245441
92.456734 139.143463 0.272871 0.261189
91.030090 138.590088 -0.000013 0.531075
88.707428 137.689178 -0.000011 0.529152
87.093079 137.063004 -0.000010 0.561715
85.903709 136.601669 -0.000008 0.527016
89.351677 137.851822 4.918542 0.761517
91.091911 138.512878 4.918537 0.723156
92.456741 139.031342 4.724433 0.385107
92.456741 139.031342 4.221037 0.339544
92.456741 139.031342 3.722507 0.345098
92.456734 139.031342 3.227717 0.308400
92.456734 139.031342 2.735577 0.213336
92.456734 139.031342 2.245018 0.181857
92.456734 139.031342 1.754983 0.238331
92.456734 139.031342 1.264423 0.229740
92.456734 139.031342 0.772283 0.282292
92.456734 139.031342 0.277493 0.292409
91.063828 138.502213 -0.000013 0.526986
88.734924 137.617538 -0.000011 0.559197
87.116249 137.002655 -0.000010 0.552895
85.923683 136.549637 -0.000008 0.527947
89.380295 137.775681 4.918542 0.733639
91.125107 138.424576 4.918537 0.732555
92.456741 138.919815 4.717293 0.341146
92.456741 138.919815 4.215217 0.334249
92.456741 138.919815 3.717993 0.344366
92.456734 138.919815 3.224500 0.296941
92.456734 138.919815 2.733649 0.219760
92.456734 138.919815 2.244375 0.214771
92.456734 138.919815 1.755625 0.264271
92.456734 138.919815 1.266351 0.239521
92.456734 138.919815 0.775500 0.287709
92.456734 138.919815 0.282007 0.284474
91.096947 138.414108 -0.000014 0.522347
88.761925 137.545700 -0.000011 0.530739
87.138992 136.942139 -0.000010 0.549416
85.943298 136.497452 -0.000008 0.528664
89.408386 137.699341 4.918543 0.730510
91.157684 138.336044 4.918537 0.723735
92.456741 138.808868 4.710322 0.345830
92.456741 138.808868 4.209534 0.342657
92.456741 138.808868 3.713585 0.338704
92.456734 138.808868 3.221359 0.298772
92.456734 138.808868 2.731767 0.219455
92.456734 138.808868 2.243748 0.193118
92.456734 138.808868 1.756252 0.257176
92.456734 138.808868 1.268233 0.235294
92.456734 138.808868 0.778641 0.278691
92.456734 138.808868 0.286415 0.245029
91.129456 138.325775 -0.000014 0.541176
88.788422 137.473694 -0.000011 0.557549
87.161316 136.881470 -0.000010 0.528054
85.962547 136.445145 -0.000008 0.574060
89.435944 137.622803 4.918543 0.718853
91.189636 138.247284 4.918537 0.733333
92.456741 138.698486 4.703519 0.372610
92.456741 138.698486 4.203987 0.347463
92.456741 138.698486 3.709284 0.346685
92.456741 138.698486 3.218293 0.323964
92.456734 138.698486 2.729930 0.223529
92.456734 138.698486 2.243136 0.203922
92.456734 138.698486 1.756864 0.273610
92.456734 138.698486 1.270070 0.255421
92.456734 138.698486 0.781707 0.282399
92.456734 138.698486 0.290717 0.244511
91.161339 138.237198 -0.000014 0.566293
88.814415 137.401489 -0.000011 0.527153
87.183220 136.820633 -0.000010 0.555840
85.981430 136.392700 -0.000009 0.513939
89.462967 137.546082 4.918543 0.700572
91.220978 138.158295 4.918537 0.733333
92.456741 138.588638 4.696879 0.343069
92.456734 138.588638 4.198575 0.334569
92.456741 138.588638 3.705086 0.335882
92.456734 138.588638 3.215301 0.325063
92.456734 138.588638 2.728137 0.199374
92.456734 138.588638 2.242539 0.160784
92.456734 138.588638 1.757461 0.225544
92.456734 138.588638 1.271862 0.216907
92.456734 138.588638 0.784699 0.262257
92.456741 138.588638 0.294914 0.322637
91.192604 138.148422 -0.000014 0.510216
88.839905 137.329117 -0.000011 0.551232
87.204689 136.759659 -0.000010 0.548852
85.999947 136.340118 -0.000009 0.554162
89.489441 137.469177 4.918542 0.708797
91.251686 138.069107 4.918537 0.708247
92.456734 138.479340 4.690404 0.348135
92.456734 138.479340 4.193296 0.333333
92.456734 138.479340 3.700993 0.340734
92.456734 138.479340 3.212383 0.314702
92.456734 138.479340 2.726389 0.149020
92.456734 138.479340 2.241957 0.105882
92.456734 138.479340 1.758043 0.163684
92.456734 138.479340 1.273610 0.129412
92.456734 138.479340 0.787617 0.172671
92.456734 138.479340 0.299008 0.242023
91.223251 138.059418 -0.000014 0.534386
88.864883 137.256561 -0.000011 0.551507
87.225739 136.698532 -0.000009 0.542275
86.018097 136.287415 -0.000009 0.557992
89.515388 137.392075 4.918542 0.724880
91.281784 137.979691 4.918538 0.708186
92.456734 138.370560 4.684090 0.354650
92.456741 138.370560 4.188149 0.323033
92.456734 138.370560 3.697001 0.351476
92.456734 138.370544 3.209538 0.285496
92.456734 138.370544 2.724684 0.159548
92.456734 138.370560 2.241389 0.128176
92.456734 138.370560 1.758611 0.170596
92.456734 138.370544 1.275315 0.129412
92.456734 138.370544 0.790462 0.182147
92.456734 138.370544 0.303000 0.247700
91.253273 137.970200 -0.000014 0.536080
88.889366 137.183823 -0.000011 0.547509
87.246361 136.637268 -0.000010 0.527565
86.035873 136.234573 -0.000008 0.554238
89.540802 137.314804 4.918543 0.721569
91.311249 137.890076 4.918537 0.715694
92.456741 138.262268 4.677937 0.216785
92.456741 138.262268 4.183132 0.202853
92.456741 138.262268 3.693110 0.216785
92.456734 138.262268 3.206764 0.184558
92.456734 138.262268 2.723023 0.092714
92.456734 138.262268 2.240835 0.075975
92.456734 138.262268 1.759164 0.128954
92.456734 138.262268 1.276977 0.075975
92.456734 138.262268 0.793235 0.124086
92.456734 138.262268 0.306890 0.164767
91.282677 137.880783 -0.000013 0.537820
88.913330 137.110931 -0.000011 0.566293
87.266556 136.575851 -0.000010 0.546853
86.053284 136.181625 -0.000009 0.538369
89.565666 137.237366 4.918543 0.724743
91.340088 137.800247 4.918537 0.721569
92.456741 138.154480 4.671941 0.596887
92.456734 138.154480 4.178244 0.596887
92.456734 138.154480 3.689319 0.596887
92.456734 138.154480 3.204062 0.035218
92.456734 138.154480 2.721405 0.324376
92.456734 138.154480 2.240297 0.324376
92.456734 138.154480 1.759704 0.324376
92.456734 138.154480 1.278595 0.324376
92.456734 138.154480 0.795937 0.186862
92.456734 138.154480 0.310681 0.186862
91.311447 137.791168 -0.000014 0.546578
88.936790 137.037872 -0.000011 0.537758
87.286316 136.514297 -0.000010 0.538628
86.070328 136.128555 -0.000008 0.495689
89.589989 137.159744 4.918544 0.729503
91.368301 137.710236 4.918538 0.716655
92.531738 138.070374 4.680387 0.629435
92.531738 138.070374 4.185129 0.625360
92.531738 138.070374 3.694659 0.625360
92.531738 138.070374 3.207868 0.426825
92.531738 138.070374 2.723685 0.616434
92.531738 138.070374 2.241056 0.616434
92.531738 138.070374 1.758944 0.620493
92.531738 138.070374 1.276315 0.616434
92.531738 138.070374 0.792131 0.620493
92.531738 138.070374 0.305341 0.620493
91.339600 137.701340 -0.000014 0.518257
88.959740 136.964645 -0.000011 0.537133
87.305649 136.452606 -0.000010 0.543053
86.086990 136.075363 -0.000009 0.582406
89.613770 137.081955 4.918543 0.734401
91.395882 137.620010 4.918538 0.719158
92.456749 137.940308 4.660419 0.337560
92.456749 137.940308 4.168851 0.354406
92.456741 137.940308 3.682034 0.333333
92.456741 137.940308 3.198870 0.280537
92.456741 137.940308 2.718293 0.089738
92.456741 137.940308 2.239260 0.230213
92.456741 137.940308 1.760740 0.216052
92.456741 137.940308 1.281707 0.224002
92.456741 137.940308 0.801129 0.235767
92.456741 137.940308 0.317966 0.212253
91.367119 137.611328 -0.000014 0.541360
88.982178 136.891251 -0.000011 0.501991
87.324554 136.390778 -0.000010 0.553887
86.103287 136.022049 -0.000008 0.575586
89.637009 137.003998 4.918543 0.738781
91.422836 137.529602 4.918538 0.729259
92.456741 137.833908 4.654887 0.345098
92.456741 137.833908 4.164341 0.348135
92.456741 137.833908 3.678537 0.333333
92.456741 137.833908 3.196378 0.292470
92.456741 137.833908 2.716800 0.077363
92.456741 137.833908 2.238763 0.241672
92.456741 137.833908 1.761237 0.250278
92.456741 137.833908 1.283200 0.238422
92.456741 137.833908 0.803622 0.287327
92.456741 137.833908 0.321464 0.254276
91.394012 137.521118 -0.000014 0.534020
89.004097 136.817719 -0.000011 0.552148
87.343018 136.328827 -0.000010 0.513542
86.119217 135.968643 -0.000008 0.522866
89.659706 136.925888 4.918543 0.738567
