# This PCD file was generated using the MATLABÂ® pcwrite function
# from Computer Vision ToolboxÂ®.
# .PCD v.7 - Point Cloud Data file format
VERSION .7
FIELDS x y z intensity
SIZE 4 4 4 4
TYPE F F F F
COUNT 1 1 1 1
WIDTH 1200
HEIGHT 1
VIEWPOINT 0 0 0 1 0 0 0
POINTS 1200
DATA ascii
-41.019363 -38.969917 0.994150 0.641535
-41.019260 -38.969841 0.321193 0.613275
-38.532619 -37.136513 0.000017 0.546349
-35.391792 -34.820869 0.000012 0.530282
-32.501987 -32.690304 0.199995 0.679316
-31.247684 -31.765539 0.199992 0.786603
-30.323553 -31.084206 0.199995 0.719875
-37.850487 -36.490891 6.121321 0.654902
-38.579796 -37.020767 5.748259 0.643580
-41.915096 -39.444035 5.907943 0.625101
-41.915100 -39.444035 5.185869 0.576089
-41.915096 -39.444031 4.470775 0.604059
-41.915092 -39.444031 3.761045 0.629908
-41.019493 -38.793335 3.000731 0.541787
-41.019501 -38.793339 2.333339 0.598535
-41.019474 -38.793320 1.666662 0.666667
-41.019375 -38.793243 0.999276 0.657023
-41.019272 -38.793171 0.329749 0.623529
-38.604301 -37.038574 0.000017 0.534234
-35.447380 -34.744911 0.000012 0.535012
-32.542778 -32.634575 0.199995 0.748806
-31.282047 -31.718590 0.199992 0.668315
-30.353184 -31.043722 0.199995 0.729183
-38.020195 -36.471123 6.152902 0.662989
-38.020195 -36.471123 5.580790 0.601968
-38.020195 -36.471123 5.016709 0.544411
-38.020195 -36.471123 4.459310 0.736294
-38.020195 -36.471123 3.907297 0.581491
-38.020195 -36.471123 3.359426 0.690990
-38.020195 -36.471123 2.814490 0.517876
-38.020195 -36.471123 2.271302 0.578119
-38.020195 -36.471123 1.728698 0.558694
-38.020195 -36.471123 1.185510 0.610361
-38.020195 -36.471123 0.640573 0.701167
-38.020195 -36.471123 0.092703 0.579278
-35.502441 -34.668568 0.000012 0.513603
-32.583176 -32.578556 0.199995 0.715938
-31.316084 -31.671400 0.199992 0.692988
-30.382530 -31.003033 0.199995 0.678950
-38.020180 -36.329464 6.132343 0.704067
-38.020180 -36.329464 5.563063 0.738598
-38.020176 -36.329468 5.001775 0.578027
-38.020180 -36.329468 4.447134 0.725338
-38.020180 -36.329468 3.897855 0.718746
-38.020176 -36.329464 3.352696 0.700023
-38.020199 -36.329479 2.810458 0.573480
-38.020195 -36.329475 2.269960 0.517647
-38.020195 -36.329475 1.730040 0.589410
-38.020195 -36.329475 1.189541 0.608484
-38.020195 -36.329475 0.647302 0.694072
-38.020199 -36.329479 0.102142 0.733227
-35.556969 -34.591843 0.000012 0.552560
-32.623180 -32.522263 0.199995 0.753246
-31.349789 -31.623974 0.199992 0.754086
-30.411591 -30.962141 0.199995 0.736034
-38.020157 -36.189194 6.112185 0.624155
-38.020157 -36.189194 5.545682 0.595041
-38.020161 -36.189194 4.987132 0.798184
-38.020161 -36.189198 4.435198 0.617197
-38.020157 -36.189194 3.888597 0.734600
-38.020164 -36.189198 3.346098 0.521431
-38.020195 -36.189220 2.806506 0.571328
-38.020195 -36.189220 2.268643 0.521019
-38.020195 -36.189220 1.731357 0.565316
-38.020195 -36.189220 1.193494 0.610025
-38.020199 -36.189224 0.653898 0.578698
-38.020199 -36.189224 0.111398 0.741527
-35.610962 -34.514740 0.000012 0.542016
-32.662796 -32.465691 0.199995 0.733379
-31.383162 -31.576313 0.199992 0.677440
-30.440367 -30.921045 0.199995 0.749569
-38.020142 -36.050278 6.092422 0.742275
-38.020142 -36.050282 5.528642 0.625208
-38.020142 -36.050278 4.972776 0.590082
-38.020138 -36.050278 4.423493 0.609430
-38.020142 -36.050282 3.879521 0.704707
-38.020180 -36.050308 3.339633 0.570764
-38.020199 -36.050320 2.802631 0.548455
-38.020195 -36.050316 2.267353 0.549020
-38.020199 -36.050316 1.732647 0.609445
-38.020199 -36.050320 1.197368 0.488487
-38.020195 -36.050316 0.660366 0.552956
-38.020199 -36.050320 0.120471 0.684657
-35.664406 -34.437260 0.000013 0.544793
-32.702011 -32.408840 0.199995 0.671366
-31.416203 -31.528419 0.199992 0.724285
-30.468855 -30.879751 0.199995 0.720348
-38.020123 -35.912689 6.073047 0.550484
-38.020123 -35.912685 5.511934 0.678813
-38.020123 -35.912689 4.958701 0.527855
-38.020123 -35.912685 4.412020 0.668223
-38.020142 -35.912701 3.870625 0.632578
-38.020203 -35.912743 3.333294 0.549752
-38.020199 -35.912739 2.798832 0.547646
-38.020195 -35.912735 2.266087 0.555642
-38.020195 -35.912735 1.733913 0.549020
-38.020195 -35.912739 1.201168 0.542580
-38.020199 -35.912739 0.666706 0.517800
-38.020195 -35.912739 0.129368 0.550027
-35.717312 -34.359406 0.000013 0.534707
-32.740829 -32.351723 0.199995 0.699977
-31.448906 -31.480297 0.199992 0.748867
-30.497053 -30.838259 0.199995 0.685573
-38.020103 -35.776382 6.054049 0.550546
-38.020103 -35.776382 5.495554 0.555398
-38.020107 -35.776386 4.944902 0.638636
-38.020103 -35.776386 4.400770 0.589151
-38.020157 -35.776421 3.861904 0.562676
-38.020206 -35.776451 3.327077 0.518257
-38.020199 -35.776447 2.795108 0.520989
-38.020195 -35.776443 2.264846 0.552758
-38.020195 -35.776443 1.735153 0.524269
-38.020195 -35.776443 1.204893 0.553155
-38.020199 -35.776447 0.672923 0.579553
-38.020195 -35.776443 0.138091 0.518212
-35.769680 -34.281189 0.000013 0.521218
-32.779251 -32.294331 0.199995 0.681788
-31.481274 -31.431948 0.199992 0.674647
-30.524961 -30.796570 0.199995 0.735210
-38.020088 -35.641342 6.035425 0.655100
-38.020084 -35.641342 5.479495 0.525002
-38.020084 -35.641342 4.931372 0.647166
-38.020123 -35.641365 4.389746 0.517647
-38.020176 -35.641399 3.853355 0.598947
-38.020203 -35.641418 3.320982 0.515862
-38.020199 -35.641415 2.791456 0.550546
-38.020195 -35.641411 2.263630 0.565438
-38.020195 -35.641411 1.736370 0.580392
-38.020195 -35.641415 1.208544 0.548974
-38.020195 -35.641411 0.679018 0.621347
-38.020195 -35.641411 0.146642 0.545907
-35.821495 -34.202606 0.000013 0.520729
-32.817268 -32.236675 0.199995 0.705592
-31.513302 -31.383375 0.199992 0.722744
-30.552580 -30.754688 0.199994 0.755917
-38.020065 -35.507526 6.017165 0.570596
-38.020065 -35.507526 5.463751 0.603815
-38.020077 -35.507534 4.918110 0.552514
-38.020138 -35.507572 4.378940 0.528756
-38.020195 -35.507610 3.844975 0.508522
-38.020203 -35.507614 3.315006 0.516548
-38.020199 -35.507614 2.787876 0.514885
-38.020191 -35.507607 2.262438 0.549020
-38.020195 -35.507607 1.737563 0.531014
-38.020195 -35.507607 1.212124 0.567590
-38.020195 -35.507607 0.684994 0.622934
-38.020195 -35.507610 0.155026 0.591302
-35.872761 -34.123665 0.000013 0.539681
-32.854881 -32.178753 0.199996 0.737057
-31.544992 -31.334579 0.199992 0.670268
-30.579903 -30.712614 0.199994 0.689891
-38.020050 -35.374908 5.999264 0.664256
-38.020050 -35.374908 5.448316 0.597711
-38.020096 -35.374939 4.905115 0.560357
-38.020157 -35.374977 4.368345 0.549218
-38.020203 -35.375008 3.836757 0.508354
-38.020203 -35.375008 3.309148 0.555535
-38.020195 -35.375004 2.784365 0.546395
-38.020191 -35.375000 2.261269 0.517830
-38.020195 -35.375000 1.738732 0.570031
-38.020195 -35.375000 1.215634 0.593210
-38.020195 -35.375000 0.690852 0.753353
-38.020195 -35.375004 0.163245 0.656779
-35.923473 -34.044369 0.000013 0.551064
-32.892090 -32.120571 0.199996 0.672679
-31.576342 -31.285563 0.199991 0.668452
-30.606932 -30.670349 0.199995 0.740261
-38.020031 -35.243462 5.981714 0.721477
-38.020058 -35.243481 5.433191 0.577707
-38.020115 -35.243515 4.892374 0.550149
-38.020172 -35.243553 4.357958 0.507866
-38.020206 -35.243572 3.828699 0.546929
-38.020203 -35.243568 3.303405 0.546868
-38.020199 -35.243568 2.780925 0.574197
-38.020195 -35.243565 2.260123 0.535348
-38.020195 -35.243565 1.739878 0.595621
-38.020195 -35.243568 1.219075 0.730159
-38.020195 -35.243568 0.696595 0.741924
-38.020195 -35.243568 0.171302 0.712016
-35.973633 -33.964718 0.000013 0.502327
-32.928890 -32.062130 0.199996 0.738476
-31.607346 -31.236328 0.199991 0.680430
-30.633667 -30.627899 0.199994 0.680995
-37.935127 -35.060936 5.939545 0.354925
-37.935127 -35.060936 5.396825 0.505653
-37.935123 -35.060936 4.861724 0.526040
-37.935127 -35.060936 4.332962 0.474327
-38.020206 -35.113277 3.820800 0.532387
-38.020203 -35.113277 3.297776 0.560159
-38.020195 -35.113274 2.777552 0.586236
-38.020195 -35.113274 2.258999 0.559792
-38.020195 -35.113274 1.741001 0.619989
-38.020195 -35.113274 1.222448 0.733577
-38.020195 -35.113274 0.702225 0.721996
-38.020195 -35.113274 0.179201 0.727382
-36.023232 -33.884716 0.000013 0.543832
-32.965286 -32.003437 0.199996 0.708110
-31.638004 -31.186878 0.199991 0.739483
-30.660101 -30.585262 0.199994 0.706706
-37.990311 -34.965992 5.938953 0.678431
-37.990311 -34.965996 5.396316 0.678431
-37.990311 -34.965996 4.861295 0.678431
-37.935127 -34.932571 4.323041 0.460761
-38.020203 -34.984097 3.813058 0.737743
-38.020199 -34.984093 3.292257 0.617609
-38.020195 -34.984093 2.774245 0.569512
-38.020191 -34.984089 2.257897 0.552728
-38.020195 -34.984089 1.742103 0.607401
-38.020195 -34.984093 1.225754 0.749126
-38.020195 -34.984093 0.707744 0.694667
-38.020195 -34.984093 0.186944 0.684443
-36.072273 -33.804375 0.000013 0.526238
-33.001266 -31.944485 0.199996 0.690074
-31.668320 -31.137217 0.199991 0.720485
-30.686239 -30.542440 0.199994 0.670695
-37.990307 -34.838184 5.922464 0.678431
-37.990311 -34.838188 5.382098 0.678431
-37.990314 -34.838188 4.849318 0.678431
-37.935127 -34.805290 4.313316 0.465339
-38.020195 -34.856003 3.805467 0.729030
-38.020203 -34.856007 3.286848 0.710369
-38.020199 -34.856003 2.771004 0.520638
-38.020195 -34.855999 2.256818 0.556649
-38.020195 -34.855999 1.743182 0.592309
-38.020195 -34.856003 1.228996 0.722866
-38.020195 -34.856003 0.713153 0.637232
-38.020195 -34.856003 0.194533 0.627207
-36.120754 -33.723694 0.000013 0.540078
-33.036835 -31.885288 0.199996 0.767254
-31.698288 -31.087345 0.199991 0.689158
-30.712078 -30.499439 0.199994 0.694469
-37.990311 -34.711433 5.906302 0.678431
-37.990311 -34.711437 5.368162 0.678431
-37.990314 -34.711437 4.837577 0.678431
-37.935123 -34.679058 4.303784 0.464698
-38.020184 -34.728962 3.798026 0.708049
-38.020195 -34.728970 3.281544 0.671427
-38.020195 -34.728970 2.767827 0.667185
-38.020195 -34.728970 2.255760 0.582223
-38.020195 -34.728970 1.744241 0.631495
-38.020195 -34.728970 1.232172 0.696513
-38.020195 -34.728970 0.718455 0.606317
-38.020195 -34.728970 0.201973 0.565896
-36.168671 -33.642673 0.000013 0.530144
-34.019966 -32.382023 0.000010 0.533181
-31.727907 -31.037264 0.199991 0.771496
-30.737617 -30.456257 0.199994 0.743313
-37.990311 -34.585720 5.890463 0.678431
-37.990311 -34.585724 5.354505 0.678431
-37.990311 -34.585724 4.826071 0.678431
-37.935127 -34.553864 4.294443 0.494118
-38.020172 -34.602962 3.790733 0.568795
-38.020180 -34.602970 3.276347 0.714900
-38.020191 -34.602974 2.764714 0.641382
-37.935123 -34.553860 2.253115 0.446983
-37.935123 -34.553860 1.746885 0.484047
-37.935123 -34.553860 1.240112 0.477623
-37.935123 -34.553860 0.731706 0.481743
-38.020199 -34.602978 0.209263 0.639582
-36.216019 -33.561321 0.000013 0.546960
-34.058567 -32.315704 0.000010 0.553017
-31.757175 -30.986979 0.199991 0.724987
-30.762854 -30.412899 0.199994 0.735088
-37.990311 -34.461018 5.874939 0.678431
-37.990314 -34.461018 5.341119 0.678431
-37.990314 -34.461018 4.814795 0.678431
-37.935127 -34.429668 4.285288 0.458579
-38.020161 -34.477974 3.783587 0.536095
-38.020172 -34.477982 3.271253 0.588403
-38.020180 -34.477985 2.761662 0.632273
-37.990299 -34.461010 2.253143 0.689464
-37.990299 -34.461010 1.746857 0.678431
-37.990303 -34.461014 1.240026 0.678431
-37.990303 -34.461014 0.731564 0.678431
-38.020195 -34.477993 0.216409 0.645899
-36.262794 -33.479641 0.000013 0.576928
-34.096703 -32.249115 0.000010 0.533074
-31.786091 -30.936487 0.199991 0.684398
-30.787786 -30.369366 0.199994 0.669459
-37.990314 -34.337299 5.859726 0.678431
-37.990314 -34.337299 5.328002 0.678431
-37.990314 -34.337299 4.803742 0.678431
-37.963123 -34.322102 4.281073 0.429648
-38.020149 -34.353977 3.776583 0.558480
-38.020161 -34.353981 3.266260 0.584054
-38.020168 -34.353985 2.758670 0.616846
-37.990303 -34.337296 2.252150 0.678431
-37.990303 -34.337296 1.747850 0.678431
-37.990307 -34.337296 1.243010 0.678431
-37.990307 -34.337296 0.736543 0.678431
-38.020195 -34.354000 0.223411 0.672053
-36.309006 -33.397636 0.000013 0.537774
-34.134373 -32.182262 0.000010 0.551369
-31.814651 -30.885799 0.199991 0.690730
-30.812414 -30.325659 0.199994 0.731640
-37.935127 -34.184200 5.829044 0.486625
-37.935127 -34.184200 5.301547 0.534051
-37.935127 -34.184204 4.781456 0.460258
-38.015209 -34.228230 4.281079 0.558816
-38.020138 -34.230938 3.769719 0.595697
-38.020149 -34.230942 3.261369 0.515755
-38.020161 -34.230949 2.755739 0.609705
-37.990303 -34.214535 2.251176 0.678431
-37.990303 -34.214535 1.748824 0.678431
-37.990303 -34.214535 1.245934 0.678431
-37.990303 -34.214535 0.741423 0.678431
-38.020199 -34.230968 0.230273 0.715908
-36.354637 -33.315308 0.000014 0.538155
-34.171577 -32.115147 0.000010 0.540490
-31.842861 -30.834909 0.199991 0.676982
-30.836737 -30.281780 0.199994 0.758953
-37.990303 -34.092716 5.830208 0.678431
-37.990303 -34.092716 5.302551 0.678431
-37.990303 -34.092716 4.782301 0.678431
-38.020119 -34.108837 4.273241 0.728237
-38.020126 -34.108841 3.762994 0.600870
-38.020138 -34.108849 3.256576 0.552834
-38.020161 -34.108860 2.752868 0.633646
-37.990303 -34.092716 2.250222 0.678431
-37.990307 -34.092716 1.749779 0.678431
-37.990303 -34.092716 1.248799 0.678431
-37.990307 -34.092716 0.746205 0.678431
-38.020199 -34.108879 0.236997 0.635325
-36.399693 -33.232666 0.000014 0.548714
-34.208305 -32.047775 0.000011 0.555932
-31.870714 -30.783827 0.199991 0.748272
-30.860750 -30.237736 0.199994 0.673213
-37.990303 -33.971813 5.815898 0.678431
-37.990303 -33.971813 5.290212 0.678431
-37.990307 -33.971813 4.771906 0.678431
-38.020107 -33.987659 4.264745 0.551598
-38.020119 -33.987663 3.756405 0.708293
-38.020126 -33.987671 3.251880 0.609659
-38.020161 -33.987690 2.750055 0.629648
-37.990303 -33.971813 2.249287 0.678431
-37.990303 -33.971813 1.750713 0.678431
-37.990303 -33.971813 1.251606 0.678431
-37.990307 -33.971813 0.750890 0.678431
-38.020195 -33.987709 0.243584 0.574929
-36.444176 -33.149712 0.000014 0.579583
-34.244568 -31.980145 0.000011 0.554253
-31.898209 -30.732550 0.199991 0.685252
-30.884459 -30.193521 0.199994 0.661616
-37.990303 -33.851803 5.801877 0.678431
-37.990307 -33.851807 5.278122 0.678431
-37.990311 -33.851807 4.761722 0.678431
-38.020096 -33.867378 4.256422 0.520424
-38.020107 -33.867386 3.749951 0.618418
-38.020126 -33.867397 3.247280 0.604196
-38.020161 -33.867413 2.747300 0.609903
-37.990307 -33.851807 2.248370 0.678431
-37.990311 -33.851807 1.751629 0.678431
-37.990307 -33.851807 1.254355 0.678431
-37.990311 -33.851807 0.755479 0.678431
-38.020195 -33.867432 0.250037 0.551476
-36.488075 -33.066448 0.000014 0.521904
-34.280357 -31.912268 0.000010 0.508370
-31.925344 -30.681082 0.199991 0.734035
-30.907856 -30.149145 0.199994 0.683085
-37.990307 -33.732670 5.788145 0.678431
-37.990307 -33.732670 5.266282 0.678431
-37.990311 -33.732670 4.751746 0.678431
-38.020084 -33.747974 4.248270 0.568032
-38.020096 -33.747978 3.743628 0.549630
-38.020126 -33.747993 3.242774 0.625483
-38.020164 -33.748013 2.744601 0.581765
-37.990311 -33.732670 2.247474 0.678431
-37.990311 -33.732670 1.752526 0.678431
-37.990311 -33.732670 1.257048 0.678431
-37.990307 -33.732670 0.759974 0.678431
-38.020195 -33.748032 0.256359 0.548775
-36.531395 -32.982880 0.000014 0.549844
-34.315674 -31.844141 0.000010 0.528069
-31.952120 -30.629425 0.199991 0.710903
-30.930944 -30.104607 0.199993 0.708232
-37.990307 -33.614388 5.774694 0.678431
-37.990311 -33.614388 5.254684 0.678431
-37.990311 -33.614388 4.741975 0.678431
-38.020077 -33.629425 4.240284 0.589715
-38.020088 -33.629429 3.737436 0.520226
-38.020126 -33.629448 3.238361 0.780270
-38.020164 -33.629467 2.741956 0.740124
-37.990311 -33.614388 2.246595 0.678431
-37.990311 -33.614388 1.753405 0.678431
-37.990311 -33.614388 1.259686 0.678431
-37.990311 -33.614388 0.764377 0.678431
-38.020195 -33.629486 0.262550 0.570901
-36.574127 -32.899014 0.000013 0.524407
-34.350510 -31.775768 0.000011 0.525658
-31.978537 -30.577583 0.199991 0.681651
-30.953720 -30.059906 0.199994 0.730007
-37.990307 -33.496933 5.761520 0.678431
-37.990311 -33.496933 5.243326 0.678431
-37.990311 -33.496937 4.732406 0.678431
-38.020065 -33.511707 4.232465 0.752499
-38.020088 -33.511719 3.731372 0.547143
-38.020126 -33.511734 3.234039 0.694804
-38.020164 -33.511753 2.739367 0.652033
-37.990307 -33.496933 2.245734 0.678431
-37.990311 -33.496933 1.754266 0.678431
-37.990311 -33.496933 1.262270 0.678431
-37.990311 -33.496933 0.768690 0.678431
-38.020199 -33.511772 0.268614 0.690700
-36.616272 -32.814846 0.000014 0.557977
-34.384869 -31.707155 0.000011 0.539193
-32.004589 -30.525558 0.199991 0.732784
-30.976183 -30.015047 0.199994 0.688563
-37.935127 -33.353378 5.733242 0.695766
-37.935127 -33.353378 5.218943 0.731334
-37.935131 -33.353378 4.711864 0.697948
-38.020054 -33.394798 4.224806 0.579171
-38.020092 -33.394817 3.725435 0.524819
-38.020126 -33.394836 3.229808 0.696498
-38.020161 -33.394852 2.736831 0.577035
-37.990307 -33.380291 2.244891 0.678431
-37.990307 -33.380291 1.755108 0.678431
-37.990311 -33.380291 1.264800 0.678431
-37.990311 -33.380291 0.772913 0.678431
-38.020195 -33.394871 0.274552 0.680552
-36.657829 -32.730389 0.000014 0.522744
-34.418747 -31.638302 0.000011 0.555428
-32.030277 -30.473352 0.199991 0.720195
-30.998333 -29.970036 0.199993 0.681910
-38.019836 -33.278587 5.744192 0.627558
-38.019909 -33.278625 5.228401 0.704448
-38.019981 -33.278660 4.719847 0.724102
-38.020050 -33.278690 4.217310 0.562142
-38.020088 -33.278709 3.719622 0.678355
-38.020126 -33.278728 3.225664 0.704021
-38.020161 -33.278744 2.734348 0.519615
-37.990311 -33.264442 2.244066 0.678431
-37.990311 -33.264442 1.755934 0.678431
-37.990311 -33.264442 1.267277 0.678431
-37.990311 -33.264442 0.777047 0.678431
-38.020195 -33.278763 0.280365 0.608179
-36.698799 -32.645645 0.000014 0.532189
-34.452148 -31.569218 0.000011 0.506554
-32.055599 -30.420971 0.199991 0.665354
-31.020168 -29.924868 0.199993 0.748104
-38.019821 -33.163254 5.731796 0.766812
-38.019897 -33.163288 5.217714 0.633616
-38.019966 -33.163322 4.710842 0.768017
-38.020035 -33.163353 4.209970 0.553887
-38.020088 -33.163380 3.713930 0.713115
-38.020126 -33.163399 3.221608 0.600275
-38.020164 -33.163414 2.731918 0.517876
-37.990311 -33.149364 2.243259 0.678431
-37.990311 -33.149364 1.756741 0.678431
-37.990311 -33.149368 1.269702 0.678431
-37.990311 -33.149368 0.781094 0.678431
-38.020195 -33.163429 0.286057 0.674235
-36.739174 -32.560619 0.000013 0.554177
-34.485062 -31.499899 0.000011 0.531319
-32.080555 -30.368410 0.199991 0.705791
-31.041687 -29.879549 0.199994 0.772229
-38.019806 -33.048672 5.719664 0.591501
-38.019882 -33.048706 5.207252 0.596963
-38.019955 -33.048740 4.702029 0.534264
-38.020023 -33.048771 4.202785 0.671244
-38.020081 -33.048798 3.708359 0.615549
-38.020126 -33.048820 3.217637 0.556954
-38.020161 -33.048836 2.729539 0.554116
-37.990311 -33.035042 2.242468 0.678431
-37.990311 -33.035042 1.757532 0.678431
-37.990311 -33.035042 1.272076 0.678431
-37.990314 -33.035042 0.785055 0.678431
-37.935131 -33.009544 0.302407 0.493339
-36.778954 -32.475307 0.000014 0.548104
-34.517490 -31.430353 0.000011 0.524086
-32.105148 -30.315680 0.199991 0.662165
-31.062889 -29.834082 0.199993 0.706935
-38.019791 -32.934826 5.707789 0.571984
-38.019867 -32.934860 5.197013 0.677760
-38.019943 -32.934895 4.693404 0.517128
-38.020012 -32.934925 4.195753 0.716594
-38.020065 -32.934952 3.702905 0.599939
-38.020126 -32.934978 3.213751 0.554406
-38.020164 -32.934998 2.727211 0.551553
-37.990314 -32.921455 2.241694 0.678431
-37.990314 -32.921455 1.758306 0.678431
-37.990314 -32.921455 1.274399 0.678431
-37.990314 -32.921455 0.788933 0.678431
-37.935135 -32.896423 0.307824 0.473457
-36.818138 -32.389725 0.000014 0.564614
-34.549431 -31.360580 0.000011 0.543511
-32.129368 -30.262775 0.199991 0.732891
-31.083775 -29.788467 0.199993 0.669429
-37.990303 -32.808578 5.688087 0.678431
-37.990307 -32.808582 5.180009 0.678431
-37.990307 -32.808582 4.679063 0.678431
-38.020004 -32.821804 4.188873 0.582254
-38.020058 -32.821827 3.697568 0.643122
-38.020115 -32.821854 3.209948 0.580865
-38.020164 -32.821877 2.724934 0.662898
-37.990311 -32.808582 2.240937 0.678431
-37.990311 -32.808582 1.759063 0.678431
-37.990314 -32.808582 1.276672 0.678431
-37.990311 -32.808582 0.792727 0.678431
-37.935135 -32.784016 0.313125 0.445838
-36.856720 -32.303867 0.000015 0.524880
-34.580891 -31.290590 0.000011 0.543206
-32.153217 -30.209707 0.199991 0.743542
-31.104340 -29.742710 0.199993 0.686610
-37.990307 -32.696407 5.676750 0.678431
-37.990307 -32.696411 5.170233 0.678431
-37.990311 -32.696411 4.670827 0.678431
-38.020008 -32.709385 4.182144 0.573205
-38.020058 -32.709408 3.692350 0.519554
-38.020103 -32.709427 3.206227 0.597879
-38.020157 -32.709450 2.722704 0.541054
-37.990311 -32.696411 2.240196 0.678431
-37.990314 -32.696411 1.759804 0.678431
-37.990314 -32.696411 1.278896 0.678431
-37.990314 -32.696411 0.796438 0.678431
-37.935135 -32.672306 0.318311 0.475456
-36.894703 -32.217743 0.000014 0.542062
-34.611855 -31.220379 0.000011 0.535088
-32.176697 -30.156471 0.199991 0.689784
-31.124586 -29.696808 0.199993 0.725856
-37.990303 -32.584919 5.665658 0.678431
-37.990307 -32.584919 5.160670 0.678431
-37.990311 -32.584919 4.662771 0.678431
-38.020004 -32.597649 4.175561 0.562661
-38.020065 -32.597672 3.687246 0.551431
-38.020111 -32.597694 3.202589 0.614618
-38.020157 -32.597713 2.720524 0.585519
-37.990314 -32.584923 2.239472 0.678431
-37.990314 -32.584923 1.760528 0.678431
-37.990311 -32.584923 1.281071 0.678431
-37.990314 -32.584923 0.800069 0.678431
-37.935135 -32.561272 0.323384 0.457435
-36.932091 -32.131359 0.000014 0.553613
-34.642334 -31.149956 0.000011 0.551247
-32.199806 -30.103073 0.199991 0.709468
-31.144508 -29.650766 0.199993 0.730282
-37.990303 -32.474094 5.654811 0.678431
-37.990307 -32.474094 5.151317 0.678431
-37.990311 -32.474094 4.654892 0.678431
-38.019997 -32.486576 4.169122 0.602564
-38.020073 -32.486607 3.682254 0.549020
-38.020119 -32.486626 3.199031 0.613275
-38.020164 -32.486645 2.718392 0.584436
-38.020199 -32.486660 2.239294 0.669932
-38.020203 -32.486660 1.760706 0.562402
-38.020199 -32.486660 1.281606 0.674922
-38.020199 -32.486660 0.800961 0.760601
-38.020203 -32.486660 0.317730 0.656825
-36.968872 -32.044716 0.000014 0.532967
-34.672314 -31.079319 0.000011 0.546517
-32.222538 -30.049515 0.199991 0.694301
-31.164112 -29.604586 0.199993 0.734630
-37.990303 -32.363918 5.644206 0.678431
-37.990307 -32.363918 5.142173 0.678431
-37.990311 -32.363918 4.647187 0.678431
-38.019989 -32.376152 4.162827 0.560449
-38.020073 -32.376186 3.677372 0.573648
-38.020126 -32.376213 3.195552 0.591287
-38.020172 -32.376228 2.716308 0.615503
-38.020199 -32.376240 2.238599 0.664561
-38.020199 -32.376240 1.761401 0.601617
-38.020203 -32.376240 1.283690 0.669673
-38.020203 -32.376240 0.804440 0.759136
-38.020203 -32.376240 0.322611 0.622461
-37.005039 -31.957815 0.000014 0.519265
-34.701805 -31.008476 0.000011 0.558694
-32.244900 -29.995800 0.199991 0.706889
-31.183392 -29.558271 0.199993 0.677943
-37.990303 -32.254375 5.633838 0.678431
-37.990307 -32.254375 5.133233 0.678431
-37.990311 -32.254375 4.639656 0.678431
-38.019981 -32.266365 4.156672 0.716335
-38.020077 -32.266403 3.672601 0.747860
-38.020134 -32.266426 3.192152 0.783108
-38.020180 -32.266445 2.714271 0.741909
-38.020203 -32.266453 2.237920 0.720974
-38.020203 -32.266453 1.762079 0.739925
-38.020203 -32.266457 1.285728 0.727993
-38.020203 -32.266453 0.807842 0.740551
-38.020203 -32.266453 0.327384 0.733700
-37.040604 -31.870665 0.000015 0.533303
-34.730797 -30.937429 0.000011 0.582101
-32.266884 -29.941929 0.199991 0.698146
-31.202347 -29.511822 0.199993 0.674266
-37.990307 -32.145447 5.623705 0.678431
-37.990307 -32.145447 5.124496 0.678431
-37.990307 -32.145447 4.632295 0.678431
-38.019970 -32.157192 4.150656 0.682261
-38.020073 -32.157234 3.667936 0.640757
-38.020138 -32.157261 3.188828 0.728252
-38.020191 -32.157280 2.712279 0.562829
-38.020203 -32.157288 2.237257 0.684001
-38.020203 -32.157288 1.762743 0.556405
-38.020203 -32.157284 1.287720 0.687953
-38.020203 -32.157284 0.811166 0.561578
-38.020203 -32.157288 0.332048 0.692302
-37.075562 -31.783270 0.000014 0.535363
-34.759296 -30.866182 0.000011 0.518608
-32.288490 -29.887907 0.199991 0.680140
-31.220978 -29.465242 0.199993 0.735546
-37.935127 -32.015720 5.598979 0.634791
-37.935127 -32.015717 5.103175 0.645960
-37.935127 -32.015717 4.614333 0.551720
-38.019966 -32.048626 4.144779 0.593469
-38.020073 -32.048668 3.663379 0.623758
-38.020142 -32.048695 3.185580 0.688746
-38.020195 -32.048714 2.710333 0.687388
-38.020203 -32.048717 2.236609 0.662776
-38.020203 -32.048717 1.763391 0.559625
-38.020203 -32.048717 1.289666 0.601648
-38.020203 -32.048717 0.814414 0.562783
-38.020210 -32.048721 0.336604 0.603113
-37.109905 -31.695633 0.000015 0.524376
-34.787296 -30.794737 0.000011 0.517250
-32.309719 -29.833735 0.199991 0.685298
-31.239285 -29.418533 0.199993 0.655528
-37.990311 -31.929382 5.604135 0.685374
-37.990318 -31.929382 5.107622 0.671489
-37.990318 -31.929382 4.618078 0.671489
-38.019951 -31.940641 4.139037 0.633875
-38.020073 -31.940689 3.658927 0.682445
-38.020142 -31.940714 3.182406 0.677821
-38.020203 -31.940737 2.708433 0.718334
-38.020203 -31.940739 2.235976 0.629038
-38.020203 -31.940737 1.764024 0.563760
-38.020206 -31.940739 1.291567 0.556100
-38.020206 -31.940739 0.817587 0.567803
-38.020206 -31.940739 0.341056 0.556100
-37.143639 -31.607756 0.000015 0.544259
-34.814793 -30.723097 0.000012 0.542245
-32.330570 -29.779415 0.199991 0.762676
-31.257261 -29.371698 0.199993 0.744930
-37.990311 -31.822208 5.594688 0.678431
-37.990314 -31.822210 5.099477 0.678431
-37.990318 -31.822212 4.611217 0.678431
-38.019943 -31.833231 4.133430 0.524269
-38.020077 -31.833279 3.654580 0.687724
-38.020142 -31.833303 3.179308 0.598413
-38.020203 -31.833326 2.706576 0.720745
-38.312473 -31.942022 2.240460 0.658183
-38.312473 -31.942022 1.759540 0.638300
-38.312469 -31.942022 1.278105 0.708461
-38.312469 -31.942020 0.795118 0.761517
-38.312473 -31.942022 0.309531 0.561120
-37.176758 -31.519648 0.000015 0.517739
-34.841797 -30.651268 0.000012 0.557092
-32.351044 -29.724953 0.199992 0.678614
-31.274914 -29.324738 0.199993 0.663615
-37.990311 -31.715593 5.585467 0.678431
-37.990314 -31.715593 5.091526 0.678431
-37.990314 -31.715593 4.604519 0.678431
-38.019936 -31.726376 4.127955 0.641825
-38.020073 -31.726425 3.650335 0.524025
-38.020142 -31.726450 3.176283 0.714824
-38.020203 -31.726473 2.704763 0.745800
-38.612415 -31.942024 2.245067 0.624475
-38.612415 -31.942024 1.754934 0.690120
-38.612411 -31.942024 1.264276 0.566812
-38.612419 -31.942024 0.772036 0.603647
-38.612419 -31.942024 0.277148 0.611505
-37.209259 -31.431309 0.000014 0.508904
-34.868286 -30.579252 0.000012 0.519417
-32.371132 -29.670347 0.199992 0.727230
-31.292236 -29.277657 0.199993 0.664088
-37.990314 -31.609518 5.576467 0.678431
-37.990314 -31.609518 5.083765 0.678431
-37.990318 -31.609518 4.597980 0.678431
-38.019928 -31.620064 4.122613 0.555642
-38.020077 -31.620115 3.646192 0.533944
-38.020142 -31.620138 3.173330 0.649042
-38.020203 -31.620159 2.702994 0.723918
-38.924088 -31.942024 2.249865 0.577218
-38.924088 -31.942024 1.750135 0.716899
-38.924088 -31.942024 1.249869 0.594583
-38.924091 -31.942026 0.747991 0.673991
-38.924091 -31.942026 0.243412 0.550439
-37.241146 -31.342747 0.000014 0.523903
-34.894283 -30.507053 0.000012 0.534874
-32.390846 -29.615604 0.199991 0.661082
-31.309233 -29.230453 0.199993 0.688548
-37.990311 -31.503967 5.567683 0.678431
-37.990311 -31.503967 5.076192 0.678431
-37.990311 -31.503967 4.591600 0.678431
-38.019920 -31.514278 4.117399 0.524269
-38.020077 -31.514332 3.642150 0.646220
-38.020138 -31.514355 3.170449 0.607645
-38.020203 -31.514376 2.701268 0.749508
-39.141773 -31.904955 2.253024 0.575799
-39.141773 -31.904955 1.746977 0.645899
-39.141773 -31.904955 1.240387 0.666316
-39.141773 -31.904955 0.732165 0.593545
-39.141777 -31.904957 0.221208 0.742885
-37.272411 -31.253963 0.000015 0.538750
-34.919773 -30.434675 0.000012 0.517143
-32.410168 -29.560724 0.199992 0.732219
-31.325897 -29.183136 0.199993 0.725719
-37.990311 -31.398930 5.559118 0.678431
-37.990311 -31.398930 5.068806 0.678431
-37.990311 -31.398930 4.585378 0.678431
-38.019913 -31.409006 4.112314 0.484001
-38.020065 -31.409058 3.638206 0.550484
-38.020138 -31.409084 3.167638 0.484001
-38.020203 -31.409103 2.699584 0.741726
-39.141716 -31.790905 2.252415 0.527840
-39.141716 -31.790905 1.747585 0.658366
-39.141716 -31.790905 1.242214 0.647395
-39.141716 -31.790905 0.735214 0.680430
-39.141716 -31.790905 0.225486 0.587213
-37.303055 -31.164965 0.000015 0.540581
-34.944756 -30.362122 0.000012 0.520623
-32.429111 -29.505711 0.199992 0.740627
-31.342228 -29.135700 0.199993 0.700328
-37.990311 -31.294388 5.550766 0.678431
-37.990314 -31.294390 5.061604 0.678431
-37.990314 -31.294388 4.579310 0.678431
-38.019905 -31.304234 4.107356 0.661357
-38.020058 -31.304283 3.634361 0.590265
-38.020138 -31.304310 3.164898 0.566140
-38.020199 -31.304333 2.697942 0.632532
-39.141659 -31.677397 2.251822 0.608972
-39.141655 -31.677397 1.748179 0.659113
-39.141655 -31.677397 1.243995 0.519738
-39.141655 -31.677397 0.738188 0.589426
-39.141659 -31.677397 0.229657 0.629984
-37.333076 -31.075752 0.000015 0.525856
-34.969231 -30.289392 0.000012 0.531609
-32.447670 -29.450567 0.199991 0.725322
-31.358229 -29.088152 0.199993 0.734874
-37.990311 -31.190334 5.542624 0.678431
-37.990311 -31.190334 5.054584 0.678431
-37.990311 -31.190334 4.573397 0.678431
-38.019894 -31.199945 4.102522 0.637522
-38.020050 -31.199997 3.630612 0.549020
-38.020142 -31.200026 3.162227 0.579034
-38.020199 -31.200047 2.696342 0.593088
-39.141598 -31.564417 2.251243 0.587076
-39.141598 -31.564417 1.748757 0.757366
-39.141602 -31.564417 1.245732 0.482353
-39.141602 -31.564417 0.741086 0.664332
-39.141602 -31.564417 0.233723 0.685145
-37.362476 -30.986336 0.000015 0.524117
-34.993198 -30.216497 0.000012 0.550484
-32.465843 -29.395294 0.199992 0.682826
-31.373901 -29.040495 0.199993 0.688869
-38.011414 -31.093443 5.540236 0.672923
-38.011414 -31.093443 5.052526 0.771313
-38.011414 -31.093443 4.571663 0.559579
-38.019886 -31.096130 4.097814 0.668055
-38.020042 -31.096180 3.626960 0.585077
-38.020138 -31.096210 3.159625 0.464515
-38.020199 -31.096230 2.694783 0.589197
-39.141541 -31.451948 2.250680 0.558038
-39.141541 -31.451946 1.749320 0.681514
-39.141544 -31.451948 1.247423 0.517647
-39.141541 -31.451946 0.743909 0.590448
-39.141544 -31.451948 0.237685 0.482353
-37.391251 -30.896713 0.000015 0.545342
-35.016659 -30.143435 0.000012 0.574060
-32.483631 -29.339897 0.199992 0.699519
-31.389238 -28.992729 0.199993 0.672816
-38.019604 -30.992689 5.534648 0.640345
-38.019684 -30.992714 5.047725 0.766400
-38.019760 -30.992739 4.567633 0.658961
-38.019875 -30.992773 4.093227 0.733104
-38.020031 -30.992821 3.623404 0.702251
-38.020138 -30.992855 3.157090 0.532113
-38.020203 -30.992874 2.693265 0.666270
-39.141487 -31.339975 2.250131 0.557275
-39.141487 -31.339975 1.749869 0.669871
-39.141487 -31.339975 1.249071 0.517647
-39.141487 -31.339975 0.746659 0.667750
-39.141487 -31.339977 0.241543 0.549020
-37.419399 -30.806892 0.000015 0.521996
-35.039604 -30.070210 0.000012 0.540291
-32.501030 -29.284376 0.199992 0.700282
-31.404240 -28.944857 0.199993 0.677836
-38.019592 -30.889782 5.527109 0.626291
-38.019672 -30.889805 5.041224 0.711711
-38.019760 -30.889832 4.562159 0.703075
-38.019875 -30.889866 4.088764 0.672419
-38.020023 -30.889912 3.619941 0.643442
-38.020142 -30.889946 3.154624 0.530083
-38.020203 -30.889965 2.691787 0.635584
-39.141426 -31.228489 2.249597 0.560891
-39.141426 -31.228489 1.750403 0.658228
-39.141426 -31.228489 1.250675 0.714168
-39.141430 -31.228489 0.749336 0.675578
-39.141426 -31.228489 0.245300 0.549020
-37.446922 -30.716879 0.000015 0.531411
-35.062038 -29.996826 0.000012 0.517906
-32.518040 -29.228735 0.199992 0.703944
-31.418907 -28.896881 0.199993 0.744549
-38.019581 -30.787304 5.519773 0.699062
-38.019661 -30.787329 5.034899 0.572152
-38.019760 -30.787357 4.556831 0.613260
-38.019871 -30.787390 4.084420 0.563119
-38.020012 -30.787432 3.616572 0.627512
-38.020138 -30.787468 3.152223 0.577478
-38.020199 -30.787487 2.690348 0.586511
-39.141369 -31.117472 2.249077 0.587381
-39.141365 -31.117470 1.750923 0.681514
-39.141369 -31.117470 1.252236 0.517647
-39.141369 -31.117470 0.751942 0.681620
-39.141373 -31.117472 0.248955 0.549020
-37.473812 -30.626675 0.000015 0.525353
-35.083961 -29.923288 0.000012 0.488991
-32.534664 -29.172976 0.199992 0.746853
-31.433239 -28.848803 0.199993 0.735317
-38.019569 -30.685249 5.512637 0.732204
-38.019650 -30.685272 5.028748 0.618067
-38.019760 -30.685305 4.551651 0.605127
-38.019871 -30.685335 4.080196 0.613169
-38.020004 -30.685373 3.613295 0.729625
-38.020138 -30.685411 3.149888 0.553674
-38.020203 -30.685431 2.688950 0.614359
-39.055305 -30.982246 2.247107 0.709804
-39.107536 -30.997223 1.752004 0.080110
-39.107536 -30.997225 1.255480 0.484886
-39.107536 -30.997225 0.757356 0.049882
-39.107536 -30.997225 0.256552 0.047730
-37.500069 -30.536282 0.000015 0.512093
-35.105370 -29.849600 0.000012 0.543694
-32.550896 -29.117104 0.199992 0.684871
-31.447237 -28.800627 0.199993 0.715984
-38.019554 -30.583601 5.505702 0.620508
-38.019653 -30.583628 5.022770 0.692164
-38.019764 -30.583660 4.546615 0.590997
-38.019875 -30.583691 4.076092 0.740398
-38.019993 -30.583723 3.610110 0.747402
-38.020142 -30.583765 3.147619 0.530999
-38.020199 -30.583780 2.687590 0.682979
-39.055305 -30.872793 2.246619 0.657145
-39.107540 -30.887379 1.752493 0.090501
-39.107544 -30.887379 1.256949 0.064866
-39.107544 -30.887379 0.759808 0.086275
-39.107540 -30.887379 0.259992 0.094759
-37.525700 -30.445711 0.000015 0.541390
-35.126263 -29.775764 0.000012 0.527077
-32.566738 -29.061117 0.199992 0.704555
-31.460896 -28.752356 0.199993 0.725460
-38.019547 -30.482351 5.498965 0.618738
-38.019653 -30.482378 5.016962 0.544274
-38.019764 -30.482409 4.541723 0.523537
-38.019875 -30.482439 4.072104 0.541573
-38.019989 -30.482470 3.607016 0.702800
-38.020138 -30.482510 3.145414 0.667033
-38.020199 -30.482529 2.686269 0.550988
-39.055305 -30.763765 2.246145 0.695735
-39.147911 -30.788925 1.752284 0.395682
-39.147911 -30.788925 1.256322 0.317662
-39.107544 -30.777958 0.762191 0.098833
-39.107544 -30.777958 0.263335 0.129412
-37.550697 -30.354965 0.000015 0.527718
-35.146641 -29.701784 0.000012 0.518242
-32.582191 -29.005024 0.199992 0.724239
-31.474218 -28.703989 0.199993 0.696361
-38.019539 -30.381485 5.492423 0.553582
-38.019653 -30.381514 5.011324 0.530114
-38.019764 -30.381542 4.536973 0.552880
-38.019875 -30.381573 4.068231 0.538460
-38.019981 -30.381601 3.604012 0.631922
-38.020130 -30.381639 3.143272 0.683833
-38.020199 -30.381659 2.684986 0.584466
-39.055305 -30.655151 2.245685 0.666972
-39.147907 -30.679617 1.752747 0.470466
-39.147911 -30.679619 1.257712 0.347189
-39.107544 -30.668953 0.764504 0.112245
-39.107540 -30.668953 0.266581 0.151156
-37.575058 -30.264046 0.000015 0.552605
-35.166500 -29.627663 0.000012 0.540352
-32.597248 -28.948824 0.199992 0.690669
-31.487204 -28.655531 0.199993 0.681346
-38.019539 -30.280989 5.486078 0.524056
-38.019653 -30.281017 5.005853 0.576272
-38.019764 -30.281048 4.532363 0.517647
-38.019875 -30.281075 4.064473 0.598947
-38.019985 -30.281103 3.601098 0.609033
-38.020119 -30.281137 3.141195 0.722316
-38.020199 -30.281158 2.683742 0.577310
-39.055309 -30.546934 2.245239 0.696788
-39.107548 -30.560347 1.753878 0.118410
-39.107544 -30.560347 1.261108 0.074510
-39.107544 -30.560347 0.766749 0.105699
-39.107544 -30.560347 0.269730 0.114244
-37.598785 -30.172956 0.000015 0.557763
-35.185844 -29.553404 0.000012 0.524208
-32.611916 -28.892519 0.199992 0.696986
-31.499849 -28.606983 0.199993 0.675700
-38.019539 -30.180857 5.479925 0.522545
-38.019657 -30.180885 5.000548 0.609308
-38.019768 -30.180912 4.527894 0.523156
-38.019878 -30.180941 4.060830 0.591623
-38.019985 -30.180967 3.598272 0.643320
-38.020111 -30.180998 3.139180 0.689372
-38.020199 -30.181021 2.682535 0.583093
-39.055309 -30.439108 2.244806 0.684276
-39.147911 -30.462196 1.753632 0.568627
-39.147911 -30.462196 1.260368 0.366308
-39.107544 -30.452131 0.768926 0.081407
-39.107544 -30.452131 0.272784 0.149859
-37.621876 -30.081705 0.000016 0.553872
-35.204666 -29.479013 0.000012 0.553979
-32.626186 -28.836113 0.199992 0.697978
-31.512157 -28.558348 0.199993 0.709224
-38.019543 -30.081070 5.473962 0.525612
-38.019657 -30.081097 4.995407 0.552773
-38.019768 -30.081125 4.523562 0.525124
-38.019875 -30.081150 4.057298 0.552544
-38.019981 -30.081177 3.595533 0.615030
-38.020103 -30.081205 3.137227 0.672190
-37.877010 -30.046587 2.674128 0.654902
-39.055309 -30.331654 2.244386 0.658122
-39.147911 -30.354057 1.754054 0.563653
-39.147911 -30.354057 1.261635 0.333684
-39.107544 -30.344292 0.771035 0.078737
-39.107540 -30.344290 0.275744 0.151156
-37.644333 -29.990295 0.000016 0.552346
-35.222973 -29.404493 0.000012 0.522835
-32.640068 -28.779610 0.199992 0.745174
-31.524122 -28.509628 0.199993 0.693095
-38.019547 -29.981621 5.468191 0.636576
-38.019657 -29.981646 4.990429 0.709636
-38.019768 -29.981672 4.519369 0.646616
-38.019878 -29.981697 4.053880 0.551232
-38.019981 -29.981724 3.592882 0.589792
-38.020088 -29.981749 3.135336 0.707118
-37.877449 -29.948292 2.673030 0.661128
-39.055313 -30.224562 2.243981 0.660319
-39.147911 -30.246283 1.754463 0.502098
-39.147911 -30.246281 1.262862 0.302296
-39.107544 -30.236813 0.773078 0.078447
-39.107544 -30.236813 0.278609 0.120241
-37.666145 -29.898729 0.000015 0.555291
-35.240757 -29.329847 0.000012 0.547372
-32.653549 -28.723009 0.199992 0.711452
-31.535751 -28.460827 0.199993 0.762600
-38.019543 -29.882496 5.462604 0.571145
-38.019661 -29.882523 4.985614 0.748760
-38.019768 -29.882545 4.515311 0.579370
-38.019878 -29.882572 4.050572 0.648341
-38.019985 -29.882595 3.590317 0.542580
-38.020092 -29.882620 3.133508 0.679805
-37.877872 -29.850307 2.671968 0.654902
-39.055313 -30.117823 2.243588 0.692317
-39.107544 -30.129688 1.755536 0.107912
-39.107544 -30.129688 1.266083 0.081544
-39.107544 -30.129688 0.775054 0.074510
-39.107540 -30.129688 0.281381 0.074510
-37.687317 -29.807014 0.000016 0.549264
-35.258018 -29.255077 0.000012 0.533959
-32.666641 -28.666317 0.199992 0.708583
-31.547035 -28.411943 0.199993 0.751965
-38.019547 -29.783686 5.457206 0.725261
-38.019661 -29.783710 4.980958 0.686442
-38.019768 -29.783733 4.511390 0.575021
-38.019878 -29.783758 4.047375 0.516625
-38.019981 -29.783781 3.587837 0.564218
-38.020092 -29.783806 3.131740 0.653117
-37.982098 -29.775452 2.676162 0.660975
-39.055309 -30.011417 2.243207 0.823041
-39.055309 -30.011417 1.756792 0.992157
-39.055305 -30.011417 1.269855 0.956863
-39.055309 -30.011417 0.781349 0.956756
-39.055309 -30.011417 0.290214 0.924666
-37.707851 -29.715153 0.000016 0.559167
-35.274761 -29.180191 0.000012 0.521721
-32.679333 -28.609535 0.199992 0.682521
-31.557980 -28.362984 0.199993 0.720668
-38.019547 -29.685177 5.451991 0.768856
-38.019661 -29.685202 4.976462 0.715526
-38.019772 -29.685225 4.507602 0.774075
-38.019882 -29.685249 4.044287 0.550164
-38.019985 -29.685270 3.585442 0.718791
-38.020096 -29.685293 3.130033 0.723323
-38.020199 -29.685316 2.677056 0.549020
-39.140633 -29.923477 2.244268 0.695918
-39.140511 -29.923452 1.755734 0.682109
-39.140404 -29.923429 1.266682 0.562997
-39.140297 -29.923407 0.776062 0.772656
-39.140190 -29.923384 0.282809 0.717006
-37.727745 -29.623152 0.000016 0.520272
-35.290974 -29.105186 0.000013 0.548257
-32.691628 -28.552666 0.199992 0.685893
-31.568583 -28.313950 0.199993 0.683299
-38.019550 -29.586964 5.446960 0.634714
-38.019661 -29.586987 4.972124 0.674601
-38.019768 -29.587008 4.503946 0.695277
-38.019878 -29.587030 4.041307 0.549020
-38.019989 -29.587053 3.583131 0.519768
-38.020092 -29.587074 3.128386 0.688289
-38.020199 -29.587095 2.676069 0.549020
-39.140537 -29.817074 2.243911 0.589090
-39.140411 -29.817049 1.756091 0.637995
-39.140289 -29.817024 1.267757 0.531624
-39.140182 -29.817001 0.777856 0.549020
-39.140076 -29.816980 0.285326 0.702754
-37.746990 -29.531013 0.000016 0.540719
-35.306671 -29.030075 0.000012 0.547799
-32.703529 -28.495712 0.199992 0.676310
-31.578842 -28.264843 0.199993 0.680278
-38.172127 -29.519241 5.481072 0.562081
-38.172142 -29.519243 5.001515 0.576196
-38.172150 -29.519245 4.528689 0.547509
-38.172165 -29.519247 4.061463 0.583017
-38.172173 -29.519249 3.598752 0.670451
-38.172188 -29.519253 3.139512 0.592996
-38.172195 -29.519255 2.682730 0.604654
-39.140438 -29.710978 2.243566 0.602579
-39.140316 -29.710953 1.756436 0.660410
-39.140190 -29.710928 1.268792 0.708019
-39.140064 -29.710903 0.779585 0.549020
-39.139961 -29.710882 0.287752 0.509316
-37.765598 -29.438744 0.000016 0.547417
-35.321835 -28.954853 0.000012 0.566354
-32.715027 -28.438679 0.199992 0.729686
-31.588757 -28.215664 0.199993 0.680156
-38.689869 -29.519238 5.608378 0.708431
-38.689888 -29.519241 5.111284 0.571298
-38.689907 -29.519245 4.621168 0.613642
-38.689926 -29.519249 4.136855 0.703532
-38.689938 -29.519251 3.657222 0.688197
-38.689949 -29.519253 3.181186 0.684886
-38.689960 -29.519255 2.707699 0.716716
-39.140343 -29.605173 2.243234 0.622370
-39.140217 -29.605148 1.756768 0.647593
-39.140091 -29.605125 1.269789 0.712947
-39.139965 -29.605101 0.781249 0.580392
-39.139839 -29.605076 0.290088 0.571786
-37.783558 -29.346344 0.000016 0.528267
-35.336475 -28.879526 0.000013 0.526635
-32.726128 -28.381563 0.199992 0.744457
-31.598330 -28.166418 0.199993 0.719234
-39.246933 -29.519234 5.745535 0.563897
-39.246948 -29.519236 5.229545 0.655482
-39.246967 -29.519239 4.720799 0.605127
-39.246990 -29.519243 4.218079 0.626749
-39.247009 -29.519247 3.720215 0.648417
-39.247032 -29.519251 3.226085 0.695827
-39.247055 -29.519255 2.734600 0.587442
-39.247032 -29.519253 2.244692 0.593591
-39.247005 -29.519247 1.755309 0.652476
-39.246979 -29.519241 1.265403 0.704585
-39.246948 -29.519236 0.773921 0.564569
-39.246922 -29.519232 0.279796 0.649317
-37.800873 -29.253824 0.000016 0.558358
-35.350594 -28.804100 0.000013 0.530159
-32.736832 -28.324373 0.199992 0.663890
-31.607559 -28.117107 0.199993 0.696681
-39.848064 -29.519230 5.893732 0.533822
-39.848076 -29.519232 5.357324 0.611521
-39.848080 -29.519234 4.828447 0.558801
-39.848103 -29.519238 4.305837 0.504540
-39.848125 -29.519241 3.788274 0.529793
-39.848152 -29.519245 3.274595 0.655909
-39.848171 -29.519249 2.763665 0.618006
-39.848167 -29.519249 2.254373 0.566171
-39.848133 -29.519243 1.745628 0.600977
-39.848106 -29.519238 1.236338 0.527550
-39.848080 -29.519234 0.725410 0.685664
-39.848080 -29.519234 0.211731 0.723033
-37.817543 -29.161184 0.000016 0.562631
-35.364182 -28.728577 0.000013 0.529946
-32.747135 -28.267109 0.199992 0.741283
-31.616440 -28.067730 0.199993 0.725841
-40.498760 -29.519228 6.054343 0.595392
-40.498768 -29.519230 5.495811 0.645090
-40.498779 -29.519232 4.945119 0.656229
-40.498787 -29.519232 4.400948 0.625589
-40.498795 -29.519234 3.862036 0.563149
-40.498817 -29.519238 3.327169 0.680079
-40.498848 -29.519243 2.795164 0.612619
-40.498856 -29.519245 2.264865 0.594095
-40.498825 -29.519239 1.735135 0.551797
-40.498821 -29.519238 1.204837 0.691875
-40.498817 -29.519238 0.672831 0.711604
-40.498817 -29.519238 0.137961 0.588266
-37.833561 -29.068430 0.000016 0.529885
-35.377243 -28.652962 0.000013 0.539284
-32.757042 -28.209774 0.199992 0.721202
-31.624983 -28.018295 0.199993 0.653117
-41.205482 -29.519226 6.228992 0.623682
-41.205490 -29.519228 5.646399 0.667430
-41.205498 -29.519228 5.071984 0.659205
-41.205509 -29.519230 4.504373 0.550546
-41.205521 -29.519232 3.942247 0.664378
-41.205528 -29.519234 3.384338 0.575021
-41.019505 -29.489103 2.820157 0.633951
-41.019520 -29.489105 2.273191 0.484627
-41.019440 -29.489094 1.726810 0.670848
-41.019360 -29.489079 1.179850 0.569879
-41.019279 -29.489067 0.631132 0.573953
-41.019196 -29.489054 0.079467 0.300252
-37.848938 -28.975567 0.000016 0.532006
-35.389774 -28.577257 0.000013 0.538659
-32.766544 -28.152372 0.199992 0.714855
-31.633179 -27.968801 0.199993 0.753643
-41.975864 -29.519222 6.419588 0.547829
-41.975876 -29.519224 5.810740 0.707485
-41.975887 -29.519226 5.210437 0.589380
-41.975899 -29.519228 4.617243 0.554101
-41.975906 -29.519228 4.029782 0.536080
-41.975903 -29.519228 3.446727 0.575097
-41.019501 -29.371164 2.819250 0.610193
-41.019520 -29.371166 2.272889 0.267475
-41.019447 -29.371155 1.727113 0.669520
-41.019363 -29.371143 1.180756 0.666636
-41.019287 -29.371130 0.632645 0.673884
-41.019203 -29.371119 0.081589 0.576394
-37.863663 -28.882599 0.000016 0.532296
-35.401779 -28.501467 0.000013 0.556954
-32.775642 -28.094906 0.199992 0.712810
-31.641026 -27.919250 0.199993 0.749599
-42.819016 -29.519218 6.628413 0.670542
-42.819031 -29.519222 5.990796 0.638086
-42.819046 -29.519224 5.362129 0.553628
-42.819046 -29.519224 4.740907 0.633921
-42.819042 -29.519224 4.125687 0.658030
-42.819038 -29.519222 3.515083 0.650370
-41.019505 -29.253481 2.818386 0.630579
-41.019516 -29.253483 2.272600 0.271931
-41.019455 -29.253475 1.727400 0.666667
-41.019375 -29.253462 1.181620 0.654902
-41.019295 -29.253450 0.634087 0.654902
-41.019211 -29.253439 0.083613 0.580392
-37.877739 -28.789530 0.000016 0.559701
-35.413254 -28.425594 0.000013 0.524712
-32.784348 -28.037376 0.199992 0.672175
-31.648525 -27.869648 0.199993 0.723964
-43.745842 -29.519215 6.858199 0.618341
-43.745857 -29.519218 6.188926 0.571649
-43.745865 -29.519218 5.529046 0.555184
-43.745861 -29.519218 4.876982 0.571405
-43.745857 -29.519218 4.231218 0.633799
-43.745842 -29.519217 3.590301 0.638392
-41.019501 -29.136040 2.817563 0.623652
-41.019508 -29.136040 2.272326 0.271199
-41.019463 -29.136034 1.727674 0.669215
-41.019379 -29.136023 1.182443 0.666667
-41.019299 -29.136011 0.635460 0.647410
-41.019222 -29.136000 0.085538 0.549020
-37.891163 -28.696363 0.000016 0.543420
-35.424202 -28.349642 0.000013 0.537591
-32.792645 -27.979788 0.199992 0.679789
-31.655684 -27.819992 0.199993 0.650141
-44.522995 -29.486311 7.049946 0.678431
-44.769577 -29.519213 6.407983 0.532769
-44.769569 -29.519211 5.713593 0.721675
-44.769566 -29.519211 5.027430 0.556756
-44.769554 -29.519211 4.347897 0.572366
-44.769547 -29.519209 3.673463 0.674739
-41.019505 -29.018827 2.816782 0.633555
-41.019501 -29.018827 2.272066 0.297398
-41.019470 -29.018824 1.727934 0.666667
-41.019386 -29.018812 1.183224 0.657023
-41.019310 -29.018801 0.636763 0.229313
-41.019226 -29.018791 0.087368 0.573953
-37.903938 -28.603107 0.000016 0.521706
-35.434612 -28.273615 0.000013 0.551385
-32.800541 -27.922142 0.199992 0.672847
-31.662491 -27.770288 0.199993 0.726589
-44.775433 -29.376339 7.109105 0.666484
nan nan nan 0.000000
nan nan nan 0.000000
nan nan nan 0.000000
nan nan nan 0.000000
nan nan nan 0.000000
-41.019505 -28.901834 2.816041 0.681132
-41.019497 -28.901834 2.271819 0.300984
-41.019478 -28.901831 1.728181 0.669566
-41.019394 -28.901821 1.183964 0.654902
-41.019314 -28.901810 0.637999 0.649943
-41.019234 -28.901800 0.089101 0.580392
-37.916061 -28.509764 0.000016 0.523507
-35.444496 -28.197519 0.000013 0.536995
-32.808037 -27.864445 0.199991 0.679026
-31.668953 -27.720539 0.199993 0.673487
-45.032974 -29.263645 7.169694 0.652369
nan nan nan 0.000000
nan nan nan 0.000000
nan nan nan 0.000000
nan nan nan 0.000000
nan nan nan 0.000000
-41.019508 -28.785049 2.815342 0.659739
-41.019489 -28.785046 2.271586 0.304021
-41.019485 -28.785046 1.728414 0.666667
-41.019402 -28.785036 1.184663 0.666667
-41.019318 -28.785027 0.639165 0.665156
-41.019241 -28.785017 0.090737 0.580392
-37.927532 -28.416338 0.000016 0.521752
-35.453846 -28.121357 0.000013 0.504616
-32.815125 -27.806694 0.199992 0.682475
-31.675068 -27.670746 0.199993 0.679057
nan nan nan 0.000000
nan nan nan 0.000000
nan nan nan 0.000000
nan nan nan 0.000000
nan nan nan 0.000000
nan nan nan 0.000000
-41.019505 -28.668455 2.814684 0.676097
-41.019482 -28.668453 2.271367 0.273960
-41.019482 -28.668453 1.728633 0.666667
