# This PCD file was generated using the MATLABÂ® pcwrite function
# from Computer Vision ToolboxÂ®.
# .PCD v.7 - Point Cloud Data file format
VERSION .7
FIELDS x y z intensity
SIZE 4 4 4 4
TYPE F F F F
COUNT 1 1 1 1
WIDTH 1312
HEIGHT 1
VIEWPOINT 0 0 0 1 0 0 0
POINTS 1312
DATA ascii
nan nan nan 0.000000
nan nan nan 0.000000
32.705345 68.924103 5.697072 0.957321
32.940285 69.133728 3.236630 0.713726
32.871571 69.072418 0.764877 0.956100
6.929548 45.926426 -0.000038 0.540108
-5.247858 35.061501 -0.000023 0.539651
-10.476020 30.396828 -0.000015 0.539528
-14.393930 26.901190 0.200001 0.745235
-16.066967 25.408474 0.200006 0.751690
-17.229725 24.371037 0.199993 0.736248
-18.086466 23.606636 0.200005 0.676295
nan nan nan 0.000000
nan nan nan 0.000000
nan nan nan 0.000000
nan nan nan 0.000000
nan nan nan 0.000000
nan nan nan 0.000000
33.558109 68.974571 5.730074 0.821576
33.739029 69.133736 3.246413 0.713726
33.669315 69.072403 0.755106 0.962463
7.118044 45.713699 -0.000039 0.539071
-5.134935 34.934036 -0.000022 0.532845
-10.395533 30.305981 -0.000015 0.524041
-14.337755 26.837776 0.200001 0.757626
-16.021172 25.356777 0.200007 0.675807
-17.191139 24.327488 0.199993 0.673533
-18.053198 23.569084 0.200005 0.739971
nan nan nan 0.000000
nan nan nan 0.000000
nan nan nan 0.000000
nan nan nan 0.000000
nan nan nan 0.000000
nan nan nan 0.000000
34.367023 68.974564 5.760002 0.867918
34.550514 69.133728 3.256413 0.713726
34.479801 69.072388 0.745118 0.952331
7.305021 45.499641 -0.000038 0.544060
-5.022903 34.805794 -0.000022 0.519677
-10.315678 30.214581 -0.000016 0.543954
-14.282025 26.773975 0.200002 0.715511
-15.975735 25.304768 0.200007 0.690196
-17.152861 24.283669 0.199993 0.719539
-18.020193 23.531303 0.200005 0.680613
nan nan nan 0.000000
nan nan nan 0.000000
nan nan nan 0.000000
nan nan nan 0.000000
nan nan nan 0.000000
nan nan nan 0.000000
35.189102 68.974571 5.790601 0.859007
35.371471 69.130554 3.266558 0.939727
35.303448 69.072372 0.734907 0.951934
7.490515 45.284294 -0.000038 0.538369
-4.911768 34.676773 -0.000022 0.557153
-10.236467 30.122618 -0.000016 0.545357
-14.226743 26.709782 0.200003 0.718929
-15.930661 25.252441 0.200006 0.749996
-17.114891 24.239584 0.199993 0.707485
-17.987452 23.493294 0.200004 0.692271
nan nan nan 0.000000
nan nan nan 0.000000
nan nan nan 0.000000
nan nan nan 0.000000
nan nan nan 0.000000
nan nan nan 0.000000
36.024685 68.974564 5.821892 0.826230
36.213409 69.133705 3.277093 0.713726
36.140705 69.072395 0.724463 0.952178
7.674507 45.067665 -0.000039 0.539483
-4.801540 34.546974 -0.000022 0.533059
-10.157904 30.030104 -0.000015 0.541100
-14.171910 26.645205 0.200004 0.679484
-15.885958 25.199799 0.200007 0.697322
-17.077225 24.195236 0.199993 0.667628
-17.954979 23.455053 0.200005 0.670115
nan nan nan 0.000000
nan nan nan 0.000000
nan nan nan 0.000000
nan nan nan 0.000000
nan nan nan 0.000000
nan nan nan 0.000000
36.874222 68.974564 5.853889 0.844739
37.065647 69.133705 3.287786 0.713726
36.991905 69.072395 0.713783 0.953857
7.856958 44.849739 -0.000038 0.540444
-4.692215 34.416412 -0.000022 0.546044
-10.079985 29.937046 -0.000015 0.543603
-13.080673 27.442287 -0.000011 0.532769
-15.841618 25.146851 0.200006 0.682658
-17.039875 24.150625 0.199993 0.737072
-17.922771 23.416590 0.200005 0.781460
nan nan nan 0.000000
nan nan nan 0.000000
nan nan nan 0.000000
nan nan nan 0.000000
nan nan nan 0.000000
nan nan nan 0.000000
37.738167 68.974564 5.886621 0.843992
37.932323 69.133705 3.298724 0.713726
37.857536 69.072411 0.702859 0.958770
8.037889 44.630547 -0.000038 0.543481
-4.583815 34.285084 -0.000022 0.556466
-10.002720 29.843445 -0.000015 0.547066
-13.020748 27.369698 -0.000011 0.529671
-15.797651 25.093592 0.200006 0.766598
-17.002832 24.105757 0.199993 0.639628
-17.890833 23.377901 0.200005 0.703243
nan nan nan 0.000000
nan nan nan 0.000000
nan nan nan 0.000000
nan nan nan 0.000000
nan nan nan 0.000000
nan nan nan 0.000000
38.616955 68.974579 5.920106 0.807095
38.813881 69.133705 3.309911 0.713726
38.738029 69.072411 0.691683 0.958953
8.217299 44.410103 -0.000038 0.539849
-4.476328 34.153008 -0.000022 0.546242
-9.926106 29.749310 -0.000015 0.526787
-12.961332 27.296692 -0.000011 0.528023
-15.754055 25.040028 0.200006 0.719890
-16.966108 24.060629 0.199993 0.672786
-17.859165 23.338993 0.200004 0.749340
nan nan nan 0.000000
nan nan nan 0.000000
nan nan nan 0.000000
nan nan nan 0.000000
nan nan nan 0.000000
nan nan nan 0.000000
39.511047 68.974571 5.954367 0.859098
39.655029 69.089272 3.320194 0.433082
39.633873 69.072411 0.680250 0.907561
8.395145 44.188400 -0.000037 0.538613
-4.369764 34.020184 -0.000022 0.536751
-9.850159 29.654634 -0.000015 0.543694
-12.902430 27.223270 -0.000011 0.539773
-15.710838 24.986160 0.200006 0.682322
-16.929699 24.015245 0.199993 0.687846
-17.827772 23.299862 0.200005 0.677440
nan nan nan 0.000000
nan nan nan 0.000000
nan nan nan 0.000000
nan nan nan 0.000000
nan nan nan 0.000000
nan nan nan 0.000000
40.420937 68.974579 5.989427 0.867918
40.623653 69.133751 3.333078 0.713726
40.545456 69.072350 0.668550 0.945312
8.571457 43.965485 -0.000037 0.544823
-4.264135 33.886620 -0.000022 0.541802
-9.774871 29.559437 -0.000015 0.554925
-12.844041 27.149441 -0.000011 0.565866
-15.667995 24.931992 0.200005 0.751614
-16.893604 23.969610 0.199993 0.719173
-17.796652 23.260513 0.200005 0.718303
nan nan nan 0.000000
nan nan nan 0.000000
nan nan nan 0.000000
nan nan nan 0.000000
nan nan nan 0.000000
nan nan nan 0.000000
41.347179 68.974579 6.025316 0.870588
41.552830 69.133751 3.345068 0.713726
41.473522 69.072365 0.656572 0.956680
8.746204 43.741325 -0.000037 0.546563
-4.159431 33.752323 -0.000022 0.540627
-9.700244 29.463718 -0.000015 0.546807
-12.786167 27.075203 -0.000010 0.523598
-15.625534 24.877525 0.200006 0.754040
-16.857834 23.923721 0.199994 0.672343
-17.765808 23.220947 0.200005 0.676539
nan nan nan 0.000000
nan nan nan 0.000000
nan nan nan 0.000000
nan nan nan 0.000000
nan nan nan 0.000000
nan nan nan 0.000000
42.290264 68.974579 6.062051 0.864485
42.498890 69.133728 3.357345 0.713726
42.418438 69.072357 0.644311 0.931167
8.919376 43.515953 -0.000037 0.538582
-4.055674 33.617298 -0.000021 0.550988
-9.626288 29.367481 -0.000015 0.519570
-12.728809 27.000568 -0.000011 0.514214
-15.583452 24.822765 0.200005 0.643915
-16.822380 23.877588 0.199993 0.669306
-17.735241 23.181168 0.200005 0.737545
nan nan nan 0.000000
nan nan nan 0.000000
nan nan nan 0.000000
nan nan nan 0.000000
nan nan nan 0.000000
nan nan nan 0.000000
43.250790 68.974579 6.099668 0.854215
43.462452 69.133728 3.369913 0.713726
43.380840 69.072365 0.631758 0.948714
9.090992 43.289391 -0.000037 0.547860
-3.952864 33.481548 -0.000021 0.540154
-9.553006 29.270727 -0.000015 0.527108
-12.671980 26.925529 -0.000011 0.535760
-15.541756 24.767710 0.200005 0.683528
-16.787251 23.831205 0.199993 0.755215
-17.704948 23.141176 0.200005 0.671458
nan nan nan 0.000000
nan nan nan 0.000000
nan nan nan 0.000000
nan nan nan 0.000000
nan nan nan 0.000000
nan nan nan 0.000000
44.229298 68.974594 6.138190 0.861051
44.444012 69.133698 3.382784 0.713726
44.361340 69.072441 0.618899 0.956008
9.260994 43.061623 -0.000036 0.541741
-3.851004 33.345089 -0.000021 0.547234
-9.480408 29.173466 -0.000015 0.533608
-12.615677 26.850100 -0.000010 0.551522
-14.617270 25.366837 -0.000008 0.539651
-16.752449 23.784580 0.199993 0.668864
-17.674942 23.100975 0.200005 0.685878
nan nan nan 0.000000
nan nan nan 0.000000
nan nan nan 0.000000
nan nan nan 0.000000
nan nan nan 0.000000
nan nan nan 0.000000
45.226452 68.974602 6.177650 0.851041
45.444302 69.133698 3.395971 0.713726
45.360394 69.072418 0.605731 0.955261
9.429420 42.832676 -0.000036 0.543404
-3.750095 33.207916 -0.000021 0.536355
-9.408484 29.075697 -0.000015 0.559442
-12.559896 26.774279 -0.000011 0.512428
-14.571795 25.305025 -0.000008 0.531106
-16.717968 23.737713 0.199993 0.731655
-17.645212 23.060564 0.200004 0.679164
nan nan nan 0.000000
nan nan nan 0.000000
nan nan nan 0.000000
nan nan nan 0.000000
nan nan nan 0.000000
nan nan nan 0.000000
46.242809 68.974594 6.218077 0.731655
46.463871 69.133682 3.409477 0.713726
46.378712 69.072395 0.592240 0.953521
9.596222 42.602554 -0.000036 0.539696
-3.650148 33.070045 -0.000021 0.533959
-9.337254 28.977428 -0.000014 0.558389
-12.504651 26.698067 -0.000010 0.532662
-14.526756 25.242897 -0.000008 0.550881
-16.683819 23.690607 0.199993 0.718105
-17.615767 23.019947 0.200005 0.779736
nan nan nan 0.000000
nan nan nan 0.000000
nan nan nan 0.000000
nan nan nan 0.000000
nan nan nan 0.000000
nan nan nan 0.000000
47.279095 68.974594 6.259501 0.718425
47.486530 69.121681 3.422980 0.961288
47.417011 69.072380 0.578413 0.249027
9.761433 42.371277 -0.000035 0.537041
-3.551167 32.931480 -0.000021 0.538857
-9.266702 28.878666 -0.000014 0.548806
-12.449935 26.621475 -0.000010 0.538872
-14.482154 25.180454 -0.000008 0.523812
-16.649998 23.643263 0.199993 0.682246
-17.586605 22.979126 0.200005 0.671077
nan nan nan 0.000000
nan nan nan 0.000000
nan nan nan 0.000000
nan nan nan 0.000000
nan nan nan 0.000000
nan nan nan 0.000000
48.336018 68.974602 6.301962 0.730098
48.335995 68.974586 3.432962 0.734813
16.708588 46.878178 1.198384 0.073838
9.925022 42.138855 -0.000036 0.539864
-3.453150 32.792229 -0.000021 0.540810
-9.196839 28.779415 -0.000014 0.526390
-12.395755 26.544502 -0.000011 0.544030
-14.437984 25.117702 -0.000008 0.539040
-16.616508 23.595682 0.199993 0.745480
-17.557730 22.938101 0.200004 0.672435
nan nan nan 0.000000
nan nan nan 0.000000
nan nan nan 0.000000
nan nan nan 0.000000
nan nan nan 0.000000
nan nan nan 0.000000
49.414234 68.974602 6.345490 0.683070
49.414150 68.974541 3.447460 0.726604
17.311733 46.878166 1.190273 0.137453
10.086987 41.905304 -0.000036 0.539574
-3.356123 32.652290 -0.000021 0.532280
-9.127680 28.679676 -0.000014 0.523095
-12.342118 26.467152 -0.000010 0.522728
-14.394259 25.054644 -0.000008 0.498741
-16.583353 23.547871 0.199993 0.678233
-17.529142 22.896875 0.200004 0.680003
nan nan nan 0.000000
nan nan nan 0.000000
nan nan nan 0.000000
nan nan nan 0.000000
nan nan nan 0.000000
nan nan nan 0.000000
50.514568 68.974586 6.390124 0.737499
51.186298 69.430069 3.475611 0.713726
17.961559 46.901405 1.181278 0.678431
10.247311 41.670609 -0.000035 0.539162
-3.260069 32.511681 -0.000020 0.530968
-9.059214 28.579456 -0.000014 0.526253
-12.289021 26.389425 -0.000010 0.544915
-14.350969 24.991283 -0.000008 0.539513
-16.550531 23.499828 0.199993 0.675929
-17.500843 22.855452 0.200004 0.765652
nan nan nan 0.000000
nan nan nan 0.000000
nan nan nan 0.000000
nan nan nan 0.000000
nan nan nan 0.000000
nan nan nan 0.000000
52.417904 69.495659 6.481990 0.736934
52.065617 69.260345 3.485997 0.695384
18.590855 46.901695 1.172733 0.678431
10.405987 41.434814 -0.000035 0.536217
-3.164989 32.370407 -0.000020 0.538155
-8.991449 28.478767 -0.000014 0.535058
-12.236467 26.311335 -0.000010 0.563378
-14.308125 24.927620 -0.000008 0.547906
-16.518045 23.451559 0.199993 0.696498
-17.472834 22.813831 0.200004 0.712825
nan nan nan 0.000000
nan nan nan 0.000000
nan nan nan 0.000000
nan nan nan 0.000000
nan nan nan 0.000000
nan nan nan 0.000000
nan nan nan 0.000000
nan nan nan 0.000000
19.233475 46.901993 1.163965 0.678431
10.563034 41.197914 -0.000035 0.542840
-3.070900 32.228474 -0.000020 0.547738
-8.924391 28.377602 -0.000014 0.549340
-12.184460 26.232876 -0.000010 0.545357
-14.265729 24.863659 -0.000008 0.539666
-16.485897 23.403063 0.199993 0.754376
-17.445114 22.772017 0.200005 0.754208
nan nan nan 0.000000
nan nan nan 0.000000
nan nan nan 0.000000
nan nan nan 0.000000
nan nan nan 0.000000
nan nan nan 0.000000
nan nan nan 0.000000
nan nan nan 0.000000
19.889866 46.902294 1.154968 0.678431
10.718403 40.959923 -0.000034 0.534203
-2.977802 32.085892 -0.000020 0.536187
-8.858036 28.275974 -0.000014 0.535698
-12.133002 26.154060 -0.000010 0.547219
-14.223777 24.799406 -0.000008 0.516289
-16.454088 23.354345 0.199993 0.708049
-17.417688 22.730011 0.200004 0.707729
nan nan nan 0.000000
nan nan nan 0.000000
nan nan nan 0.000000
nan nan nan 0.000000
nan nan nan 0.000000
nan nan nan 0.000000
nan nan nan 0.000000
nan nan nan 0.000000
nan nan nan 0.000000
10.872120 40.720856 -0.000035 0.534051
-2.885710 31.942652 -0.000020 0.541955
-8.792397 28.173882 -0.000014 0.526925
-12.082091 26.074886 -0.000010 0.545678
-14.182279 24.734859 -0.000007 0.531853
-15.641981 23.803493 -0.000006 0.561181
-17.390554 22.687813 0.200004 0.719844
nan nan nan 0.000000
nan nan nan 0.000000
nan nan nan 0.000000
nan nan nan 0.000000
nan nan nan 0.000000
nan nan nan 0.000000
nan nan nan 0.000000
nan nan nan 0.000000
nan nan nan 0.000000
11.024147 40.480721 -0.000034 0.543648
-2.794624 31.798779 -0.000020 0.528954
-8.727475 28.071335 -0.000013 0.563241
-12.031740 25.995358 -0.000010 0.526375
-14.141227 24.670029 -0.000008 0.516472
-15.607398 23.748875 -0.000006 0.547906
-17.363720 22.645428 0.200004 0.676539
nan nan nan 0.000000
nan nan nan 0.000000
nan nan nan 0.000000
nan nan nan 0.000000
nan nan nan 0.000000
nan nan nan 0.000000
nan nan nan 0.000000
nan nan nan 0.000000
nan nan nan 0.000000
11.174503 40.239525 -0.000034 0.536202
-2.704538 31.654268 -0.000019 0.527214
-8.663263 27.968340 -0.000013 0.527733
-11.981945 25.915478 -0.000010 0.552087
-14.100631 24.604908 -0.000008 0.522530
-15.573198 23.694012 -0.000006 0.562280
-17.337179 22.602854 0.200004 0.726040
nan nan nan 0.000000
nan nan nan 0.000000
nan nan nan 0.000000
nan nan nan 0.000000
nan nan nan 0.000000
nan nan nan 0.000000
nan nan nan 0.000000
nan nan nan 0.000000
nan nan nan 0.000000
11.323177 39.997292 -0.000034 0.548028
-2.615458 31.509140 -0.000020 0.544762
-8.599774 27.864899 -0.000014 0.535683
-11.932705 25.835257 -0.000010 0.551110
-14.060490 24.539509 -0.000008 0.546700
-15.539381 23.638914 -0.000006 0.555886
-17.310936 22.560099 0.200004 0.699916
nan nan nan 0.000000
nan nan nan 0.000000
nan nan nan 0.000000
nan nan nan 0.000000
nan nan nan 0.000000
nan nan nan 0.000000
nan nan nan 0.000000
nan nan nan 0.000000
nan nan nan 0.000000
11.470146 39.754017 -0.000033 0.545953
-2.527401 31.363388 -0.000019 0.530480
-8.537012 27.761013 -0.000013 0.519646
-11.884031 25.754688 -0.000009 0.530510
-14.020810 24.473827 -0.000007 0.537057
-15.505951 23.583580 -0.000006 0.591165
-17.284992 22.517160 0.200004 0.704189
-38.097267 10.179974 6.260354 0.536034
-38.097275 10.179971 5.673439 0.667918
-38.097275 10.179972 5.094764 0.654200
-38.097275 10.179972 4.522942 0.527199
-38.097271 10.179972 3.956646 0.580636
-38.097271 10.179974 3.394600 0.698009
-38.097275 10.179971 2.835564 0.556420
-39.140793 9.564309 2.298149 0.703777
-39.107544 9.583926 1.702483 0.121141
-39.107544 9.583926 1.106811 0.086275
-39.107544 9.583926 0.509219 0.092653
-38.421741 9.988540 0.000014 0.555398
-35.060883 11.971397 0.000011 0.532448
-31.968588 13.795807 0.200006 0.686900
-30.626461 14.587642 0.199994 0.663233
-29.637594 15.171058 0.199997 0.682643
-38.333752 10.179972 6.311478 0.586435
-38.333755 10.179970 5.717520 0.825864
-38.333752 10.179971 5.131900 0.717449
-38.333752 10.179972 4.553217 0.778378
-38.333755 10.179970 3.980126 0.569329
-38.333755 10.179971 3.411335 0.777752
-38.333755 10.179969 2.845591 0.519432
-39.140701 9.711447 2.296931 0.807401
-39.140572 9.711521 1.703071 0.669001
-39.140442 9.711596 1.108584 0.552529
-39.140316 9.711671 0.512191 0.728069
-38.483047 10.093287 0.000014 0.547677
-35.108429 12.052635 0.000011 0.512764
-32.003471 13.855412 0.200006 0.741436
-30.655851 14.637856 0.199994 0.744106
-29.662933 15.214355 0.199997 0.794903
-38.575989 10.179973 6.364058 0.566369
-38.575989 10.179973 5.762855 0.661494
-38.575989 10.179972 5.170094 0.527886
-38.575993 10.179968 4.584354 0.596216
-38.575993 10.179968 4.004275 0.552773
-38.575996 10.179967 3.428548 0.524727
-38.575993 10.179969 2.855903 0.553750
-39.140575 9.857413 2.295737 0.584772
-39.140423 9.857501 1.704265 0.763424
-39.140282 9.857581 1.112170 0.699733
-39.140156 9.857654 0.518177 0.547539
-38.543617 10.198464 0.000015 0.532845
-35.155407 12.134201 0.000011 0.527047
-32.037941 13.915257 0.200006 0.712459
-30.684887 14.688276 0.199994 0.680980
-29.687973 15.257829 0.199997 0.662196
-38.824211 10.179974 6.418152 0.523369
-38.824207 10.179976 5.809497 0.633539
-38.824215 10.179972 5.209389 0.538231
-38.824219 10.179971 4.616388 0.598749
-38.824219 10.179968 4.029119 0.768673
-38.824223 10.179966 3.446255 0.638880
-38.824226 10.179965 2.866513 0.752712
-39.140442 10.002222 2.294567 0.617594
-39.140289 10.002309 1.705436 0.698436
-39.140137 10.002395 1.115684 0.673838
-39.139996 10.002474 0.524042 0.582895
-38.603458 10.304058 0.000015 0.543160
-35.201813 12.216094 0.000011 0.547723
-32.071987 13.975342 0.200006 0.672236
-30.713573 14.738895 0.199994 0.677607
-29.712708 15.301475 0.199997 0.675563
-39.078690 10.179970 6.473828 0.624674
-39.078682 10.179975 5.857502 0.578714
-39.078682 10.179974 5.249831 0.733562
-39.078686 10.179971 4.649358 0.709728
-39.078690 10.179969 4.054688 0.515221
-39.078693 10.179968 3.464480 0.736294
-39.078697 10.179966 2.877432 0.642634
-39.140312 10.145898 2.293421 0.581109
-39.140160 10.145981 1.706582 0.688365
-39.140007 10.146065 1.119126 0.693797
-39.139854 10.146149 0.529789 0.637812
-38.662563 10.410064 0.000014 0.551934
-35.247650 12.298307 0.000011 0.538750
-32.105618 14.035664 0.200006 0.668467
-30.741909 14.789713 0.199994 0.706508
-29.737139 15.345292 0.199996 0.697490
-39.339664 10.179971 6.531147 0.690410
-39.339661 10.179975 5.906924 0.699687
-39.339657 10.179976 5.291468 0.658106
-39.339661 10.179975 4.683301 0.520287
-39.339668 10.179971 4.081012 0.664057
-39.339672 10.179968 3.483243 0.692821
-39.339672 10.179968 2.888673 0.528496
-39.339676 10.179965 2.296013 0.636728
-39.339672 10.179968 1.703987 0.684642
-39.339664 10.179972 1.111327 0.663020
-39.339664 10.179973 0.516757 0.712352
-38.720921 10.516481 0.000014 0.532967
-35.292908 12.380840 0.000011 0.507225
-32.138824 14.096218 0.200006 0.723415
-30.769886 14.840729 0.199994 0.698650
-29.761261 15.389280 0.199996 0.731441
-39.607433 10.179972 6.590181 0.518624
-39.607430 10.179973 5.957827 0.540993
-39.607430 10.179974 5.334352 0.690623
-39.607426 10.179976 4.718260 0.620645
-39.607426 10.179976 4.108124 0.703716
-39.607437 10.179972 3.502566 0.583230
-39.607441 10.179968 2.900251 0.566476
-39.607445 10.179966 2.299869 0.584924
-39.607437 10.179968 1.700131 0.566827
-39.607437 10.179970 1.099749 0.642924
-39.607433 10.179972 0.497433 0.621332
-38.778534 10.623306 0.000015 0.536873
-35.337593 12.463686 0.000011 0.519722
-32.171608 14.157003 0.200006 0.687404
-30.797504 14.891940 0.199994 0.731197
-29.785076 15.433435 0.199996 0.658381
-39.882282 10.179973 6.651003 0.665522
-39.882278 10.179974 6.010270 0.673915
-39.882278 10.179976 5.378532 0.785153
-39.882278 10.179976 4.754278 0.660716
-39.882275 10.179976 4.136057 0.519585
-39.882282 10.179973 3.522476 0.687724
-39.882286 10.179970 2.912180 0.727245
-39.882294 10.179965 2.303843 0.669581
-39.882294 10.179968 1.696157 0.591516
-39.882286 10.179970 1.087820 0.591714
-39.882290 10.179969 0.477523 0.664958
-38.835400 10.730530 0.000015 0.534539
-35.381695 12.546843 0.000011 0.541741
-32.203968 14.218016 0.200006 0.773800
-30.824766 14.943340 0.199994 0.666285
-29.808582 15.477755 0.199996 0.785168
-40.164532 10.179971 6.713692 0.646143
-40.164528 10.179973 6.064322 0.555215
-40.164528 10.179976 5.424070 0.521416
-40.164520 10.179976 4.791402 0.567498
-40.164520 10.179979 4.164848 0.660136
-40.164520 10.179976 3.542996 0.647410
-40.164536 10.179971 2.924474 0.712413
-40.164547 10.179963 2.307939 0.773266
-40.164543 10.179966 1.692062 0.583139
-40.164543 10.179967 1.075525 0.576501
-40.164536 10.179968 0.457002 0.550301
-38.891518 10.838150 0.000015 0.544701
-35.425217 12.630304 0.000011 0.540047
-32.235901 14.279253 0.200006 0.696757
-30.851669 14.994931 0.199994 0.739071
-29.831778 15.522238 0.199996 0.638422
-40.454498 10.179973 6.778328 0.680980
-40.454502 10.179974 6.120055 0.598245
-40.454494 10.179976 5.471023 0.573648
-40.454491 10.179977 4.829679 0.633539
-40.454494 10.179976 4.194534 0.589593
-40.454494 10.179976 3.564155 0.639460
-40.454498 10.179973 2.937151 0.672801
-40.454517 10.179965 2.312161 0.615778
-40.454514 10.179966 1.687839 0.606134
-40.454514 10.179967 1.062848 0.552392
-40.454517 10.179965 0.435843 0.577478
-38.946884 10.946154 0.000014 0.556283
-35.468155 12.714067 0.000011 0.542412
-32.267403 14.340712 0.200006 0.662486
-30.878208 15.046709 0.199994 0.660136
-29.854662 15.566883 0.199996 0.706538
-40.752560 10.179970 6.845004 0.581628
-40.752552 10.179973 6.177544 0.522286
-40.752548 10.179974 5.519456 0.549020
-40.752544 10.179976 4.869163 0.553246
-40.752544 10.179976 4.225155 0.651881
-40.752541 10.179979 3.585979 0.705852
-40.752552 10.179973 2.950228 0.695384
-40.752571 10.179963 2.316516 0.547234
-40.752571 10.179963 1.683483 0.652979
-40.752571 10.179961 1.049771 0.629938
-40.752571 10.179965 0.414017 0.679774
-39.001492 11.054544 0.000015 0.528206
-35.510506 12.798130 0.000012 0.547570
-32.298477 14.402388 0.200006 0.767300
-30.904388 15.098670 0.199994 0.771405
-29.877235 15.611685 0.199996 0.659419
-41.059059 10.179973 6.913807 0.619120
-41.059059 10.179971 6.236871 0.657481
-41.059052 10.179975 5.569436 0.519554
-41.059052 10.179974 4.909908 0.698421
-41.059044 10.179977 4.256755 0.668116
-41.059040 10.179979 3.608502 0.612757
-41.019501 10.199386 2.961557 0.695949
-41.019527 10.199371 2.320291 0.516655
-41.019428 10.199419 1.679711 0.492302
-41.019333 10.199468 1.038451 0.417777
-41.019241 10.199512 0.395133 0.467475
-39.055340 11.163318 0.000015 0.532906
-35.552265 12.882488 0.000012 0.547402
-32.329117 14.464281 0.200007 0.704097
-30.930204 15.150812 0.199994 0.685420
-29.899496 15.656644 0.199996 0.790234
-41.374413 10.179969 6.984842 0.776516
-41.374405 10.179972 6.298117 0.751553
-41.374401 10.179972 5.621036 0.594232
-41.374397 10.179975 4.951973 0.692546
-41.374390 10.179977 4.289377 0.626169
-41.374390 10.179977 3.631754 0.712703
-41.019501 10.351079 2.958298 0.577554
-41.019520 10.351070 2.319205 0.547356
-41.019440 10.351110 1.680797 0.666667
-41.019348 10.351154 1.041711 0.666667
-41.019249 10.351200 0.400573 0.623621
-39.108429 11.272458 0.000015 0.537224
-35.593441 12.967130 0.000012 0.551736
-32.359329 14.526384 0.200006 0.674144
-30.955656 15.203134 0.199994 0.731456
-29.921440 15.701757 0.199996 0.687007
-37.118683 12.348997 5.788752 0.654902
-41.699017 10.179972 6.361377 0.650446
-41.699009 10.179976 5.674330 0.550851
-41.699005 10.179978 4.995419 0.595666
-41.699005 10.179977 4.323072 0.668040
-41.698997 10.179980 3.655770 0.553674
-41.019501 10.501758 2.955106 0.555947
-41.019508 10.501753 2.318142 0.560449
-41.019451 10.501781 1.681860 0.666667
-41.019356 10.501826 1.044901 0.655406
-41.019260 10.501871 0.405898 0.643336
-39.160759 11.381969 0.000015 0.534020
-35.634026 13.052059 0.000012 0.550393
-32.389103 14.588699 0.200007 0.674159
-30.980742 15.255630 0.199994 0.716075
-29.943068 15.747023 0.199996 0.740993
-37.118683 12.465452 5.776358 0.653254
-42.033348 10.179971 6.426745 0.552911
-42.033340 10.179974 5.729401 0.550088
-42.033340 10.179974 5.040317 0.543084
-42.033333 10.179976 4.357891 0.530282
-42.033325 10.179979 3.680586 0.612039
-41.019501 10.651443 2.951982 0.541466
-41.019505 10.651441 2.317101 0.588251
-41.019463 10.651462 1.682900 0.666667
-41.019363 10.651506 1.048025 0.656077
-41.019272 10.651549 0.411112 0.652277
-39.212318 11.491842 0.000015 0.560235
-35.674011 13.137272 0.000012 0.539239
-32.418442 14.651220 0.200007 0.689006
-31.005459 15.308303 0.199993 0.675761
-29.964380 15.792439 0.199997 0.692058
-37.118679 12.581154 5.764228 0.654902
-42.377865 10.179970 6.494325 0.653941
-42.377865 10.179972 5.786335 0.559030
-42.377861 10.179973 5.086731 0.567407
-42.377853 10.179976 4.393888 0.541817
-42.377846 10.179978 3.706243 0.562203
-41.019501 10.800158 2.948925 0.631189
-41.019493 10.800162 2.316082 0.653178
-41.019470 10.800172 1.683918 0.667582
-41.019375 10.800216 1.051082 0.666712
-41.019279 10.800259 0.416214 0.645411
-39.263115 11.602072 0.000015 0.539178
-35.713402 13.222759 0.000012 0.526604
-32.447342 14.713943 0.200007 0.710430
-31.029812 15.361145 0.199993 0.752529
-29.985376 15.838001 0.199996 0.687846
-37.108986 12.700464 5.749699 0.647059
-42.733089 10.179970 6.564227 0.673762
-42.733086 10.179971 5.845226 0.549249
-42.733078 10.179973 5.134739 0.634165
-42.733070 10.179978 4.431120 0.677562
-42.733070 10.179980 3.732780 0.733013
-41.019501 10.947931 2.945932 0.580987
-41.019485 10.947937 2.315086 0.655802
-41.019474 10.947942 1.684915 0.666667
-41.019386 10.947983 1.054073 0.662348
-41.019295 10.948025 0.421207 0.675120
-39.313133 11.712656 0.000016 0.540261
-35.752197 13.308521 0.000012 0.537789
-32.475807 14.776867 0.200007 0.774990
-31.053791 15.414158 0.199994 0.685405
-30.006054 15.883710 0.199996 0.674220
-37.159424 12.792448 5.751897 0.651041
-43.099548 10.179968 6.636567 0.574014
-43.099548 10.179970 5.906169 0.597436
-43.099541 10.179974 5.184422 0.650263
-43.099533 10.179977 4.469651 0.633875
-43.099525 10.179979 3.760244 0.557000
-41.019501 11.094779 2.943006 0.682414
-41.019482 11.094788 2.314110 0.681102
-41.019485 11.094788 1.685890 0.670344
-41.019398 11.094826 1.057000 0.676600
-41.019302 11.094868 0.426091 0.626017
-39.362385 11.823582 0.000015 0.558984
-35.790390 13.394551 0.000012 0.543664
-32.503834 14.839987 0.200007 0.670298
-31.077402 15.467333 0.199993 0.734646
-30.026411 15.929562 0.199996 0.740337
-37.212437 12.883461 5.754965 0.649927
-43.477837 10.179969 6.711471 0.659571
-43.477833 10.179971 5.969274 0.671916
-43.477821 10.179975 5.235866 0.613046
-43.477821 10.179976 4.509549 0.541787
-43.477810 10.179981 3.788681 0.774868
-41.019501 11.240729 2.940141 0.660288
-41.019466 11.240745 2.313156 0.665949
-41.019470 11.240744 1.686844 0.673014
-41.019402 11.240772 1.059864 0.678431
-41.019310 11.240814 0.430870 0.655726
-39.410851 11.934855 0.000016 0.528923
-35.827984 13.480847 0.000012 0.521904
-32.531414 14.903303 0.200007 0.671138
-31.100639 15.520676 0.199993 0.651606
-30.046448 15.975555 0.199996 0.758358
-37.260078 12.976939 5.756737 0.653727
-43.868561 10.179972 6.789068 0.595956
-43.868561 10.179970 6.034649 0.644358
-43.868553 10.179973 5.289163 0.592126
-43.868549 10.179976 4.550881 0.613626
-43.868538 10.179980 3.818141 0.557366
-41.019501 11.385805 2.937341 0.707973
-41.019463 11.385822 2.312223 0.661128
-41.019463 11.385822 1.687777 0.689555
-41.019409 11.385843 1.062664 0.686122
-41.019321 11.385881 0.435544 0.621851
-39.458549 12.046461 0.000016 0.557076
-35.864975 13.567402 0.000012 0.548943
-32.558552 14.966810 0.200007 0.744167
-31.123505 15.574178 0.199993 0.692927
-30.066162 16.021687 0.199996 0.688441
-37.306610 13.070990 5.758381 0.647517
-44.272400 10.179968 6.869512 0.583947
-44.272392 10.179970 6.102417 0.575860
-44.272392 10.179973 5.344411 0.749081
-44.272377 10.179979 4.593727 0.626047
-44.272369 10.179980 3.848680 0.677913
-41.019501 11.530024 2.934602 0.725109
-41.019455 11.530043 2.311310 0.544717
-41.019455 11.530043 1.688689 0.690196
-41.019424 11.530056 1.065402 0.690196
-41.019329 11.530094 0.440114 0.634989
-39.505466 12.158396 0.000016 0.534676
-35.901360 13.654214 0.000012 0.524300
-32.585251 15.030503 0.200007 0.677607
-31.145994 15.627838 0.199993 0.679347
-30.085556 16.067955 0.199996 0.753231
-37.455933 13.123322 5.787993 0.654902
-44.690063 10.179965 6.952948 0.485725
-44.690048 10.179972 6.172709 0.590845
-44.690048 10.179974 5.401714 0.664576
-44.690033 10.179977 4.638169 0.689418
-44.690029 10.179979 3.880356 0.588159
-41.019505 11.673409 2.931924 0.686809
-41.019447 11.673433 2.310419 0.550149
-41.019447 11.673434 1.689581 0.700069
-41.019432 11.673439 1.068079 0.690013
-41.019341 11.673475 0.444582 0.621027
-39.551598 12.270658 0.000016 0.526879
-35.937138 13.741278 0.000013 0.514687
-33.629608 14.680143 0.000010 0.559411
-31.168114 15.681655 0.199993 0.754452
-30.104624 16.114359 0.199996 0.671366
-37.719772 13.131773 5.848504 0.635294
-39.673454 12.352730 5.772591 0.652461
nan nan nan 0.000000
nan nan nan 0.000000
nan nan nan 0.000000
nan nan nan 0.000000
-41.019501 11.815983 2.929307 0.766690
-41.019440 11.816008 2.309547 0.525933
-41.019436 11.816010 1.690453 0.698039
-41.019440 11.816009 1.070696 0.695369
-41.019348 11.816044 0.448950 0.615305
-39.596947 12.383236 0.000016 0.534600
-35.972305 13.828587 0.000012 0.544594
-33.658279 14.751321 0.000010 0.552178
-31.189850 15.735624 0.199993 0.685359
-30.123367 16.160892 0.199996 0.679255
-37.998405 13.138070 5.912847 0.640269
-39.612553 12.507442 5.748088 0.664652
nan nan nan 0.000000
nan nan nan 0.000000
nan nan nan 0.000000
nan nan nan 0.000000
-41.019501 11.957764 2.926750 0.584024
-41.019428 11.957794 2.308695 0.529244
-41.019432 11.957792 1.691305 0.696330
-41.019432 11.957792 1.073254 0.695949
-41.019360 11.957820 0.453216 0.629923
-39.641502 12.496134 0.000017 0.512459
-36.006866 13.916142 0.000012 0.539361
-33.686451 14.822699 0.000010 0.516960
-31.211218 15.789742 0.199992 0.767254
-30.141787 16.207556 0.199996 0.681712
-38.020187 13.246502 5.908139 0.523842
-38.020187 13.246502 5.369745 0.584070
-38.020187 13.246500 4.838911 0.695048
-38.020187 13.246500 4.314363 0.610986
-38.020187 13.246502 3.794885 0.509041
-38.020187 13.246502 3.279304 0.526177
-38.020199 13.246496 2.766486 0.588342
-38.020203 13.246496 2.255313 0.600870
-38.020199 13.246496 1.744687 0.610880
-38.020203 13.246496 1.233514 0.740185
-38.020199 13.246496 0.720694 0.549020
-38.020203 13.246495 0.205113 0.555581
-36.040810 14.003934 0.000012 0.544396
-33.714127 14.894270 0.000010 0.530816
-31.232201 15.844010 0.199992 0.672862
-30.159882 16.254347 0.199996 0.762890
-38.020172 13.362825 5.897817 0.526482
-38.020172 13.362823 5.360845 0.578698
-38.020172 13.362823 4.831412 0.739986
-38.020172 13.362823 4.308250 0.704845
-38.020172 13.362823 3.790144 0.551415
-38.020168 13.362824 3.275925 0.562890
-38.020203 13.362813 2.764462 0.694224
-38.020199 13.362814 2.254638 0.679316
-38.020203 13.362814 1.745361 0.725811
-38.020203 13.362813 1.235537 0.782391
-38.020203 13.362813 0.724071 0.522301
-38.020203 13.362812 0.209852 0.544198
-36.074146 14.091961 0.000012 0.540642
-33.741302 14.966032 0.000010 0.536812
-31.252806 15.898422 0.199992 0.732906
-30.177647 16.301264 0.199996 0.661357
-38.020153 13.478542 5.887737 0.662852
-38.020157 13.478540 5.352155 0.707103
-38.020153 13.478542 4.824091 0.711971
-38.020157 13.478540 4.302281 0.756680
-38.020157 13.478540 3.785515 0.613672
-38.020180 13.478532 3.272629 0.503349
-38.020203 13.478523 2.762486 0.527092
-38.020203 13.478525 2.253981 0.585397
-38.020203 13.478525 1.746019 0.569238
-38.020203 13.478523 1.237513 0.606928
-38.020203 13.478524 0.727369 0.517647
-38.020203 13.478523 0.214479 0.679774
-36.106861 14.180222 0.000013 0.556054
-33.767975 15.037985 0.000010 0.570581
-31.273029 15.952978 0.199992 0.714794
-30.195084 16.348303 0.199996 0.747173
-38.020142 13.593666 5.877900 0.684718
-38.020142 13.593665 5.343672 0.628458
-38.020142 13.593666 4.816944 0.634028
-38.020142 13.593665 4.296455 0.599954
-38.020138 13.593666 3.780997 0.703960
-38.020195 13.593645 3.269411 0.563149
-38.020203 13.593643 2.760557 0.536141
-38.020199 13.593644 2.253338 0.578408
-38.020199 13.593644 1.746662 0.580392
-38.020203 13.593643 1.239442 0.666316
-38.020203 13.593643 0.730588 0.506371
-38.020203 13.593643 0.218996 0.767285
-36.138962 14.268706 0.000013 0.531472
-33.794144 15.110119 0.000010 0.527489
-31.292873 16.007673 0.199991 0.662379
-30.212193 16.395464 0.199996 0.661906
-38.020123 13.708216 5.868299 0.624475
-38.020126 13.708216 5.335394 0.522103
-38.020126 13.708216 4.809971 0.536522
-38.020126 13.708215 4.290771 0.566110
-38.020149 13.708206 3.776591 0.755383
-38.020203 13.708187 3.266270 0.620142
-38.020199 13.708187 2.758676 0.663508
-38.020203 13.708188 2.252711 0.568231
-38.020199 13.708189 1.747289 0.557107
-38.020199 13.708187 1.241324 0.725567
-38.020203 13.708188 0.733730 0.645289
-38.020199 13.708189 0.223403 0.635737
-36.170448 14.357412 0.000013 0.520333
-33.819809 15.182436 0.000010 0.540383
-31.312334 16.062506 0.199991 0.737087
-30.228971 16.442743 0.199996 0.735683
-38.020107 13.822204 5.858933 0.517647
-38.020107 13.822205 5.327318 0.522622
-38.020107 13.822204 4.803167 0.543389
-38.020111 13.822202 4.285224 0.513680
-38.020164 13.822184 3.772294 0.735149
-38.020199 13.822172 3.263206 0.712474
-38.020199 13.822172 2.756840 0.708812
-38.020195 13.822174 2.252100 0.684260
-38.020195 13.822174 1.747900 0.635386
-38.020199 13.822173 1.243160 0.611536
-38.020199 13.822172 0.736794 0.703014
-38.020199 13.822173 0.227703 0.773312
-36.201309 14.446337 0.000013 0.546792
-33.844971 15.254929 0.000010 0.523491
-31.331413 16.117472 0.199991 0.679393
-30.245422 16.490137 0.199996 0.692317
-38.020092 13.935647 5.849801 0.557107
-38.020092 13.935647 5.319444 0.523903
-38.020092 13.935648 4.796533 0.561517
-38.020126 13.935636 4.279820 0.511009
-38.020180 13.935616 3.768102 0.694667
-38.020203 13.935610 3.260217 0.547448
-38.020203 13.935610 2.755049 0.548287
-38.020199 13.935612 2.251503 0.662364
-38.020199 13.935612 1.748497 0.660945
-38.020199 13.935612 1.244951 0.531121
-38.020199 13.935612 0.739782 0.631418
-38.020199 13.935612 0.231895 0.566888
-36.231548 14.535474 0.000013 0.572686
-33.869617 15.327598 0.000010 0.544610
-31.350109 16.172569 0.199991 0.749508
-30.261538 16.537645 0.199996 0.678080
-38.020081 14.048561 5.840898 0.581369
-38.020077 14.048561 5.311766 0.627237
-38.020084 14.048558 4.790067 0.555337
-38.020142 14.048540 4.274553 0.525582
-38.020195 14.048523 3.764017 0.772885
-38.020203 14.048519 3.257304 0.544182
-38.020203 14.048520 2.753304 0.554147
-38.020199 14.048521 2.250922 0.679850
-38.020199 14.048521 1.749078 0.670787
-38.020203 14.048521 1.246696 0.549508
-38.020199 14.048521 0.742696 0.714549
-38.020199 14.048521 0.235983 0.588678
-36.261166 14.624821 0.000013 0.532113
-33.893764 15.400435 0.000010 0.524498
-31.368416 16.227798 0.199991 0.687419
-30.277323 16.585264 0.199996 0.656245
-38.020058 14.160959 5.832221 0.746563
-38.020061 14.160959 5.304286 0.731044
-38.020096 14.160948 4.783771 0.689021
-38.020153 14.160930 4.269420 0.675227
-38.020203 14.160914 3.760035 0.615351
-38.020199 14.160915 3.254465 0.518212
-38.020203 14.160913 2.751603 0.553063
-38.020199 14.160915 2.250355 0.597177
-38.020199 14.160915 1.749645 0.655711
-38.020199 14.160915 1.248397 0.558892
-38.020195 14.160916 0.745535 0.767163
-38.020195 14.160916 0.239966 0.534707
-36.290161 14.714372 0.000013 0.539925
-33.917397 15.473442 0.000011 0.537835
-31.386337 16.283152 0.199990 0.665324
-30.292776 16.632994 0.199996 0.685786
-38.020042 14.272858 5.823770 0.684459
-38.020054 14.272854 5.297001 0.736416
-38.020111 14.272835 4.777637 0.603693
-38.020168 14.272818 4.264420 0.519249
-38.020203 14.272807 3.756156 0.812680
-38.020203 14.272807 3.251701 0.604730
-38.020199 14.272808 2.749946 0.538354
-38.020203 14.272808 2.249804 0.563272
-38.020203 14.272808 1.750196 0.664164
-38.020199 14.272808 1.250053 0.522057
-38.020199 14.272808 0.748299 0.743069
-38.020199 14.272808 0.243845 0.571817
-36.318523 14.804125 0.000013 0.505226
-33.940529 15.546608 0.000010 0.548974
-31.403873 16.338631 0.199990 0.681376
-30.307894 16.680830 0.199996 0.774258
-38.020027 14.384268 5.815542 0.619226
-38.020073 14.384254 5.289915 0.755886
-38.020126 14.384237 4.771666 0.619898
-38.020180 14.384220 4.259552 0.530236
-38.020206 14.384213 3.752379 0.667613
-38.020203 14.384214 3.249008 0.599512
-38.020199 14.384216 2.748333 0.573541
-38.020199 14.384215 2.249266 0.578134
-38.020199 14.384215 1.750734 0.745022
-38.020199 14.384214 1.251666 0.565118
-38.020199 14.384216 0.750992 0.739101
-38.020203 14.384214 0.247621 0.553994
-36.346264 14.894072 0.000013 0.504585
-33.963139 15.619938 0.000010 0.524315
-31.421021 16.394230 0.199990 0.740642
-30.322678 16.728769 0.199997 0.666850
-38.020027 14.495199 5.807538 0.704311
-38.020088 14.495181 5.283017 0.694759
-38.020142 14.495165 4.765855 0.687678
-38.020195 14.495149 4.254814 0.527901
-38.020203 14.495147 3.748703 0.757595
-38.020203 14.495146 3.246388 0.665309
-38.020203 14.495148 2.746764 0.632609
-38.020195 14.495150 2.248743 0.576638
-38.020195 14.495149 1.751256 0.713497
-38.020199 14.495148 1.253236 0.575982
-38.020199 14.495148 0.753611 0.598505
-38.020195 14.495148 0.251297 0.524865
-36.373379 14.984209 0.000013 0.539300
-33.985245 15.693420 0.000010 0.516014
-31.437780 16.449947 0.199990 0.661753
-30.337128 16.776810 0.199997 0.771725
-37.990311 14.614273 5.792004 0.678431
-37.990311 14.614271 5.269609 0.695338
-37.990311 14.614272 4.754549 0.678431
-38.020199 14.605623 4.250204 0.557015
-38.020203 14.605623 3.745127 0.602609
-38.020203 14.605623 3.243840 0.593469
-38.020199 14.605624 2.745236 0.506477
-38.020199 14.605624 2.248235 0.576562
-38.020199 14.605623 1.751765 0.690990
-38.020199 14.605624 1.254763 0.520409
-38.020195 14.605624 0.756160 0.646174
-38.020199 14.605624 0.254873 0.553948
-36.399857 15.074535 0.000013 0.533104
-34.006828 15.767057 0.000011 0.537331
-31.454147 16.505781 0.199990 0.745327
-30.351242 16.824953 0.199997 0.705852
-37.990311 14.724075 5.784451 0.678431
-37.990314 14.724075 5.263097 0.678431
-37.990311 14.724075 4.749063 0.678431
-38.020191 14.715654 4.245721 0.548379
-38.020203 14.715651 3.741651 0.555795
-38.020203 14.715652 3.241362 0.569848
-38.020199 14.715652 2.743752 0.549508
-38.020199 14.715652 2.247741 0.681529
-38.020199 14.715652 1.752260 0.681254
-38.020199 14.715652 1.256248 0.485252
-38.020199 14.715652 0.758637 0.671412
-38.020199 14.715652 0.258349 0.677348
-36.425705 15.165045 0.000013 0.537499
-34.027905 15.840842 0.000010 0.556817
-31.470129 16.561728 0.199990 0.661585
-30.365021 16.873190 0.199996 0.731334
-37.990314 14.833447 5.777112 0.678431
-37.990311 14.833448 5.256767 0.678431
-37.990311 14.833447 4.743731 0.678431
-38.020180 14.825254 4.241364 0.516457
-38.020187 14.825253 3.738272 0.590585
-38.020203 14.825249 3.238955 0.648264
-38.020199 14.825250 2.742310 0.580102
-38.020195 14.825250 2.247260 0.555886
-38.020195 14.825250 1.752740 0.673884
-38.020199 14.825250 1.257690 0.532113
-38.020195 14.825250 0.761045 0.585412
-38.020195 14.825251 0.261727 0.579446
-36.450924 15.255732 0.000013 0.551995
-34.048462 15.914772 0.000010 0.577356
-31.485714 16.617783 0.199991 0.756878
-30.378462 16.921524 0.199996 0.720989
-37.990311 14.942402 5.769982 0.678431
-37.990311 14.942401 5.250622 0.678431
-37.990311 14.942402 4.738552 0.678431
-38.020172 14.934433 4.237132 0.536904
-38.020180 14.934430 3.734990 0.545907
-38.020195 14.934427 3.236616 0.604334
-38.020199 14.934425 2.740909 0.628489
-38.020195 14.934427 2.246793 0.587091
-38.020195 14.934427 1.753207 0.666072
-38.020195 14.934426 1.259091 0.533578
-38.020199 14.934426 0.763383 0.614282
-38.020199 14.934425 0.265007 0.597162
-36.475510 15.346591 0.000013 0.556466
-34.068504 15.988845 0.000011 0.552300
-31.500912 16.673946 0.199990 0.674052
-30.391563 16.969952 0.199997 0.688167
-37.990307 15.050951 5.763064 0.678431
-37.990307 15.050952 5.244656 0.678431
-37.990311 15.050951 4.733527 0.678431
-38.020161 15.043208 4.233026 0.679545
-38.020172 15.043206 3.731806 0.535515
-38.020184 15.043202 3.234346 0.812268
-38.020195 15.043200 2.739549 0.736492
-37.935127 15.065262 2.244902 0.403815
-37.935127 15.065262 1.755098 0.504341
-37.935127 15.065263 1.264768 0.504097
-37.935131 15.065262 0.772859 0.490028
-38.020199 15.043200 0.268191 0.605707
-36.499458 15.437622 0.000013 0.532204
-34.088028 16.063055 0.000010 0.544350
-31.515717 16.730217 0.199990 0.735912
-30.404327 17.018469 0.199997 0.692760
-37.990303 15.159109 5.756353 0.678431
-37.990307 15.159108 5.238871 0.678431
-37.990307 15.159108 4.728652 0.678431
-38.020149 15.151590 4.229042 0.735470
-38.020161 15.151587 3.728716 0.538964
-38.020172 15.151585 3.232144 0.676661
-38.020180 15.151582 2.738230 0.558679
-37.990311 15.159106 2.245397 0.678431
-37.990314 15.159106 1.754603 0.678431
-37.990311 15.159106 1.263283 0.678431
-37.990311 15.159106 0.770381 0.678431
-38.020195 15.151577 0.271279 0.716091
-36.522766 15.528818 0.000014 0.547692
-34.107033 16.137400 0.000011 0.539681
-31.530125 16.786587 0.199990 0.682567
-30.416750 17.067074 0.199997 0.651316
-37.990303 15.266886 5.749849 0.678431
-37.990307 15.266885 5.233263 0.678431
-37.990307 15.266884 4.723928 0.678431
-38.020138 15.259591 4.225181 0.767040
-38.020149 15.259587 3.725722 0.528618
-38.020161 15.259584 3.230010 0.625910
-38.020172 15.259583 2.736951 0.574334
-37.990311 15.266884 2.244972 0.678431
-37.990311 15.266884 1.755028 0.678431
-37.990314 15.266883 1.264559 0.678431
-37.990314 15.266883 0.772510 0.678431
-38.020195 15.259577 0.274273 0.702434
-36.545444 15.620173 0.000013 0.539864
-34.125515 16.211876 0.000011 0.529305
-31.544144 16.843056 0.199990 0.716243
-30.428837 17.115763 0.199997 0.736202
-37.990303 15.374294 5.743549 0.670466
-37.990303 15.374294 5.227830 0.678431
-37.990307 15.374293 4.719352 0.663432
-38.020130 15.367222 4.221442 0.586770
-38.020142 15.367219 3.722822 0.547799
-38.020153 15.367216 3.227942 0.669001
-38.020164 15.367213 2.735713 0.520439
-37.990314 15.374292 2.244560 0.678431
-37.990314 15.374292 1.755440 0.678431
-37.990314 15.374292 1.265794 0.678431
-37.990314 15.374291 0.774571 0.678431
-38.020195 15.367206 0.277171 0.717357
-36.567482 15.711684 0.000013 0.553414
-34.143486 16.286478 0.000010 0.528786
-31.557766 16.899622 0.199990 0.677409
-30.440582 17.164537 0.199997 0.669200
-37.990303 15.481349 5.737455 0.670802
-37.990307 15.481348 5.222576 0.688609
-37.990311 15.481347 4.714925 0.678431
-38.020119 15.474499 4.217823 0.581277
-38.020130 15.474497 3.720015 0.589761
-38.020142 15.474493 3.225942 0.700435
-38.020164 15.474489 2.734515 0.514809
-37.990311 15.481347 2.244162 0.678431
-37.990318 15.481346 1.755838 0.678431
-37.990311 15.481347 1.266990 0.678431
-37.990311 15.481347 0.776567 0.678431
-38.020195 15.474482 0.279977 0.639048
-36.588882 15.803347 0.000013 0.536614
-34.160927 16.361206 0.000010 0.527443
-31.570992 16.956284 0.199990 0.769436
-30.451988 17.213390 0.199997 0.744533
-37.990307 15.588058 5.731560 0.678431
-37.990307 15.588058 5.217493 0.678431
-37.990311 15.588058 4.710643 0.678431
-38.020111 15.581430 4.214323 0.751110
-38.020119 15.581428 3.717301 0.591501
-38.020134 15.581425 3.224008 0.549020
-38.020164 15.581417 2.733356 0.730022
-37.990311 15.588058 2.243777 0.678431
-37.990311 15.588058 1.756223 0.678431
-37.990314 15.588057 1.268146 0.678431
-37.990314 15.588058 0.778496 0.678431
-38.020199 15.581411 0.282690 0.805249
-36.609642 15.895157 0.000013 0.555322
-34.177849 16.436052 0.000011 0.523003
-31.583824 17.013033 0.199990 0.670283
-30.463049 17.262323 0.199997 0.706615
-37.990307 15.694439 5.725866 0.678431
-37.990311 15.694439 5.212583 0.678431
-37.990314 15.694438 4.706507 0.678431
-38.020103 15.688030 4.210943 0.558572
-38.020111 15.688028 3.714679 0.685252
-38.020126 15.688025 3.222139 0.555032
-38.020164 15.688016 2.732237 0.565393
-37.990311 15.694439 2.243405 0.678431
-37.990311 15.694439 1.756595 0.678431
-37.990314 15.694438 1.269263 0.678431
-37.990311 15.694439 0.780361 0.678431
-37.935127 15.706309 0.295321 0.458656
-36.629753 15.987110 0.000014 0.511177
-34.194252 16.511015 0.000011 0.510353
-31.596258 17.069874 0.199990 0.772946
-30.473770 17.311333 0.199997 0.676616
-37.990311 15.800501 5.720369 0.678431
-37.990311 15.800501 5.207844 0.678431
-37.990311 15.800501 4.702513 0.678431
-38.020088 15.794312 4.207679 0.551827
-38.020103 15.794309 3.712149 0.689982
-38.020126 15.794304 3.220337 0.643580
-38.020164 15.794296 2.731157 0.563180
-37.990311 15.800501 2.243046 0.678431
-37.990311 15.800501 1.756954 0.678431
-37.990314 15.800500 1.270341 0.678431
-37.990311 15.800500 0.782160 0.678431
-37.935131 15.811968 0.297836 0.426749
-36.649223 16.079203 0.000014 0.538872
-34.210125 16.586090 0.000011 0.543160
-31.608292 17.126799 0.199990 0.677867
-30.484150 17.360415 0.199998 0.750072
-37.990311 15.906255 5.715071 0.678431
-37.990311 15.906255 5.203274 0.678431
-37.990311 15.906255 4.698664 0.678431
-38.020084 15.900284 4.204534 0.535332
-38.020092 15.900282 3.709709 0.769390
-38.020126 15.900275 3.218598 0.562753
-38.020164 15.900268 2.730115 0.543877
-37.990311 15.906254 2.242700 0.678431
-37.990311 15.906254 1.757300 0.678431
-37.990311 15.906255 1.271380 0.678431
-37.990311 15.906255 0.783895 0.678431
-37.935131 15.917320 0.300260 0.477729
-36.668056 16.171427 0.000014 0.554208
-34.225479 16.661274 0.000011 0.521340
-31.619934 17.183805 0.199990 0.723018
-30.494184 17.409569 0.199998 0.677913
-37.990307 16.011713 5.709967 0.678431
-37.990311 16.011713 5.198874 0.678431
-37.990311 16.011713 4.694956 0.678431
-38.020073 16.005960 4.201504 0.638056
-38.020088 16.005957 3.707359 0.717235
-38.020126 16.005949 3.216924 0.549020
-38.020164 16.005941 2.729112 0.670573
-37.990311 16.011713 2.242366 0.678431
-37.990311 16.011713 1.757634 0.678431
-37.990311 16.011711 1.272381 0.678431
-37.990311 16.011713 0.785565 0.678431
-37.935127 16.022379 0.302595 0.441611
-36.686245 16.263781 0.000013 0.546807
-34.240303 16.736565 0.000011 0.539940
-31.631176 17.240892 0.199990 0.709163
-30.503878 17.458792 0.199998 0.763226
-37.990311 16.116886 5.705058 0.678431
-37.990311 16.116886 5.194641 0.678431
-37.990311 16.116886 4.691390 0.678431
-38.020065 16.111351 4.198589 0.591867
-38.020088 16.111345 3.705101 0.658167
-38.020126 16.111340 3.215314 0.517647
-38.020164 16.111332 2.728148 0.593088
-37.990314 16.116886 2.242046 0.678431
-37.990314 16.116886 1.757954 0.678431
-37.990311 16.116886 1.273344 0.678431
-37.990314 16.116886 0.787172 0.678431
-37.935127 16.127153 0.304841 0.466255
-36.703781 16.356260 0.000014 0.527306
-34.254601 16.811956 0.000011 0.535775
-31.642019 17.298056 0.199990 0.722225
-30.513226 17.508080 0.199997 0.654429
-37.990311 16.221788 5.700342 0.678431
-37.990311 16.221788 5.190574 0.678431
-37.990311 16.221788 4.687963 0.678431
-38.020054 16.216469 4.195789 0.543267
-38.020092 16.216461 3.702930 0.671260
-38.020126 16.216457 3.213767 0.541146
-38.020164 16.216450 2.727221 0.577935
-37.990311 16.221788 2.241737 0.678431
-37.990311 16.221788 1.758262 0.678431
-37.990311 16.221788 1.274269 0.678431
-37.990311 16.221788 0.788716 0.678431
-37.935131 16.231657 0.306999 0.461646
-36.720676 16.448858 0.000014 0.548150
-34.268372 16.887445 0.000011 0.568978
-31.652462 17.355295 0.199990 0.694636
-30.522232 17.557432 0.199997 0.686046
-38.033783 16.318966 5.706865 0.709819
-38.033779 16.318966 5.196198 0.748592
-38.033783 16.318966 4.692702 0.643442
-38.020050 16.321323 4.193104 0.692500
-38.020092 16.321316 3.700847 0.534600
-38.020126 16.321308 3.212283 0.549279
-38.020168 16.321302 2.726332 0.523980
-37.990311 16.326427 2.241442 0.678431
-37.990311 16.326427 1.758558 0.678431
-37.990311 16.326427 1.275156 0.678431
-37.990311 16.326427 0.790197 0.678431
-37.935131 16.335899 0.309069 0.497246
-36.736923 16.541573 0.000014 0.529519
-34.281620 16.963030 0.000011 0.520256
-31.662506 17.412605 0.199990 0.682948
-30.530891 17.606848 0.199997 0.698726
-38.019825 16.425962 5.698976 0.530312
-38.019901 16.425951 5.189413 0.630365
-38.019974 16.425940 4.686998 0.552544
-38.020039 16.425928 4.190530 0.623957
-38.020088 16.425919 3.698853 0.558282
-38.020130 16.425913 3.210862 0.552941
-38.020168 16.425907 2.725480 0.523690
-37.990311 16.430817 2.241159 0.678431
-37.990311 16.430817 1.758841 0.678431
-37.990311 16.430817 1.276007 0.678431
-37.990311 16.430817 0.791616 0.678431
-37.935127 16.439892 0.311052 0.473259
-36.752525 16.634399 0.000014 0.517082
-34.294338 17.038704 0.000011 0.555993
-31.672150 17.469984 0.199990 0.690288
-30.539207 17.656321 0.199997 0.696590
-38.019814 16.530325 5.694820 0.634638
-38.019890 16.530313 5.185830 0.640742
-38.019962 16.530302 4.683981 0.573297
-38.020027 16.530293 4.188069 0.692882
