# This PCD file was generated using the MATLABÂ® pcwrite function
# from Computer Vision ToolboxÂ®.
# .PCD v.7 - Point Cloud Data file format
VERSION .7
FIELDS x y z intensity
SIZE 4 4 4 4
TYPE F F F F
COUNT 1 1 1 1
WIDTH 1326
HEIGHT 1
VIEWPOINT 0 0 0 1 0 0 0
POINTS 1326
DATA ascii
89.381577 108.245178 6.651958 0.215732
89.424118 108.315712 4.791232 0.738201
89.424126 108.315720 2.929745 0.721798
89.424126 108.315720 1.070254 0.741100
81.106461 94.524170 -0.000015 0.338293
71.418465 78.460464 0.200019 0.702495
68.162003 73.060905 0.199992 0.713252
66.348160 70.053375 0.200010 0.763088
65.729530 69.027618 0.010003 1.000000
64.863708 67.592003 -0.000008 0.344167
64.204857 66.499557 0.000003 0.330159
nan nan nan 0.000000
nan nan nan 0.000000
90.066170 108.604401 12.443743 0.700450
89.889305 108.315720 10.463823 0.729061
89.889297 108.315720 8.564047 0.733333
89.846077 108.245163 6.671742 0.178058
89.889297 108.315720 4.803102 0.725887
89.889305 108.315720 2.933701 0.702312
89.889305 108.315720 1.066299 0.748501
81.381691 94.429352 -0.003058 0.699886
71.549431 78.380875 0.200017 0.702831
68.255348 73.004173 0.199991 0.712902
66.420540 70.009354 0.200014 0.666880
65.794800 68.988007 0.009994 1.000000
64.918953 67.558418 -0.000007 0.337743
64.252495 66.470604 0.000001 0.329091
nan nan nan 0.000000
nan nan nan 0.000000
90.523682 108.581192 12.483885 0.722744
90.358490 108.315735 10.500390 0.748806
90.358475 108.315720 8.592405 0.719173
90.314606 108.245232 6.691931 0.135790
90.358490 108.315735 4.815213 0.739803
90.314613 108.245239 2.936376 0.563546
90.358482 108.315735 1.062266 0.736553
81.381699 93.890617 0.019461 0.714076
71.679802 78.300308 0.200022 0.704005
68.348297 72.946785 0.199990 0.699168
66.485870 69.954002 0.201908 0.762722
65.888817 68.994568 -0.000009 0.341192
64.973961 67.524452 -0.000007 0.330388
64.299927 66.441322 0.000001 0.337819
nan nan nan 0.000000
nan nan nan 0.000000
95.269241 115.336731 13.984033 0.815335
90.831757 108.315742 10.537692 0.740246
90.831749 108.315735 8.621334 0.733333
90.787193 108.245224 6.712518 0.175311
90.831749 108.315735 4.827566 0.740520
90.787178 108.245209 2.940483 0.148592
90.831749 108.315735 1.058152 0.755016
81.381691 93.363815 0.041387 0.690593
71.809639 78.218887 0.200022 0.695552
68.440826 72.888733 0.199993 0.699962
66.677368 70.098595 0.168645 0.684108
65.953827 68.953796 -0.000011 0.339727
65.028725 67.490105 -0.000007 0.336019
64.347153 66.411705 -0.000000 0.326345
nan nan nan 0.000000
nan nan nan 0.000000
95.269234 114.485489 13.853390 0.747219
91.309204 108.315720 10.575734 0.721798
91.263939 108.245193 8.641199 0.222309
91.263954 108.245224 6.733520 0.152117
91.309196 108.315704 4.840165 0.732967
91.263939 108.245201 2.944674 0.128862
91.309196 108.315712 1.053954 0.721569
81.381691 92.848526 0.062738 0.680934
71.938911 78.136566 0.200020 0.710414
68.532944 72.830032 0.199995 0.719814
66.872299 70.242729 0.135078 0.682200
66.018555 68.912582 -0.000012 0.339773
65.083252 67.455368 -0.000006 0.332891
64.394165 66.381767 -0.000001 0.324590
nan nan nan 0.000000
nan nan nan 0.000000
95.164940 113.492538 13.691378 0.414496
91.790970 108.315720 10.614546 0.721492
91.745003 108.245193 8.671255 0.247120
91.745018 108.245224 6.754941 0.158892
91.790970 108.315720 4.853019 0.744900
91.744987 108.245178 2.948949 0.074510
91.790962 108.315704 1.049673 0.715969
81.381691 92.344345 0.083537 0.721248
72.067566 78.053284 0.200025 0.690013
68.624641 72.770660 0.200001 0.715175
67.071823 70.388123 0.100895 0.728862
66.082993 68.870911 -0.000013 0.335882
65.137535 67.420258 -0.000006 0.334676
64.440971 66.351494 -0.000002 0.337850
nan nan nan 0.000000
nan nan nan 0.000000
95.212982 112.752289 13.583589 0.225162
92.277130 108.315720 10.654135 0.697459
92.230446 108.245171 8.701909 0.260914
92.230431 108.245148 6.776784 0.115663
92.277130 108.315712 4.866129 0.720104
92.230476 108.245216 2.953311 0.347127
92.277122 108.315704 1.045306 0.721569
81.381699 91.850838 0.103801 0.743389
72.195663 77.969162 0.200024 0.698177
68.715935 72.710686 0.200003 0.702342
67.266808 70.520813 0.068566 0.674388
66.147125 68.828781 -0.000011 0.340490
65.191574 67.384773 -0.000006 0.335775
64.487572 66.320900 -0.000003 0.334905
nan nan nan 0.000000
nan nan nan 0.000000
95.164871 111.883720 13.447239 0.554711
92.767799 108.315704 10.694510 0.730571
92.720406 108.245163 8.733179 0.223896
92.720398 108.245155 6.799073 0.099535
92.767792 108.315704 4.879502 0.732158
92.720444 108.245216 2.957760 0.074464
92.767807 108.315712 1.040851 0.698039
81.381691 91.367630 0.123553 0.695903
72.323181 77.884155 0.200023 0.714473
68.806786 72.650047 0.200009 0.697398
67.468788 70.658455 0.034957 0.670100
66.210968 68.786201 -0.000008 0.339742
65.245361 67.348907 -0.000005 0.336538
64.533951 66.289978 -0.000004 0.331930
nan nan nan 0.000000
nan nan nan 0.000000
95.212975 111.174744 13.345315 0.057328
93.263107 108.315712 10.735696 0.712291
93.214996 108.245163 8.765073 0.226001
93.214981 108.245148 6.821805 0.074617
93.263107 108.315712 4.893143 0.709804
93.215027 108.245209 2.962295 0.062745
93.299744 108.369431 1.035244 0.724926
81.381699 90.894371 0.142806 0.702007
72.450066 77.798203 0.200028 0.715343
68.897232 72.588799 0.200011 0.706355
67.678154 70.801292 0.000002 0.340734
66.274506 68.743172 -0.000006 0.339864
65.298897 67.312668 -0.000005 0.340871
64.580109 66.258736 -0.000005 0.335485
nan nan nan 0.000000
nan nan nan 0.000000
95.164955 110.340622 13.215277 0.330083
93.763138 108.315704 10.777701 0.721569
93.714310 108.245163 8.797601 0.222766
93.763138 108.315704 6.852026 0.729641
93.763145 108.315704 4.907055 0.733333
93.714333 108.245201 2.966922 0.094118
93.800331 108.369431 1.030606 0.730220
81.381699 90.430710 0.161579 0.681376
72.576378 77.711418 0.200027 0.719081
68.987259 72.526939 0.200012 0.709621
67.755714 70.747971 0.000005 0.334371
66.337738 68.699707 -0.000003 0.333806
65.352173 67.276054 -0.000005 0.335332
64.626053 66.227173 -0.000006 0.333577
nan nan nan 0.000000
nan nan nan 0.000000
95.269241 109.740578 13.136579 0.830640
94.268044 108.315704 10.820547 0.699138
94.218468 108.245148 8.830780 0.206088
94.268044 108.315704 6.875712 0.698039
94.268036 108.315704 4.921244 0.711589
94.218506 108.245209 2.971642 0.082460
94.268044 108.315704 1.026948 0.698405
81.381699 89.976288 0.179891 0.739467
72.702087 77.623756 0.200026 0.716243
69.076851 72.464439 0.200013 0.701198
67.794159 70.638962 0.010005 1.000000
66.400673 68.655800 -0.000001 0.341619
65.405197 67.239075 -0.000005 0.335760
64.671776 66.195290 -0.000008 0.338903
nan nan nan 0.000000
nan nan nan 0.000000
95.269241 109.004654 13.027287 0.788159
94.777908 108.315697 10.864243 0.709590
94.727615 108.245178 8.864626 0.231647
94.777908 108.315697 6.899865 0.697993
94.777916 108.315704 4.935716 0.721614
94.727631 108.245186 2.976457 0.117647
94.777908 108.315697 1.022127 0.725338
81.354538 89.492729 0.200051 0.703990
72.827194 77.535233 0.200024 0.717479
69.166000 72.401321 0.200014 0.680644
67.870674 70.584946 0.009987 1.000000
66.463303 68.611450 0.000001 0.328206
65.457962 67.201714 -0.000004 0.339422
64.717278 66.163086 -0.000008 0.333074
nan nan nan 0.000000
nan nan nan 0.000000
95.331757 108.369400 12.940049 0.717388
95.331764 108.369415 10.918648 0.728908
95.241882 108.245209 8.899146 0.200610
95.331772 108.369423 6.929941 0.732052
95.331772 108.369415 4.953735 0.734813
95.241852 108.245171 2.981364 0.127214
95.331772 108.369415 1.016125 0.716442
81.562325 89.343567 0.200046 0.704280
72.951630 77.445778 0.200028 0.708690
69.254707 72.337578 0.200015 0.712276
67.986176 70.584785 0.000010 0.331838
66.525612 68.566666 0.000004 0.340108
65.510468 67.163994 -0.000004 0.343297
64.762543 66.130562 -0.000007 0.331365
nan nan nan 0.000000
nan nan nan 0.000000
95.852554 108.369415 12.995874 0.729061
95.813110 108.315704 10.954275 0.733333
95.761337 108.245224 8.934354 0.212360
95.813103 108.315704 6.949631 0.703304
95.813095 108.315704 4.965531 0.740627
95.761292 108.245163 2.986372 0.083314
95.813103 108.315704 1.012195 0.731823
81.769066 89.192947 0.200041 0.705684
73.075455 77.355476 0.200030 0.715465
69.342964 72.273216 0.200017 0.725460
68.062225 70.529327 0.000012 0.336049
66.587631 68.521477 -0.000000 0.338186
65.562706 67.125916 -0.000004 0.328832
64.807587 66.097717 -0.000008 0.333455
nan nan nan 0.000000
nan nan nan 0.000000
96.378693 108.369400 13.052814 0.719829
96.338669 108.315689 11.000641 0.732967
96.286140 108.245209 8.970258 0.196033
96.338669 108.315689 6.975261 0.718242
96.338676 108.315704 4.980889 0.723812
96.286118 108.245171 2.991479 0.074556
96.338676 108.315704 1.007080 0.722652
81.974762 89.040901 0.200037 0.708385
73.198738 77.264435 0.200018 0.714824
69.430771 72.208244 0.200018 0.698344
68.137917 70.473366 0.000008 0.333562
66.649300 68.475815 0.000006 0.334203
65.614677 67.087463 -0.000004 0.338506
64.852402 66.064568 -0.000007 0.331121
nan nan nan 0.000000
nan nan nan 0.000000
96.910347 108.369400 13.110888 0.731533
96.910339 108.369400 11.057920 0.717739
96.816429 108.245193 9.006880 0.222782
96.869736 108.315689 7.001403 0.718822
96.869736 108.315689 4.996550 0.732784
96.816414 108.245171 2.996690 0.068864
96.910370 108.369431 1.000761 0.729778
82.179382 88.887421 0.200032 0.710369
73.321274 77.172394 0.200023 0.702602
69.518127 72.142654 0.200019 0.678828
68.213203 70.416878 0.000005 0.339818
66.710663 68.429741 0.000007 0.337285
65.666382 67.048653 -0.000004 0.339376
64.896980 66.031105 -0.000007 0.329915
nan nan nan 0.000000
nan nan nan 0.000000
97.447647 108.369400 13.170124 0.735714
97.447639 108.369400 11.106210 0.739528
97.352356 108.245186 9.044234 0.221408
97.406433 108.315674 7.028066 0.735897
97.406433 108.315674 5.012524 0.703044
97.352341 108.245178 3.002003 0.082979
97.447655 108.369415 0.995433 0.730373
82.383072 88.732697 0.200015 0.704021
74.928040 79.015038 -0.000001 0.337789
69.605019 72.076469 0.200020 0.712047
68.288101 70.359863 0.000001 0.334874
66.771706 68.383240 0.000008 0.334813
65.717812 67.009483 -0.000005 0.335241
64.941322 65.997330 -0.000006 0.330541
nan nan nan 0.000000
nan nan nan 0.000000
97.990738 108.369408 13.230546 0.726665
97.990723 108.369400 11.155469 0.729610
97.894028 108.245155 9.082335 0.245426
97.948906 108.315674 7.055262 0.733867
97.948914 108.315674 5.028822 0.716884
97.894073 108.245209 3.007426 0.107347
97.990738 108.369415 0.990000 0.747265
82.585541 88.576378 0.200011 0.705089
75.062790 78.910927 -0.000002 0.337087
69.840424 72.201080 0.172117 0.715404
68.362595 70.302322 -0.000001 0.338933
66.832420 68.336311 0.000011 0.338079
65.768967 66.969955 -0.000006 0.345129
64.985428 65.963242 -0.000006 0.339544
nan nan nan 0.000000
nan nan nan 0.000000
98.441696 108.245224 13.263389 0.082536
98.539757 108.369415 11.205715 0.722560
98.441658 108.245163 9.121205 0.210376
98.441658 108.245178 7.075642 0.509896
98.497322 108.315674 5.045443 0.731258
98.441673 108.245193 3.012953 0.091157
98.539764 108.369423 0.984457 0.740627
82.786934 88.418663 0.200005 0.709819
75.196815 78.805878 -0.000004 0.338277
70.246414 72.536270 0.112955 0.730907
68.436699 70.244278 -0.000006 0.333211
66.892807 68.288963 0.000012 0.331640
65.819847 66.930077 -0.000007 0.334371
65.029297 65.928856 -0.000006 0.335729
nan nan nan 0.000000
nan nan nan 0.000000
98.995369 108.245193 13.326094 0.102098
99.094856 108.369400 11.256968 0.737331
98.995361 108.245193 9.160854 0.235294
98.995346 108.245163 7.103900 0.155001
99.051811 108.315659 5.062397 0.726680
98.995346 108.245171 3.018593 0.112688
99.094864 108.369415 0.978803 0.719356
82.987244 88.259583 0.199996 0.710567
75.330101 78.699898 -0.000005 0.336629
70.827667 73.078758 0.022488 0.700633
68.510376 70.185699 -0.000009 0.339498
66.952858 68.241188 0.000014 0.336934
65.870453 66.889839 -0.000007 0.338720
65.072922 65.894157 -0.000006 0.338796
nan nan nan 0.000000
nan nan nan 0.000000
99.555283 108.245193 13.390060 0.135561
99.656204 108.369400 11.309252 0.736492
99.552933 108.242302 9.200871 0.634028
99.555244 108.245148 7.132725 0.112627
99.612541 108.315666 5.079694 0.721691
99.555244 108.245148 3.024345 0.108568
99.656204 108.369408 0.973035 0.719829
83.186432 88.099106 0.199988 0.707500
75.462646 78.592987 -0.000005 0.337652
71.044357 73.155151 -0.000003 0.331792
68.583649 70.126602 -0.000010 0.336507
67.012581 68.193008 0.000014 0.342123
65.920769 66.849251 -0.000009 0.335988
65.116310 65.859154 -0.000006 0.332097
nan nan nan 0.000000
nan nan nan 0.000000
100.121567 108.245178 13.455313 0.128191
100.223953 108.369400 11.362586 0.730007
100.121597 108.245209 9.242560 0.231647
100.121536 108.245132 7.162131 0.206638
100.179665 108.315659 5.097338 0.695979
100.179665 108.315659 3.031710 0.733104
100.223969 108.369415 0.967152 0.716716
83.384499 87.937233 0.199979 0.711910
75.594429 78.485153 -0.000006 0.338079
71.082977 73.011177 0.010001 1.000000
68.656479 70.066978 -0.000007 0.339788
67.071968 68.144417 0.000013 0.341573
65.970802 66.808319 -0.000010 0.341604
65.159447 65.823853 -0.000006 0.342214
nan nan nan 0.000000
nan nan nan 0.000000
100.694458 108.245224 13.521899 0.161593
100.798279 108.369408 11.416999 0.745846
100.694473 108.245224 9.284656 0.242298
100.690048 108.239929 7.191576 0.309682
100.753357 108.315666 5.115338 0.702083
100.753357 108.315674 3.037706 0.701549
100.798294 108.369423 0.961149 0.735470
83.581436 87.773994 0.199970 0.709224
75.725479 78.376411 -0.000008 0.337957
71.176003 72.934166 0.009983 1.000000
68.728897 70.006851 -0.000006 0.334691
67.131027 68.095413 0.000010 0.331746
66.020554 66.767029 -0.000010 0.334600
65.202339 65.788254 -0.000005 0.341527
nan nan nan 0.000000
nan nan nan 0.000000
101.274002 108.245163 13.589805 0.148852
101.379349 108.369408 11.472513 0.751644
101.379349 108.369400 9.346328 0.735302
101.274017 108.245178 7.222742 0.191241
101.333778 108.315666 5.133703 0.717220
101.333786 108.315674 3.043823 0.725841
101.379364 108.369423 0.955025 0.721614
83.777412 87.609596 0.199948 0.707515
75.855751 78.266747 -0.000009 0.338094
71.324600 72.922684 -0.000016 0.338170
68.800896 69.946220 -0.000004 0.341619
67.189735 68.046005 0.000009 0.342626
66.070007 66.725395 -0.000011 0.337194
65.244980 65.752350 -0.000005 0.338201
nan nan nan 0.000000
nan nan nan 0.000000
101.860474 108.245140 13.659099 0.172549
101.967323 108.369400 11.529146 0.738720
101.967331 108.369408 9.390252 0.707347
101.860512 108.245193 7.253971 0.159777
101.921120 108.315666 5.152442 0.739467
101.921112 108.315659 3.050062 0.728557
101.967331 108.369415 0.948776 0.732189
83.971954 87.443504 0.199948 0.711101
75.985260 78.156181 -0.000010 0.334722
71.416893 72.843857 -0.000015 0.333471
68.872475 69.885094 -0.000003 0.339162
67.248100 67.996185 0.000006 0.342428
66.119171 66.683411 -0.000011 0.341756
65.287369 65.716156 -0.000005 0.341253
nan nan nan 0.000000
nan nan nan 0.000000
102.489014 108.285233 13.739486 0.564828
102.562408 108.369400 11.586938 0.739757
102.562424 108.369400 9.435070 0.723964
102.454094 108.245201 7.285835 0.139467
102.515564 108.315674 5.171561 0.712154
102.515564 108.315681 3.056433 0.705760
102.562431 108.369415 0.942402 0.724086
84.165329 87.276047 0.199947 0.714137
76.113983 78.044701 -0.000010 0.337835
71.508621 72.764381 -0.000012 0.336965
68.943619 69.823456 -0.000000 0.338216
67.306114 67.945953 0.000004 0.341268
66.168037 66.641083 -0.000010 0.332662
65.329506 65.679657 -0.000005 0.346487
nan nan nan 0.000000
nan nan nan 0.000000
103.054901 108.245163 13.801959 0.132357
103.164795 108.369400 11.645906 0.722896
103.164810 108.369415 9.480804 0.732876
103.054916 108.245163 7.318343 0.179126
103.117287 108.315674 5.191068 0.718883
103.117279 108.315674 3.062929 0.734874
103.164810 108.369415 0.935897 0.731563
84.357529 87.107239 0.199947 0.711635
76.241936 77.932335 -0.000012 0.337530
71.599808 72.684280 -0.000011 0.336629
69.014336 69.761330 0.000000 0.334997
67.363777 67.895325 0.000001 0.340398
66.216606 66.598419 -0.000008 0.334569
65.371384 65.642876 -0.000004 0.339437
nan nan nan 0.000000
nan nan nan 0.000000
103.663239 108.245178 13.875588 0.153079
103.774658 108.369392 11.706079 0.736049
103.774673 108.369400 9.527470 0.730419
103.663223 108.245163 7.351520 0.105882
103.764496 108.358063 5.213772 0.739757
103.764496 108.358063 3.070493 0.729793
103.774681 108.369415 0.929258 0.731411
87.266571 89.967018 -0.000019 0.541344
76.369095 77.819084 -0.000013 0.336996
71.690422 72.603539 -0.000009 0.336843
69.084618 69.698715 0.000002 0.335439
67.421082 67.844292 -0.000001 0.338430
66.264870 66.555412 -0.000006 0.327031
65.413010 65.605797 -0.000004 0.333944
nan nan nan 0.000000
nan nan nan 0.000000
104.279266 108.245239 13.950736 0.166186
104.392212 108.369385 11.767485 0.727871
104.392235 108.369400 9.575094 0.726665
104.279198 108.245155 7.385377 0.104829
104.343384 108.315704 5.231292 0.738125
104.343376 108.315704 3.076329 0.726040
104.392227 108.369400 0.922483 0.724971
87.477478 89.776497 -0.000019 0.542870
76.495468 77.704941 -0.000014 0.338720
71.780487 72.522171 -0.000009 0.340581
69.154472 69.635628 0.000000 0.338567
67.478027 67.792854 -0.000001 0.338476
66.312836 66.512070 -0.000005 0.342290
65.454369 65.568428 -0.000004 0.343282
nan nan nan 0.000000
nan nan nan 0.000000
104.968140 108.315704 14.044863 0.711543
105.017670 108.369385 11.830157 0.727352
105.017670 108.369392 9.623697 0.722622
104.903053 108.245163 7.419933 0.130098
104.968132 108.315704 5.252025 0.724071
104.968140 108.315704 3.083235 0.719234
105.017685 108.369408 0.915570 0.716701
87.687042 89.584496 -0.000019 0.541192
76.621033 77.589912 -0.000015 0.337469
71.870003 72.440216 -0.000014 0.338201
69.223885 69.572044 -0.000001 0.337636
67.534622 67.741035 -0.000005 0.343709
66.360504 66.468391 -0.000004 0.340276
65.495468 65.530769 -0.000004 0.332586
nan nan nan 0.000000
nan nan nan 0.000000
105.600998 108.315704 14.123240 0.713619
105.651215 108.369385 11.894124 0.739818
105.651222 108.369385 9.673307 0.712428
105.534988 108.245155 7.455200 0.114015
105.600990 108.315704 5.273186 0.722484
105.600983 108.315689 3.090283 0.718288
105.651245 108.369415 0.908513 0.739803
87.895256 89.391045 -0.000019 0.544137
76.745796 77.474014 -0.000016 0.337545
71.958939 72.357613 -0.000016 0.337575
69.292847 69.507980 -0.000001 0.338460
67.590820 67.688782 0.000000 0.336385
66.407852 66.424377 -0.000000 0.333227
65.536308 65.492828 -0.000003 0.328008
nan nan nan 0.000000
nan nan nan 0.000000
106.242172 108.315704 14.203244 0.720287
106.293106 108.369385 11.959417 0.744686
106.293114 108.369392 9.723945 0.727977
106.175278 108.245193 7.491206 0.129427
106.242172 108.315689 5.294786 0.741070
106.242172 108.315689 3.097476 0.717159
106.293137 108.369415 0.901310 0.722789
88.102127 89.196144 -0.000019 0.535149
76.869751 77.357262 -0.000017 0.340002
72.047287 72.274399 -0.000018 0.333959
69.361359 69.443436 -0.000003 0.339681
67.646660 67.636147 0.000003 0.327916
66.454903 66.380043 0.000001 0.339300
65.576874 65.454605 -0.000003 0.336400
nan nan nan 0.000000
nan nan nan 0.000000
106.891876 108.315681 14.284908 0.733059
106.824051 108.245186 12.000506 0.215686
106.943550 108.369385 9.775636 0.728206
106.824097 108.245224 7.527957 0.138506
106.891891 108.315689 5.316836 0.733486
106.891891 108.315689 3.104823 0.720668
106.943573 108.369408 0.893957 0.729839
88.307625 88.999809 -0.000019 0.542580
76.992882 77.239639 -0.000018 0.338140
72.135063 72.190575 -0.000021 0.336934
69.429420 69.378418 -0.000003 0.338293
67.702141 67.583138 0.000005 0.340032
66.501640 66.335381 0.000003 0.325917
65.617180 65.416100 -0.000003 0.338750
nan nan nan 0.000000
nan nan nan 0.000000
107.550415 108.315689 14.368284 0.724071
107.481628 108.245186 12.068378 0.210315
107.602814 108.369385 9.828409 0.723583
107.481682 108.245239 7.565480 0.129412
107.550400 108.315674 5.339346 0.727443
107.550415 108.315689 3.112321 0.734295
107.602829 108.369408 0.886451 0.716655
88.511734 88.802017 -0.000018 0.539223
77.115189 77.121147 -0.000019 0.336049
72.222214 72.106102 -0.000018 0.334539
69.497025 69.312920 -0.000004 0.339269
67.757240 67.529732 0.000007 0.342626
66.548073 66.290390 0.000003 0.330983
65.657219 65.377312 -0.000003 0.330449
nan nan nan 0.000000
nan nan nan 0.000000
108.217926 108.315643 14.453404 0.732525
108.054367 108.150337 12.117885 0.246204
108.271088 108.369385 9.882290 0.726375
108.148270 108.245247 7.603785 0.129412
108.217911 108.315643 5.362327 0.705089
108.217911 108.315643 3.119976 0.713710
108.271103 108.369400 0.878787 0.732296
88.714485 88.602844 -0.000018 0.536645
77.150818 76.915047 0.009988 1.000000
72.308739 72.020981 -0.000009 0.339345
69.564171 69.246956 -0.000005 0.336385
67.811974 67.475945 0.000008 0.337911
66.594185 66.245087 0.000003 0.341360
65.696976 65.338249 -0.000003 0.338949
nan nan nan 0.000000
nan nan nan 0.000000
108.894775 108.315666 14.540332 0.727779
108.824020 108.245148 12.208425 0.182269
108.948669 108.369385 9.937304 0.713878
108.824120 108.245239 7.642899 0.143893
108.894775 108.315659 5.385798 0.726055
108.894775 108.315674 3.127793 0.719234
108.948700 108.369408 0.870960 0.730159
88.915817 88.402229 -0.000018 0.537606
77.270844 76.795456 0.009989 1.000000
72.394676 71.935280 -0.000002 0.336202
69.630859 69.180527 -0.000005 0.337972
67.866333 67.421783 0.000010 0.334524
66.640015 66.199486 -0.000005 0.342473
65.736465 65.298904 -0.000004 0.336370
nan nan nan 0.000000
nan nan nan 0.000000
109.581207 108.315689 14.629105 0.746487
109.509438 108.245155 12.280688 0.224170
109.635818 108.369377 9.993488 0.702205
109.550156 108.285179 7.687511 0.635065
109.581192 108.315681 5.409767 0.733333
109.581207 108.315689 3.135777 0.726482
109.635849 108.369408 0.862969 0.726162
89.115753 88.200218 -0.000018 0.541588
77.390038 76.675026 0.009989 1.000000
72.479973 71.848930 0.000011 0.336141
69.697060 69.113602 -0.000001 0.340032
67.920303 67.367233 0.000012 0.329290
66.685455 66.153503 0.000006 0.326986
65.775681 65.259293 -0.000005 0.337743
nan nan nan 0.000000
nan nan nan 0.000000
110.332779 108.369370 14.733791 0.704723
110.204651 108.245178 12.354489 0.289509
110.332794 108.369377 10.050869 0.722271
110.204666 108.245193 7.723629 0.186969
110.277428 108.315720 5.434245 0.719112
110.277428 108.315720 3.143931 0.717342
110.332825 108.369400 0.854808 0.727092
89.314278 87.996834 -0.000018 0.540093
77.508530 76.553917 0.009973 1.000000
72.564751 71.762085 0.000011 0.338796
69.762802 69.046249 -0.000001 0.338369
67.973907 67.312325 0.000010 0.338720
66.730606 66.107239 0.000006 0.334112
65.814621 65.219406 -0.000005 0.326696
nan nan nan 0.000000
nan nan nan 0.000000
nan nan nan 0.000000
110.983765 108.315735 12.445016 0.722789
111.039886 108.369385 10.109477 0.722942
110.909981 108.245209 7.765296 0.203357
110.983765 108.315742 5.459247 0.732586
110.983757 108.315735 3.152257 0.735012
111.039902 108.369400 0.846471 0.728283
89.511375 87.792053 -0.000018 0.539788
77.625786 76.431610 0.009999 1.000000
72.648926 71.674637 0.000010 0.333959
69.828094 68.978439 -0.000003 0.340642
68.027130 67.257050 0.000008 0.331456
66.775436 66.060654 0.000008 0.337453
65.853279 65.179245 -0.000007 0.331899
nan nan nan 0.000000
nan nan nan 0.000000
nan nan nan 0.000000
111.700500 108.315765 12.522131 0.720836
111.757378 108.369370 10.169344 0.728740
111.625671 108.245239 7.807861 0.192157
111.757416 108.369415 5.488627 0.732601
111.700485 108.315750 3.160765 0.720562
111.757401 108.369400 0.837955 0.730205
89.707039 87.585915 -0.000018 0.540627
77.742416 76.308701 0.010001 1.000000
72.732475 71.586609 0.000011 0.335058
69.892899 68.910172 -0.000004 0.339620
68.079956 67.201393 0.000008 0.335790
66.819931 66.013763 0.000009 0.327993
65.891655 65.138817 -0.000007 0.329732
nan nan nan 0.000000
nan nan nan 0.000000
nan nan nan 0.000000
112.427887 108.315758 12.600908 0.722332
112.427887 108.315758 10.221443 0.705119
112.351929 108.245163 7.851332 0.278080
112.485611 108.369408 5.514747 0.731289
112.427895 108.315765 3.169455 0.734890
112.485611 108.369408 0.829254 0.732372
89.901260 87.378410 -0.000018 0.539590
77.858185 76.184990 0.010003 1.000000
72.815414 71.497993 0.000011 0.338781
69.957222 68.841454 -0.000005 0.336629
68.132401 67.145378 0.000006 0.331334
66.864105 65.966560 0.000010 0.342000
65.929749 65.098122 -0.000008 0.333227
nan nan nan 0.000000
nan nan nan 0.000000
nan nan nan 0.000000
113.166275 108.315735 12.681390 0.727550
113.166267 108.315735 10.283863 0.719493
113.224792 108.369370 7.910835 0.710613
113.224792 108.369370 5.541430 0.735470
113.166267 108.315735 3.178334 0.734691
113.224823 108.369400 0.820366 0.733333
90.094040 87.169571 -0.000018 0.538460
77.973083 76.060471 0.010005 1.000000
72.897812 71.408882 -0.000002 0.341802
70.021080 68.772301 -0.000009 0.336858
68.184456 67.088989 0.000004 0.340215
66.907944 65.919052 0.000012 0.339239
65.967560 65.057159 -0.000009 0.328145
nan nan nan 0.000000
nan nan nan 0.000000
nan nan nan 0.000000
113.915993 108.315704 12.763634 0.728603
113.916000 108.315720 10.347648 0.731929
113.975380 108.369377 7.956350 0.728847
113.975372 108.369370 5.568698 0.741909
113.915993 108.315704 3.187407 0.721431
113.975395 108.369392 0.811282 0.715389
90.285332 86.959358 -0.000018 0.539528
78.087112 75.935143 0.010007 1.000000
72.979576 71.319183 -0.000012 0.336767
70.084442 68.702690 -0.000010 0.339101
68.236115 67.032257 0.000001 0.334844
66.951454 65.871231 0.000013 0.332372
66.005081 65.015938 -0.000010 0.335866
nan nan nan 0.000000
nan nan nan 0.000000
133.384995 124.987000 19.865780 0.399924
114.737617 108.369362 12.859659 0.733211
114.677391 108.315689 10.412839 0.741573
114.737625 108.369370 8.002867 0.718196
114.737633 108.369377 5.596571 0.735515
114.677391 108.315689 3.196681 0.735515
114.737656 108.369392 0.801998 0.718669
90.475159 86.747833 -0.000018 0.543191
78.200256 75.809029 0.010009 1.000000
73.060654 71.228859 -0.000014 0.340093
70.147324 68.632645 -0.000011 0.337453
68.287376 66.975151 -0.000001 0.335958
66.994629 65.823120 0.000014 0.336706
66.042313 64.974457 -0.000010 0.343297
nan nan nan 0.000000
133.465088 124.144882 23.098841 0.678431
133.384995 124.074493 19.755747 0.403525
115.511925 108.369370 12.945676 0.728435
115.450813 108.315666 10.479467 0.735683
115.511932 108.369377 8.050413 0.721019
115.511932 108.369370 5.625057 0.729473
115.450790 108.315659 3.206156 0.724254
115.511948 108.369385 0.792510 0.709804
90.663506 86.534981 -0.000018 0.537072
78.312904 75.682465 0.009969 1.000000
73.141083 71.137970 -0.000014 0.334081
70.209709 68.562157 -0.000013 0.336614
68.338242 66.917686 -0.000003 0.328191
67.037483 65.774712 0.000011 0.336370
66.079254 64.932709 -0.000010 0.335348
133.385010 123.173141 26.294714 0.409674
133.465103 123.242523 22.970711 0.678431
133.384995 123.173111 19.647919 0.406226
116.298607 108.369354 13.033603 0.711345
116.320892 108.388657 10.560409 0.708080
116.298615 108.369362 8.099018 0.734234
116.298622 108.369370 5.654178 0.722942
116.320892 108.388672 3.217671 0.727764
116.298645 108.369392 0.782810 0.728374
90.850372 86.320824 -0.000018 0.539406
78.424225 75.554733 0.009977 1.000000
73.220871 71.046509 -0.000013 0.337377
70.271599 68.491241 -0.000014 0.336553
68.388695 66.859879 -0.000005 0.336767
67.079987 65.726006 0.000010 0.339071
66.115898 64.890709 -0.000010 0.340978
133.385025 122.282608 26.149239 0.415198
133.410614 122.304466 22.829657 0.399435
133.384995 122.282585 19.542236 0.406134
117.098091 108.369354 13.123503 0.732158
117.035278 108.315704 10.617236 0.719036
117.098099 108.369370 8.148714 0.719799
117.098099 108.369370 5.683951 0.729946
117.035271 108.315697 3.225756 0.729366
117.098129 108.369392 0.772892 0.724147
91.035728 86.105370 -0.000018 0.543389
78.534592 75.426170 0.009992 1.000000
73.300026 70.954498 -0.000012 0.336141
70.333000 68.419891 -0.000017 0.334829
68.438751 66.801712 -0.000008 0.338628
67.122154 65.677002 0.000009 0.339055
66.152252 64.848457 -0.000010 0.338399
133.384995 121.402603 26.006645 0.425864
133.384964 121.402573 22.699432 0.406668
133.384964 121.402580 19.438658 0.396033
117.910744 108.369354 13.215431 0.722316
117.847015 108.315689 10.688450 0.712886
117.910767 108.369370 8.199527 0.731044
117.910751 108.369362 5.714395 0.730678
117.847031 108.315689 3.235884 0.730800
117.910774 108.369385 0.762752 0.724651
91.219582 85.888626 -0.000018 0.542321
78.737709 75.375725 -0.000033 0.339101
73.378494 70.861900 -0.000006 0.337682
70.393875 68.348099 -0.000014 0.336461
68.488396 66.743202 -0.000009 0.339284
67.163979 65.627701 0.000008 0.330831
66.188309 64.805939 -0.000009 0.343435
134.262161 121.261307 26.152491 0.407141
134.262146 121.261292 22.825184 0.406516
134.262146 121.261292 19.544596 0.412070
118.736992 108.369370 13.309451 0.757794
118.672356 108.315689 10.761284 0.712337
118.737000 108.369370 8.251497 0.725994
118.736992 108.369370 5.745534 0.730556
105.574875 97.439682 2.967658 0.502739
118.737015 108.369385 0.752379 0.709804
91.401917 85.670601 -0.000018 0.540276
78.846924 75.245064 -0.000029 0.338094
73.456360 70.768799 -0.000006 0.335744
70.454247 68.275879 -0.000010 0.340490
68.537628 66.684334 -0.000009 0.332845
67.205460 65.578125 0.000005 0.335698
66.224060 64.763176 -0.000007 0.331136
nan nan nan 0.000000
135.422363 121.341171 23.029501 0.678431
135.324768 121.261261 19.693777 0.411673
119.577240 108.369362 13.405619 0.741894
119.511696 108.315704 10.835788 0.727520
119.577225 108.369354 8.304654 0.717968
105.656319 96.972832 4.893548 0.434226
119.511673 108.315689 3.256841 0.724483
119.577255 108.369377 0.741772 0.731624
91.582718 85.451309 -0.000017 0.541253
78.955154 75.113602 -0.000020 0.333532
73.533592 70.675171 -0.000010 0.337179
70.514107 68.203232 -0.000007 0.337819
68.586433 66.625122 -0.000007 0.343160
67.246590 65.528244 0.000003 0.329534
66.259521 64.720169 -0.000006 0.338323
nan nan nan 0.000000
nan nan nan 0.000000
136.405701 121.261261 19.846401 0.389487
120.431946 108.369354 13.504001 0.732815
120.431953 108.369354 10.921832 0.725978
120.431953 108.369362 8.359038 0.732265
106.177063 96.864693 4.910048 0.507805
106.121468 96.819824 2.968155 0.478996
120.431976 108.369377 0.730917 0.733257
91.761993 85.230759 -0.000017 0.538216
79.062538 74.981438 -0.000017 0.338247
73.610176 70.581009 -0.000013 0.339727
70.573463 68.130173 -0.000003 0.336385
68.634819 66.565559 -0.000003 0.343511
67.287376 65.478081 0.000002 0.334218
66.263618 64.651840 0.009993 1.000000
nan nan nan 0.000000
nan nan nan 0.000000
nan nan nan 0.000000
121.301582 108.369370 13.604665 0.721187
121.234085 108.315659 10.989978 0.740520
121.234085 108.315659 8.407608 0.728374
106.515129 96.605209 4.915038 0.475807
105.999847 96.195251 2.960209 0.430549
121.301651 108.369423 0.719811 0.736538
91.939713 85.008957 -0.000017 0.539376
79.169067 74.848587 -0.000022 0.337606
73.686089 70.486313 -0.000016 0.335729
70.632301 68.056702 0.000001 0.339834
68.682800 66.505676 -0.000002 0.336019
67.327805 65.427643 0.000000 0.340597
66.298279 64.608543 0.010000 1.000000
nan nan nan 0.000000
nan nan nan 0.000000
nan nan nan 0.000000
122.186584 108.369354 13.707683 0.731517
122.186584 108.369354 11.079796 0.714672
122.118073 108.315628 8.464488 0.744549
106.851494 96.342560 4.920005 0.555245
106.428299 96.010666 2.963838 0.498573
122.186584 108.369354 0.708448 0.722377
92.115891 84.785934 -0.000018 0.537026
79.274681 74.715012 -0.000028 0.339330
73.761345 70.391083 -0.000019 0.339223
70.690643 67.982834 0.000002 0.335592
68.730362 66.445457 -0.000001 0.337621
67.367882 65.376907 0.000000 0.341848
66.332634 64.565002 0.010006 1.000000
nan nan nan 0.000000
nan nan nan 0.000000
nan nan nan 0.000000
123.087494 108.369347 13.813124 0.719966
123.087494 108.369354 11.161571 0.734768
123.017975 108.315598 8.522707 0.717937
123.087517 108.369362 5.912345 0.722560
123.017975 108.315598 3.301746 0.731945
123.087494 108.369354 0.696816 0.707851
92.290512 84.561684 -0.000018 0.546365
79.379356 74.580688 -0.000033 0.337789
73.835861 70.295280 -0.000011 0.336004
70.748466 67.908569 0.000002 0.343938
68.777504 66.384911 -0.000000 0.335943
67.407593 65.325897 0.000001 0.341024
66.366699 64.521233 0.010010 1.000000
nan nan nan 0.000000
nan nan nan 0.000000
nan nan nan 0.000000
nan nan nan 0.000000
nan nan nan 0.000000
nan nan nan 0.000000
nan nan nan 0.000000
nan nan nan 0.000000
nan nan nan 0.000000
92.463547 84.336212 -0.000017 0.540581
79.482986 74.445564 -0.000028 0.338155
73.909714 70.198959 -0.000005 0.339818
70.805779 67.833900 0.000001 0.336309
68.824219 66.324036 0.000000 0.339178
67.446953 65.274612 0.000000 0.344625
66.432251 64.501457 0.000000 0.331930
nan nan nan 0.000000
nan nan nan 0.000000
nan nan nan 0.000000
nan nan nan 0.000000
nan nan nan 0.000000
nan nan nan 0.000000
nan nan nan 0.000000
nan nan nan 0.000000
nan nan nan 0.000000
92.635010 84.109543 -0.000017 0.541299
79.585678 74.309723 -0.000024 0.336904
73.982971 70.102196 -0.000011 0.334096
70.862587 67.758842 -0.000002 0.338994
68.870514 66.262833 0.000001 0.333288
67.485970 65.223068 -0.000002 0.340307
66.465881 64.457001 0.000001 0.341222
nan nan nan 0.000000
nan nan nan 0.000000
nan nan nan 0.000000
nan nan nan 0.000000
nan nan nan 0.000000
nan nan nan 0.000000
nan nan nan 0.000000
nan nan nan 0.000000
nan nan nan 0.000000
92.804871 83.881668 -0.000017 0.536736
79.687492 74.173233 -0.000028 0.338293
74.055527 70.004898 -0.000013 0.339452
70.918869 67.683395 -0.000006 0.335821
68.916367 66.201309 0.000003 0.342733
67.524620 65.171242 -0.000005 0.336477
66.499191 64.412300 0.000003 0.335866
nan nan nan 0.000000
nan nan nan 0.000000
nan nan nan 0.000000
nan nan nan 0.000000
nan nan nan 0.000000
nan nan nan 0.000000
nan nan nan 0.000000
nan nan nan 0.000000
nan nan nan 0.000000
92.973167 83.652634 -0.000017 0.545113
79.788261 74.035957 -0.000022 0.337911
74.127396 69.907097 -0.000013 0.338888
70.974625 67.607559 -0.000010 0.339391
68.961807 66.139465 0.000002 0.336751
67.562897 65.119148 -0.000005 0.332784
66.532196 64.367386 0.000002 0.335836
nan nan nan 0.000000
nan nan nan 0.000000
nan nan nan 0.000000
nan nan nan 0.000000
nan nan nan 0.000000
nan nan nan 0.000000
nan nan nan 0.000000
nan nan nan 0.000000
nan nan nan 0.000000
93.139847 83.422424 -0.000017 0.539330
79.888107 73.898010 -0.000020 0.340047
74.198578 69.808792 -0.000014 0.338567
71.029823 67.531311 -0.000010 0.337102
69.006813 66.077316 0.000002 0.339910
67.600784 65.066765 0.000002 0.341146
66.564888 64.322235 0.000002 0.338552
nan nan nan 0.000000
nan nan nan 0.000000
nan nan nan 0.000000
nan nan nan 0.000000
nan nan nan 0.000000
nan nan nan 0.000000
nan nan nan 0.000000
nan nan nan 0.000000
nan nan nan 0.000000
93.304916 83.191048 -0.000016 0.538140
79.987091 73.759445 -0.000027 0.337789
74.269081 69.709991 -0.000015 0.339696
71.084488 67.454681 -0.000008 0.335058
69.051384 66.014854 0.000001 0.343816
67.638321 65.014130 0.000005 0.340215
66.597260 64.276855 0.000002 0.336980
nan nan nan 0.000000
nan nan nan 0.000000
nan nan nan 0.000000
nan nan nan 0.000000
nan nan nan 0.000000
nan nan nan 0.000000
nan nan nan 0.000000
nan nan nan 0.000000
nan nan nan 0.000000
93.468369 82.958534 -0.000016 0.540825
80.085075 73.620178 -0.000033 0.338415
74.338882 69.610703 -0.000016 0.337087
71.138588 67.377655 -0.000004 0.333959
69.095520 65.952080 0.000000 0.339284
67.675491 64.961235 0.000006 0.340383
66.629318 64.231255 0.000002 0.341573
nan nan nan 0.000000
nan nan nan 0.000000
nan nan nan 0.000000
nan nan nan 0.000000
nan nan nan 0.000000
nan nan nan 0.000000
nan nan nan 0.000000
nan nan nan 0.000000
nan nan nan 0.000000
93.630173 82.724876 -0.000016 0.538491
80.181961 73.480133 -0.000026 0.338064
74.407990 69.510925 -0.000016 0.339055
71.192169 67.300262 -0.000001 0.339666
69.139206 65.888992 -0.000000 0.344198
67.712296 64.908089 0.000007 0.341802
66.661087 64.185455 -0.000008 0.340856
nan nan nan 0.000000
nan nan nan 0.000000
nan nan nan 0.000000
nan nan nan 0.000000
nan nan nan 0.000000
nan nan nan 0.000000
nan nan nan 0.000000
110.964828 94.120659 3.005616 0.465812
nan nan nan 0.000000
93.790375 82.490105 -0.000017 0.538125
80.277863 73.339424 -0.000020 0.336400
74.476402 69.410667 -0.000016 0.340490
71.245216 67.222511 -0.000000 0.333852
69.182465 65.825607 -0.000002 0.339239
67.748734 64.854683 0.000008 0.340261
66.692497 64.139404 -0.000007 0.337163
nan nan nan 0.000000
nan nan nan 0.000000
nan nan nan 0.000000
nan nan nan 0.000000
nan nan nan 0.000000
nan nan nan 0.000000
nan nan nan 0.000000
111.676659 94.079781 3.014911 0.471199
112.160492 94.402527 0.975572 0.484428
93.948929 82.254227 -0.000017 0.543053
80.372818 73.198067 -0.000015 0.336446
74.544113 69.309937 -0.000017 0.336187
71.297722 67.144386 0.000000 0.334401
69.225273 65.761925 -0.000003 0.330953
67.784790 64.801025 0.000009 0.333303
66.723557 64.093117 0.000005 0.335439
nan nan nan 0.000000
nan nan nan 0.000000
nan nan nan 0.000000
nan nan nan 0.000000
nan nan nan 0.000000
nan nan nan 0.000000
111.484169 93.435226 5.021544 0.481926
112.117874 93.851593 3.018870 0.480674
nan nan nan 0.000000
94.105820 82.017235 -0.000016 0.538933
80.466782 73.056053 -0.000012 0.337423
74.611115 69.208740 -0.000018 0.336660
71.349686 67.065895 0.000001 0.331441
69.267639 65.697945 -0.000004 0.342428
67.820473 64.747116 0.000010 0.341299
66.754326 64.046638 0.000006 0.341329
nan nan nan 0.000000
nan nan nan 0.000000
nan nan nan 0.000000
nan nan nan 0.000000
nan nan nan 0.000000
111.242432 92.767372 6.996606 0.492805
111.474014 92.917221 5.007226 0.476188
111.183899 92.729492 2.996037 0.471199
nan nan nan 0.000000
94.261047 81.779144 -0.000016 0.542077
80.559784 72.913406 -0.000011 0.336156
74.677406 69.107071 -0.000018 0.336507
71.401093 66.987045 0.000001 0.336767
69.309555 65.633667 -0.000004 0.336812
67.855774 64.692963 0.000011 0.333165
66.784767 63.999939 0.000007 0.340414
nan nan nan 0.000000
nan nan nan 0.000000
nan nan nan 0.000000
nan nan nan 0.000000
nan nan nan 0.000000
nan nan nan 0.000000
nan nan nan 0.000000
nan nan nan 0.000000
nan nan nan 0.000000
94.414612 81.539986 -0.000016 0.537743
80.651886 72.770180 -0.000020 0.338933
74.742996 69.004944 -0.000019 0.335225
71.451950 66.907837 0.000001 0.338338
69.351021 65.569099 -0.000005 0.336965
67.890709 64.638565 0.000011 0.333715
66.814880 63.953033 0.000008 0.338643
nan nan nan 0.000000
nan nan nan 0.000000
nan nan nan 0.000000
nan nan nan 0.000000
nan nan nan 0.000000
nan nan nan 0.000000
112.111588 92.308273 5.017566 0.492714
111.303642 91.801338 2.989528 0.472480
113.961670 93.469101 0.959122 0.482353
94.566513 81.299759 -0.000016 0.543481
80.742996 72.626312 -0.000030 0.337926
74.807861 68.902359 -0.000020 0.338582
71.502251 66.828285 0.000002 0.336385
69.392029 65.504242 -0.000005 0.336645
67.925262 64.583931 0.000009 0.345205
66.844673 63.905922 0.000008 0.339971
nan nan nan 0.000000
nan nan nan 0.000000
nan nan nan 0.000000
nan nan nan 0.000000
nan nan nan 0.000000
nan nan nan 0.000000
nan nan nan 0.000000
111.394676 91.361366 2.986988 0.477852
nan nan nan 0.000000
94.716721 81.058487 -0.000016 0.540230
80.833038 72.481781 -0.000034 0.338369
74.872017 68.799332 -0.000020 0.338903
71.551994 66.748375 0.000002 0.342550
69.432587 65.439102 -0.000005 0.327138
67.959442 64.529053 0.000007 0.324331
66.874130 63.858597 0.000009 0.339666
nan nan nan 0.000000
nan nan nan 0.000000
nan nan nan 0.000000
nan nan nan 0.000000
nan nan nan 0.000000
nan nan nan 0.000000
nan nan nan 0.000000
nan nan nan 0.000000
114.141479 92.539001 0.964619 0.480156
94.865250 80.816162 -0.000015 0.539147
80.921967 72.336555 -0.000028 0.338170
74.935448 68.695854 -0.000021 0.338430
71.601181 66.668121 0.000003 0.337331
69.472694 65.373680 -0.000006 0.338537
67.993233 64.473946 0.000005 0.340978
66.903252 63.811073 0.000010 0.337530
133.409149 103.558334 23.407225 0.328161
133.409149 103.558334 20.458117 0.329366
133.429001 103.570221 17.554626 0.396246
133.428986 103.570206 14.680586 0.419608
133.428970 103.570206 11.834318 0.416022
133.428970 103.570206 9.009415 0.419608
133.409134 103.558334 6.198496 0.333394
133.409134 103.558319 3.398500 0.335424
133.428986 103.570206 0.601121 0.378332
95.012077 80.572815 -0.000015 0.543633
81.009903 72.190727 -0.000024 0.337682
74.998161 68.591934 -0.000021 0.334493
71.649803 66.587517 0.000004 0.340368
69.512329 65.307968 -0.000004 0.332021
68.026634 64.418594 0.000005 0.332296
66.932053 63.763344 0.000011 0.338186
133.509109 102.924744 23.347712 0.678431
133.509064 102.924713 20.406792 0.678431
133.429001 102.877548 17.490267 0.421164
133.428986 102.877533 14.628117 0.397314
133.428986 102.877533 11.793633 0.423743
133.428970 102.877518 8.980412 0.396078
133.509079 102.924721 6.186825 0.678431
133.509079 102.924728 3.394610 0.678431
133.428986 102.877533 0.606909 0.413840
95.157211 80.328445 -0.000015 0.544091
81.096855 72.044312 -0.000023 0.338796
75.060135 68.487579 -0.000022 0.337972
71.697868 66.506592 0.000005 0.336843
69.551498 65.241982 -0.000001 0.336202
68.059647 64.363007 0.000005 0.337331
66.960510 63.715416 0.000011 0.342489
133.509094 102.236977 23.260778 0.678431
133.429001 102.190536 20.311850 0.395270
133.429016 102.190536 17.427193 0.352895
133.428986 102.190521 14.576693 0.393652
133.428970 102.190521 11.753747 0.405829
133.428970 102.190521 8.951986 0.362615
133.509079 102.236961 6.169777 0.678431
133.509079 102.236969 3.388934 0.678431
133.429001 102.190536 0.612583 0.362295
95.300629 80.083061 -0.000015 0.539544
81.182831 71.897324 -0.000028 0.339055
75.121391 68.382797 -0.000022 0.339574
71.745361 66.425323 0.000005 0.336614
69.590210 65.175728 0.000001 0.337926
68.092270 64.307198 0.000004 0.333684
66.988655 63.667301 0.000006 0.341985
133.509109 101.554779 23.175583 0.678782
133.429016 101.509079 20.238472 0.399863
133.429001 101.509079 17.365368 0.379416
133.428986 101.509071 14.526294 0.404028
133.428986 101.509064 11.714664 0.372229
133.509079 101.554764 8.931689 0.399603
133.509079 101.554764 6.153065 0.678431
133.509064 101.554749 3.383365 0.678431
133.428986 101.509071 0.618142 0.391226
95.442329 79.836693 -0.000015 0.538552
81.267784 71.749741 -0.000033 0.338262
75.181908 68.277588 -0.000023 0.335805
71.792290 66.343727 0.000005 0.336355
69.628456 65.109200 0.000004 0.342367
68.124496 64.251152 0.000005 0.335729
67.016449 63.618980 0.000007 0.329290
133.509094 100.877968 23.092079 0.680766
133.428986 100.833008 20.166548 0.410376
133.429001 100.833008 17.304779 0.391028
133.428970 100.833000 14.476899 0.396963
133.428970 100.833000 11.676356 0.387243
133.509064 100.877960 8.904356 0.624796
133.509079 100.877960 6.136690 0.678431
133.509079 100.877960 3.377912 0.678431
133.428986 100.833008 0.623591 0.412009
95.582321 79.589340 -0.000015 0.539117
81.351669 71.601547 -0.000035 0.337957
75.241684 68.171959 -0.000023 0.338170
71.838654 66.261810 0.000005 0.334829
69.666237 65.042412 0.000007 0.341253
68.156342 64.194893 0.000004 0.336538
67.043900 63.570469 0.000008 0.336797
133.509094 100.206459 23.010260 0.678431
133.428986 100.162231 20.096077 0.361715
133.429001 100.162231 17.245411 0.362493
133.428986 100.162231 14.428498 0.399558
133.428986 100.162231 11.638820 0.392737
133.509064 100.206444 8.877573 0.678431
133.509079 100.206451 6.120644 0.678431
133.509064 100.206451 3.372566 0.678431
133.428986 100.162231 0.628931 0.414603
95.720566 79.341011 -0.000015 0.541863
81.434448 71.452728 -0.000030 0.337224
75.300690 68.065895 -0.000017 0.339544
71.884438 66.179565 0.000006 0.337377
69.703560 64.975365 0.000008 0.333394
68.187790 64.138412 0.000002 0.343267
67.071014 63.521767 0.000007 0.345739
133.509079 99.540092 22.930090 0.678431
133.429001 99.496597 20.027029 0.406744
133.428986 99.496597 17.187231 0.398352
133.428986 99.496597 14.381079 0.409262
133.428986 99.496597 11.602040 0.401862
133.509064 99.540085 8.851328 0.678431
133.509064 99.540085 6.104919 0.678431
133.509079 99.540085 3.367329 0.678431
133.428986 99.496597 0.634162 0.442664
95.857071 79.091713 -0.000015 0.542733
81.516182 71.303345 -0.000025 0.335058
75.358940 67.959412 -0.000012 0.339193
71.929642 66.097000 0.000006 0.336858
69.740417 64.908058 0.000007 0.340719
68.218857 64.081711 0.000000 0.341253
67.097786 63.472874 0.000007 0.336751
133.509079 98.878777 22.851532 0.678431
133.428986 98.835999 19.959375 0.412985
133.429001 98.836006 17.130239 0.419516
133.428986 98.835999 14.334613 0.431678
133.428986 98.835999 11.566009 0.411704
133.509064 98.878769 8.825615 0.678431
133.509064 98.878769 6.089512 0.678431
133.509048 98.878769 3.362198 0.678431
133.428986 98.835999 0.639287 0.398352
95.991829 78.841476 -0.000015 0.538064
81.596878 71.153389 -0.000020 0.339452
75.416451 67.852531 -0.000007 0.336751
71.974274 66.014130 0.000006 0.335546
69.776810 64.840500 0.000005 0.338109
68.249512 64.024803 -0.000001 0.337331
67.124222 63.423801 0.000006 0.332845
133.429001 98.180313 22.751923 0.394675
133.428970 98.180298 19.893089 0.396765
133.429001 98.180313 17.074402 0.409140
133.429001 98.180313 14.289092 0.398932
133.429001 98.180313 11.530704 0.396078
133.509064 98.222351 8.800423 0.678431
133.509064 98.222351 6.074420 0.679683
133.509079 98.222366 3.357169 0.678431
133.429001 98.180313 0.644309 0.427771
96.124863 78.590317 -0.000015 0.542870
81.676544 71.002884 -0.000016 0.335714
75.473198 67.745247 0.000000 0.336263
72.018341 65.930954 0.000005 0.338720
69.812737 64.772697 0.000004 0.338491
68.279778 63.967670 -0.000003 0.342596
67.150314 63.374542 0.000004 0.335225
133.428986 97.529404 22.676624 0.396078
133.428986 97.529404 19.828165 0.408011
133.429001 97.529404 17.019703 0.409522
133.428986 97.529404 14.244497 0.403464
133.429001 97.529404 11.496119 0.411658
133.401123 97.515015 8.765789 0.341711
133.401138 97.515030 6.053671 0.343282
133.401138 97.515030 3.350259 0.343282
133.429001 97.529404 0.649229 0.394202
96.256111 78.338219 -0.000014 0.538323
81.754913 70.851707 0.000009 0.340108
75.529198 67.637566 0.000008 0.338750
72.061806 65.847458 0.000006 0.338003
69.848183 64.704636 0.000002 0.333501
68.309639 63.910336 -0.000004 0.332418
67.176064 63.325104 0.000003 0.338308
133.428986 96.883171 22.602867 0.401968
133.428970 96.883163 19.764568 0.397024
133.428986 96.883179 16.966124 0.391089
133.428986 96.883171 14.200821 0.402197
133.428986 96.883179 11.462244 0.407446
133.509048 96.923798 8.751578 0.678431
133.509033 96.923790 6.045155 0.681544
133.509033 96.923798 3.347422 0.678431
133.428986 96.883179 0.654047 0.415091
96.385612 78.085220 -0.000014 0.542367
81.832512 70.700134 0.000007 0.336858
75.584435 67.529495 0.000015 0.336950
72.104698 65.763672 0.000005 0.337896
69.883148 64.636330 0.000001 0.332692
68.339104 63.852791 -0.000005 0.340291
67.201462 63.275486 0.000003 0.332128
133.428986 96.241508 22.530632 0.361578
133.428986 96.241508 19.702290 0.390158
133.429001 96.241516 16.913654 0.411276
133.429001 96.241516 14.158048 0.402945
133.428986 96.241508 11.429073 0.389654
133.509048 96.281433 8.727909 0.678431
133.509048 96.281433 6.030974 0.678431
133.509064 96.281441 3.342698 0.678431
133.428986 96.241508 0.658766 0.394858
96.513344 77.831314 -0.000014 0.537530
81.908981 70.547981 0.000013 0.337423
75.638962 67.421059 0.000018 0.336492
72.147003 65.679588 0.000004 0.338689
69.917648 64.567787 -0.000001 0.331456
68.368156 63.795036 -0.000005 0.337606
67.226517 63.225693 0.000001 0.331914
133.428986 95.604301 22.459898 0.398703
133.428970 95.604294 19.641294 0.413779
133.429016 95.604309 16.862274 0.406653
133.429001 95.604301 14.116158 0.407034
133.450790 95.614983 11.399378 0.466423
133.450790 95.614983 8.699409 0.434623
133.450775 95.614975 6.013895 0.434623
133.450775 95.614975 3.337009 0.455238
133.428986 95.604301 0.663388 0.384344
96.639282 77.576523 -0.000014 0.540520
81.984398 70.395309 0.000017 0.338338
75.692764 67.312263 0.000016 0.339269
72.188721 65.595207 0.000004 0.338430
69.951660 64.499001 -0.000003 0.339010
68.396812 63.737087 -0.000006 0.336324
67.251228 63.175724 0.000000 0.337346
133.429001 94.971436 22.390642 0.439216
133.428970 94.971420 19.581573 0.406378
133.428986 94.971436 16.811962 0.407980
