# This PCD file was generated using the MATLABÂ® pcwrite function
# from Computer Vision ToolboxÂ®.
# .PCD v.7 - Point Cloud Data file format
VERSION .7
FIELDS x y z intensity
SIZE 4 4 4 4
TYPE F F F F
COUNT 1 1 1 1
WIDTH 1193
HEIGHT 1
VIEWPOINT 0 0 0 1 0 0 0
POINTS 1193
DATA ascii
-38.020199 -14.903312 2.542604 0.784695
-38.020199 -14.903311 2.180739 0.762371
-38.020199 -14.903312 1.819261 0.595712
-38.020199 -14.903312 1.457395 0.564584
-38.020199 -14.903311 1.094364 0.572564
-38.020199 -14.903311 0.729378 0.550362
-38.020199 -14.903312 0.361634 0.581155
-37.967621 -14.911827 -0.000010 0.538796
-36.258369 -15.188665 -0.000008 0.534493
-34.999073 -15.392627 -0.000007 0.538582
-37.990314 -14.830162 4.762228 0.678431
-37.990314 -14.830161 4.381698 0.678431
-38.020168 -14.825112 4.012019 0.735912
-38.020176 -14.825110 3.640258 0.723217
-38.020187 -14.825109 3.272090 0.612360
-38.020195 -14.825108 2.906683 0.596994
-38.020199 -14.825107 2.543232 0.797040
-38.020199 -14.825107 2.180948 0.778073
-38.020199 -14.825107 1.819052 0.586755
-38.020199 -14.825107 1.456768 0.575128
-38.020199 -14.825107 1.093317 0.540154
-38.020199 -14.825107 0.727909 0.544121
-38.020199 -14.825107 0.359739 0.574014
-37.955090 -14.836120 -0.000010 0.552529
-36.247810 -15.124884 -0.000008 0.529656
-34.989967 -15.337632 -0.000007 0.546197
-37.990318 -14.751988 4.765562 0.678431
-37.990314 -14.751988 4.384572 0.678431
-38.020161 -14.746726 4.014445 0.759167
-38.020168 -14.746724 3.642236 0.712963
-38.020180 -14.746722 3.273623 0.721645
-38.020187 -14.746720 2.907776 0.542138
-38.020199 -14.746719 2.543887 0.796933
-38.020199 -14.746719 2.181166 0.706355
-38.020199 -14.746718 1.818834 0.566613
-38.020199 -14.746719 1.456112 0.604791
-38.020203 -14.746718 1.092222 0.556268
-38.020199 -14.746719 0.726374 0.578820
-38.020199 -14.746719 0.357759 0.566690
-37.942028 -14.760503 -0.000010 0.552575
-36.236805 -15.061179 -0.000008 0.542748
-34.980480 -15.282703 -0.000007 0.549889
-37.990318 -14.673623 4.769038 0.678431
-37.990314 -14.673624 4.387568 0.678431
-38.020153 -14.668147 4.016976 0.719371
-38.020161 -14.668146 3.644299 0.816678
-38.020172 -14.668143 3.275224 0.612894
-38.020184 -14.668142 2.908917 0.806760
-38.020191 -14.668140 2.544571 0.798627
-37.935131 -14.683752 2.179979 0.413230
-37.935131 -14.683752 1.820021 0.602090
-37.935131 -14.683752 1.459678 0.597299
-37.935131 -14.683752 1.098173 0.571267
-37.935131 -14.683752 0.734723 0.539315
-37.935131 -14.683752 0.368525 0.457160
-37.928440 -14.684979 -0.000010 0.527291
-36.225361 -14.997553 -0.000008 0.508629
-34.970612 -15.227842 -0.000007 0.513603
-37.990314 -14.595057 4.772657 0.678431
-37.990314 -14.595057 4.390691 0.678431
-38.020145 -14.589366 4.019611 0.774090
-38.020157 -14.589364 3.646448 0.689799
-38.020164 -14.589363 3.276890 0.714641
-38.020176 -14.589360 2.910105 0.793057
-38.020187 -14.589358 2.545283 0.753460
-37.990314 -14.595057 2.181133 0.678431
-37.990314 -14.595057 1.818866 0.678431
-37.990314 -14.595057 1.456211 0.678431
-37.990314 -14.595057 1.092388 0.678431
-37.990311 -14.595057 0.726606 0.678431
-37.961521 -14.600550 0.362407 0.500954
-37.914322 -14.609552 -0.000010 0.553536
-36.213467 -14.934009 -0.000008 0.517098
-34.960358 -15.173052 -0.000007 0.547112
-37.990314 -14.516280 4.776423 0.678431
-37.990314 -14.516279 4.393937 0.678431
-38.020138 -14.510374 4.022353 0.646403
-38.020149 -14.510372 3.648683 0.688701
-38.020157 -14.510370 3.278623 0.546929
-38.020168 -14.510368 2.911340 0.830442
-38.020180 -14.510366 2.546022 0.819425
-37.990314 -14.516279 2.181379 0.678431
-37.990314 -14.516280 1.818621 0.678431
-37.990311 -14.516280 1.455473 0.678431
-37.990311 -14.516280 1.091156 0.678431
-37.990314 -14.516280 0.724877 0.678431
-37.946815 -14.524893 0.362407 0.558373
-37.899681 -14.534225 -0.000010 0.555001
-36.201134 -14.870547 -0.000008 0.512581
-34.949722 -15.118334 -0.000007 0.534371
-37.990314 -14.437286 4.780334 0.678431
-37.990314 -14.437286 4.397309 0.678431
-38.020130 -14.431166 4.025200 0.675349
-38.020142 -14.431164 3.651004 0.737667
-38.020149 -14.431162 3.280423 0.793805
-38.020161 -14.431160 2.912623 0.807416
-38.020180 -14.431156 2.546792 0.618250
-37.990314 -14.437286 2.181635 0.678431
-37.990314 -14.437286 1.818365 0.678431
-37.990311 -14.437286 1.454706 0.678431
-37.990311 -14.437287 1.089875 0.678431
-37.990311 -14.437286 0.723081 0.678431
-37.935131 -14.448614 0.361869 0.510140
-37.884514 -14.459004 -0.000010 0.521538
-36.188354 -14.807176 -0.000008 0.558724
-34.938702 -15.063692 -0.000007 0.550607
-37.935131 -14.369795 4.770261 0.578744
-37.935135 -14.369794 4.388623 0.516396
-38.020123 -14.351728 4.028154 0.681270
-38.020134 -14.351727 3.653412 0.726421
-38.020142 -14.351725 3.282291 0.813428
-38.020153 -14.351723 2.913954 0.803784
-38.020180 -14.351717 2.547590 0.611307
-37.990314 -14.358065 2.181900 0.678431
-37.990314 -14.358065 1.818100 0.678431
-37.990311 -14.358066 1.453910 0.678431
-37.990314 -14.358065 1.088547 0.678431
-37.990311 -14.358066 0.721217 0.678431
-37.935131 -14.369794 0.359478 0.446983
-37.868824 -14.383888 -0.000010 0.534020
-36.175133 -14.743893 -0.000008 0.560098
-34.927303 -15.009128 -0.000007 0.529671
-37.990311 -14.278608 4.788597 0.679026
-37.990311 -14.278608 4.404434 0.677836
-38.020119 -14.272055 4.031217 0.517372
-38.020126 -14.272053 3.655910 0.747066
-38.020138 -14.272051 3.284228 0.804211
-38.020149 -14.272047 2.915334 0.704997
-38.020180 -14.272041 2.548417 0.618723
-37.990314 -14.278607 2.182174 0.678431
-37.990314 -14.278607 1.817825 0.678431
-37.990314 -14.278607 1.453085 0.678431
-37.990311 -14.278608 1.087170 0.678431
-37.990311 -14.278608 0.719285 0.678431
-37.935131 -14.290741 0.357000 0.483604
-37.852608 -14.308884 -0.000010 0.546517
-36.161472 -14.680704 -0.000008 0.526574
-34.915524 -14.954644 -0.000007 0.540475
-37.990311 -14.198907 4.792952 0.678431
-37.990311 -14.198907 4.408189 0.678431
-38.020111 -14.192137 4.034388 0.549020
-38.020119 -14.192135 3.658494 0.790616
-38.020126 -14.192133 3.286232 0.842588
-38.020149 -14.192127 2.916764 0.755001
-38.020180 -14.192121 2.549274 0.625895
-37.990314 -14.198907 2.182459 0.678431
-37.990314 -14.198907 1.817541 0.678431
-37.990314 -14.198906 1.452231 0.678431
-37.990311 -14.198907 1.085745 0.678431
-37.990311 -14.198907 0.717285 0.678431
-37.935127 -14.211444 0.354435 0.539223
-37.835869 -14.233996 -0.000010 0.553033
-36.147369 -14.617613 -0.000008 0.518456
-34.903366 -14.900244 -0.000007 0.526314
-37.990311 -14.118954 4.797457 0.678431
-37.990311 -14.118954 4.412073 0.678431
-38.020103 -14.111966 4.037668 0.655024
-38.020115 -14.111963 3.661168 0.598505
-38.020119 -14.111961 3.288306 0.748150
-38.020149 -14.111955 2.918243 0.673655
-38.020180 -14.111948 2.550160 0.686336
-37.990314 -14.118952 2.182754 0.678431
-37.990314 -14.118953 1.817246 0.678431
-37.990314 -14.118953 1.451347 0.678431
-37.990314 -14.118953 1.084270 0.678431
-37.990311 -14.118953 0.715216 0.678431
-37.935131 -14.131895 0.351780 0.528115
-37.818604 -14.159226 -0.000010 0.568002
-36.132828 -14.554623 -0.000008 0.554711
-34.890823 -14.845931 -0.000007 0.572290
-37.990311 -14.038738 4.802114 0.678431
-37.990311 -14.038738 4.416089 0.678431
-38.020096 -14.031531 4.041059 0.561456
-38.020103 -14.031530 3.663932 0.578363
-38.020119 -14.031527 3.290451 0.584085
-38.020149 -14.031519 2.919772 0.668788
-38.020180 -14.031511 2.551075 0.610666
-37.990314 -14.038737 2.183058 0.678431
-37.990314 -14.038737 1.816942 0.678431
-37.990314 -14.038737 1.450434 0.678431
-37.990314 -14.038737 1.082745 0.678431
-37.990311 -14.038737 0.713077 0.678431
-37.935131 -14.052088 0.349036 0.504936
-37.800819 -14.084580 -0.000010 0.549386
-36.117847 -14.491735 -0.000008 0.544732
-34.877907 -14.791708 -0.000007 0.519539
-37.990311 -13.958248 4.806923 0.678431
-37.990311 -13.958248 4.420235 0.678431
-38.020088 -13.950825 4.044560 0.563790
-38.020096 -13.950822 3.666787 0.569680
-38.020119 -13.950816 3.292665 0.591455
-38.020149 -13.950809 2.921350 0.690761
-38.020180 -13.950801 2.552021 0.630045
-37.990314 -13.958248 2.183372 0.678431
-37.990314 -13.958248 1.816628 0.678431
-37.990314 -13.958248 1.449491 0.678431
-37.990314 -13.958248 1.081171 0.678431
-37.990314 -13.958248 0.710869 0.678431
-37.935131 -13.972006 0.346202 0.482521
-37.782516 -14.010057 -0.000010 0.528832
-36.102425 -14.428951 -0.000008 0.541543
-34.864613 -14.737574 -0.000007 0.520806
-37.990311 -13.877481 4.811886 0.678431
-37.990311 -13.877480 4.424515 0.678431
-38.020081 -13.869838 4.048173 0.561425
-38.020088 -13.869835 3.669733 0.551827
-38.020119 -13.869827 3.294950 0.609445
-38.020149 -13.869820 2.922979 0.682460
-38.020180 -13.869812 2.552997 0.619806
-37.990314 -13.877480 2.183696 0.678431
-37.990314 -13.877480 1.816304 0.678431
-37.990311 -13.877481 1.448518 0.678431
-37.990311 -13.877481 1.079547 0.678431
-37.990314 -13.877481 0.708590 0.678431
-37.935131 -13.891648 0.343279 0.481498
-37.763691 -13.935667 -0.000010 0.522637
-36.086567 -14.366280 -0.000008 0.547646
-34.850937 -14.683536 -0.000007 0.572854
-37.990311 -13.796421 4.817005 0.678431
-37.990311 -13.796421 4.428928 0.678431
-38.020073 -13.788558 4.051900 0.544244
-38.020092 -13.788553 3.672772 0.612360
-38.020119 -13.788546 3.297308 0.616129
-38.020149 -13.788538 2.924659 0.664088
-38.020180 -13.788529 2.554004 0.623178
-37.990314 -13.796421 2.184031 0.678431
-37.990314 -13.796421 1.815969 0.678431
-37.990314 -13.796421 1.447514 0.678431
-37.990314 -13.796420 1.077871 0.678431
-37.990314 -13.796421 0.706239 0.678431
-37.935131 -13.811001 0.340263 0.482353
-37.744347 -13.861407 -0.000010 0.540993
-36.070271 -14.303719 -0.000008 0.539528
-34.836884 -14.629593 -0.000007 0.537255
-37.990311 -13.715063 4.822279 0.678431
-37.990311 -13.715064 4.433475 0.678431
-38.020065 -13.706980 4.055741 0.676997
-38.020092 -13.706972 3.675904 0.545037
-38.020119 -13.706965 3.299736 0.651118
-38.020149 -13.706957 2.926390 0.710933
-38.020180 -13.706948 2.555041 0.653193
-37.990314 -13.715063 2.184375 0.678431
-37.990314 -13.715063 1.815625 0.678431
-37.990314 -13.715063 1.446479 0.678431
-37.990314 -13.715063 1.076144 0.678431
-37.990314 -13.715063 0.703816 0.678431
-37.935135 -13.730056 0.337155 0.519295
-37.724487 -13.787286 -0.000010 0.542428
-36.053535 -14.241274 -0.000008 0.539956
-34.822460 -14.575750 -0.000007 0.522606
-37.990311 -13.633396 4.827711 0.678431
-37.990311 -13.633396 4.438160 0.678431
-38.020058 -13.625091 4.059697 0.568444
-38.020088 -13.625082 3.679130 0.556832
-38.020119 -13.625074 3.302239 0.556146
-38.020149 -13.625065 2.928174 0.556344
-38.020180 -13.625057 2.556109 0.701564
-37.990314 -13.633395 2.184730 0.678431
-37.990314 -13.633395 1.815270 0.678431
-37.990314 -13.633395 1.445414 0.678431
-37.990314 -13.633396 1.074366 0.678431
-37.990311 -13.633396 0.701322 0.678431
-37.935131 -13.648803 0.333955 0.511910
-37.704113 -13.713305 -0.000010 0.528115
-36.036369 -14.178946 -0.000008 0.545098
-34.807655 -14.522010 -0.000007 0.540398
-37.990311 -13.551410 4.833303 0.678431
-37.990311 -13.551410 4.442982 0.678431
-38.020058 -13.542881 4.063769 0.579812
-38.020092 -13.542871 3.682450 0.589670
-38.020119 -13.542863 3.304814 0.542321
-38.020149 -13.542854 2.930009 0.555886
-38.020180 -13.542846 2.557209 0.570397
-37.990314 -13.551409 2.185096 0.678431
-37.990314 -13.551409 1.814905 0.678431
-37.990314 -13.551409 1.444317 0.678431
-37.990314 -13.551410 1.072536 0.678431
-37.990314 -13.551409 0.698753 0.678431
-37.935131 -13.567233 0.330660 0.511223
-37.683220 -13.639468 -0.000010 0.520897
-36.018768 -14.116741 -0.000009 0.530434
-34.792480 -14.468374 -0.000007 0.549874
-37.935127 -13.485337 4.824646 0.722942
-37.935127 -13.485336 4.435516 0.534325
-38.020058 -13.460340 4.067960 0.563973
-38.020088 -13.460331 3.685866 0.527550
-38.020119 -13.460321 3.307463 0.497948
-38.020149 -13.460313 2.931897 0.558450
-38.020180 -13.460304 2.558340 0.567514
-37.990311 -13.469094 2.185471 0.678431
-37.990311 -13.469094 1.814529 0.678431
-37.990314 -13.469094 1.443189 0.678431
-37.990314 -13.469093 1.070653 0.678431
-37.990314 -13.469094 0.696111 0.678431
-37.935135 -13.485334 0.327271 0.516289
-37.661812 -13.565778 -0.000010 0.554238
-36.000732 -14.054660 -0.000008 0.543297
-34.776924 -14.414845 -0.000007 0.500938
-38.019951 -13.377492 4.852726 0.675135
-38.020004 -13.377476 4.459740 0.529717
-38.020054 -13.377461 4.072268 0.636316
-38.020088 -13.377451 3.689378 0.665568
-38.020119 -13.377442 3.310187 0.529259
-38.020149 -13.377432 2.933839 0.690089
-38.020180 -13.377423 2.559504 0.533211
-37.990314 -13.386440 2.185858 0.678431
-37.990314 -13.386440 1.814142 0.678431
-37.990314 -13.386440 1.442029 0.678431
-37.990314 -13.386439 1.068716 0.678431
-37.990314 -13.386440 0.693395 0.678431
-37.935131 -13.403101 0.323786 0.506386
-37.639885 -13.492241 -0.000010 0.516609
-35.982262 -13.992706 -0.000008 0.552270
-34.761002 -14.361426 -0.000007 0.558770
-38.019943 -13.294264 4.858819 0.557931
-38.019993 -13.294248 4.464993 0.611994
-38.020042 -13.294231 4.076694 0.655589
-38.020088 -13.294218 3.692988 0.517647
-38.020119 -13.294209 3.312986 0.632792
-38.020149 -13.294200 2.935834 0.492119
-38.020180 -13.294190 2.560699 0.587243
-37.990314 -13.303434 2.186255 0.678431
-37.990314 -13.303434 1.813745 0.678431
-37.990318 -13.303434 1.440837 0.678431
-37.990311 -13.303435 1.066727 0.678431
-37.990314 -13.303435 0.690603 0.678431
-37.935131 -13.320518 0.320204 0.476143
-37.617451 -13.418856 -0.000010 0.577905
-35.963364 -13.930882 -0.000008 0.530236
-34.744705 -14.308120 -0.000007 0.511620
-38.019928 -13.210679 4.865076 0.547311
-38.019985 -13.210661 4.470390 0.509239
-38.020035 -13.210646 4.081240 0.737438
-38.020081 -13.210631 3.696695 0.551476
-38.020119 -13.210619 3.315862 0.554803
-38.020149 -13.210609 2.937884 0.543267
-38.020180 -13.210600 2.561927 0.510216
-37.990314 -13.220074 2.186663 0.678431
-37.990314 -13.220074 1.813338 0.678431
-37.990314 -13.220074 1.439612 0.678431
-37.990314 -13.220074 1.064682 0.678431
-37.990314 -13.220074 0.687735 0.678431
-37.935131 -13.237578 0.316525 0.503487
-37.594505 -13.345632 -0.000010 0.548638
-35.944027 -13.869194 -0.000008 0.539651
-34.728035 -14.254930 -0.000007 0.528252
-38.019920 -13.126720 4.871504 0.529778
-38.019978 -13.126702 4.475932 0.560342
-38.020027 -13.126686 4.085909 0.677333
-38.020073 -13.126672 3.700500 0.602884
-38.020119 -13.126657 3.318815 0.533425
-38.020149 -13.126646 2.939988 0.542397
-38.020180 -13.126637 2.563188 0.562188
-37.990314 -13.136339 2.187081 0.678431
-37.990314 -13.136340 1.812919 0.678431
-37.990314 -13.136340 1.438355 0.678431
-37.990314 -13.136340 1.062583 0.678431
-37.990314 -13.136340 0.684790 0.678431
-37.935127 -13.154270 0.312748 0.497520
-37.571045 -13.272569 -0.000010 0.532036
-35.924263 -13.807641 -0.000008 0.545007
-34.710995 -14.201855 -0.000007 0.560708
-38.019905 -13.042380 4.878099 0.730327
-38.019966 -13.042360 4.481620 0.697948
-38.020016 -13.042344 4.090700 0.852445
-38.020065 -13.042328 3.704407 0.594369
-38.020107 -13.042313 3.321844 0.637476
-38.020149 -13.042300 2.942148 0.496315
-38.020180 -13.042290 2.564482 0.694209
-37.990314 -13.052224 2.187511 0.678431
-37.990314 -13.052224 1.812489 0.678431
-37.990314 -13.052224 1.437064 0.678431
-37.990314 -13.052225 1.060430 0.678431
-37.990314 -13.052224 0.681768 0.678431
-37.935127 -13.070581 0.308870 0.470466
-37.547077 -13.199670 -0.000010 0.545434
-35.904076 -13.746224 -0.000008 0.564858
-34.693584 -14.148901 -0.000007 0.546304
-37.990311 -12.967722 4.877037 0.671321
-37.990311 -12.967721 4.480690 0.671321
-38.020012 -12.957610 4.095617 0.772305
-38.020050 -12.957596 3.708415 0.659510
-38.020096 -12.957581 3.324952 0.500053
-38.020142 -12.957565 2.944364 0.586618
-38.020180 -12.957554 2.565810 0.568383
-37.990318 -12.967719 2.187953 0.678431
-37.990318 -12.967719 1.812048 0.678431
-37.990318 -12.967719 1.435740 0.678431
-37.990314 -12.967720 1.058219 0.678431
-37.990314 -12.967720 0.678667 0.678431
-37.935127 -12.986506 0.304893 0.416938
-37.522602 -13.126942 -0.000010 0.521584
-35.883453 -13.684954 -0.000008 0.529961
-34.675804 -14.096071 -0.000007 0.544991
-37.990311 -12.882813 4.883962 0.678431
-37.990311 -12.882813 4.486660 0.678431
-38.020012 -12.872468 4.100660 0.608301
-38.020054 -12.872454 3.712527 0.525902
-38.020092 -12.872441 3.328140 0.527840
-38.020134 -12.872427 2.946636 0.578408
-38.020180 -12.872411 2.567172 0.606470
-37.990314 -12.882811 2.188405 0.678431
-37.990314 -12.882811 1.811595 0.678431
-37.990314 -12.882811 1.434381 0.678431
-37.990314 -12.882811 1.055953 0.678431
-37.990314 -12.882811 0.675487 0.678431
-37.935127 -12.902028 0.300813 0.400549
-37.497620 -13.054386 -0.000010 0.541787
-35.862404 -13.623827 -0.000008 0.532448
-34.657661 -14.043364 -0.000007 0.535576
-37.990311 -12.797491 4.891061 0.678431
-37.990311 -12.797491 4.492782 0.678431
-38.020016 -12.786913 4.105832 0.566445
-38.020058 -12.786898 3.716743 0.758221
-38.020096 -12.786884 3.331410 0.543816
-38.020134 -12.786871 2.948967 0.513512
-38.020172 -12.786858 2.568568 0.579126
-37.990314 -12.797489 2.188869 0.678431
-37.990314 -12.797489 1.811131 0.678431
-37.990318 -12.797489 1.432989 0.678431
-37.990314 -12.797489 1.053629 0.678431
-37.990314 -12.797489 0.672227 0.678431
-38.020199 -12.786848 0.283235 0.651469
-37.472134 -12.982006 -0.000010 0.542290
-35.840935 -13.562850 -0.000008 0.542443
-34.639145 -13.990788 -0.000007 0.518502
-37.990311 -12.711743 4.898336 0.678431
-37.990311 -12.711743 4.499055 0.678431
-38.020012 -12.700933 4.111132 0.686305
-38.020061 -12.700914 3.721064 0.732692
-38.020100 -12.700900 3.334762 0.551125
-38.020138 -12.700887 2.951355 0.762936
-38.020180 -12.700872 2.569999 0.589029
-37.987968 -12.712597 2.189303 0.480598
-37.987968 -12.712597 1.810697 0.517861
-37.987965 -12.712596 1.431685 0.541039
-37.987968 -12.712597 1.051452 0.552544
-37.987968 -12.712596 0.669173 0.590417
-38.020203 -12.700864 0.278915 0.767269
-37.446136 -12.909807 -0.000009 0.545113
-35.819035 -13.502023 -0.000008 0.532677
-34.620262 -13.938341 -0.000007 0.533578
-37.990311 -12.625561 4.905790 0.678431
-37.990311 -12.625561 4.505482 0.678431
-38.020008 -12.614515 4.116560 0.544488
-38.020065 -12.614494 3.725490 0.686870
-38.020107 -12.614479 3.338195 0.647211
-38.020142 -12.614466 2.953802 0.549020
-38.020180 -12.614450 2.571465 0.579248
-38.020203 -12.614445 2.190352 0.566918
-38.020203 -12.614445 1.809647 0.665919
-38.020203 -12.614444 1.428534 0.608469
-38.020199 -12.614445 1.046193 0.549020
-38.020199 -12.614444 0.661794 0.583612
-38.020199 -12.614444 0.274488 0.679179
-37.419640 -12.837791 -0.000010 0.552071
-35.796711 -13.441352 -0.000008 0.493599
-34.601013 -13.886028 -0.000007 0.583215
-37.990311 -12.538927 4.913426 0.678431
-37.990311 -12.538927 4.512066 0.678431
-38.020000 -12.527649 4.122120 0.511299
-38.020061 -12.527625 3.730024 0.594385
-38.020111 -12.527607 3.341712 0.671611
-38.020149 -12.527592 2.956308 0.578012
-38.020187 -12.527578 2.572967 0.578317
-38.020199 -12.527573 2.190853 0.567575
-38.020199 -12.527573 1.809147 0.737285
-38.020199 -12.527574 1.427032 0.604776
-38.020203 -12.527573 1.043686 0.571862
-38.020199 -12.527573 0.658277 0.583169
-38.020203 -12.527573 0.269954 0.696513
-37.392639 -12.765961 -0.000010 0.526665
-35.773964 -13.380836 -0.000008 0.544640
-34.581402 -13.833851 -0.000007 0.565576
-37.990311 -12.451834 4.921243 0.678431
-37.990311 -12.451834 4.518806 0.678431
-38.019989 -12.440322 4.127812 0.531029
-38.020061 -12.440294 3.734666 0.588907
-38.020115 -12.440273 3.345312 0.690852
-38.020153 -12.440258 2.958875 0.588006
-38.020191 -12.440244 2.574504 0.531487
-38.020203 -12.440240 2.191365 0.566293
-38.020203 -12.440240 1.808635 0.720287
-38.020203 -12.440240 1.425495 0.609812
-38.020203 -12.440239 1.041120 0.588159
-38.020203 -12.440241 0.654677 0.539635
-38.020203 -12.440240 0.265312 0.676722
-37.365143 -12.694321 -0.000010 0.539727
-35.750797 -13.320483 -0.000008 0.521843
-34.561424 -13.781811 -0.000007 0.573434
-37.990311 -12.364265 4.929248 0.678431
-37.990311 -12.364265 4.525708 0.678431
-38.019978 -12.352520 4.133640 0.550454
-38.020061 -12.352488 3.739419 0.724712
-38.020115 -12.352467 3.348998 0.693294
-38.020157 -12.352449 2.961503 0.550820
-38.020199 -12.352433 2.576079 0.774090
-38.020203 -12.352432 2.191889 0.602686
-38.020203 -12.352431 1.808111 0.792920
-38.020203 -12.352432 1.423921 0.787167
-38.020203 -12.352431 1.038493 0.514534
-38.020203 -12.352431 0.650991 0.759152
-38.020199 -12.352432 0.260559 0.742321
-37.337143 -12.622873 -0.000010 0.571435
-35.727211 -13.260292 -0.000008 0.543313
-34.541084 -13.729912 -0.000007 0.526238
-37.990311 -12.276215 4.937439 0.678431
-37.990311 -12.276215 4.532771 0.678431
-38.019970 -12.264233 4.139604 0.640314
-38.020061 -12.264196 3.744283 0.542443
-38.020111 -12.264175 3.352770 0.670451
-38.020164 -12.264153 2.964192 0.553674
-38.020203 -12.264139 2.577690 0.497017
-38.020203 -12.264138 2.192425 0.576364
-38.020203 -12.264138 1.807574 0.717205
-38.020203 -12.264138 1.422310 0.527520
-38.020203 -12.264137 1.035804 0.543755
-38.020203 -12.264139 0.647219 0.613626
-38.020199 -12.264139 0.255695 0.543572
-37.308643 -12.551626 -0.000010 0.558999
-35.703201 -13.200268 -0.000008 0.554986
-34.520386 -13.678157 -0.000007 0.509087
-37.990311 -12.187664 4.945819 0.677424
-37.990311 -12.187664 4.539997 0.676921
-38.019958 -12.175445 4.145706 0.783062
-38.020061 -12.175403 3.749259 0.496696
-38.020111 -12.175381 3.356630 0.550637
-38.020164 -12.175360 2.966943 0.783612
-38.020203 -12.175344 2.579338 0.589761
-38.020203 -12.175344 2.192975 0.555566
-38.020203 -12.175344 1.807025 0.683833
-38.020203 -12.175344 1.420662 0.533272
-38.020203 -12.175344 1.033053 0.555428
-38.020203 -12.175344 0.643359 0.741512
-38.020203 -12.175344 0.250718 0.551324
-37.279652 -12.480577 -0.000010 0.534585
-35.678776 -13.140410 -0.000009 0.545556
-34.499325 -13.626546 -0.000007 0.548913
-37.935131 -12.121800 4.939399 0.557183
-37.935131 -12.121800 4.534461 0.490471
-38.019951 -12.086146 4.151949 0.746990
-38.020058 -12.086100 3.754349 0.711803
-38.020111 -12.086078 3.360578 0.551232
-38.020164 -12.086056 2.969757 0.723445
-39.141518 -11.614681 2.640780 0.536309
-39.141544 -11.614671 2.213441 0.533578
-39.141544 -11.614671 1.786559 0.503456
-39.141544 -11.614671 1.359219 0.553307
-39.141544 -11.614672 0.930501 0.528542
-39.141548 -11.614671 0.499477 0.563760
-39.141548 -11.614670 0.065193 0.741848
-37.250160 -12.409736 -0.000010 0.574884
-35.653931 -13.080729 -0.000008 0.539498
-34.477901 -13.575086 -0.000007 0.522255
-37.990318 -12.009016 4.963161 0.678431
-37.990314 -12.009016 4.554950 0.678431
-38.019939 -11.996319 4.158334 0.578256
-38.020058 -11.996267 3.759556 0.556100
-38.020111 -11.996245 3.364616 0.561975
-38.020164 -11.996223 2.972635 0.719493
-39.141460 -11.515635 2.642678 0.655055
-39.141495 -11.515619 2.214074 0.716548
-39.141495 -11.515619 1.785926 0.647028
-39.141495 -11.515620 1.357320 0.656184
-39.141495 -11.515619 0.927332 0.681300
-39.141495 -11.515621 0.495030 0.728038
-39.141495 -11.515620 0.059460 0.737667
-37.220177 -12.339098 -0.000010 0.557305
-35.628670 -13.021218 -0.000008 0.516960
-34.456123 -13.523773 -0.000007 0.503105
-37.990318 -11.918892 4.972128 0.678431
-37.990318 -11.918890 4.562681 0.678431
-38.019928 -11.905954 4.164862 0.577813
-38.020058 -11.905898 3.764880 0.721370
-38.020111 -11.905874 3.368745 0.545708
-38.020164 -11.905851 2.975578 0.687190
-39.141403 -11.415995 2.644620 0.599451
-39.141445 -11.415977 2.214720 0.485359
-39.141445 -11.415977 1.785280 0.549752
-39.141445 -11.415977 1.355377 0.556680
-39.141441 -11.415977 0.924091 0.570596
-39.141441 -11.415977 0.490483 0.724758
-39.141445 -11.415977 0.053596 0.617685
-37.189701 -12.268673 -0.000009 0.533394
-35.602997 -12.961886 -0.000008 0.547646
-34.433987 -13.472615 -0.000007 0.515053
-37.990318 -11.828218 4.981293 0.678431
-37.990314 -11.828218 4.570583 0.678431
-38.019920 -11.815037 4.171536 0.724788
-38.020046 -11.814980 3.770321 0.879408
-38.020111 -11.814953 3.372966 0.549020
-38.020164 -11.814929 2.978586 0.804303
-39.141342 -11.315748 2.646605 0.720531
-39.141392 -11.315725 2.215382 0.581430
-39.141392 -11.315727 1.784618 0.606119
-39.141392 -11.315726 1.353393 0.561044
-39.141392 -11.315726 0.920777 0.582238
-39.141392 -11.315725 0.485834 0.611124
-39.141392 -11.315725 0.047602 0.613001
-37.158733 -12.198462 -0.000010 0.540459
-35.576904 -12.902737 -0.000008 0.540475
-34.411491 -13.421614 -0.000007 0.544396
-37.990318 -11.736976 4.990663 0.678431
-37.990318 -11.736976 4.578662 0.678431
-38.019905 -11.723554 4.178358 0.521752
-38.020039 -11.723495 3.775882 0.696193
-38.020111 -11.723462 3.377280 0.553323
-38.020164 -11.723438 2.981661 0.648478
-39.141281 -11.214875 2.648633 0.749050
-39.091881 -11.237286 2.215169 0.613519
-39.091881 -11.237286 1.784831 0.685969
-39.091881 -11.237285 1.354032 0.701335
-39.091881 -11.237286 0.921844 0.708095
-39.091881 -11.237285 0.487330 0.714122
-39.091885 -11.237284 0.049531 0.770077
-37.127277 -12.128469 -0.000010 0.541344
-35.550407 -12.843769 -0.000008 0.537636
-34.388641 -13.370770 -0.000007 0.529320
-37.990318 -11.645157 5.000237 0.678431
-37.990318 -11.645157 4.586917 0.678431
-38.019897 -11.631491 4.185329 0.616968
-38.020027 -11.631430 3.781566 0.652476
-38.020107 -11.631392 3.381689 0.486183
-38.020164 -11.631367 2.984804 0.568978
-39.141224 -11.113363 2.650707 0.741253
-39.107540 -11.128927 2.216140 0.086778
-39.107540 -11.128928 1.783860 0.079469
-39.107536 -11.128929 1.351116 0.089845
-39.107540 -11.128927 0.916978 0.061372
-39.107540 -11.128928 0.480503 0.048280
-39.083405 -11.140079 0.044672 0.588205
-37.095333 -12.058699 -0.000009 0.519173
-35.523491 -12.784990 -0.000008 0.524269
-34.365433 -13.320088 -0.000007 0.545724
-37.990318 -11.552744 5.010019 0.678431
-37.990318 -11.552742 4.595353 0.678431
-38.019886 -11.538830 4.192454 0.796719
-38.020020 -11.538768 3.787374 0.560311
-38.020107 -11.538725 3.386195 0.566079
-38.020164 -11.538700 2.988015 0.768322
-39.141167 -11.011195 2.652825 0.766629
-39.107540 -11.027019 2.216845 0.075242
-39.147911 -11.008022 1.782425 0.367895
-39.147911 -11.008022 1.346808 0.371557
-39.107536 -11.027020 0.913447 0.064958
-39.107536 -11.027020 0.475549 0.164141
-39.055309 -11.051596 0.042902 0.544244
-37.062904 -11.989151 -0.000010 0.563470
-35.496170 -12.726398 -0.000008 0.562524
-34.341877 -13.269569 -0.000007 0.527520
-37.990318 -11.459720 5.020015 0.678431
-37.990318 -11.459719 4.603971 0.678431
-38.019875 -11.445559 4.199732 0.683330
-38.020008 -11.445496 3.793307 0.540810
-38.020111 -11.445447 3.390797 0.566049
-38.020164 -11.445420 2.991296 0.564111
-39.141106 -10.908356 2.654990 0.777539
-39.107540 -10.924437 2.217565 0.093584
-39.147911 -10.905094 1.781702 0.405890
-39.147915 -10.905093 1.344639 0.395285
-39.107540 -10.924438 0.909839 0.066880
-39.107540 -10.924437 0.470486 0.145937
-39.055309 -10.949462 0.036404 0.488502
-37.029991 -11.919832 -0.000010 0.521050
-35.468445 -12.668000 -0.000008 0.526146
-34.317966 -13.219216 -0.000007 0.543038
-37.990318 -11.366071 5.030224 0.678431
-37.990318 -11.366070 4.612774 0.678431
-38.019867 -11.351661 4.207166 0.687404
-38.019997 -11.351596 3.799368 0.548363
-38.020111 -11.351542 3.395499 0.799115
-38.020161 -11.351515 2.994647 0.553445
-39.141041 -10.804825 2.657201 0.638651
-39.107540 -10.821165 2.218300 0.075608
-39.147915 -10.801473 1.780964 0.461830
-39.147919 -10.801473 1.342423 0.410834
-39.107540 -10.821165 0.906153 0.827695
-39.107544 -10.821164 0.465315 0.122881
-39.055309 -10.846641 0.029765 0.484199
-36.996590 -11.850744 -0.000010 0.581659
-35.440308 -12.609796 -0.000008 0.557733
-34.293705 -13.169029 -0.000007 0.533257
-37.951439 -11.291084 5.029779 0.596750
-37.951439 -11.291083 4.612390 0.555459
-38.019852 -11.257123 4.214758 0.587930
-38.019985 -11.257057 3.805558 0.515908
-38.020107 -11.256996 3.400301 0.798199
-38.020164 -11.256969 2.998070 0.727825
-39.140984 -10.700590 2.659459 0.619776
-39.107544 -10.717190 2.219052 0.120760
-39.107544 -10.717190 1.780948 0.110475
-39.107544 -10.717189 1.342375 0.086229
-39.107544 -10.717190 0.902389 0.835050
-39.107544 -10.717190 0.460034 0.112886
-39.055305 -10.743118 0.022986 0.252155
-36.962711 -11.781893 -0.000009 0.548104
-35.411762 -12.551790 -0.000008 0.563333
-34.269096 -13.119015 -0.000007 0.549920
-38.019684 -11.162005 5.059542 0.518990
-38.019760 -11.161968 4.638070 0.567178
-38.019844 -11.161924 4.222514 0.564797
-38.019974 -11.161860 3.811879 0.595270
-38.020103 -11.161793 3.405205 0.583185
-38.020161 -11.161766 3.001565 0.510109
-39.140919 -10.595630 2.661765 0.596384
-39.107544 -10.612489 2.219819 0.117494
-39.147911 -10.592096 1.779441 0.575708
-39.147911 -10.592097 1.337850 0.430671
-39.107544 -10.612488 0.898544 0.808698
-39.107544 -10.612489 0.454641 0.096086
-39.055309 -10.638874 0.016062 0.152224
-36.928349 -11.713279 -0.000009 0.545800
-35.382816 -12.493984 -0.000008 0.557992
-34.244141 -13.069172 -0.000007 0.580987
-38.019676 -11.066137 5.070441 0.573846
-38.019745 -11.066101 4.647468 0.683360
-38.019844 -11.066051 4.230433 0.686564
-38.019966 -11.065989 3.818334 0.677806
-38.020096 -11.065922 3.410211 0.587823
-38.020161 -11.065888 3.005134 0.557092
-39.140858 -10.489927 2.664120 0.647120
-39.107544 -10.507048 2.220602 0.126970
-39.147911 -10.486301 1.778655 0.545724
-39.147911 -10.486302 1.335490 0.384863
-39.107544 -10.507050 0.894620 0.082658
-39.107544 -10.507050 0.449134 0.090471
-39.055309 -10.533894 0.008992 0.152224
-36.893513 -11.644907 -0.000010 0.539712
-35.353466 -12.436382 -0.000008 0.560800
-34.218834 -13.019506 -0.000007 0.499825
-38.019661 -10.969581 5.081568 0.550057
-38.019741 -10.969538 4.657064 0.517647
-38.019840 -10.969486 4.238518 0.538033
-38.019951 -10.969428 3.824924 0.745907
-38.020084 -10.969358 3.415322 0.561166
-38.020161 -10.969318 3.008778 0.550927
-39.140793 -10.383467 2.666524 0.554406
-39.107544 -10.400847 2.221402 0.141192
-39.147911 -10.379744 1.777853 0.477516
-39.147911 -10.379744 1.333081 0.325948
-39.107540 -10.400850 0.890612 0.082658
-39.107544 -10.400848 0.443511 0.074693
-39.055313 -10.428154 0.001773 0.226658
-36.858200 -11.576777 -0.000009 0.530571
-35.323715 -12.378986 -0.000008 0.538613
-34.193176 -12.970017 -0.000007 0.516518
-38.019646 -10.872318 5.092928 0.627771
-38.019741 -10.872269 4.666862 0.593393
-38.019836 -10.872216 4.246773 0.602304
-38.019939 -10.872162 3.831652 0.692958
-38.020077 -10.872089 3.420540 0.538918
-38.020161 -10.872045 3.012498 0.557916
-39.131023 -10.281389 2.668438 0.648844
-39.107544 -10.293873 2.222219 0.108598
-39.107540 -10.293875 1.777781 0.108873
-39.107540 -10.293875 1.332868 0.093141
-39.107540 -10.293875 0.886521 0.090227
-39.107544 -10.293873 0.437772 0.086275
-39.022076 -10.339317 -0.000011 0.532052
-36.822411 -11.508900 -0.000009 0.504509
-35.293564 -12.321802 -0.000008 0.536660
-34.167179 -12.920711 -0.000006 0.530678
-38.019638 -10.774326 5.104526 0.540505
-38.019737 -10.774271 4.676864 0.612787
-38.019836 -10.774220 4.255199 0.722881
-38.019936 -10.774164 3.838521 0.639384
-38.020065 -10.774095 3.425866 0.548943
-38.020161 -10.774043 3.016295 0.607217
-38.931305 -10.281390 2.659791 0.653635
-39.098869 -10.190787 2.222891 0.333318
-39.098869 -10.190786 1.777110 0.458259
-39.098869 -10.190788 1.330850 0.375662
-39.098869 -10.190788 0.883154 0.373739
-39.098869 -10.190787 0.433047 0.306233
-38.977592 -10.256363 -0.000011 0.538415
-36.786148 -11.441273 -0.000009 0.511833
-35.263016 -12.264827 -0.000008 0.534585
-34.140839 -12.871584 -0.000007 0.575387
-38.019634 -10.675591 5.116364 0.546883
-38.019733 -10.675535 4.687071 0.521508
-38.019836 -10.675480 4.263799 0.552728
-38.019932 -10.675426 3.845531 0.549020
-38.020054 -10.675360 3.431303 0.516411
-38.020161 -10.675301 3.020171 0.636866
-38.736683 -10.281389 2.651397 0.664927
-39.140614 -10.059326 2.224520 0.644297
-39.140499 -10.059390 1.775482 0.553079
-39.140400 -10.059444 1.325970 0.725002
-39.140301 -10.059500 0.875018 0.533730
-39.140202 -10.059553 0.421645 0.532341
-38.932533 -10.173719 -0.000011 0.533486
-36.749416 -11.373898 -0.000010 0.538552
-35.232067 -12.208067 -0.000008 0.534508
-34.114159 -12.822643 -0.000007 0.511894
-38.019630 -10.576090 5.128446 0.666865
-38.019730 -10.576035 4.697489 0.606561
-38.019833 -10.575977 4.272575 0.631998
-38.019932 -10.575922 3.852687 0.601099
-38.020042 -10.575861 3.436851 0.625696
-38.020161 -10.575794 3.024127 0.740505
-38.546936 -10.281389 2.643244 0.666667
-39.140514 -9.949650 2.225389 0.616968
-39.140400 -9.949715 1.774613 0.559136
-39.140278 -9.949781 1.323364 0.577874
-39.140179 -9.949837 0.870667 0.725185
-39.140076 -9.949895 0.415542 0.567681
-38.886898 -10.091391 -0.000011 0.550271
-36.712212 -11.306782 -0.000009 0.527123
-35.200726 -12.151524 -0.000008 0.552392
-34.087132 -12.773890 -0.000007 0.536477
-38.019630 -10.475813 5.140776 0.556329
-38.019730 -10.475756 4.708121 0.558556
-38.019833 -10.475698 4.281533 0.557305
-38.019928 -10.475641 3.859989 0.538048
-38.020031 -10.475584 3.442513 0.599329
-38.020157 -10.475512 3.028163 0.735134
-38.361877 -10.281389 2.635323 0.662303
-39.140411 -9.839118 2.226275 0.776928
-39.140293 -9.839186 1.773727 0.542718
-39.140179 -9.839252 1.320703 0.520592
-39.140057 -9.839321 0.866228 0.587762
-39.139954 -9.839380 0.409314 0.522484
-38.840691 -10.009385 -0.000011 0.559289
-36.674545 -11.239927 -0.000009 0.518151
-35.168991 -12.095201 -0.000008 0.530221
-34.059769 -12.725327 -0.000007 0.498939
-38.019623 -10.374739 5.153358 0.691478
-38.019730 -10.374679 4.718970 0.767025
-38.019825 -10.374622 4.290672 0.646708
-38.019928 -10.374562 3.867440 0.582223
-38.020027 -10.374506 3.448291 0.645045
-38.020157 -10.374432 3.032282 0.635172
-38.181313 -10.281389 2.627625 0.654902
-39.140312 -9.727708 2.227180 0.810285
-39.140190 -9.727777 1.772822 0.626337
-39.140076 -9.727846 1.317987 0.549020
-39.139954 -9.727917 0.861695 0.750546
-39.139835 -9.727985 0.402957 0.638071
-38.793911 -9.927703 -0.000011 0.524102
-36.636406 -11.173340 -0.000009 0.553658
-35.136864 -12.039102 -0.000008 0.506859
-34.032066 -12.676955 -0.000007 0.510414
-38.019623 -10.272844 5.166196 0.564446
-38.019722 -10.272783 4.730040 0.607767
-38.019825 -10.272725 4.299998 0.706600
-38.019924 -10.272666 3.875044 0.789258
-38.020027 -10.272607 3.454187 0.679225
-38.020145 -10.272537 3.036484 0.543175
-38.005054 -10.281389 2.620142 0.654902
-41.019470 -8.512843 2.263757 0.290425
-41.019470 -8.512843 1.736243 0.688365
-41.019440 -8.512861 1.208166 0.692470
-41.019356 -8.512910 0.678394 0.687739
-41.019276 -8.512958 0.145777 0.644083
-38.746559 -9.846352 -0.000011 0.531991
-36.597805 -11.107019 -0.000009 0.531609
-35.104343 -11.983227 -0.000008 0.560052
-34.004028 -12.628779 -0.000007 0.496818
-38.019615 -10.170115 5.179294 0.560754
-38.019722 -10.170052 4.741333 0.562951
-38.019821 -10.169992 4.309514 0.570336
-38.019924 -10.169931 3.882801 0.589593
-38.020023 -10.169872 3.460204 0.582177
-38.020134 -10.169805 3.040771 0.570855
-37.899853 -10.241508 2.616690 0.647059
-41.019463 -8.381848 2.264848 0.290349
-41.019463 -8.381849 1.735152 0.691554
-41.019444 -8.381859 1.204890 0.690196
-41.019367 -8.381904 0.672925 0.687602
-41.019279 -8.381956 0.138105 0.631662
-38.698647 -9.765331 -0.000011 0.520836
-36.558746 -11.040968 -0.000009 0.513787
-35.071434 -11.927584 -0.000008 0.535668
-33.975651 -12.580800 -0.000007 0.543221
-38.019615 -10.066523 5.192657 0.771145
-38.019718 -10.066459 4.752856 0.532052
-38.019821 -10.066397 4.319221 0.562188
-38.019920 -10.066336 3.890715 0.535561
-38.020020 -10.066275 3.466341 0.530221
-38.020123 -10.066214 3.045145 0.565560
-37.898846 -10.139662 2.619225 0.666667
-41.019451 -8.249755 2.265961 0.290196
-41.019451 -8.249755 1.734039 0.679622
-41.019451 -8.249756 1.201546 0.687114
-41.019371 -8.249805 0.667347 0.678431
-41.019291 -8.249853 0.130277 0.615228
-38.650166 -9.684646 -0.000011 0.538338
-36.519222 -10.975191 -0.000009 0.574960
-35.038136 -11.872168 -0.000008 0.539132
-33.946941 -12.533020 -0.000007 0.513466
-38.019611 -9.962052 5.206291 0.542382
-38.019714 -9.961988 4.764611 0.743801
-38.019817 -9.961925 4.329125 0.581170
-38.019920 -9.961863 3.898789 0.520211
-38.020020 -9.961801 3.472603 0.586206
-38.020119 -9.961739 3.049608 0.549844
-37.897816 -10.036981 2.621810 0.666667
-41.019447 -8.116541 2.267097 0.286839
-41.019447 -8.116541 1.732903 0.680262
-41.019447 -8.116541 1.198137 0.690196
-41.019379 -8.116583 0.661655 0.684199
-41.019295 -8.116634 0.122292 0.600183
-38.601124 -9.604303 -0.000011 0.524254
-36.479240 -10.909694 -0.000009 0.535988
-35.004456 -11.816989 -0.000008 0.557305
-33.917900 -12.485441 -0.000006 0.548211
-38.019608 -9.856680 5.220200 0.528801
-38.019714 -9.856614 4.776604 0.722393
-38.019814 -9.856550 4.339228 0.640238
-38.019917 -9.856487 3.907025 0.540963
-38.020016 -9.856423 3.478991 0.575463
-38.020119 -9.856359 3.054161 0.529519
-37.896767 -9.933438 2.624447 0.627939
-41.019436 -7.982177 2.268255 0.290333
-41.019436 -7.982177 1.731745 0.690227
-41.019440 -7.982176 1.194659 0.688716
-41.019386 -7.982209 0.655848 0.684642
-41.019299 -7.982263 0.114146 0.611582
-38.551521 -9.524302 -0.000011 0.544762
-36.438805 -10.844477 -0.000009 0.551553
-34.970390 -11.762043 -0.000008 0.508583
-33.888527 -12.438065 -0.000007 0.574014
-38.019604 -9.750387 5.234385 0.557977
-38.019707 -9.750320 4.788836 0.552499
-38.019810 -9.750256 4.349534 0.690120
-38.019913 -9.750189 3.915427 0.558373
-38.020016 -9.750125 3.485508 0.566140
-38.020119 -9.750061 3.058805 0.533715
-41.019497 -7.846596 2.808892 0.517647
-41.019428 -7.846641 2.269437 0.287068
-41.019428 -7.846640 1.730563 0.698039
-41.019432 -7.846639 1.191111 0.679713
-41.019394 -7.846663 0.649925 0.681102
-41.019310 -7.846716 0.105835 0.613413
-38.501366 -9.444652 -0.000011 0.536141
-36.397915 -10.779542 -0.000009 0.538369
-34.935940 -11.707339 -0.000008 0.546426
-33.858826 -12.390898 -0.000007 0.519646
-41.072899 -7.675429 6.158735 0.958602
-41.699703 -7.271481 5.746872 0.654566
-42.573833 -6.708143 5.345851 0.663523
-42.573833 -6.708143 4.727635 0.728893
-42.573830 -6.708145 4.115395 0.518135
-42.573830 -6.708144 3.507748 0.637522
-41.019485 -7.709850 2.812511 0.549310
-41.019421 -7.709892 2.270643 0.289982
-41.019421 -7.709894 1.729358 0.690318
-41.019424 -7.709890 1.187492 0.686458
-41.019398 -7.709907 0.643883 0.689326
-41.019314 -7.709962 0.097358 0.617273
-38.450649 -9.365354 -0.000011 0.547433
-36.356571 -10.714895 -0.000009 0.565026
-34.901108 -11.652878 -0.000007 0.565332
-33.828789 -12.343939 -0.000006 0.572702
-40.810566 -7.708576 6.099102 0.931136
-41.644810 -7.162663 5.749729 0.662211
-42.339394 -6.708140 5.310074 0.635248
-42.339394 -6.708142 4.698469 0.549020
-42.339386 -6.708145 4.092774 0.603098
-42.339386 -6.708144 3.491626 0.610162
-41.019482 -7.571867 2.816203 0.570001
-41.019409 -7.571912 2.271872 0.273854
-41.019413 -7.571911 1.728128 0.695552
-41.019413 -7.571911 1.183800 0.680430
-41.019402 -7.571918 0.637720 0.679530
-41.019321 -7.571971 0.088712 0.611566
-38.399384 -9.286409 -0.000011 0.543359
-36.314777 -10.650537 -0.000009 0.536080
-34.865898 -11.598659 -0.000008 0.503059
-33.798431 -12.297188 -0.000007 0.543069
-40.555859 -7.740641 6.041416 0.931807
-41.591499 -7.052564 5.753206 0.659617
-42.109898 -6.708141 5.275212 0.701427
-42.109894 -6.708142 4.670049 0.708019
-42.109894 -6.708144 4.070734 0.573098
-42.109894 -6.708143 3.475915 0.730495
-41.019474 -7.432616 2.819969 0.676829
-41.019402 -7.432664 2.273126 0.283864
-41.019402 -7.432663 1.726874 0.697169
-41.019402 -7.432662 1.180035 0.700679
-41.019402 -7.432663 0.631435 0.693416
-41.019329 -7.432713 0.079892 0.611566
-38.347565 -9.207829 -0.000011 0.560418
-36.272537 -10.586475 -0.000009 0.552148
-34.830311 -11.544687 -0.000008 0.537316
-33.767746 -12.250652 -0.000007 0.531563
-40.308426 -7.771672 5.985589 0.906355
-41.526024 -6.950392 5.753731 0.662684
-41.885178 -6.708139 5.241234 0.769497
-41.885178 -6.708141 4.642348 0.522652
-41.885174 -6.708141 4.049252 0.706767
-41.885178 -6.708141 3.460604 0.588266
-41.019463 -7.292071 2.823809 0.669612
-41.019398 -7.292116 2.274406 0.288670
-41.019398 -7.292116 1.725594 0.697704
-41.019394 -7.292117 1.176194 0.685237
-41.019398 -7.292115 0.625024 0.677714
-41.019333 -7.292159 0.070897 0.611276
-38.295200 -9.129610 -0.000010 0.555993
-36.229847 -10.522709 -0.000009 0.564797
-34.794346 -11.490967 -0.000007 0.523827
-33.736736 -12.204332 -0.000006 0.583413
-40.067924 -7.801721 5.931532 0.438392
-41.469215 -6.842237 5.756713 0.666667
-41.665058 -6.708140 5.208107 0.594476
-41.665054 -6.708140 4.615343 0.692210
-41.665058 -6.708141 4.028307 0.687831
-41.665054 -6.708142 3.445676 0.669276
-41.019455 -7.150194 2.827727 0.663493
-41.019386 -7.150240 2.275711 0.269245
-41.019386 -7.150241 1.724289 0.695094
-41.019386 -7.150240 1.172277 0.685313
-41.019386 -7.150240 0.618486 0.677928
-41.019344 -7.150270 0.061721 0.579919
-38.242294 -9.051754 -0.000011 0.538918
-36.186714 -10.459242 -0.000009 0.558984
-34.758011 -11.437496 -0.000008 0.536873
-33.705406 -12.158228 -0.000007 0.538216
-39.922546 -7.769321 5.906166 0.635264
-41.407513 -6.737243 5.758620 0.663691
-41.449387 -6.708141 5.175805 0.522103
-41.449383 -6.708142 4.589009 0.583612
-41.449387 -6.708140 4.007884 0.550134
-41.449383 -6.708141 3.431119 0.547189
-41.019447 -7.006956 2.831722 0.783261
-41.019379 -7.007004 2.277041 0.267765
-41.019379 -7.007003 1.722959 0.679713
-41.019379 -7.007004 1.168282 0.677150
-41.019379 -7.007003 0.611818 0.671931
-41.019352 -7.007022 0.052362 0.376272
-38.188847 -8.974276 -0.000011 0.542779
-36.143139 -10.396078 -0.000009 0.517632
-34.721298 -11.384282 -0.000008 0.518013
-33.673752 -12.112347 -0.000006 0.543938
-39.791920 -7.728238 5.885265 0.623560
-41.238003 -6.708138 5.732236 0.653040
-41.238003 -6.708139 5.144299 0.602686
-41.237999 -6.708139 4.563323 0.699565
-41.237999 -6.708140 3.987964 0.674723
-41.237999 -6.708142 3.416922 0.523735
-41.019440 -6.862319 2.835797 0.755596
-41.019371 -6.862368 2.278399 0.209171
-41.019367 -6.862369 1.721601 0.635554
-41.019371 -6.862366 1.164206 0.618021
-41.019371 -6.862367 0.605016 0.610803
-41.019360 -6.862373 0.042817 0.281147
-38.134853 -8.897169 -0.000010 0.550546
-36.099125 -10.333218 -0.000009 0.532158
-34.684216 -11.331326 -0.000007 0.524224
-33.641781 -12.066684 -0.000007 0.511849
-39.663712 -7.686852 5.865092 0.635355
-41.030762 -6.708138 5.695751 0.552911
-41.030762 -6.708139 5.113561 0.588067
-41.030762 -6.708139 4.538265 0.552453
-41.030758 -6.708141 3.968530 0.553964
-41.030758 -6.708140 3.403070 0.541863
-41.019428 -6.716252 2.839954 0.702739
-41.019360 -6.716301 2.279783 0.160235
-41.019360 -6.716301 1.720217 0.209979
-41.019360 -6.716301 1.160050 0.170901
-41.019363 -6.716299 0.598078 0.214710
-41.019360 -6.716301 0.033082 0.133211
-38.080326 -8.820442 -0.000011 0.530755
-36.054672 -10.270670 -0.000009 0.541741
-34.646770 -11.278627 -0.000008 0.530526
-33.609489 -12.021248 -0.000006 0.536080
-39.537064 -7.645711 5.845391 0.627527
-40.827522 -6.708138 5.660150 0.590967
-40.827522 -6.708139 5.083567 0.645762
-40.827522 -6.708138 4.513814 0.719463
-40.827522 -6.708138 3.949567 0.564034
-40.827522 -6.708140 3.389555 0.610727
-40.827522 -6.708138 2.832541 0.547585
-40.827522 -6.708139 2.277315 0.555459
-40.827522 -6.708139 1.722685 0.580240
-40.827522 -6.708138 1.167459 0.519738
-40.827522 -6.708140 0.610445 0.561975
-40.827522 -6.708140 0.050433 0.582254
-38.025261 -8.744101 -0.000010 0.523415
-36.009785 -10.208429 -0.000009 0.538598
-34.608952 -11.226194 -0.000008 0.521111
-33.576881 -11.976036 -0.000007 0.551949
-39.412025 -7.604744 5.826178 0.654902
-40.628151 -6.708139 5.625401 0.563790
-40.628151 -6.708138 5.054293 0.595300
-40.628151 -6.708139 4.489949 0.577264
-40.628151 -6.708139 3.931059 0.746700
-40.628151 -6.708138 3.376363 0.483391
-40.628151 -6.708140 2.824636 0.573602
-40.628151 -6.708139 2.274683 0.528984
-40.628151 -6.708139 1.725317 0.572305
-40.628151 -6.708139 1.175363 0.661585
-40.628151 -6.708138 0.623636 0.528389
-40.628151 -6.708139 0.068941 0.668650
-37.969669 -8.668141 -0.000010 0.566857
-35.964462 -10.146507 -0.000009 0.547539
-34.570770 -11.174026 -0.000007 0.540475
-33.543961 -11.931055 -0.000007 0.553521
-39.286427 -7.565530 5.806776 0.654902
-40.432522 -6.708139 5.591480 0.512917
-40.432526 -6.708138 5.025716 0.577081
-40.432526 -6.708138 4.466652 0.640833
-40.432522 -6.708140 3.912991 0.539528
-40.432522 -6.708139 3.363485 0.643381
-40.432522 -6.708140 2.816921 0.714000
-40.432522 -6.708140 2.272112 0.554742
-40.432522 -6.708138 1.727887 0.587686
-40.432522 -6.708139 1.183079 0.628031
-40.432522 -6.708139 0.636514 0.633692
-40.432522 -6.708140 0.087009 0.534218
-37.913548 -8.592573 -0.000010 0.532448
-35.918713 -10.084902 -0.000009 0.543236
-34.532223 -11.122128 -0.000007 0.518151
-33.510727 -11.886305 -0.000007 0.559182
-39.164402 -7.524950 5.788483 0.664836
-40.240509 -6.708139 5.558360 0.701503
-40.240509 -6.708140 4.997813 0.673625
-40.240509 -6.708139 4.443905 0.592523
-40.240509 -6.708140 3.895350 0.554345
-40.240509 -6.708139 3.350911 0.815946
-40.240509 -6.708141 2.809387 0.722606
-40.240509 -6.708139 2.269603 0.696147
-40.240509 -6.708139 1.730397 0.672786
-40.240509 -6.708140 1.190612 0.734005
-40.240509 -6.708139 0.649088 0.710781
-40.240509 -6.708140 0.104650 0.547250
-37.856899 -8.517399 -0.000010 0.548043
-35.872528 -10.023619 -0.000009 0.513039
-34.493317 -11.070496 -0.000007 0.566598
-33.477180 -11.841787 -0.000007 0.524941
-39.041138 -7.486609 5.769787 0.638895
-40.052006 -6.708137 5.526017 0.589395
-40.052002 -6.708138 4.970565 0.707424
-40.052002 -6.708138 4.421691 0.716548
-40.052002 -6.708138 3.878122 0.586892
-40.052002 -6.708139 3.338632 0.561608
-40.052002 -6.708138 2.802031 0.583627
-40.052002 -6.708138 2.267153 0.578058
-40.052002 -6.708138 1.732847 0.604547
-40.052002 -6.708138 1.197969 0.549340
-40.052002 -6.708138 0.661367 0.604135
-40.052002 -6.708139 0.121878 0.588891
-37.799728 -8.442623 -0.000010 0.521004
-35.825920 -9.962659 -0.000008 0.517205
-34.454052 -11.019140 -0.000007 0.558282
-33.443325 -11.797505 -0.000007 0.560571
-38.909763 -7.455917 5.748497 0.654902
-39.866875 -6.708138 5.494423 0.543816
-39.866875 -6.708138 4.943949 0.607889
-39.866879 -6.708137 4.399993 0.665599
-39.866875 -6.708138 3.861295 0.530968
-39.866879 -6.708138 3.326638 0.542580
-39.866875 -6.708139 2.794845 0.522988
-39.866875 -6.708138 2.264759 0.542977
-39.866879 -6.708138 1.735241 0.522866
-39.866875 -6.708138 1.205155 0.521965
-39.866879 -6.708137 0.673361 0.572534
-39.866875 -6.708138 0.138705 0.542580
-37.742035 -8.368246 -0.000010 0.547921
-35.778889 -9.902025 -0.000008 0.522667
-34.414429 -10.968057 -0.000007 0.592935
-33.409157 -11.753461 -0.000006 0.516365
-38.842369 -7.376026 5.747606 0.635294
-39.685028 -6.708140 5.463558 0.655268
-39.685028 -6.708139 4.917945 0.560357
-39.685032 -6.708138 4.378794 0.514611
-39.685028 -6.708139 3.844854 0.625254
-39.685032 -6.708138 3.314920 0.578454
-39.685032 -6.708139 2.787824 0.532525
-39.685028 -6.708138 2.262421 0.556420
-39.685028 -6.708138 1.737579 0.549020
-39.685032 -6.708139 1.212176 0.556130
-39.685032 -6.708138 0.685080 0.587198
-39.685028 -6.708139 0.155146 0.608148
-37.683830 -8.294271 -0.000010 0.513573
-35.731438 -9.841720 -0.000009 0.569314
-34.374451 -10.917253 -0.000007 0.513375
-33.374687 -11.709656 -0.000006 0.551675
-38.773811 -7.297122 5.746516 0.639765
-39.506359 -6.708139 5.433399 0.545678
-39.506359 -6.708139 4.892537 0.585779
-39.506359 -6.708138 4.358081 0.768261
-39.506363 -6.708138 3.828790 0.792981
-39.506363 -6.708137 3.303471 0.699947
-39.506359 -6.708138 2.780964 0.621942
-39.506359 -6.708138 2.260135 0.587228
-39.506359 -6.708138 1.739865 0.591546
-39.506359 -6.708138 1.219036 0.540551
-39.506363 -6.708137 0.696529 0.702205
-39.506363 -6.708138 0.171210 0.758160
-37.625099 -8.220710 -0.000010 0.556451
-35.683563 -9.781748 -0.000009 0.531823
-34.334118 -10.866728 -0.000007 0.527398
