# This PCD file was generated using the MATLABÂ® pcwrite function
# from Computer Vision ToolboxÂ®.
# .PCD v.7 - Point Cloud Data file format
VERSION .7
FIELDS x y z intensity
SIZE 4 4 4 4
TYPE F F F F
COUNT 1 1 1 1
WIDTH 1271
HEIGHT 1
VIEWPOINT 0 0 0 1 0 0 0
POINTS 1271
DATA ascii
nan nan nan 0.000000
nan nan nan 0.000000
nan nan nan 0.000000
nan nan nan 0.000000
-68.392395 -147.963562 13.380029 0.787930
-68.392403 -147.963593 10.111120 0.780392
-68.392403 -147.963577 6.859713 0.757595
-68.392410 -147.963593 3.618746 0.797086
-68.382088 -147.953613 0.381487 0.636622
-26.518436 -107.526398 0.000041 0.338125
-13.025132 -94.496086 0.200022 0.713024
-8.489208 -90.115799 0.200011 0.739757
-6.932769 -88.612770 0.000011 0.514076
-5.140732 -86.882217 0.000009 0.532403
-3.895197 -85.679420 0.000008 0.521782
-2.403203 -84.238617 0.200002 0.758785
nan nan nan 0.000000
nan nan nan 0.000000
nan nan nan 0.000000
nan nan nan 0.000000
nan nan nan 0.000000
nan nan nan 0.000000
nan nan nan 0.000000
-69.446396 -148.013641 3.631763 0.752850
-69.383430 -147.953690 0.369660 0.644694
-26.715221 -107.321342 0.000037 0.338338
-13.131220 -94.385483 0.200020 0.718990
-8.564815 -90.036964 0.200011 0.730251
-6.997918 -88.544830 0.000011 0.540459
-5.193846 -86.826836 0.000009 0.547921
-3.939942 -85.632759 0.000008 0.552193
-2.437926 -84.202408 0.200002 0.663142
nan nan nan 0.000000
nan nan nan 0.000000
nan nan nan 0.000000
nan nan nan 0.000000
nan nan nan 0.000000
nan nan nan 0.000000
nan nan nan 0.000000
nan nan nan 0.000000
nan nan nan 0.000000
-26.910412 -107.114761 0.000042 0.338933
-13.236534 -94.274147 0.200018 0.715587
-8.639874 -89.957603 0.200010 0.749966
-7.062593 -88.476440 0.000011 0.535714
-5.246568 -86.771080 0.000010 0.532753
-3.984360 -85.585785 0.000008 0.492180
-2.472395 -84.165962 0.200002 0.761303
nan nan nan 0.000000
nan nan nan 0.000000
-44.405457 -122.927986 13.697940 0.640665
-44.405437 -122.927971 11.536500 0.656306
-44.405426 -122.927956 9.395948 0.614893
-44.405411 -122.927948 7.271464 0.641382
-44.405434 -122.927963 5.158357 0.630472
-44.405392 -122.927933 3.052033 0.657115
-44.405537 -122.928062 0.947964 0.620340
-27.104364 -106.907021 0.000034 0.338811
-13.341066 -94.162079 0.200017 0.714092
-8.714375 -89.877716 0.200009 0.691325
-7.148478 -88.427681 -0.004374 0.759579
-5.298903 -86.714958 0.000009 0.552117
-4.028450 -85.538506 0.000008 0.525429
-2.506607 -84.129272 0.200003 0.766964
nan nan nan 0.000000
nan nan nan 0.000000
-44.405937 -122.320633 13.623201 0.616297
-44.405926 -122.320625 11.475572 0.664347
-44.405918 -122.320618 9.348700 0.648005
-44.405926 -122.320625 7.237787 0.652338
-44.405926 -122.320625 5.138178 0.657298
-44.405930 -122.320633 3.045311 0.665415
-44.405941 -122.320641 0.954687 0.633158
-27.347927 -106.744553 -0.003372 0.700648
-13.444782 -94.049248 0.200019 0.694896
-8.788312 -89.797310 0.200009 0.684123
-6.979572 -88.145706 0.042381 0.665904
-5.350842 -86.658470 0.000010 0.564721
-3.388433 -84.866547 0.199995 0.709377
-2.540564 -84.092339 0.200003 0.666102
nan nan nan 0.000000
nan nan nan 0.000000
-44.406055 -121.720650 13.549885 0.634516
-44.406067 -121.720657 11.415805 0.633433
-44.406067 -121.720657 9.302349 0.623697
-44.406071 -121.720657 7.204753 0.646601
-44.406059 -121.720650 5.118384 0.659693
-44.406067 -121.720657 3.038720 0.650980
-44.406067 -121.720657 0.961280 0.635752
-27.350130 -106.363441 0.009125 0.716167
-13.547741 -93.935730 0.200017 0.688243
-8.861690 -89.716393 0.200009 0.689708
-6.809674 -87.868752 0.088647 0.723247
-5.402390 -86.601631 0.000009 0.568933
-3.427516 -84.823448 0.199994 0.719768
-2.574263 -84.055176 0.200003 0.736980
nan nan nan 0.000000
nan nan nan 0.000000
-44.470455 -121.185226 13.493684 0.678431
-44.320004 -121.051651 11.340142 0.723781
-44.470455 -121.185226 9.266816 0.684810
-44.470463 -121.185234 7.179424 0.678431
-44.470463 -121.185226 5.103211 0.678431
-44.320251 -121.051865 3.030379 0.723781
-44.470463 -121.185226 0.966336 0.678431
-27.352343 -105.987068 0.021369 0.774716
-13.649855 -93.821449 0.200021 0.687388
-8.934515 -89.634979 0.200006 0.742824
-6.644984 -87.602242 0.133209 0.735424
-5.453536 -86.544426 0.000009 0.560494
-3.466297 -84.780075 0.199994 0.687999
-2.607702 -84.017776 0.200002 0.688548
nan nan nan 0.000000
nan nan nan 0.000000
-44.470474 -120.599152 13.423162 0.678431
-44.320198 -120.467590 11.282870 0.722683
-44.427864 -120.561844 9.215714 0.736263
-44.470470 -120.599136 7.147644 0.678431
-44.470474 -120.599136 5.084170 0.678431
-44.320290 -120.467667 3.024056 0.713603
-44.470470 -120.599136 0.972677 0.678431
-27.354519 -105.615280 0.033367 0.745586
-13.751213 -93.706497 0.200020 0.697002
-9.006757 -89.553040 0.200005 0.706447
-6.430190 -87.297432 0.187010 0.698329
-5.504280 -86.486862 0.000010 0.534829
-3.504774 -84.736427 0.199995 0.758373
-2.640880 -83.980148 0.200002 0.718425
nan nan nan 0.000000
nan nan nan 0.000000
-44.470490 -120.020187 13.354052 0.678431
-44.320915 -119.891075 11.226845 0.694804
-44.415977 -119.973129 9.170248 0.756603
-44.470493 -120.020187 7.116502 0.678431
-44.470490 -120.020187 5.065512 0.678431
-44.320354 -119.890587 3.017861 0.690364
-44.470486 -120.020180 0.978892 0.678431
-27.356661 -105.247940 0.045126 0.683314
-13.851763 -93.590836 0.200020 0.711345
-9.078424 -89.470604 0.200005 0.671611
-6.419843 -87.175781 0.200006 0.723766
-5.554625 -86.428947 0.000009 0.547662
-3.542946 -84.692520 0.199995 0.664622
-2.673795 -83.942284 0.200001 0.773053
nan nan nan 0.000000
-43.261810 -118.419479 15.053900 0.668635
-44.406803 -119.393936 13.271097 0.632349
-44.406811 -119.393944 11.188528 0.631067
-44.305897 -119.308060 9.110844 0.678431
-44.306885 -119.308899 7.068361 0.634928
-44.406807 -119.393936 5.043114 0.668894
-44.320412 -119.320412 3.011790 0.721569
-44.306076 -119.308212 0.988517 0.678431
-27.358772 -104.884949 0.056653 0.707973
-13.951511 -93.474487 0.200018 0.709468
-9.149511 -89.387672 0.200005 0.685527
-6.474991 -87.111481 0.200003 0.728237
-4.767559 -85.658340 0.199996 0.754025
-3.580809 -84.648338 0.199995 0.744244
-2.706445 -83.904198 0.200001 0.696712
nan nan nan 0.000000
-43.338619 -117.933113 14.998766 0.668940
-44.979782 -119.310211 13.340896 0.628595
-44.740334 -119.109283 11.199063 0.754360
-44.979847 -119.310265 9.170225 0.644266
-44.979843 -119.310257 7.110579 0.671504
-44.979774 -119.310196 5.061959 0.649851
-44.319729 -118.756355 3.005824 0.708400
-44.979858 -119.310272 0.980075 0.643488
-27.360853 -104.526192 0.067951 0.748379
-14.050440 -93.357437 0.200017 0.712703
-9.220013 -89.304237 0.200005 0.701854
-6.529671 -87.046776 0.200003 0.752285
-4.812138 -85.605591 0.199996 0.689967
-3.618361 -84.603897 0.199996 0.673030
-2.738827 -83.865883 0.200000 0.738369
nan nan nan 0.000000
-43.668854 -117.660995 15.015944 0.672847
-45.562515 -119.227570 13.412735 0.713298
-45.016876 -118.776169 11.198947 0.792477
-45.562523 -119.227570 9.215636 0.732479
-45.562519 -119.227570 7.142946 0.748241
-45.562531 -119.227577 5.081356 0.720409
-44.319885 -118.199577 2.999995 0.685893
-45.562519 -119.227570 0.973615 0.723842
-27.362930 -104.171577 0.079024 0.689876
-14.148649 -93.239784 0.200005 0.711696
-9.289927 -89.220306 0.200006 0.723110
-6.583904 -86.981689 0.200002 0.671321
-4.856345 -85.552536 0.199996 0.747875
-3.655602 -84.559196 0.199996 0.727550
-2.770941 -83.827339 0.200000 0.749126
nan nan nan 0.000000
-43.996391 -117.385223 15.032804 0.665095
-44.406227 -117.719482 13.075979 0.631098
-44.406231 -117.719482 11.029464 0.615702
-44.406235 -117.719482 9.002725 0.624750
-44.406239 -117.719482 6.991194 0.616541
-44.406231 -117.719482 4.990434 0.635340
-44.320023 -117.649170 2.994278 0.716609
-44.406082 -117.719360 1.003903 0.628290
-27.364964 -103.820976 0.089880 0.692424
-14.246044 -93.121460 0.199993 0.711040
-9.359254 -89.135895 0.200008 0.698604
-6.637691 -86.916245 0.199999 0.743954
-4.900182 -85.499168 0.199996 0.683635
-3.692530 -84.514229 0.199997 0.675944
-2.802786 -83.788574 0.199999 0.659953
nan nan nan 0.000000
-44.324451 -117.108444 15.050247 0.675792
-44.470448 -117.225830 13.028531 0.678431
-44.470451 -117.225830 10.990785 0.678431
-44.415985 -117.182037 8.964685 0.787945
-44.470455 -117.225838 6.969813 0.678431
-44.470451 -117.225830 4.977624 0.678431
-44.320175 -117.105011 2.988677 0.694713
-44.470459 -117.225838 1.008168 0.678431
-27.366980 -103.474304 0.100521 0.677913
-14.342499 -93.002357 0.199993 0.712657
-9.427986 -89.050995 0.200009 0.704524
-6.691007 -86.850410 0.199998 0.706294
-4.943644 -85.445496 0.199996 0.779385
-3.729147 -84.469017 0.199997 0.749813
-2.834359 -83.749588 0.199998 0.790188
nan nan nan 0.000000
-44.406143 -116.634933 15.000232 0.638590
-44.470459 -116.685898 12.967242 0.678431
-44.470467 -116.685913 10.940818 0.678431
-44.415977 -116.642715 8.925978 0.785641
-44.470470 -116.685913 6.942193 0.678431
-44.470470 -116.685913 4.961076 0.678431
-44.320324 -116.566910 2.983186 0.703120
-44.470470 -116.685913 1.013679 0.678431
-27.377495 -103.138199 0.110418 0.670909
-14.438223 -92.882675 0.199981 0.719829
-9.496126 -88.965622 0.200010 0.704845
-6.743864 -86.784203 0.199997 0.684153
-4.986726 -85.391518 0.199997 0.669596
-3.765447 -84.423546 0.199997 0.723384
-2.865660 -83.710381 0.199998 0.706600
nan nan nan 0.000000
-44.405998 -116.101563 14.928967 0.678431
-44.470474 -116.151932 12.907159 0.678431
-44.470478 -116.151932 10.891836 0.678431
-44.415974 -116.109344 8.888032 0.782223
-44.470482 -116.151932 6.915118 0.678431
-44.470482 -116.151932 4.944856 0.678431
-44.320469 -116.034729 2.977801 0.733440
-44.470482 -116.151932 1.019083 0.678431
-27.389601 -102.806900 0.120016 0.669535
-14.533054 -92.762276 0.199975 0.713115
-9.563670 -88.879776 0.200011 0.700755
-6.796253 -86.717628 0.199997 0.700755
-5.029431 -85.337242 0.199998 0.738613
-3.801430 -84.377823 0.199996 0.676112
-2.896687 -83.670959 0.199997 0.727642
nan nan nan 0.000000
-44.406033 -115.574104 14.859152 0.619348
-44.405952 -115.574043 12.833437 0.656458
-44.405945 -115.574036 10.831733 0.651789
-44.405952 -115.574043 8.849379 0.652125
-44.405949 -115.574036 6.881896 0.663508
-44.405949 -115.574036 4.924948 0.640970
-44.405949 -115.574036 2.974288 0.645747
-44.405945 -115.574036 1.025714 0.649516
-27.413544 -102.488144 0.128685 0.752438
-14.626984 -92.641174 0.199975 0.717189
-9.630608 -88.793449 0.200013 0.684916
-6.848177 -86.650696 0.199997 0.719066
-5.071751 -85.282661 0.200000 0.677485
-3.837088 -84.331848 0.199997 0.744442
-2.927436 -83.631317 0.199997 0.707744
nan nan nan 0.000000
-43.705601 -114.520615 14.600772 0.662211
-44.405643 -115.051971 12.775693 0.634287
-44.405636 -115.051971 10.784659 0.630259
-44.405643 -115.051971 8.812870 0.663447
-44.405643 -115.051971 6.855875 0.647059
-44.405640 -115.051971 4.909359 0.636149
-44.405594 -115.051941 2.969093 0.629786
-44.405746 -115.052048 1.030904 0.664378
-27.446722 -102.179466 0.136600 0.748913
-14.720024 -92.519386 0.199980 0.687388
-9.696957 -88.706680 0.200012 0.697673
-6.899637 -86.583397 0.199996 0.728878
-5.113694 -85.227798 0.200000 0.726421
-3.872429 -84.285629 0.199997 0.662760
-2.957908 -83.591469 0.199996 0.681651
nan nan nan 0.000000
-43.783489 -114.070221 14.555667 0.649226
-44.406208 -114.536072 12.719280 0.644373
-44.406227 -114.536087 10.738676 0.613886
-44.406231 -114.536087 8.777206 0.648356
-44.406231 -114.536087 6.830457 0.651698
-44.406231 -114.536087 4.894130 0.656809
-44.406258 -114.536102 2.964021 0.624598
-44.406158 -114.536026 1.035980 0.673732
-27.482420 -101.875473 0.144187 0.736095
-14.812208 -92.396957 0.199985 0.687495
-9.762687 -88.619438 0.200014 0.698375
-6.950642 -86.515762 0.199992 0.681254
-5.155257 -85.172638 0.200001 0.711147
-3.907444 -84.239159 0.199997 0.784283
-2.988102 -83.551407 0.199996 0.699107
nan nan nan 0.000000
-44.087265 -113.789948 14.572249 0.669963
-44.631691 -114.191338 12.714822 0.633875
-44.631580 -114.191254 10.735014 0.651957
-44.631218 -114.190987 8.774317 0.628214
-44.631165 -114.190948 6.828391 0.637644
-44.631138 -114.190933 4.892889 0.635615
-44.631142 -114.190933 2.963609 0.629343
-44.631413 -114.191132 1.036386 0.681102
-27.534245 -101.586029 0.150621 0.725994
-16.465332 -93.425331 0.040889 0.692287
-9.827806 -88.531731 0.200015 0.717693
-7.001156 -86.447746 0.199991 0.739483
-5.196424 -85.117188 0.200003 0.721721
-3.942135 -84.192444 0.199997 0.678386
-3.018014 -83.511124 0.199996 0.675486
nan nan nan 0.000000
-44.395378 -113.511490 14.590430 0.666545
-45.330700 -114.191055 12.817426 0.624674
-45.330700 -114.191048 10.818684 0.641779
-45.330608 -114.190979 8.839243 0.634623
-45.330551 -114.190941 6.874668 0.635294
-45.330528 -114.190918 4.920616 0.635279
-45.330540 -114.190933 2.972844 0.627466
-45.330654 -114.191017 1.027154 0.618616
-27.585354 -101.298317 0.156943 0.743557
-16.967215 -93.583794 0.000007 0.337255
-9.892310 -88.443581 0.200016 0.701839
-7.051185 -86.379387 0.199992 0.686885
-5.237208 -85.061455 0.200004 0.737987
-3.976497 -84.145493 0.199997 0.680125
-3.047644 -83.470642 0.199995 0.710994
nan nan nan 0.000000
-45.065311 -113.490601 14.705145 0.656626
-46.043510 -114.190918 12.922610 0.646555
-46.043560 -114.190964 10.904440 0.620981
-46.043583 -114.190979 8.905767 0.630777
-46.043514 -114.190933 6.922081 0.631525
-46.043499 -114.190918 4.949025 0.660639
-46.043530 -114.190941 2.982306 0.633021
-46.043541 -114.190948 1.017693 0.643565
-27.647270 -101.020531 0.162459 0.677562
-16.967848 -93.374825 0.009987 1.000000
-9.956203 -88.354980 0.200017 0.689891
-7.100739 -86.310677 0.199992 0.718181
-5.277603 -85.005440 0.200005 0.673259
-4.010533 -84.098305 0.199996 0.657633
-3.076992 -83.429955 0.199995 0.706142
nan nan nan 0.000000
-46.778461 -114.196518 15.095069 0.683207
-46.770496 -114.190903 13.030434 0.616297
-46.770550 -114.190948 10.992342 0.621347
-46.770596 -114.190979 8.973942 0.621454
-46.770527 -114.190926 6.970671 0.620798
-46.770504 -114.190910 4.978137 0.621744
-46.770557 -114.190948 2.992004 0.631022
-46.770554 -114.190948 1.007996 0.649790
-27.715611 -100.749176 0.167444 0.678355
-17.165407 -93.306839 0.000013 0.336873
-10.019482 -88.265945 0.200016 0.697093
-7.149810 -86.241615 0.199993 0.762707
-5.317601 -84.949142 0.200006 0.732845
-4.044241 -84.050880 0.199995 0.714015
-3.106055 -83.389069 0.199994 0.645258
nan nan nan 0.000000
-47.541443 -114.211334 15.231889 0.644022
-47.512123 -114.190964 13.140979 0.636164
-47.512150 -114.190979 11.082456 0.630579
-47.512146 -114.190971 9.043822 0.622202
-47.512074 -114.190918 7.020478 0.629465
-47.512043 -114.190903 5.007978 0.628305
-47.512096 -114.190933 3.001944 0.637018
-47.512161 -114.190979 0.998054 0.634607
-27.783573 -100.479271 0.172315 0.723018
-17.263010 -93.167297 0.000020 0.338659
-10.082125 -88.176460 0.200018 0.729778
-7.198400 -86.172218 0.199993 0.699413
-5.357212 -84.892563 0.200007 0.668818
-4.077615 -84.003220 0.199995 0.663859
-3.134830 -83.347969 0.199994 0.789166
nan nan nan 0.000000
-47.859020 -113.910423 15.251445 0.638056
-48.268772 -114.190987 13.254309 0.621790
-48.268776 -114.190994 11.174842 0.660151
-48.268749 -114.190964 9.115469 0.653101
-48.268650 -114.190903 7.071543 0.640833
-48.268631 -114.190887 5.038573 0.630930
-48.268692 -114.190933 3.012136 0.638254
-48.268841 -114.191032 0.987861 0.637171
-27.868002 -100.222305 0.176069 0.700206
-17.359713 -93.027138 0.000019 0.335607
-10.144152 -88.086548 0.200018 0.704250
-7.246499 -86.102486 0.199994 0.680018
-5.396424 -84.835716 0.200008 0.735058
-4.110659 -83.955330 0.199994 0.752941
-3.163318 -83.306679 0.199994 0.660075
nan nan nan 0.000000
-48.171356 -113.604431 15.270089 0.673030
-49.136562 -114.255470 13.391500 0.678431
-49.040924 -114.190964 11.269572 0.620752
-49.040924 -114.190964 9.188940 0.625101
-49.136559 -114.255470 7.133377 0.678431
-49.136559 -114.255470 5.075622 0.678431
-49.040871 -114.190933 3.022587 0.645731
-49.041111 -114.191086 0.977408 0.656916
-27.952206 -99.966461 0.179713 0.664546
-17.455465 -92.886330 0.000015 0.337423
-10.205544 -87.996201 0.200019 0.676722
-7.294112 -86.032417 0.199995 0.732403
-5.435241 -84.778595 0.200009 0.732677
-4.143363 -83.907211 0.199994 0.660121
-3.191517 -83.265182 0.199994 0.740429
nan nan nan 0.000000
-48.487732 -113.299652 15.290254 0.666972
-49.926472 -114.255539 13.510945 0.678431
-49.829258 -114.190964 11.366749 0.617350
-49.844357 -114.200989 9.266388 0.770184
-49.926476 -114.255547 7.187202 0.678431
-49.926464 -114.255539 5.107872 0.678431
-49.829243 -114.190948 3.033306 0.649714
-49.829281 -114.190971 0.966692 0.671229
-28.040091 -99.714287 0.183017 0.770062
-17.550200 -92.744827 0.000014 0.335012
-10.266310 -87.905426 0.200019 0.713573
-7.341237 -85.962013 0.199995 0.687434
-5.473656 -84.721199 0.200009 0.754269
-4.175734 -83.858864 0.199993 0.749920
-3.219424 -83.223495 0.199994 0.735027
nan nan nan 0.000000
-48.967121 -113.099960 15.352950 0.643336
-50.634354 -114.190964 13.612009 0.634562
-50.634342 -114.190948 11.466445 0.645228
-50.634346 -114.190956 9.341625 0.657389
-50.634350 -114.190964 7.232747 0.638361
-50.634361 -114.190964 5.135159 0.673121
-50.634373 -114.190971 3.044307 0.641032
-50.634399 -114.190994 0.955693 0.658061
-28.139236 -99.470589 0.185540 0.723629
-17.644070 -92.602753 0.000001 0.336629
-10.326431 -87.814232 0.200020 0.700008
-7.387868 -85.891289 0.199996 0.678538
-5.511673 -84.663544 0.200009 0.745693
-4.207765 -83.810287 0.199992 0.672572
-3.247042 -83.181610 0.199994 0.703059
nan nan nan 0.000000
nan nan nan 0.000000
-51.456757 -114.190933 13.737507 0.655222
-51.456760 -114.190933 11.568758 0.650248
-51.456753 -114.190933 9.420969 0.648493
-51.456760 -114.190933 7.289299 0.632258
-51.456764 -114.190941 5.169042 0.622766
-51.456772 -114.190948 3.055594 0.625574
-51.510361 -114.225479 0.943364 0.174105
-28.237814 -99.227364 0.187986 0.697643
-17.736814 -92.459938 0.000001 0.337453
-11.847396 -88.664474 0.000002 0.333776
-7.434003 -85.820236 0.199997 0.691829
-5.549285 -84.605621 0.200010 0.679347
-4.239455 -83.761497 0.199992 0.743572
-3.274364 -83.139534 0.199994 0.752377
nan nan nan 0.000000
nan nan nan 0.000000
-52.297180 -114.190903 13.866334 0.634928
-52.297184 -114.190903 11.673782 0.656397
-52.297176 -114.190903 9.502421 0.643793
-52.297180 -114.190903 7.347351 0.655070
-52.297199 -114.190918 5.203824 0.628840
-52.297218 -114.190933 3.067180 0.635279
-52.297192 -114.190918 0.932821 0.633082
-28.343637 -98.989548 0.189902 0.692363
-17.828699 -92.316574 -0.000012 0.338613
-11.912758 -88.562210 0.000005 0.337041
-7.479643 -85.748871 0.199997 0.738949
-5.586492 -84.547440 0.200010 0.713649
-4.270802 -83.712479 0.199992 0.709194
-3.301393 -83.097275 0.199994 0.654383
nan nan nan 0.000000
nan nan nan 0.000000
-53.156307 -114.190887 13.998611 0.637034
-53.156315 -114.190887 11.781620 0.643534
-53.259773 -114.255539 9.600088 0.678431
-53.259785 -114.255547 7.416964 0.678431
-53.259781 -114.255539 5.245532 0.678431
-53.156338 -114.190903 3.079076 0.633219
-53.156349 -114.190910 0.920925 0.647883
-28.306299 -98.662895 0.200005 0.711452
-17.919445 -92.172478 -0.000012 0.339208
-11.977436 -88.459503 0.000005 0.333516
-7.524787 -85.677185 0.199997 0.711757
-5.623292 -84.488998 0.200010 0.668986
-4.301805 -83.663246 0.199992 0.738201
-3.328127 -83.054825 0.199994 0.786816
nan nan nan 0.000000
nan nan nan 0.000000
-54.034863 -114.190872 14.134473 0.654124
-54.034863 -114.190872 11.892378 0.643977
-54.120586 -114.243607 9.683529 0.121187
-54.139854 -114.255463 7.478294 0.678431
-54.091095 -114.225464 5.279463 0.722515
-54.034889 -114.190887 3.091295 0.662303
-54.034924 -114.190910 0.908706 0.665995
-28.572168 -98.526138 0.192444 0.680217
-18.009243 -92.027794 -0.000019 0.340688
-12.041399 -88.356354 0.000005 0.340780
-7.569423 -85.605179 0.199998 0.676860
-5.659686 -84.430305 0.200010 0.678325
-4.332463 -83.613792 0.199993 0.699809
-3.354560 -83.012184 0.199995 0.700053
nan nan nan 0.000000
nan nan nan 0.000000
-54.933659 -114.190903 14.274069 0.623835
-54.933617 -114.190872 12.006173 0.628382
-54.933613 -114.190872 9.760204 0.631739
-54.933624 -114.190887 7.531087 0.641855
-54.933620 -114.190880 5.313906 0.634775
-54.933628 -114.190887 3.103847 0.671504
-54.933720 -114.190941 0.896152 0.635355
-28.695288 -98.300400 0.193059 0.724071
-18.097960 -91.882439 -0.000019 0.335515
-12.104641 -88.252762 0.000003 0.335866
-7.613558 -85.532867 0.199998 0.728389
-5.695665 -84.371353 0.200010 0.714961
-4.362777 -83.564133 0.199993 0.683650
-3.380696 -82.969360 0.199995 0.670909
nan nan nan 0.000000
nan nan nan 0.000000
-55.853428 -114.190948 14.417527 0.633982
-55.853333 -114.190887 12.123115 0.628794
-55.780098 -114.147232 9.841089 0.640711
-55.780117 -114.147247 7.588739 0.644739
-55.780125 -114.147247 5.348449 0.635523
-55.780125 -114.147247 3.115352 0.641184
-55.853474 -114.190971 0.883250 0.640787
-28.824268 -98.078354 0.193247 0.685573
-18.185690 -91.736496 -0.000021 0.339193
-12.167152 -88.148727 0.000003 0.339574
-7.657185 -85.460251 0.199999 0.692714
-5.731236 -84.312157 0.200010 0.691844
-4.392741 -83.514252 0.199994 0.709911
-3.406531 -82.926353 0.199996 0.766491
nan nan nan 0.000000
nan nan nan 0.000000
-56.724689 -114.149734 14.550164 0.658503
-55.780075 -113.595528 12.068806 0.634913
-55.780087 -113.595535 9.808780 0.630762
-55.780098 -113.595535 7.565710 0.625574
-55.780117 -113.595551 5.334651 0.619944
-55.780125 -113.595558 3.110758 0.647257
-56.795006 -114.190979 0.869989 0.640116
-28.836515 -97.787857 0.199993 0.707042
-18.272383 -91.589920 -0.000022 0.337011
-12.228947 -88.044266 0.000002 0.341207
-7.700306 -85.387329 0.199999 0.669841
-5.766389 -84.252708 0.200011 0.746731
-4.422357 -83.464172 0.199994 0.718120
-3.432067 -82.883171 0.199997 0.680125
nan nan nan 0.000000
nan nan nan 0.000000
-57.072609 -113.794586 14.572376 0.668437
-55.780064 -113.048340 12.027975 0.644434
-55.780079 -113.048340 9.777113 0.637873
-55.780079 -113.048347 7.543141 0.633173
-55.780098 -113.048355 5.321131 0.614176
-55.780113 -113.048370 3.106254 0.670375
-57.759209 -114.190994 0.856352 0.616678
-29.094015 -97.641159 0.192685 0.715389
-18.358047 -91.442757 -0.000023 0.338033
-12.290009 -87.939377 0.000000 0.336187
-7.742914 -85.314110 0.200000 0.689357
-5.801128 -84.193024 0.200011 0.679713
-4.451624 -83.413887 0.199994 0.689632
-3.457300 -82.839813 0.199997 0.692164
nan nan nan 0.000000
nan nan nan 0.000000
-57.516171 -113.491791 14.615028 0.658701
-55.780048 -112.505539 11.987957 0.634073
-55.780064 -112.505539 9.746080 0.634394
-55.780071 -112.505554 7.521020 0.627787
-55.780090 -112.505554 5.307878 0.634577
-55.780094 -112.505554 3.101837 0.676478
-58.807709 -114.225479 0.841182 0.094118
-29.237831 -97.427475 0.191771 0.703532
-18.442570 -91.294922 -0.000013 0.338048
-12.350323 -87.834053 0.000001 0.339239
-7.785017 -85.240601 0.200000 0.740963
-5.835451 -84.133095 0.200011 0.732418
-4.480540 -83.363396 0.199994 0.754589
-3.482229 -82.796280 0.199998 0.692302
nan nan nan 0.000000
nan nan nan 0.000000
-59.767937 -114.195786 15.034869 0.657206
-55.955143 -112.064896 11.978498 0.709804
-56.126736 -112.160797 9.761354 0.737682
-56.126728 -112.160789 7.531906 0.781857
-56.126736 -112.160797 5.314398 0.767865
-56.126740 -112.160797 3.104011 0.779202
-59.759331 -114.190979 0.827892 0.638209
-29.381897 -97.213623 0.190763 0.740520
-18.526171 -91.146576 -0.000014 0.337255
-12.409904 -87.728310 0.000001 0.336172
-7.826601 -85.166794 0.200001 0.747280
-5.869351 -84.072922 0.200011 0.677943
-4.509103 -83.312706 0.199994 0.687221
-3.506854 -82.752571 0.199999 0.762173
nan nan nan 0.000000
nan nan nan 0.000000
-60.809483 -114.197662 15.200794 0.651270
-60.797157 -114.190887 12.759585 0.626535
-57.203407 -112.215210 9.872724 0.678431
-57.203411 -112.215210 7.611285 0.678431
-57.203419 -112.215225 5.361957 0.678431
-57.126236 -112.172791 3.118411 0.578607
-60.797314 -114.190979 0.813036 0.638346
-29.541840 -97.008156 0.188784 0.708278
-18.608608 -90.997574 -0.000002 0.338460
-12.468746 -87.622154 0.000001 0.339605
-7.867668 -85.092697 0.200001 0.669429
-5.902835 -84.012520 0.200011 0.705562
-4.537312 -83.261818 0.199994 0.758129
-3.531173 -82.708694 0.200000 0.674388
nan nan nan 0.000000
nan nan nan 0.000000
-61.303410 -113.888947 15.252810 0.650095
-61.861790 -114.190865 12.898240 0.633585
-58.207920 -112.215225 9.974184 0.678431
-58.207916 -112.215225 7.683602 0.678431
-58.207935 -112.215233 5.405284 0.678431
-58.129337 -112.172737 3.132824 0.776333
-61.861988 -114.190971 0.797740 0.634012
-29.702991 -96.802689 0.186665 0.713161
-18.690130 -90.848068 -0.000003 0.337011
-12.526846 -87.515594 0.000001 0.336919
-7.908213 -85.018311 0.200002 0.724422
-5.935890 -83.951881 0.200012 0.712764
-4.565163 -83.210739 0.199994 0.668757
-3.555186 -82.664642 0.200001 0.790982
nan nan nan 0.000000
nan nan nan 0.000000
-61.662540 -113.504013 15.277305 0.663401
-63.075886 -114.255501 13.061487 0.678431
-59.238678 -112.215225 10.078689 0.678431
-59.238697 -112.215225 7.758090 0.678431
-59.238708 -112.215240 5.449914 0.678431
-59.158684 -112.172684 3.147667 0.776471
-62.954517 -114.190971 0.781983 0.633707
-29.867119 -96.598114 0.184309 0.691264
-18.770504 -90.697945 0.000006 0.338689
-12.584201 -87.408630 0.000001 0.338125
-7.948249 -84.943657 0.200002 0.727840
-5.968529 -83.891022 0.200011 0.679194
-4.592659 -83.159462 0.199993 0.725231
-3.578888 -82.620430 0.200002 0.728054
nan nan nan 0.000000
nan nan nan 0.000000
-62.020176 -113.116150 15.301950 0.662043
-64.075935 -114.190872 13.188240 0.669337
-60.239563 -112.185265 10.178935 0.904845
-60.239582 -112.185272 7.829538 0.870588
-60.199314 -112.164223 5.490491 0.843198
-60.215561 -112.172714 3.162964 0.776471
-60.529396 -112.336784 0.831239 0.675715
-30.045200 -96.400055 0.181107 0.684230
-18.849918 -90.547310 0.000006 0.336416
-12.640805 -87.301270 0.000001 0.334783
-7.987754 -84.868713 0.200003 0.724773
-6.000744 -83.829933 0.200010 0.728099
-4.619796 -83.107994 0.199993 0.703426
-3.602284 -82.576050 0.200002 0.685222
nan nan nan 0.000000
nan nan nan 0.000000
nan nan nan 0.000000
-65.228012 -114.190918 13.339966 0.631952
-47.442886 -105.050621 8.494216 0.391501
-47.370422 -105.013382 6.622074 0.537331
-47.371525 -105.013947 4.769341 0.583246
-47.371307 -105.013832 2.922450 0.562310
-47.371311 -105.013840 1.077550 0.568566
-30.223915 -96.201286 0.177806 0.681132
-18.928280 -90.396126 0.000006 0.338781
-12.696666 -87.193512 0.000000 0.336873
-8.026735 -84.793503 0.200004 0.681910
-6.032521 -83.768616 0.200011 0.760113
-4.646571 -83.056335 0.199993 0.673533
-3.625369 -82.531509 0.200003 0.757977
nan nan nan 0.000000
nan nan nan 0.000000
nan nan nan 0.000000
-48.309803 -105.047005 10.488115 0.304463
-47.437569 -104.606407 8.470470 0.359289
-47.372288 -104.573433 6.605833 0.570123
-47.371384 -104.572975 4.759499 0.574578
-47.371304 -104.572937 2.919175 0.575525
-47.371307 -104.572937 1.080826 0.569955
-30.411495 -96.005936 0.173952 0.689815
-19.005749 -90.244484 -0.000009 0.336797
-12.751766 -87.085373 0.000000 0.337423
-8.065199 -84.718018 0.200003 0.674922
-6.063877 -83.707085 0.200011 0.671000
-4.672988 -83.004494 0.199993 0.666743
-3.648141 -82.486809 0.200004 0.671733
nan nan nan 0.000000
nan nan nan 0.000000
-49.965836 -105.423073 12.712011 0.419608
-49.038300 -104.962639 10.579140 0.546792
-47.432549 -104.165535 8.447245 0.387121
-47.371197 -104.135086 6.589659 0.569497
-47.371227 -104.135101 4.749860 0.565774
-47.371296 -104.135132 2.915966 0.560784
-47.371300 -104.135132 1.084034 0.552148
-30.609207 -95.814377 0.169482 0.693416
-19.081993 -90.092216 -0.000008 0.340139
-12.806113 -86.976852 -0.000000 0.341314
-8.103124 -84.642273 0.200004 0.708629
-6.094806 -83.645332 0.200009 0.703868
-4.699041 -82.952469 0.199992 0.760616
-3.670602 -82.441948 0.200004 0.670542
nan nan nan 0.000000
nan nan nan 0.000000
-49.965820 -104.965790 12.675273 0.411887
-49.959343 -104.962624 10.701725 0.566323
-47.426846 -103.727448 8.424404 0.391638
-47.370140 -103.699791 6.573824 0.560708
-47.371082 -103.700249 4.740421 0.576120
-47.371307 -103.700363 2.912825 0.568048
-47.371311 -103.700363 1.087174 0.545235
-30.807850 -95.621834 0.164901 0.689158
-19.157181 -89.939430 -0.000008 0.334005
-12.859699 -86.867950 0.000000 0.335698
-9.352345 -85.157303 0.000007 0.339529
-6.125300 -83.583366 0.200009 0.692485
-4.724729 -82.900261 0.199992 0.673930
-3.692750 -82.396935 0.200005 0.676493
nan nan nan 0.000000
nan nan nan 0.000000
-50.457222 -104.747055 12.738453 0.544457
-50.907143 -104.962616 10.828304 0.573373
-47.423470 -103.293526 8.402330 0.347723
-47.372036 -103.268890 6.558585 0.597787
-47.371597 -103.268677 4.731215 0.570138
-47.371311 -103.268539 2.909749 0.565255
-47.371315 -103.268539 1.090250 0.557504
-31.023262 -95.435875 0.159350 0.693568
-19.231163 -89.786057 0.000003 0.338399
-12.912525 -86.758675 -0.000000 0.340764
-9.393314 -85.072556 0.000006 0.333684
-6.155361 -83.521194 0.200008 0.680415
-4.750052 -82.847885 0.199992 0.779095
-3.714579 -82.351768 0.200006 0.757717
nan nan nan 0.000000
nan nan nan 0.000000
-51.424927 -104.747070 12.897512 0.541970
-51.882965 -104.962608 10.959064 0.570459
-47.417522 -102.861336 8.380384 0.296574
-47.371044 -102.839462 6.543408 0.571359
-47.371479 -102.839668 4.722170 0.576120
-47.371315 -102.839592 2.906739 0.562539
-47.371319 -102.839600 1.093261 0.561959
-31.244804 -95.251045 0.153413 0.679835
-19.304188 -89.632225 0.000005 0.338201
-12.964588 -86.649040 -0.000000 0.338582
-9.433673 -84.987518 0.000009 0.331746
-6.184982 -83.458801 0.200009 0.760449
-4.775011 -82.795326 0.199992 0.666529
-3.736094 -82.306450 0.200007 0.702220
nan nan nan 0.000000
nan nan nan 0.000000
-52.421783 -104.747093 13.061906 0.580560
-52.888180 -104.962601 11.094200 0.569909
-47.413597 -102.432991 8.359151 0.355230
-47.370079 -102.412888 6.528554 0.568627
-47.371346 -102.413467 4.713316 0.564858
-47.371323 -102.413460 2.903793 0.557076
-47.371323 -102.413460 1.096207 0.543511
-31.471962 -95.066933 0.147122 0.700221
-19.376141 -89.477890 0.000006 0.337758
-13.015883 -86.539040 -0.000001 0.340063
-9.473432 -84.902199 0.000013 0.337835
-6.214168 -83.396210 0.200009 0.667552
-4.799602 -82.742592 0.199992 0.716625
-3.757293 -82.260979 0.200007 0.762600
nan nan nan 0.000000
nan nan nan 0.000000
nan nan nan 0.000000
-74.267105 -114.190514 14.547470 0.656382
-47.407207 -102.006340 8.338050 0.288762
-47.371998 -101.990364 6.514276 0.563699
-47.371227 -101.990021 4.704651 0.563104
-47.371326 -101.990067 2.900908 0.569635
-47.371326 -101.990067 1.099091 0.568750
-31.716431 -94.888702 0.139847 0.707546
-19.447180 -89.323128 -0.000008 0.338170
-13.066409 -86.428688 -0.000001 0.335439
-9.512615 -84.816620 0.000012 0.339788
-6.242915 -83.333420 0.200009 0.734218
-4.823824 -82.689690 0.199991 0.675700
-3.778178 -82.215363 0.200007 0.703456
nan nan nan 0.000000
nan nan nan 0.000000
nan nan nan 0.000000
-74.688911 -113.731903 14.576653 0.663539
-47.405266 -101.584457 8.317948 0.364706
-47.371082 -101.569237 6.500052 0.554208
-47.371113 -101.569244 4.696173 0.553063
-47.371326 -101.569344 2.898086 0.556939
-47.371330 -101.569344 1.101914 0.557443
-31.962986 -94.709122 0.132415 0.681407
-19.516966 -89.167801 -0.000006 0.335790
-13.116172 -86.317986 -0.000003 0.331762
-9.551198 -84.730759 0.000013 0.336370
-6.271227 -83.270424 0.200009 0.674464
-4.847674 -82.636620 0.199991 0.686961
-3.798743 -82.169609 0.200007 0.717006
nan nan nan 0.000000
nan nan nan 0.000000
nan nan nan 0.000000
-75.612106 -113.489304 14.687431 0.677363
-47.398605 -101.163147 8.297689 0.406104
-47.370193 -101.150726 6.486139 0.558053
-47.371601 -101.151344 4.687909 0.569757
-47.371330 -101.151230 2.895325 0.572519
-47.371330 -101.151230 1.104675 0.568627
-32.230865 -94.536530 0.123796 0.693462
-19.585670 -89.011986 -0.000005 0.337728
-13.165155 -86.206940 -0.000003 0.340627
-9.589183 -84.644638 0.000013 0.334508
-6.299094 -83.207237 0.200009 0.670878
-4.871155 -82.583382 0.199991 0.686732
-3.818989 -82.123703 0.200007 0.714794
nan nan nan 0.000000
nan nan nan 0.000000
nan nan nan 0.000000
nan nan nan 0.000000
-47.392960 -100.744919 8.277987 0.352941
-47.372128 -100.735992 6.472777 0.574136
-47.371490 -100.735718 4.679795 0.568856
-47.371326 -100.735649 2.892625 0.566171
-47.371326 -100.735649 1.107376 0.574228
-32.507000 -94.364807 0.114696 0.740520
-19.653463 -88.855774 -0.000020 0.337774
-13.213355 -86.095551 -0.000003 0.338842
-9.626600 -84.558266 0.000008 0.339727
-6.326521 -83.143852 0.200009 0.745556
-4.894262 -82.529984 0.199991 0.735515
-3.838913 -82.077667 0.200007 0.676707
nan nan nan 0.000000
nan nan nan 0.000000
nan nan nan 0.000000
-58.929493 -105.181152 11.927344 0.315099
-47.390404 -100.330582 8.259090 0.385931
-47.371296 -100.322540 6.459469 0.582300
-47.371395 -100.322586 4.671861 0.569711
-47.371334 -100.322563 2.889982 0.562158
-47.371338 -100.322563 1.110017 0.571740
-32.799149 -94.196991 0.104706 0.689891
-19.720009 -88.699036 -0.000021 0.338903
-13.260784 -85.983826 -0.000003 0.332753
-9.663380 -84.471619 0.000007 0.338643
-7.316137 -83.484932 0.010006 1.000000
-4.916996 -82.476425 0.199991 0.706584
-3.858514 -82.031487 0.200007 0.691005
nan nan nan 0.000000
nan nan nan 0.000000
nan nan nan 0.000000
-60.155766 -105.181236 12.095284 0.293629
-47.384651 -99.917374 8.240212 0.419608
-47.370476 -99.911530 6.446455 0.575799
-47.371296 -99.911873 4.664101 0.568475
-47.371334 -99.911880 2.887400 0.569741
-47.371334 -99.911880 1.112600 0.573632
-33.108662 -94.033249 0.093759 0.738659
-19.785452 -88.541824 -0.000021 0.336843
-13.307423 -85.871773 -0.000003 0.336065
-9.699583 -84.384735 0.000002 0.333150
-7.396260 -83.435371 0.000013 0.338659
-4.939359 -82.422714 0.199991 0.712062
-3.877794 -81.985168 0.200007 0.680720
nan nan nan 0.000000
nan nan nan 0.000000
nan nan nan 0.000000
-58.812523 -104.126099 11.851666 0.440879
-47.384605 -99.508926 8.222452 0.435538
-47.372433 -99.504005 6.433979 0.566506
-47.371197 -99.503510 4.656518 0.560952
-47.371342 -99.503571 2.884875 0.562615
-47.371346 -99.503571 1.115124 0.553704
-33.424015 -93.868492 0.082474 0.692592
-19.849718 -88.384125 -0.000014 0.335470
-13.353296 -85.759407 -0.000005 0.336019
-9.735183 -84.297600 -0.000003 0.340322
-7.425255 -83.364326 0.000012 0.338277
-4.961342 -82.368843 0.199991 0.670527
-3.896750 -81.938721 0.200007 0.749813
nan nan nan 0.000000
nan nan nan 0.000000
nan nan nan 0.000000
-59.104435 -103.742996 11.870767 0.458518
-47.376720 -99.099670 8.204125 0.427619
-47.371658 -99.097672 6.421547 0.560098
-47.371105 -99.097450 4.649104 0.566125
-47.371346 -99.097549 2.882409 0.578683
-47.371349 -99.097549 1.117591 0.568627
-33.747368 -93.703438 0.070735 0.706111
-19.912968 -88.226021 -0.000015 0.336828
-13.398369 -85.646713 -0.000004 0.334905
-9.770141 -84.210197 -0.000004 0.337453
-7.453753 -83.293083 0.000012 0.337758
-4.982949 -82.314819 0.199991 0.687663
-3.915383 -81.892143 0.200006 0.675898
nan nan nan 0.000000
nan nan nan 0.000000
nan nan nan 0.000000
-58.112572 -102.860001 11.685987 0.426429
-47.373718 -98.694679 8.186804 0.542336
-47.370918 -98.693596 6.409401 0.576318
-47.371552 -98.693848 4.641890 0.542260
-47.371342 -98.693764 2.879997 0.569253
-47.371346 -98.693764 1.120002 0.573083
-34.070400 -93.534676 0.058984 0.729412
-19.975107 -88.067482 -0.000016 0.338781
-13.442619 -85.533699 0.000000 0.341222
-9.804519 -84.122574 -0.000008 0.335012
-7.481753 -83.221634 0.000012 0.334813
-5.824339 -82.578766 0.009995 1.000000
-4.678105 -82.134171 0.000004 0.333593
nan nan nan 0.000000
nan nan nan 0.000000
nan nan nan 0.000000
-58.702747 -102.596550 11.753713 0.471077
-48.023087 -98.539734 8.250158 0.405859
-47.943089 -98.509346 6.447784 0.646159
-47.948788 -98.511505 4.665155 0.559976
-47.684887 -98.411263 2.883132 0.812161
-47.684887 -98.411263 1.116869 0.825513
-34.382469 -93.358154 0.047780 0.692531
-20.036137 -87.908508 -0.000016 0.336736
-13.486116 -85.420387 -0.000000 0.340200
-9.838250 -84.034698 -0.000009 0.340505
-7.509252 -83.149994 0.000012 0.337194
-5.847401 -82.518723 0.009993 1.000000
-4.698082 -82.082138 0.000003 0.343175
nan nan nan 0.000000
nan nan nan 0.000000
nan nan nan 0.000000
-58.587189 -102.063805 11.709863 0.587549
-49.263744 -98.596451 8.386057 0.310231
-49.039841 -98.513184 6.532076 0.678431
-49.035030 -98.511398 4.715105 0.678431
-48.765804 -98.411270 2.899688 0.678431
-48.765804 -98.411270 1.100312 0.678431
-34.697102 -93.179176 0.036405 0.744137
-20.096064 -87.749115 -0.000017 0.337514
-13.528818 -85.306778 -0.000000 0.336385
-9.871391 -83.946594 -0.000012 0.340169
-7.536254 -83.078171 0.000012 0.337713
-5.870043 -82.458511 0.009990 1.000000
-4.717697 -82.029961 0.000003 0.338643
nan nan nan 0.000000
nan nan nan 0.000000
nan nan nan 0.000000
-58.587196 -101.577499 11.684956 0.553109
-50.533035 -98.646027 8.525064 0.393851
-50.164875 -98.512024 6.618618 0.678431
-50.162693 -98.511230 4.767093 0.669535
-49.888077 -98.411285 2.916925 0.678431
-49.888077 -98.411285 1.083077 0.678431
-34.998814 -92.992043 0.025669 0.684749
-20.154875 -87.589302 -0.000018 0.338109
-13.570677 -85.192856 0.000006 0.332570
-9.903893 -83.858253 -0.000012 0.332433
-7.562748 -83.006149 0.000012 0.331609
-5.892261 -82.398148 0.009989 1.000000
-4.699453 -81.963997 0.009997 1.000000
nan nan nan 0.000000
nan nan nan 0.000000
nan nan nan 0.000000
-58.587189 -101.093651 11.660643 0.591302
-51.887249 -98.707909 8.674056 0.390646
-51.333366 -98.510681 6.708728 0.685573
-51.334335 -98.511032 4.821247 0.562966
-51.054237 -98.411285 2.934879 0.678431
-51.054241 -98.411285 1.065121 0.676066
-35.303791 -92.802818 0.014721 0.680201
-20.212568 -87.429085 -0.000019 0.339147
-13.611792 -85.078659 0.000006 0.337835
-9.935777 -83.769691 -0.000012 0.340032
-7.588745 -82.933952 0.000011 0.337789
-5.957605 -82.353134 0.000003 0.339742
-4.718235 -81.911812 0.009998 1.000000
nan nan nan 0.000000
nan nan nan 0.000000
nan nan nan 0.000000
-58.587196 -100.612206 11.636922 0.467689
-53.302704 -98.771957 8.830093 0.296742
-52.547947 -98.509125 6.802622 0.686641
-52.552689 -98.510773 4.877697 0.681361
-52.267052 -98.411301 2.953599 0.806516
-52.267052 -98.411301 1.046402 0.545769
-35.487835 -92.568169 0.010021 1.000000
-20.154028 -87.228386 0.009975 1.000000
-13.652109 -84.964180 0.000006 0.337652
-9.967026 -83.680901 -0.000009 0.336583
-7.614234 -82.861572 0.000011 0.328771
-5.979074 -82.292152 0.000004 0.335561
-4.736647 -81.859497 0.010002 1.000000
nan nan nan 0.000000
nan nan nan 0.000000
nan nan nan 0.000000
-58.587193 -100.133095 11.613783 0.499702
-58.587185 -100.133087 9.455889 0.499840
-53.830872 -98.513916 6.902213 0.678431
-53.820675 -98.510437 4.936590 0.678431
-46.753960 -96.104736 2.856009 0.698039
-46.753963 -96.104744 1.143992 0.697978
-35.772144 -92.366234 0.000045 0.338735
-20.324425 -87.107407 -0.000007 0.335882
-13.691570 -84.849403 0.000012 0.332784
-9.997670 -83.591904 -0.000009 0.333623
-7.639217 -82.789017 0.000011 0.336599
-6.000119 -82.231026 0.000005 0.334630
-4.792496 -81.819916 0.000001 0.342565
nan nan nan 0.000000
nan nan nan 0.000000
nan nan nan 0.000000
-46.518528 -95.641548 9.704552 0.651621
-46.518528 -95.641548 7.975201 0.647517
-46.518517 -95.641548 6.258824 0.648493
-46.518517 -95.641548 4.551640 0.665080
-46.518517 -95.641548 2.849940 0.659632
-46.518517 -95.641548 1.150061 0.666163
-35.670982 -92.033058 0.009976 1.000000
-20.378391 -86.945900 0.000024 0.529717
-13.730286 -84.734375 0.000011 0.338842
-10.027667 -83.502678 -0.000005 0.335271
-7.663692 -82.716293 0.000011 0.334997
-6.020738 -82.169754 0.000005 0.336080
-4.810273 -81.767090 0.000002 0.332250
nan nan nan 0.000000
nan nan nan 0.000000
nan nan nan 0.000000
-46.518517 -95.260284 9.686884 0.663142
-46.518520 -95.260284 7.961500 0.620127
-46.518517 -95.260284 6.249060 0.663752
-46.518517 -95.260284 4.545791 0.664164
-46.518520 -95.260284 2.847990 0.673564
-46.518517 -95.260284 1.152009 0.677333
-35.953297 -91.827438 -0.000044 0.337514
-20.431581 -86.784142 0.000023 0.545892
-13.768194 -84.619080 0.000012 0.337240
-10.057069 -83.413261 -0.000005 0.338399
-7.687664 -82.643394 0.000011 0.330938
-6.040921 -82.108337 0.000007 0.336034
-4.827688 -81.714134 0.000000 0.340871
nan nan nan 0.000000
nan nan nan 0.000000
nan nan nan 0.000000
-46.518517 -94.880745 9.669676 0.661662
-46.518524 -94.880745 7.948153 0.677607
-46.518513 -94.880737 6.239547 0.666667
-46.518513 -94.880737 4.540092 0.662852
-46.518513 -94.880737 2.846093 0.658854
-46.518513 -94.880737 1.153908 0.666850
-36.040131 -91.556808 -0.000042 0.338308
-20.483627 -86.622002 0.000024 0.538247
-13.805241 -84.503502 0.000018 0.338964
-10.085816 -83.323631 -0.000001 0.331930
-7.711121 -82.570335 0.000010 0.337835
-6.060685 -82.046783 0.000007 0.337194
-4.844731 -81.661064 0.000000 0.331228
nan nan nan 0.000000
nan nan nan 0.000000
nan nan nan 0.000000
-46.518517 -94.502876 9.652912 0.657755
-46.518517 -94.502876 7.935153 0.654902
-46.518513 -94.502876 6.230281 0.674006
-46.518517 -94.502876 4.534539 0.668406
-46.518513 -94.502876 2.844243 0.659632
-46.518513 -94.502876 1.155757 0.663172
-36.125095 -91.285583 -0.000041 0.338384
-20.534542 -86.459511 0.000024 0.543160
-13.841536 -84.387680 0.000018 0.336950
-10.113968 -83.233810 -0.000002 0.337972
-7.734068 -82.497108 0.000010 0.333669
-6.080014 -81.985092 0.000008 0.330236
-4.861400 -81.607872 -0.000000 0.344991
nan nan nan 0.000000
nan nan nan 0.000000
nan nan nan 0.000000
-46.518517 -94.126648 9.636597 0.658152
-46.518520 -94.126648 7.922499 0.674525
-46.518513 -94.126648 6.221262 0.667552
-46.518513 -94.126648 4.529136 0.663417
-46.518513 -94.126640 2.842444 0.663203
-46.518513 -94.126640 1.157557 0.667765
-36.208157 -91.013771 -0.000038 0.337362
-20.584333 -86.296669 0.000024 0.537774
-13.877022 -84.271614 0.000018 0.338430
-10.141488 -83.143799 -0.000002 0.338369
-7.756503 -82.423729 0.000010 0.333394
-6.098915 -81.923271 0.000008 0.331792
-4.877698 -81.554565 -0.000000 0.329305
nan nan nan 0.000000
nan nan nan 0.000000
nan nan nan 0.000000
-46.518513 -93.751991 9.620717 0.677256
-46.518509 -93.751991 7.910183 0.678019
-46.518517 -93.751991 6.212485 0.670665
-46.518509 -93.751991 4.523877 0.668406
-46.518505 -93.751991 2.840692 0.661982
-46.518505 -93.751991 1.159308 0.666667
-36.289330 -90.741386 -0.000036 0.338369
-20.632982 -86.133484 0.000024 0.539727
-13.911695 -84.155304 0.000018 0.336721
-10.168357 -83.053581 0.000002 0.337682
-7.778428 -82.350189 0.000010 0.336858
-6.117378 -81.861320 0.000009 0.330541
-4.893625 -81.501144 -0.000001 0.332235
nan nan nan 0.000000
nan nan nan 0.000000
-47.702995 -93.718521 11.553214 0.807843
-46.518513 -93.378876 9.605276 0.667262
-46.518513 -93.378876 7.898209 0.668544
-46.518513 -93.378876 6.203950 0.679164
-46.518509 -93.378876 4.518763 0.662898
-46.518509 -93.378876 2.838989 0.654948
-46.518509 -93.378876 1.161012 0.660395
-36.368591 -90.468437 -0.000035 0.339376
-20.680485 -85.969955 0.000024 0.556130
-13.945549 -84.038750 0.000019 0.338735
-10.194614 -82.963188 0.000002 0.327962
-7.799837 -82.276505 0.000010 0.336294
-6.135416 -81.799240 0.000008 0.331151
-4.909178 -81.447617 -0.000001 0.330220
nan nan nan 0.000000
nan nan nan 0.000000
-47.688583 -93.333946 11.531637 0.693095
-46.518513 -93.007256 9.590267 0.665064
-46.518517 -93.007256 7.886570 0.653147
-46.518509 -93.007256 6.195652 0.643778
-46.518513 -93.007256 4.513792 0.661753
-46.518505 -93.007256 2.837332 0.637675
-46.518505 -93.007256 1.162668 0.620676
-36.446236 -90.195030 -0.000049 0.338399
-20.726852 -85.806114 0.000024 0.537148
-13.978594 -83.921967 0.000019 0.336965
-10.220242 -82.872620 0.000003 0.340658
-7.820731 -82.202667 0.000010 0.336568
-6.153010 -81.737030 0.000010 0.330999
-4.924356 -81.393982 -0.000001 0.333242
nan nan nan 0.000000
nan nan nan 0.000000
-47.674595 -92.951180 11.510689 0.625711
-46.518513 -92.637077 9.575686 0.662623
-46.518517 -92.637077 7.875260 0.648310
-46.518509 -92.637077 6.187593 0.682994
-46.518509 -92.637077 4.508963 0.647456
-46.518497 -92.637070 2.835722 0.665156
-46.518497 -92.637070 1.164276 0.652140
-36.521721 -89.921021 -0.000049 0.339422
-20.772070 -85.641937 0.000024 0.546029
-14.010826 -83.804955 0.000019 0.339620
-10.245241 -82.781868 0.000002 0.333425
-7.841111 -82.128685 0.000009 0.339712
-6.170179 -81.674706 0.000010 0.335683
-4.939158 -81.340240 -0.000002 0.322988
nan nan nan 0.000000
nan nan nan 0.000000
-47.661018 -92.570168 11.490358 0.592538
-46.518509 -92.268303 9.561527 0.647059
-46.518509 -92.268303 7.864279 0.666484
-46.518513 -92.268303 6.179765 0.668452
-46.518501 -92.268303 4.504273 0.685679
-46.518501 -92.268303 2.834162 0.672923
-46.518501 -92.268303 1.165838 0.651652
-36.595280 -89.646484 -0.000049 0.337789
-20.816149 -85.477463 0.000024 0.529137
-14.042288 -83.687737 0.000013 0.336034
-10.269602 -82.690948 0.000002 0.341634
-7.860971 -82.054565 0.000010 0.338918
-6.186907 -81.612259 0.000011 0.336080
-4.953588 -81.286400 -0.000002 0.334768
nan nan nan 0.000000
nan nan nan 0.000000
-47.647858 -92.190849 11.470642 0.642206
-46.518505 -91.900879 9.547789 0.662135
-46.518513 -91.900887 7.853624 0.684321
-46.518505 -91.900879 6.172173 0.682857
-46.518497 -91.900879 4.499723 0.675425
-46.518505 -91.900879 2.832646 0.687358
-46.518505 -91.900879 1.167354 0.659159
-36.666904 -89.371429 -0.000048 0.337652
-20.859068 -85.312675 0.000024 0.530510
-14.072884 -83.570282 0.000013 0.338231
-10.293328 -82.599861 0.000002 0.333516
-7.880316 -81.980309 0.000009 0.344381
-6.203203 -81.549698 0.000010 0.337499
-4.967639 -81.232460 -0.000002 0.340124
nan nan nan 0.000000
nan nan nan 0.000000
-47.635101 -91.813179 11.451537 0.732464
-46.518513 -91.534782 9.534468 0.654444
-46.518505 -91.534782 7.843293 0.611765
-46.518505 -91.534782 6.164808 0.612451
-46.518505 -91.534782 4.495311 0.632654
-46.518497 -91.534782 2.831177 0.640818
-46.518497 -91.534782 1.168823 0.641093
-36.736649 -89.095901 -0.000049 0.338979
-20.900837 -85.147598 0.000024 0.541527
-14.102655 -83.452621 0.000013 0.338857
-10.316439 -82.508614 -0.000001 0.336522
-7.899139 -81.905914 0.000009 0.331548
-6.219058 -81.487022 0.000011 0.339513
-4.981317 -81.178421 -0.000003 0.339086
nan nan nan 0.000000
nan nan nan 0.000000
-47.622749 -91.437096 11.433029 0.688380
-46.518509 -91.169952 9.521556 0.672312
-46.518509 -91.169952 7.833280 0.628107
-46.518501 -91.169952 6.157673 0.654902
-46.518501 -91.169952 4.491036 0.666300
-46.518497 -91.169952 2.829752 0.670481
-46.518497 -91.169952 1.170247 0.666667
-36.804440 -88.819878 -0.000049 0.337392
-20.941456 -84.982231 0.000024 0.531975
-14.131607 -83.334755 0.000013 0.334768
-10.338897 -82.417206 -0.000001 0.339742
-7.917445 -81.831398 0.000009 0.330159
-6.234480 -81.424248 0.000012 0.335271
-4.994612 -81.124290 -0.000003 0.330419
nan nan nan 0.000000
nan nan nan 0.000000
nan nan nan 0.000000
-46.518505 -90.806351 9.509058 0.666392
-46.518505 -90.806351 7.823586 0.666621
-46.518501 -90.806351 6.150762 0.654994
-46.518501 -90.806351 4.486897 0.660639
-46.518501 -90.806351 2.828373 0.662623
-46.518501 -90.806351 1.171626 0.651728
-36.870308 -88.543388 -0.000049 0.338506
-20.980919 -84.816574 0.000024 0.534798
-14.159819 -83.216705 0.000003 0.339117
-10.360710 -82.325638 -0.000001 0.330129
-7.935233 -81.756752 0.000008 0.336248
-6.249459 -81.361359 0.000012 0.336645
-5.007532 -81.070068 -0.000003 0.333227
nan nan nan 0.000000
nan nan nan 0.000000
nan nan nan 0.000000
-46.518501 -90.443939 9.496964 0.631373
-46.518513 -90.443939 7.814210 0.655512
-46.518497 -90.443939 6.144078 0.656291
-46.518505 -90.443939 4.482893 0.664027
-46.518505 -90.443939 2.827040 0.654795
-46.518501 -90.443939 1.172961 0.662806
-36.934246 -88.266457 -0.000049 0.338186
-21.019230 -84.650665 0.000024 0.551751
-14.187120 -83.098450 0.000003 0.339467
-10.381886 -82.233925 -0.000001 0.338506
-7.952496 -81.681984 0.000008 0.334646
-6.264003 -81.298363 0.000012 0.336797
-5.020072 -81.015755 -0.000003 0.334249
nan nan nan 0.000000
nan nan nan 0.000000
nan nan nan 0.000000
-46.518505 -90.082672 9.485275 0.647349
-46.518505 -90.082672 7.805143 0.646281
-46.518497 -90.082672 6.137616 0.665431
-46.518505 -90.082672 4.479021 0.665568
