# This PCD file was generated using the MATLABÂ® pcwrite function
# from Computer Vision ToolboxÂ®.
# .PCD v.7 - Point Cloud Data file format
VERSION .7
FIELDS x y z intensity
SIZE 4 4 4 4
TYPE F F F F
COUNT 1 1 1 1
WIDTH 1244
HEIGHT 1
VIEWPOINT 0 0 0 1 0 0 0
POINTS 1244
DATA ascii
109.062317 40.869781 7.832938 0.875059
109.062317 40.869778 7.029379 0.370016
109.062317 40.869774 6.237103 0.699016
109.062332 40.869762 5.454213 0.522667
109.062332 40.869766 4.678886 0.427771
109.062332 40.869766 3.909377 0.718471
109.062325 40.869774 3.143988 0.787152
109.062325 40.869774 2.381057 0.779416
109.062325 40.869774 1.618943 0.636088
109.062325 40.869774 0.856012 0.402121
109.062325 40.869770 0.090623 0.673289
105.160828 45.297104 -0.000019 0.573068
101.689323 49.236488 0.200004 0.743755
100.206970 50.918636 0.200001 0.666896
99.788879 51.393070 0.000004 0.338109
98.945480 52.350143 -0.000004 0.337697
108.846954 40.869778 7.797414 0.603021
108.846954 40.869778 6.998750 0.684871
108.846954 40.869778 6.211298 0.819211
108.877342 40.834805 5.440045 0.805097
108.877342 40.834801 4.667899 0.576852
108.877342 40.834801 3.901546 0.698985
108.846954 40.869774 3.137020 0.511254
108.846954 40.869774 2.378736 0.473442
108.846954 40.869774 1.621264 0.437766
108.846954 40.869774 0.862980 0.545174
108.846954 40.869774 0.102253 0.421622
105.069496 45.217171 -0.000020 0.549111
101.625565 49.180710 0.200005 0.728573
100.154991 50.873158 0.200001 0.697581
99.743927 51.346245 -0.001212 0.677134
98.903534 52.313431 -0.000005 0.334981
108.634186 40.869778 7.762598 0.639567
108.634186 40.869778 6.968730 0.316411
108.634186 40.869774 6.186008 0.816770
108.793304 40.684052 5.448833 0.160784
108.793304 40.684052 4.674714 0.160784
108.793304 40.684052 3.906403 0.160784
108.634193 40.869770 3.130192 0.482109
108.634186 40.869774 2.376462 0.669505
108.634186 40.869774 1.623539 0.463188
108.634193 40.869770 0.869807 0.651362
108.634193 40.869770 0.113649 0.629328
104.977600 45.137882 -0.000020 0.550164
101.561409 49.125389 0.200010 0.675914
100.102707 50.828041 0.200001 0.741299
99.676460 51.325569 0.004926 0.732494
98.861328 52.277020 -0.000005 0.338170
108.423950 40.869781 7.728476 0.397940
108.423950 40.869778 6.939308 0.546532
108.423950 40.869774 6.161222 0.401343
108.641083 40.612724 5.442262 0.678431
108.641075 40.612724 4.669617 0.678431
108.641075 40.612728 3.902770 0.678431
108.423950 40.869774 3.123500 0.518410
108.423950 40.869774 2.374232 0.776471
108.423950 40.869774 1.625768 0.530221
108.423950 40.869774 0.876500 0.371328
108.423950 40.869774 0.124819 0.388205
104.885147 45.059242 -0.000020 0.552148
101.496872 49.070503 0.200011 0.735729
100.050102 50.783295 0.200001 0.711513
99.609406 51.305016 0.010928 0.698924
98.818871 52.240898 -0.000005 0.346593
108.216179 40.869781 7.695030 0.510063
108.216179 40.869774 6.910471 0.777264
108.237335 40.844376 6.142941 0.692149
108.430252 40.612724 5.422164 0.678431
108.430252 40.612724 4.654031 0.678431
108.430252 40.612724 3.891662 0.671122
108.216187 40.869770 3.116940 0.634958
108.216179 40.869774 2.372047 0.494163
108.216179 40.869774 1.627952 0.548409
108.216179 40.869774 0.883060 0.863355
108.216179 40.869774 0.135767 0.716075
104.792160 44.981239 -0.000020 0.550668
101.431961 49.016071 0.200012 0.670100
99.997185 50.738914 0.200001 0.750683
99.542747 51.284584 0.016799 0.665125
98.776169 52.205078 -0.000005 0.345037
108.010811 40.869774 7.662250 0.607217
108.010811 40.869774 6.882205 0.854337
108.114815 40.743095 6.142937 0.605509
108.221863 40.612720 5.402466 0.678431
108.221863 40.612720 4.638754 0.678431
108.221863 40.612724 3.880772 0.678431
108.010811 40.869774 3.110510 0.556191
108.010811 40.869774 2.369905 0.772213
108.010811 40.869774 1.630094 0.543404
108.010803 40.869774 0.889489 0.879789
108.010811 40.869774 0.146498 0.596414
104.698616 44.903900 -0.000019 0.543770
101.366676 48.962090 0.200013 0.706889
99.943962 50.694904 0.200001 0.718242
99.476517 51.264229 0.022526 0.683925
98.733208 52.169556 -0.000006 0.332631
107.807777 40.869781 7.630114 0.765774
107.807777 40.869774 6.854498 0.612589
107.943466 40.702145 6.129011 0.348852
108.015846 40.612717 5.383158 0.678431
108.015846 40.612720 4.623779 0.678431
108.015846 40.612720 3.870099 0.678431
107.807785 40.869774 3.104208 0.751965
107.807777 40.869774 2.367806 0.646189
107.807777 40.869774 1.632193 0.383917
107.807785 40.869774 0.895791 0.651728
107.807785 40.869774 0.157017 0.565087
104.604553 44.827209 -0.000020 0.550607
101.301018 48.908558 0.200012 0.687495
99.890434 50.651264 0.200001 0.730190
99.410645 51.244019 0.028133 0.669047
98.690002 52.134335 -0.000006 0.339452
107.607033 40.869778 7.598614 0.582773
107.607033 40.869781 6.827336 0.862257
107.607056 40.869751 6.066894 0.477195
107.607048 40.869751 5.315451 0.335882
107.607048 40.869751 4.571270 0.557809
107.607056 40.869751 3.832674 0.582300
107.607033 40.869774 3.098030 0.795911
107.607033 40.869774 2.365749 0.588205
107.607033 40.869774 1.634251 0.457206
107.607033 40.869774 0.901970 0.711711
107.607033 40.869774 0.167328 0.495048
104.509941 44.751175 -0.000020 0.555291
101.234985 48.855488 0.200012 0.690211
99.836601 50.608002 0.200001 0.667323
99.345123 51.223946 0.033618 0.751888
98.646553 52.099415 -0.000006 0.333669
107.408508 40.869781 7.567735 0.667842
107.408508 40.869778 6.800711 0.235447
107.408524 40.869755 6.044461 0.360800
107.408531 40.869751 5.297164 0.574197
107.408531 40.869751 4.557088 0.513039
107.408524 40.869751 3.822565 0.587503
107.408508 40.869774 3.091974 0.291569
107.408508 40.869774 2.363731 0.807843
107.408508 40.869774 1.636268 0.552804
107.408508 40.869774 0.908026 0.521798
107.408508 40.869774 0.177436 0.632746
104.414810 44.675808 -0.000020 0.552209
101.168594 48.802864 0.200008 0.701152
99.782463 50.565117 0.200001 0.769497
99.279930 51.204010 0.038986 0.774884
98.602867 52.064800 -0.000007 0.326955
107.212151 40.869778 7.537461 0.558083
107.212151 40.869778 6.774609 0.822049
107.212173 40.869755 6.022471 0.751720
107.212173 40.869755 5.279237 0.607569
107.212173 40.869759 4.543183 0.664118
107.212173 40.869755 3.812655 0.550576
107.212158 40.869774 3.086037 0.511727
107.212158 40.869774 2.361753 0.341222
107.212158 40.869774 1.638247 0.402792
107.212158 40.869774 0.913963 0.469703
107.212158 40.869774 0.187346 0.446510
104.319153 44.601101 -0.000021 0.544900
101.101837 48.750717 0.200007 0.716869
99.728035 50.522610 0.200001 0.660075
99.215225 51.184021 0.044186 0.694774
98.558929 52.030487 -0.000007 0.335698
107.017914 40.869778 7.507783 0.459037
107.017914 40.869774 6.749020 0.929305
107.017929 40.869759 6.000911 0.389120
107.017929 40.869759 5.261661 0.637552
107.017929 40.869759 4.529553 0.632273
107.017929 40.869759 3.802940 0.598489
107.017914 40.869774 3.080216 0.596201
107.017914 40.869774 2.359815 0.501427
107.017914 40.869774 1.640185 0.441047
107.017914 40.869774 0.919784 0.519463
107.017914 40.869774 0.197061 0.476967
104.222977 44.527061 -0.000021 0.534051
101.034714 48.699028 0.200004 0.709728
99.673317 50.480476 0.200000 0.686915
99.153328 51.160896 0.048383 0.665919
98.514763 51.996487 -0.000007 0.334401
106.825729 40.869781 7.478687 0.500114
106.825729 40.869781 6.723931 0.734554
106.825752 40.869759 5.979777 0.547692
106.825745 40.869759 5.244430 0.552956
106.825745 40.869762 4.516191 0.439872
106.825745 40.869759 3.793415 0.838544
106.825737 40.869778 3.074510 0.596841
106.825737 40.869778 2.357914 0.627573
106.825737 40.869774 1.642086 0.560906
106.825737 40.869774 0.925490 0.426932
106.825737 40.869774 0.206586 0.595819
104.126282 44.453705 -0.000021 0.559213
100.967232 48.647820 0.200003 0.740215
99.618294 50.438732 0.199999 0.699443
99.091919 51.137573 0.052385 0.663661
98.470352 51.962799 -0.000006 0.342458
106.635567 40.869781 7.450161 0.552697
106.635567 40.869778 6.699335 0.496529
106.635574 40.869759 5.959054 0.499199
106.635574 40.869762 5.227536 0.461875
106.635574 40.869762 4.503089 0.638331
106.635574 40.869766 3.784077 0.581903
106.635567 40.869774 3.068915 0.740017
106.635574 40.869774 2.356050 0.591119
106.635574 40.869774 1.643949 0.701625
106.635567 40.869774 0.931085 0.366354
106.635567 40.869778 0.215924 0.528893
104.029076 44.381023 -0.000021 0.542535
100.899399 48.597065 0.199999 0.713039
99.562988 50.397369 0.199998 0.700572
99.030861 51.114204 0.056241 0.735088
98.425705 51.929420 -0.000005 0.334874
106.447357 40.869778 7.422194 0.458137
106.447357 40.869778 6.675220 0.809491
106.447372 40.869766 5.938737 0.498772
106.447372 40.869762 5.210975 0.485130
106.447365 40.869766 4.490244 0.573312
106.447372 40.869766 3.774922 0.529778
106.447365 40.869774 3.063429 0.830030
106.447357 40.869778 2.354223 0.439307
106.447357 40.869778 1.645777 0.770703
106.447357 40.869774 0.936570 0.445777
106.447357 40.869774 0.225078 0.479912
103.931366 44.309021 -0.000021 0.540459
100.831207 48.546806 0.199999 0.750011
99.507393 50.356392 0.199997 0.732235
98.969971 51.091026 0.060013 0.731838
98.380829 51.896358 -0.000004 0.338460
106.261063 40.869781 7.394773 0.562631
106.261063 40.869778 6.651577 0.585107
106.376228 40.710022 5.954650 0.635676
106.376228 40.710026 5.223947 0.554299
106.376228 40.710022 4.500304 0.739834
106.376228 40.710022 3.782093 0.646510
106.261063 40.869774 3.058052 0.423072
106.261063 40.869774 2.352432 0.565927
106.261063 40.869774 1.647568 0.589242
106.261063 40.869774 0.941948 0.447364
106.261063 40.869778 0.234054 0.547967
103.833168 44.237694 -0.000021 0.539864
101.551163 47.403229 -0.000015 0.551766
99.451515 50.315811 0.199997 0.693614
98.909332 51.067909 0.063668 0.746715
98.335724 51.863605 -0.000002 0.332448
106.076637 40.869778 7.367890 0.790936
106.076637 40.869781 6.628396 0.542962
106.259232 40.612717 5.956660 0.586770
106.259232 40.612717 5.225585 0.556100
106.259232 40.612717 4.501575 0.570245
106.259239 40.612713 3.782999 0.594186
106.076637 40.869774 3.052779 0.729534
106.076637 40.869774 2.350676 0.730571
106.076637 40.869774 1.649324 0.498238
106.076637 40.869774 0.947221 0.530327
106.076637 40.869774 0.242855 0.529763
103.734467 44.167065 -0.000021 0.536355
101.474617 47.348450 -0.000015 0.553765
99.395355 50.275616 0.199996 0.731182
98.848930 51.044861 0.067212 0.684382
98.290390 51.831173 -0.000001 0.336095
105.894028 40.869781 7.341529 0.432731
105.894028 40.869774 6.605669 0.334356
106.073936 40.612717 5.937231 0.678431
106.073944 40.612717 5.209745 0.678431
106.073936 40.612717 4.489291 0.678431
106.073936 40.612717 3.774244 0.678431
105.894028 40.869774 3.047609 0.530343
105.894028 40.869774 2.348953 0.465110
105.894028 40.869774 1.651046 0.790219
105.894028 40.869774 0.952390 0.615961
105.894028 40.869774 0.251483 0.750973
103.635269 44.097118 -0.000021 0.557351
101.397690 47.294209 -0.000015 0.539666
99.338913 50.235809 0.199994 0.755459
98.788742 51.021908 0.070652 0.689647
98.244835 51.799053 -0.000000 0.338460
105.713196 40.869778 7.315688 0.396262
105.713196 40.869774 6.583387 0.839460
105.890442 40.612720 5.918181 0.678431
105.890442 40.612720 5.194216 0.678431
105.890450 40.612717 4.477248 0.678431
105.890450 40.612717 3.765659 0.678431
105.713196 40.869774 3.042542 0.357412
105.713196 40.869774 2.347266 0.663767
105.713196 40.869774 1.652735 0.716823
105.713196 40.869774 0.957458 0.497108
105.713196 40.869774 0.259943 0.589380
103.535591 44.027870 -0.000021 0.554009
101.320381 47.240505 -0.000015 0.542184
99.282196 50.196407 0.199994 0.693767
98.728767 50.999023 0.073982 0.722347
98.199051 51.767258 0.000001 0.332006
105.534088 40.869781 7.290348 0.769039
105.534088 40.869781 6.561539 0.557412
105.708710 40.612717 5.899506 0.678431
105.708710 40.612717 5.178990 0.678431
105.708710 40.612717 4.465440 0.678431
105.708710 40.612717 3.757243 0.678431
105.534096 40.869774 3.037572 0.453895
105.534096 40.869774 2.345610 0.337148
105.534096 40.869774 1.654390 0.628626
105.534096 40.869774 0.962428 0.651316
105.534096 40.869774 0.268237 0.580255
103.435432 43.959324 -0.000021 0.539025
101.242706 47.187336 -0.000016 0.504051
99.225204 50.157398 0.199994 0.745708
98.669006 50.976208 0.077206 0.781109
98.153046 51.735775 0.000002 0.332921
105.356682 40.869778 7.265508 0.508110
105.356682 40.869778 6.540120 0.525414
105.528687 40.612717 5.881195 0.678431
105.528687 40.612717 5.164063 0.678431
105.528687 40.612717 4.453862 0.678431
105.528687 40.612720 3.748991 0.626535
105.356689 40.869774 3.032700 0.481392
105.356689 40.869774 2.343988 0.459403
105.356689 40.869774 1.656013 0.388876
105.356689 40.869774 0.967300 0.645853
105.356689 40.869774 0.276369 0.611963
103.334793 43.891472 -0.000022 0.535943
101.164658 47.134716 -0.000016 0.551843
99.167938 50.118797 0.199994 0.691371
98.609444 50.953465 0.080325 0.777630
98.106827 51.704620 0.000003 0.333913
105.180923 40.869774 7.241153 0.496620
105.180923 40.869774 6.519120 0.641505
105.350342 40.612717 5.863242 0.671305
105.350342 40.612720 5.149428 0.678431
105.350342 40.612724 4.442512 0.678431
105.350342 40.612720 3.740902 0.641871
105.180931 40.869770 3.027923 0.489189
105.180923 40.869774 2.342396 0.579187
105.180923 40.869774 1.657604 0.595544
105.180923 40.869774 0.972077 0.526589
105.180923 40.869774 0.284341 0.573205
103.233688 43.824326 -0.000022 0.541680
101.086243 47.082649 -0.000016 0.546502
99.110405 50.080589 0.199994 0.750622
98.550560 50.930046 0.083146 0.676570
98.060387 51.673786 0.000004 0.336187
105.006775 40.869778 7.217273 0.682841
105.006775 40.869781 6.498530 0.414450
105.006783 40.869774 5.789880 0.868894
105.006775 40.869774 5.089621 0.640452
105.006775 40.869774 4.396129 0.611765
105.006775 40.869781 3.707842 0.611399
105.006775 40.869774 3.023239 0.597513
105.006775 40.869774 2.340837 0.602594
105.006775 40.869774 1.659164 0.566537
105.006775 40.869774 0.976760 0.668528
105.006775 40.869774 0.292158 0.526802
103.132111 43.757889 -0.000022 0.536370
101.007469 47.031120 -0.000016 0.546685
99.052605 50.042797 0.199997 0.698512
98.493462 50.904217 0.085228 0.669123
98.013741 51.643276 0.000005 0.341009
104.834198 40.869774 7.193866 0.661006
104.834198 40.869781 6.478346 0.488746
104.834198 40.869770 5.772876 0.531762
104.834198 40.869774 5.075758 0.554314
104.834198 40.869774 4.385378 0.736584
104.834198 40.869774 3.700180 0.557015
104.834198 40.869774 3.018648 0.607599
104.834198 40.869774 2.339307 0.398901
104.834198 40.869774 1.660693 0.803693
104.834198 40.869774 0.981351 0.711772
104.834198 40.869774 0.299820 0.525765
103.030075 43.692165 -0.000022 0.518944
100.928337 46.980148 -0.000016 0.543404
98.994537 50.005405 0.199998 0.694377
98.436478 50.878437 0.087211 0.720989
97.966873 51.613098 0.000007 0.341985
104.663155 40.869778 7.170916 0.501183
104.663155 40.869774 6.458559 0.630442
104.663155 40.869774 5.756204 0.453727
104.663155 40.869770 5.062168 0.761181
104.663155 40.869774 4.374839 0.706798
104.663155 40.869778 3.692666 0.627405
104.663155 40.869774 3.014147 0.673228
104.663155 40.869774 2.337808 0.556039
104.663155 40.869774 1.662192 0.773342
104.663155 40.869774 0.985852 0.631205
104.663155 40.869774 0.307333 0.675532
102.927582 43.627151 -0.000022 0.533822
100.848846 46.929733 -0.000016 0.523339
98.936211 49.968426 0.200001 0.680018
98.379616 50.852707 0.089098 0.751461
97.919800 51.583244 0.000007 0.337377
104.493607 40.869778 7.148417 0.861662
104.493607 40.869778 6.439159 0.862501
104.493607 40.869774 5.739862 0.495018
104.493607 40.869774 5.048844 0.514199
104.493607 40.869774 4.364506 0.544625
104.493607 40.869774 3.685302 0.709804
104.493607 40.869774 3.009736 0.666560
104.493607 40.869774 2.336338 0.618509
104.493607 40.869774 1.663662 0.524163
104.493607 40.869774 0.990264 0.644724
104.493607 40.869774 0.314698 0.402991
102.824638 43.562855 -0.000022 0.538857
100.769012 46.879868 -0.000015 0.561410
98.877632 49.931847 0.200003 0.695354
98.322861 50.827034 0.090888 0.690105
97.872528 51.553711 0.000007 0.339300
104.325516 40.869781 7.126362 0.681376
104.325516 40.869778 6.420145 0.587564
104.325523 40.869766 5.723842 0.654902
104.325516 40.869774 5.035785 0.519097
104.325516 40.869774 4.354377 0.767941
104.325516 40.869774 3.678083 0.824460
104.325516 40.869774 3.005410 0.776272
104.325516 40.869774 2.334898 0.666682
104.325516 40.869774 1.665103 0.547845
104.325516 40.869774 0.994590 0.539773
104.325516 40.869774 0.321916 0.652750
102.721252 43.499279 -0.000022 0.553491
100.688835 46.830559 -0.000016 0.510277
98.818794 49.895687 0.200005 0.675074
98.266205 50.801414 0.092584 0.676478
97.825043 51.524506 0.000005 0.337163
104.158852 40.869778 7.104745 0.597421
104.158852 40.869778 6.401504 0.429618
104.158859 40.869774 5.708138 0.312093
104.158859 40.869774 5.022983 0.645335
104.158859 40.869774 4.344449 0.820111
104.158859 40.869774 3.671006 0.581094
104.158859 40.869774 3.001170 0.919738
104.158859 40.869774 2.333485 0.340169
104.158859 40.869774 1.666515 0.697902
104.158859 40.869774 0.998830 0.537545
104.158859 40.869774 0.328993 0.356680
102.617424 43.436428 -0.000022 0.560891
100.608307 46.781815 -0.000016 0.540871
98.759705 49.859932 0.200008 0.762432
98.209633 50.775856 0.094188 0.743404
97.777359 51.495636 0.000003 0.341390
103.993584 40.869778 7.083556 0.491661
103.993584 40.869778 6.383233 0.514931
103.993591 40.869774 5.692746 0.281956
103.993591 40.869770 5.010434 0.714214
103.993591 40.869774 4.334717 0.309712
103.993591 40.869774 3.664070 0.557198
103.993591 40.869774 2.997015 0.671504
103.993591 40.869774 2.332101 0.591836
103.993591 40.869774 1.667899 0.733944
103.993591 40.869774 1.002986 0.443351
103.993591 40.869770 0.335929 0.855451
102.513153 43.374306 -0.000022 0.536156
100.527443 46.733631 -0.000017 0.518181
98.700371 49.824596 0.200010 0.719997
98.153152 50.750351 0.095701 0.699916
97.729477 51.467098 0.000002 0.341131
103.829674 40.869774 7.062787 0.664500
103.829674 40.869774 6.365326 0.575921
103.829674 40.869774 5.677659 0.700130
103.829681 40.869766 4.998135 0.370947
103.829674 40.869774 4.325178 0.639338
103.829674 40.869774 3.657271 0.523644
103.829674 40.869774 2.992941 0.912978
103.829674 40.869774 2.330744 0.277440
103.829674 40.869774 1.669256 0.777188
103.829674 40.869774 1.007059 0.498207
103.829674 40.869774 0.342728 0.882490
102.408455 43.312904 -0.000022 0.530617
100.446243 46.686016 -0.000016 0.547341
98.640793 49.789665 0.200011 0.727245
98.096794 50.724819 0.097101 0.673609
97.681396 51.438900 0.000001 0.345769
103.667084 40.869778 7.042430 0.622141
103.667091 40.869774 6.347775 0.377722
103.667091 40.869774 5.662872 0.661036
103.667091 40.869774 4.986079 0.513481
103.667091 40.869774 4.315829 0.624201
103.667091 40.869774 3.650608 0.486412
103.667091 40.869774 2.988949 0.853834
103.667091 40.869774 2.329414 0.323613
103.667091 40.869774 1.670586 0.370077
103.667091 40.869774 1.011051 0.373068
103.667091 40.869774 0.349391 0.687083
102.303329 43.252243 -0.000022 0.536767
100.364716 46.638973 -0.000016 0.558038
98.580971 49.755150 0.200011 0.747158
98.040466 50.699402 0.098427 0.658579
97.633118 51.411034 -0.000002 0.342214
103.505798 40.869781 7.022482 0.521233
103.505798 40.869778 6.330575 0.603250
103.505798 40.869770 5.648382 0.520958
103.505798 40.869774 4.974267 0.654353
103.505798 40.869774 4.306668 0.609659
103.505798 40.869774 3.644078 0.552941
103.505798 40.869774 2.985036 0.566262
103.505798 40.869774 2.328111 0.790066
103.505798 40.869774 1.671889 0.579004
103.505798 40.869774 1.014963 0.846738
103.505798 40.869774 0.355921 0.500099
102.197784 43.192314 -0.000023 0.533639
100.282860 46.592499 -0.000016 0.551904
98.520920 49.721043 0.200010 0.697887
97.984200 50.674049 0.099666 0.727321
97.584648 51.383503 -0.000003 0.330663
103.345772 40.869778 7.002935 0.547616
103.345772 40.869774 6.313719 0.509453
103.345772 40.869774 5.634182 0.580728
103.345772 40.869766 4.962692 0.585657
103.345772 40.869770 4.297690 0.655207
103.345772 40.869774 3.637679 0.566018
103.345772 40.869774 2.981203 0.558343
103.345772 40.869774 2.326833 0.796933
103.345772 40.869774 1.673166 0.548760
103.345772 40.869774 1.018797 0.869490
103.345772 40.869774 0.362320 0.473426
102.091827 43.133125 -0.000023 0.540108
100.200684 46.546593 -0.000016 0.532525
98.460625 49.687363 0.200009 0.727016
97.928574 50.647701 0.100556 0.782238
97.535988 51.356316 -0.000004 0.328817
103.186974 40.869778 6.983779 0.677638
103.186974 40.869778 6.297204 0.436377
103.186974 40.869778 5.620267 0.469993
103.186981 40.869774 4.951348 0.582544
103.186981 40.869774 4.288893 0.401328
103.186981 40.869774 3.631409 0.480308
103.186981 40.869774 2.977446 0.483314
103.186981 40.869774 2.325583 0.727245
103.186981 40.869774 1.674417 0.737621
103.186981 40.869774 1.022554 0.597070
103.186981 40.869774 0.368591 0.425834
101.985451 43.074677 -0.000023 0.550469
100.118187 46.501263 -0.000016 0.562463
98.400108 49.654095 0.200008 0.721736
97.874588 50.618465 0.100637 0.697841
97.487137 51.329468 -0.000006 0.341756
103.029381 40.869781 6.965013 0.733822
103.029388 40.869774 6.281022 0.445106
103.029381 40.869778 5.606633 0.758129
103.029388 40.869774 4.940233 0.580682
103.029388 40.869774 4.280273 0.559075
103.029388 40.869774 3.625266 0.480751
103.029388 40.869774 2.973765 0.754482
103.029388 40.869774 2.324357 0.623621
103.029388 40.869774 1.675644 0.751141
103.029388 40.869774 1.026235 0.523507
103.029388 40.869774 0.374734 0.472023
101.878677 43.016968 -0.000023 0.539467
100.035378 46.456509 -0.000016 0.534127
98.339348 49.621254 0.200007 0.681941
97.820503 50.589413 0.100671 0.667491
97.438103 51.302959 -0.000008 0.329732
102.872971 40.869781 6.946626 0.432563
102.872971 40.869781 6.265167 0.883970
102.872971 40.869774 5.593278 0.492744
102.872971 40.869774 4.929345 0.550820
102.872971 40.869774 4.271830 0.701656
102.872971 40.869774 3.619247 0.776471
102.872971 40.869774 2.970159 0.689708
102.872971 40.869774 2.323155 0.456626
102.872971 40.869774 1.676845 0.548547
102.872971 40.869774 1.029841 0.450980
102.872971 40.869774 0.380753 0.482155
101.771500 42.960014 -0.000023 0.544839
99.952263 46.412334 -0.000017 0.560327
98.278366 49.588837 0.200005 0.694820
97.766502 50.560196 0.100572 0.765911
97.388885 51.276794 -0.000010 0.340780
102.717697 40.869778 6.928614 0.473304
102.717697 40.869774 6.249637 0.590845
102.717705 40.869774 5.580194 0.666621
102.717697 40.869774 4.918678 0.528847
102.717705 40.869774 4.263556 0.705669
102.717705 40.869774 3.613351 0.702068
102.717705 40.869774 2.966627 0.617899
102.717697 40.869774 2.321978 0.453513
102.717697 40.869774 1.678021 0.503349
102.717705 40.869774 1.033373 0.449027
102.717705 40.869774 0.386648 0.469612
101.663925 42.903805 -0.000023 0.543328
99.868835 46.368744 -0.000017 0.523690
98.217163 49.556847 0.200003 0.741390
97.712433 50.531094 0.100409 0.682719
97.339478 51.250977 -0.000010 0.342321
102.563545 40.869778 6.910973 0.722911
102.563545 40.869778 6.234425 0.693538
102.563553 40.869774 5.567379 0.835843
102.563553 40.869774 4.908232 0.490715
102.563553 40.869774 4.255454 0.741726
102.563553 40.869774 3.607575 0.809750
102.563545 40.869774 2.963167 0.622095
102.563553 40.869774 2.320826 0.549798
102.563553 40.869774 1.679174 0.523232
102.563545 40.869774 1.036833 0.541161
102.563553 40.869774 0.392424 0.399603
101.555962 42.848351 -0.000023 0.538689
99.785103 46.325737 -0.000017 0.531533
98.155731 49.525284 0.200001 0.679957
97.658394 50.501900 0.100133 0.653468
97.289894 51.225510 -0.000010 0.340383
102.410492 40.869778 6.893693 0.807843
102.410492 40.869774 6.219527 0.753933
102.410492 40.869774 5.554827 0.741817
102.410492 40.869774 4.897999 0.590387
102.410492 40.869774 4.247519 0.898283
102.410492 40.869774 3.601920 0.397910
102.410492 40.869770 2.959778 0.547890
102.410492 40.869770 2.319698 0.460105
102.410492 40.869774 1.680303 0.755627
102.410492 40.869774 1.040222 0.446662
102.410492 40.869774 0.398080 0.689555
101.447617 42.793648 -0.000023 0.538247
99.701080 46.283310 -0.000017 0.533654
98.094093 49.494144 0.199999 0.680995
97.604309 50.472744 0.099776 0.715343
97.240135 51.200386 -0.000010 0.340627
102.258499 40.869778 6.876773 0.731182
102.258499 40.869778 6.204937 0.894286
102.258499 40.869778 5.542535 0.251972
102.258499 40.869774 4.887979 0.770077
102.258499 40.869774 4.239748 0.670192
102.258499 40.869778 3.596380 0.635676
102.258499 40.869774 2.956459 0.422171
102.258499 40.869774 2.318592 0.311894
102.258499 40.869774 1.681408 0.750271
102.258499 40.869774 1.043541 0.354894
102.258499 40.869778 0.403619 0.734371
101.338890 42.739700 -0.000024 0.525841
99.616753 46.241478 -0.000017 0.528267
98.032234 49.463432 0.199995 0.680659
97.550209 50.443581 0.099327 0.746929
97.190201 51.175613 -0.000010 0.339147
102.107544 40.869781 6.860203 0.486717
102.107544 40.869774 6.190652 0.908949
102.107544 40.869778 5.530500 0.794629
102.107544 40.869774 4.878167 0.392813
102.107544 40.869774 4.232139 0.901457
102.107544 40.869774 3.590957 0.274495
102.107544 40.869774 2.953209 0.444785
102.107544 40.869774 2.317509 0.771710
102.107544 40.869774 1.682491 0.585000
102.107544 40.869774 1.046790 0.797223
102.107544 40.869774 0.409042 0.679347
101.229790 42.686520 -0.000023 0.544167
99.532143 46.200233 -0.000017 0.530556
97.970154 49.433167 0.199994 0.698741
97.496086 50.414375 0.098778 0.703609
97.140091 51.151192 -0.000010 0.332860
101.957611 40.869781 6.843983 0.610407
101.957611 40.869781 6.176665 0.832044
101.957611 40.869778 5.518717 0.469764
101.957611 40.869774 4.868562 0.457572
101.957611 40.869774 4.224689 0.577401
101.957611 40.869774 3.585647 0.323125
101.957611 40.869774 2.950028 0.553079
101.957611 40.869774 2.316450 0.594018
101.957611 40.869774 1.683550 0.465141
101.957611 40.869774 1.049972 0.749126
101.957611 40.869774 0.414352 0.350423
101.120323 42.634098 -0.000023 0.539269
99.447243 46.159584 -0.000017 0.553475
97.907867 49.403336 0.199993 0.682902
97.441948 50.385124 0.098131 0.696666
97.089821 51.127117 -0.000009 0.337087
101.850464 40.780083 6.852893 0.514870
101.850464 40.780079 6.184349 0.568399
101.850464 40.780083 5.525188 0.669322
101.850464 40.780083 4.873837 0.438285
101.850464 40.780083 4.228780 0.728893
101.850464 40.780079 3.588564 0.470558
101.850464 40.780079 2.951776 0.637064
101.850464 40.780079 2.317032 0.463233
101.850464 40.780079 1.682968 0.602991
101.850464 40.780079 1.048224 0.446754
101.850464 40.780079 0.411435 0.650675
101.010490 42.582443 -0.000024 0.525154
99.362068 46.119518 -0.000017 0.550134
97.845375 49.373940 0.199993 0.698177
97.387703 50.355980 0.097421 0.743801
97.039375 51.103394 -0.000009 0.338323
101.850464 40.455009 6.926818 0.676646
101.850464 40.455017 6.248088 0.804257
101.850456 40.455025 5.578885 0.577508
101.850464 40.455025 4.917612 0.594888
101.850456 40.455025 4.262730 0.493843
101.850464 40.455025 3.612761 0.548775
101.850464 40.455009 2.966273 0.462074
101.850464 40.455009 2.321861 0.667063
101.850464 40.455009 1.678138 0.521782
101.850464 40.455009 1.033726 0.457328
101.850464 40.455009 0.387237 0.568795
100.900299 42.531559 -0.000024 0.532723
99.276611 46.080055 -0.000017 0.547845
97.782669 49.344986 0.199993 0.719738
97.333672 50.326263 0.096487 0.645579
96.988770 51.080029 -0.000008 0.336126
101.850464 40.119881 7.003275 0.598627
101.850464 40.119881 6.314012 0.770596
101.850456 40.119900 5.634423 0.628367
101.850456 40.119896 4.962888 0.643458
101.850456 40.119900 4.297844 0.850813
101.850456 40.119896 3.637789 0.797391
101.850464 40.119873 2.981269 0.566888
101.850464 40.119873 2.326856 0.649760
101.850464 40.119873 1.673144 0.629282
101.850464 40.119873 1.018731 0.848157
101.850464 40.119873 0.362209 0.625940
100.789757 42.481445 -0.000024 0.537041
99.190880 46.041187 -0.000017 0.535149
97.719772 49.316467 0.199993 0.679805
97.280930 50.293518 0.094749 0.708888
96.938004 51.057011 -0.000008 0.337514
101.850464 39.774155 7.082395 0.519860
101.850464 39.774155 6.382233 0.715190
101.850449 39.774193 5.691894 0.727657
101.850449 39.774189 5.009741 0.563760
101.850449 39.774189 4.334179 0.499748
101.850449 39.774185 3.663687 0.763607
101.850464 39.774155 2.996787 0.452476
101.850464 39.774155 2.332025 0.608896
101.850464 39.774155 1.667975 0.453742
101.850464 39.774155 1.003213 0.632227
101.850464 39.774155 0.336309 0.482216
100.678864 42.432098 -0.000024 0.545983
99.104881 46.002922 -0.000017 0.525063
97.656677 49.288391 0.199992 0.696223
97.228096 50.260681 0.092908 0.655787
96.887070 51.034355 -0.000008 0.329534
101.850464 39.417309 7.164311 0.568338
101.850464 39.417305 6.452866 0.491508
101.850441 39.417358 5.751398 0.670344
101.850441 39.417358 5.058249 0.797513
101.850441 39.417355 4.371799 0.262196
101.850449 39.417351 3.690501 0.638651
101.850464 39.417305 3.012853 0.602548
101.850464 39.417305 2.337376 0.578119
101.850464 39.417305 1.662624 0.515633
101.850464 39.417305 0.987147 0.641550
101.850464 39.417305 0.309494 0.609781
100.567635 42.383533 -0.000024 0.536660
99.018616 45.965256 -0.000017 0.556527
97.593384 49.260757 0.199992 0.723613
97.175224 50.227646 0.090939 0.705272
96.835983 51.012047 -0.000007 0.336049
101.850464 39.048748 7.249176 0.809934
101.850464 39.048748 6.526037 0.584222
101.850433 39.048813 5.813039 0.572869
101.850433 39.048813 5.108501 0.582040
101.850441 39.048805 4.410773 0.545205
101.850441 39.048805 3.718279 0.588907
101.850464 39.048744 3.029496 0.674083
101.850464 39.048748 2.342921 0.811154
101.850464 39.048744 1.657079 0.580148
101.850464 39.048744 0.970503 0.567727
101.850464 39.048744 0.281715 0.641291
100.456070 42.335743 -0.000024 0.554360
98.932091 45.928192 -0.000017 0.537423
97.529892 49.233582 0.199996 0.699794
97.122177 50.194672 0.088903 0.670802
96.784744 50.990101 -0.000007 0.344656
101.850464 38.667858 7.337136 0.532769
101.850464 38.667854 6.601882 0.706157
102.080437 38.115036 5.985895 0.678431
102.080437 38.115036 5.249417 0.678431
102.080437 38.115040 4.520058 0.678431
102.080437 38.115044 3.796171 0.678431
101.850464 38.667854 3.046748 0.611765
101.850464 38.667854 2.348667 0.562799
101.850464 38.667854 1.651333 0.834089
101.850464 38.667854 0.953251 0.403983
101.850464 38.667854 0.252921 0.500099
100.344170 42.288734 -0.000024 0.540536
98.845306 45.891731 -0.000018 0.541802
97.466209 49.206848 0.199999 0.689158
97.069031 50.161610 0.086766 0.732280
96.733353 50.968510 -0.000007 0.335760
101.850464 38.273964 7.428367 0.522683
101.850464 38.273960 6.680543 0.552117
102.065262 37.747280 6.046715 0.308278
102.080452 37.710049 5.304965 0.678431
102.080444 37.710052 4.563137 0.678431
102.080444 37.710052 3.826877 0.678431
101.850464 38.273956 3.064640 0.594171
101.850464 38.273956 2.354626 0.660212
101.850464 38.273956 1.645373 0.634089
101.850464 38.273956 0.935359 0.555459
101.850464 38.273956 0.223058 0.614649
100.231941 42.242508 -0.000024 0.541619
98.758278 45.855881 -0.000018 0.547768
97.402351 49.180550 0.200000 0.705684
97.015762 50.128452 0.084526 0.690806
96.681816 50.947281 -0.000007 0.334874
101.850464 37.866348 7.523044 0.651667
101.850464 37.866348 6.762177 0.564080
102.000465 37.491077 6.085527 0.160784
102.030716 37.415390 5.342733 0.214801
102.030716 37.415394 4.592428 0.204929
102.030716 37.415398 3.847754 0.160784
101.850464 37.866348 3.083209 0.609888
101.850464 37.866344 2.360811 0.690990
101.850464 37.866344 1.639188 0.601984
101.850464 37.866348 0.916791 0.445335
101.850464 37.866341 0.192065 0.525811
100.119400 42.197067 -0.000024 0.532387
98.670990 45.820641 -0.000017 0.541009
97.338310 49.154694 0.200000 0.665553
96.962379 50.095200 0.082183 0.710033
96.630127 50.926418 -0.000005 0.344305
101.850464 37.444229 7.621362 0.789578
101.850464 37.444229 6.846951 0.581994
101.900085 37.317520 6.108173 0.454643
101.900085 37.317520 5.349102 0.564950
101.900085 37.317520 4.597369 0.540398
101.900085 37.317520 3.851275 0.611887
101.850464 37.444229 3.102491 0.607675
101.850464 37.444229 2.367235 0.587488
101.850464 37.444229 1.632765 0.634760
101.850464 37.444225 0.897508 0.551629
101.850464 37.444225 0.159881 0.862913
100.006538 42.152409 -0.000024 0.535119
98.583466 45.786011 -0.000018 0.528664
97.274094 49.129288 0.200001 0.685649
96.908821 50.061958 0.079764 0.760891
96.578293 50.905914 -0.000004 0.339086
101.850464 37.006805 7.723526 0.492851
101.850464 37.006798 6.935042 0.616449
101.850464 37.006802 6.157625 0.642237
101.850456 37.006828 5.389413 0.501778
101.850449 37.006832 4.628631 0.652338
101.850456 37.006828 3.873557 0.380392
101.850464 37.006798 3.122529 0.289876
101.850464 37.006798 2.373909 0.578363
101.850464 37.006798 1.626091 0.497993
101.850464 37.006798 0.877471 0.756390
101.850464 37.006798 0.126439 0.420401
99.893372 42.108543 -0.000024 0.531472
98.495697 45.751987 -0.000018 0.524971
97.209702 49.104328 0.200002 0.667720
96.855148 50.028561 0.077227 0.625849
96.526314 50.885773 -0.000003 0.338109
101.850464 36.553158 7.829762 0.771878
101.850464 36.553154 7.026641 0.550011
101.850464 36.553158 6.234797 0.604440
101.850464 36.553154 5.452330 0.527626
101.850464 36.553154 4.677426 0.553307
101.850464 36.553154 3.908336 0.498268
101.850464 36.553154 3.143364 0.586267
101.850464 36.553154 2.380849 0.689494
101.850464 36.553154 1.619151 0.727184
101.850464 36.553154 0.856635 0.776303
101.850464 36.553154 0.091663 0.766644
99.779900 42.065472 -0.000024 0.525948
98.407700 45.718582 -0.000018 0.553429
97.145134 49.079823 0.200002 0.720577
96.801346 49.995060 0.074587 0.732219
96.474197 50.865990 -0.000002 0.341833
101.850464 36.082321 7.940313 0.531731
101.850464 36.082321 7.121962 0.627802
101.850464 36.082321 6.315101 0.468757
101.850479 36.082287 5.517802 0.583154
101.850479 36.082283 4.728202 0.453193
101.850479 36.082279 3.944528 0.618662
101.850464 36.082321 3.165046 0.681987
101.850464 36.082321 2.388072 0.610178
101.850464 36.082321 1.611929 0.697719
101.850464 36.082321 0.834954 0.560067
101.850464 36.082317 0.055475 0.483848
99.666130 42.023186 -0.000024 0.547112
98.319466 45.685791 -0.000018 0.514412
97.080391 49.055767 0.200003 0.738705
96.747665 49.960701 0.071670 0.668193
96.421951 50.846577 -0.000002 0.336126
101.850464 35.593273 8.055435 0.721431
101.850464 35.593273 7.221224 0.447242
101.850464 35.593273 6.398727 0.551904
102.080437 34.954063 5.686740 0.678431
102.080437 34.954063 4.859220 0.678431
102.080437 34.954063 4.037910 0.678431
101.850464 35.593269 3.187624 0.662150
101.850464 35.593277 2.395591 0.551324
101.850464 35.593277 1.604408 0.575769
101.850464 35.593269 0.812375 0.521889
101.850464 35.593273 0.017791 0.800931
99.552071 41.981697 -0.000024 0.548806
98.231003 45.653614 -0.000018 0.542000
97.015495 49.032154 0.200001 0.683253
96.695076 49.922760 0.067852 0.673655
96.369560 50.827530 0.000000 0.337713
101.850464 35.084862 8.175417 0.732448
101.850464 35.084862 7.324677 0.518212
101.850464 35.084862 6.485884 0.649058
102.030418 34.573502 5.737435 0.160784
102.030418 34.573502 4.898537 0.207660
102.030418 34.573502 4.065933 0.080461
101.850464 35.084862 3.211155 0.636316
101.850464 35.084862 2.403430 0.650385
101.850464 35.084862 1.596570 0.412573
101.850464 35.084862 0.788844 0.547372
101.763634 35.331604 -0.000036 0.543114
99.437721 41.941010 -0.000024 0.547082
98.142326 45.622055 -0.000018 0.553994
96.950432 49.008987 0.199999 0.729503
96.642273 49.884655 0.063921 0.727657
96.317047 50.808846 0.000001 0.334279
101.878044 34.475716 8.321795 0.609415
101.850464 34.555862 7.432583 0.570382
101.850464 34.555862 6.576791 0.570596
101.878044 34.475712 5.743708 0.568627
101.878044 34.475708 4.903401 0.456153
101.878044 34.475712 4.069400 0.543252
101.850464 34.555866 3.235700 0.653193
101.850464 34.555866 2.411606 0.603525
101.850464 34.555862 1.588394 0.453483
101.850464 34.555862 0.764299 0.732204
101.602806 35.275635 -0.000036 0.536416
99.323090 41.901115 -0.000024 0.535332
97.614685 46.866219 0.200008 0.684459
96.885208 48.986290 0.199999 0.738186
96.589264 49.846382 0.059877 0.678096
96.264397 50.790527 0.000002 0.339605
101.850433 34.005043 8.431184 0.495277
101.850464 34.004963 7.545229 0.423026
101.850464 34.004967 6.671690 0.565713
101.850433 34.005043 5.808486 0.550637
101.850433 34.005043 4.953640 0.354650
101.850433 34.005043 4.105207 0.525643
101.850464 34.004959 3.261323 0.790555
101.850464 34.004967 2.420140 0.412970
101.850464 34.004967 1.579860 0.650797
101.850464 34.004959 0.738677 0.638544
101.441582 35.220802 -0.000036 0.537331
99.208183 41.862022 -0.000025 0.540124
97.534492 46.838913 0.200005 0.758968
96.819817 48.964058 0.200001 0.737911
96.536026 49.807938 0.055719 0.726253
96.211624 50.772579 0.000003 0.336538
101.850464 33.430695 8.567709 0.507179
101.850464 33.430702 7.662926 0.643839
101.850464 33.430702 6.770846 0.619318
101.850464 33.430695 5.889335 0.564935
101.850464 33.430698 5.016340 0.882445
101.850464 33.430695 4.149898 0.553216
101.850464 33.430702 3.288094 0.628931
101.850464 33.430702 2.429058 0.587304
101.850464 33.430702 1.570942 0.621851
101.850464 33.430702 0.711906 0.485817
101.279991 35.167076 -0.000036 0.529290
99.093010 41.823738 -0.000025 0.532723
97.454109 46.812168 0.200001 0.698863
96.754280 48.942280 0.200003 0.701350
96.482567 49.769321 0.051447 0.708782
96.158730 50.754997 0.000003 0.335012
102.080444 32.114662 8.899038 0.678431
101.850464 32.831512 7.786014 0.572946
101.850464 32.831509 6.874545 0.728588
102.022537 32.295151 6.057426 0.078843
102.080444 32.114662 5.168509 0.678431
102.080444 32.114670 4.258356 0.678431
101.850464 32.831509 3.316092 0.594446
101.850464 32.831509 2.438384 0.398932
101.850464 32.831509 1.561616 0.806409
101.850464 32.831505 0.683908 0.720256
101.118027 35.114487 -0.000036 0.544030
98.977570 41.786255 -0.000025 0.513405
97.373543 46.785980 0.199998 0.721813
96.688591 48.920963 0.200005 0.686030
96.428864 49.730530 0.047059 0.698253
96.105713 50.737785 0.000003 0.338994
102.001411 31.723597 8.986435 0.160784
101.850464 32.205650 7.914870 0.551522
101.850464 32.205654 6.983101 0.494560
102.000458 31.726646 6.136826 0.208301
102.001411 31.723602 5.208648 0.161883
102.001411 31.723600 4.286963 0.160784
101.850464 32.205650 3.345401 0.711467
101.850464 32.205650 2.448146 0.542458
101.850464 32.205650 1.551853 0.561669
101.850464 32.205650 0.654598 0.525673
100.955704 35.063034 -0.000036 0.531975
98.861870 41.749584 -0.000025 0.549783
97.292786 46.760376 0.199996 0.710414
96.622757 48.900101 0.200006 0.672343
96.374916 49.691551 0.042555 0.740032
96.052574 50.720940 0.000003 0.336172
101.850479 31.551195 9.016518 0.571466
101.850464 31.551262 8.049893 0.729030
101.850464 31.551258 7.096856 0.689494
101.850479 31.551195 6.155116 0.448585
101.850479 31.551189 5.222466 0.608789
101.850479 31.551189 4.296813 0.737789
101.850464 31.551258 3.376113 0.736797
101.850464 31.551256 2.458377 0.529595
101.850464 31.551254 1.541623 0.624033
101.850464 31.551254 0.623885 0.675380
100.793015 35.012718 -0.000036 0.535500
98.745918 41.713718 -0.000025 0.539879
97.211853 46.735348 0.199997 0.692729
96.556770 48.879711 0.200009 0.706325
96.320724 49.652390 0.037934 0.696483
95.999321 50.704475 0.000004 0.331395
101.850479 30.866192 9.180794 0.484443
101.850464 30.866241 8.191540 0.842542
101.850464 30.866243 7.216187 0.476249
101.850464 30.866249 6.252388 0.740658
101.850479 30.866184 5.297911 0.673030
101.850479 30.866192 4.350586 0.729061
101.850464 30.866245 3.408332 0.439902
101.850464 30.866243 2.469109 0.681941
101.850464 30.866243 1.530891 0.620706
101.850464 30.866243 0.591667 0.727794
100.629982 34.963535 -0.000036 0.536248
98.629715 41.678665 -0.000025 0.542351
97.130745 46.710884 0.199998 0.697810
96.490654 48.859772 0.200010 0.724117
96.266266 49.613041 0.033194 0.789334
95.945953 50.688377 0.000005 0.338872
102.080460 29.356060 9.559948 0.678431
102.080460 29.356056 8.518473 0.678431
101.850456 30.148365 7.341504 0.618296
101.850464 30.148361 6.354550 0.610208
102.080460 29.356049 5.472046 0.678431
102.080460 29.356049 4.474702 0.678431
101.850464 30.148361 3.442167 0.610834
101.850456 30.148365 2.480379 0.706981
101.850464 30.148363 1.519621 0.462898
101.850464 30.148359 0.557832 0.492210
100.466614 34.915489 -0.000036 0.534874
98.513275 41.644417 -0.000025 0.524208
97.049469 46.686989 0.199998 0.705242
96.424393 48.840286 0.200011 0.678370
96.211548 49.573498 0.028335 0.663691
95.892479 50.672653 0.000005 0.329259
101.996025 28.880251 9.668698 0.101427
101.996017 28.880262 8.612238 0.160784
101.850464 29.395086 7.473267 0.669078
101.850464 29.395088 6.461967 0.568521
101.996017 28.880257 5.521990 0.160784
101.996017 28.880259 4.510299 0.160784
101.850464 29.395084 3.477742 0.509972
101.850464 29.395082 2.492229 0.633265
101.850464 29.395081 1.507771 0.606241
101.850464 29.395081 0.522257 0.705531
100.302910 34.868591 -0.000036 0.530877
98.396599 41.610985 -0.000025 0.527565
96.968033 46.663662 0.199999 0.738125
96.358002 48.821266 0.200011 0.747890
96.157448 49.530594 0.022645 0.760052
95.838890 50.657303 0.000006 0.342397
101.850418 28.603832 9.725592 0.520943
101.850418 28.603840 8.661295 0.628000
101.850464 28.603674 7.611974 0.549462
101.850464 28.603678 6.575045 0.592157
101.850418 28.603840 5.548119 0.770489
101.850418 28.603840 4.528923 0.646616
101.850464 28.603678 3.515192 0.660700
101.850464 28.603674 2.504703 0.856794
101.850464 28.603674 1.495296 0.486824
101.850464 28.603676 0.484807 0.398947
100.138885 34.822823 -0.000037 0.539956
98.279694 41.578377 -0.000025 0.545525
96.886429 46.640900 0.200000 0.715724
96.291481 48.802696 0.200009 0.707103
96.103378 49.486183 0.016544 0.657038
95.785202 50.642326 0.000007 0.339391
101.850449 27.771091 9.926899 0.721370
101.850449 27.771093 8.834873 0.617609
101.850464 27.771063 7.758182 0.488869
101.850464 27.771065 6.694239 0.542107
101.850449 27.771091 5.640574 0.597253
101.850456 27.771090 4.594820 0.550515
101.850456 27.771069 3.554667 0.554498
101.850464 27.771065 2.517853 0.515053
101.850464 27.771065 1.482148 0.545068
101.850456 27.771067 0.445332 0.478752
99.974548 34.778214 -0.000037 0.564553
98.162560 41.546574 -0.000025 0.532998
96.804680 46.618690 0.199997 0.686641
96.224838 48.784595 0.200007 0.680034
96.048973 49.441498 0.010308 0.733639
95.731400 50.627724 0.000007 0.340246
102.080490 26.009960 10.368139 0.446235
102.080498 26.009956 9.215326 0.456764
101.850464 26.893864 7.912508 0.707042
101.850456 26.893871 6.820049 0.758267
102.080498 26.009945 5.843224 0.448234
102.080498 26.009953 4.739258 0.427207
101.850456 26.893871 3.596334 0.698497
101.850456 26.893871 2.531731 0.589456
101.850456 26.893871 1.468269 0.646494
101.850464 26.893867 0.403665 0.673762
99.809898 34.734745 -0.000037 0.538170
98.045204 41.515602 -0.000025 0.530587
96.722771 46.597057 0.199996 0.668421
96.158066 48.766960 0.200005 0.691585
95.994225 49.396519 0.003934 0.671611
95.677505 50.613499 0.000007 0.339361
101.855019 25.950283 10.368586 0.491020
101.855019 25.950287 9.215710 0.585809
101.850464 25.968311 8.075638 0.619516
101.850456 25.968315 6.953038 0.663127
101.855019 25.950279 5.843426 0.518395
101.855019 25.950291 4.739403 0.600870
101.855019 25.950287 3.641290 0.498756
101.850456 25.968319 2.546402 0.635904
101.850456 25.968315 1.453598 0.566415
101.850456 25.968319 0.359622 0.587869
99.644951 34.692436 -0.000037 0.541970
97.927643 41.485439 -0.000025 0.536171
96.640717 46.576000 0.199994 0.727367
96.091171 48.749786 0.200003 0.739696
95.936180 49.362858 0.000006 0.329961
95.623512 50.599648 0.000008 0.336706
101.850456 24.990200 10.601666 0.714336
101.850456 24.990200 9.416681 0.787549
101.850464 24.990189 8.248337 0.694560
101.850456 24.990192 7.093827 0.427680
101.850456 24.990192 5.950474 0.498604
101.850456 24.990196 4.815702 0.647715
101.850456 24.990192 3.687005 0.477363
101.850456 24.990196 2.561933 0.563806
101.850456 24.990192 1.438067 0.450462
101.850464 24.990189 0.312994 0.611643
99.479713 34.651276 -0.000037 0.539513
97.809868 41.456100 -0.000025 0.555077
96.558517 46.555511 0.199992 0.699001
96.024155 48.733082 0.200001 0.753536
95.873451 49.347237 0.000007 0.342550
95.569427 50.586170 0.000006 0.339330
101.850456 23.954765 10.853772 0.742641
102.028717 23.205795 9.800339 0.160784
102.028717 23.205791 8.571554 0.160784
101.850456 23.954769 7.243120 0.584024
102.004723 23.306599 6.142905 0.517800
102.028717 23.205791 4.961355 0.130755
102.028717 23.205788 3.774271 0.160784
101.850456 23.954769 2.578403 0.550774
101.850464 23.954762 1.421597 0.584848
101.850456 23.954769 0.263550 0.506477
99.314186 34.611267 -0.000037 0.534035
97.691887 41.427589 -0.000025 0.534859
96.476173 46.535603 0.199991 0.709575
95.957031 48.716846 0.199999 0.689281
95.810608 49.332050 0.000008 0.333669
95.515244 50.573067 0.000005 0.347509
101.850456 22.856773 11.121554 0.515160
101.850426 22.856922 9.864916 0.530282
101.850426 22.856918 8.625957 0.559350
101.850456 22.856777 7.401697 0.565866
101.850464 22.856770 6.189243 0.576501
101.850426 22.856918 4.985871 0.796246
101.850426 22.856911 3.788961 0.613657
101.850456 22.856777 2.595896 0.439063
101.850456 22.856773 1.404103 0.725826
101.850464 22.856766 0.211031 0.630411
99.148392 34.572414 -0.000037 0.537316
97.573715 41.399902 -0.000025 0.539422
96.393692 46.516273 0.199991 0.692958
95.889793 48.701080 0.199997 0.694881
95.747665 49.317307 0.000008 0.339361
95.460976 50.560345 0.000003 0.340887
101.850456 21.690235 11.406512 0.674693
101.850441 21.690292 10.110639 0.684077
101.850441 21.690289 8.832973 0.485634
101.850456 21.690231 7.570447 0.402579
101.850456 21.690231 6.320113 0.403372
101.850441 21.690296 5.079157 0.396368
101.850441 21.690289 3.844853 0.389410
101.850456 21.690235 2.614513 0.612558
101.850456 21.690231 1.385488 0.641489
101.850456 21.690231 0.155144 0.662531
98.982323 34.534729 -0.000037 0.542245
97.455353 41.373032 -0.000025 0.551614
96.311073 46.497528 0.199992 0.702678
95.822441 48.685787 0.199995 0.671443
95.674545 49.348137 0.009998 1.000000
95.406616 50.548000 0.000001 0.335225
nan nan nan 0.000000
nan nan nan 0.000000
nan nan nan 0.000000
nan nan nan 0.000000
nan nan nan 0.000000
nan nan nan 0.000000
109.228203 -13.711231 5.621290 0.408011
nan nan nan 0.000000
nan nan nan 0.000000
102.261368 18.545837 -0.000065 0.545235
98.816002 34.498192 -0.000037 0.538384
97.336807 41.347000 -0.000025 0.549783
96.228333 46.479366 0.199993 0.664912
95.754990 48.670971 0.199995 0.699397
95.611710 49.334358 0.010002 1.000000
95.352173 50.536037 0.000000 0.338643
nan nan nan 0.000000
nan nan nan 0.000000
nan nan nan 0.000000
nan nan nan 0.000000
nan nan nan 0.000000
nan nan nan 0.000000
nan nan nan 0.000000
nan nan nan 0.000000
nan nan nan 0.000000
101.983345 18.486790 -0.000066 0.538750
98.649429 34.462837 -0.000037 0.552285
97.218086 41.321789 -0.000025 0.541360
96.145462 46.461777 0.199995 0.729580
95.687431 48.656628 0.199995 0.743816
95.548790 49.320984 0.009998 1.000000
95.297653 50.524456 -0.000002 0.339864
nan nan nan 0.000000
nan nan nan 0.000000
nan nan nan 0.000000
nan nan nan 0.000000
nan nan nan 0.000000
nan nan nan 0.000000
107.970352 -12.678585 5.559006 0.407813
nan nan nan 0.000000
nan nan nan 0.000000
101.704910 18.429703 -0.000066 0.536431
98.482613 34.428627 -0.000037 0.539986
97.099182 41.297409 -0.000025 0.534859
96.062469 46.444771 0.199996 0.693614
95.619781 48.642754 0.199995 0.710353
95.485786 49.308048 0.009996 1.000000
95.243050 50.513252 -0.000003 0.329366
nan nan nan 0.000000
nan nan nan 0.000000
nan nan nan 0.000000
nan nan nan 0.000000
nan nan nan 0.000000
nan nan nan 0.000000
nan nan nan 0.000000
107.322166 -11.993641 3.172434 0.411627
nan nan nan 0.000000
101.426086 18.374565 -0.000066 0.543008
98.315552 34.395592 -0.000037 0.538323
96.980118 41.273861 -0.000025 0.556939
95.979362 46.428341 0.199997 0.697078
95.552025 48.629356 0.199995 0.752590
95.422684 49.295559 0.009994 1.000000
95.188362 50.502434 -0.000005 0.336217
nan nan nan 0.000000
nan nan nan 0.000000
nan nan nan 0.000000
nan nan nan 0.000000
nan nan nan 0.000000
nan nan nan 0.000000
106.388069 -9.718609 5.401436 0.417350
106.760254 -11.709759 3.166151 0.411109
nan nan nan 0.000000
101.146881 18.321381 -0.000065 0.542046
98.148277 34.363716 -0.000037 0.548104
96.860893 41.251144 -0.000025 0.542611
