# This PCD file was generated using the MATLABÂ® pcwrite function
# from Computer Vision ToolboxÂ®.
# .PCD v.7 - Point Cloud Data file format
VERSION .7
FIELDS x y z intensity
SIZE 4 4 4 4
TYPE F F F F
COUNT 1 1 1 1
WIDTH 1218
HEIGHT 1
VIEWPOINT 0 0 0 1 0 0 0
POINTS 1218
DATA ascii
88.591171 -46.569584 -0.000001 0.552941
87.322456 -46.702930 -0.000000 0.548363
97.550934 -45.756035 6.572969 0.968627
97.653526 -45.745975 5.965250 0.968627
97.755814 -45.735947 5.359308 0.968627
97.391449 -45.771671 4.684299 0.980392
97.841942 -45.727501 4.133858 0.968627
97.930862 -45.718784 3.528234 0.968627
98.020164 -45.710026 2.920037 0.968627
98.110046 -45.701214 2.307938 0.968627
98.200699 -45.692326 1.690571 0.968627
98.292320 -45.683342 1.066528 0.968627
97.533844 -45.757710 0.504475 0.968811
96.683929 -45.841045 -0.000001 0.529809
92.800308 -46.221836 -0.000001 0.526528
90.320953 -46.464935 -0.000001 0.527398
88.597702 -46.633904 -0.000001 0.532921
87.328087 -46.758389 -0.000000 0.518791
97.551422 -45.883972 6.570075 0.968627
97.653946 -45.874638 5.962727 0.968627
97.756180 -45.865337 5.357158 0.972030
97.391449 -45.898529 4.682528 0.980392
97.842140 -45.857513 4.132474 0.968627
97.931007 -45.849426 3.527238 0.968627
98.020256 -45.841305 2.919435 0.968627
98.110069 -45.833130 2.307735 0.968627
98.200661 -45.824886 1.690776 0.968627
98.292229 -45.816551 1.067148 0.968627
97.533836 -45.885571 0.505462 0.975067
96.695351 -45.961880 -0.000001 0.542092
92.809166 -46.315544 -0.000001 0.538033
90.328171 -46.541332 -0.000001 0.523735
88.603783 -46.698265 -0.000001 0.565820
87.333336 -46.813881 -0.000000 0.519173
97.551872 -46.011753 6.567398 0.968627
97.654343 -46.003147 5.960394 0.968627
97.756516 -45.994568 5.355169 0.980392
97.391457 -46.025223 4.680891 0.968627
97.842331 -45.987362 4.131194 0.968627
97.931145 -45.979904 3.526317 0.968627
98.020340 -45.972412 2.918878 0.968627
98.110100 -45.964878 2.307548 0.968627
98.200638 -45.957275 1.690965 0.968627
98.292145 -45.949589 1.067722 0.968627
97.533836 -46.013268 0.506374 0.980392
96.705933 -46.082787 -0.000001 0.541802
92.817375 -46.409317 -0.000001 0.549142
90.334854 -46.617779 -0.000001 0.569894
88.609421 -46.762665 -0.000001 0.552804
87.338196 -46.869411 -0.000001 0.532982
97.552292 -46.139393 6.564939 0.968627
97.654709 -46.131512 5.958248 0.968627
97.756821 -46.123653 5.353342 0.968627
97.391457 -46.151768 4.679385 0.969177
97.842499 -46.117062 4.130016 0.968627
97.931267 -46.110229 3.525470 0.968627
98.020409 -46.103371 2.918365 0.968627
98.110123 -46.096470 2.307376 0.968627
98.200607 -46.089508 1.691139 0.968627
98.292068 -46.082470 1.068249 0.968627
97.533829 -46.140812 0.507214 0.975433
96.715668 -46.203766 -0.000001 0.547005
92.824921 -46.503139 -0.000001 0.554849
90.341011 -46.694267 -0.000001 0.569696
88.614601 -46.827103 -0.000000 0.530434
87.342667 -46.924973 -0.000001 0.492103
97.552673 -46.266903 6.562694 0.968627
97.655037 -46.259747 5.956290 0.968627
97.757103 -46.252609 5.351674 0.968627
97.391464 -46.278175 4.678012 0.965042
97.842659 -46.246628 4.128943 0.968627
97.931381 -46.240421 3.524697 0.968627
98.020477 -46.234192 2.917898 0.968627
98.110153 -46.227921 2.307219 0.968627
98.200584 -46.221596 1.691298 0.968627
98.292000 -46.215206 1.068730 0.968627
97.533829 -46.268223 0.507979 0.975830
96.724556 -46.324810 -0.000001 0.547082
92.831818 -46.597015 -0.000001 0.549432
90.346634 -46.770794 -0.000001 0.551202
88.619339 -46.891579 -0.000000 0.573053
87.346748 -46.980568 -0.000001 0.523201
97.553009 -46.394302 6.560664 0.968627
97.655334 -46.387863 5.954521 0.968627
97.757355 -46.381443 5.350166 0.968627
97.391464 -46.404465 4.676771 0.980392
97.842804 -46.376068 4.127974 0.968627
97.931488 -46.370487 3.523999 0.968627
98.020538 -46.364887 2.917475 0.968627
98.110168 -46.359249 2.307076 0.968627
98.200569 -46.353561 1.691441 0.968627
98.291939 -46.347813 1.069165 0.968627
97.533829 -46.395508 0.508671 0.968627
96.732597 -46.445915 -0.000001 0.533440
92.838051 -46.690937 -0.000001 0.545037
90.351723 -46.847363 -0.000001 0.552422
88.623619 -46.956085 -0.000000 0.510582
87.350441 -47.036186 -0.000001 0.508797
97.553314 -46.521591 6.558849 0.968627
97.655602 -46.515873 5.952940 0.968627
97.757584 -46.510170 5.348819 0.979934
97.391464 -46.530640 4.675661 0.967803
97.842934 -46.505398 4.127106 0.968627
97.931572 -46.500443 3.523374 0.968627
98.020599 -46.495464 2.917097 0.968627
98.110191 -46.490456 2.306949 0.968627
98.200546 -46.485405 1.691570 0.968627
98.291878 -46.480297 1.069554 0.968627
97.533829 -46.522678 0.509289 0.968627
96.739792 -46.567074 -0.000001 0.542107
92.843628 -46.784901 -0.000001 0.543664
90.356262 -46.923965 -0.000001 0.552071
88.627457 -47.020618 -0.000001 0.519799
87.353745 -47.091827 -0.000001 0.548837
97.553589 -46.648788 6.557251 0.968627
97.655838 -46.643787 5.951544 0.968627
97.757790 -46.638802 5.347631 0.980392
97.391464 -46.656715 4.674683 0.980392
97.843048 -46.634632 4.126339 0.968627
97.931656 -46.630299 3.522824 0.968627
98.020645 -46.625946 2.916765 0.968627
98.110207 -46.621567 2.306837 0.968627
98.200531 -46.617149 1.691683 0.968627
98.291832 -46.612682 1.069896 0.968627
97.533829 -46.649754 0.509834 0.968627
96.746147 -46.688278 -0.000001 0.529351
92.848557 -46.878899 -0.000001 0.537041
90.360283 -47.000595 -0.000001 0.505272
88.630836 -47.085178 -0.000001 0.528695
87.356659 -47.147495 -0.000001 0.582361
97.553825 -46.775902 6.555865 0.968627
97.656036 -46.771618 5.950335 0.968627
97.757965 -46.767349 5.346601 0.980392
97.391464 -46.782707 4.673835 0.980392
97.843140 -46.763779 4.125677 0.968627
97.931732 -46.760063 3.522347 0.968627
98.020691 -46.756336 2.916476 0.968627
98.110222 -46.752583 2.306740 0.968627
98.200516 -46.748798 1.691781 0.968627
98.291786 -46.744976 1.070194 0.968627
97.533829 -46.776741 0.510307 0.980392
96.751656 -46.809525 -0.000001 0.533471
92.852829 -46.972931 -0.000001 0.549950
90.363770 -47.077251 -0.000001 0.563912
88.633766 -47.149761 -0.000000 0.531395
87.359192 -47.203178 -0.000001 0.582238
97.554024 -46.902950 6.554693 0.968627
97.656212 -46.899384 5.949312 0.968627
97.758102 -46.895824 5.345730 0.973816
97.391464 -46.908627 4.673118 0.956954
97.843224 -46.892853 4.125117 0.968627
97.931793 -46.889759 3.521944 0.968627
98.020729 -46.886654 2.916233 0.968627
98.110237 -46.883526 2.306658 0.968627
98.200500 -46.880375 1.691864 0.968627
98.291748 -46.877190 1.070445 0.968627
97.533829 -46.903656 0.510706 0.966995
96.756310 -46.930805 -0.000001 0.527825
92.856445 -47.066990 -0.000001 0.542107
90.366714 -47.153931 -0.000001 0.531563
88.636253 -47.214359 0.000000 0.578103
87.361328 -47.258881 -0.000000 0.537820
97.554184 -47.029938 6.553734 0.968627
97.656357 -47.027084 5.948478 0.968627
97.758224 -47.024239 5.345018 0.968627
97.391464 -47.034481 4.672531 0.980392
97.843292 -47.021862 4.124659 0.968627
97.931839 -47.019390 3.521614 0.968627
98.020752 -47.016907 2.916033 0.968627
98.110245 -47.014404 2.306591 0.968627
98.200500 -47.011887 1.691931 0.968627
98.291718 -47.009338 1.070650 0.968627
97.533829 -47.030506 0.511034 0.968505
96.760124 -47.052116 -0.000001 0.545174
92.859398 -47.161072 -0.000001 0.547326
90.369125 -47.230629 -0.000001 0.547707
88.638283 -47.278976 -0.000000 0.542077
87.363083 -47.314594 -0.000000 0.527825
97.554306 -47.156879 6.552988 0.968627
97.656464 -47.154739 5.947828 0.968627
97.758316 -47.152607 5.344464 0.980392
97.391464 -47.160290 4.672076 0.980301
97.843346 -47.150826 4.124302 0.968627
97.931877 -47.148972 3.521358 0.968627
98.020782 -47.147110 2.915878 0.968627
98.110252 -47.145233 2.306539 0.968627
98.200485 -47.143345 1.691984 0.968627
98.291695 -47.141434 1.070810 0.968627
97.533821 -47.157310 0.511288 0.972763
96.763092 -47.173454 -0.000001 0.541802
92.861694 -47.255173 -0.000001 0.541085
90.370995 -47.307343 -0.000001 0.546487
88.639862 -47.343605 -0.000000 0.525200
87.364441 -47.370319 -0.000000 0.573892
97.554398 -47.283787 6.552456 0.968627
97.656548 -47.282360 5.947364 0.968627
97.758385 -47.280937 5.344069 0.980392
97.391464 -47.286060 4.671750 0.980392
97.843384 -47.279751 4.124048 0.968627
97.931900 -47.278515 3.521174 0.968627
98.020798 -47.277275 2.915767 0.968627
98.110252 -47.276024 2.306501 0.968627
98.200478 -47.274765 1.692022 0.968627
98.291679 -47.273491 1.070924 0.968627
97.533829 -47.284073 0.511469 0.979294
96.765205 -47.294804 -0.000001 0.529686
92.863342 -47.349285 -0.000001 0.540291
90.372330 -47.384068 -0.000001 0.557412
88.640991 -47.408241 -0.000000 0.549126
87.365417 -47.426052 -0.000001 0.503929
97.554451 -47.410667 6.552137 0.968627
97.656593 -47.409954 5.947085 0.968627
97.758430 -47.409245 5.343832 0.980392
97.391464 -47.411804 4.671556 0.980392
97.843407 -47.408649 4.123895 0.968627
97.931915 -47.408031 3.521065 0.968627
98.020805 -47.407413 2.915700 0.968627
98.110260 -47.406788 2.306479 0.968627
98.200478 -47.406158 1.692044 0.968627
98.291664 -47.405521 1.070992 0.968627
97.533821 -47.410812 0.511578 0.980392
96.766479 -47.416168 -0.000001 0.528954
92.864326 -47.443409 -0.000001 0.538018
90.373138 -47.460800 -0.000000 0.524819
88.641663 -47.472885 -0.000000 0.553002
87.365997 -47.481792 -0.000000 0.526207
96.876152 -47.537537 6.382121 0.223529
96.960335 -47.537537 5.796611 0.223529
97.044144 -47.537537 5.213782 0.223529
97.127739 -47.537537 4.632369 0.223529
97.211311 -47.537540 4.051126 0.223529
97.295044 -47.537540 3.468807 0.223529
97.379105 -47.537540 2.884153 0.223529
97.463692 -47.537540 2.295891 0.223529
97.548981 -47.537540 1.702713 0.223529
97.635178 -47.537540 1.103266 0.223529
97.533821 -47.537540 0.511614 0.979110
96.766899 -47.537537 -0.000001 0.523903
92.864655 -47.537537 -0.000001 0.543496
90.373405 -47.537537 -0.000001 0.588327
88.641891 -47.537533 0.000000 0.529122
87.366196 -47.537533 -0.000000 0.549355
96.876137 -47.659676 6.382224 0.223529
96.960320 -47.660263 5.796701 0.223529
97.044128 -47.660847 5.213858 0.223529
97.127731 -47.661430 4.632433 0.223529
97.211311 -47.662014 4.051176 0.223529
97.295044 -47.662601 3.468843 0.223529
97.379120 -47.663189 2.884175 0.223529
97.463707 -47.663776 2.295899 0.223529
97.548996 -47.664371 1.702705 0.223529
97.635193 -47.664974 1.103244 0.223529
97.533821 -47.664268 0.511578 0.974701
96.766479 -47.658909 -0.000001 0.549935
92.864326 -47.631664 -0.000001 0.528374
90.373138 -47.614273 -0.000000 0.527428
88.641663 -47.602180 -0.000000 0.564675
87.365997 -47.593277 -0.000000 0.519783
96.876106 -47.781822 6.382536 0.223529
96.960297 -47.782997 5.796975 0.223529
97.044113 -47.784168 5.214089 0.223529
97.127724 -47.785336 4.632624 0.223529
97.211311 -47.786503 4.051327 0.223529
97.295044 -47.787674 3.468950 0.223529
97.379128 -47.788845 2.884241 0.223529
97.463715 -47.790028 2.295920 0.223529
97.549026 -47.791218 1.702683 0.223529
97.635223 -47.792423 1.103177 0.223529
97.533821 -47.791008 0.511470 0.980392
96.765205 -47.780273 -0.000001 0.543908
92.863342 -47.725788 -0.000001 0.540185
90.372330 -47.691002 -0.000001 0.525292
88.640991 -47.666824 -0.000000 0.545007
87.365417 -47.649014 -0.000000 0.557488
96.876045 -47.903992 6.383056 0.223529
96.960251 -47.905758 5.797428 0.223529
97.044075 -47.907513 5.214476 0.223529
97.127701 -47.909264 4.632941 0.223529
97.211296 -47.911015 4.051574 0.223529
97.295044 -47.912769 3.469129 0.223529
97.379128 -47.914532 2.884349 0.223529
97.463730 -47.916306 2.295957 0.223529
97.549042 -47.918091 1.702647 0.223529
97.635262 -47.919895 1.103065 0.223529
97.533813 -47.917770 0.511288 0.976074
96.763084 -47.901627 -0.000001 0.531167
92.861694 -47.819901 -0.000001 0.549615
90.370995 -47.767727 -0.000001 0.545190
88.639862 -47.731464 -0.000000 0.542535
87.364441 -47.704746 -0.000000 0.535073
97.554184 -48.045139 6.553735 0.968627
97.656357 -48.047997 5.948479 0.968627
97.758224 -48.050842 5.345018 0.968627
97.391457 -48.040596 4.672530 0.980392
97.843292 -48.053215 4.124659 0.968627
97.931839 -48.055691 3.521614 0.968627
98.020752 -48.058174 2.916033 0.968627
98.110245 -48.060673 2.306591 0.968627
98.200500 -48.063194 1.691931 0.968627
98.291718 -48.065742 1.070650 0.968627
97.533821 -48.044571 0.511034 0.980392
96.760117 -48.022961 -0.000001 0.544656
92.859398 -47.914001 -0.000000 0.542367
90.369118 -47.844440 -0.000000 0.553628
88.638283 -47.796093 0.000000 0.534600
87.363083 -47.760471 -0.000000 0.530449
97.554024 -48.172131 6.554694 0.968627
97.656212 -48.175697 5.949313 0.968627
97.758110 -48.179256 5.345731 0.980392
97.391464 -48.166454 4.673117 0.977081
97.843224 -48.182228 4.125117 0.968627
97.931793 -48.185322 3.521944 0.968627
98.020729 -48.188427 2.916233 0.968627
98.110237 -48.191551 2.306658 0.968627
98.200508 -48.194706 1.691864 0.968627
98.291748 -48.197891 1.070445 0.968627
97.533821 -48.171425 0.510707 0.980392
96.756310 -48.144272 -0.000001 0.540642
92.856445 -48.008083 -0.000001 0.526802
90.366707 -47.921139 -0.000000 0.540917
88.636253 -47.860710 0.000000 0.516258
87.361328 -47.816185 -0.000000 0.560983
97.553825 -48.299175 6.555866 0.968627
97.656044 -48.303459 5.950336 0.968627
97.757965 -48.307732 5.346601 0.980392
97.391457 -48.292370 4.673833 0.968627
97.843140 -48.311302 4.125677 0.968627
97.931732 -48.315014 3.522347 0.968627
98.020691 -48.318741 2.916477 0.968627
98.110222 -48.322495 2.306740 0.968627
98.200516 -48.326279 1.691781 0.968627
98.291786 -48.330105 1.070194 0.968627
97.533821 -48.298336 0.510307 0.980301
96.751656 -48.265553 -0.000001 0.542702
92.852829 -48.102142 -0.000001 0.551293
90.363762 -47.997818 -0.000000 0.509087
88.633766 -47.925308 0.000000 0.566125
87.359192 -47.871887 -0.000000 0.589151
97.553596 -48.426292 6.557253 0.968627
97.655838 -48.431293 5.951545 0.968627
97.757790 -48.436279 5.347631 0.980392
97.391457 -48.418362 4.674682 0.977951
97.843048 -48.440449 4.126339 0.968627
97.931664 -48.444782 3.522824 0.968627
98.020645 -48.449135 2.916765 0.968627
98.110207 -48.453514 2.306837 0.968627
98.200531 -48.457932 1.691683 0.968627
98.291832 -48.462399 1.069896 0.968627
97.533821 -48.425323 0.509835 0.968627
96.746140 -48.386799 -0.000001 0.546822
92.848557 -48.196175 -0.000000 0.535164
90.360283 -48.074474 -0.000000 0.547021
88.630836 -47.989891 -0.000000 0.555077
87.356659 -47.927574 -0.000000 0.580987
97.553322 -48.553486 6.558850 0.968627
97.655602 -48.559208 5.952940 0.968627
97.757584 -48.564907 5.348820 0.980392
97.391449 -48.544437 4.675660 0.963302
97.842934 -48.569679 4.127106 0.968627
97.931580 -48.574635 3.523375 0.968627
98.020599 -48.579613 2.917098 0.968627
98.110191 -48.584621 2.306949 0.968627
98.200546 -48.589672 1.691570 0.968627
98.291885 -48.594780 1.069553 0.968627
97.533821 -48.552399 0.509290 0.979568
96.739792 -48.508003 -0.000001 0.551843
92.843628 -48.290173 -0.000000 0.564065
90.356262 -48.151104 -0.000000 0.534493
88.627457 -48.054451 -0.000000 0.551598
87.353745 -47.983238 -0.000000 0.530907
97.553017 -48.680779 6.560666 0.968627
97.655334 -48.687218 5.954521 0.968627
97.757355 -48.693634 5.350167 0.976257
97.391449 -48.670616 4.676770 0.968627
97.842812 -48.699013 4.127974 0.968627
97.931488 -48.704590 3.523999 0.968627
98.020546 -48.710194 2.917476 0.968627
98.110168 -48.715832 2.307076 0.968627
98.200569 -48.721519 1.691441 0.968627
98.291939 -48.727268 1.069165 0.968627
97.533821 -48.679573 0.508672 0.975799
96.732590 -48.629162 -0.000001 0.541344
92.838051 -48.384136 -0.000001 0.537118
90.351715 -48.227707 -0.000000 0.548180
88.623619 -48.118984 -0.000000 0.556802
87.350441 -48.038883 -0.000001 0.542519
97.552673 -48.808174 6.562695 0.968627
97.655045 -48.815334 5.956292 0.968627
97.757103 -48.822472 5.351674 0.968627
97.391449 -48.796902 4.678010 0.968627
97.842667 -48.828453 4.128944 0.968627
97.931381 -48.834656 3.524698 0.968627
98.020485 -48.840889 2.917899 0.968627
98.110153 -48.847157 2.307219 0.968627
98.200592 -48.853481 1.691298 0.968627
98.292007 -48.859875 1.068730 0.968627
97.533821 -48.806858 0.507980 0.980392
96.724548 -48.750267 -0.000001 0.521462
92.831810 -48.478058 -0.000001 0.541207
90.346634 -48.304276 -0.000000 0.545388
88.619331 -48.183491 0.000000 0.538918
87.346741 -48.094501 -0.000000 0.531167
97.552292 -48.935688 6.564939 0.968627
97.654709 -48.943569 5.958248 0.968627
97.756821 -48.951427 5.353342 0.968627
97.391449 -48.923313 4.679383 0.968627
97.842506 -48.958019 4.130017 0.968627
97.931274 -48.964848 3.525470 0.968627
98.020416 -48.971710 2.918366 0.968627
98.110130 -48.978611 2.307376 0.968627
98.200607 -48.985573 1.691139 0.968627
98.292068 -48.992611 1.068249 0.968627
97.533821 -48.934265 0.507215 0.975158
96.715660 -48.871311 -0.000001 0.534463
92.824913 -48.571934 -0.000001 0.521385
90.341011 -48.380806 -0.000000 0.580652
88.614601 -48.247963 -0.000000 0.548241
87.342659 -48.150093 -0.000000 0.524330
97.551880 -49.063328 6.567399 0.968627
97.654350 -49.071934 5.960395 0.968627
97.756516 -49.080513 5.355170 0.968627
97.391441 -49.049858 4.680888 0.980392
97.842339 -49.087719 4.131195 0.968627
97.931152 -49.095177 3.526317 0.968627
98.020340 -49.102669 2.918878 0.968627
98.110100 -49.110207 2.307548 0.968627
98.200638 -49.117809 1.690965 0.968627
98.292152 -49.125492 1.067722 0.968627
97.533829 -49.061813 0.506375 0.968627
96.705925 -48.992294 -0.000001 0.534127
92.817368 -48.665760 -0.000001 0.542260
90.334854 -48.457294 -0.000000 0.547112
88.609413 -48.312405 -0.000000 0.527108
87.338188 -48.205654 -0.000000 0.543084
97.551422 -49.191113 6.570076 0.968627
97.653954 -49.200443 5.962728 0.968627
97.756180 -49.209747 5.357159 0.980392
97.391434 -49.176552 4.682526 0.980392
97.842148 -49.217567 4.132475 0.968627
97.931015 -49.225658 3.527239 0.968627
98.020264 -49.233780 2.919435 0.968627
98.110077 -49.241951 2.307735 0.968627
98.200668 -49.250198 1.690776 0.968627
98.292236 -49.258530 1.067148 0.968627
97.533829 -49.189510 0.505463 0.968902
96.695343 -49.113201 -0.000001 0.541375
92.809166 -48.759529 -0.000001 0.520470
90.328171 -48.533737 -0.000000 0.515953
88.603783 -48.376804 -0.000000 0.545769
87.333328 -48.261185 -0.000000 0.530022
97.550934 -49.319046 6.572970 0.968627
97.653526 -49.329105 5.965251 0.968627
97.755814 -49.339134 5.359309 0.979294
97.391434 -49.303406 4.684296 0.980392
97.841942 -49.347580 4.133859 0.968627
97.930862 -49.356297 3.528235 0.968627
98.020172 -49.365055 2.920038 0.968627
98.110046 -49.373867 2.307938 0.968627
98.200691 -49.382755 1.690571 0.968627
98.292328 -49.391739 1.066528 0.968627
97.533829 -49.317368 0.504476 0.980392
96.683922 -49.234032 -0.000000 0.539651
92.800308 -48.853237 -0.000001 0.555978
90.320946 -48.610134 -0.000000 0.547890
88.597694 -48.441166 -0.000000 0.516945
87.328087 -48.316681 0.000000 0.558907
97.550407 -49.447144 6.576082 0.968627
97.653069 -49.457935 5.967964 0.968627
97.755424 -49.468693 5.361620 0.979294
97.391426 -49.430435 4.686200 0.980392
97.841721 -49.477764 4.135347 0.968627
97.930710 -49.487114 3.529306 0.968627
98.020073 -49.496510 2.920686 0.968627
98.110016 -49.505962 2.308156 0.968627
98.200729 -49.515495 1.690351 0.968627
98.292419 -49.525135 1.065860 0.968627
97.533829 -49.445400 0.503415 0.975525
96.671654 -49.354782 -0.000000 0.548943
92.790794 -48.946884 -0.000001 0.538811
90.313187 -48.686478 -0.000000 0.532021
88.591164 -48.505486 -0.000000 0.544213
87.322449 -48.372135 0.000000 0.498070
97.549850 -49.575420 6.579413 0.968627
97.652580 -49.586945 5.970869 0.968627
97.755013 -49.598434 5.364095 0.979294
97.391418 -49.557652 4.688236 0.980392
97.841492 -49.608131 4.136940 0.968627
97.930542 -49.618122 3.530453 0.968627
98.019974 -49.628155 2.921379 0.968627
98.109978 -49.638248 2.308389 0.968627
98.200760 -49.648434 1.690116 0.968627
98.292526 -49.658726 1.065146 0.968627
97.533829 -49.573624 0.502280 0.980392
96.658554 -49.475445 -0.000001 0.528710
92.780624 -49.040462 -0.000001 0.542824
90.304901 -48.762764 -0.000000 0.568429
88.584183 -48.569756 -0.000000 0.552026
87.316437 -48.427551 -0.000000 0.484154
97.549248 -49.703884 6.582962 0.968627
97.652054 -49.716141 5.973965 0.968627
97.754562 -49.728367 5.366732 0.979294
97.391418 -49.685062 4.690409 0.980392
97.841240 -49.738701 4.138638 0.968627
97.930359 -49.749329 3.531674 0.968627
98.019867 -49.760002 2.922118 0.968627
98.109940 -49.770741 2.308638 0.968627
98.200798 -49.781574 1.689865 0.968627
98.292641 -49.792526 1.064385 0.968627
97.533829 -49.702045 0.501069 0.980392
96.644592 -49.596008 -0.000000 0.548074
92.769806 -49.133965 -0.000000 0.550958
90.296082 -48.838989 -0.000000 0.530159
88.576752 -48.633972 -0.000000 0.536675
87.310028 -48.482925 -0.000000 0.510979
97.548615 -49.832550 6.586732 0.968627
97.651505 -49.845547 5.977252 0.968627
97.754089 -49.858505 5.369532 0.979294
97.391418 -49.812691 4.692715 0.979568
97.840973 -49.869484 4.140441 0.968627
97.930176 -49.880753 3.532972 0.968627
98.019745 -49.892067 2.922904 0.968627
98.109909 -49.903458 2.308902 0.968627
98.200836 -49.914944 1.689598 0.968627
98.292755 -49.926556 1.063578 0.968627
97.533829 -49.830681 0.499784 0.980392
96.629807 -49.716476 -0.000000 0.537179
92.758339 -49.227394 -0.000000 0.534386
90.286728 -48.915157 -0.000000 0.544869
88.568871 -48.698139 -0.000000 0.548592
87.303230 -48.538250 -0.000000 0.532067
97.547943 -49.961430 6.590723 0.968627
97.650909 -49.975166 5.980731 0.968627
97.753593 -49.988869 5.372497 0.968627
97.391411 -49.940544 4.695157 0.968627
97.840698 -50.000492 4.142351 0.968627
97.929970 -50.012402 3.534346 0.968627
98.019623 -50.024364 2.923735 0.968627
98.109863 -50.036404 2.309182 0.968627
98.200874 -50.048550 1.689316 0.968627
98.292885 -50.060825 1.062722 0.968627
97.533836 -49.959545 0.498422 0.980392
96.614174 -49.836838 -0.000001 0.538277
92.746216 -49.320740 -0.000000 0.543770
90.276848 -48.991253 -0.000000 0.533272
88.560547 -48.762249 -0.000000 0.561791
87.296051 -48.593529 0.000000 0.565789
97.547226 -50.090530 6.594934 0.968627
97.650291 -50.105015 5.984406 0.968627
97.753059 -50.119461 5.375626 0.968627
97.391403 -50.068630 4.697735 0.968627
97.840401 -50.131733 4.144367 0.968627
97.929756 -50.144291 3.535796 0.968627
98.019501 -50.156906 2.924613 0.968627
98.109818 -50.169598 2.309476 0.968627
98.200920 -50.182404 1.689018 0.968627
98.293015 -50.195347 1.061818 0.968627
97.533836 -50.088650 0.496986 0.980392
96.597702 -49.957085 -0.000000 0.529900
92.733437 -49.413994 -0.000000 0.523033
90.266434 -49.067280 -0.000000 0.540612
88.551773 -48.826298 -0.000000 0.531090
87.288490 -48.648754 0.000000 0.548135
97.546478 -50.219875 6.599370 0.968627
97.649643 -50.235107 5.988273 0.968627
97.752510 -50.250298 5.378922 0.968627
97.391396 -50.196976 4.700449 0.968627
97.840088 -50.263229 4.146488 0.968627
97.929535 -50.276440 3.537324 0.968627
98.019363 -50.289703 2.925536 0.968627
98.109772 -50.303055 2.309787 0.968627
98.200974 -50.316521 1.688704 0.968627
98.293152 -50.330135 1.060867 0.968627
97.533844 -50.218006 0.495473 0.968627
96.580391 -50.077213 -0.000000 0.552880
92.720016 -49.507160 -0.000000 0.531121
90.255486 -49.143230 0.000000 0.544259
88.542549 -48.890285 -0.000000 0.555230
87.280540 -48.703926 -0.000000 0.538552
97.545692 -50.349468 6.604028 0.968627
97.648956 -50.365456 5.992337 0.968627
97.751923 -50.381393 5.382383 0.968627
97.391388 -50.325581 4.703300 0.968627
97.839760 -50.394993 4.148718 0.968627
97.929298 -50.408855 3.538928 0.968627
98.019226 -50.422775 2.926507 0.968627
98.109726 -50.436787 2.310113 0.968627
98.201019 -50.450920 1.688375 0.968627
98.293304 -50.465206 1.059868 0.968627
97.533844 -50.347633 0.493883 0.968627
96.562241 -50.197224 -0.000000 0.535882
92.705940 -49.600231 -0.000000 0.557290
90.244011 -49.219105 0.000000 0.522118
88.532883 -48.954205 0.000000 0.555947
87.272202 -48.759041 0.000000 0.512688
97.544868 -50.479324 6.608913 0.968627
97.648239 -50.496063 5.996596 0.968627
97.751312 -50.512760 5.386012 0.968627
97.391388 -50.454464 4.706291 0.968627
97.839417 -50.527031 4.151055 0.968627
97.929047 -50.541546 3.540611 0.968627
98.019073 -50.556126 2.927524 0.968627
98.109673 -50.570801 2.310456 0.968627
98.201065 -50.585606 1.688029 0.968627
98.293457 -50.600567 1.058820 0.968627
97.533844 -50.477539 0.492217 0.980392
96.543259 -50.317097 -0.000000 0.525948
92.691208 -49.693199 -0.000000 0.537087
90.232002 -49.294895 0.000000 0.543832
88.522766 -49.018059 0.000000 0.576272
87.263481 -48.814095 -0.000000 0.517021
97.544006 -50.609459 6.614025 0.968627
97.647484 -50.626961 6.001053 0.968627
97.750671 -50.644413 5.389811 0.968627
97.391373 -50.583641 4.709419 0.968627
97.839058 -50.659363 4.153502 0.968627
97.928787 -50.674541 3.542370 0.968627
98.018913 -50.689785 2.928589 0.968627
98.109627 -50.705124 2.310814 0.968627
98.201126 -50.720600 1.687667 0.968627
98.293617 -50.736244 1.057724 0.968627
97.533844 -50.607738 0.490473 0.971710
96.523430 -50.436840 -0.000001 0.534478
92.675835 -49.786064 -0.000000 0.535714
90.219475 -49.370602 -0.000000 0.550744
88.512215 -49.081837 0.000000 0.520287
87.254379 -48.869091 0.000000 0.539651
97.543106 -50.739880 6.619363 0.968627
97.646698 -50.758148 6.005709 0.968627
97.750000 -50.776360 5.393777 0.971984
97.391373 -50.713123 4.712688 0.968627
97.838684 -50.792000 4.156055 0.968627
97.928520 -50.807838 3.544209 0.968627
98.018753 -50.823750 2.929701 0.968627
98.109573 -50.839764 2.311188 0.968627
98.201180 -50.855915 1.687289 0.968627
98.293785 -50.872246 1.056578 0.968627
97.533852 -50.738247 0.488651 0.968627
96.502777 -50.556442 -0.000001 0.533944
92.659813 -49.878819 -0.000000 0.540413
90.206413 -49.446217 -0.000000 0.542809
88.501205 -49.145542 0.000000 0.496696
87.244888 -48.924019 0.000000 0.517617
97.542168 -50.870602 6.624930 0.968627
97.645882 -50.889637 6.010563 0.968627
97.749298 -50.908619 5.397913 0.971984
97.391365 -50.842922 4.716096 0.972351
97.838295 -50.924950 4.158720 0.968627
97.928238 -50.941460 3.546126 0.968627
98.018585 -50.958038 2.930862 0.968627
98.109512 -50.974728 2.311579 0.968627
98.201233 -50.991562 1.686895 0.968627
98.293961 -51.008583 1.055383 0.968627
97.533852 -50.869076 0.486751 0.980392
96.481277 -50.675892 -0.000000 0.555230
92.643143 -49.971458 0.000000 0.532753
90.192825 -49.521740 0.000000 0.529656
88.489761 -49.209167 -0.000000 0.523278
87.235016 -48.978878 0.000000 0.545357
97.541183 -51.001637 6.630725 0.968627
97.645020 -51.021446 6.015619 0.968627
97.748581 -51.041199 5.402222 0.968627
97.391357 -50.973057 4.719646 0.980117
97.837891 -51.058239 4.161494 0.968627
97.927948 -51.075417 3.548124 0.968627
98.018402 -51.092674 2.932070 0.968627
98.109451 -51.110043 2.311985 0.968627
98.201294 -51.127563 1.686485 0.968627
98.294144 -51.145275 1.054139 0.968627
97.533859 -51.000240 0.484772 0.980392
96.458954 -50.795193 -0.000001 0.550683
92.625832 -50.063980 0.000000 0.535988
90.178711 -49.597168 0.000000 0.537041
88.477867 -49.272713 0.000000 0.565164
87.224762 -49.033669 0.000000 0.517784
97.540169 -51.133007 6.636755 0.968627
97.644135 -51.153591 6.020877 0.968627
97.747818 -51.174122 5.406702 0.968627
97.391350 -51.103539 4.723338 0.963851
97.837463 -51.191872 4.164380 0.968627
97.927643 -51.209728 3.550200 0.968627
98.018219 -51.227661 2.933326 0.968627
98.109390 -51.245716 2.312407 0.968627
98.201355 -51.263924 1.686059 0.968627
98.294334 -51.282333 1.052845 0.968627
97.533859 -51.131756 0.482715 0.980392
96.435799 -50.914333 -0.000000 0.537636
92.607872 -50.156380 -0.000000 0.527306
90.164063 -49.672493 0.000000 0.526131
88.465530 -49.336174 0.000000 0.544472
87.214127 -49.088387 0.000000 0.560739
97.539108 -51.264709 6.643017 0.968627
97.643219 -51.286079 6.026338 0.968627
97.747032 -51.307392 5.411354 0.968627
97.391342 -51.234379 4.727174 0.963119
97.528358 -51.262505 4.131127 0.223529
97.529953 -51.262833 3.519096 0.223529
97.531555 -51.263161 2.910234 0.223529
97.533142 -51.263485 2.303221 0.223529
97.549950 -51.266937 1.696498 0.223529
97.637962 -51.285004 1.084429 0.223529
97.533859 -51.263634 0.480577 0.980392
96.411804 -51.033306 -0.000000 0.536400
92.589264 -50.248650 -0.000000 0.525490
90.148895 -49.747715 0.000000 0.551904
88.452751 -49.399544 0.000000 0.537179
87.203110 -49.143028 0.000000 0.570108
96.900360 -51.261238 6.486221 0.223529
96.948563 -51.271484 5.878831 0.223529
97.034134 -51.289669 5.283719 0.223529
97.119522 -51.307819 4.689932 0.223529
97.204887 -51.325966 4.096195 0.223529
97.290443 -51.344151 3.501235 0.223529
97.376350 -51.362411 2.903768 0.223529
97.462807 -51.380787 2.302487 0.223529
97.550003 -51.399323 1.696054 0.223529
97.638138 -51.418056 1.083084 0.223529
97.533867 -51.395893 0.478359 0.980392
96.386986 -51.152115 -0.000000 0.535317
92.570015 -50.340790 -0.000000 0.536721
90.133209 -49.822830 0.000000 0.544808
88.439529 -49.462826 0.000000 0.552087
87.191711 -49.197594 0.000000 0.572213
96.861679 -51.380753 6.483076 0.223529
96.947746 -51.399677 5.884509 0.223529
97.033440 -51.418518 5.288549 0.223529
97.118942 -51.437317 4.693909 0.223529
97.204437 -51.456116 4.099308 0.223529
97.290115 -51.474953 3.503475 0.223529
97.376144 -51.493866 2.905123 0.223529
97.462730 -51.512905 2.302942 0.223529
97.550056 -51.532104 1.695594 0.223529
97.638329 -51.551514 1.081689 0.223529
97.533875 -51.528545 0.476060 0.970184
96.361336 -51.270744 -0.000000 0.535500
92.550125 -50.432793 -0.000000 0.509972
90.116989 -49.897835 0.000000 0.560311
88.425873 -49.526016 0.000000 0.538750
87.179932 -49.252075 0.000000 0.534188
96.860703 -51.508663 6.489827 0.223529
96.946899 -51.528244 5.890388 0.223529
97.032715 -51.547741 5.293549 0.223529
97.118340 -51.567196 4.698023 0.223529
97.203964 -51.586651 4.102530 0.223529
97.289764 -51.606144 3.505794 0.223529
97.375931 -51.625721 2.906526 0.223529
97.462646 -51.645424 2.303415 0.223529
97.550110 -51.665295 1.695118 0.223529
97.638519 -51.685379 1.080245 0.223529
97.533875 -51.661606 0.473680 0.976715
96.334862 -51.389194 -0.000000 0.552087
92.529594 -50.524654 -0.000000 0.553643
90.100250 -49.972721 0.000000 0.542641
88.411774 -49.589108 0.000000 0.573281
87.167770 -49.306477 0.000000 0.575158
96.859688 -51.636955 6.496809 0.223529
96.946007 -51.657200 5.896467 0.223529
97.031952 -51.677361 5.298720 0.223529
97.117722 -51.697475 4.702281 0.223529
97.835098 -51.865738 4.180498 0.968627
97.925941 -51.887043 3.561801 0.968627
98.017189 -51.908447 2.940346 0.968627
98.109047 -51.929989 2.314769 0.968627
98.201706 -51.951725 1.683674 0.968627
98.295395 -51.973698 1.045616 0.968627
97.533875 -51.795086 0.471218 0.968536
96.307556 -51.507454 -0.000000 0.531685
92.508415 -50.616371 -0.000000 0.544350
90.082985 -50.047489 0.000000 0.529442
88.397224 -49.652096 0.000000 0.544884
87.155235 -49.360790 0.000000 0.549203
97.533226 -51.928844 6.677873 0.968627
97.638084 -51.954212 6.056739 0.968627
97.742661 -51.979515 5.437260 0.968627
97.391296 -51.894508 4.748531 0.980346
97.834572 -52.001747 4.184066 0.968627
97.925568 -52.023762 3.564370 0.968627
98.016960 -52.045872 2.941899 0.968627
98.108971 -52.068130 2.315291 0.968627
98.201790 -52.090588 1.683146 0.968627
98.295631 -52.113293 1.044015 0.968627
97.533882 -51.929005 0.468672 0.961456
96.279427 -51.625519 -0.000000 0.541451
92.486603 -50.707935 -0.000000 0.558846
90.065201 -50.122135 0.000000 0.536706
88.382248 -49.714985 0.000000 0.531106
87.142311 -49.415012 0.000000 0.538888
97.531929 -52.062893 6.685567 0.968627
97.636955 -52.089077 6.063449 0.968627
97.741699 -52.115192 5.442978 0.968627
97.391289 -52.027824 4.753247 0.980392
97.834030 -52.138214 4.187751 0.968627
97.925179 -52.160938 3.567022 0.968627
98.016724 -52.183765 2.943504 0.968627
98.108887 -52.206745 2.315831 0.968627
98.201866 -52.229927 1.682601 0.968627
98.295876 -52.253365 1.042362 0.968627
97.533882 -52.063377 0.466044 0.980392
96.250473 -51.743389 0.000000 0.538949
92.464149 -50.799347 -0.000000 0.558099
90.046898 -50.196659 0.000000 0.515602
88.366821 -49.777767 0.000000 0.535302
87.129021 -49.469147 0.000000 0.519966
97.530586 -52.197372 6.693504 0.968627
97.635788 -52.224380 6.070374 0.968627
97.740700 -52.251320 5.448877 0.968627
97.391281 -52.161602 4.758113 0.968627
97.833473 -52.275139 4.191552 0.968627
97.924774 -52.298580 3.569759 0.968627
98.016479 -52.322128 2.945160 0.968627
98.108810 -52.345833 2.316388 0.968627
98.201950 -52.369747 1.682038 0.968627
98.296127 -52.393929 1.040656 0.968627
97.533890 -52.198219 0.463331 0.968902
96.220703 -51.861050 0.000000 0.537591
92.441055 -50.890598 0.000000 0.553246
90.028076 -50.271049 0.000000 0.532280
88.350967 -49.840439 0.000000 0.522698
87.115341 -49.523186 0.000000 0.482856
97.529205 -52.332310 6.701690 0.968627
97.634575 -52.360149 6.077513 0.968627
97.739670 -52.387917 5.454963 0.968627
97.391273 -52.295864 4.763133 0.969772
97.832893 -52.412548 4.195473 0.968627
97.924362 -52.436714 3.572581 0.968627
98.016235 -52.460987 2.946868 0.968627
98.108727 -52.485424 2.316963 0.968627
98.202034 -52.510078 1.681458 0.968627
98.296387 -52.535004 1.038897 0.968627
97.533897 -52.333549 0.460533 0.967071
96.190109 -51.978500 0.000000 0.546624
92.417328 -50.981689 -0.000000 0.552987
90.008728 -50.345306 0.000000 0.561486
88.334671 -49.903000 0.000000 0.544076
87.101295 -49.577126 0.000000 0.535119
97.527786 -52.467712 6.710124 0.968627
97.633331 -52.496387 6.084869 0.968627
97.738617 -52.524994 5.461233 0.968627
97.391266 -52.430618 4.768305 0.970230
97.832306 -52.550446 4.199512 0.968627
97.923935 -52.575340 3.575489 0.968627
98.015976 -52.600349 2.948627 0.968627
98.108643 -52.625526 2.317554 0.968627
98.202126 -52.650925 1.680860 0.968627
98.296654 -52.676609 1.037084 0.968627
97.533905 -52.469372 0.457651 0.960449
96.158699 -52.095737 0.000000 0.538811
92.392967 -51.072609 0.000000 0.525353
89.988876 -50.419430 0.000000 0.533135
88.317932 -49.965443 0.000000 0.552422
87.086868 -49.630970 0.000000 0.578042
97.526321 -52.603596 6.718808 0.968627
97.632050 -52.633118 6.092446 0.968627
97.737526 -52.662567 5.467689 0.968627
97.391251 -52.565884 4.773631 0.980392
97.831696 -52.688858 4.203674 0.968627
97.923492 -52.714489 3.578484 0.968627
98.015709 -52.740238 2.950440 0.968627
98.108551 -52.766159 2.318164 0.968627
98.202217 -52.792313 1.680244 0.968627
98.296921 -52.818752 1.035217 0.968627
97.533905 -52.605713 0.454682 0.972671
96.126465 -52.212749 -0.000000 0.531212
92.367973 -51.163357 0.000000 0.536187
89.968498 -50.493408 0.000000 0.546273
88.300766 -50.027771 0.000000 0.524620
87.072060 -49.684708 0.000000 0.534371
97.524811 -52.739979 6.727746 0.968627
97.630745 -52.770355 6.100244 0.968627
97.736404 -52.800655 5.474335 0.968627
97.391235 -52.701679 4.779114 0.976349
97.831070 -52.827797 4.207956 0.968627
97.923035 -52.854172 3.581566 0.968627
98.015434 -52.880665 2.952305 0.968627
98.108459 -52.907337 2.318792 0.968627
98.202309 -52.934250 1.679611 0.968627
98.297203 -52.961460 1.033295 0.968627
97.533905 -52.742588 0.451625 0.980392
96.093422 -52.329536 -0.000000 0.546365
92.342346 -51.253929 0.000000 0.524254
89.947601 -50.567245 0.000000 0.605066
88.283165 -50.089977 0.000000 0.544259
87.056885 -49.738346 0.000000 0.546029
97.523254 -52.876877 6.736940 0.968627
97.629387 -52.908115 6.108263 0.968627
97.735245 -52.939270 5.481169 0.968627
97.391228 -52.838020 4.784755 0.968811
97.830414 -52.967281 4.212361 0.968627
97.922577 -52.994404 3.584738 0.968627
98.015152 -53.021652 2.954224 0.968627
98.108360 -53.049084 2.319438 0.968627
98.202400 -53.076759 1.678958 0.968627
98.297501 -53.104752 1.031317 0.968627
97.533913 -52.880016 0.448481 0.968353
96.059563 -52.446087 -0.000000 0.543008
92.316086 -51.344318 0.000000 0.535927
89.926193 -50.640934 0.000000 0.560708
88.265129 -50.152058 0.000000 0.513405
87.041336 -49.791874 0.000000 0.570169
97.521660 -53.014305 6.746392 0.968627
97.627991 -53.046410 6.116508 0.968627
97.734070 -53.078430 5.488197 0.968627
97.391220 -52.974918 4.790556 0.968627
97.829758 -53.107323 4.216891 0.968627
97.922096 -53.135201 3.587999 0.968627
98.014862 -53.163208 2.956197 0.968627
98.108269 -53.191410 2.320102 0.968627
98.202499 -53.219860 1.678288 0.968627
98.297798 -53.248634 1.029283 0.968627
97.533920 -53.018005 0.445248 0.968627
96.024879 -52.562397 0.000000 0.542077
92.289192 -51.434525 -0.000000 0.542885
89.904266 -50.714474 0.000000 0.546319
88.246658 -50.214008 0.000000 0.534203
87.025406 -49.845291 0.000000 0.511360
97.520020 -53.152275 6.756104 0.968627
97.626564 -53.185257 6.124980 0.968627
97.732841 -53.218155 5.495417 0.968627
97.391205 -53.112400 4.796516 0.968627
97.829071 -53.247944 4.221545 0.968627
97.921600 -53.276588 3.591349 0.968627
98.014565 -53.305363 2.958225 0.968627
98.108162 -53.334335 2.320784 0.968627
98.202606 -53.363571 1.677599 0.968627
98.298103 -53.393135 1.027193 0.968627
97.533928 -53.156582 0.441926 0.968627
95.989395 -52.678467 0.000000 0.551507
92.261665 -51.524540 0.000000 0.539574
89.881836 -50.787857 0.000000 0.547066
88.227760 -50.275833 0.000000 0.527611
87.009109 -49.898598 0.000000 0.524361
97.518341 -53.290806 6.766077 0.968627
97.625092 -53.324673 6.133682 0.968627
97.731590 -53.358456 5.502834 0.968627
97.391190 -53.250473 4.802639 0.968627
97.828369 -53.389153 4.226326 0.968627
97.921097 -53.418568 3.594791 0.968627
98.014259 -53.448120 2.960308 0.968627
98.108055 -53.477875 2.321485 0.968627
98.202705 -53.507900 1.676891 0.968627
98.298416 -53.538261 1.025046 0.968627
97.533928 -53.295753 0.438513 0.980392
95.953102 -52.794281 -0.000000 0.564904
92.233521 -51.614361 0.000000 0.544121
89.858887 -50.861080 0.000000 0.559365
88.208420 -50.337521 0.000001 0.537881
86.992439 -49.951790 0.000001 0.532952
97.516609 -53.429916 6.776319 0.968627
97.623589 -53.464676 6.142616 0.968627
97.730309 -53.499352 5.510448 0.968627
97.391174 -53.389160 4.808926 0.968627
97.827652 -53.530979 4.231236 0.968627
97.920578 -53.561172 3.598325 0.968627
98.013947 -53.591507 2.962447 0.968627
98.107956 -53.622055 2.322204 0.968627
98.202812 -53.652878 1.676164 0.968627
98.298737 -53.684044 1.022842 0.968627
97.533936 -53.435543 0.435008 0.980392
95.916000 -52.909843 -0.000000 0.550591
92.204742 -51.703983 0.000000 0.545602
89.835426 -50.934143 0.000000 0.505302
88.188660 -50.399075 0.000001 0.530938
86.975403 -50.004864 0.000000 0.573510
97.514839 -53.569618 6.786826 0.968627
97.622040 -53.605282 6.151784 0.968627
97.728989 -53.640858 5.518262 0.968627
97.391167 -53.528481 4.815380 0.980392
97.826904 -53.673431 4.236273 0.968627
97.920044 -53.704414 3.601952 0.968627
98.013618 -53.735542 2.964642 0.968627
98.107849 -53.766888 2.322943 0.968627
98.202927 -53.798515 1.675418 0.968627
98.299072 -53.830502 1.020579 0.968627
97.533936 -53.575974 0.431412 0.970657
95.878082 -53.025146 0.000000 0.529931
92.175346 -51.793404 0.000000 0.552209
89.811462 -51.007042 0.000000 0.539254
88.168472 -50.460491 0.000000 0.558312
86.957993 -50.057816 0.000001 0.506340
97.513016 -53.709930 6.797604 0.968627
97.620453 -53.746506 6.161187 0.968627
97.727631 -53.782993 5.526278 0.968627
97.391151 -53.668446 4.822000 0.980392
97.826149 -53.816528 4.241441 0.968627
97.919495 -53.848309 3.605674 0.968627
98.013298 -53.880241 2.966893 0.968627
98.107735 -53.912388 2.323700 0.968627
98.203033 -53.944832 1.674652 0.968627
98.299416 -53.977642 1.018257 0.968627
97.533951 -53.717056 0.427721 0.978271
95.839371 -53.140175 0.000000 0.524453
92.145325 -51.882614 0.000000 0.562173
89.786987 -51.079769 0.000000 0.526925
88.147850 -50.521763 0.000001 0.546304
86.940216 -50.110645 0.000000 0.556756
97.511154 -53.850872 6.808656 0.968627
97.618828 -53.888367 6.170829 0.968627
97.726242 -53.925774 5.534497 0.968627
97.391144 -53.809078 4.828790 0.968627
97.825378 -53.960297 4.246742 0.968627
97.918938 -53.992878 3.609489 0.968627
98.012955 -54.025620 2.969203 0.968627
98.107620 -54.058582 2.324478 0.968627
98.203148 -54.091850 1.673867 0.968627
98.299759 -54.125496 1.015876 0.968627
97.533958 -53.858814 0.423937 0.980392
95.799866 -53.254936 0.000000 0.536400
92.114677 -51.971615 0.000000 0.550912
89.762001 -51.152325 0.000000 0.534112
88.126801 -50.582886 0.000001 0.522179
86.922066 -50.163353 0.000000 0.543252
97.509239 -53.992455 6.819984 0.968627
97.617157 -54.030880 6.180715 0.968627
97.724823 -54.069221 5.542924 0.968627
97.391129 -53.950394 4.835751 0.980392
97.824577 -54.104740 4.252174 0.968627
97.918365 -54.138138 3.613401 0.968627
98.012604 -54.171696 2.971571 0.968627
98.107498 -54.205486 2.325274 0.968627
98.203270 -54.239586 1.673062 0.968627
98.300117 -54.274071 1.013436 0.968627
97.533966 -54.001255 0.420056 0.969177
95.759552 -53.369415 0.000000 0.546242
92.083412 -52.060398 0.000000 0.525109
89.736511 -51.224705 0.000000 0.540642
88.105331 -50.643864 0.000000 0.521218
86.903549 -50.215931 0.000000 0.500069
97.507278 -54.134697 6.831592 0.968627
97.615448 -54.174068 6.190843 0.968627
97.723366 -54.213348 5.551557 0.968627
97.391113 -54.092419 4.842885 0.969085
97.823753 -54.249886 4.257742 0.968627
97.917778 -54.284107 3.617410 0.968627
98.012253 -54.318493 2.973997 0.968627
98.107384 -54.353119 2.326091 0.968627
98.203392 -54.388062 1.672238 0.968627
98.300491 -54.423405 1.010933 0.968627
97.533966 -54.144413 0.416080 0.964630
95.718430 -53.483608 0.000000 0.532113
92.051529 -52.148964 0.000000 0.535561
89.710518 -51.296902 0.000001 0.547768
88.083435 -50.704689 0.000000 0.514672
86.884666 -50.268375 0.000000 0.571969
97.505272 -54.277622 6.843482 0.968627
97.613693 -54.317944 6.201217 0.968627
97.721878 -54.358173 5.560401 0.968627
97.391098 -54.235161 4.850194 0.980392
97.822922 -54.395752 4.263446 0.968627
97.917175 -54.430805 3.621517 0.968627
98.011887 -54.466030 2.976483 0.968627
98.107262 -54.501499 2.326927 0.968627
98.203514 -54.537296 1.671392 0.968627
98.300865 -54.573502 1.008369 0.968627
97.533974 -54.288296 0.412005 0.970230
95.676521 -53.597515 0.000000 0.541650
92.019028 -52.237301 0.000000 0.520073
89.684021 -51.368919 0.000001 0.552392
88.061111 -50.765362 0.000000 0.523369
86.865417 -50.320686 0.000001 0.527276
97.503220 -54.421242 6.855658 0.968627
97.611900 -54.462528 6.211842 0.968627
97.720345 -54.503723 5.569459 0.968627
97.391083 -54.378647 4.857681 0.968627
97.822067 -54.542362 4.269288 0.968627
97.916557 -54.578255 3.625723 0.968627
98.011513 -54.614326 2.979030 0.968627
98.107132 -54.650650 2.327784 0.968627
98.203644 -54.687309 1.670527 0.968627
98.301254 -54.724388 1.005744 0.968627
97.533981 -54.432930 0.407832 0.980392
95.633820 -53.711124 0.000000 0.530877
91.985901 -52.325409 0.000001 0.536736
89.657021 -51.440746 0.000001 0.522103
88.038361 -50.825874 0.000001 0.564614
86.845810 -50.372868 0.000000 0.541802
97.501114 -54.565582 6.868121 0.968627
97.610069 -54.607841 6.222719 0.968627
97.718781 -54.650009 5.578732 0.968627
97.391068 -54.522900 4.865347 0.971252
97.821182 -54.689728 4.275269 0.968627
97.915924 -54.726479 3.630031 0.968627
98.011131 -54.763405 2.981636 0.968627
98.107002 -54.800591 2.328661 0.968627
98.203773 -54.838127 1.669640 0.968627
98.301651 -54.876087 1.003055 0.968627
97.533989 -54.578335 0.403559 0.976806
95.590324 -53.824432 0.000000 0.527123
91.952171 -52.413284 0.000001 0.545861
89.629524 -51.512386 0.000001 0.564721
88.015198 -50.886230 0.000000 0.518624
86.825836 -50.424904 0.000001 0.519036
97.498962 -54.710655 6.880880 0.968627
97.608185 -54.753902 6.233851 0.968627
97.717178 -54.797054 5.588223 0.968627
97.391052 -54.667934 4.873196 0.980392
97.820282 -54.837875 4.281391 0.968627
97.915276 -54.875488 3.634439 0.968627
98.010742 -54.913284 2.984305 0.968627
98.106880 -54.951347 2.329560 0.968627
97.947571 -54.888271 1.673244 0.223529
97.948456 -54.888622 1.018985 0.223529
97.533997 -54.724529 0.399185 0.973190
95.546036 -53.937435 0.000001 0.561822
91.917824 -52.500923 0.000001 0.549874
89.601524 -51.583832 0.000001 0.543465
87.991608 -50.946423 0.000000 0.561624
86.805489 -50.476803 0.000000 0.535302
97.496758 -54.856480 6.893932 0.968627
97.606262 -54.900726 6.245242 0.968627
97.715538 -54.944874 5.597936 0.968627
97.391037 -54.813766 4.881227 0.980209
97.572037 -54.886894 4.256968 0.223529
97.572891 -54.887241 3.608731 0.223529
97.573753 -54.887589 2.963904 0.223529
97.574615 -54.887936 2.321087 0.223529
97.575455 -54.888279 1.678898 0.223529
97.645401 -54.916538 1.032300 0.223529
97.534012 -54.871532 0.394707 0.960632
95.500969 -54.050129 0.000000 0.555337
91.882874 -52.588318 0.000000 0.530159
89.573029 -51.655083 0.000001 0.546578
87.967598 -51.006443 0.000001 0.516716
86.784790 -50.528561 0.000001 0.501671
97.209274 -54.885521 6.830008 0.223529
97.210144 -54.885880 6.164818 0.223529
97.210999 -54.886230 5.508903 0.223529
97.211838 -54.886574 4.860696 0.223529
97.212654 -54.886913 4.218691 0.223529
97.278046 -54.913868 3.587172 0.223529
97.368835 -54.951286 2.955766 0.223529
97.460251 -54.988964 2.319979 0.223529
97.552498 -55.026985 1.678388 0.223529
97.645790 -55.065441 1.029518 0.223529
97.534019 -55.019371 0.390126 0.960449
95.455101 -54.162502 0.000001 0.541497
91.847305 -52.675472 0.000000 0.512489
89.544037 -51.726131 0.000000 0.545892
87.943176 -51.066303 0.000000 0.524254
86.763733 -50.580170 0.000001 0.583413
96.861984 -54.885555 6.749698 0.223529
96.915596 -54.908092 6.107931 0.223529
97.006073 -54.946125 5.478669 0.223529
97.096405 -54.984097 4.850447 0.223529
97.186775 -55.022087 4.221918 0.223529
97.277390 -55.060177 3.591732 0.223529
97.368431 -55.098446 2.958525 0.223529
97.460106 -55.136986 2.320907 0.223529
97.552628 -55.175873 1.677450 0.223529
97.646194 -55.215206 1.026672 0.223529
97.534019 -55.168053 0.385441 0.956863
95.408463 -54.274551 0.000000 0.546242
91.811134 -52.762371 0.000000 0.522148
89.514542 -51.796970 0.000001 0.544533
87.918327 -51.125984 0.000001 0.561288
86.742310 -50.631630 0.000001 0.518471
96.822830 -55.012798 6.753124 0.223529
96.913895 -55.051834 6.119723 0.223529
97.004631 -55.090721 5.488707 0.223529
97.095207 -55.129543 4.858713 0.223529
97.185837 -55.168385 4.228395 0.223529
97.276703 -55.207333 3.596395 0.223529
97.368011 -55.246464 2.961348 0.223529
97.459953 -55.285873 2.321858 0.223529
98.204468 -55.604973 1.664888 0.968627
98.303764 -55.647530 0.988637 0.968627
97.534035 -55.317623 0.380648 0.972168
95.361038 -54.386276 0.000000 0.535912
91.774353 -52.849018 0.000000 0.537881
89.484558 -51.867607 0.000000 0.554955
87.893066 -51.185493 0.000001 0.545159
86.720528 -50.682941 0.000000 0.514351
96.820831 -55.156494 6.766962 0.223529
96.912163 -55.196396 6.131779 0.223529
97.003143 -55.236145 5.498967 0.223529
97.093979 -55.275829 4.867165 0.223529
97.184875 -55.315540 4.235016 0.223529
97.911812 -55.633133 3.658055 0.968627
98.008636 -55.675434 2.998601 0.968627
98.106171 -55.718044 2.334371 0.968627
98.204620 -55.761055 1.663871 0.968627
98.304222 -55.804573 0.985552 0.968627
97.534042 -55.468086 0.375748 0.959197
95.312843 -54.497665 0.000000 0.544961
91.736969 -52.935406 0.000000 0.535607
89.454086 -51.938034 0.000001 0.563180
87.867393 -51.244823 0.000001 0.532296
86.698395 -50.734100 0.000000 0.542824
96.818787 -55.301014 6.781100 0.223529
97.595978 -55.647041 6.306189 0.968627
97.706772 -55.696369 5.649902 0.968627
97.390961 -55.555763 4.924228 0.969863
97.814445 -55.744308 4.321189 0.968627
97.911072 -55.787331 3.663100 0.968627
98.008194 -55.830570 3.001657 0.968627
98.106018 -55.874126 2.335399 0.968627
98.204773 -55.918095 1.662832 0.968627
98.304680 -55.962578 0.982399 0.968627
97.534050 -55.619469 0.370738 0.962768
95.263855 -54.608711 0.000000 0.548196
91.698982 -53.021526 0.000000 0.551629
89.423119 -52.008244 0.000001 0.511589
87.841301 -51.303974 0.000001 0.511284
86.675896 -50.785099 0.000001 0.522393
97.482452 -55.748390 6.978669 0.968627
97.593781 -55.798889 6.319199 0.968627
97.704895 -55.849293 5.660997 0.968627
97.390945 -55.706879 4.933414 0.971618
97.813393 -55.898510 4.328351 0.968627
97.910316 -55.942474 3.668259 0.968627
98.007736 -55.986668 3.004779 0.968627
98.105865 -56.031181 2.336450 0.968627
98.204933 -56.076122 1.661769 0.968627
98.305153 -56.121586 0.979176 0.968627
97.534058 -55.771797 0.365618 0.980392
95.214111 -54.719421 0.000000 0.575509
91.660400 -53.107384 0.000000 0.550637
89.391663 -52.078236 0.000001 0.554986
87.814804 -51.362942 0.000001 0.536446
86.653046 -50.835945 0.000001 0.530495
