# This PCD file was generated using the MATLABÂ® pcwrite function
# from Computer Vision ToolboxÂ®.
# .PCD v.7 - Point Cloud Data file format
VERSION .7
FIELDS x y z intensity
SIZE 4 4 4 4
TYPE F F F F
COUNT 1 1 1 1
WIDTH 1296
HEIGHT 1
VIEWPOINT 0 0 0 1 0 0 0
POINTS 1296
DATA ascii
nan nan nan 0.000000
129.330933 -63.345116 10.798113 0.223529
129.021439 -63.237343 9.221092 0.223529
128.679916 -63.118416 7.641862 0.709804
126.265503 -62.277641 6.230869 0.968627
125.957703 -62.170448 4.550901 0.968627
125.507500 -62.013676 2.857495 0.968627
125.049484 -61.854179 1.134569 0.968627
136.547760 -65.858253 -0.000006 0.538918
154.262741 -72.027191 0.199984 0.716777
159.200806 -73.746788 0.076087 0.697932
162.261459 -74.812599 0.000009 0.337896
164.614120 -75.631874 0.000007 0.333791
166.249298 -76.201302 0.000006 0.340383
167.454041 -76.620827 0.000005 0.339406
nan nan nan 0.000000
nan nan nan 0.000000
129.330902 -62.986786 10.819775 0.223529
129.333588 -62.987740 9.189716 0.223529
130.013641 -63.229897 7.492879 0.709804
129.188019 -62.935913 5.986912 0.223529
127.025024 -62.165710 4.501522 0.968627
126.593201 -62.011948 2.840746 0.968627
126.154068 -61.855579 1.151625 0.968627
136.642151 -65.590172 -0.000006 0.546136
154.313660 -71.882637 0.199984 0.702129
159.548859 -73.746788 0.113854 0.742229
162.292725 -74.723816 0.000009 0.340948
164.639603 -75.559494 0.000007 0.340597
166.270782 -76.140327 0.000006 0.340993
167.472549 -76.568253 0.000005 0.332433
nan nan nan 0.000000
nan nan nan 0.000000
121.104034 -59.632370 12.434968 0.966552
129.246750 -62.596046 9.221518 0.968627
130.794449 -63.159355 7.411113 0.709804
129.338852 -62.629566 5.983784 0.223529
129.341461 -62.630516 4.386715 0.223529
129.344070 -62.631462 2.794959 0.223529
128.954468 -62.489666 1.198257 0.223529
136.738434 -65.322762 -0.000006 0.541100
154.365570 -71.738441 0.199985 0.711208
159.883530 -73.746788 0.150078 0.677989
162.324600 -74.635254 0.000009 0.337407
164.665604 -75.487297 0.000008 0.324666
166.292679 -76.079498 0.000006 0.328664
167.491440 -76.515808 0.000005 0.333059
nan nan nan 0.000000
nan nan nan 0.000000
121.124542 -59.212845 12.457824 0.968627
130.184113 -62.582027 9.091743 0.968627
131.874573 -63.210701 7.292456 0.709804
129.297211 -62.252197 5.997673 0.968627
129.040634 -62.156780 4.408622 0.968627
129.344086 -62.269630 2.797002 0.223529
129.346695 -62.270599 1.203043 0.223529
136.836578 -65.056030 -0.000005 0.537774
154.418503 -71.594612 0.199985 0.702342
160.205597 -73.746788 0.184850 0.733715
162.357117 -74.546921 0.000009 0.339544
164.692093 -75.415283 0.000007 0.340536
166.315002 -76.018829 0.000006 0.328832
167.510681 -76.463493 0.000005 0.334218
nan nan nan 0.000000
133.058899 -63.317009 11.688628 0.223529
133.061417 -63.317970 10.161890 0.223529
133.056229 -63.315998 8.654634 0.709804
130.664291 -62.407394 7.455302 0.968627
130.235107 -62.244366 5.925911 0.968627
129.993454 -62.152573 4.364879 0.968627
129.610657 -62.007164 2.794431 0.968627
129.221756 -61.859436 1.198762 0.968627
136.936569 -64.789986 -0.000005 0.541680
154.472427 -71.451157 0.199985 0.702815
160.367371 -73.690414 0.199990 0.692332
162.390228 -74.458809 0.000010 0.335424
164.719086 -75.343452 0.000007 0.329061
166.337738 -75.958313 0.000006 0.344961
167.530289 -76.411316 0.000005 0.337881
nan nan nan 0.000000
nan nan nan 0.000000
133.352402 -63.094948 10.127003 0.977401
133.956833 -63.329388 8.529203 0.709804
133.066315 -62.983990 7.173549 0.223529
132.872772 -62.908913 5.704472 0.223529
130.912338 -62.148521 4.322804 0.968627
130.544098 -62.005692 2.780178 0.968627
130.170090 -61.860626 1.213257 0.968627
137.038422 -64.524651 -0.000005 0.539086
154.527359 -71.308075 0.199986 0.707805
160.406525 -73.588432 0.199990 0.709010
162.423965 -74.370934 0.000010 0.332494
164.746597 -75.271812 0.000007 0.334905
166.360916 -75.897957 0.000006 0.335454
167.550262 -76.359276 0.000005 0.331350
nan nan nan 0.000000
132.443924 -62.399895 11.884095 0.223529
134.183807 -63.088757 9.986563 0.980392
132.805466 -62.543037 8.730780 0.968627
133.066284 -62.646301 7.187728 0.223529
133.068726 -62.647270 5.697340 0.223529
133.071182 -62.648239 4.215101 0.223529
133.031326 -62.632462 2.738541 0.223529
132.682465 -62.494339 1.255319 0.223529
137.142151 -64.260033 -0.000005 0.535912
154.583282 -71.165390 0.199986 0.708080
160.446381 -73.486725 0.199990 0.680552
162.458298 -74.283295 0.000009 0.335103
164.774582 -75.200363 0.000007 0.336919
166.384506 -75.837769 0.000006 0.333959
167.570618 -76.307381 0.000005 0.344701
nan nan nan 0.000000
133.221664 -62.369537 11.730564 0.223529
134.987000 -63.082771 9.851274 0.980392
133.621216 -62.530968 8.619092 0.968627
133.241638 -62.377609 7.180478 0.968627
132.857956 -62.222595 5.726317 0.968627
132.655701 -62.140877 4.243310 0.968627
133.073593 -62.309715 2.739860 0.223529
133.076019 -62.310699 1.260182 0.223529
137.247681 -63.996140 -0.000005 0.541848
154.640198 -71.023094 0.199987 0.703288
160.486938 -73.385307 0.199990 0.706035
162.493256 -74.195900 0.000009 0.337591
164.803085 -75.129120 0.000007 0.325261
166.408508 -75.777740 0.000006 0.338277
167.591309 -76.255623 0.000005 0.336477
nan nan nan 0.000000
136.547531 -63.400146 10.981387 0.223529
135.763458 -63.076981 9.720859 0.972488
136.170197 -63.244621 8.229015 0.709804
134.044266 -62.368385 7.095388 0.968627
133.674194 -62.215855 5.664559 0.968627
133.483521 -62.137272 4.205724 0.968627
133.154358 -62.001602 2.740542 0.968627
132.820343 -61.863926 1.253546 0.968627
137.355072 -63.732990 -0.000005 0.536980
154.698120 -70.881195 0.199988 0.710414
160.528229 -73.284172 0.199991 0.692180
162.528824 -74.108749 0.000009 0.338537
164.832077 -75.058067 0.000007 0.333394
166.432938 -75.717888 0.000005 0.339483
167.612366 -76.204010 0.000005 0.334188
nan nan nan 0.000000
136.844818 -63.210205 10.937874 0.223529
136.847137 -63.211178 9.529437 0.223529
136.777893 -63.182068 8.149357 0.709804
134.821014 -62.359486 7.013284 0.968627
134.463867 -62.209358 5.604986 0.968627
134.284088 -62.133785 4.169479 0.968627
133.966629 -62.000336 2.728278 0.968627
133.644531 -61.864944 1.266004 0.968627
137.464294 -63.470604 -0.000005 0.537285
152.508545 -69.794556 -0.000003 0.536583
160.570206 -73.183327 0.199990 0.694957
162.627090 -74.047951 0.010000 1.000000
164.861572 -74.987228 0.000007 0.342306
166.457779 -75.658203 0.000006 0.333913
167.633789 -76.152550 0.000005 0.338262
nan nan nan 0.000000
135.687668 -62.399925 11.236307 0.223529
136.847107 -62.896858 9.551787 0.223529
136.849411 -62.897842 8.156066 0.223529
136.851669 -62.898811 6.774003 0.223529
136.808960 -62.880508 5.406481 0.223529
136.515549 -62.754753 4.056649 0.223529
134.752502 -61.999115 2.716449 0.968627
134.441742 -61.865929 1.278019 0.968627
137.575333 -63.208969 -0.000005 0.543999
152.575089 -69.637802 -0.000002 0.532738
160.612885 -73.082771 0.199990 0.676982
162.663574 -73.961693 0.009984 1.000000
164.891556 -74.916588 0.000007 0.339162
166.483032 -75.598694 0.000006 0.337087
167.655563 -76.101242 0.000005 0.336217
nan nan nan 0.000000
136.441666 -62.403534 11.086542 0.223529
136.959763 -62.629879 9.552269 0.968627
136.632172 -62.486763 8.209858 0.968627
136.851669 -62.582657 6.788448 0.223529
136.853912 -62.583637 5.412767 0.223529
136.856171 -62.584625 4.044611 0.223529
136.858414 -62.585602 2.681010 0.223529
136.660751 -62.499249 1.315460 0.223529
137.688217 -62.948135 -0.000005 0.542779
152.642700 -69.481522 -0.000003 0.536385
160.656265 -72.982521 0.199990 0.689113
162.639160 -73.848816 0.000009 0.338872
164.922028 -74.846169 0.000007 0.332479
166.508713 -75.539368 0.000005 0.339956
167.677704 -76.050079 0.000004 0.333364
nan nan nan 0.000000
nan nan nan 0.000000
137.644775 -62.617676 9.439120 0.968627
137.327972 -62.476627 8.116030 0.968627
137.008881 -62.334564 6.783418 0.968627
136.686798 -62.191166 5.438290 0.968627
136.536011 -62.124031 4.068133 0.968627
136.858398 -62.267570 2.683110 0.223529
136.860657 -62.268570 1.316930 0.223529
137.802902 -62.688084 -0.000005 0.541222
152.711426 -69.325714 -0.000002 0.540734
160.700348 -72.882576 0.199990 0.738430
162.677139 -73.762695 0.000009 0.338598
164.952988 -74.775955 0.000007 0.336629
166.534790 -75.480217 0.000005 0.332113
167.700195 -75.999077 0.000005 0.332418
nan nan nan 0.000000
nan nan nan 0.000000
138.309692 -62.605877 9.329645 0.968627
138.003143 -62.466820 8.025273 0.968627
137.694458 -62.326805 6.711844 0.968627
137.382965 -62.185505 5.386413 0.968627
137.240768 -62.121002 4.036614 0.968627
136.964523 -61.995689 2.683350 0.968627
136.684525 -61.868675 1.311618 0.968627
139.134140 -62.979858 0.065524 0.970413
152.781235 -69.170395 -0.000002 0.536614
160.745117 -72.782936 0.199990 0.695796
162.869904 -73.746773 0.025123 0.718135
164.984451 -74.705963 0.000007 0.335637
166.561295 -75.421249 0.000005 0.339925
167.723053 -75.948235 0.000005 0.338018
nan nan nan 0.000000
139.932449 -63.045902 10.341948 0.977722
138.955414 -62.594456 9.223679 0.968627
138.658661 -62.457333 7.937448 0.968627
138.359924 -62.319298 6.642598 0.968627
138.889496 -62.563995 5.261177 0.964965
137.924423 -62.118073 4.006136 0.968627
137.657257 -61.994625 2.673051 0.968627
137.386536 -61.869530 1.322069 0.968627
139.789520 -62.979858 0.094797 0.966354
152.852112 -69.015564 -0.000002 0.532845
160.790588 -72.683617 0.199990 0.719631
163.091507 -73.746780 0.055012 0.686854
165.016388 -74.636192 0.000007 0.338506
166.588211 -75.362465 0.000006 0.330846
167.746262 -75.897552 0.000005 0.347799
141.380737 -63.429405 11.305376 0.223529
141.137939 -63.315155 10.081403 0.223529
140.896332 -63.201466 8.856928 0.223529
139.295441 -62.448143 7.852418 0.968627
139.006165 -62.312027 6.575572 0.968627
139.541626 -62.563995 5.212715 0.968627
138.587936 -62.115227 3.976652 0.968627
138.329453 -61.993595 2.663088 0.968627
138.067566 -61.870358 1.332175 0.968627
140.370758 -62.954151 0.120143 0.968627
152.924088 -68.861237 -0.000002 0.537591
160.836761 -72.584618 0.199990 0.688380
163.306503 -73.746780 0.083915 0.750881
165.048813 -74.566643 0.000007 0.341695
166.615540 -75.303879 0.000005 0.337987
167.769821 -75.847038 0.000005 0.329412
141.683960 -63.287109 11.252053 0.223529
141.511047 -63.204262 10.018882 0.223529
141.338776 -63.121727 8.790427 0.223529
141.166809 -63.039330 7.564040 0.223529
140.994766 -62.956902 6.337092 0.223529
140.773712 -62.850994 5.111361 0.223529
140.533249 -62.735779 3.877246 0.223529
140.291046 -62.619736 2.629696 0.223529
140.046112 -62.502380 1.365859 0.223529
140.370789 -62.657944 0.113903 0.968627
152.997116 -68.707413 -0.000002 0.547326
160.883606 -72.485947 0.199990 0.727474
163.515213 -73.746780 0.111882 0.736294
165.081726 -74.497330 0.000007 0.336721
166.643265 -75.245476 0.000005 0.330770
167.793732 -75.796684 0.000005 0.328847
141.688110 -63.002228 11.282177 0.223529
141.514542 -62.917576 10.045149 0.223529
141.341644 -62.833252 8.812801 0.223529
141.169037 -62.749062 7.582483 0.223529
140.996338 -62.664833 6.351552 0.223529
140.823181 -62.580379 5.117367 0.223529
140.649200 -62.495522 3.877255 0.223529
140.473999 -62.410069 2.628494 0.223529
140.297195 -62.323837 1.368286 0.223529
140.370789 -62.359734 0.107527 0.968627
153.071243 -68.554100 -0.000002 0.525963
160.931137 -72.387589 0.199989 0.680934
163.717926 -73.746780 0.138954 0.670726
165.115128 -74.428238 0.000007 0.335256
166.671402 -75.187271 0.000005 0.337011
167.817978 -75.746498 0.000005 0.340780
nan nan nan 0.000000
141.393066 -62.566944 10.102128 0.970184
140.876633 -62.310589 8.930710 0.968627
140.672073 -62.209045 7.683994 0.968627
140.467072 -62.107285 6.434503 0.968627
140.669189 -62.207619 5.142190 0.980392
140.176544 -61.963070 3.909638 0.968627
139.991089 -61.871010 2.639479 0.968627
139.803848 -61.778065 1.357100 0.968627
140.370789 -62.059494 0.101015 0.968627
153.146423 -68.401306 -0.000002 0.526055
160.979370 -72.289581 0.199989 0.710781
163.914917 -73.746780 0.165172 0.679026
165.149017 -74.359390 0.000007 0.336934
166.699936 -75.129272 0.000005 0.338155
167.842590 -75.696480 0.000005 0.332052
nan nan nan 0.000000
141.393005 -62.273514 10.130512 0.973129
140.880478 -62.014618 8.954197 0.968627
140.675262 -61.910954 7.703370 0.968627
140.469574 -61.807053 6.449711 0.968627
140.669159 -61.907879 5.153196 0.968627
140.177521 -61.659531 3.916272 0.968627
139.991425 -61.565525 2.641714 0.968627
139.803528 -61.470615 1.354842 0.968627
140.370804 -61.757168 0.094365 0.977447
153.222672 -68.249046 -0.000002 0.545174
161.028275 -72.191910 0.199989 0.696757
164.106445 -73.746780 0.190576 0.749676
165.183365 -74.290771 0.000007 0.336843
166.728882 -75.071465 0.000005 0.326635
167.867554 -75.646637 0.000004 0.339498
nan nan nan 0.000000
141.392960 -61.978004 10.159499 0.978653
140.884399 -61.716644 8.978174 0.968627
140.678513 -61.610832 7.723151 0.968627
140.472107 -61.504757 6.465238 0.968627
140.669144 -61.606018 5.164436 0.957687
140.178513 -61.353870 3.923047 0.968627
139.991760 -61.257889 2.643994 0.968627
139.803192 -61.160980 1.352537 0.968627
140.370819 -61.452702 0.087575 0.976257
153.299973 -68.097321 -0.000002 0.539666
161.077866 -72.094574 0.199988 0.692439
164.201569 -73.699921 0.199993 0.676860
165.218201 -74.222404 0.000006 0.336202
166.758240 -75.013863 0.000005 0.335180
167.892853 -75.596970 0.000005 0.331609
nan nan nan 0.000000
141.392914 -61.680367 10.189090 0.980392
140.888428 -61.416634 9.002645 0.968627
140.681808 -61.308617 7.743347 0.968627
140.474716 -61.200348 6.481089 0.968627
140.669128 -61.301983 5.175908 0.969635
140.179520 -61.046028 3.929962 0.968627
139.992096 -60.948044 2.646321 0.968627
139.802841 -60.849106 1.350183 0.968627
140.370834 -61.146042 0.080643 0.915145
153.378342 -67.946136 -0.000002 0.539681
161.128143 -71.997597 0.199989 0.678477
164.240555 -73.624710 0.199993 0.722942
165.253525 -74.154274 0.000007 0.335515
166.787979 -74.956467 0.000005 0.341512
167.918518 -75.547485 0.000005 0.341253
nan nan nan 0.000000
141.392853 -61.380550 10.219302 0.968627
140.892532 -61.114525 9.027624 0.968627
140.685211 -61.004288 7.763957 0.968627
140.477371 -60.893784 6.497267 0.968627
140.669098 -60.995728 5.187623 0.980392
140.180557 -60.735962 3.937021 0.968627
139.992447 -60.635944 2.648699 0.968627
139.802505 -60.534950 1.347780 0.968627
140.370850 -60.837139 0.073565 0.980392
153.457748 -67.795509 -0.000002 0.532250
161.179077 -71.900970 0.199988 0.696223
164.280060 -73.549774 0.199993 0.709804
165.289307 -74.086395 0.000007 0.338460
166.818130 -74.899284 0.000005 0.338949
167.944504 -75.498177 0.000005 0.334081
nan nan nan 0.000000
141.392807 -61.078491 10.250139 0.975525
140.896713 -60.810257 9.053117 0.968627
140.688644 -60.697758 7.784992 0.968627
140.480087 -60.584991 6.513778 0.968627
140.669083 -60.687180 5.199580 0.980392
140.181610 -60.423607 3.944228 0.968627
139.992798 -60.321522 2.651126 0.968627
139.802139 -60.218430 1.345328 0.968627
140.370865 -60.525932 0.066341 0.923125
153.538223 -67.645432 -0.000002 0.530266
161.230698 -71.804703 0.199989 0.699657
164.320099 -73.475113 0.199993 0.747112
165.373886 -74.044891 0.010000 1.000000
166.848679 -74.842308 0.000005 0.334554
167.970856 -75.449051 0.000005 0.340139
nan nan nan 0.000000
141.392761 -60.774147 10.281615 0.968902
140.900986 -60.503799 9.079128 0.968627
140.692169 -60.389008 7.806457 0.968627
140.482849 -60.273933 6.530629 0.968627
140.669067 -60.376301 5.211783 0.968627
140.182693 -60.108917 3.951581 0.968627
139.993164 -60.004726 2.653602 0.968627
139.801788 -59.899513 1.342825 0.968627
140.370865 -60.212368 0.058968 0.964218
153.619736 -67.495926 -0.000002 0.530190
161.282990 -71.708801 0.199989 0.719326
164.360641 -73.400734 0.199993 0.663371
165.410370 -73.977821 0.009987 1.000000
166.879623 -74.785545 0.000005 0.333165
167.997528 -75.400116 0.000005 0.339422
nan nan nan 0.000000
141.392700 -60.467453 10.313737 0.974609
140.905334 -60.195076 9.105665 0.968627
140.695770 -60.077957 7.828359 0.968627
140.485672 -59.960541 6.547823 0.968627
140.669037 -60.063011 5.224238 0.980392
140.183777 -59.791817 3.959086 0.968627
139.993530 -59.685493 2.656129 0.968627
139.801407 -59.578114 1.340269 0.968627
139.456741 -59.385487 -0.000004 0.532815
153.702301 -67.346992 -0.000002 0.542016
161.335953 -71.613258 0.199990 0.676799
164.401718 -73.326637 0.199993 0.733333
165.447388 -73.911041 0.009989 1.000000
166.910965 -74.729004 0.000005 0.340566
168.024551 -75.351357 0.000004 0.329030
nan nan nan 0.000000
141.392639 -60.158352 10.346522 0.973312
140.909790 -59.884056 9.132743 0.968627
140.699432 -59.764565 7.850705 0.968627
140.488556 -59.644764 6.565368 0.968627
140.669006 -59.747276 5.236948 0.980392
140.184906 -59.472267 3.966745 0.968627
139.993912 -59.363773 2.658707 0.968627
139.801025 -59.254204 1.337662 0.968627
139.596252 -59.137871 -0.000004 0.540551
153.785889 -67.198631 -0.000002 0.543603
161.389587 -71.518097 0.199990 0.703838
164.443298 -73.252838 0.199993 0.741344
165.437180 -73.817429 0.000006 0.339391
166.942703 -74.672684 0.000005 0.338567
168.051910 -75.302795 0.000004 0.339467
nan nan nan 0.000000
141.392593 -59.846802 10.379972 0.974609
140.914307 -59.570667 9.160368 0.968627
140.703186 -59.448769 7.873504 0.968627
140.491486 -59.326553 6.583266 0.968627
140.668991 -59.429031 5.249920 0.979477
140.186050 -59.150208 3.974559 0.968627
139.994308 -59.039505 2.661340 0.968627
140.086273 -59.092598 1.340398 0.223529
139.737503 -58.891243 -0.000004 0.540642
153.870514 -67.050865 -0.000002 0.539590
161.443863 -71.423302 0.199990 0.700160
164.485413 -73.179321 0.199993 0.694820
165.475311 -73.750839 0.000006 0.339544
166.974838 -74.616585 0.000005 0.336110
168.079620 -75.254425 0.000004 0.337148
nan nan nan 0.000000
141.392532 -59.532711 10.414108 0.968627
140.918945 -59.254860 9.188543 0.968627
140.707001 -59.130516 7.896763 0.968627
140.494492 -59.005844 6.601527 0.968627
140.668961 -59.108204 5.263155 0.962844
140.642380 -59.092606 3.956607 0.223529
140.604370 -59.070305 2.652458 0.223529
140.420898 -58.962666 1.344062 0.223529
139.880463 -58.645599 -0.000004 0.542977
153.956161 -66.903694 -0.000002 0.545296
161.498825 -71.328903 0.199991 0.713634
164.528015 -73.106102 0.199993 0.673289
165.620010 -73.746765 0.022390 0.723247
167.007355 -74.560707 0.000005 0.346593
168.107666 -75.206245 0.000004 0.339376
nan nan nan 0.000000
138.776459 -57.656609 11.106709 0.223529
141.185440 -59.092636 9.161831 0.223529
141.185394 -59.092613 7.838541 0.223529
141.148514 -59.070625 6.532972 0.223529
140.968338 -58.963215 5.248076 0.223529
140.787216 -58.855247 3.956418 0.223529
140.604767 -58.746483 2.655149 0.223529
139.799850 -58.266663 1.329516 0.968627
140.025131 -58.400963 -0.000004 0.536583
154.042847 -66.757126 -0.000002 0.551797
161.554428 -71.234879 0.199991 0.716487
164.571136 -73.033188 0.199993 0.672648
165.768204 -73.746773 0.045601 0.650050
167.040268 -74.505066 0.000005 0.337530
168.136032 -75.158272 0.000004 0.344686
141.715866 -59.092617 11.745331 0.223529
141.692001 -59.078163 10.408818 0.223529
141.511627 -58.968933 9.122548 0.223529
141.331467 -58.859825 7.837753 0.223529
141.151138 -58.750610 6.551674 0.223529
140.668915 -58.458572 5.290433 0.980392
140.189606 -58.168293 3.998964 0.968627
139.995514 -58.050739 2.669559 0.968627
139.799438 -57.931999 1.326690 0.968627
140.171524 -58.157341 -0.000004 0.542199
154.130554 -66.611160 -0.000001 0.531182
161.610687 -71.141251 0.199991 0.711818
164.614777 -72.960571 0.199993 0.728344
165.912979 -73.746780 0.068181 0.708721
167.073563 -74.449646 0.000005 0.340185
168.164734 -75.110489 0.000004 0.333684
141.878540 -58.873802 11.739108 0.223529
141.696869 -58.762039 10.443495 0.223529
140.933365 -58.292336 9.276501 0.968627
140.718918 -58.160408 7.969365 0.968627
140.503845 -58.028095 6.658540 0.968627
140.668884 -58.129631 5.304487 0.980392
140.190857 -57.835537 4.007430 0.968627
139.995926 -57.715622 2.672411 0.968627
139.799011 -57.594482 1.323807 0.968627
140.319611 -57.914749 -0.000004 0.543816
154.219284 -66.465813 -0.000002 0.528008
161.667603 -71.048012 0.199991 0.746929
164.658920 -72.888260 0.199993 0.682765
166.054428 -73.746780 0.090150 0.668574
167.107239 -74.394470 0.000005 0.336965
168.193787 -75.062912 0.000005 0.331334
nan nan nan 0.000000
138.776276 -56.615242 11.223927 0.223529
140.938370 -57.966255 9.306992 0.968627
140.723053 -57.831707 7.994537 0.968627
140.507095 -57.696762 6.678307 0.968627
140.290054 -57.561142 5.355450 0.968627
140.192108 -57.499931 4.016066 0.968627
139.996353 -57.377621 2.675319 0.968627
139.798584 -57.254044 1.320864 0.968627
140.469376 -57.673187 -0.000004 0.543877
154.309021 -66.321083 -0.000002 0.537743
161.725159 -70.955170 0.199992 0.703136
164.703552 -72.816261 0.199993 0.738476
166.192703 -73.746780 0.111534 0.782040
167.141312 -74.339523 0.000005 0.336172
168.223160 -75.015533 0.000004 0.342275
nan nan nan 0.000000
138.776230 -56.262085 11.264582 0.223529
140.943466 -57.637447 9.338089 0.968627
140.727264 -57.500240 8.020208 0.968627
140.510406 -57.362625 6.698470 0.968627
140.292450 -57.224304 5.370001 0.968627
140.193390 -57.161438 4.024873 0.968627
139.996796 -57.036674 2.678286 0.968627
139.798157 -56.910618 1.317864 0.968627
140.620819 -57.432693 -0.000004 0.536980
154.399750 -66.176987 -0.000002 0.534295
161.783371 -70.862747 0.199992 0.711803
164.748688 -72.744576 0.199993 0.725963
166.327927 -73.746780 0.132355 0.673961
167.175751 -74.284821 0.000005 0.334981
168.252853 -74.968369 0.000004 0.343786
nan nan nan 0.000000
138.776169 -55.905785 11.306054 0.223529
140.948669 -57.305855 9.369799 0.968627
140.731567 -57.165939 8.046389 0.968627
140.513779 -57.025585 6.719033 0.968627
140.294876 -56.884518 5.384844 0.968627
140.194702 -56.819954 4.033857 0.968627
139.997238 -56.692703 2.681313 0.968627
139.797699 -56.564114 1.314803 0.968627
140.773956 -57.193260 -0.000004 0.541604
154.491501 -66.033539 -0.000002 0.549661
161.842224 -70.770721 0.199992 0.703975
164.794342 -72.673210 0.199993 0.690333
166.460220 -73.746780 0.152632 0.671839
167.210587 -74.230362 0.000005 0.339925
168.282898 -74.921410 0.000004 0.335378
nan nan nan 0.000000
138.776093 -55.546249 11.348360 0.223529
140.953979 -56.971397 9.402133 0.968627
140.735931 -56.828728 8.073088 0.968627
140.517227 -56.685600 6.740002 0.968627
140.297363 -56.541733 5.399982 0.968627
140.196030 -56.475426 4.043021 0.968627
139.997681 -56.345627 2.684400 0.968627
139.797241 -56.214470 1.311681 0.968627
140.928741 -56.954895 -0.000004 0.538231
154.584229 -65.890717 -0.000002 0.544411
160.447037 -69.727196 -0.000001 0.525841
164.840485 -72.602158 0.199993 0.670741
166.589661 -73.746780 0.172386 0.746227
167.245789 -74.176140 0.000005 0.333318
168.313248 -74.874657 0.000004 0.338430
nan nan nan 0.000000
138.776031 -55.183411 11.391512 0.223529
140.959381 -56.634018 9.435104 0.968627
140.740417 -56.488541 8.100311 0.968627
140.520737 -56.342587 6.761386 0.968627
140.299911 -56.195869 5.415417 0.968627
140.197403 -56.127766 4.052367 0.968627
139.998154 -55.995384 2.687547 0.968627
139.796799 -55.861603 1.308496 0.968627
141.085205 -56.717613 -0.000003 0.536583
154.677979 -65.748558 -0.000001 0.539849
160.513855 -69.625870 -0.000001 0.538521
164.887115 -72.531433 0.199993 0.682628
166.716370 -73.746780 0.191635 0.740948
167.281387 -74.122169 0.000005 0.341268
168.343933 -74.828125 0.000004 0.328893
nan nan nan 0.000000
138.775955 -54.817200 11.435522 0.223529
140.964905 -56.293648 9.468723 0.968627
140.744965 -56.145302 8.128074 0.968627
140.524323 -55.996475 6.783195 0.968627
140.302490 -55.846848 5.431163 0.968627
140.198792 -55.776905 4.061898 0.968627
139.998627 -55.641888 2.690760 0.968627
139.796326 -55.505440 1.305247 0.968627
141.243317 -56.481445 -0.000003 0.534676
154.772705 -65.607056 -0.000001 0.549767
160.581375 -69.525017 0.000000 0.534249
164.934235 -72.461037 0.199993 0.738674
166.793060 -73.714813 0.199994 0.718822
167.317337 -74.068451 0.000005 0.325154
168.374939 -74.781799 0.000004 0.344228
nan nan nan 0.000000
138.775879 -54.447514 11.480414 0.223529
140.970520 -55.950195 9.503004 0.968627
140.749603 -55.798939 8.156384 0.968627
140.527969 -55.647179 6.805433 0.968627
140.305115 -55.494595 5.447219 0.968627
140.200211 -55.422760 4.071620 0.968627
139.999100 -55.285057 2.694036 0.968627
140.053818 -55.322525 1.307050 0.223529
141.403076 -56.246368 -0.000003 0.545541
154.868423 -65.466217 -0.000001 0.533364
160.649597 -69.424629 -0.000000 0.545113
164.981857 -72.390968 0.199993 0.678935
166.831879 -73.657692 0.199994 0.728542
167.391861 -74.041122 0.010000 1.000000
168.406281 -74.735695 0.000004 0.340383
nan nan nan 0.000000
nan nan nan 0.000000
140.976257 -55.603615 9.537954 0.968627
140.754333 -55.449379 8.185249 0.968627
140.531677 -55.294632 6.828112 0.968627
140.568604 -55.320297 5.437550 0.223529
140.569672 -55.321041 4.059517 0.223529
140.570755 -55.321785 2.685993 0.223529
140.416290 -55.214432 1.310928 0.223529
141.564453 -56.012421 -0.000004 0.538567
154.965118 -65.326050 -0.000001 0.549767
160.718506 -69.324722 -0.000001 0.547616
165.029953 -72.321236 0.199993 0.696727
166.871094 -73.600845 0.199994 0.666377
167.428375 -73.988167 0.009996 1.000000
168.437927 -74.689812 0.000004 0.347265
nan nan nan 0.000000
nan nan nan 0.000000
140.982101 -55.253807 9.573591 0.968627
141.074280 -55.318825 8.157480 0.223529
141.075348 -55.319580 6.775232 0.223529
140.991333 -55.260323 5.411978 0.223529
140.801147 -55.126160 4.055693 0.223529
140.609467 -54.990940 2.688580 0.223529
139.794846 -54.416294 1.295107 0.968627
141.727478 -55.779598 -0.000004 0.537621
155.062790 -65.186554 -0.000001 0.542412
160.788132 -69.225304 -0.000001 0.541939
165.078552 -72.251839 0.199993 0.738369
166.910706 -73.544273 0.199994 0.724300
167.465256 -73.935455 0.009991 1.000000
168.469894 -74.644150 0.000004 0.335851
nan nan nan 0.000000
141.570068 -55.317375 10.878274 0.223529
141.561981 -55.311573 9.481499 0.223529
141.372971 -55.176258 8.133615 0.223529
141.183685 -55.040741 6.783656 0.223529
140.993683 -54.904720 5.428711 0.223529
140.204636 -54.339825 4.101959 0.968627
140.000595 -54.193741 2.704259 0.968627
139.794342 -54.046074 1.291590 0.968627
141.892105 -55.547920 -0.000004 0.542077
155.161438 -65.047752 -0.000001 0.552132
160.858429 -69.126373 -0.000000 0.529183
165.127625 -72.182785 0.199993 0.704402
166.950714 -73.487976 0.199995 0.672343
167.464920 -73.856110 0.000005 0.339254
168.502182 -74.598717 0.000004 0.336400
nan nan nan 0.000000
141.757111 -55.098534 10.873162 0.223529
141.567093 -54.960487 9.518110 0.223529
140.769119 -54.380726 8.275293 0.968627
140.543304 -54.216656 6.898863 0.968627
140.316193 -54.051666 5.514683 0.968627
140.206177 -53.971733 4.112474 0.968627
140.001114 -53.822739 2.707803 0.968627
139.793823 -53.672131 1.288004 0.968627
142.058350 -55.317406 -0.000004 0.545785
155.261047 -64.909637 -0.000001 0.533455
160.929428 -69.027931 -0.000000 0.548058
165.177185 -72.114075 0.199993 0.684993
166.991119 -73.431961 0.199994 0.719997
167.502731 -73.803673 0.000005 0.338384
168.534790 -74.553505 0.000004 0.315404
nan nan nan 0.000000
138.695450 -52.484970 11.740153 0.223529
141.000336 -54.184265 9.684742 0.968627
140.774231 -54.017570 8.306498 0.968627
140.547333 -53.850281 6.923382 0.968627
140.319107 -53.682022 5.532391 0.968627
140.207748 -53.599922 4.123200 0.968627
140.001648 -53.447968 2.711419 0.968627
139.793274 -53.294346 1.284345 0.968627
142.226227 -55.088058 -0.000004 0.541085
155.361618 -64.772224 -0.000001 0.544442
161.001114 -68.929993 -0.000000 0.521294
165.227203 -72.045708 0.199992 0.715023
167.031906 -73.376236 0.199994 0.707652
167.540924 -73.751511 0.000005 0.335058
168.567719 -74.508522 0.000004 0.350622
nan nan nan 0.000000
138.775360 -52.151558 11.769234 0.223529
141.056107 -53.857761 9.712019 0.971145
140.779465 -53.650806 8.338312 0.968627
140.551437 -53.480225 6.948384 0.968627
140.322067 -53.308640 5.550450 0.968627
140.209335 -53.224300 4.134140 0.968627
140.002182 -53.069332 2.715105 0.968627
139.792725 -52.912643 1.280614 0.968627
142.395676 -54.859882 -0.000004 0.545602
155.463150 -64.635521 -0.000001 0.533684
161.073471 -68.832550 -0.000001 0.569238
165.277725 -71.977699 0.199992 0.704021
167.073074 -73.320786 0.199994 0.694270
167.642502 -73.746773 0.017010 0.726406
168.600952 -74.463776 0.000003 0.317586
nan nan nan 0.000000
138.775269 -51.755051 11.820787 0.223529
141.232803 -53.620399 9.712335 0.965911
140.784790 -53.280342 8.370754 0.968627
140.555618 -53.106392 6.973883 0.968627
140.325089 -52.931419 5.568866 0.968627
140.210968 -52.844791 4.145297 0.968627
140.002731 -52.686729 2.718867 0.968627
139.792175 -52.526920 1.276809 0.968627
142.566742 -54.632904 -0.000003 0.538369
155.565628 -64.499519 -0.000001 0.545373
161.146530 -68.735619 0.000000 0.523293
165.328705 -71.910042 0.199992 0.732921
167.114639 -73.265633 0.199994 0.726345
167.748520 -73.746773 0.035297 0.672206
168.634491 -74.419258 0.000004 0.337942
nan nan nan 0.000000
138.775177 -51.354324 11.873369 0.223529
141.411148 -53.384270 9.712652 0.967468
140.790207 -52.906090 8.403833 0.968627
140.559875 -52.728714 6.999883 0.968627
140.328186 -52.550289 5.587646 0.968627
140.212631 -52.461296 4.156674 0.968627
140.003296 -52.300087 2.722703 0.968627
139.791626 -52.137077 1.272926 0.968627
142.739349 -54.407120 -0.000003 0.543084
155.669052 -64.364243 -0.000001 0.524559
161.220245 -68.639206 0.000000 0.523491
165.380157 -71.842743 0.199993 0.698375
167.156586 -73.210770 0.199995 0.675410
167.852600 -73.746773 0.053155 0.630579
168.668350 -74.374977 0.000004 0.329503
nan nan nan 0.000000
nan nan nan 0.000000
141.393631 -52.995056 9.758577 0.956909
140.795746 -52.527946 8.437563 0.968627
140.564240 -52.347073 7.026396 0.968627
140.331329 -52.165100 5.606800 0.968627
140.214325 -52.073685 4.168281 0.968627
140.003860 -51.909260 2.726614 0.968627
139.791046 -51.742989 1.268966 0.968627
142.913559 -54.182541 -0.000003 0.544289
155.773422 -64.229691 -0.000001 0.533532
161.294632 -68.543297 -0.000001 0.533471
165.432083 -71.775803 0.199992 0.703120
167.198914 -73.156197 0.199995 0.740307
167.954834 -73.746780 0.070602 0.703288
168.702515 -74.330933 0.000004 0.333364
nan nan nan 0.000000
nan nan nan 0.000000
141.393555 -52.615162 9.801332 0.968627
140.801392 -52.145813 8.471958 0.968627
140.568680 -51.961372 7.053434 0.968627
140.334534 -51.775791 5.626333 0.968627
140.216049 -51.681885 4.180116 0.968627
140.235504 -51.697300 2.725781 0.223529
140.236511 -51.698105 1.274240 0.223529
143.089325 -53.959190 -0.000003 0.538506
155.878723 -64.095871 -0.000001 0.539254
161.369690 -68.447914 -0.000000 0.527993
165.484467 -71.709229 0.199992 0.668162
167.241623 -73.101921 0.199994 0.673060
168.055237 -73.746780 0.087644 0.667399
168.736984 -74.287125 0.000004 0.346303
nan nan nan 0.000000
nan nan nan 0.000000
141.393478 -52.231026 9.844950 0.964492
140.807144 -51.759598 8.507034 0.968627
140.573196 -51.571503 7.081008 0.968627
140.727753 -51.695770 5.605230 0.223529
140.728729 -51.696564 4.159983 0.223529
140.614090 -51.604382 2.721887 0.223529
140.411057 -51.441147 1.273850 0.223529
143.266617 -53.737057 -0.000004 0.543557
155.984955 -63.962788 -0.000001 0.542168
161.445404 -68.353058 -0.000000 0.538613
165.537323 -71.643021 0.199992 0.736004
167.284714 -73.047951 0.199995 0.751751
168.153885 -73.746780 0.104295 0.739940
168.771759 -74.243561 0.000004 0.334768
nan nan nan 0.000000
nan nan nan 0.000000
141.393402 -51.842567 9.889442 0.980026
141.211533 -51.694237 8.466517 0.223529
141.212509 -51.695030 7.014908 0.223529
141.016998 -51.535576 5.595064 0.223529
140.816711 -51.372234 4.166651 0.223529
140.005646 -50.710747 2.738827 0.968627
139.789246 -50.534256 1.256602 0.968627
143.445480 -53.516186 -0.000004 0.536568
156.092133 -63.830452 -0.000001 0.530449
161.521790 -68.258743 0.000000 0.532265
165.590637 -71.577187 0.199993 0.738689
167.328171 -72.994278 0.199995 0.665248
168.250839 -73.746780 0.120568 0.738811
168.806839 -74.200241 0.000004 0.342550
nan nan nan 0.000000
141.687134 -51.692703 11.336174 0.223529
141.618073 -51.635574 9.881758 0.223529
141.419250 -51.471081 8.463719 0.223529
141.219971 -51.306236 7.042634 0.223529
140.344543 -50.582020 5.687299 0.968627
140.221436 -50.480179 4.217065 0.968627
140.006256 -50.302170 2.743064 0.968627
139.788620 -50.122124 1.252314 0.968627
143.625885 -53.296555 -0.000004 0.538170
156.200211 -63.698868 -0.000001 0.523934
161.598831 -68.164955 0.000000 0.522911
165.644409 -71.511719 0.199993 0.667628
167.372009 -72.940910 0.199994 0.744442
168.346146 -73.746780 0.136475 0.674525
168.842224 -74.157166 0.000004 0.346868
nan nan nan 0.000000
141.824234 -51.413799 11.351984 0.223529
141.393250 -51.052155 9.981142 0.975158
140.825089 -50.575424 8.616476 0.968627
140.587311 -50.375908 7.167059 0.968627
140.348007 -50.175110 5.708438 0.968627
140.223312 -50.070473 4.229878 0.968627
140.006897 -49.888878 2.747385 0.968627
139.787994 -49.705200 1.247939 0.968627
143.807831 -53.078217 -0.000003 0.539391
156.309204 -63.568039 -0.000001 0.534157
161.676514 -68.071709 -0.000000 0.532052
165.698639 -71.446640 0.199993 0.752468
167.416214 -72.887848 0.199994 0.681956
168.439850 -73.746780 0.152025 0.655589
168.877899 -74.114342 0.000004 0.347967
nan nan nan 0.000000
nan nan nan 0.000000
141.393158 -50.649982 10.028386 0.980392
140.831329 -50.171822 8.654413 0.968627
140.592209 -49.968323 7.196895 0.968627
140.351547 -49.763508 5.730000 0.968627
140.225220 -49.655991 4.242949 0.968627
140.007523 -49.470722 2.751793 0.968627
139.787338 -49.283325 1.243475 0.968627
143.991272 -52.861130 -0.000002 0.538140
156.419128 -63.437977 -0.000001 0.546105
161.754852 -67.979004 0.000000 0.543709
165.753311 -71.381935 0.199993 0.724315
167.460800 -72.835098 0.199995 0.748837
168.532028 -73.746780 0.167229 0.680217
168.944275 -74.097633 0.010000 1.000000
nan nan nan 0.000000
nan nan nan 0.000000
141.393082 -50.242996 10.076589 0.979385
140.837662 -49.763573 8.693108 0.968627
140.597198 -49.556015 7.227325 0.968627
140.355164 -49.347092 5.751996 0.968627
140.227158 -49.236610 4.256285 0.968627
140.008194 -49.047600 2.756291 0.968627
139.786682 -48.856392 1.238920 0.968627
144.176239 -52.645332 -0.000003 0.533806
156.529938 -63.308678 -0.000001 0.542687
161.833832 -67.886848 -0.000000 0.541985
165.808441 -71.317612 0.199993 0.738460
167.505737 -72.782661 0.199995 0.662318
168.622696 -73.746780 0.182097 0.728649
168.980362 -74.055519 0.010000 1.000000
nan nan nan 0.000000
nan nan nan 0.000000
141.393005 -49.831085 10.125772 0.968627
140.844147 -49.350601 8.732573 0.968627
140.602295 -49.138878 7.258369 0.968627
140.358856 -48.925758 5.774434 0.968627
140.229156 -48.812218 4.269889 0.968627
140.008865 -48.619370 2.760880 0.968627
139.785980 -48.424263 1.234272 0.968627
144.362686 -52.430824 -0.000003 0.533471
156.641663 -63.180168 -0.000001 0.541955
161.913467 -67.795250 -0.000001 0.547997
165.864029 -71.253677 0.199993 0.758083
167.551056 -72.730545 0.199995 0.716838
168.711899 -73.746780 0.196638 0.746807
169.016754 -74.013657 0.010000 1.000000
nan nan nan 0.000000
nan nan nan 0.000000
141.392914 -49.414093 10.175960 0.958602
140.850754 -48.932732 8.772829 0.968627
140.607498 -48.716766 7.290032 0.968627
140.362610 -48.499344 5.797324 0.968627
140.231171 -48.382652 4.283771 0.968627
140.009537 -48.185879 2.765563 0.968627
139.785309 -47.986794 1.229530 0.968627
144.550644 -52.217636 -0.000003 0.543435
156.754272 -63.052437 -0.000000 0.544564
161.993729 -67.704208 0.000000 0.550729
165.920059 -71.190132 0.199994 0.693187
167.596725 -72.678741 0.199995 0.676005
168.762070 -73.713379 0.199996 0.693584
169.053406 -73.972038 0.009992 1.000000
nan nan nan 0.000000
nan nan nan 0.000000
141.392838 -48.991901 10.227174 0.980392
140.857483 -48.509872 8.813894 0.968627
140.612793 -48.289555 7.322336 0.968627
140.366440 -48.067738 5.820679 0.968627
140.233246 -47.947815 4.297933 0.968627
140.211090 -47.927868 2.765918 0.223529
140.212006 -47.928680 1.234101 0.223529
144.740097 -52.005768 -0.000003 0.540932
156.867767 -62.925491 -0.000000 0.540307
162.074631 -67.613724 0.000000 0.553338
165.976517 -71.126976 0.199994 0.746563
167.642746 -72.627251 0.199995 0.769604
168.800858 -73.669998 0.199996 0.684916
169.090378 -73.930695 0.009993 1.000000
nan nan nan 0.000000
nan nan nan 0.000000
141.392746 -48.564358 10.279443 0.975525
140.864349 -48.081875 8.855783 0.968627
140.618195 -47.857101 7.355292 0.968627
140.693909 -47.926239 5.808580 0.223529
140.694794 -47.927055 4.281822 0.223529
140.619751 -47.858521 2.761728 0.223529
140.405441 -47.662834 1.233524 0.223529
144.931000 -51.795204 -0.000003 0.545617
156.982162 -62.799339 -0.000000 0.538842
162.156158 -67.523819 0.000000 0.540597
166.033417 -71.064224 0.199994 0.741527
167.689148 -72.576088 0.199995 0.671000
168.839935 -73.626900 0.199996 0.718318
169.098190 -73.862717 0.000004 0.337530
nan nan nan 0.000000
nan nan nan 0.000000
141.392654 -48.131332 10.332786 0.980392
141.169418 -47.924622 8.838262 0.223529
141.170303 -47.925438 7.303217 0.223529
141.044907 -47.809315 5.793884 0.223529
140.833618 -47.613670 4.287221 0.223529
140.011673 -46.852543 2.780194 0.968627
139.783142 -46.640919 1.214709 0.968627
145.123383 -51.585999 -0.000003 0.543450
157.097412 -62.673992 -0.000001 0.537743
162.238312 -67.434471 -0.000000 0.547189
166.090775 -71.001862 0.199995 0.696376
167.735886 -72.525253 0.199995 0.697963
168.879318 -73.584068 0.199996 0.674876
169.135910 -73.821678 0.000003 0.341131
nan nan nan 0.000000
141.637848 -47.922997 11.882854 0.223529
141.638718 -47.923820 10.325792 0.223529
141.469467 -47.764893 8.821868 0.223529
141.259399 -47.567627 7.323795 0.223529
140.378418 -46.740322 5.893631 0.968627
140.239700 -46.610065 4.342186 0.968627
140.012421 -46.396637 2.785274 0.968627
139.782379 -46.180626 1.209563 0.968627
145.317215 -51.378128 -0.000003 0.540749
157.213547 -62.549446 -0.000001 0.542718
162.321075 -67.345703 -0.000000 0.537438
166.148544 -70.939903 0.199994 0.738964
167.782990 -72.474747 0.199995 0.671534
168.918991 -73.541519 0.199996 0.771695
169.173935 -73.780914 0.000003 0.337499
nan nan nan 0.000000
141.897018 -47.728699 11.871017 0.223529
141.686401 -47.528126 10.368959 0.223529
140.885803 -46.765739 8.986607 0.968627
140.635086 -46.526974 7.458236 0.968627
140.382568 -46.286510 5.918950 0.968627
140.241943 -46.152592 4.357548 0.968627
140.013168 -45.934738 2.790457 0.968627
139.781616 -45.714237 1.204310 0.968627
145.512497 -51.171631 -0.000003 0.539666
157.330551 -62.425732 -0.000000 0.534249
162.404480 -67.257530 0.000001 0.539818
166.206757 -70.878357 0.199995 0.680751
167.830444 -72.424568 0.199995 0.698466
168.958969 -73.499245 0.199996 0.661326
169.218903 -73.746773 0.002313 0.804822
nan nan nan 0.000000
nan nan nan 0.000000
nan nan nan 0.000000
140.893265 -46.315826 9.032002 0.968627
140.640945 -46.072166 7.493964 0.968627
140.386810 -45.826752 5.944793 0.968627
140.244232 -45.689068 4.373228 0.968627
140.013947 -45.466682 2.795749 0.968627
139.780838 -45.241573 1.198947 0.968627
145.709213 -50.966499 -0.000003 0.539712
157.448410 -62.302826 -0.000001 0.563088
162.488480 -67.169922 0.000000 0.548272
166.265381 -70.817207 0.199995 0.678752
167.878250 -72.374718 0.199995 0.676722
168.999252 -73.457245 0.199996 0.701991
169.299057 -73.746773 0.016804 0.667720
nan nan nan 0.000000
nan nan nan 0.000000
nan nan nan 0.000000
140.900864 -45.860054 9.078329 0.968627
140.646927 -45.611389 7.530425 0.968627
140.391129 -45.360897 5.971168 0.968627
140.246567 -45.219330 4.389235 0.968627
140.014740 -44.992302 2.801152 0.968627
140.068878 -45.045334 1.200088 0.223529
145.907349 -50.762737 -0.000003 0.541787
157.567123 -62.180744 -0.000001 0.541573
162.573090 -67.082909 -0.000000 0.550912
166.324448 -70.756477 0.199994 0.744610
167.926392 -72.325203 0.199995 0.710658
169.039810 -73.415535 0.199996 0.711406
169.378052 -73.746773 0.030991 0.684565
nan nan nan 0.000000
nan nan nan 0.000000
nan nan nan 0.000000
140.908615 -45.398273 9.125607 0.968627
140.653046 -45.144470 7.567642 0.968627
140.395554 -44.888779 5.998092 0.968627
140.551483 -45.043625 4.384628 0.223529
140.552338 -45.044476 2.794290 0.223529
140.401031 -44.894218 1.202222 0.223529
146.106934 -50.560379 -0.000002 0.542947
157.686691 -62.059494 -0.000001 0.555184
162.658310 -66.996490 0.000000 0.525505
165.427246 -69.746140 0.000001 0.515480
167.974884 -72.276031 0.199995 0.666239
169.080658 -73.374107 0.199996 0.667384
169.455948 -73.746773 0.044882 0.663890
nan nan nan 0.000000
nan nan nan 0.000000
nan nan nan 0.000000
nan nan nan 0.000000
nan nan nan 0.000000
nan nan nan 0.000000
nan nan nan 0.000000
nan nan nan 0.000000
nan nan nan 0.000000
203.680862 -108.133865 -0.000005 0.539086
192.181595 -96.554131 0.000000 0.520607
187.244553 -91.582535 0.000003 0.543694
184.494858 -88.813599 0.000011 0.542428
182.739441 -87.045898 0.000010 0.546181
181.519363 -85.817284 0.000010 0.456977
180.620468 -84.912094 0.000010 0.562188
nan nan nan 0.000000
nan nan nan 0.000000
nan nan nan 0.000000
nan nan nan 0.000000
nan nan nan 0.000000
nan nan nan 0.000000
nan nan nan 0.000000
nan nan nan 0.000000
nan nan nan 0.000000
203.478500 -108.333435 -0.000005 0.543023
192.060349 -96.673698 0.000000 0.591272
187.158142 -91.667763 0.000003 0.563882
184.427826 -88.879692 0.000011 0.560754
182.684799 -87.099777 0.000010 0.555352
181.473328 -85.862679 0.000010 0.564172
180.580780 -84.951233 0.000010 0.506935
nan nan nan 0.000000
nan nan nan 0.000000
nan nan nan 0.000000
nan nan nan 0.000000
nan nan nan 0.000000
nan nan nan 0.000000
nan nan nan 0.000000
nan nan nan 0.000000
nan nan nan 0.000000
203.274750 -108.531586 -0.000005 0.542702
191.938263 -96.792412 0.000001 0.534859
187.071121 -91.752373 0.000003 0.529091
184.360352 -88.945313 0.000011 0.551690
182.629791 -87.153275 0.000010 0.548974
181.426987 -85.907745 0.000010 0.534218
180.540817 -84.990097 0.000010 0.571527
nan nan nan 0.000000
nan nan nan 0.000000
nan nan nan 0.000000
nan nan nan 0.000000
nan nan nan 0.000000
nan nan nan 0.000000
nan nan nan 0.000000
nan nan nan 0.000000
nan nan nan 0.000000
203.069611 -108.728302 -0.000005 0.543832
191.815369 -96.910278 0.000000 0.523003
186.983521 -91.836380 0.000003 0.552682
184.292419 -89.010460 0.000011 0.533623
182.574402 -87.206390 0.000010 0.544320
181.380325 -85.952492 0.000010 0.565713
180.500580 -85.028671 0.000010 0.577218
nan nan nan 0.000000
nan nan nan 0.000000
nan nan nan 0.000000
nan nan nan 0.000000
nan nan nan 0.000000
nan nan nan 0.000000
nan nan nan 0.000000
nan nan nan 0.000000
nan nan nan 0.000000
202.863098 -108.923576 -0.000005 0.539849
191.691635 -97.027275 0.000000 0.536873
186.895340 -91.919777 0.000003 0.511986
184.224060 -89.075172 0.000004 0.535134
182.518646 -87.259117 0.000011 0.553414
181.333359 -85.996910 0.000010 0.499519
180.460083 -85.066978 0.000010 0.478996
nan nan nan 0.000000
nan nan nan 0.000000
nan nan nan 0.000000
nan nan nan 0.000000
nan nan nan 0.000000
nan nan nan 0.000000
nan nan nan 0.000000
nan nan nan 0.000000
nan nan nan 0.000000
202.655243 -109.117416 -0.000005 0.542275
191.567108 -97.143417 0.000000 0.544106
186.806580 -92.002556 0.000002 0.545403
184.155212 -89.139366 0.000004 0.546807
182.462540 -87.311447 0.000010 0.530663
181.286072 -86.041000 0.000010 0.576486
180.419312 -85.104988 0.000010 0.556008
nan nan nan 0.000000
nan nan nan 0.000000
nan nan nan 0.000000
nan nan nan 0.000000
nan nan nan 0.000000
nan nan nan 0.000000
nan nan nan 0.000000
nan nan nan 0.000000
nan nan nan 0.000000
202.446030 -109.309799 -0.000006 0.540276
191.441757 -97.258675 0.000000 0.541253
186.717239 -92.084702 0.000003 0.565347
184.085938 -89.203079 0.000004 0.549554
182.406052 -87.363388 0.000011 0.557519
181.238495 -86.084763 0.000010 0.544640
180.378281 -85.142723 0.000010 0.514260
nan nan nan 0.000000
nan nan nan 0.000000
nan nan nan 0.000000
nan nan nan 0.000000
nan nan nan 0.000000
nan nan nan 0.000000
nan nan nan 0.000000
nan nan nan 0.000000
nan nan nan 0.000000
202.235489 -109.500710 -0.000006 0.546746
191.315613 -97.373055 0.000001 0.545296
186.627319 -92.166229 0.000002 0.515465
184.016205 -89.266312 0.000004 0.607538
182.349197 -87.414932 0.000010 0.561120
181.190598 -86.128181 0.000010 0.528618
180.336990 -85.180161 0.000010 0.541604
nan nan nan 0.000000
nan nan nan 0.000000
nan nan nan 0.000000
nan nan nan 0.000000
nan nan nan 0.000000
nan nan nan 0.000000
nan nan nan 0.000000
nan nan nan 0.000000
nan nan nan 0.000000
202.023605 -109.690155 -0.000005 0.538506
191.188660 -97.486557 0.000000 0.539757
186.536850 -92.247131 0.000002 0.540124
183.946030 -89.329048 0.000004 0.553384
182.291992 -87.466080 0.000010 0.558450
181.142410 -86.171272 0.000010 0.566125
180.295441 -85.217316 0.000010 0.537575
nan nan nan 0.000000
nan nan nan 0.000000
nan nan nan 0.000000
nan nan nan 0.000000
nan nan nan 0.000000
nan nan nan 0.000000
nan nan nan 0.000000
nan nan nan 0.000000
nan nan nan 0.000000
201.810410 -109.878113 -0.000005 0.539376
191.060944 -97.599182 0.000000 0.537621
186.445801 -92.327400 0.000002 0.541451
183.875427 -89.391296 0.000004 0.509010
182.234436 -87.516830 0.000011 0.506874
181.093918 -86.214027 0.000010 0.546593
180.253632 -85.254181 0.000010 0.515084
nan nan nan 0.000000
nan nan nan 0.000000
nan nan nan 0.000000
nan nan nan 0.000000
nan nan nan 0.000000
nan nan nan 0.000000
nan nan nan 0.000000
nan nan nan 0.000000
nan nan nan 0.000000
201.595917 -110.064560 -0.000005 0.539025
190.932419 -97.710899 -0.000000 0.568399
186.354202 -92.407021 0.000002 0.507683
183.804382 -89.453049 0.000004 0.557931
182.176529 -87.567169 0.000010 0.521645
181.045120 -86.256439 0.000010 0.584237
180.211563 -85.290749 0.000009 0.531731
nan nan nan 0.000000
nan nan nan 0.000000
nan nan nan 0.000000
nan nan nan 0.000000
nan nan nan 0.000000
nan nan nan 0.000000
nan nan nan 0.000000
nan nan nan 0.000000
nan nan nan 0.000000
201.380112 -110.249535 -0.000005 0.546990
190.803131 -97.821716 -0.000000 0.531060
186.262054 -92.486008 0.000003 0.538979
183.732910 -89.514305 0.000004 0.560128
182.118256 -87.617111 0.000011 0.543893
180.996033 -86.298508 0.000010 0.559579
180.169235 -85.327026 0.000009 0.554208
nan nan nan 0.000000
nan nan nan 0.000000
nan nan nan 0.000000
nan nan nan 0.000000
nan nan nan 0.000000
nan nan nan 0.000000
nan nan nan 0.000000
nan nan nan 0.000000
nan nan nan 0.000000
201.163025 -110.432983 -0.000005 0.535317
190.673065 -97.931625 0.000000 0.537423
186.169342 -92.564346 0.000002 0.525170
183.661026 -89.575066 0.000004 0.512001
182.059647 -87.666641 0.000010 0.532723
180.946655 -86.340240 0.000010 0.535897
180.126663 -85.363007 0.000010 0.547280
nan nan nan 0.000000
nan nan nan 0.000000
nan nan nan 0.000000
nan nan nan 0.000000
nan nan nan 0.000000
nan nan nan 0.000000
nan nan nan 0.000000
nan nan nan 0.000000
nan nan nan 0.000000
200.944687 -110.614922 -0.000006 0.545953
190.542236 -98.040619 -0.000000 0.543038
186.076111 -92.642036 0.000002 0.532296
183.588715 -89.635315 0.000003 0.536629
182.000702 -87.715759 0.000010 0.543572
180.896988 -86.381622 0.000009 0.554009
180.083832 -85.398689 0.000010 0.582208
nan nan nan 0.000000
nan nan nan 0.000000
nan nan nan 0.000000
nan nan nan 0.000000
nan nan nan 0.000000
nan nan nan 0.000000
nan nan nan 0.000000
nan nan nan 0.000000
nan nan nan 0.000000
200.725067 -110.795326 -0.000006 0.539269
190.410660 -98.148712 -0.000000 0.533028
185.982315 -92.719078 0.000002 0.531853
183.515976 -89.695061 0.000004 0.540322
181.941406 -87.764465 0.000010 0.526970
180.847031 -86.422653 0.000010 0.527825
180.040756 -85.434067 0.000010 0.493599
nan nan nan 0.000000
nan nan nan 0.000000
nan nan nan 0.000000
nan nan nan 0.000000
nan nan nan 0.000000
nan nan nan 0.000000
nan nan nan 0.000000
nan nan nan 0.000000
nan nan nan 0.000000
200.504196 -110.974190 -0.000006 0.541909
190.278320 -98.255875 0.000000 0.548760
185.888000 -92.795464 0.000002 0.551781
183.442825 -89.754303 0.000004 0.503883
181.881775 -87.812759 0.000010 0.541405
180.796799 -86.463333 0.000010 0.532616
179.997437 -85.469147 0.000009 0.548058
nan nan nan 0.000000
