# This PCD file was generated using the MATLABÂ® pcwrite function
# from Computer Vision ToolboxÂ®.
# .PCD v.7 - Point Cloud Data file format
VERSION .7
FIELDS x y z intensity
SIZE 4 4 4 4
TYPE F F F F
COUNT 1 1 1 1
WIDTH 1234
HEIGHT 1
VIEWPOINT 0 0 0 1 0 0 0
POINTS 1234
DATA ascii
-44.404137 -117.908707 14.015449 0.622278
-45.666275 -119.099716 12.438417 0.678431
-45.666279 -119.099716 10.509705 0.678431
-44.589058 -118.083206 8.429241 0.767727
-45.666279 -119.099716 6.703890 0.678431
-45.666275 -119.099716 4.818297 0.678431
-44.367802 -117.874420 2.909547 0.585138
-45.666283 -119.099716 1.061239 0.678431
-33.551693 -107.667885 -0.000001 0.542306
-21.682293 -96.467430 0.000032 0.338888
-16.586658 -91.658981 0.000012 0.338338
-13.748649 -88.980911 -0.000007 0.341848
-11.936668 -87.271057 0.000012 0.337148
-10.677394 -86.082748 -0.000004 0.330785
-9.749555 -85.207207 0.000002 0.346303
nan nan nan 0.000000
-44.415985 -117.389198 13.940596 0.749966
-44.470463 -117.439896 12.073138 0.678431
-44.470478 -117.439911 10.211920 0.678431
-44.415962 -117.389183 8.360119 0.737057
-44.470467 -117.439903 6.539280 0.678431
-44.470470 -117.439903 4.719674 0.678431
-44.411022 -117.384583 2.904582 0.773373
-44.470478 -117.439911 1.094089 0.678431
-33.746029 -107.460495 -0.000001 0.544442
-21.798782 -96.343231 0.000026 0.339544
-16.669664 -91.570427 0.000009 0.336187
-13.813000 -88.912216 -0.000005 0.336324
-11.989149 -87.215073 0.000009 0.341253
-10.721601 -86.035583 -0.000005 0.342672
-9.787672 -85.166534 0.000001 0.340566
nan nan nan 0.000000
-44.470470 -116.915375 13.879786 0.678431
-44.470467 -116.915375 12.008366 0.694896
-44.470474 -116.915375 10.159115 0.678431
-44.467915 -116.913040 8.327334 0.128374
-44.470478 -116.915390 6.510093 0.678431
-44.470470 -116.915375 4.702186 0.678431
-44.417210 -116.866501 2.898902 0.774060
-44.470474 -116.915375 1.099914 0.678431
-33.938923 -107.251762 -0.000001 0.538903
-21.914640 -96.218430 -0.000007 0.337331
-16.752037 -91.481293 0.000008 0.335958
-13.876870 -88.843079 -0.000003 0.333318
-12.041240 -87.158722 0.000006 0.336706
-10.765479 -85.988106 -0.000006 0.344427
-9.825510 -85.125603 -0.000002 0.324086
nan nan nan 0.000000
-44.470467 -116.397507 13.804452 0.678431
-44.415977 -116.348213 11.931530 0.760388
-44.470478 -116.397522 10.107376 0.678431
-44.470478 -116.397522 8.287609 0.678431
-44.470474 -116.397522 6.481493 0.684321
-44.470470 -116.397514 4.685050 0.678431
-44.423264 -116.354805 2.893337 0.774914
-44.470474 -116.397522 1.105622 0.678431
-34.130341 -107.041664 -0.000001 0.535851
-22.029390 -96.092613 -0.000013 0.336446
-16.833832 -91.391624 0.000001 0.339315
-13.940256 -88.773491 -0.000000 0.336019
-12.092932 -87.102013 0.000004 0.336782
-10.809023 -85.940323 -0.000006 0.333043
-9.863056 -85.084396 -0.000003 0.338186
-43.306999 -114.848129 15.214314 0.631037
-44.470467 -115.886162 13.730639 0.678431
-44.415989 -115.837555 11.869433 0.736553
-44.470478 -115.886169 10.056682 0.678431
-44.470482 -115.886169 8.248292 0.678431
-44.470478 -115.886169 6.453472 0.698344
-44.470474 -115.886169 4.668263 0.678431
-44.429214 -115.849358 2.887882 0.775662
-44.470478 -115.886169 1.111215 0.678431
-34.320293 -106.830254 -0.000001 0.538796
-22.143198 -95.965942 -0.000013 0.334127
-16.914927 -91.301323 0.000004 0.338689
-14.003154 -88.703461 0.000002 0.337072
-12.144232 -87.044945 0.000000 0.343389
-10.852234 -85.892235 -0.000008 0.341238
-9.900313 -85.042938 -0.000004 0.344244
-43.540771 -114.563255 15.210827 0.671565
-44.406227 -115.324623 13.639829 0.657282
-44.406254 -115.324646 11.806217 0.639094
-44.406250 -115.324646 9.994314 0.623850
-44.406246 -115.324638 8.199924 0.638209
-44.406250 -115.324646 6.418997 0.643534
-44.406246 -115.324638 4.647608 0.639246
-44.406281 -115.324669 2.881905 0.632898
-44.406155 -115.324554 1.118097 0.642863
-34.508766 -106.617523 -0.000001 0.537423
-22.256180 -95.838539 -0.000020 0.339605
-16.995394 -91.210457 0.000006 0.339666
-14.065570 -88.633003 0.000003 0.342245
-12.195129 -86.987518 -0.000002 0.336034
-10.895105 -85.843849 -0.000008 0.333837
-9.937275 -85.001213 -0.000003 0.342992
-43.827003 -114.324127 15.225415 0.674250
-44.405994 -114.826355 13.568993 0.635874
-44.406006 -114.826370 11.746534 0.662196
-44.405991 -114.826355 9.945658 0.623667
-44.405994 -114.826355 8.162189 0.630930
-44.405998 -114.826363 6.392102 0.639368
-44.405991 -114.826355 4.631493 0.633555
-44.405994 -114.826355 2.876538 0.656580
-44.405979 -114.826347 1.123462 0.650339
-34.695740 -106.403473 -0.000000 0.539010
-22.368217 -95.710297 -0.000021 0.339315
-17.075212 -91.119034 0.000011 0.336004
-14.127484 -88.562103 0.000005 0.337209
-12.245625 -86.929733 -0.000005 0.330800
-10.937638 -85.795158 -0.000009 0.340261
-9.973942 -84.959229 -0.000002 0.329946
-44.112717 -114.083458 15.240298 0.660853
-44.406731 -114.334915 13.499844 0.653239
-44.406898 -114.335060 11.688318 0.651789
-44.406891 -114.335052 9.898199 0.613947
-44.406891 -114.335052 8.125383 0.667964
-44.406891 -114.335052 6.365867 0.638300
-44.406895 -114.335052 4.615774 0.661997
-44.407005 -114.335152 2.871305 0.617807
-44.406734 -114.334915 1.128701 0.619211
-34.881233 -106.188126 -0.000001 0.540459
-22.386776 -95.502098 0.009968 1.000000
-17.154419 -91.027061 0.000012 0.334615
-14.188904 -88.490776 0.000007 0.336294
-12.295717 -86.871605 -0.000008 0.336828
-10.979832 -85.746178 -0.000009 0.333867
-10.010317 -84.916992 -0.000000 0.335882
-44.396858 -113.840355 15.255131 0.649485
-44.812786 -114.191086 13.546583 0.672358
-44.812824 -114.191116 11.727662 0.645319
-44.812748 -114.191055 9.930261 0.648981
-44.812679 -114.190994 8.150236 0.657115
-44.812637 -114.190964 6.383579 0.620981
-44.812630 -114.190948 4.626385 0.644709
-44.812634 -114.190956 2.874838 0.630945
-44.812733 -114.191040 1.125161 0.636667
-35.065205 -105.971481 -0.000001 0.536126
-22.496269 -95.372795 0.009988 1.000000
-17.232950 -90.934525 0.000016 0.335927
-14.249818 -88.419014 0.000010 0.334157
-12.345394 -86.813118 -0.000009 0.342184
-11.021683 -85.696907 -0.000010 0.333639
-10.046395 -84.874496 0.000001 0.330083
-44.683781 -113.598465 15.271340 0.652583
-45.396286 -114.190826 13.643171 0.624903
-45.396332 -114.190857 11.809040 0.624842
-45.396450 -114.190964 9.996637 0.627222
-45.396473 -114.190979 8.201729 0.646586
-45.396442 -114.190948 6.420281 0.645808
-45.396435 -114.190948 4.648376 0.628901
-45.396450 -114.190956 2.882162 0.621973
-45.396408 -114.190926 1.117839 0.626566
-35.247677 -105.753578 -0.000001 0.537682
-22.605062 -95.242897 0.009986 1.000000
-17.310839 -90.841446 0.000021 0.338918
-14.310245 -88.346840 0.000010 0.337423
-12.394660 -86.754288 -0.000010 0.337591
-11.063188 -85.647339 -0.000011 0.335729
-10.082173 -84.831757 0.000003 0.334279
-44.966721 -113.352127 15.286714 0.674556
-45.989826 -114.190697 13.742015 0.633158
-45.989868 -114.190735 11.892309 0.633127
-45.990101 -114.190918 10.064545 0.654566
-45.990154 -114.190964 8.254398 0.626017
-45.990128 -114.190941 6.457820 0.639765
-45.990108 -114.190926 4.670868 0.612772
-45.990147 -114.190956 2.889653 0.635172
-45.989994 -114.190834 1.110349 0.638117
-35.428596 -105.534393 -0.000001 0.539620
-22.807158 -95.189468 -0.000005 0.339117
-17.388098 -90.747841 0.000021 0.336767
-14.370155 -88.274246 0.000012 0.339757
-12.443512 -86.695107 -0.000011 0.325872
-11.104340 -85.597481 -0.000010 0.333333
-10.117656 -84.788765 0.000004 0.337285
-45.253521 -113.107773 15.303801 0.668818
-46.594357 -114.191208 13.843357 0.627985
-46.594376 -114.191223 11.977680 0.627649
-46.594135 -114.191025 10.134050 0.648280
-46.594048 -114.190948 8.308281 0.636530
-46.594025 -114.190933 6.496227 0.629526
-46.594006 -114.190918 4.693878 0.612406
-46.594059 -114.190964 2.897319 0.638727
-46.594330 -114.191177 1.102675 0.670298
-35.608009 -105.313950 -0.000001 0.542931
-22.914700 -95.057434 -0.000011 0.339071
-17.464745 -90.653732 0.000016 0.337041
-14.429556 -88.201225 0.000015 0.338170
-12.491950 -86.635590 -0.000011 0.338079
-11.145139 -85.547333 -0.000008 0.339025
-10.152839 -84.745529 0.000005 0.331426
nan nan nan 0.000000
-47.208675 -114.191116 13.946836 0.616480
-47.208683 -114.191116 12.064856 0.635111
-47.208511 -114.190979 10.205131 0.643122
-47.208454 -114.190941 8.363413 0.637034
-47.208439 -114.190926 6.535522 0.643244
-47.208416 -114.190903 4.717422 0.640436
-47.208504 -114.190979 2.905163 0.632609
-47.208725 -114.191154 1.094834 0.646235
-35.785854 -105.092262 -0.000001 0.542031
-23.021328 -94.924667 -0.000018 0.337255
-17.540710 -90.559082 0.000013 0.336583
-14.488457 -88.127808 0.000015 0.329595
-12.539966 -86.575729 -0.000010 0.338293
-11.185588 -85.496902 -0.000007 0.336339
-10.187715 -84.702049 0.000006 0.329183
nan nan nan 0.000000
-47.833893 -114.191055 14.052742 0.628885
-47.833904 -114.191063 12.154080 0.642237
-47.833797 -114.190979 10.277884 0.625483
-47.833736 -114.190926 8.419834 0.625162
-47.833717 -114.190918 6.575736 0.625620
-47.833702 -114.190903 4.741515 0.633051
-47.833778 -114.190964 2.913187 0.642649
-47.833988 -114.191132 1.086809 0.672892
-35.962170 -104.869339 -0.000001 0.542611
-23.126955 -94.791100 -0.000018 0.336675
-17.616032 -90.463913 0.000008 0.338231
-14.546874 -88.054001 0.000009 0.342229
-12.587568 -86.515549 -0.000010 0.335866
-11.225685 -85.446190 -0.000005 0.338888
-10.222289 -84.658325 0.000007 0.334524
nan nan nan 0.000000
-48.470360 -114.191010 14.161151 0.646891
-48.470333 -114.190994 12.245400 0.671794
-48.470295 -114.190964 10.352344 0.610880
-48.470226 -114.190910 8.477580 0.641108
-48.470215 -114.190903 6.616897 0.634989
-48.470196 -114.190887 4.766175 0.639292
-48.470291 -114.190964 2.921401 0.656413
-48.470493 -114.191116 1.078593 0.657649
-36.136909 -104.645187 -0.000001 0.540475
-23.231653 -94.656799 -0.000018 0.337407
-17.690664 -90.368195 0.000007 0.333639
-14.604720 -87.979744 0.000015 0.335698
-12.634746 -86.455025 -0.000010 0.335851
-11.265429 -85.395203 -0.000005 0.337377
-10.256557 -84.614357 0.000008 0.341329
nan nan nan 0.000000
-49.118412 -114.190979 14.272129 0.627665
-49.203056 -114.255554 12.358277 0.678431
-49.203045 -114.255539 10.444368 0.678431
-49.118336 -114.190918 8.536703 0.623301
-49.203053 -114.255539 6.667773 0.678431
-49.203056 -114.255547 4.796659 0.678431
-49.118378 -114.190948 2.929810 0.627741
-49.118313 -114.190903 1.070190 0.636881
-36.310078 -104.419823 -0.000001 0.545022
-23.335196 -94.521606 0.000004 0.338231
-17.764637 -90.271973 0.000004 0.337713
-14.662080 -87.905113 0.000013 0.338003
-12.681500 -86.394180 -0.000010 0.332341
-11.304813 -85.343941 -0.000003 0.337591
-10.290520 -84.570160 0.000008 0.339559
nan nan nan 0.000000
-49.778450 -114.190948 14.385768 0.633753
-49.864357 -114.255539 12.454198 0.678431
-49.864349 -114.255539 10.522569 0.678431
-49.778412 -114.190918 8.597237 0.630564
-49.864346 -114.255539 6.710998 0.678431
-49.864361 -114.255547 4.822556 0.678431
-49.778446 -114.190948 2.938422 0.655711
-49.778469 -114.190964 1.061578 0.646464
-36.481667 -104.193245 -0.000001 0.539391
-23.437998 -94.385857 0.000005 0.338735
-17.837927 -90.175232 0.000002 0.338872
-14.718919 -87.830078 0.000011 0.336309
-12.727831 -86.333008 -0.000010 0.341176
-11.343841 -85.292397 -0.000001 0.336263
-10.324177 -84.525726 0.000008 0.329595
nan nan nan 0.000000
-50.450867 -114.190933 14.502148 0.635004
-50.501396 -114.228371 12.544129 0.789227
-50.501381 -114.228363 10.595881 0.773388
-50.450836 -114.190903 8.659227 0.632517
-50.501396 -114.228371 6.751525 0.787778
-50.501385 -114.228363 4.846838 0.773861
-50.450890 -114.190948 2.947240 0.640360
-50.450951 -114.190994 1.052758 0.647440
-36.651688 -103.965492 -0.000001 0.544656
-23.539864 -94.249405 0.000004 0.337774
-17.910553 -90.077988 -0.000002 0.335683
-14.775228 -87.754654 0.000011 0.337819
-12.773729 -86.271507 -0.000009 0.343008
-11.382504 -85.240585 0.000000 0.338247
-10.357524 -84.481056 0.000006 0.342626
nan nan nan 0.000000
-50.900375 -114.018784 14.558320 0.666362
-51.136078 -114.190910 12.633117 0.624720
-51.136082 -114.190910 10.668429 0.660624
-51.136078 -114.190910 8.722729 0.637598
-51.136082 -114.190910 6.791625 0.665888
-51.136097 -114.190918 4.870866 0.655482
-51.136101 -114.190926 2.956271 0.631464
-51.183369 -114.225449 1.042770 0.171069
-36.820103 -103.736549 -0.000001 0.545205
-23.640774 -94.112236 0.000004 0.337163
-17.912304 -89.928978 0.009994 1.000000
-14.831005 -87.678833 0.000010 0.337224
-12.819200 -86.209694 -0.000009 0.333867
-11.420807 -85.188507 0.000002 0.343084
-10.390558 -84.436157 0.000005 0.343008
nan nan nan 0.000000
-51.205864 -113.738510 14.576209 0.677806
-51.834549 -114.190918 12.736016 0.623667
-51.834545 -114.190918 10.752316 0.626245
-51.834549 -114.190918 8.787783 0.634440
-51.834549 -114.190918 6.837995 0.650629
-51.834572 -114.190933 4.898648 0.646082
-51.834549 -114.190918 2.965525 0.634928
-51.898163 -114.236694 1.033193 0.468254
-36.986912 -103.506439 -0.000001 0.538796
-23.740725 -93.974373 0.000003 0.338766
-18.053713 -89.881958 -0.000002 0.335119
-14.831543 -87.563255 0.010008 1.000000
-12.864237 -86.147568 -0.000008 0.335760
-11.458743 -85.136162 0.000004 0.338567
-10.423280 -84.391029 0.000004 0.335912
nan nan nan 0.000000
-51.562229 -113.492859 14.608003 0.670466
-52.637764 -114.255493 12.861771 0.678431
-52.637794 -114.255508 10.854840 0.678431
-52.546719 -114.190933 8.854452 0.626383
-52.637791 -114.255508 6.894668 0.695583
-52.637791 -114.255508 4.932601 0.678431
-52.546711 -114.190926 2.975008 0.648096
-52.546684 -114.190903 1.024992 0.652781
-37.152119 -103.275169 -0.000001 0.536904
-23.839718 -93.835815 0.000002 0.337774
-18.124260 -89.783195 -0.000002 0.337163
-14.885980 -87.487045 0.010008 1.000000
-12.908838 -86.085121 -0.000008 0.330571
-11.496316 -85.083549 0.000005 0.338994
-10.455683 -84.345680 0.000003 0.335561
nan nan nan 0.000000
-52.276127 -113.494469 14.734291 0.663935
-53.365440 -114.255493 12.970049 0.678431
-53.365425 -114.255478 10.943101 0.678431
-53.273067 -114.190948 8.922787 0.629877
-53.365437 -114.255486 6.943456 0.680537
-53.365429 -114.255478 4.961833 0.678431
-53.273052 -114.190948 2.984729 0.634836
-53.273029 -114.190933 1.015272 0.615396
-37.315704 -103.042747 -0.000001 0.545602
-23.937725 -93.696564 0.000002 0.337499
-18.194105 -89.683929 -0.000000 0.338521
-14.995151 -87.449066 0.000008 0.326696
-12.953004 -86.022369 -0.000008 0.335714
-11.533519 -85.030685 0.000006 0.345342
-10.487770 -84.300095 0.000001 0.343694
nan nan nan 0.000000
-54.023460 -114.197433 15.130931 0.670985
-54.097111 -114.248123 13.078688 0.129412
-54.028687 -114.201035 11.019346 0.755169
-54.014069 -114.190979 8.992840 0.661219
-54.097111 -114.248131 6.992414 0.129412
-54.097118 -114.248138 4.991166 0.129412
-54.014061 -114.190964 2.994692 0.637461
-54.014030 -114.190948 1.005307 0.634409
-37.477650 -102.809189 -0.000000 0.540444
-24.034752 -93.556625 0.000003 0.338582
-18.263201 -89.584152 0.000009 0.333974
-15.048784 -87.371712 0.000009 0.338964
-12.996730 -85.959312 -0.000007 0.340444
-11.570356 -84.977554 0.000007 0.333211
-10.519534 -84.254288 0.000001 0.335943
nan nan nan 0.000000
-54.672058 -114.124405 15.237704 0.648829
-54.770267 -114.190994 13.173961 0.660441
-54.770264 -114.190994 11.109340 0.654017
-54.770252 -114.190987 9.064672 0.656275
-54.770267 -114.190994 7.035347 0.644724
-54.770264 -114.190994 5.016887 0.642023
-54.770252 -114.190987 3.004910 0.627527
-54.770199 -114.190948 0.995090 0.645792
-37.637970 -102.574509 -0.000001 0.537575
-24.130798 -93.416016 0.000004 0.339727
-18.331652 -89.483925 0.000011 0.336049
-15.101871 -87.293983 0.000011 0.336797
-13.040017 -85.895950 -0.000007 0.334173
-11.606823 -84.924179 0.000007 0.345739
-10.550981 -84.208267 0.000000 0.333394
nan nan nan 0.000000
-54.986408 -113.819809 15.257298 0.660655
-55.542114 -114.190964 13.290475 0.625986
-55.542175 -114.191002 11.204337 0.630945
-55.542179 -114.191010 9.138346 0.632166
-55.542187 -114.191010 7.087859 0.622248
-55.542210 -114.191025 5.048352 0.613809
-55.542179 -114.191010 3.015390 0.632563
-55.542065 -114.190933 0.984611 0.624811
-37.796658 -102.338715 -0.000001 0.535592
-24.225748 -93.274658 0.000016 0.336599
-18.399376 -89.383202 0.000016 0.336751
-15.154437 -87.215897 0.000008 0.343603
-13.082863 -85.832283 -0.000008 0.338811
-11.642912 -84.870537 0.000008 0.339712
-10.582106 -84.162025 -0.000001 0.340734
nan nan nan 0.000000
-55.298382 -113.512100 15.276742 0.660807
-56.330273 -114.190933 13.410006 0.632654
-55.780037 -113.828964 11.204073 0.638193
-55.780052 -113.828964 9.138144 0.672862
-55.780060 -113.828979 7.087716 0.612955
-55.780067 -113.828979 5.048264 0.658091
-55.780067 -113.828979 3.015363 0.653300
-56.330231 -114.190903 0.973861 0.639689
-37.953686 -102.101814 -0.000001 0.542016
-24.319822 -93.132721 0.000017 0.339178
-18.466423 -89.282036 0.000018 0.335729
-15.206445 -87.137444 0.000008 0.339162
-13.125264 -85.768326 -0.000009 0.336324
-11.678627 -84.816650 0.000009 0.335729
-10.612908 -84.115562 -0.000002 0.340841
nan nan nan 0.000000
-55.606201 -113.200180 15.295582 0.640620
-57.135353 -114.190918 13.532666 0.647654
-55.780067 -113.312836 11.162222 0.645640
-55.780075 -113.312836 9.105684 0.618570
-55.780075 -113.312836 7.064580 0.618524
-55.780075 -113.312836 5.034401 0.656458
-55.780090 -113.312851 3.010744 0.626245
-57.135349 -114.190918 0.962829 0.652598
-38.109062 -101.863831 -0.000001 0.537377
-24.412922 -92.990143 0.000016 0.336980
-18.532736 -89.180382 0.000023 0.337362
-15.257904 -87.058624 0.000008 0.343511
-13.167216 -85.704079 -0.000010 0.334447
-11.713968 -84.762520 0.000009 0.332753
-10.643384 -84.068893 -0.000003 0.336126
nan nan nan 0.000000
nan nan nan 0.000000
-57.957970 -114.190895 13.658567 0.630793
-55.780083 -112.801338 11.121191 0.643793
-55.780090 -112.801338 9.073864 0.652796
-55.780087 -112.801346 7.041898 0.631556
-55.780109 -112.801346 5.020815 0.656519
-55.780106 -112.801346 3.006220 0.633783
-57.957996 -114.190910 0.951506 0.672267
-38.262783 -101.624771 -0.000002 0.541833
-24.505026 -92.846916 0.000015 0.337606
-18.598370 -89.078293 0.000023 0.339742
-15.308809 -86.979454 0.000008 0.330541
-13.208716 -85.639526 -0.000010 0.336339
-11.748925 -84.708138 0.000010 0.341207
-10.673531 -84.022003 -0.000004 0.346975
nan nan nan 0.000000
nan nan nan 0.000000
-58.901703 -114.255524 13.809943 0.678431
-55.780109 -112.294388 11.080967 0.644617
-55.780109 -112.294388 9.042669 0.646174
-55.780106 -112.294380 7.019664 0.637400
-55.780121 -112.294388 5.007493 0.643610
-55.780132 -112.294403 3.001781 0.641367
-55.979992 -112.419968 0.994356 0.645747
-38.414822 -101.384644 -0.000002 0.542214
-24.596247 -92.703125 0.000002 0.335897
-18.663294 -88.975746 0.000023 0.337499
-15.359173 -86.899933 0.000006 0.338018
-13.249769 -85.574699 -0.000010 0.340475
-11.783504 -84.653519 0.000011 0.331640
-10.703351 -83.974915 -0.000004 0.343023
nan nan nan 0.000000
nan nan nan 0.000000
-59.674965 -114.201027 13.924099 0.743313
-56.464592 -112.215233 11.160920 0.678431
-56.376507 -112.160751 9.092758 0.758450
-56.464596 -112.215240 7.063860 0.678431
-56.464596 -112.215240 5.033970 0.678431
-56.379425 -112.162552 3.008964 0.749752
-59.658695 -114.190964 0.927940 0.631830
-38.565174 -101.143456 -0.000002 0.544778
-24.686346 -92.558624 0.000000 0.339651
-18.727497 -88.872749 0.000023 0.337743
-15.408968 -86.820053 0.000006 0.333837
-13.290364 -85.509575 -0.000011 0.341817
-11.817702 -84.598656 0.000011 0.340169
-10.732841 -83.927605 -0.000004 0.341146
nan nan nan 0.000000
nan nan nan 0.000000
-60.537922 -114.190872 14.056957 0.656306
-57.293655 -112.215294 11.265740 0.678431
-57.223637 -112.172653 9.176535 0.759045
-57.293434 -112.215164 7.121779 0.678431
-57.293438 -112.215164 5.068673 0.678431
-57.223644 -112.172661 3.020823 0.701961
-60.538067 -114.190964 0.915675 0.629313
-38.713833 -100.901215 -0.000001 0.539681
-24.775433 -92.413506 -0.000001 0.336507
-18.790989 -88.769310 0.000023 0.338613
-15.458206 -86.739830 0.000005 0.333516
-13.330509 -85.444183 -0.000012 0.337728
-11.851517 -84.543556 0.000012 0.340597
-10.762001 -83.880104 -0.000005 0.325185
nan nan nan 0.000000
nan nan nan 0.000000
-61.437717 -114.190887 14.197092 0.635126
-58.141762 -112.215240 11.373415 0.678431
-58.070740 -112.172668 9.259945 0.745159
-58.141617 -112.215157 7.181306 0.678431
-58.141632 -112.215164 5.104337 0.678431
-58.070740 -112.172668 3.032689 0.741451
-61.437824 -114.190948 0.903074 0.634150
-38.860798 -100.657944 -0.000001 0.541924
-24.863497 -92.267761 -0.000001 0.337530
-18.853754 -88.665428 0.000023 0.333227
-15.506888 -86.659271 0.000004 0.330892
-13.370190 -85.378502 -0.000011 0.323919
-11.884948 -84.488220 0.000011 0.340963
-10.790830 -83.832390 -0.000006 0.344045
nan nan nan 0.000000
nan nan nan 0.000000
-62.358833 -114.190964 14.341158 0.642176
-59.009842 -112.215179 11.484086 0.678431
-58.937798 -112.172676 9.345682 0.764446
-59.009804 -112.215164 7.242493 0.678431
-59.009819 -112.215164 5.140996 0.678431
-47.371319 -105.348862 2.825127 0.641535
-47.371319 -105.348862 1.174874 0.552636
-39.006073 -100.413666 -0.000001 0.536416
-24.950619 -92.121445 -0.000010 0.337102
-18.915785 -88.561111 0.000023 0.338354
-15.554999 -86.578369 0.000004 0.338018
-13.409418 -85.312546 -0.000013 0.339315
-11.917993 -84.432663 0.000011 0.325658
-10.819321 -83.784485 -0.000006 0.343160
nan nan nan 0.000000
nan nan nan 0.000000
-63.301918 -114.190987 14.489258 0.650187
-47.674770 -105.117996 9.501171 0.393668
-47.371334 -104.941818 7.777106 0.569360
-47.371475 -104.941902 6.117646 0.555978
-47.371414 -104.941864 4.467051 0.556909
-47.371304 -104.941803 2.821762 0.560250
-47.371304 -104.941803 1.178239 0.562203
-39.149632 -100.168373 -0.000001 0.538262
-25.036644 -91.974487 -0.000010 0.337713
-18.977097 -88.456360 0.000022 0.336645
-15.602527 -86.497116 0.000008 0.336583
-13.448181 -85.246323 -0.000013 0.341558
-11.950659 -84.376877 0.000008 0.342382
-10.847477 -83.736374 -0.000006 0.325856
nan nan nan 0.000000
nan nan nan 0.000000
-63.885433 -113.972473 14.561422 0.672190
-47.668045 -104.707573 9.469920 0.408179
-47.370014 -104.537308 7.753748 0.570947
-47.370991 -104.537865 6.101078 0.558236
-47.371368 -104.538078 4.457150 0.572473
-47.371304 -104.538048 2.818463 0.575494
-47.371307 -104.538048 1.181536 0.562737
-39.291485 -99.922089 -0.000001 0.539651
-25.121641 -91.826935 -0.000011 0.338582
-19.037668 -88.351189 0.000022 0.340536
-15.649502 -86.415550 0.000008 0.336004
-13.486488 -85.179832 -0.000015 0.339834
-11.982931 -84.320854 0.000006 0.333730
-10.875300 -83.688072 -0.000007 0.338338
nan nan nan 0.000000
nan nan nan 0.000000
-64.229858 -113.613205 14.583718 0.665873
-47.717846 -104.332275 9.448902 0.383352
-47.372898 -104.138382 7.731411 0.563363
-47.370487 -104.137032 6.084838 0.575250
-47.371330 -104.137505 4.447447 0.562585
-47.371304 -104.137489 2.815233 0.563653
-47.371304 -104.137489 1.184768 0.553338
-39.431602 -99.674812 -0.000001 0.538994
-25.205595 -91.678780 -0.000012 0.337667
-19.097530 -88.245613 0.000019 0.336736
-15.695889 -86.333649 0.000011 0.333913
-13.524318 -85.113068 -0.000015 0.332662
-12.014808 -84.264618 0.000005 0.327611
-10.902784 -83.639580 -0.000008 0.343175
nan nan nan 0.000000
nan nan nan 0.000000
-49.676991 -105.014923 11.509035 0.389425
-47.778305 -103.965103 9.430214 0.353674
-47.371666 -103.740265 7.708986 0.535134
-47.372219 -103.740570 6.069133 0.567666
-47.371296 -103.740059 4.437937 0.556451
-47.371304 -103.740067 2.812065 0.560220
-47.371304 -103.740067 1.187935 0.541848
-39.570000 -99.426567 -0.000001 0.543679
-25.288544 -91.530060 -0.000015 0.337484
-19.156639 -88.139603 0.000018 0.338170
-15.741722 -86.251427 0.000011 0.338888
-13.561672 -85.046036 -0.000012 0.341268
-12.046298 -84.208153 0.000002 0.338689
-10.929927 -83.590889 -0.000008 0.338155
nan nan nan 0.000000
nan nan nan 0.000000
-50.344521 -104.962654 11.610962 0.564904
-47.836842 -103.598877 9.411708 0.335363
-47.370491 -103.345261 7.687018 0.574609
-47.371769 -103.345955 6.053543 0.571862
-47.371254 -103.345673 4.428619 0.568154
-47.371304 -103.345703 2.808964 0.568063
-47.371307 -103.345703 1.191037 0.552026
-39.706665 -99.177368 -0.000001 0.536446
-25.370430 -91.380753 -0.000015 0.337621
-19.215004 -88.033188 0.000017 0.337545
-15.786977 -86.168892 0.000012 0.339467
-13.598566 -84.978752 -0.000012 0.341543
-12.077384 -84.151474 0.000002 0.336538
-10.956731 -83.542015 -0.000008 0.338872
nan nan nan 0.000000
-51.226673 -105.016266 13.581262 0.389395
-51.126423 -104.962654 11.736184 0.565728
-47.885090 -103.229103 9.391968 0.386114
-47.369251 -102.953217 7.665483 0.559869
-47.371307 -102.954315 6.038266 0.561242
-47.371227 -102.954269 4.419490 0.550301
-47.371304 -102.954315 2.805923 0.568170
-47.371307 -102.954315 1.194077 0.560723
-39.841583 -98.927216 -0.000001 0.545815
-25.451263 -91.230873 -0.000015 0.339834
-19.272625 -87.926369 0.000016 0.340597
-15.831655 -86.086044 0.000013 0.339742
-13.634983 -84.911201 -0.000010 0.330220
-12.108084 -84.094574 -0.000001 0.344808
-10.983192 -83.492958 -0.000009 0.335439
nan nan nan 0.000000
nan nan nan 0.000000
-51.929005 -104.962662 11.865199 0.570443
-47.944145 -102.867088 9.374548 0.372885
-47.372208 -102.566315 7.644930 0.562020
-47.370895 -102.565628 6.023303 0.556939
-47.371201 -102.565788 4.410547 0.560876
-47.371304 -102.565842 2.802945 0.561517
-47.371304 -102.565842 1.197057 0.560830
-39.974743 -98.676125 -0.000001 0.534524
-25.531050 -91.080437 -0.000015 0.336645
-19.329525 -87.819168 0.000012 0.340490
-15.875756 -86.002892 0.000013 0.338811
-13.670935 -84.843414 -0.000010 0.340429
-12.138377 -84.037468 -0.000002 0.340810
-11.009311 -83.443710 -0.000009 0.341772
nan nan nan 0.000000
nan nan nan 0.000000
-68.827721 -113.273239 15.290807 0.664012
-48.001064 -102.505798 9.357256 0.334005
-47.371166 -102.180145 7.624284 0.566140
-47.370514 -102.179810 6.008648 0.558007
-47.371407 -102.180267 4.401799 0.577401
-47.371304 -102.180214 2.800026 0.554788
-47.371304 -102.180214 1.199974 0.574075
-40.106136 -98.424103 -0.000001 0.541085
-25.609785 -90.929443 -0.000016 0.339040
-19.385653 -87.711555 0.000010 0.336431
-15.919276 -85.919426 0.000013 0.329793
-13.706413 -84.775368 -0.000009 0.334585
-12.168276 -83.980148 -0.000004 0.331456
-11.035085 -83.394287 -0.000010 0.341939
nan nan nan 0.000000
nan nan nan 0.000000
-69.623329 -113.105545 15.405718 0.660487
-48.055199 -102.144905 9.339982 0.340795
-47.370064 -101.796730 7.604050 0.573571
-47.372169 -101.797798 5.994482 0.589578
-47.371387 -101.797401 4.393219 0.586938
-47.371300 -101.797356 2.797168 0.560220
-47.371300 -101.797356 1.202832 0.572168
-40.235790 -98.171188 -0.000001 0.537362
-25.687336 -90.777847 -0.000004 0.336278
-19.441031 -87.603554 0.000008 0.339300
-15.962227 -85.835670 0.000010 0.326314
-13.741405 -84.707077 -0.000007 0.342779
-12.197770 -83.922623 -0.000005 0.336172
-11.060512 -83.344681 -0.000010 0.340658
nan nan nan 0.000000
nan nan nan 0.000000
nan nan nan 0.000000
-48.112919 -101.787598 9.323782 0.330220
-47.373024 -101.418076 7.584754 0.563912
-47.371815 -101.417465 5.980423 0.555840
-47.371361 -101.417244 4.384815 0.563516
-47.371296 -101.417213 2.794370 0.559319
-47.371300 -101.417213 1.205630 0.554711
-40.363667 -97.917358 -0.000001 0.542107
-25.763960 -90.625778 -0.000005 0.336767
-19.495703 -87.495193 -0.000000 0.335653
-16.004578 -85.751610 0.000010 0.338308
-13.775927 -84.638542 -0.000006 0.333989
-12.226864 -83.864891 -0.000007 0.334844
-11.085595 -83.294899 -0.000010 0.340917
nan nan nan 0.000000
nan nan nan 0.000000
nan nan nan 0.000000
-48.163261 -101.428345 9.306829 0.353811
-47.372005 -101.040047 7.565354 0.563989
-47.371429 -101.039764 5.966656 0.564950
-47.371334 -101.039719 4.376585 0.566674
-47.371307 -101.039703 2.791628 0.564187
-47.371307 -101.039703 1.208372 0.561166
-40.489750 -97.662643 -0.000000 0.539818
-25.839514 -90.473167 -0.000005 0.337545
-19.549574 -87.386429 -0.000002 0.337194
-16.046343 -85.667252 0.000010 0.337972
-13.809962 -84.569771 -0.000004 0.337530
-12.255549 -83.806953 -0.000008 0.337743
-11.110325 -83.244942 -0.000010 0.325734
nan nan nan 0.000000
nan nan nan 0.000000
nan nan nan 0.000000
-48.229435 -101.078491 9.292957 0.340902
-47.371124 -100.664688 7.546375 0.567407
-47.371105 -100.664680 5.953179 0.577401
-47.371315 -100.664780 4.368526 0.572869
-47.371304 -100.664780 2.788945 0.563333
-47.371304 -100.664780 1.211055 0.559976
-40.614086 -97.407066 -0.000001 0.536324
-25.913998 -90.320038 -0.000005 0.337881
-19.602671 -87.277290 -0.000004 0.337881
-16.087503 -85.582603 0.000012 0.336873
-13.843527 -84.500763 -0.000004 0.338521
-12.283830 -83.748817 -0.000008 0.334676
-11.134705 -83.194817 -0.000009 0.339498
nan nan nan 0.000000
nan nan nan 0.000000
nan nan nan 0.000000
-48.281181 -100.723221 9.277161 0.395911
-47.370171 -100.291824 7.527781 0.569619
-47.370750 -100.292099 5.939982 0.566094
-47.371288 -100.292358 4.360638 0.566598
-47.371300 -100.292358 2.786317 0.550927
-47.371300 -100.292358 1.213682 0.550820
-40.736610 -97.150620 -0.000001 0.542031
-25.987413 -90.166389 -0.000005 0.338186
-19.655016 -87.167786 -0.000006 0.336614
-16.128086 -85.497673 0.000012 0.340200
-13.876608 -84.431526 -0.000003 0.342443
-12.311705 -83.690491 -0.000008 0.337514
-11.158733 -83.144516 -0.000008 0.338293
nan nan nan 0.000000
nan nan nan 0.000000
nan nan nan 0.000000
-48.335415 -100.370728 9.262232 0.389624
-47.373165 -99.923264 7.510082 0.555810
-47.370441 -99.921997 5.927066 0.566186
-47.371277 -99.922386 4.352917 0.568139
-47.371300 -99.922394 2.783746 0.553796
-47.371300 -99.922394 1.216254 0.568505
-37.165787 -95.176689 0.200003 0.707576
-26.059759 -90.012230 -0.000005 0.336263
-19.706644 -87.057945 -0.000015 0.336217
-16.168068 -85.412453 0.000013 0.337179
-13.909197 -84.362045 -0.000001 0.340063
-12.339169 -83.631966 -0.000009 0.331441
-11.182409 -83.094055 -0.000007 0.336675
nan nan nan 0.000000
nan nan nan 0.000000
nan nan nan 0.000000
-48.405083 -100.026810 9.250269 0.406210
-47.372303 -99.555298 7.492278 0.569207
-47.372101 -99.555199 5.914604 0.569635
-47.371254 -99.554817 4.345359 0.567742
-47.371304 -99.554840 2.781229 0.552438
-47.371304 -99.554840 1.218772 0.575006
-37.273266 -94.944572 0.199980 0.706981
-26.130869 -89.857506 0.000009 0.338537
-19.678152 -86.911514 0.010012 1.000000
-16.207474 -85.326973 0.000010 0.335225
-13.941310 -84.292358 -0.000001 0.338079
-12.366225 -83.573250 -0.000009 0.338201
-11.205735 -83.043427 -0.000007 0.342580
nan nan nan 0.000000
nan nan nan 0.000000
nan nan nan 0.000000
-48.461170 -99.678024 9.236526 0.401038
-47.371563 -99.189720 7.474867 0.568627
-47.371815 -99.189835 5.902235 0.578943
-47.371243 -99.189583 4.337963 0.555993
-47.371300 -99.189606 2.778764 0.550698
-47.371300 -99.189606 1.221235 0.563729
-37.379166 -94.711723 0.199954 0.709621
-26.201046 -89.702354 0.000009 0.336919
-19.807472 -86.837135 -0.000016 0.337240
-16.246273 -85.241211 0.000009 0.337682
-13.972934 -84.222443 -0.000001 0.331884
-12.392868 -83.514343 -0.000009 0.330480
-11.228703 -82.992638 -0.000005 0.330480
nan nan nan 0.000000
nan nan nan 0.000000
nan nan nan 0.000000
-48.510628 -99.327713 9.222146 0.369100
-47.370762 -98.826416 7.457824 0.552193
-47.371529 -98.826752 5.890134 0.566033
-47.371223 -98.826622 4.330726 0.556130
-47.371296 -98.826653 2.776355 0.557565
-47.371296 -98.826653 1.223645 0.544610
-37.482658 -94.477791 0.199970 0.707256
-26.270144 -89.546715 0.000008 0.338796
-19.856709 -86.726196 -0.000015 0.337301
-16.284473 -85.155190 0.000008 0.339254
-14.004063 -84.152298 0.000001 0.326223
-12.419104 -83.455261 -0.000010 0.339849
-11.251320 -82.941689 -0.000005 0.335363
nan nan nan 0.000000
nan nan nan 0.000000
nan nan nan 0.000000
-48.557739 -98.977852 9.207829 0.350118
-47.472485 -98.509583 7.453995 0.548943
-47.476818 -98.511459 5.887722 0.579324
-47.476261 -98.511215 4.329269 0.563455
-47.371307 -98.465927 2.773997 0.555871
-47.371307 -98.465927 1.226002 0.564462
-37.584393 -94.243103 0.199993 0.709468
-26.338160 -89.390610 0.000008 0.338323
-19.905069 -86.614876 -0.000001 0.528801
-16.322069 -85.068893 0.000007 0.334051
-14.034710 -84.081947 0.000001 0.337453
-12.444922 -83.395996 -0.000010 0.338399
-11.273576 -82.890587 -0.000003 0.334020
nan nan nan 0.000000
nan nan nan 0.000000
nan nan nan 0.000000
-49.397774 -98.965012 9.321662 0.329549
-48.331532 -98.513756 7.545059 0.711192
-48.323814 -98.510490 5.951555 0.607248
-48.326103 -98.511459 4.367665 0.585000
-48.089413 -98.411285 2.784452 0.682246
-48.089413 -98.411285 1.215548 0.677913
-37.684761 -94.007820 0.200002 0.707805
-26.405081 -89.234024 0.000008 0.339712
-19.952763 -86.503265 -0.000001 0.539483
-16.359091 -84.982353 0.000003 0.338842
-14.064860 -84.011383 0.000001 0.334859
-12.470325 -83.336548 -0.000010 0.338415
-11.295480 -82.839325 -0.000003 0.327153
nan nan nan 0.000000
nan nan nan 0.000000
nan nan nan 0.000000
-50.436337 -99.022949 9.467066 0.357595
-49.208015 -98.513176 7.638028 0.729488
-49.200787 -98.510178 6.017863 0.684672
-49.203888 -98.511459 4.407435 0.555901
-48.962505 -98.411285 2.797628 0.678431
-48.962505 -98.411285 1.202370 0.678431
-37.783825 -93.771988 0.199991 0.706508
-26.470905 -89.076973 0.000008 0.335912
-19.999678 -86.391335 -0.000001 0.548882
-16.395481 -84.895538 0.000001 0.337774
-14.094512 -83.940613 0.000003 0.327474
-12.495314 -83.276924 -0.000009 0.336355
-11.317019 -82.787910 -0.000001 0.336553
nan nan nan 0.000000
nan nan nan 0.000000
nan nan nan 0.000000
-58.587196 -101.959747 10.750979 0.453101
-50.114395 -98.512566 7.734449 0.749340
-50.107693 -98.509834 6.086635 0.678431
-50.111698 -98.511467 4.448688 0.637690
-49.865475 -98.411285 2.811297 0.678431
-49.865475 -98.411285 1.188703 0.678431
-37.881233 -93.535461 0.199981 0.708232
-26.535627 -88.919472 0.000007 0.337942
-20.045807 -86.279068 -0.000001 0.523201
-16.431261 -84.808479 0.000001 0.338415
-14.123675 -83.869629 0.000004 0.329763
-12.519887 -83.217125 -0.000010 0.335485
-11.338204 -82.736359 -0.000001 0.338766
nan nan nan 0.000000
nan nan nan 0.000000
nan nan nan 0.000000
-58.587196 -101.516357 10.726407 0.626383
-51.052299 -98.511902 7.834503 0.628382
-51.056576 -98.513603 6.158920 0.691676
-51.051178 -98.511452 4.491499 0.684871
-50.799965 -98.411285 2.825480 0.746197
-50.799965 -98.411285 1.174519 0.190265
-37.976929 -93.298241 0.199974 0.707683
-26.599035 -88.761429 0.000026 0.337591
-20.091156 -86.166489 -0.000001 0.537713
-16.466421 -84.721161 0.000002 0.336233
-14.152343 -83.798454 0.000004 0.334539
-12.544036 -83.157158 -0.000009 0.331273
-11.359027 -82.684647 0.000000 0.333913
nan nan nan 0.000000
nan nan nan 0.000000
nan nan nan 0.000000
-58.587200 -101.075432 10.702394 0.539818
-52.016792 -98.508575 7.937570 0.572610
-52.026886 -98.512512 6.232893 0.684474
-52.023903 -98.511353 4.535947 0.709804
-51.767769 -98.411285 2.840212 0.678431
-51.767769 -98.411285 1.159788 0.678431
-38.070679 -93.060242 0.199983 0.710643
-26.661554 -88.603043 0.000026 0.335973
-20.135714 -86.053589 -0.000001 0.546410
-16.500973 -84.633606 0.000003 0.338949
-14.180514 -83.727074 0.000005 0.336721
-12.567773 -83.097023 -0.000009 0.337545
-11.379487 -82.632797 0.000001 0.332937
nan nan nan 0.000000
nan nan nan 0.000000
nan nan nan 0.000000
-58.587193 -100.636902 10.678933 0.563577
-53.022610 -98.507645 8.045456 0.560739
-53.034760 -98.512291 6.309968 0.684337
-53.032215 -98.511322 4.582149 0.706523
-46.753948 -96.108971 2.750101 0.690196
-46.753948 -96.108971 1.249899 0.698039
-38.162685 -92.821571 0.199996 0.708385
-26.609600 -88.400841 0.009979 1.000000
-20.179483 -85.940392 -0.000001 0.539071
-16.534883 -84.545799 0.000009 0.335058
-14.208175 -83.655495 0.000007 0.338643
-12.591086 -83.036728 -0.000009 0.339986
-11.399589 -82.580803 0.000002 0.338750
nan nan nan 0.000000
nan nan nan 0.000000
nan nan nan 0.000000
-46.518478 -95.679016 8.744272 0.678080
-46.518471 -95.679016 7.230463 0.652338
-46.518475 -95.679016 5.728013 0.669108
-46.518478 -95.679016 4.233609 0.678157
-46.518475 -95.679016 2.744004 0.668009
-46.518475 -95.679016 1.255996 0.686259
-38.252975 -92.582237 0.200011 0.710109
-26.783274 -88.284973 0.000025 0.338903
-20.222460 -85.826881 -0.000000 0.538445
-16.568213 -84.457771 0.000010 0.338201
-14.235350 -83.583733 0.000007 0.335454
-12.613976 -82.976265 -0.000009 0.340658
-11.419327 -82.528679 0.000002 0.331350
nan nan nan 0.000000
nan nan nan 0.000000
nan nan nan 0.000000
-46.518475 -95.340935 8.726841 0.697078
-46.518471 -95.340935 7.216944 0.653742
-46.518478 -95.340935 5.718379 0.697307
-46.518478 -95.340935 4.227837 0.669062
-46.518475 -95.340935 2.742081 0.672679
-46.518475 -95.340935 1.257918 0.701808
-38.341934 -92.342415 0.200009 0.706691
-26.842760 -88.125420 -0.000001 0.543923
-20.264645 -85.713074 -0.000000 0.533562
-16.600924 -84.369507 0.000010 0.338537
-14.262018 -83.511780 0.000007 0.340337
-12.636451 -82.915649 -0.000009 0.330159
-11.438695 -82.476410 0.000003 0.340414
nan nan nan 0.000000
nan nan nan 0.000000
-46.864601 -95.128777 10.297512 0.733333
-46.518486 -95.004578 8.709827 0.665370
-46.518482 -95.004578 7.203751 0.651041
-46.518478 -95.004578 5.708974 0.659724
-46.518478 -95.004578 4.222203 0.685100
-46.518482 -95.004578 2.740205 0.634928
-46.518482 -95.004578 1.259795 0.661982
-38.429279 -92.101997 0.200003 0.711208
-26.900826 -87.965340 -0.000001 0.535515
-20.306034 -85.598984 -0.000000 0.536034
-16.633015 -84.281021 0.000011 0.336828
-14.288186 -83.439644 0.000008 0.330053
-12.658494 -82.854874 -0.000009 0.336950
-11.457703 -82.424004 0.000004 0.339178
nan nan nan 0.000000
nan nan nan 0.000000
-46.848869 -94.785858 10.273946 0.688014
-46.518482 -94.669899 8.693223 0.650095
-46.518471 -94.669899 7.190873 0.670985
-46.518478 -94.669899 5.699797 0.666941
-46.518478 -94.669899 4.216703 0.650767
-46.518482 -94.669907 2.738374 0.672877
-46.518482 -94.669907 1.261626 0.664912
-38.514912 -91.860962 0.199998 0.708980
-26.957773 -87.804855 -0.000001 0.542306
-20.346628 -85.484596 -0.000000 0.545922
-16.601044 -84.170044 0.009987 1.000000
-14.313838 -83.367325 0.000010 0.338430
-12.680116 -82.793953 -0.000009 0.334508
-11.476343 -82.371475 0.000004 0.344549
nan nan nan 0.000000
nan nan nan 0.000000
-46.833538 -94.444969 10.250974 0.774792
-46.518478 -94.336861 8.677025 0.647150
-46.518475 -94.336861 7.178311 0.657115
-46.518478 -94.336861 5.690842 0.654902
-46.518482 -94.336868 4.211340 0.662303
-46.518482 -94.336868 2.736586 0.668223
-46.518482 -94.336868 1.263413 0.678431
-38.598343 -91.619156 0.200021 0.708446
-27.013609 -87.643982 -0.000001 0.541238
-20.386423 -85.369934 -0.000000 0.525979
-16.631763 -84.081566 0.009984 1.000000
-14.338996 -83.294830 0.000010 0.337743
-12.701311 -82.732880 -0.000009 0.336431
-11.494616 -82.318810 0.000005 0.333013
nan nan nan 0.000000
nan nan nan 0.000000
-46.818600 -94.106064 10.228591 0.711315
-46.518475 -94.005417 8.661232 0.664454
-46.518478 -94.005417 7.166063 0.662760
-46.518471 -94.005417 5.682112 0.660685
-46.518482 -94.005417 4.206108 0.690379
-46.518482 -94.005417 2.734843 0.654444
-46.518482 -94.005417 1.265156 0.683436
-38.680786 -91.377014 0.200007 0.708232
-27.068310 -87.482727 -0.000000 0.535073
-20.425409 -85.254997 0.000000 0.545068
-16.725546 -84.014236 0.000019 0.335149
-14.363645 -83.222160 0.000010 0.340612
-12.722079 -82.671654 -0.000009 0.333639
-11.512522 -82.266022 0.000006 0.343404
nan nan nan 0.000000
nan nan nan 0.000000
-46.804050 -93.769073 10.206783 0.716152
-46.518478 -93.675522 8.645834 0.651133
-46.518478 -93.675522 7.154121 0.680171
-46.518482 -93.675522 5.673602 0.681651
-46.518482 -93.675522 4.201009 0.664546
-46.518486 -93.675522 2.733146 0.656382
-46.518486 -93.675522 1.266854 0.668803
-38.761532 -91.134300 0.199993 0.705852
-27.121893 -87.321091 -0.000001 0.534722
-20.463602 -85.139793 -0.000000 0.544625
-16.755289 -83.924927 -0.000000 0.549096
-14.387790 -83.149323 0.000011 0.334295
-12.742421 -82.610291 -0.000008 0.340429
-11.530061 -82.213112 0.000006 0.332738
nan nan nan 0.000000
nan nan nan 0.000000
-46.789867 -93.433945 10.185546 0.776471
-46.518478 -93.347130 8.630833 0.668803
-46.518478 -93.347130 7.142484 0.666514
-46.518490 -93.347130 5.665308 0.653803
-46.518490 -93.347130 4.196039 0.664866
-46.518486 -93.347130 2.731490 0.666117
-46.518486 -93.347130 1.268509 0.658640
-38.840611 -90.891037 0.199978 0.708629
-27.174345 -87.159081 -0.000001 0.548943
-20.500984 -85.024323 0.000000 0.529366
-16.784279 -83.835373 -0.000000 0.536385
-14.411419 -83.076317 0.000011 0.335180
-12.762331 -82.548782 -0.000008 0.335439
-11.547226 -82.160080 0.000007 0.330358
nan nan nan 0.000000
-47.976704 -93.475479 11.963243 0.805112
-46.776073 -93.100624 10.164876 0.772534
-46.518486 -93.020203 8.616217 0.658763
-46.518486 -93.020203 7.131152 0.664790
-46.518490 -93.020203 5.657229 0.662486
-46.518486 -93.020203 4.191199 0.620203
-46.518486 -93.020203 2.729878 0.651759
-46.518486 -93.020203 1.270121 0.671321
-38.918034 -90.647232 0.199961 0.708385
-27.225655 -86.996712 -0.000001 0.544656
-20.537556 -84.908592 0.000000 0.533211
-16.812647 -83.745621 -0.000000 0.545663
-14.434545 -83.003151 0.000012 0.338079
-12.781813 -82.487144 -0.000008 0.331945
-11.564023 -82.106934 0.000007 0.341588
nan nan nan 0.000000
-47.959839 -93.133682 11.938008 0.681620
-46.762653 -92.769058 10.144764 0.761883
-46.518486 -92.694695 8.601988 0.654871
-46.518486 -92.694695 7.120117 0.652384
-46.518482 -92.694695 5.649364 0.666941
-46.518482 -92.694695 4.186486 0.656046
-46.518490 -92.694695 2.728308 0.664775
-46.518490 -92.694695 1.271692 0.666209
-38.993568 -90.402840 0.199953 0.707927
-27.275841 -86.833984 -0.000001 0.533227
-20.573326 -84.792610 -0.000000 0.543206
-16.840385 -83.655678 -0.000000 0.549325
-14.457150 -82.929817 0.000013 0.341787
-12.800864 -82.425362 -0.000008 0.331029
-11.580447 -82.053665 0.000007 0.339147
nan nan nan 0.000000
-47.943439 -92.793716 11.913470 0.719341
-46.749592 -92.439201 10.125201 0.662608
-46.518494 -92.370575 8.588142 0.655268
-46.518494 -92.370575 7.109380 0.660410
-46.518494 -92.370575 5.641710 0.651072
-46.518486 -92.370567 4.181902 0.655055
-46.518490 -92.370567 2.726781 0.656092
-46.518490 -92.370567 1.273219 0.664576
-39.067390 -90.157921 0.199945 0.705028
-27.324877 -86.670914 -0.000001 0.555062
-20.608286 -84.676384 -0.000001 0.549386
-16.867496 -83.565536 -0.000000 0.533349
-14.479249 -82.856331 0.000013 0.340063
-12.819482 -82.363457 -0.000008 0.335164
-11.596501 -82.000282 0.000008 0.334630
nan nan nan 0.000000
-47.927517 -92.455528 11.889622 0.764126
-46.736912 -92.110992 10.106186 0.634714
-46.518486 -92.047791 8.574670 0.665522
-46.518486 -92.047791 7.098930 0.676600
-46.518478 -92.047783 5.634263 0.674754
-46.518482 -92.047791 4.177441 0.664591
-46.518482 -92.047791 2.725295 0.662684
-46.518482 -92.047791 1.274705 0.663569
-39.139229 -89.912415 0.199952 0.703395
-27.372787 -86.507507 -0.000000 0.547143
-20.642431 -84.559914 -0.000001 0.539971
-16.893972 -83.475212 -0.000000 0.525277
-14.500835 -82.782700 0.000013 0.339864
-12.837667 -82.301414 -0.000007 0.335225
-11.612183 -81.946793 0.000008 0.338369
nan nan nan 0.000000
-47.912056 -92.119049 11.866453 0.738476
-46.724579 -91.784386 10.087708 0.685954
-46.518497 -91.726311 8.561575 0.662394
-46.518494 -91.726311 7.088775 0.690440
-46.518486 -91.726303 5.627026 0.654597
-46.518490 -91.726303 4.173104 0.676127
-46.518490 -91.726303 2.723851 0.656703
-46.518494 -91.726311 1.276150 0.661433
-39.209293 -89.666405 0.199961 0.713573
-27.419556 -86.343773 -0.000001 0.527657
-20.675762 -84.443214 -0.000001 0.543679
-16.919828 -83.384705 -0.000001 0.551995
-14.521910 -82.708908 0.000013 0.341878
-12.855418 -82.239258 -0.000007 0.336614
-11.627490 -81.893196 0.000008 0.336553
nan nan nan 0.000000
-47.897038 -91.784225 11.843955 0.776822
-46.712605 -91.459328 10.069763 0.636454
-46.518497 -91.406082 8.548851 0.652598
-46.518490 -91.406082 7.078907 0.665705
-46.518490 -91.406082 5.619990 0.677333
-46.518490 -91.406082 4.168889 0.659617
-46.518494 -91.406082 2.722446 0.630610
-46.518494 -91.406082 1.277553 0.653651
-39.276966 -89.419716 0.200005 0.704356
-27.465170 -86.179710 -0.000000 0.535653
-20.708275 -84.326279 -0.000001 0.526940
-16.945042 -83.294014 -0.000000 0.526345
-14.542466 -82.634979 0.000014 0.337865
-12.872735 -82.176971 -0.000007 0.340826
-11.642423 -81.839493 0.000008 0.344396
nan nan nan 0.000000
nan nan nan 0.000000
-46.700970 -91.135780 10.052345 0.670497
-46.518497 -91.087097 8.536494 0.649149
-46.518497 -91.087097 7.069324 0.674022
-46.518494 -91.087090 5.613160 0.662684
-46.518482 -91.087090 4.164795 0.658885
-46.518494 -91.087090 2.721084 0.658183
-46.518494 -91.087090 1.278916 0.667445
-39.343067 -89.172615 0.200040 0.711437
-27.509638 -86.015335 -0.000000 0.541085
-20.739973 -84.209122 -0.000001 0.547219
-16.969620 -83.203148 -0.000000 0.522744
-14.562501 -82.560905 0.000014 0.337789
-12.889620 -82.114563 -0.000007 0.338628
-11.656979 -81.785683 0.000008 0.339529
nan nan nan 0.000000
nan nan nan 0.000000
-46.689693 -90.813683 10.035449 0.702800
-46.518497 -90.769279 8.524500 0.681346
-46.518501 -90.769279 7.060020 0.672831
-46.518494 -90.769279 5.606530 0.658030
-46.518497 -90.769279 4.160825 0.658335
-46.518497 -90.769279 2.719760 0.657389
-46.518497 -90.769279 1.280240 0.671214
-39.408131 -88.925240 0.200041 0.706203
-27.552961 -85.850655 -0.000000 0.545846
-20.770851 -84.091743 -0.000000 0.539620
-16.993568 -83.112122 -0.000000 0.550423
-14.582029 -82.486694 0.000013 0.335393
-12.906068 -82.052040 -0.000006 0.333761
-11.671157 -81.731773 0.000008 0.336355
nan nan nan 0.000000
nan nan nan 0.000000
-46.678768 -90.492996 10.019073 0.687434
-46.518497 -90.452621 8.512865 0.661067
-46.518501 -90.452621 7.050999 0.653651
-46.518490 -90.452621 5.600100 0.658076
-46.518501 -90.452621 4.156972 0.662455
-46.518494 -90.452621 2.718477 0.653559
-46.518494 -90.452621 1.281523 0.652262
-39.736900 -88.744278 0.186595 0.732113
-27.595137 -85.685669 -0.000000 0.543008
-20.800915 -83.974152 -0.000001 0.534493
-17.016884 -83.020927 -0.000000 0.544549
-14.601053 -82.412354 0.000010 0.343511
-12.922074 -81.989410 -0.000006 0.341360
-11.684962 -81.677773 0.000009 0.341283
nan nan nan 0.000000
nan nan nan 0.000000
-46.668167 -90.173660 10.003204 0.740154
-46.518497 -90.137070 8.501589 0.672312
-46.518497 -90.137070 7.042254 0.682994
-46.518497 -90.137070 5.593868 0.682551
-46.518497 -90.137070 4.153237 0.666621
-46.518497 -90.137070 2.717233 0.694743
-46.518497 -90.137070 1.282767 0.694362
-39.907181 -88.520622 0.181123 0.738674
-27.636154 -85.520401 -0.000000 0.543526
-20.830147 -83.856354 -0.000000 0.546960
-17.039558 -82.929565 0.000000 0.543877
-14.619570 -82.337891 0.000004 0.341161
-12.937648 -81.926666 -0.000006 0.333791
-11.698388 -81.623672 0.000009 0.333028
nan nan nan 0.000000
nan nan nan 0.000000
-46.657928 -89.855659 9.987846 0.771420
-46.518501 -89.822594 8.490669 0.654169
-46.518497 -89.822594 7.033785 0.659358
-46.518497 -89.822594 5.587831 0.682170
-46.518501 -89.822594 4.149620 0.657481
-46.518501 -89.822594 2.716028 0.637476
-46.518501 -89.822594 1.283971 0.651347
-40.074455 -88.294647 0.175732 0.730220
-27.676027 -85.354851 -0.000000 0.545937
-20.858561 -83.738358 -0.000001 0.557610
-17.061592 -82.838051 0.000000 0.538521
-14.637568 -82.263290 -0.000002 0.334768
-12.952782 -81.863815 -0.000006 0.329564
-11.711437 -81.569473 0.000010 0.340215
nan nan nan 0.000000
nan nan nan 0.000000
-48.577991 -89.982330 10.333308 0.697078
-46.518501 -89.509163 8.480103 0.654826
-46.518501 -89.509163 7.025588 0.625956
-46.518494 -89.509155 5.581989 0.664454
-46.518494 -89.509155 4.146121 0.667170
-46.518494 -89.509155 2.714863 0.659953
-46.518497 -89.509163 1.285138 0.654566
-40.242722 -88.067307 0.170220 0.677989
-27.714733 -85.189018 -0.000001 0.536614
-20.886154 -83.620163 -0.000001 0.551171
-17.082989 -82.746391 -0.000000 0.555322
-14.654989 -82.188560 0.000002 0.336446
-12.967480 -81.800858 -0.000006 0.339574
-11.724108 -81.515190 0.000010 0.337713
nan nan nan 0.000000
nan nan nan 0.000000
-46.202602 -89.126472 9.877388 0.582620
