# This PCD file was generated using the MATLABÂ® pcwrite function
# from Computer Vision ToolboxÂ®.
# .PCD v.7 - Point Cloud Data file format
VERSION .7
FIELDS x y z intensity
SIZE 4 4 4 4
TYPE F F F F
COUNT 1 1 1 1
WIDTH 1205
HEIGHT 1
VIEWPOINT 0 0 0 1 0 0 0
POINTS 1205
DATA ascii
-36.366264 -41.264587 -0.000009 0.520912
-35.092075 -41.326900 -0.000007 0.515755
-37.990314 -41.109047 4.727843 0.678431
-37.935131 -41.112133 4.340113 0.628458
-38.019928 -41.107391 3.986928 0.748012
-38.020054 -41.107384 3.619821 0.702983
-38.020130 -41.107380 3.256248 0.693629
-38.020172 -41.107376 2.895394 0.529107
-39.141327 -41.044701 2.591633 0.579599
-39.141373 -41.044697 2.197071 0.517647
-39.141373 -41.044697 1.802929 0.657877
-39.141373 -41.044697 1.408364 0.516869
-39.141373 -41.044697 1.012529 0.712047
-39.141373 -41.044697 0.614562 0.551720
-39.141373 -41.044697 0.213587 0.769909
-38.091705 -41.103378 -0.000010 0.523720
-36.362877 -41.200027 -0.000008 0.552117
-35.089161 -41.271233 -0.000008 0.539879
-37.935127 -41.036339 4.715124 0.724163
-37.935127 -41.036339 4.341083 0.551751
-38.019920 -41.031006 3.987751 0.704158
-38.020046 -41.030998 3.620492 0.672526
-38.020126 -41.030994 3.256769 0.582910
-38.020172 -41.030991 2.895766 0.625956
-39.141277 -40.960461 2.591876 0.591501
-39.107540 -40.962582 2.196598 0.208072
-39.107540 -40.962582 1.803402 0.283558
-39.107540 -40.962582 1.409784 0.292699
-39.107540 -40.962582 1.014899 0.280201
-39.107540 -40.962582 0.617887 0.376745
-39.107540 -40.962582 0.217875 0.251484
-38.087158 -41.026775 -0.000010 0.537240
-36.359047 -41.135494 -0.000008 0.555993
-35.085854 -41.215591 -0.000008 0.557717
-38.019730 -40.954567 4.737628 0.572641
-38.019802 -40.954563 4.360501 0.809277
-38.019913 -40.954556 3.988672 0.704585
-38.020035 -40.954544 3.621242 0.556313
-38.020126 -40.954540 3.257351 0.562982
-38.020172 -40.954536 2.896181 0.546685
-39.141228 -40.876148 2.592148 0.620386
-39.107540 -40.878506 2.196689 0.108476
-39.107544 -40.878506 1.803311 0.085695
-39.107540 -40.878506 1.409511 0.087251
-39.107540 -40.878506 1.014442 0.039063
-39.107540 -40.878506 0.617247 0.070649
-39.107540 -40.878506 0.217048 0.073564
-38.082073 -40.950207 -0.000010 0.525917
-36.354759 -41.070988 -0.000008 0.552392
-35.082161 -41.159969 -0.000008 0.531121
-38.019722 -40.878040 4.739029 0.597940
-38.019802 -40.878036 4.361712 0.771252
-38.019905 -40.878029 3.989690 0.734661
-38.020027 -40.878017 3.622072 0.565591
-38.020130 -40.878010 3.257996 0.543908
-38.020176 -40.878006 2.896641 0.521324
-39.141182 -40.791756 2.592450 0.571435
-39.107540 -40.794342 2.196790 0.082444
-39.147911 -40.791237 1.802547 0.369985
-39.147911 -40.791237 1.407219 0.411215
-39.107540 -40.794342 1.013937 0.103899
-39.107540 -40.794342 0.616537 0.094026
-39.107536 -40.794342 0.216134 0.087098
-38.076454 -40.873676 -0.000010 0.547448
-36.350029 -41.006512 -0.000008 0.615351
-35.078079 -41.104378 -0.000007 0.527108
-38.019714 -40.801434 4.740565 0.586816
-38.019802 -40.801426 4.363039 0.559579
-38.019897 -40.801418 3.990807 0.736782
-38.020020 -40.801411 3.622983 0.617075
-38.020126 -40.801399 3.258703 0.578607
-38.020176 -40.801395 2.897145 0.602441
-39.141129 -40.707272 2.592780 0.703838
-39.107540 -40.710091 2.196901 0.092958
-39.147911 -40.706703 1.802437 0.382620
-39.147911 -40.706703 1.406886 0.411978
-39.107540 -40.710091 1.013382 0.113237
-39.107540 -40.710091 0.615760 0.121004
-39.107536 -40.710091 0.215132 0.111864
-38.070297 -40.797188 -0.000010 0.549706
-36.344841 -40.942070 -0.000009 0.530007
-35.073608 -41.048817 -0.000007 0.537087
-38.019714 -40.724739 4.742239 0.536629
-38.019806 -40.724731 4.364482 0.583230
-38.019890 -40.724720 3.992022 0.725292
-38.020012 -40.724712 3.623973 0.553109
-38.020126 -40.724701 3.259472 0.561563
-38.020172 -40.724697 2.897693 0.485252
-39.141079 -40.622692 2.593139 0.688472
-39.107540 -40.625744 2.197021 0.076097
-39.147911 -40.622070 1.802316 0.426352
-39.147907 -40.622070 1.406523 0.453925
-39.107544 -40.625744 1.012779 0.110933
-39.107540 -40.625744 0.614914 0.094118
-39.107540 -40.625744 0.214041 0.113375
-38.063610 -40.720745 -0.000010 0.545495
-36.339211 -40.877670 -0.000009 0.536370
-35.068748 -40.993286 -0.000007 0.543496
-38.019714 -40.647942 4.744050 0.521706
-38.019806 -40.647934 4.366043 0.558724
-38.019890 -40.647926 3.993337 0.560571
-38.020004 -40.647915 3.625043 0.578958
-38.020126 -40.647903 3.260303 0.512367
-38.020172 -40.647900 2.898285 0.552422
-39.141029 -40.538002 2.593528 0.754360
-39.107540 -40.541286 2.197151 0.092012
-39.147907 -40.537327 1.802185 0.498177
-39.147907 -40.537327 1.406132 0.469551
-39.107540 -40.541286 1.012128 0.104295
-39.107536 -40.541286 0.614001 0.100465
-39.107536 -40.541286 0.212863 0.111070
-38.056389 -40.644348 -0.000010 0.548562
-36.333122 -40.813309 -0.000008 0.557733
-35.063503 -40.937790 -0.000007 0.520348
-38.019711 -40.571045 4.745996 0.690288
-38.019802 -40.571033 4.367721 0.569192
-38.019890 -40.571026 3.994751 0.820371
-38.019997 -40.571014 3.626195 0.625574
-38.020119 -40.570999 3.261196 0.710582
-38.020176 -40.570995 2.898922 0.552712
-39.140980 -40.453197 2.593947 0.755947
-39.107540 -40.456711 2.197290 0.072862
-39.107540 -40.456711 1.802709 0.096056
-39.107540 -40.456711 1.407704 0.100221
-39.107536 -40.456711 1.011427 0.076585
-39.107536 -40.456715 0.613018 0.112596
-39.107540 -40.456711 0.211594 0.087236
-38.048634 -40.568005 -0.000010 0.678599
-36.326591 -40.748993 -0.000008 0.549508
-35.057869 -40.882336 -0.000007 0.553155
-38.019714 -40.494030 4.748079 0.525307
-38.019802 -40.494022 4.369517 0.819150
-38.019890 -40.494011 3.996264 0.511421
-38.019989 -40.493999 3.627428 0.770459
-38.020111 -40.493984 3.262152 0.555215
-38.020172 -40.493980 2.899605 0.788724
-39.140930 -40.368271 2.594395 0.743465
-39.107544 -40.372017 2.197441 0.076219
-39.147911 -40.367489 1.801895 0.558206
-39.147911 -40.367489 1.405260 0.493721
-39.107540 -40.372017 1.010677 0.093690
-39.107540 -40.372017 0.611965 0.087617
-39.107540 -40.372017 0.210238 0.110658
-38.040348 -40.491714 -0.000010 0.542123
-36.319611 -40.684719 -0.000008 0.528435
-35.051849 -40.826920 -0.000007 0.559579
-38.019711 -40.416897 4.750300 0.600397
-38.019802 -40.416885 4.371432 0.544976
-38.019890 -40.416878 3.997878 0.595193
-38.019981 -40.416866 3.628741 0.575433
-38.020103 -40.416851 3.263171 0.550301
-38.020172 -40.416843 2.900331 0.545663
-39.140881 -40.283211 2.594873 0.701442
-39.107544 -40.287186 2.197600 0.087434
-39.147911 -40.282372 1.801735 0.558053
-39.147911 -40.282372 1.404779 0.438697
-39.107536 -40.287186 1.009878 0.088823
-39.107536 -40.287186 0.610843 0.097124
-39.107536 -40.287186 0.208792 0.114549
-38.031525 -40.415489 -0.000010 0.544427
-36.312180 -40.620502 -0.000008 0.547311
-35.045441 -40.771545 -0.000007 0.535393
-38.019711 -40.339634 4.752658 0.575326
-38.019802 -40.339622 4.373466 0.532052
-38.019890 -40.339615 3.999590 0.537789
-38.019978 -40.339603 3.630137 0.597330
-38.020096 -40.339588 3.264253 0.509682
-38.020176 -40.339577 2.901103 0.533913
-39.140831 -40.198009 2.595381 0.782147
-39.107540 -40.202213 2.197769 0.087526
-39.147911 -40.197117 1.801565 0.533761
-39.147911 -40.197117 1.404269 0.388052
-39.107540 -40.202213 1.009029 0.078599
-39.107536 -40.202217 0.609652 0.091539
-39.107536 -40.202217 0.207256 0.107240
-38.022175 -40.339325 -0.000010 0.524376
-36.304298 -40.556335 -0.000008 0.544152
-35.038651 -40.716221 -0.000007 0.549554
-38.019711 -40.262238 4.755155 0.550423
-38.019798 -40.262226 4.375618 0.531487
-38.019890 -40.262215 4.001405 0.523262
-38.019978 -40.262199 3.631617 0.580392
-38.020088 -40.262188 3.265399 0.564294
-38.020172 -40.262177 2.901921 0.529778
-39.140778 -40.112659 2.595918 0.789288
-39.107540 -40.117092 2.197949 0.099168
-39.107544 -40.117092 1.802051 0.270100
-39.107544 -40.117092 1.405729 0.122438
-39.107540 -40.117092 1.008129 0.077607
-39.107536 -40.117092 0.608391 0.091478
-39.107540 -40.117092 0.205629 0.089433
-38.012291 -40.263226 -0.000010 0.545480
-36.295975 -40.492226 -0.000008 0.528206
-35.031471 -40.660942 -0.000007 0.564553
-38.019707 -40.184696 4.757791 0.552010
-38.019798 -40.184681 4.377892 0.533074
-38.019890 -40.184669 4.003319 0.517647
-38.019978 -40.184658 3.633178 0.549020
-38.020081 -40.184643 3.266609 0.583886
-38.020172 -40.184631 2.902784 0.523201
-38.937283 -40.055740 2.586393 0.635126
-39.107536 -40.031815 2.198138 0.093721
-39.107540 -40.031815 1.801862 0.129778
-39.107544 -40.031815 1.405160 0.080995
-39.107544 -40.031815 1.007180 0.085878
-39.107544 -40.031815 0.607059 0.046738
-39.107540 -40.031815 0.203912 0.082322
-38.001877 -40.187202 -0.000010 0.510887
-36.287201 -40.428177 -0.000008 0.539910
-35.023907 -40.605717 -0.000007 0.501198
-38.019707 -40.106998 4.760567 0.518929
-38.019798 -40.106987 4.380284 0.526497
-38.019890 -40.106972 4.005335 0.564721
-38.019974 -40.106960 3.634821 0.556374
-38.020069 -40.106945 3.267882 0.554284
-38.020172 -40.106930 2.903692 0.535088
-38.366932 -40.055729 2.558660 0.647196
-39.055313 -39.954079 2.197474 0.974182
-39.055313 -39.954079 1.802526 0.994232
-39.055313 -39.954079 1.407155 0.963073
-39.055313 -39.954079 1.010511 0.965820
-39.055313 -39.954079 0.611731 0.911604
-39.055313 -39.954079 0.209936 0.914916
-37.990932 -40.111248 -0.000010 0.534356
-36.277981 -40.364189 -0.000008 0.538689
-35.015957 -40.550545 -0.000007 0.540948
-38.019707 -40.029144 4.763482 0.803494
-38.019798 -40.029129 4.382799 0.519417
-38.019886 -40.029114 4.007454 0.743221
-38.019974 -40.029102 3.636548 0.541543
-38.020065 -40.029087 3.269221 0.706249
-37.971962 -40.036533 2.900646 0.677699
-37.931301 -40.042828 2.537594 0.647059
-39.140625 -39.855621 2.199095 0.549020
-39.140526 -39.855637 1.800907 0.731640
-39.140442 -39.855648 1.402297 0.738125
-39.140354 -39.855663 1.002409 0.758236
-39.140266 -39.855675 0.600375 0.592371
-39.140182 -39.855690 0.195306 0.521950
-37.979458 -40.035374 -0.000010 0.531106
-36.268311 -40.300266 -0.000008 0.531075
-35.007618 -40.495426 -0.000006 0.545739
-38.019707 -39.951122 4.766540 0.696773
-38.019798 -39.951107 4.385435 0.759274
-38.019886 -39.951092 4.009674 0.558206
-38.019974 -39.951077 3.638358 0.786770
-38.020061 -39.951061 3.270626 0.561852
-37.972557 -39.958755 2.901693 0.663264
-37.931068 -39.965477 2.538177 0.654902
-39.140549 -39.769588 2.199314 0.627802
-39.140442 -39.769608 1.800688 0.670604
-39.140347 -39.769623 1.401640 0.550713
-39.140259 -39.769634 1.001313 0.604089
-39.140175 -39.769650 0.598837 0.621790
-39.140083 -39.769665 0.193324 0.522942
-37.967449 -39.959583 -0.000009 0.496727
-36.258198 -40.236416 -0.000008 0.554803
-34.998901 -40.440372 -0.000007 0.529732
-38.019711 -39.872917 4.769740 0.692531
-38.019798 -39.872902 4.388193 0.517647
-38.019886 -39.872887 4.011998 0.660349
-38.019974 -39.872875 3.640253 0.582910
-38.020061 -39.872860 3.272095 0.588525
-37.973183 -39.880787 2.902787 0.654902
-37.930828 -39.887951 2.538787 0.657298
-39.140472 -39.683361 2.199543 0.549020
-39.140366 -39.683376 1.800459 0.642741
-39.140263 -39.683395 1.400953 0.551202
-39.140163 -39.683411 1.000166 0.606561
-39.140076 -39.683426 0.597228 0.611368
-39.139988 -39.683441 0.191249 0.532509
-37.954918 -39.883877 -0.000010 0.542397
-36.247639 -40.172634 -0.000008 0.522240
-34.989792 -40.385376 -0.000006 0.508949
-38.019707 -39.794533 4.773081 0.720439
-38.019798 -39.794518 4.391075 0.526619
-38.019886 -39.794502 4.014426 0.553216
-38.019974 -39.794487 3.642232 0.522362
-38.020061 -39.794472 3.273630 0.540093
-37.973835 -39.802620 2.903931 0.659953
-37.930573 -39.810249 2.539425 0.666667
-39.140396 -39.596931 2.199782 0.482353
-39.140289 -39.596947 1.800219 0.635721
-39.140186 -39.596966 1.400234 0.532601
-39.140083 -39.596985 0.998967 0.631754
-39.139980 -39.597004 0.595547 0.656611
-39.139893 -39.597019 0.189081 0.551171
-37.941860 -39.808258 -0.000010 0.534173
-36.236633 -40.108929 -0.000008 0.560006
-34.980305 -40.330448 -0.000006 0.528222
-38.019707 -39.715958 4.776566 0.709529
-38.019794 -39.715939 4.394079 0.811429
-38.019886 -39.715923 4.016958 0.528832
-38.019974 -39.715908 3.644296 0.525795
-38.020061 -39.715889 3.275231 0.544411
-37.974518 -39.724251 2.905124 0.635294
-37.930309 -39.732361 2.540090 0.635294
-39.140316 -39.510288 2.200033 0.726589
-39.140213 -39.510307 1.799969 0.727153
-39.140110 -39.510326 1.399484 0.539284
-39.140003 -39.510345 0.997715 0.523720
-39.139900 -39.510368 0.593791 0.735363
-39.139797 -39.510384 0.186819 0.698192
-37.928268 -39.732738 -0.000009 0.531624
-36.225189 -40.045303 -0.000008 0.557321
-34.970436 -40.275589 -0.000006 0.534569
-38.019707 -39.637177 4.780195 0.645914
-38.019794 -39.637157 4.397210 0.750378
-38.019886 -39.637142 4.019595 0.521202
-38.019974 -39.637123 3.646445 0.557748
-38.020061 -39.637108 3.276897 0.531441
-38.020149 -39.637093 2.910116 0.697185
-41.019508 -39.064945 2.695295 0.561822
-41.019508 -39.064945 2.231599 0.373373
-41.019466 -39.064953 1.768401 0.603784
-41.019402 -39.064964 1.304710 0.666667
-41.019333 -39.064980 0.839530 0.615808
-41.019260 -39.064991 0.371851 0.624887
-40.361305 -39.190502 -0.000012 0.560647
-37.914154 -39.657310 -0.000010 0.529290
-36.213295 -39.981758 -0.000007 0.531899
-34.960182 -40.220798 -0.000006 0.528740
-38.019703 -39.558186 4.783970 0.545266
-38.019794 -39.558167 4.400465 0.771893
-38.019886 -39.558147 4.022337 0.741756
-38.019974 -39.558132 3.648681 0.566537
-38.020058 -39.558113 3.278631 0.563348
-38.020145 -39.558098 2.911352 0.719020
-41.019508 -38.964218 2.696239 0.607584
-41.019501 -38.964222 2.231914 0.371801
-41.019470 -38.964226 1.768087 0.623392
-41.019405 -38.964241 1.303766 0.666667
-41.019337 -38.964252 0.837954 0.619577
-41.019268 -38.964268 0.369640 0.634699
-40.343346 -39.098099 -0.000012 0.552300
-37.899513 -39.581982 -0.000009 0.560464
-36.200958 -39.918297 -0.000008 0.528420
-34.949547 -40.166080 -0.000006 0.568368
-38.019703 -39.478977 4.787892 0.549020
-38.019794 -39.478958 4.403846 0.724941
-38.019882 -39.478939 4.025185 0.824369
-38.019974 -39.478920 3.651004 0.790570
-38.020058 -39.478905 3.280432 0.839536
-38.020145 -39.478886 2.912636 0.752941
-41.019508 -38.863216 2.697220 0.552468
-41.019493 -38.863220 2.232240 0.372457
-41.019478 -38.863224 1.767760 0.623758
-41.019409 -38.863239 1.302785 0.668498
-41.019341 -38.863251 0.836317 0.607721
-41.019272 -38.863266 0.367342 0.627253
-40.324738 -39.005829 -0.000011 0.545296
-37.884342 -39.506760 -0.000009 0.559838
-36.188179 -39.854927 -0.000007 0.519081
-34.938530 -40.111439 -0.000006 0.542733
nan nan nan 0.000000
nan nan nan 0.000000
nan nan nan 0.000000
nan nan nan 0.000000
nan nan nan 0.000000
-41.019485 -38.761929 3.165393 0.662593
-41.019508 -38.761925 2.698237 0.591897
-41.019489 -38.761929 2.232579 0.373083
-41.019482 -38.761929 1.767421 0.621546
-41.019417 -38.761944 1.301767 0.668223
-41.019348 -38.761959 0.834617 0.617151
-41.019279 -38.761974 0.364958 0.629969
-40.305489 -38.913689 -0.000012 0.532647
-37.868652 -39.431644 -0.000009 0.528344
-36.174961 -39.791645 -0.000007 0.546532
-34.927132 -40.056873 -0.000006 0.567605
nan nan nan 0.000000
nan nan nan 0.000000
nan nan nan 0.000000
nan nan nan 0.000000
nan nan nan 0.000000
-41.019482 -38.660336 3.167154 0.581598
-41.019508 -38.660328 2.699292 0.517647
-41.019482 -38.660336 2.232930 0.400275
-41.019485 -38.660336 1.767069 0.604166
-41.019421 -38.660347 1.300712 0.677333
-41.019356 -38.660362 0.832856 0.619577
-41.019283 -38.660378 0.362488 0.628061
-40.285599 -38.821686 -0.000012 0.540612
-37.852436 -39.356640 -0.000009 0.535088
-36.161301 -39.728455 -0.000007 0.540230
-34.915352 -40.002388 -0.000006 0.544060
nan nan nan 0.000000
-45.905563 -37.448357 6.161321 0.842695
nan nan nan 0.000000
nan nan nan 0.000000
nan nan nan 0.000000
-41.019482 -38.558430 3.168977 0.604807
-41.019508 -38.558422 2.700385 0.693690
-41.019478 -38.558430 2.233294 0.378714
-41.019478 -38.558430 1.766706 0.622385
-41.019424 -38.558441 1.299620 0.688319
-41.019356 -38.558456 0.831034 0.623301
-41.019291 -38.558472 0.359930 0.636576
-40.265068 -38.729824 -0.000012 0.533272
-37.835693 -39.281754 -0.000009 0.563684
-36.147198 -39.665363 -0.000008 0.545724
-34.903191 -39.947990 -0.000006 0.510826
nan nan nan 0.000000
-44.788147 -37.572281 5.920145 0.581537
nan nan nan 0.000000
nan nan nan 0.000000
nan nan nan 0.000000
-41.019485 -38.456200 3.170862 0.552468
-41.019508 -38.456192 2.701514 0.514000
-41.019474 -38.456200 2.233670 0.379629
-41.019474 -38.456200 1.766330 0.612329
-41.019432 -38.456211 1.298490 0.688640
-41.019363 -38.456226 0.829147 0.702144
-41.019295 -38.456242 0.357284 0.653651
-40.243893 -38.638107 -0.000012 0.538018
-37.818436 -39.206985 -0.000009 0.555993
-36.132652 -39.602371 -0.000007 0.501274
-34.890652 -39.893677 -0.000006 0.543908
nan nan nan 0.000000
-44.581093 -37.492004 5.880661 0.618708
nan nan nan 0.000000
nan nan nan 0.000000
nan nan nan 0.000000
-41.019485 -38.353634 3.172811 0.671305
-41.019508 -38.353626 2.702682 0.549569
-41.019463 -38.353638 2.234059 0.380697
-41.019466 -38.353638 1.765941 0.625971
-41.019440 -38.353645 1.297321 0.692561
-41.019371 -38.353661 0.827198 0.704906
-41.019302 -38.353680 0.354549 0.658579
-40.222076 -38.546543 -0.000012 0.557748
-37.800648 -39.132339 -0.000009 0.519844
-36.117672 -39.539486 -0.000007 0.538430
-34.877731 -39.839455 -0.000006 0.519356
-45.594818 -37.109978 6.770107 0.910216
-44.377586 -37.413464 5.842021 0.650492
nan nan nan 0.000000
nan nan nan 0.000000
nan nan nan 0.000000
-41.019482 -38.250721 3.174824 0.553185
-41.019508 -38.250713 2.703887 0.559274
-41.019459 -38.250725 2.234461 0.381292
-41.019463 -38.250725 1.765539 0.626657
-41.019447 -38.250729 1.296115 0.699596
-41.019379 -38.250748 0.825185 0.704906
-41.019306 -38.250763 0.351724 0.654902
-40.199623 -38.455132 -0.000011 0.524651
-37.782349 -39.057816 -0.000009 0.527840
-36.102253 -39.476700 -0.000007 0.536095
-34.864437 -39.785320 -0.000006 0.538048
-44.421768 -37.273903 6.475178 0.867338
-44.178658 -37.336327 5.804457 0.653834
nan nan nan 0.000000
nan nan nan 0.000000
nan nan nan 0.000000
-41.019482 -38.147449 3.176901 0.551568
-41.019501 -38.147446 2.705132 0.602579
-41.019455 -38.147457 2.234875 0.387945
-41.019455 -38.147457 1.765125 0.619272
-41.019451 -38.147457 1.294870 0.699535
-41.019382 -38.147476 0.823107 0.702144
-41.019314 -38.147491 0.348809 0.665812
-40.176533 -38.363876 -0.000011 0.535439
-37.763519 -38.983425 -0.000009 0.519783
-36.086395 -39.414028 -0.000007 0.530907
-34.850761 -39.731281 -0.000006 0.579782
-43.386230 -37.418495 6.215034 0.721080
-43.982376 -37.260986 5.767535 0.656321
nan nan nan 0.000000
nan nan nan 0.000000
nan nan nan 0.000000
-41.019482 -38.043804 3.179043 0.589578
-41.019501 -38.043800 2.706415 0.610285
-41.019447 -38.043816 2.235303 0.397375
-41.019447 -38.043816 1.764697 0.628229
-41.019447 -38.043816 1.293587 0.695796
-41.019386 -38.043831 0.820964 0.688533
-41.019321 -38.043850 0.345803 0.665202
-40.152805 -38.272789 -0.000011 0.522713
-37.744179 -38.909164 -0.000009 0.565042
-36.070099 -39.351467 -0.000007 0.538491
-34.836712 -39.677338 -0.000006 0.527092
-42.465263 -37.546978 5.983873 0.904662
-43.850449 -37.170639 5.745061 0.649424
nan nan nan 0.000000
nan nan nan 0.000000
nan nan nan 0.000000
-41.019485 -37.939781 3.181251 0.522972
-41.019497 -37.939777 2.707738 0.547631
-41.019444 -37.939793 2.235743 0.398764
-41.019444 -37.939793 1.764257 0.625406
-41.019447 -37.939793 1.292265 0.694133
-41.019394 -37.939804 0.818756 0.706493
-41.019325 -37.939823 0.342705 0.650980
-40.128445 -38.181870 -0.000011 0.498039
-37.724319 -38.835045 -0.000009 0.524041
-36.053364 -39.289024 -0.000007 0.505653
-34.822285 -39.623497 -0.000005 0.553918
-42.111908 -37.530354 5.899645 0.635294
-43.829273 -37.050865 5.747522 0.650126
nan nan nan 0.000000
nan nan nan 0.000000
nan nan nan 0.000000
-41.019482 -37.835361 3.183524 0.626596
-41.019485 -37.835361 2.709099 0.579965
-41.019440 -37.835373 2.236197 0.402182
-41.019440 -37.835373 1.763803 0.634043
-41.019440 -37.835373 1.290903 0.693523
-41.019402 -37.835384 0.816482 0.694972
-41.019333 -37.835403 0.339514 0.659861
-40.103443 -38.091118 -0.000011 0.525017
-37.703941 -38.761063 -0.000008 0.593759
-36.036198 -39.226696 -0.000007 0.556985
-34.807480 -39.569756 -0.000005 0.515816
-41.954918 -37.462303 5.866446 0.631601
-43.805756 -36.931595 5.749650 0.653147
nan nan nan 0.000000
nan nan nan 0.000000
nan nan nan 0.000000
-41.019485 -37.730534 3.185865 0.517830
-41.019485 -37.730530 2.710502 0.592660
-41.019432 -37.730545 2.236664 0.349599
-41.019432 -37.730545 1.763336 0.676036
-41.019432 -37.730545 1.289501 0.708614
-41.019405 -37.730556 0.814141 0.700282
-41.019337 -37.730576 0.336230 0.654475
-40.077816 -38.000546 -0.000011 0.552514
-37.683048 -38.687225 -0.000009 0.549691
-36.018597 -39.164490 -0.000007 0.513298
-34.792305 -39.516121 -0.000006 0.569711
-41.795563 -37.396873 5.832688 0.651087
-43.787701 -36.810562 5.753197 0.651225
-44.902245 -36.482540 5.373356 0.563073
-44.902248 -36.482540 4.750058 0.564599
-44.902245 -36.482540 4.132785 0.616266
-41.019485 -37.625282 3.188273 0.549020
-41.019478 -37.625286 2.711944 0.619150
-41.019424 -37.625301 2.237144 0.351141
-41.019424 -37.625301 1.762856 0.698085
-41.019424 -37.625301 1.288059 0.707866
-41.019413 -37.625305 0.811733 0.695094
-41.019341 -37.625324 0.332852 0.642267
-40.051559 -37.910156 -0.000011 0.543801
-37.661636 -38.613537 -0.000009 0.551461
-36.000557 -39.102409 -0.000007 0.557763
-34.776752 -39.462593 -0.000005 0.514336
-41.648098 -37.329815 5.802088 0.635599
-43.759064 -36.692486 5.754555 0.657008
-44.454445 -36.482540 5.295271 0.680980
-44.454445 -36.482540 4.686401 0.618677
-44.454445 -36.482540 4.083416 0.532479
-41.019485 -37.519600 3.190748 0.549020
-41.019470 -37.519604 2.713427 0.612741
-41.019424 -37.519619 2.237638 0.348608
-41.019424 -37.519619 1.762362 0.687144
-41.019421 -37.519619 1.286576 0.693629
-41.019417 -37.519623 0.809257 0.695277
-41.019348 -37.519642 0.329377 0.625605
-40.024666 -37.819950 -0.000011 0.523400
-37.639717 -38.539997 -0.000008 0.514656
-35.982090 -39.040459 -0.000007 0.557061
-34.760830 -39.409172 -0.000005 0.510948
-41.498959 -37.265049 5.771106 0.637049
-43.736900 -36.572304 5.757566 0.654902
-44.026871 -36.482540 5.220870 0.528740
-44.026871 -36.482540 4.625748 0.620432
-44.026871 -36.482540 4.036377 0.549020
-41.019485 -37.413471 3.193292 0.549020
-41.019466 -37.413475 2.714951 0.589166
-41.019413 -37.413490 2.238146 0.353338
-41.019413 -37.413490 1.761854 0.694575
-41.019417 -37.413490 1.285052 0.708522
-41.019417 -37.413490 0.806713 0.694636
-41.019352 -37.413509 0.325807 0.641260
-39.997143 -37.729935 -0.000011 0.521340
-37.617279 -38.466614 -0.000008 0.545892
-35.963188 -38.978634 -0.000007 0.529274
-34.744530 -39.355865 -0.000006 0.562432
-41.370979 -37.195385 5.745733 0.661067
-43.618179 -36.482540 5.738896 0.529366
-43.618179 -36.482540 5.149909 0.697719
-43.618179 -36.482540 4.567899 0.726513
-43.618187 -36.482540 3.991512 0.600748
-41.019482 -37.306885 3.195906 0.702739
-41.019455 -37.306892 2.716516 0.656123
-41.019405 -37.306908 2.238667 0.355016
-41.019405 -37.306908 1.761333 0.689219
-41.019409 -37.306908 1.283486 0.708614
-41.019409 -37.306908 0.804100 0.690196
-41.019363 -37.306923 0.322140 0.627527
-39.968994 -37.640114 -0.000011 0.524361
-37.594334 -38.393391 -0.000008 0.535576
-35.943855 -38.916946 -0.000007 0.501945
-34.727863 -39.302673 -0.000005 0.544289
-41.345264 -37.093971 5.747367 0.654902
-43.227081 -36.482540 5.658470 0.541543
-43.227081 -36.482540 5.082152 0.617243
-43.227081 -36.482540 4.512660 0.624491
-43.227081 -36.482540 3.948673 0.574945
-41.019485 -37.199821 3.198589 0.701595
-41.019455 -37.199829 2.718124 0.657130
-41.019402 -37.199848 2.239202 0.356497
-41.019405 -37.199848 1.760797 0.685939
-41.019405 -37.199848 1.281879 0.708614
-41.019402 -37.199848 0.801417 0.694423
-41.019363 -37.199860 0.318374 0.594079
-39.940224 -37.550491 -0.000010 0.519570
-37.570877 -38.320328 -0.000008 0.556573
-35.924091 -38.855392 -0.000007 0.566079
-34.710823 -39.249599 -0.000006 0.529747
-41.319000 -36.992634 5.749045 0.654200
-42.852425 -36.482540 5.581600 0.539742
-42.852428 -36.482536 5.017391 0.594553
-42.852425 -36.482540 4.459866 0.694942
-42.852428 -36.482536 3.907729 0.582895
-41.019485 -37.092270 3.201344 0.675975
-41.019447 -37.092281 2.719774 0.649256
-41.019394 -37.092300 2.239753 0.357794
-41.019398 -37.092300 1.760248 0.689662
-41.019394 -37.092300 1.280229 0.686336
-41.019394 -37.092300 0.798663 0.693339
-41.019371 -37.092308 0.314509 0.594034
-39.910820 -37.461067 -0.000010 0.522377
-37.546906 -38.247429 -0.000008 0.533410
-35.903900 -38.793976 -0.000007 0.577996
-34.693409 -39.196648 -0.000005 0.565591
-41.297188 -36.889683 5.752092 0.654902
-42.493187 -36.482536 5.508064 0.678706
-42.493187 -36.482536 4.955440 0.615656
-42.493187 -36.482540 4.409360 0.656657
-42.493187 -36.482540 3.868560 0.695994
-41.019485 -36.984222 3.204170 0.661967
-41.019444 -36.984234 2.721466 0.715099
-41.019394 -36.984253 2.240316 0.359197
-41.019390 -36.984253 1.759684 0.687953
-41.019390 -36.984253 1.278536 0.697795
-41.019390 -36.984253 0.795838 0.685191
-41.019375 -36.984261 0.310544 0.593530
-39.880798 -37.371857 -0.000010 0.535088
-37.522430 -38.174698 -0.000008 0.524773
-35.883282 -38.732704 -0.000006 0.554498
-34.675632 -39.143818 -0.000005 0.546502
-41.269138 -36.788719 5.753681 0.650339
-42.148373 -36.482540 5.437647 0.578332
-42.148376 -36.482540 4.896116 0.610437
-42.148373 -36.482540 4.360999 0.670008
-42.148376 -36.482540 3.831053 0.599359
-41.019485 -36.875656 3.207068 0.620798
-41.019440 -36.875671 2.723202 0.667857
-41.019386 -36.875690 2.240895 0.360586
-41.019386 -36.875690 1.759106 0.662440
-41.019382 -36.875690 1.276800 0.677302
-41.019386 -36.875690 0.792941 0.667353
-41.019386 -36.875690 0.306477 0.673075
-39.850151 -37.282856 -0.000010 0.548150
-37.497448 -38.102142 -0.000008 0.546838
-35.862232 -38.671577 -0.000006 0.560555
-34.657486 -39.091110 -0.000005 0.559808
-41.240791 -36.687759 5.755383 0.650614
-41.817123 -36.482540 5.370167 0.638285
-41.817131 -36.482540 4.839266 0.692866
-41.817127 -36.482540 4.314652 0.592477
-41.817127 -36.482540 3.795110 0.581506
-41.019485 -36.766563 3.210040 0.664118
-41.019432 -36.766582 2.724983 0.703731
-41.019379 -36.766602 2.241487 0.361975
-41.019379 -36.766602 1.758513 0.661494
-41.019379 -36.766602 1.275020 0.661128
-41.019379 -36.766602 0.789970 0.660136
-41.019379 -36.766602 0.302309 0.643549
-39.818886 -37.194073 -0.000010 0.517510
-37.471962 -38.029762 -0.000008 0.541817
-35.840763 -38.610600 -0.000007 0.507332
-34.638969 -39.038532 -0.000005 0.512154
-41.212257 -36.586761 5.757230 0.654902
-41.498615 -36.482540 5.305441 0.691691
-41.498611 -36.482540 4.784736 0.778256
-41.498611 -36.482540 4.270198 0.625101
-41.498611 -36.482540 3.760633 0.696712
-41.019485 -36.656925 3.213085 0.621592
-41.019428 -36.656944 2.726807 0.764782
-41.019371 -36.656967 2.242095 0.356481
-41.019371 -36.656967 1.757905 0.620539
-41.019371 -36.656967 1.273196 0.622339
-41.019371 -36.656967 0.786925 0.622889
-41.019371 -36.656967 0.298037 0.605020
-39.787003 -37.105507 -0.000011 0.540322
-37.445965 -37.957565 -0.000008 0.563073
-35.818863 -38.549774 -0.000006 0.551949
-34.620087 -38.986088 -0.000005 0.543481
-41.192093 -36.482540 5.761503 0.561181
-41.192093 -36.482540 5.243310 0.554635
-41.192093 -36.482540 4.732393 0.596262
-41.192093 -36.482540 4.227526 0.558938
-41.192093 -36.482540 3.727539 0.613565
-41.019485 -36.546730 3.216204 0.640558
-41.019421 -36.546757 2.728676 0.692744
-41.019367 -36.546776 2.242718 0.704784
-41.019367 -36.546776 1.757283 0.624475
-41.019367 -36.546776 1.271327 0.562127
-41.019367 -36.546776 0.783806 0.538231
-41.019367 -36.546776 0.293661 0.486137
-39.754498 -37.017170 -0.000010 0.531548
-37.419468 -37.885548 -0.000008 0.554147
-35.796539 -38.489105 -0.000006 0.581567
-34.600842 -38.933773 -0.000005 0.528405
-40.896870 -36.482536 5.692282 0.571099
-40.896870 -36.482536 5.183625 0.596994
-40.896870 -36.482536 4.682109 0.670024
-40.896870 -36.482536 4.186534 0.566781
-40.896870 -36.482536 3.695748 0.570733
-40.896870 -36.482536 3.208644 0.577661
-40.896866 -36.482540 2.724150 0.573465
-40.896870 -36.482536 2.241211 0.658900
-40.896866 -36.482540 1.758789 0.690333
-40.896866 -36.482540 1.275850 0.653452
-40.896866 -36.482540 0.791355 0.519860
-40.896870 -36.482540 0.304252 0.556649
-39.721375 -36.929062 -0.000010 0.556832
-37.392467 -37.813721 -0.000008 0.533135
-35.773792 -38.428589 -0.000006 0.528557
-34.581226 -38.881596 -0.000005 0.559686
-40.612301 -36.482536 5.625734 0.651743
-40.612301 -36.482536 5.126245 0.550164
-40.612297 -36.482536 4.633769 0.622080
-40.612301 -36.482536 4.147125 0.751980
-40.612301 -36.482536 3.665185 0.650950
-40.612301 -36.482536 3.186862 0.750713
-40.612301 -36.482536 2.711098 0.764324
-40.612301 -36.482536 2.236863 0.761547
-40.612301 -36.482536 1.763136 0.760494
-40.612301 -36.482536 1.288901 0.673808
-40.612301 -36.482536 0.813138 0.718822
-40.612301 -36.482536 0.334815 0.599680
-39.687645 -36.841183 -0.000010 0.517037
-37.364971 -37.742081 -0.000008 0.544244
-35.750626 -38.368237 -0.000006 0.558679
-34.561253 -38.829556 -0.000005 0.544121
-40.337791 -36.482536 5.561714 0.691279
-40.337791 -36.482536 5.071044 0.559747
-40.337788 -36.482540 4.587263 0.566751
-40.337791 -36.482536 4.109213 0.575174
-40.337788 -36.482540 3.635782 0.555886
-40.337791 -36.482536 3.165905 0.563684
-40.337791 -36.482536 2.698542 0.662760
-40.337788 -36.482540 2.232681 0.690578
-40.337788 -36.482540 1.767319 0.675074
-40.337788 -36.482540 1.301457 0.640162
-40.337788 -36.482540 0.834095 0.555001
-40.337788 -36.482540 0.364218 0.552453
-39.653301 -36.753544 -0.000010 0.558312
-37.336971 -37.670631 -0.000008 0.566262
-35.727036 -38.308044 -0.000006 0.521218
-34.540913 -38.777660 -0.000005 0.508553
-40.072800 -36.482536 5.500083 0.683101
-40.072800 -36.482536 5.017903 0.554955
-40.072800 -36.482536 4.542495 0.636332
-40.072800 -36.482540 4.072716 0.553903
-40.072800 -36.482536 3.607477 0.664149
-40.072796 -36.482540 3.145730 0.765393
-40.072800 -36.482536 2.686455 0.580270
-40.072800 -36.482536 2.228655 0.613870
-40.072796 -36.482540 1.771345 0.698070
-40.072796 -36.482540 1.313545 0.592798
-40.072796 -36.482540 0.854270 0.759609
-40.072796 -36.482540 0.392523 0.665309
-39.618343 -36.666149 -0.000010 0.561486
-37.308472 -37.599384 -0.000008 0.560571
-35.703030 -38.248020 -0.000006 0.571389
-34.520210 -38.725903 -0.000005 0.543236
-39.816803 -36.482540 5.440712 0.555611
-39.816803 -36.482536 4.966713 0.514824
-39.816803 -36.482536 4.499367 0.605020
-39.816803 -36.482536 4.037558 0.698299
-39.816803 -36.482540 3.580211 0.539834
-39.816803 -36.482536 3.126295 0.607370
-39.816803 -36.482540 2.674811 0.604303
-39.816803 -36.482540 2.224776 0.559808
-39.816803 -36.482540 1.775224 0.581735
-39.816803 -36.482540 1.325189 0.519051
-39.816803 -36.482540 0.873704 0.587274
-39.816803 -36.482540 0.419790 0.524865
-39.582779 -36.578995 -0.000010 0.557046
-37.279480 -37.528336 -0.000008 0.526314
-35.678604 -38.188164 -0.000006 0.531914
-34.499149 -38.674294 -0.000005 0.533639
-39.569344 -36.482536 5.383487 0.554330
-39.569344 -36.482536 4.917370 0.687205
-39.569344 -36.482536 4.457798 0.727855
-39.569344 -36.482540 4.003668 0.551110
-39.569344 -36.482540 3.553928 0.694743
-39.569344 -36.482540 3.107563 0.642435
-39.569344 -36.482540 2.663588 0.737362
-39.569344 -36.482540 2.221038 0.489036
-39.569344 -36.482540 1.778962 0.524254
-39.569344 -36.482540 1.336413 0.724269
-39.569344 -36.482540 0.892437 0.714305
-39.569344 -36.482540 0.446072 0.623011
-39.546608 -36.492096 -0.000010 0.545998
-37.249992 -37.457493 -0.000008 0.552132
-35.653759 -38.128479 -0.000006 0.532982
-34.477730 -38.622833 -0.000005 0.545708
-39.329960 -36.482540 5.328290 0.531121
-39.329964 -36.482540 4.869778 0.542153
-39.329964 -36.482536 4.417703 0.627115
-39.329960 -36.482540 3.970982 0.566110
-39.329960 -36.482540 3.528579 0.532738
-39.329960 -36.482540 3.089494 0.713741
-39.329960 -36.482540 2.652762 0.566171
-39.329960 -36.482540 2.217432 0.472694
-39.329960 -36.482540 1.782568 0.563836
-39.329960 -36.482540 1.347238 0.631464
-39.329960 -36.482540 0.910505 0.769909
-39.329960 -36.482540 0.471421 0.533196
-39.329956 -36.482540 0.029019 0.531151
-37.220009 -37.386856 -0.000008 0.556817
-35.628498 -38.068970 -0.000006 0.537942
-34.455952 -38.571518 -0.000005 0.595209
-39.098255 -36.482536 5.275025 0.625116
-39.098255 -36.482540 4.823850 0.635752
-39.098255 -36.482540 4.379009 0.515969
-39.098255 -36.482540 3.939438 0.637293
-39.098255 -36.482536 3.504115 0.715831
-39.098255 -36.482540 3.072059 0.613245
-39.098255 -36.482540 2.642315 0.623163
-39.098255 -36.482540 2.213952 0.635081
-39.098255 -36.482540 1.786048 0.638682
-39.098255 -36.482540 1.357685 0.626566
-39.098251 -36.482540 0.927941 0.689097
-39.098251 -36.482540 0.495885 0.680674
-39.098251 -36.482540 0.060562 0.658366
-37.189529 -37.316433 -0.000007 0.516243
-35.602821 -38.009640 -0.000006 0.552422
-34.433811 -38.520363 -0.000005 0.543236
-38.873840 -36.482536 5.223591 0.584207
-38.873840 -36.482540 4.779503 0.801770
-38.873840 -36.482536 4.341648 0.551385
-38.873840 -36.482536 3.908980 0.518929
-38.873840 -36.482536 3.480494 0.590631
-38.873840 -36.482536 3.055222 0.538994
-38.873840 -36.482540 2.632228 0.549020
-38.873840 -36.482540 2.210592 0.549020
-38.873840 -36.482540 1.789408 0.556832
-38.873840 -36.482540 1.367772 0.519661
-38.873840 -36.482540 0.944778 0.537438
-38.873840 -36.482540 0.519507 0.558282
-38.873837 -36.482540 0.091020 0.520409
-37.158562 -37.246220 -0.000007 0.541634
-35.576736 -37.950489 -0.000006 0.556664
-34.411316 -38.469360 -0.000005 0.521584
-38.656357 -36.482536 5.173902 0.554406
-38.656353 -36.482536 4.736657 0.565255
-38.656353 -36.482536 4.305552 0.732265
-38.656353 -36.482536 3.879554 0.775616
-38.656353 -36.482536 3.457672 0.722850
-38.656353 -36.482536 3.038956 0.712840
-38.656353 -36.482536 2.622482 0.606180
-38.656349 -36.482540 2.207346 0.541909
-38.656349 -36.482540 1.792654 0.539376
-38.656349 -36.482540 1.377518 0.563226
-38.656349 -36.482540 0.961044 0.725612
-38.656349 -36.482540 0.542328 0.782498
-38.656349 -36.482540 0.120447 0.735790
-37.127106 -37.176228 -0.000007 0.549508
-35.550236 -37.891521 -0.000006 0.537545
-34.388466 -38.418518 -0.000005 0.558038
-38.445461 -36.482536 5.125870 0.564248
-38.445461 -36.482536 4.695243 0.527169
-38.445461 -36.482536 4.270662 0.554162
-38.445461 -36.482536 3.851110 0.548501
-38.445457 -36.482536 3.435613 0.542977
-38.445461 -36.482536 3.023233 0.534112
-38.445457 -36.482540 2.613062 0.780133
-38.445461 -36.482536 2.204208 0.571878
-38.445457 -36.482540 1.795792 0.515465
-38.445457 -36.482540 1.386938 0.664607
-38.445461 -36.482536 0.976766 0.719127
-38.445457 -36.482540 0.564387 0.545541
-38.445457 -36.482540 0.148890 0.534737
-37.095165 -37.106457 -0.000007 0.516106
-35.523323 -37.832741 -0.000006 0.514229
-34.365261 -38.367836 -0.000004 0.538399
-38.240849 -36.482536 5.079418 0.547982
-38.240845 -36.482536 4.655190 0.553307
-38.240845 -36.482536 4.236919 0.542473
-38.240845 -36.482536 3.823602 0.641886
-38.240845 -36.482536 3.414279 0.606165
-38.240845 -36.482536 3.008028 0.520974
-38.240845 -36.482536 2.603952 0.568002
-38.240845 -36.482536 2.201174 0.582300
-38.240845 -36.482536 1.798826 0.557733
-38.240845 -36.482536 1.396048 0.616175
-38.240845 -36.482540 0.991972 0.565744
-38.240845 -36.482540 0.585721 0.541085
-38.240845 -36.482540 0.176399 0.609705
-37.062737 -37.036911 -0.000007 0.551339
-35.496002 -37.774151 -0.000005 0.532753
-34.341705 -38.317318 -0.000004 0.553964
-38.042213 -36.482536 5.034472 0.520470
-38.042213 -36.482536 4.616437 0.769680
-38.042213 -36.482536 4.204270 0.809064
-38.042213 -36.482536 3.796985 0.530465
-38.042213 -36.482536 3.393637 0.550759
-38.042213 -36.482536 2.993315 0.734630
-38.042213 -36.482540 2.595137 0.606653
-38.042213 -36.482540 2.198237 0.664485
-38.042213 -36.482540 1.801763 0.517464
-38.042210 -36.482540 1.404863 0.524437
-38.042213 -36.482540 1.006685 0.493935
-38.042213 -36.482540 0.606363 0.572168
-38.042210 -36.482540 0.203015 0.554543
-37.029819 -36.967590 -0.000007 0.537896
-35.468273 -37.715752 -0.000006 0.535927
-34.317795 -38.266964 -0.000004 0.534417
-38.020195 -36.399181 5.038594 0.775219
-38.020195 -36.399181 4.619990 0.644404
-38.020195 -36.399181 4.207264 0.649104
-38.020195 -36.399181 3.799426 0.517235
-38.020195 -36.399181 3.395530 0.567971
-38.020195 -36.399181 2.994664 0.682597
-38.020203 -36.399178 2.595946 0.588785
-38.020203 -36.399178 2.198507 0.654917
-38.020203 -36.399178 1.801493 0.550942
-38.020203 -36.399178 1.404054 0.620310
-38.020203 -36.399178 1.005335 0.560189
-38.020203 -36.399178 0.604469 0.625360
-38.020203 -36.399178 0.200572 0.533608
-36.996418 -36.898506 -0.000007 0.533700
-35.440132 -37.657547 -0.000005 0.493599
-34.293533 -38.216778 -0.000004 0.534279
-38.020180 -36.304638 5.049047 0.576104
-38.020180 -36.304638 4.629003 0.654231
-38.020180 -36.304642 4.214857 0.555657
-38.020180 -36.304638 3.805616 0.518822
-38.020180 -36.304642 3.400330 0.567483
-38.020191 -36.304634 2.998087 0.581872
-38.020203 -36.304626 2.597996 0.585840
-38.020203 -36.304630 2.199190 0.624659
-38.020203 -36.304630 1.800810 0.558740
-38.020203 -36.304626 1.402004 0.629313
-38.020203 -36.304630 1.001912 0.548669
-38.020203 -36.304630 0.599667 0.588281
-38.020203 -36.304630 0.194381 0.490776
-36.962540 -36.829651 -0.000007 0.550988
-35.411591 -37.599541 -0.000005 0.526116
-34.268925 -38.166763 -0.000004 0.505653
-38.020168 -36.209442 5.059721 0.550500
-38.020168 -36.209438 4.638207 0.587472
-38.020164 -36.209442 4.222611 0.517647
-38.020168 -36.209442 3.811937 0.562875
-38.020168 -36.209442 3.405233 0.771878
-38.020199 -36.209423 3.001583 0.579690
-38.020203 -36.209423 2.600091 0.575265
-38.020203 -36.209423 2.199888 0.582422
-38.020203 -36.209423 1.800113 0.566659
-38.020203 -36.209423 1.399909 0.599466
-38.020203 -36.209423 0.998416 0.555093
-38.020203 -36.209423 0.594763 0.691752
-38.020203 -36.209423 0.188057 0.545190
-36.928181 -36.761040 -0.000006 0.543297
-35.382645 -37.541737 -0.000005 0.546517
-34.243965 -38.116920 -0.000005 0.554604
-38.020157 -36.113567 5.070620 0.516548
-38.020157 -36.113567 4.647605 0.528252
-38.020157 -36.113567 4.230528 0.530999
-38.020153 -36.113567 3.818392 0.587549
-38.020168 -36.113560 3.410240 0.783093
-38.020203 -36.113544 3.005152 0.652827
-38.020203 -36.113544 2.602229 0.657267
-38.020203 -36.113544 2.200600 0.597910
-38.020203 -36.113544 1.799400 0.502876
-38.020203 -36.113544 1.397771 0.744442
-38.020203 -36.113544 0.994848 0.741665
-38.020203 -36.113544 0.589755 0.726848
-38.020203 -36.113544 0.181600 0.541588
-36.893345 -36.692665 -0.000007 0.528771
-35.353294 -37.484135 -0.000005 0.525002
-34.218658 -38.067253 -0.000004 0.547921
-38.020142 -36.017006 5.081748 0.564233
-38.020142 -36.017006 4.657199 0.533471
-38.020142 -36.017006 4.238611 0.572015
-38.020142 -36.017006 3.824982 0.758434
-38.020180 -36.016983 3.415355 0.540230
-38.020203 -36.016972 3.008796 0.582040
-38.020203 -36.016972 2.604413 0.748363
-38.020203 -36.016972 2.201327 0.622278
-38.020203 -36.016972 1.798673 0.561318
-38.020203 -36.016975 1.395588 0.729992
-38.020203 -36.016975 0.991203 0.517647
-38.020203 -36.016975 0.584643 0.632944
-38.020203 -36.016975 0.175008 0.616327
-36.858028 -36.624538 -0.000006 0.514412
-35.323540 -37.426739 -0.000005 0.535286
-34.193005 -38.017765 -0.000004 0.546349
-38.020126 -35.919739 5.093108 0.783902
-38.020126 -35.919739 4.666995 0.647044
-38.020126 -35.919739 4.246864 0.704219
-38.020145 -35.919727 3.831713 0.641886
-38.020191 -35.919704 3.420575 0.563867
-38.020203 -35.919697 3.012516 0.546883
-38.020203 -35.919697 2.606641 0.804334
-38.020203 -35.919697 2.202069 0.726558
-38.020203 -35.919697 1.797931 0.626352
-38.020203 -35.919697 1.393359 0.760296
-38.020203 -35.919697 0.987483 0.524453
-38.020203 -35.919697 0.579423 0.662104
-38.020203 -35.919701 0.168279 0.773968
-36.822243 -36.556660 -0.000007 0.538521
-35.293392 -37.369553 -0.000005 0.536950
-34.167007 -37.968456 -0.000004 0.585382
-38.020115 -35.821743 5.104705 0.561654
-38.020115 -35.821743 4.676994 0.616464
-38.020115 -35.821739 4.255289 0.712993
-38.020157 -35.821716 3.838584 0.601434
-38.020203 -35.821693 3.425904 0.525856
-38.020203 -35.821693 3.016314 0.531456
-38.020203 -35.821693 2.608917 0.767895
-38.020203 -35.821693 2.202827 0.526101
-38.020203 -35.821693 1.797173 0.551095
-38.020199 -35.821697 1.391084 0.722347
-38.020199 -35.821697 0.983686 0.575006
-38.020203 -35.821693 0.574096 0.543374
-38.020199 -35.821697 0.161409 0.746807
-36.785976 -36.489029 -0.000007 0.547265
-35.262844 -37.312580 -0.000005 0.576577
-34.140667 -37.919331 -0.000004 0.547326
-38.020100 -35.723007 5.116541 0.702998
-38.020100 -35.723007 4.687200 0.567910
-38.020126 -35.722992 4.263891 0.529809
-38.020168 -35.722969 3.845597 0.658549
-38.020199 -35.722954 3.431342 0.752636
-38.020203 -35.722950 3.020189 0.700664
-38.020203 -35.722950 2.611238 0.804364
-38.020203 -35.722950 2.203601 0.605600
-38.020203 -35.722950 1.796399 0.604135
-38.020203 -35.722950 1.388762 0.792798
-38.020203 -35.722950 0.979810 0.738231
-38.020199 -35.722954 0.568658 0.806500
-38.020199 -35.722954 0.154397 0.744869
-36.749245 -36.421658 -0.000007 0.530663
-35.231895 -37.255821 -0.000005 0.556329
-34.113983 -37.870392 -0.000004 0.542641
-38.020088 -35.623505 5.128622 0.573526
-38.020088 -35.623505 4.697616 0.549020
-38.020134 -35.623482 4.272671 0.533761
-38.020176 -35.623455 3.852755 0.558419
-38.020199 -35.623444 3.436891 0.532815
-38.020203 -35.623444 3.024145 0.717433
-38.020203 -35.623444 2.613608 0.594385
-38.020203 -35.623444 2.204390 0.561044
-38.020203 -35.623444 1.795610 0.569375
-38.020203 -35.623444 1.386392 0.688838
-38.020203 -35.623444 0.975855 0.585367
-38.020199 -35.623444 0.563109 0.518914
-38.020203 -35.623444 0.147241 0.551080
-36.712044 -36.354542 -0.000006 0.515084
-35.200554 -37.199276 -0.000005 0.555917
-34.086960 -37.821636 -0.000004 0.527428
-38.020077 -35.523228 5.140949 0.653422
-38.020103 -35.523212 4.708252 0.543694
-38.020145 -35.523190 4.281631 0.522454
-38.020187 -35.523163 3.860059 0.820081
-38.020199 -35.523159 3.442555 0.846494
-38.020203 -35.523159 3.028181 0.828397
-38.020203 -35.523155 2.616027 0.816266
-38.020199 -35.523159 2.205195 0.792081
-38.020203 -35.523159 1.794804 0.818372
-38.020203 -35.523155 1.383973 0.826413
-38.020203 -35.523155 0.971818 0.553826
-38.020199 -35.523159 0.557445 0.543084
-38.020199 -35.523159 0.139939 0.559869
-36.674374 -36.287685 -0.000006 0.517220
-35.168816 -37.142952 -0.000005 0.509239
-34.059597 -37.773075 -0.000004 0.524636
-38.020065 -35.422153 5.153530 0.526131
-38.020111 -35.422127 4.719104 0.741176
-38.020157 -35.422100 4.290773 0.723537
-38.020199 -35.422073 3.867513 0.781155
-38.020203 -35.422073 3.448334 0.690059
-38.020203 -35.422073 3.032301 0.532799
-38.020203 -35.422073 2.618495 0.557321
-38.020203 -35.422073 2.206018 0.553307
-38.020203 -35.422073 1.793982 0.551812
-38.020203 -35.422073 1.381505 0.790967
-38.020203 -35.422073 0.967699 0.727016
-38.020203 -35.422073 0.551666 0.550317
-38.020203 -35.422073 0.132487 0.582513
-36.636238 -36.221100 -0.000006 0.536126
-35.136692 -37.086853 -0.000005 0.517311
-34.031895 -37.724701 -0.000004 0.527596
-38.020077 -35.320244 5.166373 0.536873
-38.020123 -35.320217 4.730177 0.542824
-38.020164 -35.320190 4.300102 0.520684
-38.020199 -35.320175 3.875117 0.573892
-38.020199 -35.320175 3.454231 0.564065
-38.020199 -35.320171 3.036504 0.516609
-38.020203 -35.320171 2.621013 0.523766
-38.020203 -35.320171 2.206857 0.543633
-38.020203 -35.320171 1.793144 0.556100
-38.020203 -35.320171 1.378987 0.807355
-38.020199 -35.320171 0.963496 0.800855
-38.020199 -35.320171 0.545769 0.846601
-38.020199 -35.320171 0.124883 0.815045
-36.597633 -36.154778 -0.000006 0.546914
-35.104172 -37.030979 -0.000005 0.525185
-34.003853 -37.676529 -0.000004 0.527276
-38.020088 -35.217499 5.179476 0.525246
-38.020134 -35.217472 4.741475 0.572519
-38.020176 -35.217449 4.309620 0.546151
-38.020199 -35.217434 3.882874 0.549355
-38.020199 -35.217434 3.460248 0.524636
-38.020199 -35.217434 3.040792 0.546899
-38.020203 -35.217430 2.623582 0.534005
-38.020203 -35.217434 2.207712 0.502205
-38.020203 -35.217434 1.792288 0.519799
-38.020203 -35.217434 1.376418 0.531121
-38.020203 -35.217430 0.959208 0.770794
-38.020199 -35.217434 0.539752 0.798199
-38.020203 -35.217434 0.117125 0.696788
-36.558575 -36.088730 -0.000006 0.561929
-35.071262 -36.975334 -0.000005 0.541497
-33.975479 -37.628548 -0.000004 0.569772
-38.020096 -35.113895 5.192843 0.570840
-38.020142 -35.113869 4.753001 0.847242
-38.020184 -35.113842 4.319332 0.535851
-38.020195 -35.113834 3.890789 0.526345
-38.020199 -35.113834 3.466386 0.550759
-38.020199 -35.113834 3.045167 0.529549
-38.020203 -35.113831 2.626203 0.574304
-38.020203 -35.113831 2.208585 0.595010
-38.020203 -35.113831 1.791415 0.542550
-38.020203 -35.113831 1.373796 0.617884
-38.020203 -35.113831 0.954833 0.680659
-38.020203 -35.113831 0.533614 0.817319
-38.020203 -35.113831 0.109210 0.752880
-36.519051 -36.022949 -0.000006 0.517998
-35.037968 -36.919922 -0.000005 0.576623
-33.946770 -37.580769 -0.000003 0.547311
-37.935123 -35.061691 5.181489 0.538964
-37.935123 -35.061691 4.743199 0.525185
-37.935127 -35.061691 4.311065 0.371939
-38.020199 -35.009354 3.898864 0.676753
-38.020199 -35.009354 3.472648 0.552651
-38.020199 -35.009354 3.049630 0.517647
-38.020199 -35.009354 2.628878 0.517647
-38.020203 -35.009354 2.209476 0.548196
-38.020203 -35.009354 1.790524 0.518761
-38.020199 -35.009354 1.371122 0.564172
-38.020203 -35.009354 0.950369 0.658259
-38.020199 -35.009354 0.527352 0.569604
-38.020203 -35.009354 0.101135 0.518074
-36.479073 -35.957451 -0.000006 0.549889
-35.004284 -36.864742 -0.000005 0.531502
-33.917725 -37.533188 -0.000003 0.487312
-37.990318 -34.922646 5.211593 0.678431
-37.990318 -34.922646 4.769156 0.678431
-37.935127 -34.957130 4.321091 0.438102
-38.020187 -34.903980 3.907099 0.767224
-38.020199 -34.903973 3.479036 0.671824
-38.020199 -34.903973 3.054183 0.557000
-38.020203 -34.903973 2.631606 0.541665
-38.020203 -34.903973 2.210385 0.500404
-38.020199 -34.903973 1.789615 0.549569
-38.020203 -34.903973 1.368394 0.556771
-38.020199 -34.903973 0.945816 0.506340
-38.020199 -34.903973 0.520964 0.536324
-38.020203 -34.903973 0.092899 0.544976
-36.438637 -35.892235 -0.000006 0.561715
-34.970219 -36.809795 -0.000004 0.536812
-33.888355 -37.485813 -0.000004 0.567834
-37.990318 -34.816635 5.225742 0.678431
-37.990318 -34.816635 4.781357 0.678431
-37.935131 -34.851658 4.331318 0.499687
-38.020180 -34.797684 3.915500 0.707118
-38.020187 -34.797676 3.485552 0.717540
-38.020199 -34.797672 3.058828 0.571145
-38.020199 -34.797668 2.634388 0.560952
-38.020199 -34.797672 2.211312 0.543633
-38.020199 -34.797668 1.788688 0.565270
-38.020203 -34.797668 1.365611 0.563684
-38.020203 -34.797668 0.941171 0.571023
-38.020199 -34.797672 0.514447 0.511315
-38.020203 -34.797668 0.084496 0.534081
-36.397747 -35.827301 -0.000006 0.512306
-34.935768 -36.755093 -0.000005 0.578454
-33.858650 -37.438644 -0.000003 0.519570
-37.990318 -34.709679 5.240177 0.678431
-37.990318 -34.709679 4.793802 0.678431
-37.935131 -34.745243 4.341750 0.479484
-38.020168 -34.690441 3.924070 0.616022
-38.020180 -34.690430 3.492198 0.678523
-38.020191 -34.690426 3.063565 0.731853
-38.020203 -34.690418 2.637227 0.546471
-38.020203 -34.690418 2.212258 0.543633
-38.020199 -34.690422 1.787743 0.537560
-38.020203 -34.690418 1.362772 0.571664
-38.020199 -34.690418 0.936433 0.548012
-38.020199 -34.690418 0.507799 0.562493
-38.020203 -34.690418 0.075924 0.542885
-36.356400 -35.762657 -0.000006 0.514473
-34.900936 -36.700630 -0.000004 0.488640
-33.828617 -37.391685 -0.000003 0.537469
-37.990318 -34.601757 5.254900 0.678431
-37.990318 -34.601757 4.806498 0.678431
-37.990318 -34.601753 4.364391 0.666178
