# This PCD file was generated using the MATLABÂ® pcwrite function
# from Computer Vision ToolboxÂ®.
# .PCD v.7 - Point Cloud Data file format
VERSION .7
FIELDS x y z intensity
SIZE 4 4 4 4
TYPE F F F F
COUNT 1 1 1 1
WIDTH 1333
HEIGHT 1
VIEWPOINT 0 0 0 1 0 0 0
POINTS 1333
DATA ascii
35.577156 24.830322 5.045453 0.530968
33.933960 27.770475 3.659191 0.559319
33.933960 27.770473 2.552669 0.516655
33.933960 27.770473 1.447331 0.536263
33.933960 27.770479 0.340808 0.529458
29.356922 35.960121 -0.000010 0.539239
25.938711 42.076286 -0.000007 0.527138
24.034952 45.482658 -0.000005 0.538003
22.819565 47.657337 -0.000003 0.539910
21.523071 49.977139 0.199993 0.679759
20.962940 50.979374 0.199995 0.715175
nan nan nan 0.000000
nan nan nan 0.000000
37.639000 20.541607 9.622585 0.450797
36.297096 22.982525 7.800970 0.384390
35.169781 25.033100 6.229696 0.654047
35.280823 24.831120 5.033616 0.681620
33.664894 27.770473 3.652782 0.503273
33.664894 27.770479 2.550534 0.495064
33.664894 27.770479 1.449466 0.534066
33.664894 27.770473 0.347217 0.517647
29.207985 35.877563 -0.000010 0.545083
25.832558 42.017441 -0.000007 0.532067
23.952625 45.437023 -0.000005 0.617395
22.752451 47.620132 -0.000004 0.544411
21.472181 49.948933 0.199994 0.742138
20.919064 50.955051 0.199995 0.693431
nan nan nan 0.000000
nan nan nan 0.000000
37.277496 20.595299 9.582520 0.306416
35.966103 23.020668 7.772499 0.334997
34.877983 25.033100 6.213627 0.646372
34.949982 24.899940 5.015676 0.359731
33.350273 27.858536 3.641585 0.636896
33.397888 27.770477 2.548443 0.527764
33.397888 27.770477 1.451557 0.551904
33.397888 27.770477 0.353496 0.549279
29.058479 35.796043 -0.000010 0.537102
25.725996 41.959339 -0.000007 0.541482
23.869980 45.391968 -0.000005 0.521447
22.685076 47.583405 -0.000003 0.555901
21.421099 49.921082 0.199994 0.716930
20.875017 50.931038 0.199995 0.748211
nan nan nan 0.000000
nan nan nan 0.000000
36.920124 20.647728 9.543385 0.337270
35.638580 23.057961 7.744665 0.324559
34.588379 25.033100 6.197883 0.660029
34.659187 24.899933 5.004409 0.413947
33.207966 27.629280 3.648208 0.650858
33.132889 27.770481 2.546394 0.447272
33.132889 27.770477 1.453606 0.563134
33.132889 27.770475 0.359648 0.533089
28.908407 35.715569 -0.000010 0.533928
25.619030 41.901985 -0.000007 0.528542
23.787025 45.347485 -0.000005 0.534981
22.617449 47.547142 -0.000003 0.525368
21.369822 49.893585 0.199994 0.706447
20.830803 50.907330 0.199995 0.654124
nan nan nan 0.000000
nan nan nan 0.000000
36.566750 20.698967 9.505148 0.328603
35.314430 23.094429 7.717454 0.343160
34.300922 25.033096 6.182460 0.634577
34.406425 24.831291 4.999721 0.747555
33.394951 26.766062 3.690005 0.261814
32.869850 27.770477 2.544385 0.519890
32.869850 27.770477 1.455614 0.507164
32.823822 27.858530 0.370556 0.655879
28.757774 35.636154 -0.000010 0.545541
25.511667 41.845383 -0.000007 0.543954
23.703762 45.303585 -0.000005 0.528832
22.549570 47.511349 -0.000004 0.542046
21.318354 49.866447 0.199993 0.750957
20.786427 50.883930 0.199994 0.722133
nan nan nan 0.000000
nan nan nan 0.000000
36.217278 20.749004 9.467802 0.350088
34.993576 23.130062 7.690859 0.296864
34.003258 25.057011 6.164258 0.622782
34.119278 24.831268 4.988888 0.700496
33.415436 26.200785 3.715123 0.240772
32.563469 27.858534 2.540800 0.625528
32.563469 27.858534 1.459200 0.629816
32.563469 27.858540 0.376443 0.647715
28.606590 35.557789 -0.000010 0.538582
25.403913 41.789520 -0.000007 0.532906
23.620193 45.260269 -0.000005 0.530205
22.481443 47.476036 -0.000004 0.544411
21.266697 49.839672 0.199994 0.712306
20.741888 50.860844 0.199994 0.755001
nan nan nan 0.000000
nan nan nan 0.000000
35.871582 20.797882 9.431320 0.361471
34.675922 23.164883 7.664864 0.300954
33.778091 24.942284 6.164258 0.625254
33.834164 24.831284 4.978273 0.628534
33.436977 25.617577 3.741132 0.390219
32.456646 27.558302 2.544384 0.499718
32.454006 27.563532 1.455713 0.530236
32.451363 27.568760 0.366258 0.577569
28.454865 35.480484 -0.000010 0.540307
25.295773 41.734421 -0.000007 0.543236
23.536324 45.217533 -0.000005 0.522988
22.413071 47.441200 -0.000004 0.557183
21.214855 49.813259 0.199993 0.680919
20.697187 50.838066 0.199994 0.765118
nan nan nan 0.000000
nan nan nan 0.000000
35.529560 20.845627 9.395686 0.394171
34.361370 23.198933 7.639457 0.371115
33.551071 24.831272 6.163984 0.551293
33.551067 24.831276 4.967880 0.564065
32.626183 26.694445 3.675993 0.493355
32.048325 27.858524 2.536998 0.659236
32.048325 27.858524 1.463002 0.643534
32.048328 27.858521 0.387853 0.621134
28.302601 35.404240 -0.000010 0.547463
25.187246 41.680077 -0.000007 0.532708
23.452158 45.175388 -0.000005 0.555505
22.344456 47.406837 -0.000004 0.531853
21.162832 49.787205 0.199993 0.723491
20.652328 50.815605 0.199994 0.688762
nan nan nan 0.000000
nan nan nan 0.000000
35.191101 20.892269 9.360881 0.398672
34.049839 23.232208 7.614625 0.344549
33.269932 24.831257 6.149705 0.664210
33.269920 24.831276 4.957703 0.605753
32.356819 26.703409 3.669755 0.604013
31.793440 27.858511 2.535157 0.651591
31.793440 27.858511 1.464842 0.652949
31.793438 27.858511 0.393380 0.644327
28.149815 35.329048 -0.000010 0.539086
25.078346 41.626488 -0.000007 0.523720
23.367701 45.133827 -0.000005 0.550011
22.275604 47.372959 -0.000004 0.521355
21.110626 49.761520 0.199993 0.707317
20.607315 50.793457 0.199994 0.670054
nan nan nan 0.000000
nan nan nan 0.000000
34.856117 20.937813 9.326893 0.338338
33.741253 23.264717 7.590361 0.313634
32.990677 24.831287 6.135721 0.596475
32.990677 24.831287 4.947736 0.571542
32.089561 26.712063 3.663658 0.676173
31.582466 27.770452 2.534951 0.549264
31.582466 27.770449 1.465048 0.717708
31.582466 27.770452 0.393997 0.535485
27.996502 35.254936 -0.000010 0.547082
24.969069 41.573673 -0.000007 0.530404
23.282955 45.092861 -0.000005 0.544915
22.206516 47.339561 -0.000004 0.518288
21.058243 49.736195 0.199994 0.765316
20.562149 50.771622 0.199994 0.743084
nan nan nan 0.000000
nan nan nan 0.000000
34.524506 20.982292 9.293698 0.324361
33.435532 23.296478 7.566654 0.287907
32.713310 24.831272 6.122035 0.564370
32.713310 24.831276 4.937982 0.502342
31.288795 27.858521 3.595906 0.636057
31.330235 27.770456 2.533181 0.627207
31.330235 27.770456 1.466819 0.686259
31.330236 27.770454 0.399311 0.553552
27.842674 35.181900 -0.000010 0.551690
24.859432 41.521606 -0.000007 0.545968
23.197927 45.052483 -0.000005 0.531945
22.137199 47.306644 -0.000004 0.523766
21.005684 49.711239 0.199993 0.723842
20.516830 50.750103 0.199995 0.659739
nan nan nan 0.000000
nan nan nan 0.000000
34.196167 21.025719 9.261288 0.340795
33.132580 23.327530 7.543486 0.326024
32.437744 24.831287 6.108637 0.653590
32.403374 24.905674 4.921712 0.506767
31.068245 27.795158 3.594149 0.659281
31.079659 27.770456 2.531449 0.561486
31.079659 27.770454 1.468551 0.648676
31.079659 27.770456 0.404515 0.562554
27.688343 35.109928 -0.000010 0.535225
24.749432 41.470314 -0.000007 0.548974
23.112617 45.012703 -0.000005 0.529809
22.067652 47.274216 -0.000004 0.518608
20.952951 49.686646 0.199993 0.692699
20.471363 50.728901 0.199994 0.698528
nan nan nan 0.000000
nan nan nan 0.000000
33.871006 21.068119 9.229643 0.329503
32.832344 23.357841 7.520859 0.356771
32.163963 24.831272 6.095527 0.657481
32.123512 24.920448 4.911058 0.626902
30.830688 27.770458 3.590394 0.514656
30.830688 27.770462 2.529752 0.564157
30.830688 27.770458 1.470247 0.718318
30.830690 27.770454 0.409606 0.541711
27.533512 35.039040 -0.000010 0.537957
24.639076 41.419792 -0.000007 0.556817
23.027031 44.973522 -0.000005 0.549142
21.997881 47.242271 -0.000004 0.509499
20.900049 49.662426 0.199993 0.759503
20.425749 50.708015 0.199994 0.676127
nan nan nan 0.000000
nan nan nan 0.000000
33.548943 21.109509 9.198751 0.328435
32.534737 23.387459 7.498755 0.419226
31.891903 24.831284 6.082694 0.563256
31.892796 24.829285 4.910121 0.491783
30.583298 27.770458 3.585412 0.518303
30.583298 27.770458 2.528093 0.597421
30.583298 27.770458 1.471907 0.650263
30.583298 27.770454 0.414588 0.588418
27.378193 34.969238 -0.000010 0.525246
24.528374 41.370033 -0.000007 0.540154
22.941175 44.934937 -0.000005 0.507546
21.927889 47.210815 -0.000004 0.548974
20.846979 49.638577 0.199993 0.682292
20.379990 50.687450 0.199994 0.700328
nan nan nan 0.000000
nan nan nan 0.000000
33.229881 21.149914 9.168596 0.364584
32.239685 23.416386 7.477167 0.419135
31.621532 24.831276 6.070144 0.561883
31.622002 24.830200 4.901093 0.493980
30.337433 27.770462 3.580537 0.544259
30.337435 27.770458 2.526469 0.560861
30.337435 27.770458 1.473531 0.692378
30.337435 27.770460 0.419463 0.548409
27.222389 34.900517 -0.000010 0.533196
24.417324 41.321053 -0.000007 0.536706
22.855051 44.896950 -0.000005 0.535332
21.857677 47.179848 -0.000004 0.528115
20.793743 49.615097 0.199993 0.669093
20.334087 50.667206 0.199994 0.746548
nan nan nan 0.000000
nan nan nan 0.000000
32.913734 21.189354 9.139166 0.336660
31.947121 23.444633 7.456085 0.311421
31.352806 24.831272 6.057868 0.631769
30.055321 27.858526 4.622186 0.647547
30.093063 27.770470 3.575769 0.581064
30.093067 27.770464 2.524882 0.543984
30.093067 27.770464 1.475119 0.667109
30.093065 27.770466 0.424231 0.543877
27.066105 34.832893 -0.000010 0.543435
24.305933 41.272850 -0.000008 0.530571
22.768665 44.859566 -0.000005 0.564492
21.787252 47.149372 -0.000004 0.555505
20.740345 49.591991 0.199994 0.693401
20.288046 50.647282 0.199994 0.769558
nan nan nan 0.000000
nan nan nan 0.000000
32.600426 21.227840 9.110445 0.364263
31.656979 23.472210 7.435503 0.306584
31.085678 24.831280 6.045859 0.519020
29.813137 27.858538 4.614427 0.654429
29.850159 27.770468 3.571106 0.583047
29.850159 27.770464 2.523328 0.551232
29.831898 27.813906 1.477443 0.433707
29.850159 27.770464 0.428893 0.664424
26.909357 34.766354 -0.000010 0.547021
24.194210 41.225433 -0.000007 0.553277
22.682020 44.822788 -0.000005 0.539651
21.716616 47.119392 -0.000004 0.560708
20.686787 49.569256 0.199994 0.715969
20.241865 50.627682 0.199995 0.657374
nan nan nan 0.000000
nan nan nan 0.000000
32.289871 21.265392 9.082420 0.351370
31.369190 23.499134 7.415411 0.338125
30.820118 24.831276 6.034119 0.686091
29.572376 27.858530 4.606841 0.633738
29.608673 27.770466 3.566547 0.568185
29.608673 27.770470 2.521809 0.554208
29.590763 27.813919 1.478960 0.361486
29.608675 27.770462 0.433452 0.744747
26.752148 34.700916 -0.000010 0.536873
24.082157 41.178795 -0.000007 0.551583
22.595119 44.786613 -0.000005 0.535592
21.645773 47.089901 -0.000004 0.544900
20.633072 49.546898 0.199993 0.739086
20.195551 50.608402 0.199994 0.682033
nan nan nan 0.000000
nan nan nan 0.000000
31.981995 21.302021 9.055084 0.332479
31.083685 23.525410 7.395801 0.333623
30.556078 24.831287 6.022641 0.488930
29.437555 27.599722 4.622312 0.632761
29.368572 27.770466 3.562091 0.575097
29.368570 27.770466 2.520324 0.528649
29.368572 27.770464 1.479675 0.730495
29.368572 27.770464 0.437909 0.628092
26.594482 34.636574 -0.000010 0.543282
23.969784 41.132927 -0.000007 0.531655
22.507967 44.751053 -0.000005 0.536416
21.574724 47.060905 -0.000004 0.523140
20.579201 49.524914 0.199994 0.702098
20.149101 50.589447 0.199995 0.658976
nan nan nan 0.000000
nan nan nan 0.000000
31.676716 21.337753 9.028418 0.340200
30.800409 23.551048 7.376664 0.341512
30.293530 24.831280 6.011424 0.546700
29.739780 26.229889 4.735804 0.339483
29.129822 27.770466 3.557734 0.522850
29.129822 27.770468 2.518874 0.541360
29.129822 27.770468 1.481126 0.692424
29.129824 27.770462 0.442265 0.608148
26.436375 34.573334 -0.000010 0.543542
23.857092 41.087856 -0.000007 0.541299
22.420570 44.716095 -0.000005 0.553597
21.503477 47.032410 -0.000004 0.539055
20.525179 49.503307 0.199994 0.686885
20.102522 50.570816 0.199995 0.707210
nan nan nan 0.000000
nan nan nan 0.000000
31.373962 21.372589 9.002416 0.321767
30.519295 23.576057 7.357994 0.355566
30.032425 24.831276 6.000464 0.588907
30.032438 24.831249 4.851336 0.695460
28.892387 27.770470 3.553478 0.594842
28.892387 27.770470 2.517456 0.519112
28.892389 27.770468 1.482544 0.748394
28.892389 27.770466 0.446521 0.688136
26.277830 34.511200 -0.000010 0.546517
23.744089 41.043571 -0.000007 0.543893
22.332933 44.681747 -0.000005 0.539605
21.432032 47.004410 -0.000004 0.543328
20.471006 49.482079 0.199994 0.679927
20.055813 50.552509 0.199995 0.760006
nan nan nan 0.000000
nan nan nan 0.000000
31.073658 21.406567 8.977061 0.341192
30.240276 23.600464 7.339782 0.325658
29.772732 24.831276 5.989758 0.604089
29.772766 24.831188 4.843708 0.718990
28.656237 27.770472 3.549321 0.555901
28.656235 27.770473 2.516072 0.534737
28.656237 27.770472 1.483929 0.688106
28.656239 27.770470 0.450679 0.786435
26.118855 34.450172 -0.000010 0.551812
23.630779 41.000069 -0.000007 0.548928
22.245056 44.648018 -0.000005 0.557580
21.360392 46.976910 -0.000004 0.534844
20.416687 49.461227 0.199994 0.686732
20.008976 50.534534 0.199995 0.716213
nan nan nan 0.000000
nan nan nan 0.000000
30.775738 21.439674 8.952350 0.386572
29.963295 23.624264 7.322021 0.348653
29.514412 24.831276 5.979302 0.602121
29.514381 24.831356 4.836242 0.789731
28.421333 27.770475 3.545260 0.671092
28.421333 27.770470 2.514719 0.491585
28.421333 27.770470 1.485281 0.677470
28.421333 27.770472 0.454739 0.668589
25.959454 34.390263 -0.000010 0.540825
23.517168 40.957371 -0.000007 0.545235
22.156946 44.614895 -0.000005 0.531533
21.288563 46.949909 -0.000004 0.539254
20.362225 49.440758 0.199994 0.732692
19.962017 50.516884 0.199995 0.658351
nan nan nan 0.000000
nan nan nan 0.000000
30.480122 21.471954 8.928265 0.377493
29.688303 23.647453 7.304708 0.330465
29.257427 24.831276 5.969093 0.728161
29.257418 24.831299 4.828971 0.764950
28.155600 27.858526 3.536693 0.616464
28.187647 27.770477 2.513399 0.582925
28.187647 27.770475 1.486602 0.736416
28.187649 27.770472 0.458704 0.705150
25.799643 34.331459 -0.000010 0.540368
23.403261 40.915462 -0.000007 0.533455
22.068607 44.582394 -0.000005 0.556054
21.216545 46.923416 -0.000004 0.527810
20.307621 49.420666 0.199994 0.752041
19.914934 50.499557 0.199995 0.661830
nan nan nan 0.000000
nan nan nan 0.000000
30.186756 21.503387 8.904801 0.366796
29.415236 23.670067 7.287831 0.388205
29.001749 24.831272 5.959130 0.724041
29.001759 24.831245 4.821875 0.625040
28.009953 27.616558 3.545454 0.633341
27.955145 27.770479 2.512110 0.617487
27.955147 27.770477 1.487890 0.805982
27.955147 27.770472 0.462572 0.740856
25.639425 34.273773 -0.000010 0.542443
23.289066 40.874344 -0.000007 0.545251
21.980043 44.550510 -0.000005 0.536950
21.144346 46.897419 -0.000004 0.554696
20.252876 49.400955 0.199994 0.678569
19.867733 50.482563 0.199994 0.703059
nan nan nan 0.000000
nan nan nan 0.000000
29.895567 21.534016 8.881945 0.361715
29.144039 23.692101 7.271386 0.480888
28.747337 24.831272 5.949409 0.604181
28.747358 24.831215 4.814948 0.579843
28.246078 26.270695 3.611670 0.401205
27.693138 27.858522 2.509327 0.649638
27.693138 27.858522 1.490674 0.651698
27.693140 27.858521 0.470927 0.660075
25.478806 34.217216 -0.000010 0.541741
23.174587 40.834030 -0.000007 0.549828
21.891260 44.519241 -0.000005 0.546029
21.071966 46.871933 -0.000004 0.536690
20.197996 49.381630 0.199994 0.711147
19.820414 50.465900 0.199995 0.676448
nan nan nan 0.000000
nan nan nan 0.000000
29.606491 21.563831 8.859692 0.362921
28.874659 23.713570 7.255365 0.390448
28.494156 24.831287 5.939925 0.606485
28.494144 24.831322 4.808180 0.491722
28.297783 25.408129 3.652564 0.319127
27.463600 27.858526 2.508104 0.640375
27.463600 27.858526 1.491897 0.642130
27.463600 27.858528 0.474599 0.631434
25.317799 34.161774 -0.000011 0.549950
23.059826 40.794518 -0.000007 0.531014
21.802259 44.488598 -0.000005 0.529137
20.999411 46.846951 -0.000004 0.550942
20.142982 49.362686 0.199994 0.667536
19.772978 50.449570 0.199995 0.738262
nan nan nan 0.000000
nan nan nan 0.000000
29.319458 21.592865 8.838024 0.353719
28.607040 23.734467 7.239766 0.348882
28.242180 24.831280 5.930680 0.554314
28.242178 24.831287 4.801592 0.492515
28.242168 24.831314 3.678550 0.523659
27.334969 27.558462 2.512086 0.704829
20.361862 48.520382 1.849415 0.287160
20.361902 48.520264 1.547915 0.270253
20.361883 48.520321 1.245450 0.266667
20.361879 48.520332 0.941356 0.278065
20.361895 48.520287 0.634955 0.267216
20.361870 48.520363 0.325583 0.267628
20.087839 49.344128 0.199994 0.742245
19.725430 50.433567 0.199995 0.739010
nan nan nan 0.000000
nan nan nan 0.000000
29.034422 21.621105 8.816944 0.423774
28.341137 23.754822 7.224577 0.328008
27.991377 24.831268 5.921669 0.582162
27.991375 24.831272 4.795171 0.460075
27.337654 26.843218 3.570777 0.638529
27.105255 27.558470 2.510911 0.746899
20.355082 48.333359 1.846542 0.274922
20.367476 48.295212 1.537326 0.678431
20.367477 48.295208 1.227772 0.678431
20.367476 48.295212 0.916552 0.678431
20.367476 48.295212 0.602980 0.678431
20.367476 48.295212 0.286347 0.678431
20.032566 49.325958 0.199994 0.696971
19.677773 50.417896 0.199994 0.689006
nan nan nan 0.000000
nan nan nan 0.000000
28.751310 21.648582 8.796436 0.405768
28.076891 23.774624 7.209799 0.377340
27.741699 24.831280 5.912888 0.498207
27.741703 24.831268 4.788913 0.542992
27.101738 26.848696 3.566978 0.641550
26.781403 27.858515 2.504617 0.635920
20.355085 48.116825 1.843168 0.266575
20.337870 48.171097 1.531965 0.062745
20.337868 48.171097 1.218825 0.062745
20.337868 48.171097 0.903999 0.062745
20.337868 48.171101 0.586793 0.062745
20.337866 48.171104 0.266492 0.062745
19.977169 49.308170 0.199994 0.686763
19.630007 50.402561 0.199995 0.675441
nan nan nan 0.000000
nan nan nan 0.000000
28.470060 21.675320 8.776491 0.321736
27.814253 23.793888 7.195421 0.336126
27.493126 24.831287 5.904335 0.482353
27.399094 25.135052 4.756742 0.532769
26.867067 26.853752 3.563293 0.673793
26.583298 27.770466 2.505022 0.536187
20.355091 47.890541 1.839635 0.267094
20.348843 47.910725 1.519598 0.332753
20.348843 47.910728 1.198183 0.476951
20.348843 47.910728 0.875039 0.232624
20.348841 47.910728 0.549451 0.135622
20.368204 47.848175 0.208771 0.678431
19.921648 49.290771 0.199994 0.704295
19.582134 50.387558 0.199995 0.674876
nan nan nan 0.000000
nan nan nan 0.000000
28.190632 21.701286 8.757107 0.313252
27.553185 23.812607 7.181444 0.365682
27.245625 24.831291 5.896010 0.476280
27.151144 25.144234 4.750078 0.528496
26.331650 27.858524 3.508399 0.647059
26.358238 27.770464 2.503946 0.493751
20.352615 47.662037 1.836071 0.273213
20.348835 47.674553 1.508502 0.374243
20.348835 47.674553 1.179664 0.358511
20.348835 47.674553 0.849056 0.235370
20.348835 47.674553 0.515948 0.037568
20.368593 47.609112 0.167151 0.678431
19.866007 49.273758 0.199994 0.694667
19.534159 50.372890 0.199995 0.654276
nan nan nan 0.000000
nan nan nan 0.000000
27.912951 21.726524 8.738272 0.363455
27.293621 23.830822 7.167853 0.334218
26.999165 24.831299 5.887909 0.479042
26.904430 25.153179 4.743596 0.475212
26.108204 27.858522 3.505262 0.635660
26.134121 27.770468 2.502898 0.791150
20.369001 47.358654 1.831236 0.678431
20.348829 47.427193 1.496857 0.389029
20.348829 47.427193 1.160227 0.387106
20.348829 47.427193 0.821786 0.214405
20.348831 47.427193 0.480785 0.046387
20.369003 47.358650 0.123456 0.678431
19.810247 49.257137 0.199994 0.710979
19.486082 50.358559 0.199995 0.764584
nan nan nan 0.000000
nan nan nan 0.000000
27.636971 21.751038 8.719978 0.361364
27.035526 23.848515 7.154652 0.372457
26.753719 24.831299 5.880032 0.458198
26.753719 24.831299 4.765493 0.421515
25.910927 27.770468 3.506712 0.501808
25.910925 27.770470 2.501879 0.471809
20.369431 47.095951 1.827106 0.678431
20.335424 47.214546 1.487009 0.079301
20.336100 47.212189 1.143589 0.079408
20.336777 47.209824 0.798159 0.095842
20.337465 47.207428 0.449951 0.107866
20.369431 47.095951 0.077532 0.678431
19.754375 49.240906 0.199994 0.761196
19.437906 50.344563 0.199995 0.760555
nan nan nan 0.000000
nan nan nan 0.000000
27.362637 21.774826 8.702221 0.333883
26.778858 23.865685 7.141835 0.353887
26.509253 24.831303 5.872374 0.542382
26.509254 24.831295 4.760036 0.536110
25.688625 27.770466 3.503739 0.541726
20.282480 47.133091 2.171922 0.269871
20.345791 46.906338 1.824226 0.678431
20.345791 46.906334 1.472301 0.678431
20.345791 46.906338 1.119241 0.678431
20.345791 46.906334 0.764282 0.678431
20.345791 46.906338 0.406639 0.678431
20.413052 46.665436 -0.000005 0.546273
19.698391 49.225063 0.199994 0.709972
19.389633 50.330902 0.199995 0.730571
nan nan nan 0.000000
nan nan nan 0.000000
27.089893 21.797916 8.684993 0.338506
26.523563 23.882347 7.129396 0.342458
26.265739 24.831295 5.864935 0.482353
26.265739 24.831299 4.754734 0.716640
25.467186 27.770466 3.500850 0.506127
20.193392 47.181244 2.170775 0.269718
20.268063 46.906406 1.824565 0.678431
20.268064 46.906403 1.473318 0.678431
20.268064 46.906403 1.120939 0.678431
20.268063 46.906403 0.766664 0.678431
20.268064 46.906403 0.409710 0.678431
20.339069 46.645058 -0.000005 0.547463
19.642296 49.209614 0.199994 0.673518
19.341267 50.317581 0.199995 0.685450
nan nan nan 0.000000
nan nan nan 0.000000
26.818687 21.820305 8.668285 0.386908
26.269600 23.898518 7.117330 0.307256
26.023149 24.831299 5.857712 0.715023
26.023149 24.831295 4.749584 0.756451
25.246586 27.770472 3.498045 0.554192
20.105793 47.227577 2.169672 0.268391
20.190634 46.906471 1.824894 0.678431
20.190634 46.906471 1.474306 0.678431
20.190634 46.906471 1.122588 0.678431
20.190634 46.906471 0.768977 0.678431
20.190634 46.906471 0.412693 0.678431
20.264950 46.625198 -0.000004 0.537774
19.586096 49.194553 0.199994 0.705745
19.292809 50.304596 0.199995 0.677424
nan nan nan 0.000000
nan nan nan 0.000000
26.548969 21.842003 8.652092 0.326757
26.016922 23.914185 7.105632 0.323980
25.781448 24.831299 5.850702 0.622950
25.004187 27.858530 4.488320 0.631922
25.026794 27.770473 3.495323 0.560037
20.019222 47.273682 2.168584 0.268330
20.113487 46.906536 1.825213 0.678431
20.113487 46.906540 1.475264 0.678431
20.113487 46.906540 1.124188 0.678431
20.113487 46.906536 0.771222 0.678431
20.113487 46.906536 0.415587 0.678431
20.113487 46.906536 0.056481 0.678431
19.529791 49.179886 0.199994 0.669520
19.244261 50.291950 0.199995 0.687099
nan nan nan 0.000000
nan nan nan 0.000000
26.280693 21.863014 8.636414 0.283162
25.765490 23.929379 7.094298 0.362387
25.540617 24.831295 5.843907 0.748653
24.785843 27.858528 4.483928 0.638331
24.807796 27.770472 3.492683 0.530983
19.933975 47.318291 2.167534 0.271305
20.036621 46.906605 1.825523 0.678431
20.036621 46.906601 1.476193 0.678431
20.036621 46.906601 1.125739 0.678431
20.036621 46.906605 0.773398 0.678431
20.036619 46.906605 0.418394 0.678431
20.036621 46.906601 0.059924 0.678431
19.473385 49.165615 0.199994 0.742290
19.195625 50.279644 0.199995 0.718257
nan nan nan 0.000000
nan nan nan 0.000000
26.013803 21.883350 8.621235 0.284062
25.515259 23.944080 7.083325 0.389700
25.300619 24.831295 5.837320 0.691722
24.589558 27.770472 4.487101 0.546548
24.589558 27.770472 3.490127 0.601083
19.849756 47.362446 2.166504 0.273869
19.960020 46.906670 1.825822 0.678431
19.960022 46.906670 1.477094 0.678431
19.960020 46.906670 1.127242 0.678431
19.960020 46.906670 0.775508 0.678431
19.960020 46.906670 0.421114 0.678431
19.960022 46.906670 0.063260 0.678431
19.416882 49.151733 0.199994 0.745541
19.146906 50.267677 0.199995 0.702571
nan nan nan 0.000000
nan nan nan 0.000000
25.748251 21.903015 8.606557 0.368444
25.266190 23.958290 7.072713 0.333501
25.061424 24.831310 5.830941 0.646021
24.351397 27.858532 4.475551 0.650553
24.372049 27.770473 3.487651 0.686107
19.766733 47.405334 2.165506 0.273793
19.883678 46.906734 1.826113 0.678431
19.883678 46.906734 1.477967 0.678431
19.883678 46.906738 1.128698 0.678431
19.883678 46.906734 0.777550 0.678431
19.883678 46.906734 0.423747 0.678431
19.883680 46.906731 0.066491 0.678431
19.360281 49.138252 0.199994 0.699458
19.098104 50.256050 0.199995 0.740429
nan nan nan 0.000000
nan nan nan 0.000000
25.483994 21.922028 8.592369 0.397757
25.018240 23.972046 7.062451 0.352911
24.802643 24.920998 5.814193 0.384771
24.135250 27.858538 4.471564 0.651713
24.155260 27.770470 3.485255 0.608484
19.684721 47.447609 2.164531 0.273213
19.807590 46.906799 1.826394 0.678431
19.807590 46.906799 1.478811 0.678431
19.807589 46.906803 1.130107 0.678431
19.807590 46.906799 0.779526 0.678431
19.807589 46.906803 0.426296 0.678431
19.807589 46.906799 0.069617 0.678431
19.303589 49.125160 0.199994 0.699138
19.049221 50.244766 0.199995 0.687846
nan nan nan 0.000000
nan nan nan 0.000000
25.220980 21.940388 8.578669 0.370199
24.771372 23.985321 7.052542 0.372335
24.565647 24.921009 5.808244 0.321569
24.585373 24.831295 4.721858 0.661128
23.939152 27.770473 3.482939 0.585763
19.603762 47.488953 2.163581 0.275578
19.731741 46.906868 1.826666 0.678431
19.731741 46.906868 1.479627 0.678431
19.731741 46.906868 1.131469 0.678431
19.731741 46.906868 0.781438 0.678431
19.731741 46.906868 0.428759 0.678431
19.731741 46.906868 0.072640 0.678431
19.246807 49.112473 0.199994 0.724804
19.000263 50.233822 0.199995 0.735485
nan nan nan 0.000000
nan nan nan 0.000000
24.959167 21.958096 8.565454 0.407660
24.525543 23.998131 7.042978 0.399481
24.348450 24.831299 5.813050 0.694301
24.348450 24.831287 4.717753 0.681758
23.723707 27.770479 3.480701 0.534295
19.523808 47.529442 2.162657 0.276310
19.656126 46.906933 1.826929 0.678431
19.656126 46.906933 1.480415 0.678431
19.656126 46.906929 1.132784 0.678431
19.656126 46.906933 0.783283 0.678431
19.656126 46.906929 0.431139 0.678431
19.656126 46.906933 0.075559 0.678431
19.189938 49.100174 0.199994 0.681285
18.951227 50.223221 0.199995 0.732998
nan nan nan 0.000000
nan nan nan 0.000000
24.698509 21.975166 8.552713 0.342351
24.280720 24.010483 7.033759 0.383307
24.112240 24.831257 5.807498 0.708675
24.112230 24.831295 4.713791 0.667369
23.508904 27.770472 3.478544 0.499443
19.444832 47.569073 2.161758 0.272999
19.580738 46.906998 1.827182 0.678431
19.580738 46.906998 1.481175 0.678431
19.580738 46.906998 1.134054 0.678431
19.580738 46.906998 0.785064 0.678431
19.580738 46.906998 0.433435 0.678431
19.580738 46.906998 0.078376 0.678431
19.132984 49.088276 0.199994 0.678538
18.902121 50.212959 0.199995 0.678843
nan nan nan 0.000000
nan nan nan 0.000000
24.438963 21.991596 8.540448 0.336187
24.036856 24.022385 7.024877 0.245609
23.876673 24.831367 5.802128 0.594903
23.876686 24.831295 4.709974 0.660380
23.294714 27.770477 3.476463 0.541299
19.366776 47.607998 2.160881 0.270542
19.505566 46.907059 1.827426 0.678431
19.505566 46.907063 1.481908 0.678431
19.505566 46.907059 1.135277 0.678431
19.505566 46.907059 0.786781 0.678431
19.505566 46.907059 0.435649 0.678431
19.505566 46.907059 0.081090 0.678431
19.075951 49.076775 0.199994 0.734203
18.852942 50.203045 0.199995 0.673640
nan nan nan 0.000000
nan nan nan 0.000000
24.180477 22.007408 8.528648 0.343023
23.793917 24.033833 7.016333 0.307332
23.641787 24.831326 5.796977 0.586877
23.641792 24.831291 4.706299 0.609720
23.064316 27.858530 3.470057 0.612665
19.289663 47.645943 2.160031 0.273320
19.423836 46.942581 1.828252 0.267292
19.423836 46.942581 1.484387 0.276341
19.423836 46.942581 1.139415 0.268849
19.423836 46.942581 0.792586 0.268086
19.423838 46.942581 0.443134 0.315343
19.421539 46.954620 0.092503 0.270481
19.018835 49.065674 0.199994 0.696254
18.803696 50.193474 0.199995 0.688350
nan nan nan 0.000000
nan nan nan 0.000000
23.923019 22.022594 8.517317 0.310887
23.551868 24.044830 7.008126 0.314458
23.407528 24.831280 5.792027 0.589029
23.407526 24.831287 4.702766 0.677073
22.851923 27.858526 3.468138 0.620691
19.213455 47.682968 2.159206 0.270787
19.355837 46.907188 1.827887 0.678431
19.355837 46.907188 1.483293 0.678431
19.355837 46.907188 1.137588 0.678431
19.355837 46.907188 0.790023 0.678431
19.355837 46.907188 0.439829 0.678431
19.355837 46.907188 0.086219 0.678431
18.961645 49.054970 0.199994 0.735927
18.754385 50.184246 0.199995 0.683711
nan nan nan 0.000000
nan nan nan 0.000000
23.666534 22.037167 8.506443 0.276234
23.310669 24.055374 7.000251 0.296971
23.173866 24.831223 5.787271 0.545037
23.173855 24.831291 4.699372 0.565164
23.012074 25.748793 3.571538 0.341421
19.138092 47.719231 2.158403 0.273014
19.281265 46.907253 1.828104 0.678431
19.281265 46.907253 1.483945 0.678431
19.281265 46.907253 1.138676 0.678431
19.281265 46.907253 0.791549 0.678431
19.281265 46.907253 0.441797 0.678431
19.281265 46.907253 0.088633 0.678431
18.904381 49.044670 0.199994 0.736416
18.705009 50.175362 0.199995 0.674739
nan nan nan 0.000000
nan nan nan 0.000000
23.410992 22.051121 8.496026 0.297185
23.070286 24.065495 6.992702 0.273945
22.940752 24.831337 5.782693 0.564340
22.940762 24.831291 4.696120 0.528130
22.940760 24.831295 3.615358 0.670405
19.063551 47.754719 2.157624 0.273518
19.206879 46.907318 1.828313 0.678431
19.206877 46.907318 1.484570 0.678431
19.206877 46.907318 1.139720 0.678431
19.206877 46.907318 0.793013 0.678431
19.206877 46.907318 0.443686 0.678431
19.206879 46.907318 0.090948 0.678431
18.847046 49.034767 0.199994 0.697032
18.655573 50.166821 0.199995 0.746593
nan nan nan 0.000000
nan nan nan 0.000000
23.156342 22.064480 8.486059 0.419684
22.830681 24.075172 6.985480 0.376989
22.708218 24.831276 5.778331 0.530510
22.708218 24.831291 4.693007 0.546670
22.368279 26.930126 3.509040 0.699855
18.989836 47.789246 2.156869 0.275288
19.132668 46.907383 1.828512 0.678431
19.132668 46.907383 1.485168 0.678431
19.132668 46.907383 1.140719 0.678431
19.132668 46.907383 0.794415 0.678431
19.132668 46.907383 0.445493 0.678431
19.132668 46.907379 0.093165 0.678431
18.789644 49.025261 0.199994 0.710140
18.606079 50.158627 0.199995 0.746731
nan nan nan 0.000000
nan nan nan 0.000000
22.902550 22.077225 8.476545 0.355047
22.591820 24.084412 6.978584 0.310262
22.476192 24.831326 5.774150 0.467521
22.407156 25.277269 4.653025 0.491615
22.150877 26.932722 3.507242 0.547219
18.916809 47.823517 2.156128 0.271656
19.058624 46.907448 1.828703 0.678431
19.058624 46.907444 1.485740 0.678431
19.058624 46.907448 1.141674 0.678431
19.058624 46.907444 0.795755 0.678431
19.058624 46.907444 0.447220 0.678431
19.058624 46.907444 0.095284 0.678431
18.732178 49.016163 0.199994 0.727108
18.556530 50.150780 0.199995 0.717739
nan nan nan 0.000000
nan nan nan 0.000000
22.649570 22.089378 8.467474 0.407065
22.353668 24.093216 6.972010 0.325780
22.244682 24.831272 5.770173 0.559472
22.178196 25.281517 4.649874 0.518471
21.934002 26.935196 3.505530 0.528435
18.844469 47.857437 2.155402 0.272312
18.984743 46.907509 1.828884 0.678431
18.984743 46.907509 1.486286 0.678431
18.984743 46.907509 1.142585 0.678431
18.984743 46.907509 0.797033 0.678431
18.984743 46.907509 0.448868 0.678431
18.984743 46.907509 0.097306 0.678431
18.674650 49.007458 0.199994 0.677806
18.506926 50.143280 0.199995 0.689830
nan nan nan 0.000000
nan nan nan 0.000000
22.397364 22.100933 8.458849 0.346654
22.116190 24.101593 6.965756 0.353307
22.013649 24.831211 5.766390 0.526864
21.949810 25.285452 4.646884 0.528832
21.731123 26.841482 3.508666 0.664698
18.772802 47.891003 2.154691 0.276051
18.911015 46.907570 1.829058 0.678431
18.911015 46.907570 1.486806 0.678431
18.911015 46.907574 1.143452 0.678431
18.911015 46.907574 0.798250 0.678431
18.911015 46.907570 0.450437 0.678431
18.911015 46.907570 0.099231 0.678431
18.617062 48.999161 0.199994 0.677516
18.457272 50.136120 0.199995 0.746303
nan nan nan 0.000000
nan nan nan 0.000000
22.145887 22.111912 8.450659 0.349035
21.879347 24.109543 6.959819 0.363058
21.783028 24.831417 5.762766 0.519371
21.731136 25.220322 4.649741 0.560449
21.379124 27.858538 3.456815 0.650950
18.701651 47.925255 2.153978 0.275196
18.837431 46.907635 1.829222 0.678431
18.837431 46.907639 1.487300 0.678431
18.837431 46.907639 1.144276 0.678431
18.837431 46.907639 0.799406 0.678431
18.837431 46.907639 0.451928 0.678431
18.837431 46.907639 0.101059 0.678431
18.559414 48.991264 0.199994 0.671946
18.407566 50.129314 0.199995 0.734707
nan nan nan 0.000000
nan nan nan 0.000000
21.895111 22.122299 8.442908 0.389838
21.643112 24.117085 6.954196 0.347555
21.552876 24.831371 5.759360 0.562615
21.552887 24.831287 4.679492 0.517647
21.170456 27.858530 3.455496 0.634012
18.631247 47.958427 2.153291 0.272694
18.763985 46.907700 1.829378 0.678431
18.763985 46.907700 1.487768 0.678431
18.763985 46.907700 1.145056 0.678431
18.763985 46.907700 0.800502 0.678431
18.763985 46.907700 0.453341 0.678431
18.763985 46.907700 0.102792 0.678431
18.501717 48.983768 0.199994 0.675013
18.357817 50.122852 0.199994 0.687373
nan nan nan 0.000000
nan nan nan 0.000000
21.644993 22.132103 8.435593 0.347295
21.407450 24.124191 6.948891 0.373236
21.323130 24.831314 5.756147 0.527504
21.323133 24.831291 4.677197 0.525124
20.972656 27.770466 3.458605 0.633051
18.561474 47.991238 2.152619 0.272984
18.690670 46.907761 1.829525 0.678431
18.690670 46.907761 1.488209 0.678431
18.690670 46.907761 1.145794 0.678431
18.690670 46.907761 0.801536 0.678431
18.690670 46.907761 0.454675 0.678431
18.690670 46.907761 0.104429 0.678431
18.443968 48.976681 0.199994 0.731136
18.308023 50.116737 0.199995 0.676280
nan nan nan 0.000000
nan nan nan 0.000000
21.395489 22.141327 8.428705 0.366186
21.172323 24.130878 6.943896 0.451270
21.093763 24.831264 5.753119 0.601404
21.093760 24.831291 4.675035 0.523278
20.764078 27.770468 3.457428 0.505333
18.492311 48.023716 2.151961 0.272953
18.617477 46.907825 1.829664 0.678431
18.617479 46.907822 1.488626 0.678431
18.617477 46.907825 1.146489 0.678431
18.617477 46.907825 0.802511 0.678431
18.617477 46.907825 0.455932 0.678431
18.617477 46.907825 0.105971 0.678431
18.386169 48.969994 0.199994 0.738338
18.258188 50.110970 0.199994 0.675380
nan nan nan 0.000000
nan nan nan 0.000000
21.146566 22.149971 8.422250 0.337850
20.937706 24.137154 6.939213 0.357839
20.864758 24.831215 5.750279 0.567742
20.864748 24.831295 4.673006 0.530571
20.555828 27.770464 3.456322 0.543328
18.423729 48.056015 2.151314 0.273564
18.544403 46.907887 1.829794 0.678431
18.544403 46.907887 1.489017 0.678431
18.544403 46.907890 1.147142 0.678431
18.544401 46.907890 0.803427 0.678431
18.544403 46.907890 0.457112 0.678431
18.544403 46.907890 0.107419 0.678431
18.328327 48.963707 0.199994 0.673396
18.208313 50.105553 0.199994 0.675502
nan nan nan 0.000000
nan nan nan 0.000000
20.898186 22.158058 8.416220 0.324758
20.703558 24.143017 6.934837 0.342168
20.636086 24.831158 5.747628 0.493874
20.636072 24.831284 4.671112 0.462409
20.347883 27.770466 3.455290 0.557778
18.355732 48.087967 2.150682 0.271382
18.471434 46.907951 1.829916 0.678431
18.471434 46.907951 1.489382 0.678431
18.471434 46.907951 1.147751 0.678431
18.471434 46.907951 0.804282 0.678431
18.471434 46.907951 0.458216 0.678431
18.471434 46.907951 0.108772 0.678431
18.270441 48.957829 0.199994 0.744427
18.158403 50.100483 0.199994 0.676707
nan nan nan 0.000000
nan nan nan 0.000000
20.650307 22.165565 8.410616 0.323461
20.469849 24.148464 6.930770 0.327886
20.407705 24.831299 5.745139 0.521935
20.132206 27.858528 4.420105 0.632914
20.140219 27.770470 3.454329 0.583581
18.288296 48.119675 2.150062 0.275120
18.398565 46.908012 1.830029 0.678431
18.398565 46.908012 1.489722 0.678431
18.398565 46.908012 1.148319 0.678431
18.398565 46.908016 0.805078 0.678431
18.398565 46.908012 0.459242 0.678431
18.398565 46.908012 0.110031 0.678431
18.212515 48.952351 0.199994 0.725902
18.108458 50.095764 0.199995 0.693843
nan nan nan 0.000000
nan nan nan 0.000000
20.402897 22.172512 8.405432 0.338033
20.236547 24.153500 6.927010 0.453040
20.179634 24.831257 5.742858 0.501289
19.925428 27.858528 4.418627 0.653956
19.932823 27.770470 3.453443 0.534401
18.221413 48.151089 2.149454 0.274311
18.325790 46.908077 1.830134 0.678431
18.325790 46.908073 1.490036 0.678431
18.325790 46.908073 1.148844 0.678431
18.325790 46.908077 0.805815 0.678431
18.325790 46.908077 0.460192 0.678431
18.325790 46.908077 0.111196 0.678431
18.154554 48.947285 0.199994 0.704921
18.058481 50.091389 0.199994 0.696788
nan nan nan 0.000000
nan nan nan 0.000000
20.155918 22.178890 8.400671 0.307317
20.003624 24.158131 6.923554 0.419364
19.951832 24.831223 5.740759 0.539269
19.725668 27.770473 4.424510 0.540902
19.725670 27.770466 3.452626 0.534997
18.155066 48.182247 2.148859 0.271199
18.253103 46.908138 1.830230 0.678431
18.252258 46.919113 1.490867 0.860471
18.252258 46.919113 1.150229 0.865415
18.252258 46.919113 0.807759 0.859831
18.253103 46.908138 0.461066 0.678431
18.253103 46.908138 0.112268 0.678431
18.096558 48.942616 0.199994 0.714855
18.008474 50.087364 0.199994 0.672938
nan nan nan 0.000000
nan nan nan 0.000000
19.909332 22.184711 8.396329 0.311650
19.771042 24.162354 6.920402 0.354757
19.719465 24.899925 5.730919 0.413077
19.518738 27.770472 4.423267 0.541512
19.518738 27.770466 3.451882 0.690272
18.089245 48.213123 2.148276 0.274495
18.180494 46.908203 1.830318 0.678431
18.179731 46.919113 1.491128 0.870588
18.179731 46.919113 1.150665 0.818143
18.179731 46.919113 0.808370 0.760388
18.180494 46.908203 0.461864 0.678431
18.180494 46.908203 0.113248 0.678431
18.038532 48.938354 0.199994 0.742931
17.958441 50.083691 0.199994 0.691920
nan nan nan 0.000000
nan nan nan 0.000000
19.663101 22.189964 8.392406 0.423468
19.538769 24.166172 6.917554 0.325704
19.491280 24.921013 5.726759 0.313573
19.306465 27.858526 4.414909 0.632212
19.312006 27.770466 3.451208 0.536065
18.023928 48.243839 2.147704 0.274403
18.107956 46.908264 1.830398 0.678431
18.107273 46.919117 1.491364 0.870588
18.107273 46.919113 1.151059 0.833585
18.107273 46.919113 0.808922 0.797116
18.107956 46.908264 0.462587 0.678431
18.107956 46.908264 0.114134 0.678431
17.980476 48.934502 0.199994 0.744121
17.908384 50.080364 0.199994 0.693309
nan nan nan 0.000000
nan nan nan 0.000000
19.417194 22.194668 8.388898 0.363760
19.306780 24.169590 6.915008 0.301915
19.269794 24.831116 5.735572 0.568658
19.100534 27.858528 4.413908 0.640742
19.105459 27.770470 3.450606 0.544244
17.959120 48.274189 2.147145 0.277089
18.035482 46.908325 1.830469 0.678431
18.034880 46.919113 1.491575 0.778058
18.034880 46.919113 1.151411 0.782605
18.034880 46.919113 0.809416 0.798825
18.035482 46.908325 0.463233 0.678431
18.035482 46.908325 0.114927 0.678431
17.922396 48.931049 0.199994 0.684230
17.858305 50.077393 0.199994 0.697826
nan nan nan 0.000000
nan nan nan 0.000000
19.171570 22.198811 8.385805 0.344915
19.075035 24.172596 6.912763 0.351644
19.042830 24.831085 5.734208 0.531624
19.042809 24.831509 4.661523 0.587655
18.899069 27.770468 3.450076 0.577951
17.894793 48.304367 2.146597 0.273854
17.963068 46.908386 1.830532 0.678431
17.962543 46.919113 1.491761 0.604120
17.962542 46.919113 1.151721 0.817258
17.962543 46.919113 0.809852 0.774517
17.963066 46.908390 0.463805 0.678431
17.963068 46.908390 0.115628 0.678431
17.864292 48.928001 0.199994 0.720989
17.808205 50.074768 0.199994 0.676661
nan nan nan 0.000000
nan nan nan 0.000000
18.926195 22.202396 8.383129 0.340780
18.843510 24.175198 6.910818 0.320974
18.816021 24.831055 5.733027 0.614176
18.816002 24.831528 4.660678 0.495552
18.692823 27.770466 3.449617 0.513527
17.830942 48.334274 2.146060 0.270832
17.890701 46.908447 1.830587 0.678431
17.890255 46.919113 1.491922 0.667781
17.890255 46.919113 1.151990 0.812390
17.890255 46.919113 0.810229 0.738384
17.890701 46.908451 0.464301 0.678431
17.890701 46.908451 0.116237 0.678431
17.806168 48.925365 0.199994 0.727764
17.758089 50.072491 0.199994 0.751476
nan nan nan 0.000000
nan nan nan 0.000000
18.681032 22.205433 8.380865 0.300557
18.612169 24.177399 6.909175 0.355215
18.589344 24.831036 5.732029 0.477211
18.589325 24.831554 4.659962 0.747219
18.486696 27.770466 3.449228 0.522759
17.767555 48.363945 2.145535 0.270481
17.818378 46.908512 1.830633 0.678431
17.818008 46.919113 1.492058 0.708736
17.818008 46.919113 1.152218 0.808301
17.818008 46.919117 0.810548 0.744045
17.818378 46.908516 0.464722 0.678431
17.818378 46.908516 0.116753 0.678431
17.748028 48.923134 0.199994 0.691264
17.707958 50.070564 0.199994 0.739666
nan nan nan 0.000000
nan nan nan 0.000000
18.436049 22.207905 8.379015 0.348150
18.380985 24.179199 6.907831 0.394171
18.362778 24.831013 5.731214 0.703990
18.362762 24.831581 4.659377 0.522438
18.280670 27.770468 3.448909 0.548043
17.704620 48.393345 2.145022 0.271580
17.746094 46.908569 1.830671 0.678431
17.745798 46.919117 1.492169 0.754803
17.745800 46.919113 1.152404 0.798474
17.745800 46.919113 0.810809 0.769070
17.746094 46.908577 0.465068 0.678431
17.746094 46.908577 0.117177 0.678431
17.689873 48.921303 0.199994 0.706401
17.657814 50.068989 0.199994 0.732250
nan nan nan 0.000000
nan nan nan 0.000000
18.191204 22.209843 8.377573 0.338231
18.149921 24.180599 6.906787 0.334173
18.136299 24.830994 5.730579 0.482353
18.136286 24.831604 4.658921 0.560754
18.074724 27.770470 3.448663 0.619516
17.642126 48.422447 2.144521 0.272007
17.673836 46.908634 1.830701 0.678431
17.673616 46.919117 1.492256 0.891203
17.673616 46.919113 1.152548 0.798474
17.673616 46.919113 0.811012 0.812619
17.673836 46.908638 0.465339 0.678431
17.673836 46.908638 0.117510 0.678431
17.631706 48.919880 0.199994 0.720775
17.607662 50.067764 0.199994 0.711940
nan nan nan 0.000000
nan nan nan 0.000000
17.946468 22.211212 8.376547 0.290440
17.918953 24.181602 6.906040 0.354711
17.909885 24.830971 5.730127 0.641917
17.909878 24.831627 4.658595 0.487968
17.867611 27.858526 3.444160 0.634577
17.580059 48.451454 2.144029 0.271901
17.601601 46.908699 1.830723 0.678431
17.601456 46.919117 1.492318 0.905882
17.601456 46.919117 1.152652 0.870588
17.601456 46.919113 0.811157 0.870588
17.601601 46.908699 0.465535 0.678431
17.601601 46.908699 0.117750 0.678431
17.573532 48.918865 0.199994 0.727932
17.557501 50.066887 0.199994 0.756008
nan nan nan 0.000000
nan nan nan 0.000000
17.701803 22.212044 8.375930 0.318090
17.688047 24.182198 6.905593 0.353552
17.683517 24.830959 5.729855 0.494850
17.683514 24.831657 4.658399 0.661631
17.683500 24.833603 3.592662 0.610498
17.518412 48.480110 2.143549 0.272694
17.529381 46.908760 1.830736 0.678431
17.529381 46.908760 1.491846 0.678431
17.529381 46.908760 1.151865 0.678431
17.529381 46.908760 0.810053 0.678431
17.529381 46.908760 0.465656 0.678431
17.529381 46.908760 0.117899 0.678431
17.515352 48.918259 0.199994 0.670634
17.507338 50.066360 0.199994 0.772122
nan nan nan 0.000000
nan nan nan 0.000000
17.457174 22.212318 8.375725 0.350622
17.457174 24.182404 6.905443 0.335546
17.457174 24.831577 5.729693 0.654017
17.457174 25.325447 4.617846 0.682963
17.457172 26.958956 3.488212 0.662516
17.457170 48.513077 2.143006 0.273060
17.457170 46.942585 1.831294 0.266926
17.457170 46.942585 1.493520 0.276570
17.457170 46.942585 1.154659 0.268894
17.457170 46.942585 0.813973 0.288334
17.457170 46.942585 0.470711 0.277882
17.457170 46.942585 0.124099 0.266667
17.457170 48.918053 0.199994 0.716487
17.457170 50.066185 0.199994 0.701564
nan nan nan 0.000000
nan nan nan 0.000000
17.212542 22.212044 8.375930 0.329290
17.226295 24.182198 6.905593 0.338186
17.230829 24.831581 5.729783 0.502693
17.234144 25.306526 4.619461 0.715831
17.245617 26.949842 3.488695 0.679927
17.396357 48.541603 2.142543 0.273838
17.385193 46.942585 1.831290 0.280064
17.385193 46.942585 1.493508 0.282750
17.385193 46.942589 1.154638 0.285054
17.385193 46.942589 0.813944 0.284611
17.385193 46.942589 0.470674 0.271107
17.385193 46.942585 0.124054 0.271489
17.398987 48.918259 0.199994 0.722286
17.407001 50.066360 0.199994 0.722728
nan nan nan 0.000000
16.941265 20.305424 9.980520 0.657343
16.973282 22.598347 8.306099 0.642847
17.001101 24.590530 6.845375 0.642008
17.006104 24.948944 5.716555 0.622339
17.010830 25.287367 4.621223 0.671077
17.034039 26.949446 3.488824 0.672633
17.335934 48.569870 2.142091 0.275090
17.313211 46.942585 1.831278 0.261219
17.312912 46.921116 1.492416 0.083940
17.312912 46.921120 1.152816 0.293339
17.312912 46.921116 0.811387 0.684657
17.313211 46.942585 0.470562 0.278431
17.313211 46.942585 0.123917 0.266178
17.340807 48.918865 0.199994 0.669490
17.356836 50.066887 0.199994 0.774670
nan nan nan 0.000000
nan nan nan 0.000000
nan nan nan 0.000000
nan nan nan 0.000000
16.699089 21.061798 6.164285 0.659327
16.737694 22.904751 4.816949 0.469566
16.760914 24.013271 3.633283 0.452323
17.275885 48.597775 2.141652 0.277363
17.241213 46.942585 1.831257 0.270893
17.240765 46.921120 1.492355 0.324056
17.240763 46.921116 1.152712 0.080964
17.240765 46.921120 0.811243 0.549020
17.241213 46.942585 0.470376 0.300313
17.241213 46.942585 0.123688 0.284123
17.282631 48.919880 0.199994 0.720790
17.306677 50.067764 0.199994 0.739849
nan nan nan 0.000000
nan nan nan 0.000000
nan nan nan 0.000000
nan nan nan 0.000000
16.445805 21.044632 6.166972 0.415442
16.497742 22.904003 4.817491 0.366491
16.528654 24.010704 3.633687 0.536522
17.216206 48.625580 2.141220 0.271580
17.169197 46.942585 1.831228 0.287648
17.168596 46.921120 1.492268 0.287434
17.168596 46.921116 1.152568 0.110567
17.168596 46.921116 0.811040 0.705425
17.169197 46.942585 0.470115 0.270115
17.169197 46.942585 0.123368 0.273610
17.224466 48.921303 0.199994 0.715938
17.256523 50.068985 0.199994 0.711254
nan nan nan 0.000000
nan nan nan 0.000000
nan nan nan 0.000000
nan nan nan 0.000000
16.192724 21.043140 6.168057 0.362020
16.257673 22.903046 4.818187 0.354223
16.296337 24.010227 3.634069 0.543175
17.156874 48.652859 2.140805 0.269566
17.097149 46.942585 1.831191 0.273701
17.096399 46.921120 1.492157 0.275120
17.096399 46.921116 1.152382 0.127016
17.096399 46.921116 0.810779 0.264469
17.097149 46.942585 0.469779 0.283925
17.097149 46.942585 0.122956 0.288609
17.166311 48.923130 0.199994 0.699641
17.206381 50.070564 0.199994 0.720943
nan nan nan 0.000000
nan nan nan 0.000000
nan nan nan 0.000000
nan nan nan 0.000000
15.939487 21.041309 6.169385 0.352972
16.017467 22.901867 4.819039 0.361837
16.063919 24.010201 3.634509 0.524834
17.097895 48.680145 2.140396 0.272725
17.025068 46.942585 1.831146 0.262211
17.024168 46.921116 1.492020 0.870588
17.024168 46.921116 1.152154 0.836057
17.024168 46.921116 0.810460 0.991745
17.025068 46.942585 0.469369 0.274342
17.025068 46.942585 0.122453 0.268620
17.108171 48.925365 0.199994 0.713573
17.156250 50.072487 0.199994 0.748974
nan nan nan 0.000000
nan nan nan 0.000000
nan nan nan 0.000000
nan nan nan 0.000000
15.686057 21.039143 6.170957 0.358557
15.777092 22.900486 4.820047 0.352514
15.831365 24.010178 3.635028 0.568872
17.039232 48.706856 2.140002 0.273899
16.952944 46.942585 1.831092 0.275578
16.951895 46.921120 1.491859 0.345541
16.951895 46.921120 1.151886 0.613001
16.951895 46.921116 0.810082 0.542947
16.952944 46.942585 0.468883 0.262898
16.952944 46.942585 0.121857 0.276112
17.050047 48.928001 0.199994 0.741375
17.106134 50.074768 0.199994 0.691127
nan nan nan 0.000000
nan nan nan 0.000000
nan nan nan 0.000000
nan nan nan 0.000000
15.432409 21.036644 6.172773 0.335500
15.536524 22.898880 4.821211 0.392111
15.598654 24.010151 3.635627 0.547570
16.980902 48.733524 2.139617 0.271321
16.880772 46.942585 1.831031 0.271107
16.879572 46.921120 1.491673 0.480034
16.879572 46.921120 1.151575 0.343847
16.879572 46.921116 0.809647 0.374395
16.880774 46.942589 0.468323 0.266667
16.880772 46.942585 0.121170 0.280552
16.991945 48.931049 0.199994 0.746822
17.056034 50.077393 0.199994 0.691783
nan nan nan 0.000000
nan nan nan 0.000000
nan nan nan 0.000000
nan nan nan 0.000000
15.178503 21.033806 6.174830 0.318944
15.295729 22.897064 4.822530 0.346593
15.365757 24.010132 3.636307 0.504799
16.922861 48.759617 2.139247 0.272602
16.808542 46.942585 1.830961 0.271214
16.807192 46.921120 1.491462 0.237980
16.807192 46.921116 1.151223 0.394080
16.807192 46.921116 0.809153 0.419486
16.808542 46.942585 0.467688 0.272374
16.808542 46.942585 0.120391 0.269368
16.933863 48.934498 0.199994 0.671077
17.005955 50.080364 0.199994 0.678172
nan nan nan 0.000000
nan nan nan 0.000000
nan nan nan 0.000000
nan nan nan 0.000000
14.924313 21.030636 6.177132 0.318624
15.054684 22.895035 4.824007 0.316732
15.132658 24.010124 3.637067 0.547585
16.795122 47.784508 2.155307 0.273381
16.736250 46.942585 1.830882 0.266072
16.734749 46.921116 1.491226 0.210040
