# This PCD file was generated using the MATLABÂ® pcwrite function
# from Computer Vision ToolboxÂ®.
# .PCD v.7 - Point Cloud Data file format
VERSION .7
FIELDS x y z intensity
SIZE 4 4 4 4
TYPE F F F F
COUNT 1 1 1 1
WIDTH 1219
HEIGHT 1
VIEWPOINT 0 0 0 1 0 0 0
POINTS 1219
DATA ascii
88.748230 114.107452 1.470757 0.729931
88.748230 114.107452 1.116665 0.731868
88.805435 114.139954 0.753098 0.748806
88.805435 114.139954 0.392218 0.718715
88.805435 114.139954 0.027816 0.729564
87.432846 113.360184 -0.000004 0.509285
86.323647 112.730042 -0.000004 0.473396
88.796654 114.048363 4.701794 0.733333
88.805435 114.053268 4.331762 0.721889
88.805443 114.053268 3.964441 0.729381
88.748230 114.021301 3.591748 0.737408
88.748230 114.021301 3.234467 0.721752
88.748230 114.021294 2.879867 0.721340
88.659729 113.971832 2.522184 0.112154
88.659729 113.971832 2.173937 0.127962
88.659729 113.971832 1.826063 0.143526
88.748230 114.021294 1.472835 0.721569
88.748230 114.021294 1.120133 0.727260
88.805435 114.053268 0.757994 0.738231
88.805435 114.053268 0.398531 0.709804
88.805435 114.053268 0.035559 0.733333
87.464584 113.303864 -0.000005 0.552682
86.351006 112.681480 -0.000004 0.565209
88.805443 113.967262 4.693870 0.721569
88.805435 113.967262 4.322757 0.719310
88.805443 113.967262 3.956854 0.719219
88.748230 113.935806 3.585601 0.733333
88.748230 113.935806 3.229699 0.721752
88.748230 113.935806 2.876468 0.733333
88.659729 113.887154 2.520167 0.062745
88.659729 113.887154 2.173265 0.062745
88.659729 113.887154 1.826735 0.094118
88.748230 113.935806 1.474871 0.702083
88.748230 113.935806 1.123531 0.740230
88.805435 113.967255 0.762791 0.722622
88.805435 113.967255 0.404716 0.721569
88.805435 113.967255 0.043147 0.733639
87.495934 113.247322 -0.000004 0.537957
86.378036 112.632729 -0.000004 0.564477
88.805443 113.881905 4.683635 0.729763
88.805435 113.881905 4.313931 0.734920
88.805435 113.881905 3.949419 0.733333
88.748230 113.850975 3.579576 0.725978
88.748230 113.850975 3.225027 0.733333
88.748230 113.850967 2.873138 0.733333
88.659729 113.803116 2.518191 0.079240
88.659729 113.803116 2.172607 0.075242
88.659729 113.803116 1.827393 0.074510
88.748230 113.850975 1.476866 0.710445
88.748230 113.850975 1.126862 0.750942
88.805435 113.881905 0.767491 0.727398
88.805435 113.881905 0.410777 0.724239
88.805435 113.881905 0.050582 0.728008
87.526878 113.190559 -0.000004 0.500984
86.404716 112.583786 -0.000004 0.508843
88.805435 113.797195 4.673608 0.732982
88.805435 113.797195 4.305285 0.728420
88.805435 113.797195 3.942135 0.733333
88.748230 113.766777 3.573674 0.733333
88.748230 113.766777 3.220450 0.727214
88.659729 113.719719 2.861657 0.126696
88.659729 113.719719 2.516255 0.068116
88.659729 113.719719 2.171962 0.052445
88.659729 113.719719 1.828038 0.075380
88.748230 113.766777 1.478821 0.741054
88.748230 113.766777 1.130124 0.733639
88.805435 113.797195 0.772097 0.740200
88.805435 113.797195 0.416716 0.736370
88.805435 113.797195 0.057866 0.727626
87.557426 113.133583 -0.000004 0.554452
86.431061 112.534660 -0.000004 0.556954
88.805435 113.713112 4.663784 0.737041
88.805443 113.713112 4.296815 0.721477
88.805435 113.713112 3.934999 0.721706
88.748230 113.683205 3.567892 0.736980
88.748230 113.683205 3.215966 0.737774
88.659729 113.636932 2.858491 0.126650
88.659729 113.636932 2.514358 0.068116
88.659729 113.636932 2.171330 0.050980
88.659729 113.636932 1.828670 0.081224
88.748230 113.683205 1.480736 0.740551
88.748230 113.683205 1.133320 0.736324
88.805435 113.713112 0.776608 0.733333
88.805435 113.713112 0.422533 0.745357
88.805435 113.713112 0.065001 0.724239
87.587578 113.076401 -0.000004 0.548012
86.457054 112.485352 -0.000003 0.521279
88.805443 113.629639 4.654162 0.735454
88.805435 113.629639 4.288518 0.721569
88.805435 113.629639 3.928009 0.730022
88.748230 113.600235 3.562228 0.744945
88.748230 113.600235 3.211573 0.740307
88.659729 113.554749 2.855390 0.122606
88.659737 113.554749 2.512500 0.068910
88.659737 113.554749 2.170712 0.074510
88.659737 113.554749 1.829288 0.070924
88.748230 113.600235 1.482611 0.735424
88.748230 113.600235 1.136451 0.747555
88.805435 113.629639 0.781028 0.733333
88.805435 113.629639 0.428231 0.759564
88.805435 113.629639 0.071991 0.735866
87.617332 113.019005 -0.000004 0.537820
86.482712 112.435867 -0.000004 0.569909
88.805443 113.546761 4.644737 0.729793
88.805443 113.546761 4.280392 0.721569
88.805435 113.546761 3.921162 0.730709
88.748230 113.517860 3.556680 0.744945
88.748230 113.517860 3.207271 0.752941
88.659729 113.473152 2.852353 0.111406
88.659729 113.473152 2.510680 0.080110
88.659737 113.473152 2.170105 0.063752
88.659737 113.473152 1.829895 0.070466
88.748230 113.517860 1.484449 0.733913
88.748230 113.517860 1.139517 0.730846
88.805435 113.546761 0.785356 0.724132
88.805435 113.546761 0.433812 0.752941
88.805435 113.546761 0.078838 0.724422
87.646683 112.961403 -0.000004 0.527245
86.508018 112.386200 -0.000004 0.536233
88.805443 113.464470 4.635507 0.734737
88.805443 113.464470 4.272433 0.738933
88.805443 113.464470 3.914457 0.728283
88.748230 113.436066 3.551248 0.742504
88.748230 113.436066 3.203057 0.733333
88.659729 113.392136 2.849378 0.113939
88.659729 113.392136 2.508898 0.083513
88.659729 113.392136 2.169511 0.057328
88.659729 113.392136 1.830489 0.081773
88.748230 113.436066 1.486248 0.740627
88.748230 113.436066 1.142520 0.732097
88.805435 113.464470 0.789595 0.733333
88.805435 113.464470 0.439278 0.736629
88.805435 113.464462 0.085543 0.739895
87.675629 112.903603 -0.000005 0.535714
86.532974 112.336357 -0.000004 0.533883
88.805443 113.382744 4.626468 0.729793
88.805443 113.382744 4.264640 0.733333
88.805443 113.382744 3.907892 0.712978
88.805443 113.382744 3.555369 0.721569
88.805435 113.382744 3.206253 0.733425
88.659729 113.311668 2.846465 0.101167
88.659737 113.311676 2.507153 0.075227
88.659729 113.311676 2.168930 0.044358
88.659729 113.311676 1.831070 0.076066
88.805435 113.382744 1.484883 0.734554
88.805435 113.382736 1.140243 0.735714
88.805435 113.382744 0.793747 0.733333
88.805435 113.382744 0.444631 0.734127
88.805435 113.382744 0.092108 0.733333
87.704170 112.845596 -0.000005 0.524605
86.557587 112.286339 -0.000003 0.562188
88.805443 113.301575 4.617619 0.733242
88.805443 113.301575 4.257010 0.734707
88.805443 113.301575 3.901464 0.717891
88.748238 113.274162 3.540720 0.720119
88.748238 113.274162 3.194892 0.724147
88.659729 113.231758 2.843613 0.079713
88.659729 113.231758 2.505444 0.066392
88.659729 113.231758 2.168361 0.051713
88.659729 113.231758 1.831639 0.074922
88.748238 113.274162 1.489735 0.733333
88.748238 113.274162 1.148340 0.711788
88.805435 113.301567 0.797811 0.733333
88.805435 113.301567 0.449872 0.729381
88.805443 113.301575 0.098537 0.721569
87.732315 112.787392 -0.000004 0.525307
86.581848 112.236153 -0.000004 0.532326
88.805443 113.220940 4.608955 0.736400
88.805443 113.220940 4.249540 0.737041
88.805443 113.220940 3.895170 0.722576
88.748238 113.194023 3.535621 0.721569
88.748238 113.194023 3.190938 0.721569
88.659729 113.152374 2.840821 0.112688
88.659737 113.152374 2.503771 0.120821
88.659737 113.152374 2.167804 0.062745
88.659737 113.152374 1.832196 0.066560
88.748238 113.194023 1.491423 0.741772
88.748238 113.194023 1.151159 0.710811
88.805435 113.220940 0.801790 0.752407
88.805435 113.220940 0.455002 0.733333
88.805435 113.220940 0.104830 0.739071
87.760040 112.728996 -0.000005 0.537667
86.605759 112.185806 -0.000004 0.540856
88.805443 113.140839 4.600475 0.734981
88.805435 113.140839 4.242228 0.711223
88.805435 113.140839 3.889010 0.737469
88.748238 113.114410 3.530629 0.738781
88.748238 113.114410 3.187067 0.721569
88.659737 113.073509 2.838088 0.134676
88.659729 113.073509 2.502134 0.129931
88.659737 113.073509 2.167259 0.078614
88.659737 113.073509 1.832741 0.087617
88.748238 113.114410 1.493077 0.733730
88.748238 113.114410 1.153918 0.709804
88.805435 113.140839 0.805684 0.739773
88.805435 113.140839 0.460024 0.726070
88.805435 113.140839 0.110990 0.740841
87.787369 112.670403 -0.000005 0.544778
86.629318 112.135284 -0.000004 0.528191
88.805443 113.061256 4.592177 0.733333
88.805443 113.061256 4.235072 0.724102
88.805443 113.061256 3.882982 0.738048
88.748238 113.035309 3.525744 0.730831
88.748238 113.035301 3.183278 0.726574
88.659729 112.995155 2.835413 0.079194
88.659729 112.995155 2.500531 0.105730
88.659737 112.995155 2.166724 0.085969
88.659729 112.995155 1.833275 0.087190
88.748238 113.035301 1.494694 0.733791
88.748238 113.035301 1.156618 0.709804
88.805435 113.061256 0.809496 0.752941
88.805435 113.061256 0.464938 0.727031
88.805435 113.061256 0.117018 0.733333
87.814278 112.611626 -0.000005 0.510964
86.652527 112.084602 -0.000004 0.534951
88.805443 112.982170 4.584055 0.733700
88.805435 112.982170 4.228069 0.718669
88.805443 112.982170 3.877083 0.709804
88.748238 112.956703 3.520965 0.738384
88.748238 112.956703 3.179571 0.726390
88.659729 112.917297 2.832796 0.069642
88.659737 112.917297 2.498963 0.088426
88.659737 112.917297 2.166202 0.065507
88.659737 112.917297 1.833798 0.066880
88.748238 112.956703 1.496277 0.737560
88.748238 112.956703 1.159260 0.709804
88.805435 112.982170 0.813225 0.752941
88.805435 112.982170 0.469747 0.734462
88.805435 112.982170 0.122917 0.733333
87.840782 112.552658 -0.000005 0.519829
86.675377 112.033760 -0.000004 0.502144
88.805443 112.903580 4.576111 0.718074
88.805443 112.903580 4.221220 0.721569
88.805443 112.903580 3.871311 0.719493
88.748238 112.878586 3.516288 0.727687
88.748238 112.878586 3.175945 0.731121
88.659737 112.839920 2.830236 0.078782
88.659737 112.839920 2.497429 0.087129
88.659737 112.839920 2.165691 0.082414
88.659737 112.839920 1.834309 0.082551
88.748238 112.878586 1.497826 0.736034
88.748238 112.878586 1.161845 0.712520
88.805435 112.903580 0.816874 0.740047
88.805435 112.903580 0.474452 0.728557
88.805435 112.903580 0.128689 0.733333
87.866875 112.493507 -0.000005 0.514855
86.697876 111.982758 -0.000004 0.499657
88.805443 112.825462 4.568339 0.719829
88.805443 112.825462 4.214519 0.721569
88.805443 112.825462 3.865667 0.718486
88.748238 112.800941 3.511714 0.710582
88.748238 112.800941 3.172397 0.733333
88.659729 112.763008 2.827731 0.074510
88.659729 112.763008 2.495928 0.086275
88.659737 112.763008 2.165192 0.086275
88.659737 112.763008 1.834809 0.086275
88.748238 112.800941 1.499341 0.735698
88.748238 112.800941 1.164373 0.716701
88.805435 112.825462 0.820443 0.730755
88.805435 112.825462 0.479055 0.740749
88.805435 112.825462 0.134334 0.734783
87.892548 112.434174 -0.000005 0.535897
86.720009 111.931602 -0.000004 0.556954
88.805443 112.747810 4.560739 0.733333
88.805443 112.747810 4.207966 0.721386
88.805435 112.747810 3.860146 0.731914
88.748238 112.723763 3.507240 0.726024
88.748238 112.723763 3.168928 0.739925
88.659729 112.686562 2.825282 0.061646
88.659729 112.686562 2.494461 0.074510
88.659729 112.686562 2.164702 0.098283
88.659729 112.686562 1.835297 0.074098
88.748238 112.723763 1.500823 0.715450
88.748238 112.723763 1.166846 0.720562
88.805435 112.747810 0.823934 0.716518
88.805435 112.747810 0.483555 0.733562
88.805435 112.747810 0.139855 0.744060
87.917809 112.374664 -0.000005 0.522759
86.741791 111.880295 -0.000004 0.560128
88.805443 112.670616 4.553308 0.733333
88.805443 112.670616 4.201559 0.728969
88.805443 112.670616 3.854747 0.733333
88.748238 112.647041 3.502867 0.739498
88.748238 112.647041 3.165536 0.733333
88.659729 112.610558 2.822886 0.071565
88.659737 112.610558 2.493026 0.064256
88.659737 112.610558 2.164225 0.119249
88.659729 112.610558 1.835775 0.073777
88.748238 112.647041 1.502271 0.725109
88.748238 112.647041 1.169264 0.723598
88.805435 112.670616 0.827347 0.733333
88.805435 112.670616 0.487956 0.750805
88.805435 112.670616 0.145253 0.744213
87.942657 112.314987 -0.000005 0.562814
86.763214 111.828827 -0.000004 0.517647
88.805443 112.593864 4.546043 0.740078
88.805443 112.593864 4.195294 0.719539
88.805443 112.593864 3.849471 0.733333
88.748238 112.570755 3.498591 0.734524
88.748238 112.570755 3.162219 0.739345
88.659737 112.534996 2.820546 0.075242
88.659737 112.534996 2.491623 0.064164
88.659737 112.534996 2.163757 0.125780
88.659737 112.534996 1.836243 0.073823
88.748238 112.570755 1.503687 0.731960
88.748238 112.570755 1.171627 0.725612
88.805435 112.593864 0.830683 0.737316
88.805435 112.593864 0.492258 0.733333
88.805435 112.593864 0.150530 0.748959
87.967079 112.255127 -0.000005 0.524254
86.784271 111.777222 -0.000004 0.510216
88.805443 112.517548 4.538944 0.736095
88.805443 112.517548 4.189173 0.731029
88.805435 112.517548 3.844313 0.752941
88.748238 112.494896 3.494412 0.724651
88.748238 112.494896 3.158978 0.721706
88.659729 112.459854 2.818257 0.086275
88.659737 112.459854 2.490252 0.072999
88.659729 112.459854 2.163301 0.094118
88.659729 112.459854 1.836699 0.063478
88.748238 112.494896 1.505071 0.731960
88.748238 112.494896 1.173938 0.719127
88.805435 112.517548 0.833944 0.744076
88.805435 112.517548 0.496462 0.751720
88.805435 112.517548 0.155687 0.752941
87.991089 112.195107 -0.000005 0.524041
86.804977 111.725464 -0.000004 0.564508
88.805443 112.441650 4.532006 0.752575
88.805443 112.441643 4.183191 0.733333
88.805443 112.441650 3.839274 0.752941
88.748238 112.419456 3.490328 0.733333
88.748238 112.419456 3.155812 0.732876
88.659729 112.385124 2.816021 0.083375
88.659729 112.385124 2.488913 0.070695
88.659737 112.385132 2.162854 0.094118
88.659737 112.385132 1.837145 0.063294
88.748238 112.419456 1.506423 0.730434
88.748238 112.419456 1.176194 0.716747
88.805435 112.441643 0.837130 0.738323
88.805435 112.441643 0.500571 0.737545
88.805435 112.441643 0.160726 0.745418
88.014679 112.134918 -0.000005 0.551217
86.825317 111.673569 -0.000004 0.552010
88.805443 112.366158 4.525229 0.742519
88.805443 112.366158 4.177348 0.718395
88.805435 112.366158 3.834351 0.752941
88.748238 112.344429 3.486339 0.724834
88.748238 112.344429 3.152718 0.721752
88.659729 112.310806 2.813837 0.084535
88.659729 112.310806 2.487604 0.076295
88.659729 112.310806 2.162419 0.105882
88.659729 112.310806 1.837581 0.074144
88.748238 112.344429 1.507745 0.733333
88.748238 112.344429 1.178400 0.709804
88.805435 112.366158 0.840242 0.733150
88.805435 112.366158 0.504584 0.733333
88.805435 112.366158 0.165649 0.733333
88.037849 112.074562 -0.000005 0.524147
86.845291 111.621529 -0.000004 0.526665
88.805443 112.291069 4.518611 0.732830
88.805443 112.291069 4.171641 0.710719
88.805443 112.291069 3.829544 0.731167
88.748238 112.269791 3.482444 0.722393
88.748238 112.269791 3.149697 0.733013
88.659729 112.236877 2.811705 0.086275
88.659737 112.236877 2.486326 0.076814
88.659737 112.236877 2.161993 0.105882
88.659737 112.236877 1.838007 0.085771
88.748238 112.269791 1.509035 0.733333
88.748238 112.269791 1.180553 0.709895
88.805435 112.291069 0.843282 0.721660
88.805435 112.291069 0.508503 0.734646
88.805435 112.291069 0.170457 0.730755
88.060593 112.014046 -0.000005 0.526711
86.864906 111.569351 -0.000004 0.538430
88.805443 112.216362 4.512150 0.727733
88.805443 112.216370 4.166070 0.710719
88.805435 112.216362 3.824850 0.728649
88.748238 112.195541 3.478641 0.732815
88.748238 112.195541 3.146748 0.739345
88.659737 112.163330 2.809622 0.074510
88.659729 112.163330 2.485079 0.071107
88.659737 112.163330 2.161578 0.074510
88.659737 112.163330 1.838423 0.074510
88.748238 112.195541 1.510294 0.737362
88.748238 112.195541 1.182655 0.709804
88.805435 112.216362 0.846249 0.721752
88.805435 112.216362 0.512329 0.733333
88.805435 112.216362 0.175150 0.721706
88.082916 111.953377 -0.000005 0.533257
86.884155 111.517036 -0.000004 0.546700
88.805443 112.142044 4.505843 0.737011
88.805443 112.142044 4.160633 0.731350
88.805443 112.142044 3.820269 0.725124
88.748238 112.121674 3.474929 0.721248
88.748238 112.121674 3.143869 0.733333
88.659729 112.090157 2.807590 0.083925
88.659737 112.090157 2.483861 0.091402
88.659729 112.090157 2.161172 0.075746
88.659729 112.090157 1.838828 0.074510
88.748238 112.121674 1.511524 0.738598
88.748238 112.121674 1.184707 0.709804
88.805435 112.142044 0.849146 0.732967
88.805435 112.142044 0.516064 0.731075
88.805435 112.142044 0.179731 0.716976
88.104820 111.892548 -0.000005 0.541024
86.903038 111.464592 -0.000004 0.544213
88.805443 112.068092 4.499690 0.735637
88.805443 112.068092 4.155327 0.737224
88.805443 112.068092 3.815799 0.727031
88.748238 112.048164 3.471307 0.721569
88.748238 112.048172 3.141060 0.752941
88.659729 112.017349 2.805607 0.097230
88.659737 112.017349 2.482672 0.089113
88.659737 112.017349 2.160776 0.086152
88.659737 112.017349 1.839224 0.085954
88.748238 112.048172 1.512723 0.734737
88.748238 112.048172 1.186709 0.709804
88.805443 112.068092 0.851972 0.726024
88.805435 112.068092 0.519708 0.721706
88.805435 112.068092 0.184202 0.733333
88.126297 111.831573 -0.000005 0.540932
86.921562 111.412018 -0.000005 0.556588
88.805443 111.994492 4.493688 0.733547
88.805443 111.994492 4.150152 0.731594
88.805443 111.994492 3.811439 0.734478
88.748238 111.975021 3.467775 0.726986
88.748238 111.975021 3.138320 0.737316
88.659737 111.944893 2.803672 0.117647
88.659737 111.944893 2.481514 0.093324
88.659737 111.944893 2.160390 0.094118
88.659737 111.944893 1.839610 0.086275
88.748238 111.975021 1.513893 0.732204
88.748238 111.975021 1.188662 0.714763
88.805435 111.994492 0.854728 0.720882
88.805435 111.994492 0.523262 0.714992
88.805435 111.994492 0.188561 0.721569
88.147339 111.770447 -0.000005 0.549050
86.939705 111.359306 -0.000004 0.549538
88.805443 111.921249 4.487836 0.733974
88.805443 111.921249 4.145105 0.735759
88.805443 111.921249 3.807188 0.733196
88.748238 111.902222 3.464330 0.735363
88.748238 111.902222 3.135649 0.738384
88.659729 111.872772 2.801786 0.128542
88.659737 111.872780 2.480384 0.089799
88.659737 111.872772 2.160014 0.094118
88.659737 111.872772 1.839987 0.087678
88.748238 111.902222 1.515034 0.727031
88.748238 111.902222 1.190566 0.712245
88.805435 111.921249 0.857416 0.741176
88.805435 111.921249 0.526728 0.733333
88.805435 111.921249 0.192812 0.715038
88.167969 111.709175 -0.000005 0.514824
86.957481 111.306480 -0.000004 0.561776
88.805443 111.848343 4.482131 0.733333
88.805443 111.848343 4.140187 0.734127
88.805443 111.848343 3.803045 0.719036
88.748238 111.829758 3.460972 0.734279
88.748238 111.829758 3.133045 0.744747
88.659737 111.800995 2.799948 0.117647
88.659737 111.800995 2.479282 0.086275
88.659737 111.800995 2.159647 0.096605
88.659737 111.800995 1.840353 0.095949
88.748238 111.829758 1.516146 0.736980
88.748238 111.829758 1.192422 0.712245
88.805435 111.848343 0.860036 0.732967
88.805435 111.848343 0.530106 0.721294
88.805443 111.848343 0.196956 0.721523
88.188156 111.647766 -0.000005 0.516365
86.974899 111.253525 -0.000004 0.560891
88.805443 111.775764 4.476573 0.729656
88.805443 111.775764 4.135395 0.718685
88.805443 111.775764 3.799007 0.727504
88.748238 111.757622 3.457701 0.737682
88.748238 111.757614 3.130508 0.733333
88.659737 111.729546 2.798156 0.129412
88.659737 111.729546 2.478209 0.090898
88.659737 111.729546 2.159289 0.117647
88.659737 111.729546 1.840711 0.102571
88.748238 111.757622 1.517229 0.730236
88.748238 111.757622 1.194230 0.709804
88.805435 111.775764 0.862589 0.720378
88.805435 111.775764 0.533397 0.713481
88.805435 111.775764 0.200993 0.719127
88.207924 111.586212 -0.000005 0.526696
86.991936 111.200455 -0.000004 0.534356
88.805443 111.703506 4.471161 0.747890
88.805443 111.703506 4.130728 0.709804
88.805443 111.703506 3.795075 0.724605
88.748238 111.685799 3.454515 0.733333
88.748238 111.685799 3.128037 0.733333
88.659729 111.658401 2.796412 0.129412
88.659737 111.658401 2.477164 0.103243
88.659737 111.658401 2.158941 0.098207
88.659737 111.658401 1.841059 0.103960
88.748238 111.685799 1.518284 0.726986
88.748238 111.685799 1.195991 0.709804
88.805435 111.703506 0.865074 0.729000
88.805435 111.703506 0.536603 0.721569
88.805435 111.703506 0.204925 0.717937
88.227257 111.524521 -0.000005 0.531456
87.008606 111.147263 -0.000004 0.531975
88.805443 111.631569 4.465892 0.748028
88.805443 111.631569 4.126185 0.716884
88.805443 111.631569 3.791248 0.723445
88.748238 111.614296 3.451414 0.750103
88.748238 111.614296 3.125632 0.716747
88.659737 111.587570 2.794714 0.160784
88.659729 111.587570 2.476146 0.117281
88.659737 111.587570 2.158602 0.108507
88.659737 111.587570 1.841398 0.129412
88.748238 111.614296 1.519312 0.733333
88.748238 111.614296 1.197705 0.709804
88.805435 111.631569 0.867494 0.708064
88.805443 111.631569 0.539723 0.718486
88.805435 111.631561 0.208753 0.721569
88.246155 111.462700 -0.000005 0.526360
87.024902 111.093956 -0.000004 0.547417
88.805443 111.559921 4.460764 0.734035
88.805443 111.559921 4.121764 0.733333
88.805435 111.559921 3.787523 0.729427
88.748238 111.543091 3.448396 0.744976
88.748238 111.543083 3.123291 0.724422
88.659737 111.517036 2.793062 0.160784
88.659737 111.517036 2.475157 0.109651
88.659737 111.517036 2.158273 0.111818
88.659737 111.517036 1.841727 0.129412
88.748238 111.543083 1.520311 0.721569
88.748238 111.543091 1.199373 0.709804
88.805435 111.559921 0.869849 0.730144
88.805435 111.559921 0.542759 0.733059
88.805435 111.559921 0.212477 0.721660
88.264626 111.400742 -0.000005 0.546563
87.040833 111.040535 -0.000004 0.513771
88.805443 111.488579 4.455778 0.733547
88.805443 111.488579 4.117465 0.732433
88.805443 111.488579 3.783901 0.733333
88.748238 111.472176 3.445461 0.733333
88.748238 111.472176 3.121015 0.732601
88.659729 111.446793 2.791455 0.147433
88.659737 111.446793 2.474194 0.097536
88.659737 111.446793 2.157952 0.097536
88.659737 111.446793 1.842048 0.098528
88.748238 111.472176 1.521283 0.717067
88.748238 111.472176 1.200996 0.709804
88.805435 111.488579 0.872139 0.725017
88.805435 111.488579 0.545712 0.729259
88.805435 111.488579 0.216099 0.732097
88.282669 111.338661 -0.000005 0.547326
87.056389 110.987007 -0.000005 0.524102
88.805443 111.417511 4.450931 0.722896
88.805443 111.417511 4.113285 0.703929
88.805443 111.417511 3.780380 0.729061
88.748238 111.401543 3.442608 0.733333
88.748238 111.401543 3.118803 0.739376
88.659737 111.376831 2.789892 0.092683
88.659737 111.376831 2.473258 0.066423
88.659737 111.376831 2.157640 0.068498
88.659737 111.376831 1.842360 0.074174
88.748238 111.401543 1.522228 0.709804
88.748238 111.401543 1.202573 0.709804
88.805435 111.417511 0.874365 0.721569
88.805435 111.417511 0.548583 0.737926
88.805435 111.417511 0.219620 0.726070
88.300270 111.276459 -0.000005 0.517098
87.071564 110.933372 -0.000004 0.566415
88.805443 111.346725 4.446222 0.732326
88.805443 111.346725 4.109225 0.709804
88.805443 111.346725 3.776960 0.732143
88.748238 111.331184 3.439837 0.733333
88.748238 111.331184 3.116653 0.733333
88.659737 111.307137 2.788375 0.077501
88.659737 111.307137 2.472349 0.076631
88.659737 111.307137 2.157337 0.088273
88.659737 111.307137 1.842663 0.080308
88.748238 111.331184 1.523146 0.709804
88.748238 111.331184 1.204105 0.709804
88.805443 111.346725 0.876528 0.723598
88.805443 111.346725 0.551371 0.732784
88.805435 111.346725 0.223041 0.722622
88.317436 111.214134 -0.000005 0.539544
87.086365 110.879631 -0.000004 0.532464
88.805443 111.276215 4.441650 0.731960
88.805443 111.276207 4.105283 0.694179
88.805443 111.276207 3.773638 0.732372
88.748238 111.261093 3.437145 0.733333
88.748238 111.261093 3.114566 0.730755
88.659737 111.237709 2.786901 0.074510
88.659737 111.237709 2.471466 0.074510
88.659737 111.237709 2.157043 0.074510
88.659729 111.237709 1.842957 0.077592
88.748238 111.261093 1.524037 0.709804
88.748238 111.261093 1.205593 0.709804
88.805435 111.276207 0.878628 0.733150
88.805435 111.276207 0.554078 0.733486
88.805435 111.276207 0.226362 0.721569
88.334167 111.151688 -0.000005 0.564233
87.100800 110.825790 -0.000004 0.550408
88.805443 111.205956 4.437214 0.735912
88.805443 111.205956 4.101458 0.695186
88.805443 111.205956 3.770415 0.736706
88.748238 111.191261 3.434534 0.733333
88.748238 111.191261 3.112541 0.733333
88.659737 111.168541 2.785472 0.062745
88.659737 111.168541 2.470609 0.062745
88.659737 111.168541 2.156758 0.062745
88.659737 111.168541 1.843242 0.062745
88.748238 111.191261 1.524902 0.709804
88.748238 111.191261 1.207036 0.709804
88.805435 111.205948 0.880665 0.726116
88.805435 111.205948 0.556706 0.735668
88.805435 111.205948 0.229584 0.732845
88.350464 111.089127 -0.000005 0.535836
87.114845 110.771851 -0.000004 0.503944
88.805443 111.135948 4.432911 0.738933
88.805443 111.135948 4.097748 0.697612
88.805435 111.135948 3.767291 0.731960
88.748230 111.121681 3.432002 0.738384
88.748230 111.121681 3.110577 0.725063
88.659729 111.099617 2.784085 0.062745
88.659737 111.099617 2.469778 0.062745
88.659737 111.099617 2.156481 0.062745
88.659737 111.099617 1.843519 0.062745
88.748238 111.121681 1.525741 0.721569
88.748238 111.121681 1.208436 0.733333
88.805435 111.135948 0.882641 0.721752
88.805435 111.135948 0.559253 0.726574
88.805435 111.135948 0.232710 0.738506
88.366333 111.026459 -0.000005 0.569192
87.128525 110.717812 -0.000004 0.520058
88.805435 111.066185 4.428742 0.728328
88.805443 111.066185 4.094153 0.719081
88.805443 111.066185 3.764262 0.733196
88.748238 111.052345 3.429548 0.735241
88.748238 111.052345 3.108674 0.732464
88.672585 111.034042 2.783826 0.337865
88.672585 111.034042 2.469623 0.316548
88.672585 111.034042 2.156429 0.337865
88.672585 111.034042 1.843571 0.321935
88.748238 111.052345 1.526553 0.721569
88.748238 111.052345 1.209792 0.733333
88.805435 111.066177 0.884556 0.721569
88.805435 111.066185 0.561722 0.733013
88.805435 111.066185 0.235738 0.723918
88.381752 110.963676 -0.000005 0.555703
87.141815 110.663681 -0.000004 0.534401
88.805443 110.996651 4.424706 0.733333
88.805443 110.996651 4.090673 0.741176
88.805443 110.996651 3.761331 0.727214
88.748238 110.983238 3.427172 0.745739
88.748238 110.983238 3.106831 0.746227
88.805435 110.996651 2.793712 0.715694
88.805443 110.996651 2.475547 0.712612
88.805443 110.996651 2.158402 0.733333
88.805443 110.996651 1.841598 0.733333
88.748238 110.983238 1.527340 0.714260
88.748238 110.983238 1.211105 0.716930
88.805435 110.996651 0.886409 0.731258
88.805435 110.996651 0.564112 0.731258
88.805443 110.996651 0.238670 0.731289
88.396736 110.900787 -0.000005 0.562783
87.154739 110.609451 -0.000004 0.551629
88.805443 110.927353 4.420801 0.718074
88.805443 110.927353 4.087306 0.732326
88.805443 110.927353 3.758493 0.721569
88.748238 110.914352 3.424873 0.733333
88.748238 110.914352 3.105049 0.743297
88.805435 110.927353 2.792434 0.725475
88.805443 110.927353 2.474781 0.724605
88.805435 110.927353 2.158147 0.721569
88.805435 110.927353 1.841853 0.733333
88.748238 110.914352 1.528101 0.712749
88.748238 110.914352 1.212376 0.717983
88.805435 110.927353 0.888203 0.734768
88.805435 110.927353 0.566425 0.737835
88.805435 110.927353 0.241507 0.733364
88.411278 110.837791 -0.000005 0.540536
87.167282 110.555138 -0.000004 0.547524
88.805443 110.858269 4.417027 0.721660
88.805443 110.858269 4.084051 0.733333
88.805435 110.858269 3.755751 0.726162
88.748238 110.845695 3.422652 0.733333
88.748238 110.845695 3.103326 0.745983
88.805443 110.858269 2.791198 0.721569
88.805435 110.858269 2.474040 0.733333
88.805435 110.858269 2.157900 0.721569
88.805435 110.858269 1.842100 0.731121
88.748238 110.845695 1.528837 0.715694
88.748238 110.845695 1.213604 0.733333
88.805435 110.858269 0.889937 0.739406
88.805435 110.858269 0.568661 0.730983
88.805435 110.858269 0.244249 0.730663
88.425385 110.774704 -0.000005 0.570169
87.179436 110.500740 -0.000005 0.495506
88.805443 110.789398 4.413380 0.721798
88.805435 110.789398 4.080907 0.725063
88.805443 110.789398 3.753103 0.735973
88.748238 110.777245 3.420506 0.729015
88.748238 110.777245 3.101661 0.733715
88.805435 110.789398 2.790004 0.726024
88.805435 110.789398 2.473325 0.724422
88.805435 110.789398 2.157662 0.728237
88.805435 110.789398 1.842338 0.712795
88.748238 110.777245 1.529548 0.715694
88.748238 110.777245 1.214790 0.731456
88.805435 110.789398 0.891611 0.734554
88.805435 110.789398 0.570819 0.723217
88.805435 110.789398 0.246897 0.701762
88.439041 110.711517 -0.000006 0.523674
87.191223 110.446259 -0.000005 0.551904
88.805435 110.720734 4.409862 0.721569
88.805443 110.720734 4.077874 0.698039
88.805443 110.720734 3.750547 0.735912
88.748238 110.708992 3.418436 0.733333
88.748238 110.708992 3.100056 0.733333
88.805435 110.720734 2.788853 0.725475
88.805443 110.720734 2.472635 0.722759
88.805443 110.720734 2.157432 0.730205
88.805443 110.720734 1.842567 0.709804
88.748238 110.708992 1.530234 0.715694
88.748238 110.708992 1.215935 0.733333
88.805435 110.720734 0.893227 0.733333
88.805435 110.720734 0.572902 0.721569
88.805435 110.720734 0.249453 0.693904
88.452263 110.648232 -0.000005 0.536049
87.202621 110.391693 -0.000004 0.562310
88.805435 110.652267 4.406471 0.700710
88.805435 110.652267 4.074951 0.698039
88.805435 110.652267 3.748085 0.721569
88.748230 110.640938 3.416440 0.722530
88.748238 110.640938 3.098508 0.717342
88.805443 110.652267 2.787744 0.723262
88.805435 110.652267 2.471970 0.728557
88.805443 110.652267 2.157211 0.728191
88.805435 110.652267 1.842789 0.712474
88.748238 110.640938 1.530895 0.710811
88.748238 110.640938 1.217038 0.723598
88.805435 110.652267 0.894783 0.730709
88.805435 110.652267 0.574911 0.732235
88.805435 110.652267 0.251915 0.717159
88.465042 110.584862 -0.000005 0.544610
87.213638 110.337051 -0.000004 0.564981
88.805443 110.583984 4.403209 0.729976
88.805435 110.583984 4.072137 0.698039
88.805435 110.583984 3.745714 0.727733
88.748238 110.573074 3.414518 0.721569
88.748238 110.573074 3.097018 0.721569
88.805443 110.583984 2.786675 0.733333
88.805443 110.583984 2.471330 0.729061
88.805435 110.583984 2.156998 0.720836
88.805435 110.583984 1.843002 0.704112
88.748238 110.573074 1.531531 0.716838
88.748238 110.573074 1.218100 0.721065
88.805435 110.583984 0.896282 0.719539
88.805435 110.583984 0.576843 0.722759
88.805435 110.583984 0.254286 0.730480
88.477379 110.521400 -0.000005 0.555184
87.224274 110.282333 -0.000004 0.570306
88.805443 110.515892 4.400071 0.725612
88.805435 110.515892 4.069431 0.721569
88.805435 110.515892 3.743434 0.726390
88.748238 110.505386 3.412672 0.721569
88.748238 110.505386 3.095586 0.721569
88.805443 110.515892 2.785648 0.736034
88.805443 110.515892 2.470715 0.717937
88.805443 110.515892 2.156793 0.724743
88.805443 110.515892 1.843207 0.721569
88.748238 110.505386 1.532142 0.732372
88.748238 110.505386 1.219121 0.719539
88.805443 110.515892 0.897724 0.724239
88.805435 110.515892 0.578701 0.725567
88.805435 110.515892 0.256566 0.733333
88.489273 110.457855 -0.000005 0.525536
87.234535 110.227547 -0.000005 0.549661
88.805443 110.447968 4.397058 0.735210
88.805435 110.447968 4.066833 0.721569
88.805443 110.447968 3.741246 0.710491
88.748238 110.437881 3.410898 0.721569
88.748238 110.437881 3.094210 0.721569
88.805435 110.447968 2.784661 0.733791
88.805435 110.447968 2.470124 0.721569
88.805435 110.447968 2.156596 0.730205
88.805435 110.447968 1.843404 0.710628
88.748238 110.437881 1.532730 0.739834
88.748238 110.437881 1.220101 0.710033
88.805435 110.447968 0.899108 0.709804
88.805435 110.447968 0.580486 0.728237
88.805435 110.447968 0.258754 0.721202
88.500725 110.394226 -0.000005 0.523796
87.244400 110.172684 -0.000005 0.511604
88.805443 110.380211 4.394167 0.730632
88.805443 110.380211 4.064342 0.730114
88.805435 110.380211 3.739147 0.731991
88.748238 110.370529 3.409197 0.723400
88.748238 110.370529 3.092891 0.719081
88.805435 110.380211 2.783716 0.733333
88.805435 110.380211 2.469557 0.733333
88.805435 110.380211 2.156407 0.733333
88.805435 110.380211 1.843593 0.734142
88.748238 110.370529 1.533293 0.736339
88.748238 110.370529 1.221041 0.715404
88.805435 110.380211 0.900434 0.709804
88.805435 110.380211 0.582197 0.716793
88.805435 110.380211 0.260853 0.707774
88.511726 110.330528 -0.000005 0.526299
87.253891 110.117752 -0.000004 0.538705
88.805443 110.312614 4.391402 0.729015
88.805443 110.312614 4.061957 0.725521
88.805435 110.312614 3.737138 0.731777
88.748230 110.303345 3.407569 0.738872
88.748238 110.303345 3.091629 0.730129
88.805443 110.312614 2.782810 0.729335
88.805443 110.312614 2.469014 0.709575
88.805443 110.312614 2.156227 0.730327
88.805443 110.312614 1.843773 0.728283
88.748238 110.303345 1.533832 0.739330
88.748238 110.303345 1.221941 0.732967
88.805443 110.312614 0.901705 0.701854
88.805435 110.312614 0.583835 0.714397
88.805435 110.312614 0.262862 0.721569
88.522285 110.266747 -0.000005 0.552071
87.263000 110.062759 -0.000005 0.534661
88.805443 110.245171 4.388759 0.737346
88.805435 110.245171 4.059679 0.712657
88.805435 110.245171 3.735218 0.722255
88.748238 110.236313 3.406014 0.721569
88.748238 110.236313 3.090422 0.733516
88.805443 110.245171 2.781945 0.721569
88.805435 110.245171 2.468496 0.720470
88.805435 110.245171 2.156054 0.698863
88.805435 110.245171 1.843946 0.720974
88.748238 110.236313 1.534347 0.732830
88.748238 110.236313 1.222801 0.733333
88.805435 110.245171 0.902919 0.721569
88.805435 110.245171 0.585400 0.726345
88.805435 110.245171 0.264783 0.733547
88.532402 110.202896 -0.000005 0.552529
87.271721 110.007706 -0.000005 0.534005
88.805443 110.177872 4.386238 0.733333
88.805435 110.177872 4.057505 0.722393
88.805443 110.177872 3.733387 0.732555
88.748238 110.169418 3.404530 0.721569
88.748238 110.169418 3.089271 0.737697
88.805435 110.177872 2.781120 0.733333
88.805435 110.177872 2.468002 0.714855
88.805435 110.177872 2.155889 0.704295
88.805435 110.177872 1.844111 0.733104
88.748238 110.169418 1.534839 0.721065
88.748238 110.169418 1.223621 0.737682
88.805435 110.177872 0.904077 0.721569
88.805435 110.177872 0.586893 0.733333
88.805435 110.177872 0.266613 0.733440
88.542076 110.138977 -0.000006 0.538552
87.280052 109.952591 -0.000005 0.557244
88.805443 110.110710 4.383839 0.734157
88.805443 110.110710 4.055436 0.711452
88.805443 110.110710 3.731643 0.711543
88.748230 110.102669 3.403117 0.703090
88.748238 110.102669 3.088176 0.707469
88.805435 110.110710 2.780334 0.714397
88.805435 110.110710 2.467531 0.720699
88.805435 110.110710 2.155732 0.726452
88.805435 110.110710 1.844268 0.739803
88.748238 110.102669 1.535307 0.709804
88.748238 110.102669 1.224402 0.721569
88.805435 110.110710 0.905179 0.698039
88.805435 110.110710 0.588314 0.711406
88.805435 110.110710 0.268357 0.709346
88.551292 110.074989 -0.000006 0.543389
87.288010 109.897423 -0.000005 0.540948
88.805443 110.043678 4.381559 0.733669
88.805443 110.043678 4.053471 0.740108
88.805435 110.043678 3.729988 0.732692
88.748238 110.036049 3.401776 0.712200
88.748238 110.036049 3.087136 0.720241
88.805435 110.043678 2.779588 0.698955
88.805435 110.043678 2.467084 0.710124
88.805435 110.043678 2.155584 0.735424
88.805435 110.043678 1.844416 0.710948
88.748238 110.036049 1.535751 0.721523
88.748238 110.036049 1.225143 0.733104
88.805435 110.043678 0.906225 0.712108
88.805435 110.043678 0.589664 0.733333
88.805435 110.043678 0.270012 0.698131
88.560066 110.010933 -0.000005 0.556619
87.295570 109.842194 -0.000005 0.549508
88.805443 109.976776 4.379401 0.733333
88.805443 109.976776 4.051610 0.733333
88.805435 109.976776 3.728420 0.730755
88.748238 109.969551 3.400505 0.716472
88.748230 109.969551 3.086150 0.737011
88.805435 109.976776 2.778882 0.708934
88.805443 109.976776 2.466661 0.721569
88.805443 109.976776 2.155442 0.729625
88.805443 109.976776 1.844557 0.726299
88.748238 109.969551 1.536172 0.721569
88.748238 109.969551 1.225846 0.721569
88.805435 109.976776 0.907217 0.703456
88.805435 109.976776 0.590942 0.733333
88.805435 109.976776 0.271581 0.714397
88.568398 109.946823 -0.000006 0.557015
87.302750 109.786919 -0.000005 0.530404
88.805443 109.909988 4.377362 0.720287
88.805435 109.909988 4.049851 0.737179
88.805435 109.909988 3.726939 0.731685
88.748238 109.903168 3.399305 0.716060
88.748238 109.903168 3.085220 0.741176
88.805435 109.909988 2.778214 0.711589
88.805435 109.909988 2.466261 0.709346
88.805435 109.909988 2.155309 0.711406
88.805435 109.909988 1.844691 0.698039
88.748238 109.903168 1.536569 0.721569
88.748238 109.903168 1.226509 0.721569
88.805435 109.909988 0.908153 0.698039
88.805435 109.909988 0.592149 0.721065
88.805435 109.909988 0.273062 0.713848
88.576279 109.882660 -0.000006 0.525750
87.309547 109.731590 -0.000005 0.551980
88.805443 109.843315 4.375442 0.718807
88.805443 109.843315 4.048195 0.731548
88.805435 109.843315 3.725544 0.731685
88.748238 109.836899 3.398175 0.698039
88.748238 109.836899 3.084343 0.734218
88.805443 109.843315 2.777586 0.727733
88.805435 109.843315 2.465884 0.718532
88.805435 109.843315 2.155184 0.721569
88.805435 109.843315 1.844816 0.698955
88.748238 109.836899 1.536943 0.722118
88.748238 109.836899 1.227134 0.733013
88.805435 109.843315 0.909035 0.698039
88.805435 109.843315 0.593286 0.719356
88.805435 109.843315 0.274457 0.702174
88.583710 109.818443 -0.000006 0.544030
87.315956 109.676216 -0.000005 0.516991
88.805435 109.776749 4.373640 0.729290
88.805443 109.776749 4.046642 0.727306
88.805435 109.776749 3.724235 0.723217
88.748230 109.770737 3.397115 0.728145
88.748238 109.770737 3.083521 0.722026
88.805443 109.776749 2.776996 0.717983
88.805435 109.776749 2.465531 0.721752
88.805435 109.776749 2.155066 0.707774
88.805435 109.776749 1.844934 0.720378
88.748238 109.770737 1.537294 0.721569
88.748238 109.770737 1.227720 0.714076
88.805435 109.776749 0.909862 0.707683
88.805435 109.776749 0.594353 0.723781
88.805435 109.776749 0.275765 0.699779
88.590691 109.754173 -0.000005 0.532555
87.321976 109.620804 -0.000005 0.513939
88.805443 109.710274 4.371958 0.721065
88.805443 109.710274 4.045191 0.719783
88.805435 109.710274 3.723013 0.713527
88.748230 109.704666 3.396124 0.739406
88.748238 109.704666 3.082753 0.722438
88.805435 109.710274 2.776445 0.739635
88.805435 109.710274 2.465201 0.716152
88.805435 109.710274 2.154956 0.709804
88.805435 109.710274 1.845044 0.697688
88.748230 109.704666 1.537623 0.721569
88.748238 109.704666 1.228267 0.711788
88.805435 109.710274 0.910635 0.729381
88.805435 109.710274 0.595350 0.723781
88.805435 109.710274 0.276987 0.698039
88.597229 109.689857 -0.000005 0.518853
87.327606 109.565346 -0.000005 0.530266
88.805435 109.643890 4.370392 0.738323
88.805443 109.643890 4.043842 0.736217
88.805443 109.643890 3.721877 0.724483
88.748238 109.638687 3.395203 0.722896
88.748238 109.638687 3.082038 0.731914
88.805443 109.643890 2.775933 0.733333
88.805435 109.643890 2.464894 0.718349
88.805435 109.643890 2.154854 0.716472
88.805435 109.643890 1.845146 0.697581
88.748238 109.638687 1.537928 0.721019
88.748238 109.638687 1.228776 0.712520
88.805435 109.643890 0.911354 0.715785
88.805435 109.643890 0.596276 0.729702
88.805435 109.643890 0.278124 0.712840
88.603310 109.625496 -0.000006 0.525170
87.332855 109.509850 -0.000004 0.568322
88.805435 109.577599 4.368944 0.739895
88.805443 109.577599 4.042594 0.733333
88.805443 109.577599 3.720825 0.726940
88.748230 109.572792 3.394351 0.733333
88.748238 109.572792 3.081378 0.742290
88.805435 109.577599 2.775459 0.731304
88.805435 109.577599 2.464610 0.716884
88.805435 109.577599 2.154759 0.704295
88.805435 109.577599 1.845241 0.702083
88.748238 109.572792 1.538210 0.710170
88.748238 109.572792 1.229247 0.727214
88.805435 109.577599 0.912019 0.725841
88.805435 109.577591 0.597134 0.733333
88.805435 109.577591 0.279176 0.733333
88.608948 109.561089 -0.000006 0.508202
87.337715 109.454323 -0.000005 0.515923
88.805443 109.511375 4.367615 0.727169
88.805443 109.511375 4.041447 0.733333
88.805443 109.511375 3.719858 0.730205
88.748238 109.506973 3.393568 0.730800
88.748238 109.506973 3.080770 0.734951
88.805435 109.511375 2.775023 0.730663
88.805443 109.511375 2.464349 0.724422
88.805435 109.511375 2.154673 0.717617
88.805435 109.511375 1.845327 0.721569
88.748238 109.506973 1.538469 0.723445
88.748238 109.506973 1.229681 0.730709
88.805435 109.511375 0.912630 0.733333
88.805435 109.511375 0.597921 0.733333
88.805435 109.511375 0.280142 0.733013
88.614136 109.496651 -0.000006 0.522026
87.342186 109.398758 -0.000005 0.516396
88.805443 109.445229 4.366401 0.694606
88.805443 109.445229 4.040400 0.735073
88.805435 109.445229 3.718976 0.730388
88.748230 109.441223 3.392853 0.731914
88.748238 109.441223 3.080216 0.741176
88.805443 109.445229 2.774626 0.733608
88.805435 109.445229 2.464111 0.728328
88.805435 109.445229 2.154593 0.721569
88.805435 109.445229 1.845407 0.720378
88.748238 109.441223 1.538706 0.721614
88.748238 109.441223 1.230076 0.732921
88.805435 109.445229 0.913187 0.725429
88.805435 109.445229 0.598641 0.733944
88.805435 109.445229 0.281024 0.737514
88.618866 109.432175 -0.000005 0.549111
87.346275 109.343170 -0.000005 0.546990
88.805443 109.379143 4.365303 0.714519
88.805443 109.379143 4.039454 0.733333
88.805443 109.379143 3.718179 0.725612
88.748238 109.375542 3.392208 0.722713
88.748238 109.375542 3.079715 0.733822
88.805435 109.379143 2.774267 0.722942
88.805443 109.379143 2.463896 0.729747
88.805435 109.379143 2.154521 0.721569
88.805435 109.379143 1.845478 0.721569
88.748238 109.375542 1.538920 0.722759
88.748238 109.375542 1.230433 0.733333
88.805435 109.379143 0.913691 0.723873
88.805443 109.379143 0.599290 0.721340
88.805435 109.379143 0.281821 0.721569
88.623154 109.367668 -0.000006 0.540719
87.349968 109.287544 -0.000005 0.526085
88.805443 109.313118 4.364322 0.714183
88.805443 109.313118 4.038608 0.730892
88.805435 109.313118 3.717466 0.734432
88.748230 109.309921 3.391630 0.721569
88.748238 109.309921 3.079268 0.731304
88.805435 109.313118 2.773946 0.703365
88.805435 109.313118 2.463703 0.716701
88.805435 109.313118 2.154458 0.714672
88.805435 109.313118 1.845543 0.720378
88.748238 109.309921 1.539111 0.723445
88.748230 109.309921 1.230752 0.733333
88.805435 109.313118 0.914142 0.728237
88.805435 109.313118 0.599872 0.728695
88.805435 109.313118 0.282534 0.706676
88.626984 109.303139 -0.000006 0.568948
87.353271 109.231903 -0.000005 0.578653
88.805443 109.247147 4.363458 0.723491
88.805443 109.247147 4.037862 0.729931
88.805443 109.247147 3.716838 0.732448
88.805435 109.247147 3.399616 0.721569
88.805435 109.247147 3.085461 0.713939
88.805435 109.247147 2.773662 0.719738
88.805443 109.247147 2.463534 0.729610
88.805443 109.247147 2.154401 0.707271
88.805443 109.247147 1.845599 0.720562
88.805435 109.247147 1.536466 0.721569
88.805435 109.247147 1.226337 0.737469
88.805435 109.247147 0.914539 0.733333
88.805435 109.247147 0.600384 0.721523
88.805435 109.247147 0.283162 0.697887
88.630371 109.238579 -0.000006 0.566552
87.356194 109.176239 -0.000005 0.524941
88.805443 109.181213 4.362707 0.720012
88.805443 109.181213 4.037215 0.733333
88.805443 109.181213 3.716294 0.760571
88.748230 109.178818 3.390679 0.703731
88.748230 109.178818 3.078530 0.709758
88.805435 109.181213 2.773417 0.721569
88.805435 109.181213 2.463387 0.710582
88.805435 109.181213 2.154352 0.709804
88.805435 109.181213 1.845648 0.702907
88.748238 109.178818 1.539426 0.733333
88.748238 109.178818 1.231277 0.741176
88.805435 109.181213 0.914883 0.733333
88.805435 109.181213 0.600828 0.730938
88.805435 109.181213 0.283707 0.697963
88.633301 109.173996 -0.000005 0.526177
87.358727 109.120552 -0.000005 0.551064
88.805443 109.115326 4.362074 0.719875
88.805435 109.115326 4.036669 0.733135
88.805443 109.115326 3.715833 0.736477
88.748230 109.113327 3.390306 0.740200
88.748230 109.113327 3.078241 0.709850
88.805435 109.115326 2.773210 0.736126
88.805435 109.115326 2.463262 0.721569
88.805435 109.115326 2.154310 0.714763
88.805435 109.115326 1.845689 0.735683
88.748238 109.113327 1.539550 0.752941
88.748238 109.113327 1.231483 0.742550
88.805435 109.115326 0.915174 0.733333
88.805435 109.115326 0.601203 0.741024
88.805435 109.115326 0.284167 0.698039
88.635788 109.109398 -0.000005 0.578393
87.360863 109.064850 -0.000005 0.510628
88.805443 109.049461 4.361556 0.729015
88.805443 109.049461 4.036222 0.720958
88.805443 109.049461 3.715456 0.721569
88.748238 109.047867 3.390001 0.752941
88.748238 109.047867 3.078004 0.709895
88.805443 109.049461 2.773040 0.733333
88.805435 109.049461 2.463161 0.727703
88.805443 109.049461 2.154276 0.698039
88.805443 109.049461 1.845723 0.732738
88.748238 109.047867 1.539650 0.752941
88.748238 109.047867 1.231652 0.733562
88.805435 109.049461 0.915413 0.730983
88.805435 109.049461 0.601510 0.732921
88.805435 109.049461 0.284544 0.698039
88.637817 109.044777 -0.000005 0.505272
87.362617 109.009140 -0.000005 0.561791
88.805443 108.983635 4.361152 0.734600
88.805443 108.983635 4.035874 0.704387
88.805443 108.983635 3.715164 0.718486
88.748238 108.982430 3.389764 0.752941
88.748238 108.982430 3.077820 0.709987
88.805443 108.983635 2.772908 0.715175
88.805435 108.983635 2.463082 0.729686
88.805443 108.983635 2.154251 0.697063
88.805443 108.983635 1.845750 0.718944
88.748238 108.982430 1.539729 0.734173
88.748238 108.982430 1.231783 0.733639
88.805435 108.983635 0.915598 0.721569
88.805435 108.983635 0.601748 0.721340
88.805435 108.983635 0.284837 0.697658
88.639404 108.980148 -0.000006 0.515068
87.363976 108.953415 -0.000005 0.489372
88.805443 108.917816 4.360864 0.738293
88.805443 108.917816 4.035626 0.723018
88.805443 108.917816 3.714954 0.711406
88.748238 108.917015 3.389595 0.752941
88.748238 108.917015 3.077689 0.733150
88.805435 108.917816 2.772814 0.722713
88.805443 108.917816 2.463025 0.695277
88.805443 108.917816 2.154231 0.690059
88.805435 108.917816 1.845768 0.696971
88.748238 108.917015 1.539785 0.733425
88.748238 108.917015 1.231877 0.733364
88.805435 108.917816 0.915730 0.721569
88.805435 108.917816 0.601920 0.723827
88.805435 108.917816 0.285046 0.697795
88.640533 108.915512 -0.000006 0.525261
87.364952 108.897682 -0.000005 0.564141
88.805443 108.852020 4.360691 0.730785
88.805435 108.852020 4.035477 0.738720
88.805443 108.852020 3.714829 0.720790
88.748230 108.851616 3.389493 0.739925
88.748238 108.851616 3.077610 0.733150
88.805435 108.852020 2.772757 0.721798
88.805443 108.852020 2.462991 0.701411
88.805435 108.852020 2.154220 0.681559
88.805443 108.852020 1.845780 0.681590
88.748238 108.851616 1.539819 0.725658
88.748238 108.851616 1.231933 0.717433
88.805435 108.852020 0.915810 0.721569
88.805435 108.852020 0.602022 0.733059
88.805435 108.852020 0.285171 0.697475
88.641205 108.850868 -0.000005 0.529915
87.365540 108.841942 -0.000005 0.570504
88.805443 108.786224 4.360633 0.731685
88.805435 108.786224 4.035426 0.735164
88.805443 108.786224 3.714787 0.727214
88.748238 108.786224 3.389459 0.733333
88.748238 108.786224 3.077583 0.721477
88.805435 108.786224 2.772738 0.717021
88.805435 108.786224 2.462980 0.723629
88.805443 108.786224 2.154216 0.696315
88.805443 108.786224 1.845784 0.693477
88.748238 108.786224 1.539830 0.721660
88.748238 108.786224 1.231952 0.739406
88.805435 108.786224 0.915836 0.698909
88.805435 108.786224 0.602056 0.707408
88.805435 108.786224 0.285213 0.712062
88.641434 108.786224 -0.000006 0.566979
87.365730 108.786201 -0.000005 0.548806
88.805443 108.720428 4.360690 0.723354
88.805435 108.720428 4.035476 0.736049
88.805435 108.720428 3.714828 0.730800
88.748238 108.720825 3.389493 0.733333
88.748238 108.720825 3.077609 0.717571
88.805435 108.720428 2.772757 0.733104
88.805435 108.720428 2.462991 0.733516
88.805435 108.720428 2.154220 0.704295
88.805443 108.720428 1.845780 0.698497
88.748238 108.720825 1.539819 0.717983
88.748238 108.720825 1.231933 0.733242
88.805435 108.720428 0.915810 0.696849
88.805435 108.720428 0.602022 0.725780
88.805435 108.720428 0.285172 0.725856
88.641212 108.721573 -0.000006 0.548745
87.365540 108.730453 -0.000005 0.513741
88.805443 108.654633 4.360863 0.700938
88.805435 108.654633 4.035625 0.731167
88.805443 108.654633 3.714953 0.727916
88.748230 108.655426 3.389594 0.726848
88.748238 108.655426 3.077688 0.727916
88.805435 108.654633 2.772813 0.722530
88.805435 108.654633 2.463025 0.733883
88.805443 108.654633 2.154231 0.704295
88.805443 108.654633 1.845769 0.717342
88.748238 108.655426 1.539785 0.715175
88.748238 108.655426 1.231878 0.721569
88.805435 108.654633 0.915730 0.717342
