# This PCD file was generated using the MATLABÂ® pcwrite function
# from Computer Vision ToolboxÂ®.
# .PCD v.7 - Point Cloud Data file format
VERSION .7
FIELDS x y z intensity
SIZE 4 4 4 4
TYPE F F F F
COUNT 1 1 1 1
WIDTH 1216
HEIGHT 1
VIEWPOINT 0 0 0 1 0 0 0
POINTS 1216
DATA ascii
-11.289103 -88.078712 -0.000003 0.334234
nan nan nan 0.000000
nan nan nan 0.000000
nan nan nan 0.000000
-47.739861 -147.953629 13.582337 0.647150
-47.739777 -147.953491 10.982568 0.638239
-47.739784 -147.953522 8.402328 0.634882
-47.739784 -147.953506 5.835903 0.659861
-47.739784 -147.953491 3.277720 0.629175
-47.739845 -147.953598 0.722276 0.625315
-27.288412 -114.299355 0.098758 0.704005
-19.857506 -102.071281 -0.000012 0.524941
-15.316008 -94.597931 0.199991 0.712764
-13.492142 -91.596634 0.199989 0.681224
-12.870003 -90.572861 0.009999 1.000000
-11.999333 -89.140106 -0.000001 0.321050
-11.336843 -88.049934 -0.000005 0.320546
nan nan nan 0.000000
nan nan nan 0.000000
nan nan nan 0.000000
-48.380463 -147.953629 13.631968 0.631205
-48.380447 -147.953583 11.021071 0.635447
-48.380455 -147.953598 8.429770 0.637736
-48.380447 -147.953583 5.852345 0.626383
-48.380447 -147.953613 3.283199 0.642847
-48.380455 -147.953613 0.716802 0.630716
-27.283791 -113.777504 0.120739 0.671473
-20.002722 -101.982338 -0.000012 0.535698
-15.409173 -94.540894 0.199988 0.714488
-13.564369 -91.552361 0.199993 0.678645
-12.935128 -90.533005 0.009994 1.000000
-12.054462 -89.106346 -0.000001 0.331319
-11.384380 -88.020828 -0.000006 0.342702
nan nan nan 0.000000
nan nan nan 0.000000
nan nan nan 0.000000
-49.026611 -147.953644 13.682600 0.640330
-49.026619 -147.953644 11.060344 0.644984
-49.026619 -147.953644 8.457764 0.636393
-49.026611 -147.953644 5.869118 0.656001
-49.026627 -147.953644 3.288786 0.635294
-49.026588 -147.953598 0.711217 0.641032
-27.287331 -113.280411 0.141383 0.707042
-20.147308 -101.892380 -0.000012 0.528054
-15.501939 -94.483223 0.199985 0.701793
-13.636284 -91.507584 0.199998 0.729107
-12.999965 -90.492676 0.009992 1.000000
-12.109354 -89.072189 -0.000001 0.336934
-11.431713 -87.991386 -0.000007 0.326986
nan nan nan 0.000000
nan nan nan 0.000000
nan nan nan 0.000000
-49.719490 -148.018097 13.745584 0.678431
-49.689407 -147.970856 11.102747 0.786999
-49.678436 -147.953613 8.486309 0.636805
-49.678444 -147.953613 5.886222 0.628214
-49.678429 -147.953613 3.294480 0.643473
-49.678421 -147.953613 0.705518 0.624109
-27.290466 -112.793579 0.161519 0.718654
-20.133516 -101.553680 0.024071 0.752834
-15.594282 -94.424866 0.199985 0.701778
-13.802157 -91.610359 0.173967 0.729030
-13.094032 -90.498253 -0.000009 0.335973
-12.164005 -89.037659 0.000000 0.335988
-11.478839 -87.961617 -0.000008 0.330968
nan nan nan 0.000000
nan nan nan 0.000000
nan nan nan 0.000000
-50.377792 -148.018127 13.798324 0.678431
-50.336075 -147.953613 11.141253 0.646082
-50.336075 -147.953613 8.515429 0.623362
-50.336075 -147.953613 5.903667 0.631113
-50.336075 -147.953613 3.300294 0.654902
-50.336067 -147.953613 0.699706 0.638132
-27.293867 -112.317688 0.181106 0.715938
-19.961113 -100.977219 0.071487 0.696406
-15.686208 -94.365860 0.199987 0.712489
-14.017979 -91.785858 0.134766 0.726345
-13.158613 -90.456810 -0.000008 0.336217
-12.218414 -89.002747 -0.000000 0.341924
-11.525751 -87.931511 -0.000008 0.341497
nan nan nan 0.000000
nan nan nan 0.000000
nan nan nan 0.000000
-51.022400 -147.988205 13.846804 0.867155
-50.999687 -147.953613 11.182930 0.659358
-50.999695 -147.953613 8.545135 0.628489
-50.999695 -147.953613 5.921465 0.629648
-50.999695 -147.953613 3.306222 0.633494
-50.999687 -147.953613 0.693778 0.647059
-27.298973 -111.854500 0.200035 0.702373
-19.653469 -100.209457 0.138003 0.699641
-15.777729 -94.306229 0.199988 0.711421
-14.231255 -91.950760 0.097002 0.751736
-13.222906 -90.414917 -0.000008 0.337194
-12.272578 -88.967453 0.000000 0.332311
-11.572454 -87.901077 -0.000007 0.338323
nan nan nan 0.000000
nan nan nan 0.000000
nan nan nan 0.000000
-51.669426 -147.953613 13.895482 0.657237
-51.669418 -147.953613 11.225440 0.623529
-51.669418 -147.953613 8.575435 0.635828
-51.669418 -147.953613 5.939618 0.638972
-51.669418 -147.953613 3.312270 0.634470
-51.685753 -147.978119 0.687250 0.236805
-27.512297 -111.713356 0.200035 0.703792
-19.366199 -99.492668 0.200017 0.713664
-15.868815 -94.245934 0.199991 0.678203
-14.453403 -92.122543 0.057567 0.722759
-13.286901 -90.372574 -0.000006 0.339040
-12.326495 -88.931786 0.000000 0.335744
-11.618942 -87.870316 -0.000006 0.336950
nan nan nan 0.000000
nan nan nan 0.000000
nan nan nan 0.000000
-52.345421 -147.953629 13.951388 0.633265
-52.345413 -147.953613 11.268799 0.657298
-52.345413 -147.953613 8.606340 0.635294
-52.345413 -147.953613 5.958136 0.635294
-52.345413 -147.953613 3.318437 0.637369
-52.362015 -147.978149 0.681078 0.265995
-27.724648 -111.570755 0.200035 0.707897
-19.493439 -99.407242 0.200015 0.698787
-15.959477 -94.184998 0.199995 0.710109
-14.669918 -92.279381 0.020348 0.712657
-13.350602 -90.329788 -0.000006 0.342046
-12.380161 -88.895737 0.000001 0.340368
-11.665213 -87.839233 -0.000005 0.334813
nan nan nan 0.000000
nan nan nan 0.000000
nan nan nan 0.000000
-52.913391 -147.787048 13.978433 0.659800
-53.027824 -147.953629 11.313025 0.645960
-53.027832 -147.953644 8.637861 0.639582
-53.027817 -147.953613 5.977022 0.674937
-53.027824 -147.953629 3.324726 0.633509
-53.027802 -147.953583 0.675273 0.633921
-27.935976 -111.426651 0.200035 0.709972
-19.620071 -99.320923 0.200014 0.710597
-16.049723 -94.123459 0.199996 0.713756
-14.824545 -92.339928 0.000006 0.338598
-13.414003 -90.286560 -0.000006 0.341299
-12.433577 -88.859322 0.000000 0.328649
-11.711267 -87.807831 -0.000004 0.335195
nan nan nan 0.000000
nan nan nan 0.000000
nan nan nan 0.000000
-53.265717 -147.306671 13.949584 0.665919
-53.716812 -147.953613 11.358131 0.655848
-53.716812 -147.953629 8.670012 0.617975
-53.716805 -147.953613 5.996284 0.635294
-53.716812 -147.953629 3.331144 0.663050
-53.716789 -147.953598 0.668857 0.619165
-28.146341 -111.281128 0.200032 0.708858
-19.746098 -99.233719 0.200012 0.717327
-16.139530 -94.061272 0.199999 0.709651
-14.863354 -92.231010 0.010015 1.000000
-13.477104 -90.242889 -0.000006 0.336873
-12.486738 -88.822533 -0.000001 0.338048
-11.757101 -87.776108 -0.000004 0.320775
nan nan nan 0.000000
nan nan nan 0.000000
nan nan nan 0.000000
-53.917816 -147.254578 13.998860 0.674708
-54.412514 -147.953613 11.404135 0.662623
-54.412506 -147.953598 8.702799 0.619364
-54.412521 -147.953613 6.015930 0.630488
-54.412514 -147.953613 3.337688 0.655482
-54.412514 -147.953613 0.662313 0.615076
-28.355656 -111.134109 0.200031 0.705623
-19.871529 -99.145660 0.200009 0.721752
-16.228918 -93.998489 0.199998 0.699367
-14.940035 -92.177238 0.010003 1.000000
-13.539898 -90.198784 -0.000007 0.337896
-12.539641 -88.785378 -0.000002 0.336858
-11.802711 -87.744064 -0.000003 0.340246
nan nan nan 0.000000
nan nan nan 0.000000
nan nan nan 0.000000
-54.612793 -147.254166 14.058661 0.650248
-55.115158 -147.953613 11.451061 0.647471
-55.115158 -147.953613 8.736244 0.642100
-55.115150 -147.953613 6.035968 0.645380
-55.115150 -147.953598 3.344361 0.636942
-55.115135 -147.953583 0.655639 0.641962
-28.563953 -110.985649 0.200030 0.705440
-19.996309 -99.056679 0.200010 0.712169
-16.317869 -93.935089 0.199997 0.702251
-15.016281 -92.122849 0.010007 1.000000
-13.602383 -90.154243 -0.000008 0.334661
-12.592285 -88.747856 -0.000004 0.342245
-11.848098 -87.711700 -0.000002 0.340505
nan nan nan 0.000000
nan nan nan 0.000000
nan nan nan 0.000000
-55.824249 -147.952759 14.247953 0.654810
-55.824867 -147.953613 11.498919 0.638209
-55.824875 -147.953613 8.770359 0.639200
-55.824860 -147.953613 6.056405 0.622385
-55.824867 -147.953613 3.351169 0.635370
-55.824844 -147.953583 0.648830 0.632486
-28.771200 -110.835724 0.200029 0.703517
-20.120478 -98.966850 0.200010 0.705058
-16.406374 -93.871063 0.199996 0.713420
-15.131847 -92.122398 0.000012 0.338293
-13.664555 -90.109261 -0.000008 0.335195
-12.644663 -88.709961 -0.000004 0.340215
-11.893256 -87.679024 -0.000001 0.331533
nan nan nan 0.000000
nan nan nan 0.000000
nan nan nan 0.000000
-56.540329 -147.951569 14.310678 0.674434
-56.541855 -147.953629 11.547738 0.655192
-56.541840 -147.953613 8.805151 0.635294
-56.541840 -147.953613 6.077250 0.634424
-56.541840 -147.953613 3.358112 0.666972
-56.541817 -147.953583 0.641887 0.632532
-28.977795 -110.684898 0.199995 0.706096
-20.244102 -98.876266 0.199997 0.711498
-16.494427 -93.806419 0.199995 0.717800
-15.207720 -92.066696 0.000012 0.335393
-13.726412 -90.063850 -0.000009 0.329854
-12.696775 -88.671700 -0.000005 0.337881
-11.938187 -87.646034 -0.000001 0.326604
nan nan nan 0.000000
nan nan nan 0.000000
nan nan nan 0.000000
-57.264236 -147.950912 14.374756 0.667628
-56.538872 -146.984344 11.458113 0.635828
-56.538872 -146.984344 8.741272 0.630716
-56.538803 -146.984253 6.038973 0.631052
-56.538948 -146.984467 3.345367 0.634974
-57.266235 -147.953583 0.634805 0.632013
-29.182930 -110.532089 0.199994 0.702647
-20.366993 -98.784698 0.199998 0.711147
-16.582031 -93.741165 0.199994 0.697108
-15.283200 -92.010452 0.000013 0.332738
-13.787951 -90.018005 -0.000010 0.341939
-12.748622 -88.633087 -0.000006 0.338704
-11.982887 -87.612732 -0.000001 0.339742
nan nan nan 0.000000
nan nan nan 0.000000
nan nan nan 0.000000
-57.995567 -147.950012 14.440064 0.636393
-56.538399 -146.036285 11.371078 0.632212
-56.538475 -146.036377 8.679246 0.635035
-56.538406 -146.036301 6.001812 0.671519
-56.538536 -146.036469 3.332989 0.635019
-57.998283 -147.953583 0.627581 0.642161
-29.386971 -110.377823 0.199995 0.703044
-20.489246 -98.692276 0.199999 0.691707
-16.669174 -93.675308 0.199992 0.706737
-15.358283 -91.953690 0.000014 0.336919
-13.849166 -89.971741 -0.000010 0.337774
-12.800196 -88.594109 -0.000008 0.343206
-12.027353 -87.579117 -0.000001 0.328786
nan nan nan 0.000000
nan nan nan 0.000000
nan nan nan 0.000000
-58.734955 -147.949432 14.506745 0.689799
-57.211937 -145.977936 11.412907 0.678431
-57.088654 -145.818359 8.692514 0.706447
-57.169838 -145.923431 6.016291 0.745998
-57.179123 -145.935455 3.338055 0.739651
-58.745995 -147.963730 0.620003 0.789609
-29.589930 -110.222130 0.199996 0.705379
-20.610909 -98.599075 0.199991 0.694820
-16.755856 -93.608833 0.199991 0.711360
-15.432972 -91.896400 0.000014 0.336431
-13.910059 -89.925041 -0.000011 0.338079
-12.851500 -88.554771 -0.000009 0.342214
-12.071584 -87.545189 -0.000001 0.336004
nan nan nan 0.000000
nan nan nan 0.000000
nan nan nan 0.000000
-59.481689 -147.948029 14.574603 0.660517
-57.937683 -145.977951 11.464175 0.678431
-57.820129 -145.827942 8.729968 0.696101
-57.882530 -145.907562 6.037177 0.776471
-57.904305 -145.935349 3.345341 0.720913
-59.505318 -147.978180 0.612187 0.462745
-29.791794 -110.065033 0.199997 0.709270
-20.731857 -98.504959 0.199992 0.690089
-16.959839 -93.692024 0.178027 0.669017
-15.507255 -91.838593 0.000015 0.336858
-13.970620 -89.877914 -0.000011 0.339040
-12.902520 -88.515068 -0.000009 0.335271
-12.115578 -87.510963 -0.000000 0.339971
nan nan nan 0.000000
nan nan nan 0.000000
nan nan nan 0.000000
-60.276398 -147.996628 14.653303 0.648951
-58.671440 -145.977966 11.516479 0.678431
-58.552422 -145.828262 8.767194 0.726299
-58.628059 -145.923401 6.060481 0.772610
-58.637596 -145.935394 3.352777 0.751019
-60.242149 -147.953552 0.605032 0.626169
-29.992617 -109.906601 0.199994 0.705211
-20.852150 -98.409996 0.199992 0.703593
-17.196596 -93.812149 0.150305 0.702480
-15.581137 -91.780273 0.000015 0.331151
-14.030849 -89.830368 -0.000010 0.343175
-12.953264 -88.475014 -0.000009 0.339422
-12.159329 -87.476425 -0.000000 0.333928
nan nan nan 0.000000
nan nan nan 0.000000
nan nan nan 0.000000
-60.752151 -147.637909 14.655879 0.666423
-59.413361 -145.977951 11.569830 0.678431
-59.291985 -145.827454 8.805044 0.699870
-59.383896 -145.941406 6.084381 0.776471
-59.379051 -145.935410 3.360363 0.764675
-61.006714 -147.953552 0.597212 0.665934
-30.192270 -109.746689 0.199995 0.702068
-20.971764 -98.314178 0.199994 0.693370
-17.441799 -93.937370 0.121428 0.683360
-15.654604 -91.721428 0.000017 0.333745
-14.090746 -89.782394 -0.000009 0.337026
-13.003724 -88.434601 -0.000008 0.336294
-12.202839 -87.441582 0.000000 0.336599
nan nan nan 0.000000
nan nan nan 0.000000
nan nan nan 0.000000
-60.905632 -146.884857 14.583526 0.672862
-60.159515 -145.972839 11.623494 0.742916
-60.040886 -145.827850 8.843787 0.701503
-60.128922 -145.935455 6.107231 0.776471
-60.128929 -145.935455 3.368098 0.776471
-61.779945 -147.953552 0.589233 0.638056
-32.968834 -112.736626 -0.000020 0.543236
-21.090717 -98.217545 0.199995 0.712077
-17.700985 -94.074142 0.090415 0.694591
-15.727674 -91.662086 0.000015 0.338079
-14.150303 -89.734009 -0.000008 0.329351
-13.053904 -88.393837 -0.000008 0.334539
-12.246105 -87.406433 0.000000 0.345983
nan nan nan 0.000000
nan nan nan 0.000000
nan nan nan 0.000000
-61.645508 -146.849060 14.649220 0.686290
-60.877365 -145.923386 11.671619 0.763241
-60.797791 -145.827499 8.883230 0.692149
-60.887375 -145.935455 6.130923 0.776471
-60.887383 -145.935455 3.375991 0.737926
-62.562057 -147.953568 0.581095 0.633082
-33.188183 -112.555893 -0.000021 0.538308
-21.208992 -98.120087 0.199995 0.715846
-17.969406 -94.216141 0.058171 0.748898
-15.800339 -91.602257 0.000010 0.340246
-14.209522 -89.685211 -0.000007 0.330159
-13.103797 -88.352730 -0.000008 0.330510
-12.289124 -87.370987 0.000001 0.335698
nan nan nan 0.000000
nan nan nan 0.000000
nan nan nan 0.000000
-62.427956 -146.854187 14.724236 0.649058
-61.644577 -145.923462 11.728224 0.766918
-61.564400 -145.828201 8.923586 0.698543
-61.644600 -145.923492 6.154330 0.776471
-61.644608 -145.923492 3.383786 0.762539
-63.353310 -147.953598 0.572791 0.633082
-33.406273 -112.373634 -0.000020 0.539086
-21.326574 -98.021790 0.199997 0.716289
-18.273525 -94.394470 0.019994 0.769024
-15.872590 -91.541931 0.000004 0.328847
-14.268398 -89.635994 -0.000005 0.341924
-13.153400 -88.311264 -0.000007 0.336019
-12.331896 -87.335243 0.000001 0.331807
nan nan nan 0.000000
nan nan nan 0.000000
nan nan nan 0.000000
nan nan nan 0.000000
-62.339409 -145.828125 11.771544 0.697871
-62.339294 -145.828003 8.964658 0.695750
-62.429352 -145.933487 6.179631 0.774258
-62.429352 -145.933487 3.392216 0.759594
-64.153900 -147.953613 0.564319 0.637476
-33.623077 -112.189850 -0.000020 0.539879
-21.443478 -97.922684 0.199998 0.718929
-18.478069 -94.449005 -0.000007 0.338338
-15.944406 -91.481079 0.000001 0.338125
-14.326929 -89.586372 -0.000004 0.336355
-13.202713 -88.269463 -0.000007 0.336675
-12.374416 -87.299202 0.000000 0.334493
nan nan nan 0.000000
-43.704964 -123.399948 14.048298 0.662226
nan nan nan 0.000000
nan nan nan 0.000000
-63.122635 -145.826813 11.830168 0.714839
-63.206261 -145.923401 9.016932 0.768841
-63.216637 -145.935379 6.204915 0.776471
-63.216637 -145.935394 3.400637 0.746532
-64.964096 -147.953644 0.555676 0.664149
-33.838600 -112.004570 -0.000021 0.535958
-21.559685 -97.822769 0.199998 0.722210
-18.513206 -94.304169 0.009992 1.000000
-16.015808 -91.419746 -0.000004 0.333944
-14.385117 -89.536339 -0.000004 0.341543
-13.251734 -88.227318 -0.000006 0.338170
-12.416685 -87.262863 0.000001 0.330571
nan nan nan 0.000000
-43.839760 -122.963226 13.996340 0.659327
nan nan nan 0.000000
nan nan nan 0.000000
-63.917351 -145.827728 11.890334 0.696986
-64.001381 -145.923431 9.059779 0.790066
-64.011879 -145.935394 6.230594 0.774838
-64.011879 -145.935394 3.409192 0.760113
-65.784142 -147.953659 0.546857 0.647059
-34.052830 -111.817795 -0.000021 0.538705
-21.675192 -97.722046 0.199999 0.718166
-18.604162 -94.224731 0.010004 1.000000
-16.086765 -91.357895 -0.000007 0.337636
-14.442945 -89.485901 -0.000002 0.335683
-13.300459 -88.184830 -0.000006 0.339269
-12.458699 -87.226227 0.000000 0.335851
nan nan nan 0.000000
-44.170662 -122.751740 14.009467 0.675914
nan nan nan 0.000000
nan nan nan 0.000000
-44.501297 -123.123009 8.453999 0.732357
-64.806229 -145.923401 9.103498 0.692348
-64.816948 -145.935425 6.256795 0.776471
-64.816956 -145.935425 3.417918 0.789822
-66.654633 -147.998962 0.536865 0.752682
-34.265747 -111.629517 -0.000021 0.543145
-23.412361 -99.442268 -0.000023 0.338491
-18.752590 -94.209816 -0.000022 0.333974
-16.157307 -91.295578 -0.000013 0.332860
-14.500433 -89.435074 -0.000002 0.344060
-13.348885 -88.141998 -0.000005 0.337942
-12.500459 -87.189301 -0.000001 0.334249
nan nan nan 0.000000
-44.405060 -122.432098 13.991873 0.667094
-44.405258 -122.432312 12.102850 0.645426
-44.405197 -122.432251 10.236126 0.648173
-44.405197 -122.432251 8.387457 0.641917
-44.405235 -122.432297 6.552669 0.638804
-44.405258 -122.432312 4.727695 0.629297
-44.405144 -122.432190 2.908581 0.627710
-44.405357 -122.432426 1.091415 0.658320
-34.477337 -111.439758 -0.000022 0.535698
-23.539160 -99.328598 -0.000026 0.337697
-18.842911 -94.128738 -0.000016 0.337163
-16.227392 -91.232742 -0.000016 0.334615
-14.557550 -89.383827 0.000000 0.345190
-13.397013 -88.098839 -0.000005 0.339788
-12.541959 -87.152092 -0.000002 0.342519
nan nan nan 0.000000
-44.405685 -121.858887 13.900377 0.628748
-44.405678 -121.858871 12.025709 0.650675
-44.405647 -121.858841 10.173246 0.627115
-44.405655 -121.858849 8.338693 0.630900
-44.405670 -121.858871 6.517909 0.636927
-44.405670 -121.858871 4.706868 0.631525
-44.405640 -121.858833 2.901644 0.639338
-44.405678 -121.858871 1.098355 0.645350
-34.687592 -111.248512 -0.000021 0.540825
-23.665155 -99.214043 -0.000028 0.337346
-18.932686 -94.047058 -0.000013 0.337362
-16.297031 -91.169411 -0.000017 0.339605
-14.614321 -89.332199 -0.000000 0.337987
-13.444840 -88.055344 -0.000005 0.333501
-12.583200 -87.114586 -0.000003 0.342885
nan nan nan 0.000000
-44.470451 -121.363388 13.831191 0.678431
-44.416016 -121.304779 11.952874 0.718074
-44.470444 -121.363380 10.125739 0.678431
-44.470444 -121.363380 8.301847 0.678431
-44.470444 -121.363388 6.491645 0.678431
-44.470444 -121.363380 4.691132 0.678431
-44.420517 -121.309631 2.895204 0.775021
-44.470444 -121.363388 1.103597 0.678431
-34.896507 -111.055809 -0.000021 0.539635
-23.790304 -99.098564 -0.000025 0.338231
-19.021885 -93.964752 -0.000010 0.339193
-16.366219 -91.105583 -0.000016 0.337499
-14.670722 -89.280167 0.000001 0.339254
-13.492361 -88.011513 -0.000005 0.332082
-12.624176 -87.076797 -0.000004 0.336965
nan nan nan 0.000000
-44.470436 -120.805618 13.743211 0.678431
-44.416008 -120.747833 11.878864 0.774304
-44.470436 -120.805618 10.065313 0.678431
-44.470428 -120.805603 8.254986 0.678431
-44.472855 -120.808182 6.458533 0.113008
-44.470444 -120.805618 4.671120 0.678431
-44.416008 -120.747833 2.888439 0.742687
-44.470436 -120.805618 1.110263 0.678431
-35.104080 -110.861664 -0.000022 0.540978
-23.914661 -98.982231 -0.000025 0.337713
-19.110485 -93.881798 -0.000004 0.331762
-16.434954 -91.041275 -0.000014 0.334737
-14.726759 -89.227745 0.000002 0.339544
-13.539575 -87.967346 -0.000006 0.339330
-12.664887 -87.038727 -0.000005 0.331762
nan nan nan 0.000000
-44.470428 -120.256058 13.657093 0.678431
-44.416008 -120.199074 11.806417 0.805112
-44.470428 -120.256058 10.006167 0.678431
-44.470428 -120.256042 8.209115 0.678431
-44.416000 -120.199066 6.419086 0.764706
-44.470428 -120.256058 4.651531 0.678431
-44.416016 -120.199081 2.881924 0.742550
-44.470428 -120.256050 1.116788 0.678431
-35.310287 -110.666069 -0.000021 0.540154
-24.038231 -98.865067 -0.000027 0.333593
-19.198528 -93.798256 -0.000001 0.335988
-16.503223 -90.976471 -0.000009 0.337530
-14.782430 -89.174927 0.000004 0.335393
-13.586483 -87.922867 -0.000007 0.340093
-12.705330 -87.000359 -0.000005 0.346212
-43.306030 -118.512360 15.002594 0.653132
-44.416016 -119.658295 13.555896 0.753628
-44.416000 -119.658287 11.735499 0.781430
-44.416000 -119.658279 9.936661 0.753887
-44.416008 -119.658295 8.155214 0.756786
-44.416000 -119.658287 6.387129 0.763928
-44.416000 -119.658279 4.628514 0.746227
-44.416008 -119.658295 2.875545 0.740719
-44.415993 -119.658279 1.124454 0.741787
-35.515133 -110.469040 -0.000021 0.536568
-24.160982 -98.747040 -0.000029 0.338003
-19.285982 -93.714096 0.000002 0.338659
-16.571056 -90.911217 -0.000007 0.340032
-14.837729 -89.121727 0.000005 0.340261
-13.633076 -87.878044 -0.000007 0.336996
-12.745508 -86.961723 -0.000006 0.331838
-43.507698 -118.200516 14.981950 0.664485
-44.596382 -119.308884 13.529078 0.642908
-44.305946 -119.013191 11.637489 0.668223
-44.357201 -119.065369 9.867613 0.452003
-44.596375 -119.308868 8.140926 0.640528
-44.357201 -119.065369 6.348961 0.677256
-44.596382 -119.308876 4.622414 0.640330
-44.596375 -119.308868 2.873514 0.649790
-44.357201 -119.065376 1.132072 0.654215
-35.718586 -110.270584 -0.000021 0.539483
-24.282858 -98.628113 -0.000027 0.337835
-19.372898 -93.629379 -0.000003 0.334325
-16.638416 -90.845467 -0.000002 0.339940
-14.892656 -89.068146 0.000006 0.335912
-13.679356 -87.832909 -0.000007 0.328191
-12.785416 -86.922806 -0.000007 0.342611
-43.802719 -117.983994 14.995359 0.668956
-45.124229 -119.310745 13.609530 0.631479
-44.287216 -118.470413 11.564877 0.657984
-44.330429 -118.513802 9.806651 0.534691
-45.124229 -119.310745 8.183784 0.651102
-44.330429 -118.513794 6.315262 0.677287
-45.124290 -119.310806 4.640718 0.653468
-45.508873 -119.696915 2.888528 0.653895
-44.330429 -118.513794 1.138797 0.647745
-35.920658 -110.070717 -0.000021 0.540459
-24.403820 -98.508255 -0.000015 0.339147
-19.459202 -93.544044 -0.000005 0.338796
-16.705330 -90.779259 -0.000000 0.328954
-14.947205 -89.014168 0.000008 0.341314
-13.725321 -87.787445 -0.000008 0.330495
-12.825047 -86.883606 -0.000008 0.345907
-44.097557 -117.766235 15.009148 0.655177
-45.421303 -119.076797 13.619298 0.700252
-44.305260 -117.971870 11.503155 0.652003
-44.302399 -117.969040 9.746653 0.638025
-45.421310 -119.076805 8.188986 0.678431
-44.303673 -117.970291 6.282244 0.666972
-45.573616 -119.227592 4.653465 0.768795
-45.041054 -118.700333 2.871594 0.771069
-44.304108 -117.970718 1.145377 0.662150
-36.121330 -109.869446 -0.000021 0.534905
-24.524036 -98.387650 -0.000013 0.337331
-19.544907 -93.458107 -0.000008 0.338964
-16.771778 -90.712593 0.000001 0.335760
-15.001379 -88.959824 0.000009 0.337575
-13.770966 -87.741669 -0.000008 0.343801
-12.864403 -86.844131 -0.000008 0.336629
-44.397171 -117.552032 15.025048 0.659861
-44.415932 -117.570335 13.236350 0.727657
-44.320801 -117.477463 11.442102 0.725887
-44.415947 -117.570358 9.717201 0.745037
-44.415932 -117.570343 7.985009 0.749233
-44.415924 -117.570328 6.265815 0.804196
-44.415932 -117.570343 4.555830 0.743374
-44.415924 -117.570343 2.851336 0.749340
-44.415939 -117.570343 1.148664 0.766629
-36.320595 -109.666771 -0.000021 0.545098
-24.643414 -98.266205 -0.000012 0.337728
-19.630014 -93.371574 -0.000010 0.337652
-16.837742 -90.645447 0.000007 0.335210
-15.055176 -88.905106 0.000009 0.321447
-13.816292 -87.695572 -0.000009 0.345037
-12.903482 -86.804382 -0.000008 0.341497
-44.406227 -117.056824 14.940332 0.677958
-44.470474 -117.118683 13.176908 0.678431
-44.320251 -116.974052 11.378270 0.736782
-44.470474 -117.118683 9.676371 0.678431
-44.470474 -117.118683 7.953346 0.678431
-44.415932 -117.066170 6.237041 0.792798
-44.470474 -117.118683 4.542309 0.678431
-44.415939 -117.066177 2.845593 0.759182
-44.470482 -117.118683 1.153169 0.678431
-36.518433 -109.462708 -0.000021 0.539544
-24.761934 -98.143936 -0.000011 0.339437
-19.714537 -93.284470 -0.000016 0.340459
-16.903255 -90.577858 0.000009 0.332235
-15.108589 -88.850014 0.000009 0.330114
-13.861294 -87.649155 -0.000010 0.341009
-12.942284 -86.764366 -0.000008 0.337041
-44.406006 -116.559311 14.854174 0.638453
-44.470459 -116.620499 13.102548 0.678431
-44.320358 -116.477997 11.315908 0.695079
-44.470459 -116.620499 9.625303 0.678431
-44.470459 -116.620499 7.913741 0.678431
-44.415955 -116.568748 6.208856 0.793652
-44.470459 -116.620499 4.525395 0.678431
-44.415962 -116.568756 2.839968 0.733989
-44.470459 -116.620499 1.158803 0.678431
-36.714836 -109.257278 -0.000022 0.539727
-24.879599 -98.020844 -0.000010 0.339101
-19.798428 -93.196754 -0.000019 0.336339
-16.968311 -90.509827 0.000007 0.341268
-15.161627 -88.794556 0.000007 0.334142
-13.905970 -87.602432 -0.000010 0.330571
-12.980803 -86.724075 -0.000008 0.336431
-43.705620 -115.412842 14.529523 0.640940
-44.470436 -116.128876 13.029706 0.678431
-44.319870 -115.987915 11.254672 0.730800
-44.470444 -116.128876 9.575275 0.678431
-44.470436 -116.128876 7.874940 0.678431
-44.415955 -116.077866 6.181246 0.777188
-44.470444 -116.128876 4.508827 0.678431
-44.415970 -116.077881 2.834456 0.730831
-44.470444 -116.128876 1.164321 0.678431
-36.909813 -109.050476 -0.000022 0.537102
-24.996378 -97.896912 -0.000006 0.337316
-19.881702 -93.108459 -0.000021 0.339025
-17.032907 -90.441368 0.000002 0.333165
-15.214274 -88.738731 0.000005 0.333928
-13.950315 -87.555389 -0.000010 0.339223
-13.019041 -86.683510 -0.000008 0.343587
-43.836617 -115.058502 14.493118 0.650858
-44.405861 -115.584030 12.939367 0.657359
-44.405853 -115.584030 11.216091 0.661372
-44.405861 -115.584030 9.513229 0.640482
-44.405846 -115.584023 7.826819 0.637720
-44.405853 -115.584030 6.153066 0.661814
-44.405853 -115.584030 4.488277 0.645014
-44.405853 -115.584030 2.828834 0.649851
-44.405876 -115.584045 1.171166 0.665003
-37.103333 -108.842323 -0.000022 0.542214
-25.112318 -97.772186 -0.000005 0.337942
-19.964300 -93.019531 -0.000015 0.339040
-17.097008 -90.372437 -0.000001 0.338567
-15.266522 -88.682526 0.000005 0.338323
-13.994335 -87.508041 -0.000010 0.342077
-13.056993 -86.642685 -0.000007 0.335393
-44.111694 -114.838058 14.506598 0.667292
-44.406227 -115.106186 12.869683 0.634211
-44.406212 -115.106171 11.157382 0.640940
-44.406219 -115.106171 9.465366 0.657359
-44.406212 -115.106171 7.789701 0.638468
-44.406212 -115.106171 6.126613 0.639414
-44.406212 -115.106171 4.472426 0.626444
-44.406242 -115.106201 2.823554 0.639475
-44.406128 -115.106094 1.176448 0.635019
-37.295380 -108.632805 -0.000021 0.543542
-25.227375 -97.646652 -0.000003 0.337850
-20.046291 -92.930038 -0.000010 0.334249
-17.160629 -90.303062 -0.000003 0.336660
-15.318374 -88.625961 0.000006 0.344060
-14.038020 -87.460388 -0.000009 0.338949
-13.094662 -86.601593 -0.000007 0.337469
-44.387589 -114.617310 14.520781 0.636759
-44.405571 -114.633461 12.801111 0.630961
-44.405540 -114.633423 11.099608 0.640070
-44.405548 -114.633438 9.418267 0.610651
-44.405540 -114.633423 7.753174 0.652842
-44.405533 -114.633423 6.100576 0.673686
-44.405533 -114.633423 4.456827 0.631968
-44.405487 -114.633377 2.818357 0.671687
-44.405640 -114.633514 1.181640 0.649760
-37.485989 -108.421982 -0.000022 0.534493
-25.341555 -97.520325 -0.000002 0.336782
-20.127644 -92.839966 -0.000005 0.339742
-17.223778 -90.233261 -0.000008 0.331701
-15.369833 -88.569038 0.000006 0.342382
-14.081369 -87.412430 -0.000008 0.342611
-13.132042 -86.560249 -0.000007 0.337667
-44.457512 -114.213181 14.466496 0.641337
-44.457443 -114.213120 12.749062 0.621408
-44.457047 -114.212769 11.055672 0.648844
-44.453590 -114.209702 9.381762 0.637385
-44.453590 -114.209702 7.724864 0.656184
-44.453590 -114.209702 6.080400 0.629480
-44.453590 -114.209702 4.444739 0.643336
-44.453804 -114.209892 2.814335 0.621744
-44.457443 -114.213120 1.185584 0.632609
-37.675102 -108.209808 -0.000021 0.541848
-25.454855 -97.393196 -0.000001 0.339406
-20.208376 -92.749336 0.000000 0.338354
-17.286425 -90.163010 -0.000010 0.339788
-15.420893 -88.511757 0.000006 0.337530
-14.124387 -87.364166 -0.000008 0.333928
-13.169131 -86.518631 -0.000006 0.340963
-44.934929 -114.168671 14.548962 0.639170
-44.960747 -114.191208 12.827588 0.642939
-44.960732 -114.191193 11.121919 0.660578
-44.960526 -114.191010 9.436414 0.662226
-44.960480 -114.190971 7.767241 0.639200
-44.960510 -114.191002 6.110606 0.675837
-44.960510 -114.191002 4.462838 0.626642
-44.960526 -114.191010 2.820360 0.644343
-44.960617 -114.191093 1.179638 0.636698
-37.862732 -107.996323 -0.000021 0.539528
-25.567263 -97.265282 0.000000 0.336385
-20.288410 -92.658096 0.000014 0.341054
-17.348579 -90.092316 -0.000013 0.337438
-15.471550 -88.454117 0.000007 0.337804
-14.167061 -87.315605 -0.000006 0.331090
-13.205931 -86.476761 -0.000006 0.334829
-45.206299 -113.940781 14.562943 0.664927
-45.496841 -114.190804 12.915031 0.635111
-45.496880 -114.190834 11.195600 0.638498
-45.497002 -114.190933 9.496544 0.642680
-45.497025 -114.190964 7.813888 0.638987
-45.497070 -114.190994 6.143855 0.642237
-45.497070 -114.191002 4.482759 0.645869
-45.497078 -114.191010 2.826995 0.648585
-45.496964 -114.190910 1.173008 0.654368
-38.048882 -107.781540 -0.000022 0.537194
-25.678759 -97.136574 0.000004 0.337133
-20.367882 -92.566360 0.000016 0.340322
-17.410242 -90.021194 -0.000016 0.333074
-15.521805 -88.396126 0.000007 0.337392
-14.209398 -87.266747 -0.000006 0.338766
-13.242435 -86.434639 -0.000006 0.335012
-45.478493 -113.712540 14.577639 0.663661
-46.042709 -114.191254 13.004725 0.658732
-46.042709 -114.191254 11.271156 0.653819
-46.042343 -114.190941 9.558046 0.639643
-46.042366 -114.190964 7.861584 0.639948
-46.042397 -114.190987 6.177847 0.650004
-46.042404 -114.190994 4.503125 0.629557
-46.042412 -114.190994 2.833778 0.632746
-46.042595 -114.191154 1.166217 0.621042
-38.233513 -107.565460 -0.000021 0.540337
-25.789360 -97.007095 0.000005 0.338369
-20.446716 -92.474083 0.000018 0.340032
-17.471378 -89.949623 -0.000014 0.339071
-15.571651 -88.337784 0.000008 0.336538
-14.251390 -87.217598 -0.000005 0.343786
-13.278645 -86.392258 -0.000005 0.335683
-45.763489 -113.493912 14.596949 0.670115
-46.596756 -114.190964 13.096202 0.663951
-46.596779 -114.190979 11.348227 0.630625
-46.596725 -114.190933 9.620936 0.624399
-46.596756 -114.190964 7.910359 0.642283
-46.596779 -114.190979 6.212612 0.638956
-46.596779 -114.190979 4.523952 0.632380
-46.596794 -114.190994 2.840717 0.655161
-46.596794 -114.190994 1.159283 0.637430
-38.416634 -107.348099 -0.000021 0.537728
-25.899065 -96.876862 0.000006 0.335821
-20.524899 -92.381248 0.000020 0.332372
-17.532017 -89.877632 -0.000013 0.339925
-15.621078 -88.279083 0.000011 0.337362
-14.293040 -87.168152 -0.000004 0.339147
-13.314560 -86.349632 -0.000005 0.335058
-46.314247 -113.493057 14.702936 0.633005
-47.160271 -114.190796 13.189802 0.666438
-47.160286 -114.190804 11.427079 0.637797
-47.160431 -114.190933 9.685261 0.632349
-47.160469 -114.190956 7.960244 0.631830
-47.160492 -114.190979 6.248167 0.634073
-47.160500 -114.190979 4.545257 0.627787
-47.160515 -114.190994 2.847812 0.654017
-47.160324 -114.190842 1.152190 0.669627
-38.598236 -107.129471 -0.000021 0.539269
-26.007858 -96.745865 0.000007 0.337942
-20.602461 -92.287895 0.000019 0.338659
-17.592148 -89.805214 -0.000011 0.335882
-15.670107 -88.220055 0.000012 0.345098
-14.334344 -87.118416 -0.000003 0.330617
-13.350175 -86.306747 -0.000005 0.341604
-47.740974 -114.196777 15.091119 0.679728
-47.733894 -114.191025 13.285688 0.638498
-47.733910 -114.191040 11.507862 0.630900
-47.733772 -114.190918 9.751059 0.631525
-47.733818 -114.190964 8.011276 0.651621
-47.733826 -114.190964 6.284540 0.630900
-47.733826 -114.190964 4.567048 0.653910
-47.733841 -114.190979 2.855072 0.649531
-47.734009 -114.191116 1.144925 0.645914
-38.778332 -106.909592 -0.000022 0.539345
-26.115736 -96.614105 0.000009 0.339040
-20.679443 -92.194061 0.000006 0.337438
-17.651752 -89.732361 -0.000004 0.333486
-15.718719 -88.160683 0.000012 0.331289
-14.375298 -87.068398 -0.000002 0.330144
-13.385490 -86.263626 -0.000005 0.339422
-48.325432 -114.197647 15.205170 0.642496
-48.317047 -114.190918 13.383677 0.625650
-48.317047 -114.190918 11.590408 0.673060
-48.317039 -114.190910 9.818378 0.635599
-48.317093 -114.190964 8.063486 0.657526
-48.317093 -114.190964 6.321751 0.620371
-48.317108 -114.190964 4.589343 0.658305
-48.317116 -114.190979 2.862498 0.623316
-48.317131 -114.190987 1.137501 0.633021
-38.956848 -106.688431 -0.000022 0.537987
-26.222691 -96.481606 0.000010 0.340551
-20.755714 -92.099648 0.000001 0.335317
-17.710861 -89.659103 -0.000001 0.332906
-15.766917 -88.100975 0.000013 0.339376
-14.415903 -87.018089 -0.000001 0.330449
-13.420504 -86.220245 -0.000004 0.338537
-48.680122 -114.008835 15.245239 0.642832
-48.992210 -114.255432 13.506450 0.678431
-48.910545 -114.190903 11.674906 0.630701
-48.992233 -114.255447 9.902710 0.678431
-48.992226 -114.255440 8.128881 0.678431
-48.923325 -114.201004 6.361160 0.770275
-48.992233 -114.255440 4.617269 0.678431
-48.910622 -114.190964 2.870098 0.637644
-48.910553 -114.190903 1.129903 0.652811
-39.133827 -106.466034 -0.000022 0.544015
-26.328711 -96.348351 0.000011 0.337789
-20.831303 -92.004692 -0.000001 0.340932
-17.769459 -89.585442 0.000002 0.338521
-15.814703 -88.040932 0.000012 0.337774
-14.456165 -86.967514 -0.000003 0.337591
-13.455215 -86.176636 -0.000005 0.335454
-48.956879 -113.756470 15.260767 0.678264
-49.597572 -114.255478 13.609328 0.678431
-49.514656 -114.190903 11.761392 0.639368
-49.597580 -114.255493 9.973365 0.678431
-49.527649 -114.201019 8.173477 0.770565
-49.527672 -114.201035 6.400150 0.749935
-49.597580 -114.255486 4.640668 0.678431
-49.514732 -114.190964 2.877875 0.648417
-49.514610 -114.190865 1.122127 0.649638
-39.309250 -106.242409 -0.000022 0.536248
-26.433769 -96.214340 0.000015 0.338949
-20.906219 -91.909203 -0.000001 0.334264
-17.827541 -89.511368 0.000005 0.338186
-15.862067 -87.980560 0.000012 0.341833
-14.496061 -86.916641 -0.000002 0.331228
-13.489618 -86.132774 -0.000005 0.340398
-49.235016 -113.504059 15.277202 0.669810
-50.213829 -114.255493 13.714622 0.678431
-50.129692 -114.190903 11.849923 0.654749
-50.213814 -114.255478 10.045675 0.678431
-50.129700 -114.190910 8.227556 0.627649
-50.213890 -114.255539 6.447396 0.719860
-50.213814 -114.255478 4.664617 0.678431
-50.129753 -114.190948 2.885837 0.635645
-50.129776 -114.190964 1.114162 0.631617
-39.483116 -106.017578 -0.000022 0.543313
-26.537922 -96.079620 0.000016 0.338537
-20.980465 -91.813187 -0.000002 0.337194
-17.885105 -89.436890 0.000008 0.336828
-15.909011 -87.919861 0.000011 0.333989
-14.535604 -86.865501 -0.000000 0.337438
-13.523718 -86.088684 -0.000005 0.343175
-49.509583 -113.247772 15.292989 0.669505
-50.756027 -114.190910 13.799304 0.637644
-50.756020 -114.190903 11.940561 0.625559
-50.756020 -114.190903 10.103835 0.637995
-50.756012 -114.190903 8.284863 0.636332
-50.756035 -114.190918 6.479540 0.664668
-50.756020 -114.190903 4.683879 0.646418
-50.756065 -114.190933 2.893989 0.631067
-50.756073 -114.190948 1.106011 0.667903
-39.655403 -105.791534 -0.000022 0.542031
-26.641136 -95.944183 0.000018 0.338186
-21.054041 -91.716660 -0.000002 0.338811
-17.942139 -89.362015 0.000012 0.332570
-15.955544 -87.858841 0.000007 0.331640
-14.574797 -86.814087 -0.000002 0.338491
-13.557508 -86.044350 -0.000005 0.343496
-49.929771 -113.098969 15.354753 0.674632
-51.394005 -114.190903 13.909474 0.616068
-51.393997 -114.190895 12.033377 0.649149
-51.394005 -114.190903 10.179502 0.653452
-51.393997 -114.190895 8.343544 0.631968
-51.394012 -114.190903 6.521363 0.644282
-51.394012 -114.190903 4.708938 0.631571
-51.394043 -114.190933 2.902335 0.632975
-51.440269 -114.225403 1.096721 0.130083
-39.826103 -105.564285 -0.000023 0.543786
-26.743397 -95.808022 0.000019 0.336828
-21.126842 -91.619545 0.000011 0.336767
-17.998672 -89.286758 0.000013 0.333257
-16.001644 -87.797493 0.000004 0.340459
-14.613611 -86.762390 0.000002 0.340414
-13.590989 -85.999779 -0.000006 0.337285
nan nan nan 0.000000
-52.044044 -114.190903 14.022313 0.638270
-52.044044 -114.190895 12.128438 0.664988
-52.044044 -114.190895 10.257001 0.635493
-52.044037 -114.190887 8.403646 0.638605
-52.044052 -114.190903 6.564202 0.628351
-52.044060 -114.190903 4.734605 0.629892
-52.044090 -114.190933 2.910884 0.639918
-52.057777 -114.200989 1.088837 0.776471
-39.995216 -105.335861 -0.000022 0.537774
-26.746809 -95.599205 0.009982 1.000000
-21.199015 -91.521965 0.000017 0.337148
-18.054676 -89.211098 0.000013 0.337377
-16.047312 -87.735832 0.000002 0.333333
-14.652081 -86.710434 0.000001 0.337148
-13.624157 -85.954979 -0.000006 0.335485
nan nan nan 0.000000
-52.706589 -114.190918 14.137917 0.653178
-52.795799 -114.255524 12.245875 0.678431
-52.795807 -114.255524 10.352738 0.678431
-52.706566 -114.190903 8.465221 0.643687
-52.795807 -114.255531 6.617123 0.678431
-52.795807 -114.255524 4.766313 0.678431
-52.706627 -114.190941 2.919643 0.634073
-52.706635 -114.190948 1.080357 0.663279
-40.162727 -105.106247 -0.000022 0.537774
-26.846546 -95.462234 0.009994 1.000000
-21.270529 -91.423904 0.000020 0.335256
-18.110151 -89.135056 0.000013 0.336645
-16.092548 -87.673843 -0.000000 0.340932
-14.690184 -86.658203 0.000001 0.338369
-13.657011 -85.909950 -0.000006 0.343069
nan nan nan 0.000000
-53.382050 -114.190941 14.256371 0.625391
-53.472450 -114.255455 12.345837 0.678431
-53.472458 -114.255463 10.434230 0.678431
-53.382027 -114.190918 8.528316 0.637354
-53.472458 -114.255463 6.662168 0.678431
-53.472450 -114.255455 4.793300 0.678431
-53.382057 -114.190948 2.928619 0.632364
-53.382050 -114.190941 1.071382 0.639567
-40.328644 -104.875473 -0.000022 0.543374
-27.044437 -95.395302 0.000023 0.339971
-21.341366 -91.325348 0.000022 0.336904
-18.165106 -89.058640 0.000012 0.340429
-16.137363 -87.611549 -0.000005 0.341039
-14.727921 -86.605713 0.000001 0.337850
-13.689550 -85.864693 -0.000006 0.338293
nan nan nan 0.000000
-54.070847 -114.190964 14.377770 0.636027
-54.159531 -114.253326 12.447629 0.121691
-54.119965 -114.225502 10.510036 0.861341
-54.070808 -114.190941 8.592975 0.637522
-54.159546 -114.253334 6.708038 0.122148
-54.119957 -114.225494 4.818408 0.862013
-54.070808 -114.190941 2.937814 0.633066
-54.070808 -114.190941 1.062185 0.625422
-40.492928 -104.643547 -0.000022 0.538308
-27.142864 -95.256348 0.000023 0.336736
-21.411514 -91.226303 0.000023 0.339330
-18.219551 -88.981850 0.000005 0.335363
-16.181728 -87.548943 -0.000007 0.337957
-14.765289 -86.552963 0.000001 0.330632
-13.721773 -85.819206 -0.000007 0.336324
nan nan nan 0.000000
-54.773422 -114.190971 14.502202 0.658534
-54.773369 -114.190933 12.532723 0.631617
-54.773376 -114.190933 10.586584 0.651057
-54.773369 -114.190933 8.659253 0.646479
-54.773384 -114.190941 6.746386 0.640391
-54.773384 -114.190948 4.843758 0.624216
-54.773369 -114.190933 2.947241 0.620386
-54.773369 -114.190933 1.052758 0.657496
-40.655594 -104.410484 -0.000023 0.539040
-27.240364 -95.116745 0.000019 0.340383
-21.480961 -91.126770 0.000025 0.337774
-18.273436 -88.904671 0.000003 0.338216
-16.225653 -87.486023 -0.000008 0.341024
-14.802282 -86.499947 0.000003 0.340414
-13.753677 -85.773499 -0.000008 0.320256
nan nan nan 0.000000
-55.220352 -114.006729 14.559192 0.673198
-55.490250 -114.190933 12.640203 0.631418
-55.490257 -114.190933 10.674207 0.656550
-55.490257 -114.190933 8.727208 0.632273
-55.490265 -114.190941 6.794821 0.636133
-55.490265 -114.190941 4.872778 0.628153
-55.490250 -114.190933 2.956909 0.634974
-55.490242 -114.190926 1.043091 0.613443
-40.816643 -104.176292 -0.000023 0.539681
-27.336967 -94.976509 0.000007 0.338323
-21.549721 -91.026756 0.000026 0.339590
-18.326784 -88.827126 0.000000 0.338537
-16.269138 -87.422798 -0.000009 0.334157
-14.838911 -86.446671 0.000003 0.339147
-13.785263 -85.727570 -0.000008 0.337591
nan nan nan 0.000000
-55.517860 -113.717575 14.577365 0.654902
-56.221931 -114.190918 12.750428 0.628626
-55.780083 -113.893860 10.685089 0.627741
-55.780083 -113.893860 8.735645 0.629969
-55.780090 -113.893875 6.800835 0.653925
-55.780106 -113.893875 4.876381 0.621454
-55.780098 -113.893875 2.958108 0.664942
-56.221947 -114.190933 1.033178 0.627771
-40.976028 -103.940979 -0.000023 0.541482
-27.432550 -94.835587 -0.000001 0.337469
-21.617790 -90.926270 0.000026 0.340581
-18.379589 -88.749199 -0.000003 0.338140
-16.312180 -87.359268 -0.000010 0.334340
-14.875163 -86.393150 0.000004 0.332891
-13.816525 -85.681419 -0.000008 0.336583
nan nan nan 0.000000
-55.914825 -113.492844 14.621743 0.667277
-56.968964 -114.190910 12.863498 0.633951
-55.780067 -113.403595 10.644720 0.661799
-55.780075 -113.403610 8.704342 0.617395
-55.780075 -113.403610 6.778521 0.654658
-55.780090 -113.403610 4.863013 0.649622
-55.780090 -113.403618 2.953656 0.636164
-56.968979 -114.190918 1.023009 0.644007
-41.133789 -103.704559 -0.000022 0.538277
-27.527035 -94.693916 0.000002 0.337102
-21.685181 -90.825333 0.000022 0.339101
-18.431850 -88.670914 -0.000005 0.338079
-16.354776 -87.295441 -0.000012 0.333593
-14.911042 -86.339371 0.000005 0.335866
-13.847465 -85.635048 -0.000008 0.335180
nan nan nan 0.000000
-57.739609 -114.195908 15.034498 0.659815
-57.731941 -114.190910 12.979514 0.641276
-55.780060 -112.917847 10.605146 0.630426
-55.780060 -112.917847 8.673651 0.634516
-55.780075 -112.917862 6.756647 0.628672
-55.780075 -112.917862 4.849906 0.621790
-55.780090 -112.917870 2.949290 0.626169
-57.731949 -114.190918 1.012576 0.649165
-41.289871 -103.467033 -0.000022 0.539528
-27.620596 -94.551636 -0.000002 0.337667
-21.751938 -90.723969 0.000009 0.338445
-18.483564 -88.592262 -0.000008 0.336873
-16.396929 -87.231316 -0.000013 0.344320
-14.946547 -86.285347 0.000005 0.338109
-13.878080 -85.588470 -0.000009 0.337896
nan nan nan 0.000000
-58.522705 -114.198158 15.176751 0.681514
-58.511406 -114.190903 13.098577 0.654078
-55.780052 -112.436508 10.566348 0.659297
-55.780060 -112.436516 8.643562 0.622538
-55.780067 -112.436516 6.735200 0.666316
-55.780075 -112.436523 4.837059 0.645777
-55.780083 -112.436523 2.945010 0.637201
-58.565262 -114.225494 1.000821 0.162814
-41.444321 -103.228439 -0.000022 0.535653
-27.713364 -94.408836 -0.000026 0.337118
-21.817915 -90.622101 0.000005 0.337194
-18.534729 -88.513252 -0.000012 0.338476
-16.438629 -87.166901 -0.000014 0.332204
-14.981670 -86.231071 0.000006 0.336797
-13.908371 -85.541672 -0.000009 0.339162
nan nan nan 0.000000
-59.021347 -114.009583 15.245676 0.660716
-59.410034 -114.255424 13.242772 0.678431
-56.082550 -112.150795 10.581407 0.661768
-56.082558 -112.150803 8.655239 0.632105
-56.082565 -112.150803 6.743524 0.634958
-56.082573 -112.150818 4.842046 0.633555
-56.082581 -112.150818 2.946672 0.636881
-59.299126 -114.185272 0.991048 0.788571
-41.597092 -102.988777 -0.000023 0.540246
-27.804922 -94.265259 -0.000028 0.338079
-21.883175 -90.519768 0.000002 0.336599
-18.585337 -88.433891 -0.000015 0.335866
-16.479877 -87.102188 -0.000015 0.336568
-15.016417 -86.176552 0.000007 0.344091
-13.938332 -85.494667 -0.000009 0.334936
nan nan nan 0.000000
-59.326279 -113.695099 15.265352 0.652338
-60.226028 -114.255432 13.368532 0.678431
-56.950111 -112.215302 10.695494 0.678431
-56.707970 -112.064499 8.710901 0.726192
-56.950104 -112.215294 6.806587 0.678431
-56.950111 -112.215302 4.879829 0.678431
-56.862587 -112.160789 2.957571 0.756817
-60.122391 -114.190887 0.979589 0.620829
-41.748177 -102.748039 -0.000023 0.546487
-27.895445 -94.121025 -0.000027 0.338415
-21.947721 -90.416977 -0.000001 0.334630
-18.635384 -88.354172 -0.000015 0.337392
-16.520674 -87.037201 -0.000015 0.344274
-15.050782 -86.121796 0.000007 0.330190
-13.967964 -85.447456 -0.000009 0.334844
nan nan nan 0.000000
-59.629875 -113.378265 15.285163 0.667384
-60.955429 -114.190994 13.475270 0.654673
-57.732956 -112.215233 10.794276 0.678431
-57.487717 -112.064873 8.787235 0.706493
-57.732956 -112.215233 6.861188 0.678431
-57.732964 -112.215240 4.912543 0.678431
-57.644173 -112.160797 2.968449 0.774456
-60.955261 -114.190887 0.967994 0.650187
-41.897591 -102.506264 -0.000023 0.540566
-27.984949 -93.976151 -0.000026 0.337850
-22.011545 -90.313744 -0.000005 0.338781
-18.684824 -88.274071 -0.000009 0.332097
-16.561016 -86.971924 -0.000016 0.333349
-15.084765 -86.066803 0.000007 0.335088
-13.997267 -85.400040 -0.000009 0.331014
nan nan nan 0.000000
-59.999191 -113.099594 15.322029 0.667079
-61.807487 -114.191002 13.607727 0.634562
-58.533981 -112.215263 10.895793 0.678431
-58.285255 -112.065140 8.865637 0.695994
-58.533989 -112.215263 6.917305 0.678431
-58.533989 -112.215271 4.946163 0.678431
-58.443748 -112.160805 2.979629 0.776471
-61.807281 -114.190872 0.956082 0.666850
-42.045288 -102.263435 -0.000023 0.537957
-28.073317 -93.830589 -0.000014 0.339330
-22.074648 -90.210068 -0.000008 0.337682
-18.733727 -88.193642 -0.000006 0.337194
-16.600887 -86.906357 -0.000015 0.337285
-15.118363 -86.011574 0.000007 0.339788
-14.026236 -85.352417 -0.000009 0.335698
nan nan nan 0.000000
nan nan nan 0.000000
-62.787910 -114.255417 13.766800 0.678431
-47.551399 -105.203865 8.963779 0.410239
-47.371445 -105.096954 7.376619 0.558175
-47.371506 -105.096992 5.832193 0.567681
-47.371346 -105.096901 4.296020 0.574792
-47.371307 -105.096878 2.764792 0.564920
-47.371307 -105.096878 1.235208 0.565316
-42.191307 -102.019592 -0.000023 0.540230
-28.160679 -93.684425 -0.000003 0.337881
-22.137026 -90.105949 -0.000011 0.339345
-18.782066 -88.112869 -0.000003 0.335760
-16.640305 -86.840515 -0.000014 0.342855
-15.151575 -85.956108 0.000007 0.329473
-14.054869 -85.304588 -0.000009 0.340215
nan nan nan 0.000000
nan nan nan 0.000000
-63.589394 -114.201050 13.887418 0.757855
-47.544472 -104.820168 8.933994 0.342290
-47.371284 -104.718910 7.354522 0.538903
-47.371452 -104.719009 5.816453 0.595148
-47.371346 -104.718941 4.286592 0.578058
-47.371307 -104.718918 2.761652 0.575067
-47.371307 -104.718918 1.238348 0.572641
-42.335625 -101.774742 -0.000023 0.542840
-28.247133 -93.537720 -0.000002 0.337179
-22.198608 -90.001366 -0.000005 0.336355
-18.829845 -88.031769 -0.000000 0.336721
-16.679264 -86.774406 -0.000012 0.330327
-15.184397 -85.900414 0.000008 0.339666
-14.083171 -85.256561 -0.000008 0.325200
nan nan nan 0.000000
nan nan nan 0.000000
-48.522888 -105.006584 10.676597 0.331868
-47.537712 -104.439774 8.904817 0.333455
-47.371162 -104.343956 7.332869 0.552102
-47.371407 -104.344101 5.801027 0.556008
-47.371346 -104.344063 4.277351 0.576669
-47.371307 -104.344040 2.758574 0.564675
-47.371307 -104.344040 1.241426 0.565682
-42.478233 -101.528885 -0.000023 0.544350
-28.332554 -93.390404 -0.000001 0.339284
-22.259464 -89.896347 -0.000000 0.341390
-18.877056 -87.950340 0.000003 0.336019
-16.717754 -86.708015 -0.000010 0.342580
-15.216840 -85.844490 0.000005 0.338125
-14.111134 -85.208344 -0.000007 0.340826
nan nan nan 0.000000
-50.035095 -105.480072 12.633347 0.562554
-49.120972 -104.962601 10.767146 0.562615
-47.531097 -104.062614 8.876234 0.301350
-47.371063 -103.972023 7.311652 0.560998
-47.371376 -103.972198 5.785911 0.558938
-47.371346 -103.972183 4.268295 0.568200
-47.371307 -103.972160 2.755557 0.554101
-47.371307 -103.972160 1.244442 0.570169
-42.619087 -101.282028 -0.000023 0.538613
-28.416960 -93.242508 -0.000000 0.338598
-22.319614 -89.790932 0.000000 0.338872
-18.923698 -87.868576 0.000005 0.338582
-16.755783 -86.641365 -0.000009 0.338216
-15.248893 -85.788353 0.000003 0.338552
-14.138762 -85.159927 -0.000006 0.336233
nan nan nan 0.000000
-50.203346 -105.180359 12.633342 0.545342
-49.812325 -104.962593 10.876836 0.544503
-47.524673 -103.688614 8.848243 0.275074
-47.370995 -103.603027 7.290861 0.563210
-47.371346 -103.603226 5.771096 0.538537
-47.371338 -103.603218 4.259422 0.560937
-47.371315 -103.603210 2.752603 0.552682
-47.371315 -103.603210 1.247398 0.571420
-42.758240 -101.034203 -0.000023 0.541802
-28.500450 -93.094093 -0.000012 0.336141
-22.379036 -89.685104 0.000001 0.337407
-18.969770 -87.786499 0.000007 0.338201
-16.793343 -86.574455 -0.000007 0.337652
-15.280553 -85.731987 0.000001 0.333761
-14.166050 -85.111320 -0.000006 0.338277
nan nan nan 0.000000
-50.369522 -104.879486 12.633339 0.573144
-50.521248 -104.962601 10.989750 0.558022
-47.518394 -103.317680 8.820826 0.343038
-47.370941 -103.236908 7.270493 0.579202
-47.371323 -103.237122 5.756581 0.557702
-47.371338 -103.237122 4.250726 0.559442
-47.371323 -103.237114 2.749705 0.555657
-47.371315 -103.237114 1.250294 0.565164
-42.895660 -100.785416 -0.000023 0.545129
-28.582918 -92.945114 -0.000025 0.337896
-22.437704 -89.578857 0.000002 0.336049
-19.015274 -87.704102 0.000008 0.337896
-16.830433 -86.507278 -0.000005 0.341360
-15.311818 -85.675400 -0.000001 0.340215
