# This PCD file was generated using the MATLABÂ® pcwrite function
# from Computer Vision ToolboxÂ®.
# .PCD v.7 - Point Cloud Data file format
VERSION .7
FIELDS x y z intensity
SIZE 4 4 4 4
TYPE F F F F
COUNT 1 1 1 1
WIDTH 1198
HEIGHT 1
VIEWPOINT 0 0 0 1 0 0 0
POINTS 1198
DATA ascii
-34.997177 -68.810806 0.000011 0.339498
-36.167603 -71.009842 -0.000011 0.333013
-36.981186 -72.538437 0.000011 0.347448
-37.580544 -73.664528 0.000003 0.337942
nan nan nan 0.000000
nan nan nan 0.000000
nan nan nan 0.000000
-11.599640 -25.778835 11.265656 0.503334
-11.910479 -26.353153 9.110777 0.507790
-11.954256 -26.434032 7.060667 0.524956
-11.752460 -26.061195 5.052886 0.532280
-11.446264 -25.495453 3.027428 0.513008
nan nan nan 0.000000
-21.954340 -44.910374 0.000045 0.337697
-29.721752 -59.261581 0.000000 0.339681
-33.056782 -65.423447 0.000002 0.338598
-34.914242 -68.855324 0.000011 0.338903
-36.099995 -71.046143 -0.000010 0.334615
-36.924225 -72.569008 0.000011 0.333928
-37.531425 -73.690880 0.000002 0.346563
nan nan nan 0.000000
nan nan nan 0.000000
nan nan nan 0.000000
-11.388252 -26.299206 11.212923 0.521935
-11.768419 -26.990047 9.054293 0.517571
-11.335167 -26.202747 7.101634 0.515862
-12.001940 -27.414402 4.988660 0.517510
-11.159615 -25.883736 3.024097 0.516045
nan nan nan 0.000000
-21.704884 -45.046558 0.000047 0.338430
-29.572273 -59.343155 0.000000 0.335805
-32.950237 -65.481575 0.000000 0.337667
-34.831608 -68.900398 0.000008 0.343832
-36.032639 -71.082909 -0.000008 0.341222
-36.867481 -72.599976 0.000011 0.342718
-37.482498 -73.717583 0.000002 0.337484
nan nan nan 0.000000
nan nan nan 0.000000
nan nan nan 0.000000
-11.070448 -26.619228 11.194287 0.506340
-11.404011 -27.215481 9.051954 0.503670
-11.201063 -26.852703 7.060366 0.514046
-10.938717 -26.383751 5.058277 0.513359
nan nan nan 0.000000
nan nan nan 0.000000
-21.617311 -45.472141 0.016242 0.730846
-29.423393 -59.425804 0.000003 0.338018
-32.844101 -65.540451 -0.000002 0.336309
-34.749290 -68.946045 0.000004 0.337041
-35.965542 -71.120140 -0.000007 0.338033
-36.810951 -72.631340 0.000011 0.335195
-37.433754 -73.744629 0.000002 0.331060
nan nan nan 0.000000
nan nan nan 0.000000
-10.292517 -26.126560 13.425782 0.506035
-10.753872 -26.937908 11.176182 0.515145
-10.822618 -27.058807 9.100513 0.510475
-10.474331 -26.446304 7.118665 0.517327
-11.161764 -27.655228 4.998487 0.513024
-10.388184 -26.294804 3.024392 0.572869
-10.309963 -26.157242 0.973020 0.573327
-21.617310 -46.042450 0.040645 0.666758
-29.274971 -59.509281 -0.000014 0.338109
-32.738411 -65.600121 0.000004 0.338033
-34.667290 -68.992264 0.000001 0.340902
-35.898712 -71.157852 -0.000004 0.315587
-36.754642 -72.663101 0.000011 0.339010
-37.385204 -73.772011 0.000001 0.340307
-46.518501 -89.687515 4.596449 0.654093
-46.518501 -89.687515 4.238757 0.703655
-46.518501 -89.687515 3.886086 0.683421
-46.518501 -89.687515 3.537593 0.706676
-46.518501 -89.687515 3.192467 0.647166
-46.518501 -89.687515 2.849931 0.656977
-46.518501 -89.687515 2.509230 0.717800
-46.518501 -89.687515 2.169622 0.682185
-46.518501 -89.687515 1.830378 0.697002
-46.518501 -89.687515 1.490770 0.647288
-46.518501 -89.687515 1.150068 0.653086
-46.518501 -89.687523 0.807532 0.719676
-46.518501 -89.687515 0.462407 0.685863
-46.518501 -89.687515 0.113914 0.691539
-45.965366 -88.730385 0.000002 0.520195
-45.327057 -87.625862 0.000002 0.548592
-46.518501 -89.544617 4.565521 0.658976
-46.518501 -89.544617 4.212089 0.611505
-46.518501 -89.544617 3.863619 0.622980
-46.518501 -89.544617 3.519277 0.698085
-46.518501 -89.544617 3.178262 0.599390
-46.518501 -89.544617 2.839807 0.639841
-46.518501 -89.544617 2.503164 0.629221
-46.518501 -89.544617 2.167601 0.618585
-46.518501 -89.544617 1.832399 0.688182
-46.518501 -89.544617 1.496836 0.596994
-46.518501 -89.544617 1.160193 0.622522
-46.518501 -89.544617 0.821738 0.615457
-46.518501 -89.544617 0.480723 0.627878
-46.518501 -89.544617 0.136381 0.687129
-46.021225 -88.697838 0.000002 0.564691
-45.375221 -87.597801 0.000002 0.557443
-46.518501 -89.405067 4.535441 0.677821
-46.518501 -89.405067 4.186153 0.642878
-46.518501 -89.405067 3.841769 0.623987
-46.518501 -89.405067 3.501464 0.673594
-46.518501 -89.405067 3.164448 0.697307
-46.518501 -89.405067 2.829961 0.650385
-46.518501 -89.405067 2.497264 0.648081
-46.518501 -89.405067 2.165636 0.634852
-46.518501 -89.405067 1.834364 0.662577
-46.518501 -89.405067 1.502736 0.635386
-46.518501 -89.405067 1.170039 0.681498
-46.518501 -89.405075 0.835552 0.701839
-46.518501 -89.405067 0.498536 0.691218
-46.518501 -89.405075 0.158230 0.648081
-46.076859 -88.664909 0.000002 0.556863
-45.423187 -87.569405 0.000002 0.538094
-46.570126 -89.353920 4.531126 0.671717
-46.570126 -89.353912 4.182432 0.624613
-46.539856 -89.303986 3.828009 0.691081
-46.539860 -89.303986 3.490247 0.695827
-46.570126 -89.353912 3.162466 0.696788
-46.570126 -89.353912 2.828547 0.700755
-46.570126 -89.353912 2.496418 0.715938
-46.570126 -89.353912 2.165354 0.709804
-46.570126 -89.353912 1.834646 0.683391
-46.570126 -89.353912 1.503582 0.729809
-46.570126 -89.353912 1.171452 0.725765
-46.570126 -89.353912 0.837534 0.582986
-46.570126 -89.353912 0.501092 0.621363
-46.570126 -89.353912 0.161366 0.617761
-46.132256 -88.631592 0.000002 0.528099
-45.470955 -87.540680 0.000002 0.536370
-46.652973 -89.353920 4.541945 0.604334
-46.652973 -89.353912 4.191761 0.652689
-46.622223 -89.303986 3.835824 0.689479
-46.622227 -89.303986 3.496617 0.722560
-46.652973 -89.353912 3.167435 0.720668
-46.652973 -89.353920 2.832090 0.695232
-46.652973 -89.353920 2.498540 0.694408
-46.652973 -89.353920 2.166061 0.732113
-46.652973 -89.353912 1.833939 0.721477
-46.652973 -89.353912 1.501460 0.721080
-46.652973 -89.353920 1.167910 0.698924
-46.652973 -89.353912 0.832565 0.614145
-46.652973 -89.353912 0.494684 0.633417
-46.652969 -89.353912 0.153507 0.597604
-46.187424 -88.597885 0.000002 0.553140
-45.518524 -87.511620 0.000002 0.539269
-46.736534 -89.353912 4.552982 0.701442
-46.736534 -89.353920 4.201278 0.630930
-46.705303 -89.303986 3.843794 0.694682
-46.705303 -89.303986 3.503116 0.687602
-46.736534 -89.353920 3.172504 0.715587
-46.736534 -89.353920 2.835702 0.690593
-46.736534 -89.353920 2.500705 0.706157
-46.736534 -89.353920 2.166782 0.700618
-46.736534 -89.353920 1.833218 0.703822
-46.736534 -89.353920 1.499295 0.700267
-46.736534 -89.353920 1.164297 0.695491
-46.736534 -89.353920 0.827496 0.619791
-46.736534 -89.353920 0.488148 0.608789
-46.736534 -89.353912 0.145489 0.613687
-46.242352 -88.563797 0.000002 0.498451
-45.565884 -87.482224 0.000002 0.554070
-46.820827 -89.353912 4.564240 0.674586
-46.820827 -89.353912 4.210986 0.610803
-46.789112 -89.303986 3.851926 0.688197
-46.789112 -89.303986 3.509745 0.690318
-46.761742 -89.260895 3.164998 0.711818
-46.761742 -89.260895 2.830352 0.690196
-46.761742 -89.260895 2.497499 0.693141
-46.761742 -89.260895 2.165714 0.693568
-46.761742 -89.260895 1.834285 0.704387
-46.761742 -89.260895 1.502501 0.703273
-46.761742 -89.260895 1.169648 0.714076
-46.751663 -89.245033 0.837165 0.618738
-46.820831 -89.353920 0.481480 0.625711
-46.820831 -89.353920 0.137310 0.605966
-46.297043 -88.529320 0.000002 0.546181
-45.613041 -87.452499 0.000002 0.560540
-46.905872 -89.353912 4.575726 0.615305
-46.905872 -89.353912 4.220888 0.659297
-46.873665 -89.303986 3.860221 0.687480
-46.873669 -89.303986 3.516507 0.687114
-46.873669 -89.303986 3.176114 0.698100
-46.873669 -89.303986 2.838276 0.694057
-46.873669 -89.303986 2.502246 0.710903
-46.873669 -89.303986 2.167296 0.686732
-46.873669 -89.303986 1.832704 0.706203
-46.873669 -89.303986 1.497754 0.696849
-46.873669 -89.303986 1.161724 0.712734
-46.790413 -89.174919 0.841555 0.602106
-46.905876 -89.353920 0.474679 0.619745
-46.905876 -89.353920 0.128966 0.641443
-46.351490 -88.494469 0.000001 0.557412
-45.659988 -87.422447 0.000002 0.516884
-46.970802 -89.322029 4.577892 0.728725
-46.991688 -89.353912 4.230989 0.688060
-46.958988 -89.303986 3.868682 0.703243
-46.958988 -89.303986 3.523404 0.701350
-46.958984 -89.303986 3.181463 0.705348
-46.958984 -89.303986 2.842088 0.736126
-46.958988 -89.303986 2.504530 0.722347
-46.958988 -89.303986 2.168057 0.683650
-46.958988 -89.303986 1.831943 0.701518
-46.958988 -89.303986 1.495469 0.723445
-46.958984 -89.303986 1.157911 0.700893
-46.874451 -89.174919 0.836286 0.636515
-46.991692 -89.353920 0.467741 0.640970
-46.991695 -89.353920 0.120456 0.584054
-46.405697 -88.459236 0.000001 0.533440
-45.706726 -87.392067 0.000001 0.582559
-47.049740 -89.310974 4.586473 0.736156
-47.078293 -89.353912 4.241292 0.632776
-47.045090 -89.303986 3.877311 0.695338
-47.045090 -89.303986 3.530439 0.697887
-47.144794 -89.453918 3.207633 0.741176
-47.144794 -89.453918 2.860741 0.741176
-47.078297 -89.353920 2.509806 0.106935
-47.144794 -89.453918 2.171779 0.741176
-47.144794 -89.453918 1.828221 0.741176
-47.144791 -89.453918 1.484294 0.741176
-47.144794 -89.453918 1.139259 0.741176
-46.959263 -89.174919 0.830912 0.624949
-47.078297 -89.353920 0.460665 0.625360
-47.078297 -89.353920 0.111776 0.614878
-46.459652 -88.423630 0.000002 0.536202
-45.753246 -87.361366 0.000002 0.560372
-47.304558 -89.559586 4.673738 0.741176
-47.165703 -89.353912 4.251801 0.600366
-47.131996 -89.303986 3.886114 0.663462
-47.131996 -89.303986 3.537616 0.594446
-47.233219 -89.453918 3.213296 0.741176
-47.233215 -89.453918 2.864777 0.741176
-47.165707 -89.353920 2.512197 0.108980
-47.233215 -89.453918 2.172585 0.741176
-47.233215 -89.453918 1.827415 0.741176
-47.233215 -89.453918 1.481876 0.741176
-47.233215 -89.453918 1.135223 0.741176
-47.044861 -89.174919 0.825430 0.614481
-47.165710 -89.353920 0.453447 0.614298
-47.165710 -89.353920 0.102923 0.626078
-46.513359 -88.387642 0.000002 0.549844
-45.799557 -87.330338 0.000002 0.581399
-47.394897 -89.559586 4.686465 0.741176
-47.253944 -89.353912 4.262520 0.653407
-47.219727 -89.303986 3.895092 0.702113
-47.219727 -89.303986 3.544934 0.696986
-47.322479 -89.453918 3.219071 0.741176
-47.322475 -89.453918 2.868893 0.741176
-47.253948 -89.353920 2.514635 0.112932
-47.322475 -89.453918 2.173406 0.741176
-47.322475 -89.453918 1.826594 0.741176
-47.322475 -89.453911 1.479410 0.741176
-47.322475 -89.453918 1.131107 0.741176
-47.131275 -89.174919 0.819839 0.640024
-47.253948 -89.353920 0.446086 0.615671
-47.253948 -89.353920 0.093892 0.609644
-46.566811 -88.351280 0.000001 0.494301
-45.845646 -87.298988 0.000002 0.522927
-47.486107 -89.559586 4.699447 0.741176
-47.343029 -89.353912 4.273452 0.662165
-47.308296 -89.303986 3.904249 0.691630
-47.308300 -89.303986 3.552400 0.688563
-47.412594 -89.453918 3.224961 0.741176
-47.412594 -89.453918 2.873091 0.741176
-47.343033 -89.353920 2.517122 0.107866
-47.412598 -89.453918 2.174244 0.741176
-47.412598 -89.453918 1.825756 0.741176
-47.412594 -89.453918 1.476894 0.741176
-47.412594 -89.453918 1.126908 0.741176
-47.218513 -89.174919 0.814137 0.631434
-47.343037 -89.353920 0.438577 0.625025
-47.343037 -89.353920 0.084682 0.626062
-46.620010 -88.314552 0.000001 0.588144
-45.891518 -87.267319 0.000002 0.524788
-47.578201 -89.559586 4.712687 0.741176
-47.432987 -89.353912 4.284603 0.674769
-47.397736 -89.303986 3.913589 0.718654
-47.397736 -89.303986 3.560013 0.693767
-47.503593 -89.453918 3.230970 0.741176
-47.503593 -89.453918 2.877374 0.741176
-47.432991 -89.353920 2.519658 0.120836
-47.503593 -89.453918 2.175099 0.741176
-47.503593 -89.453918 1.824901 0.741176
-47.503593 -89.453918 1.474328 0.741176
-47.503593 -89.453918 1.122626 0.741176
-47.306610 -89.174919 0.808320 0.590738
-47.432995 -89.353920 0.430919 0.635248
-47.432995 -89.353920 0.075288 0.627939
-46.672951 -88.277451 0.000001 0.530175
-45.937164 -87.235321 0.000002 0.522469
-47.671215 -89.559586 4.726190 0.741176
-47.523834 -89.353912 4.295976 0.673045
-47.488060 -89.303986 3.923115 0.712108
-47.488060 -89.303986 3.567780 0.696941
-47.595493 -89.453918 3.237097 0.741176
-47.595493 -89.453918 2.881742 0.741176
-47.523842 -89.353920 2.522245 0.116518
-47.595493 -89.453911 2.175970 0.741176
-47.595493 -89.453911 1.824030 0.741176
-47.595493 -89.453918 1.471711 0.741176
-47.595493 -89.453918 1.118258 0.741176
-47.395576 -89.174919 0.802388 0.624628
-47.523842 -89.353920 0.423107 0.617441
-47.523842 -89.353928 0.065706 0.657725
-46.725632 -88.239975 0.000001 0.537469
-45.982586 -87.203018 0.000002 0.519951
-47.765160 -89.559586 4.739964 0.741176
-47.615597 -89.353912 4.307575 0.647517
-47.579288 -89.303986 3.932830 0.732784
-47.579288 -89.303986 3.575701 0.690684
-47.688316 -89.453918 3.243348 0.741176
-47.688316 -89.453918 2.886196 0.741176
-47.615601 -89.353920 2.524884 0.122988
-47.688316 -89.453918 2.176859 0.741176
-47.688316 -89.453918 1.823141 0.741176
-47.688316 -89.453918 1.469043 0.741176
-47.688316 -89.453918 1.113803 0.741176
-47.485435 -89.174919 0.796337 0.612741
-47.615604 -89.353920 0.415141 0.619547
-47.615604 -89.353920 0.055934 0.517235
-46.778049 -88.202141 0.000001 0.475593
-46.027782 -87.170387 0.000002 0.529534
-47.860065 -89.559586 4.754012 0.741176
-47.708294 -89.353912 4.319407 0.624079
-47.708298 -89.353912 3.954032 0.592599
-47.671455 -89.303986 3.583779 0.694911
-47.782089 -89.453911 3.249722 0.741176
-47.782089 -89.453918 2.890740 0.741176
-47.708302 -89.353920 2.527575 0.102190
-47.782089 -89.453911 2.177766 0.741176
-47.782089 -89.453918 1.822234 0.741176
-47.782089 -89.453918 1.466320 0.741176
-47.782089 -89.453918 1.109260 0.741176
-47.576214 -89.174919 0.790166 0.599664
-47.708305 -89.353920 0.407015 0.633494
-47.708305 -89.353920 0.045967 0.497368
-46.830204 -88.163933 0.000001 0.554940
-46.072750 -87.137451 0.000001 0.498695
-47.955952 -89.559586 4.768341 0.741176
-47.801956 -89.353912 4.331474 0.655909
-47.801956 -89.353912 3.964198 0.660533
-47.764572 -89.303986 3.592019 0.699336
-47.876831 -89.453911 3.256224 0.741176
-47.876831 -89.453911 2.895374 0.741176
-47.801960 -89.353920 2.530320 0.141817
-47.876831 -89.453911 2.178691 0.741176
-47.876831 -89.453918 1.821309 0.741176
-47.876831 -89.453911 1.463543 0.741176
-47.876831 -89.453911 1.104625 0.741176
-47.667934 -89.174919 0.783871 0.632883
-47.801960 -89.353920 0.398727 0.616419
-47.801960 -89.353928 0.035800 0.648066
-46.882088 -88.125374 0.000001 0.596323
-46.117489 -87.104195 0.000001 0.528817
-47.995876 -89.484589 4.759364 0.079683
-47.896595 -89.353912 4.343782 0.642191
-47.896599 -89.353912 3.974568 0.647684
-47.858665 -89.303986 3.600424 0.701366
-47.972565 -89.453911 3.262856 0.741176
-47.972569 -89.453911 2.900101 0.741176
-47.896603 -89.353920 2.533119 0.137194
-47.972569 -89.453911 2.179635 0.741176
-47.972569 -89.453911 1.820366 0.741176
-47.972569 -89.453911 1.460711 0.741176
-47.972569 -89.453911 1.099898 0.741176
-47.760616 -89.174919 0.777451 0.643915
-47.896603 -89.353920 0.390273 0.599695
-47.896606 -89.353920 0.025430 0.616342
-46.933701 -88.086441 0.000001 0.561654
-46.161991 -87.070633 0.000001 0.579507
-48.150776 -89.559586 4.797862 0.741176
-47.992249 -89.353912 4.356337 0.640543
-47.992252 -89.353912 3.985145 0.699916
-47.953766 -89.303986 3.608997 0.705669
-48.009407 -89.376167 3.258329 0.123247
-48.009403 -89.376167 2.896874 0.113344
-47.992256 -89.353920 2.535975 0.128222
-48.009407 -89.376167 2.178991 0.107210
-48.009407 -89.376167 1.821010 0.107607
-48.009407 -89.376167 1.462645 0.113695
-48.009403 -89.376167 1.103126 0.117281
-47.854286 -89.174919 0.770902 0.602457
-47.992256 -89.353920 0.381650 0.634104
-47.992256 -89.353928 0.014853 0.606287
-46.985043 -88.047157 0.000002 0.581979
-46.206261 -87.036758 0.000001 0.568658
-48.249763 -89.559586 4.813067 0.741176
-48.088936 -89.353912 4.369143 0.647654
-48.088936 -89.353912 3.995933 0.684703
-48.049896 -89.303986 3.617742 0.697261
-48.088940 -89.353912 3.261917 0.106203
-48.088940 -89.353912 2.899432 0.107286
-48.088943 -89.353920 2.538888 0.084276
-48.088940 -89.353912 2.179501 0.106569
-48.088940 -89.353912 1.820499 0.108248
-48.088940 -89.353912 1.461112 0.114412
-48.088940 -89.353912 1.100568 0.108568
-47.948967 -89.174919 0.764223 0.642527
-48.088943 -89.353928 0.372855 0.641138
-48.088943 -89.353928 0.004064 0.599069
-47.036106 -88.007507 0.000001 0.555795
-46.250290 -87.002579 0.000001 0.532082
-48.349842 -89.559586 4.828578 0.741176
-48.186684 -89.353912 4.382206 0.602869
-48.186687 -89.353912 4.006938 0.691112
-48.147079 -89.303986 3.626661 0.690150
-48.266014 -89.453918 3.283559 0.741176
-48.266014 -89.453918 2.914857 0.741176
-48.186691 -89.353920 2.541859 0.108888
-48.266014 -89.453918 2.182580 0.741176
-48.266014 -89.453918 1.817421 0.741176
-48.266014 -89.453918 1.451870 0.741176
-48.266014 -89.453918 1.085142 0.741176
-48.045677 -89.176155 0.757227 0.623117
-48.186695 -89.353920 0.363884 0.624399
-48.162987 -89.324036 0.000001 0.506493
-47.086895 -87.967514 0.000001 0.560311
-46.294079 -86.968086 0.000001 0.534874
-48.451027 -89.559586 4.844399 0.741176
-48.285522 -89.353912 4.395531 0.653773
-48.285522 -89.353912 4.018164 0.705440
-48.245342 -89.303986 3.635759 0.695506
-48.365993 -89.453911 3.290739 0.741176
-48.365993 -89.453911 2.919975 0.741176
-48.285530 -89.353920 2.544890 0.104234
-48.365993 -89.453911 2.183600 0.741176
-48.365993 -89.453911 1.816399 0.741176
-48.365993 -89.453911 1.448804 0.741176
-48.365993 -89.453911 1.080025 0.741176
-48.149044 -89.184311 0.749071 0.629709
-48.285530 -89.353920 0.354732 0.623362
-48.222939 -89.276138 0.000001 0.550546
-47.137402 -87.927155 0.000001 0.509041
-46.337631 -86.933289 0.000001 0.559716
-48.553360 -89.559586 4.860539 0.741176
-48.385475 -89.353912 4.409123 0.641123
-48.385479 -89.353912 4.029615 0.676600
-48.344723 -89.303986 3.645041 0.687938
-48.467106 -89.453911 3.298063 0.741176
-48.467106 -89.453911 2.925195 0.741176
-48.385483 -89.353920 2.547982 0.116930
-48.467106 -89.453911 2.184642 0.741176
-48.467106 -89.453911 1.815358 0.741176
-48.467106 -89.453911 1.445677 0.741176
-48.467106 -89.453911 1.074805 0.741176
-48.385487 -89.353920 0.716786 0.604242
-48.385487 -89.353920 0.345396 0.622232
-48.282551 -89.227821 0.000001 0.545052
-47.187626 -87.886452 0.000001 0.532036
-46.380936 -86.898193 0.000001 0.561654
-48.656868 -89.559586 4.877004 0.741176
-48.486576 -89.353912 4.422990 0.689250
-48.486576 -89.353912 4.041298 0.678431
-48.445236 -89.303986 3.654510 0.691341
-48.569374 -89.453911 3.305534 0.741176
-48.569374 -89.453911 2.930520 0.741176
-48.486584 -89.353920 2.551136 0.117296
-48.569374 -89.453911 2.185705 0.741176
-48.569374 -89.453911 1.814295 0.741176
-48.569374 -89.453911 1.442486 0.741176
-48.569374 -89.453911 1.069480 0.741176
-48.486584 -89.353920 0.709400 0.609430
-48.486584 -89.353920 0.335873 0.628489
-48.341827 -89.179092 0.000001 0.553033
-47.237564 -87.845398 0.000001 0.512596
-46.423996 -86.862793 0.000001 0.546151
-48.761578 -89.559586 4.893801 0.741176
-48.588848 -89.353912 4.437136 0.651423
-48.588852 -89.353912 4.053216 0.664302
-48.546921 -89.303986 3.664170 0.695613
-48.672832 -89.453911 3.313157 0.741176
-48.672832 -89.453911 2.935953 0.741176
-48.588860 -89.353920 2.554354 0.112276
-48.672832 -89.453911 2.186789 0.741176
-48.672832 -89.453911 1.813211 0.741176
-48.672832 -89.453911 1.439231 0.741176
-48.672832 -89.453911 1.064047 0.741176
-48.588860 -89.353920 0.701865 0.613993
-48.588860 -89.353920 0.326156 0.624720
-48.400764 -89.129944 0.000001 0.548608
-47.287216 -87.803993 0.000001 0.583337
-46.466805 -86.827095 0.000001 0.559396
-48.856190 -89.546280 4.906560 0.742901
-48.667168 -89.324371 4.443188 0.629267
-48.692337 -89.353912 4.065375 0.651286
-48.649807 -89.303986 3.674026 0.689250
-48.777515 -89.453911 3.320934 0.741176
-48.777512 -89.453911 2.941495 0.741176
-48.692341 -89.353920 2.557637 0.114061
-48.777512 -89.453911 2.187896 0.741176
-48.777512 -89.453911 1.812104 0.741176
-48.777512 -89.453911 1.435910 0.741176
-48.777512 -89.453911 1.058504 0.741176
-48.692345 -89.353920 0.694177 0.607446
-48.692341 -89.353920 0.316244 0.634485
-48.459354 -89.080391 0.000000 0.555032
-47.336575 -87.762245 0.000001 0.589227
-46.509365 -86.791100 0.000001 0.547402
-48.888344 -89.459579 4.895322 0.762844
-48.727119 -89.272964 4.443191 0.617212
-48.797054 -89.353912 4.077782 0.672923
-48.753922 -89.303986 3.684081 0.711391
-48.883446 -89.453911 3.328868 0.719234
-48.883442 -89.453911 2.947151 0.741176
-48.797058 -89.353920 2.560986 0.119966
-48.883442 -89.453911 2.189024 0.741176
-48.883442 -89.453911 1.810976 0.741176
-48.883442 -89.453911 1.432522 0.741176
-48.883442 -89.453911 1.052849 0.741176
-48.797062 -89.353920 0.686333 0.639109
-48.797062 -89.353920 0.306130 0.598093
-48.517597 -89.030434 0.000000 0.535393
-47.385643 -87.720154 0.000001 0.581933
-46.551674 -86.754807 0.000001 0.539361
-48.901192 -89.351799 4.877066 0.762921
-48.796486 -89.232292 4.446398 0.637507
-48.903046 -89.353912 4.090441 0.678431
-48.859299 -89.303986 3.694342 0.710552
-48.990662 -89.453911 3.336964 0.800809
-48.990662 -89.453911 2.952921 0.741176
-48.903049 -89.353920 2.564404 0.124910
-48.990662 -89.453911 2.190176 0.741176
-48.990662 -89.453911 1.809824 0.741176
-48.990662 -89.453911 1.429065 0.741176
-48.990662 -89.453911 1.047078 0.741176
-48.903053 -89.353920 0.678330 0.619028
-48.903053 -89.353920 0.295810 0.602426
-48.575489 -88.980064 0.000000 0.550622
-47.434418 -87.677719 0.000001 0.567315
-46.593727 -86.718216 0.000001 0.568399
-48.972187 -89.310974 4.881165 0.754208
-48.896545 -89.225845 4.459653 0.617853
-49.010342 -89.353912 4.103357 0.686671
-48.965973 -89.303986 3.704810 0.698543
-49.057098 -89.406532 3.337934 0.096849
-49.057098 -89.406532 2.953613 0.118654
-49.010349 -89.353920 2.567892 0.129412
-49.057098 -89.406532 2.190314 0.116884
-49.057098 -89.406532 1.809686 0.125109
-49.057102 -89.406540 1.428650 0.118379
-49.057098 -89.406532 1.046387 0.108019
-49.010349 -89.353920 0.670163 0.586831
-49.010349 -89.353920 0.285280 0.633921
-48.633030 -88.929291 0.000000 0.533196
-47.482891 -87.634949 0.000001 0.545495
-46.635525 -86.681343 0.000001 0.561059
-49.118977 -89.353912 4.913699 0.664958
-49.003571 -89.225845 4.475067 0.598505
-49.118977 -89.353912 4.116539 0.709895
-49.073982 -89.303986 3.715494 0.683986
-49.102303 -89.335411 3.335304 0.697520
-49.102303 -89.335411 2.951738 0.734524
-49.102303 -89.335411 2.570227 0.725994
-49.102303 -89.335411 2.189940 0.717403
-49.102303 -89.335411 1.810060 0.737789
-49.102303 -89.335411 1.429773 0.725948
-49.102303 -89.335411 1.048261 0.726848
-49.118980 -89.353920 0.661829 0.608515
-49.118984 -89.353920 0.274534 0.586038
-48.690212 -88.878120 0.000001 0.507942
-47.531067 -87.591843 0.000001 0.547814
-46.677063 -86.644165 0.000001 0.561761
-49.228992 -89.353920 4.932219 0.634455
-49.228989 -89.353920 4.528269 0.678157
-49.228989 -89.353920 4.129992 0.669123
-49.180138 -89.300461 3.725690 0.681575
-49.183361 -89.303986 3.338894 0.698039
-49.183361 -89.303986 2.954297 0.693660
-49.183361 -89.303986 2.571759 0.694514
-49.183361 -89.303986 2.190450 0.698039
-49.183361 -89.303986 1.809550 0.717098
-49.183361 -89.303986 1.428240 0.736461
-49.183361 -89.303986 1.045703 0.698039
-49.228992 -89.353920 0.653324 0.633814
-49.228992 -89.353920 0.263568 0.643702
-48.747036 -88.826553 0.000000 0.517876
-47.578941 -87.548393 0.000001 0.520500
-46.718342 -86.606705 0.000001 0.545998
-49.340416 -89.353920 4.951120 0.706615
-49.340416 -89.353920 4.544567 0.621073
-49.340416 -89.353920 4.143722 0.752987
-49.292347 -89.302055 3.737135 0.674540
-49.294136 -89.303986 3.347523 0.687312
-49.294132 -89.303978 2.960447 0.714565
-49.294132 -89.303978 2.575444 0.716976
-49.294132 -89.303978 2.191678 0.693874
-49.294132 -89.303978 1.808322 0.694942
-49.294132 -89.303978 1.424555 0.713893
-49.294132 -89.303978 1.039553 0.712902
-49.340412 -89.353912 0.644645 0.617761
-49.340412 -89.353912 0.252376 0.635828
-48.803497 -88.774590 0.000001 0.521660
-47.626511 -87.504616 0.000001 0.526970
-46.759357 -86.568962 0.000001 0.515312
-49.453293 -89.353920 4.970412 0.687984
-49.453293 -89.353920 4.561201 0.660838
-49.453293 -89.353920 4.157736 0.627329
-49.356888 -89.251343 3.738168 0.691142
-49.343811 -89.237434 3.345825 0.695277
-49.343811 -89.237427 2.959238 0.718898
-49.343811 -89.237434 2.574719 0.719829
-49.343811 -89.237434 2.191437 0.717937
-49.343811 -89.237434 1.808564 0.714702
-49.343811 -89.237434 1.425280 0.706401
-49.343811 -89.237427 1.040762 0.688319
-49.453285 -89.353912 0.635786 0.645884
-49.453285 -89.353912 0.240952 0.624720
-48.859600 -88.722229 0.000000 0.548577
-47.673771 -87.460510 0.000001 0.549325
-46.800106 -86.530930 0.000001 0.536736
-49.526730 -89.310974 4.975244 0.759014
-49.526726 -89.310974 4.565367 0.727062
-49.567661 -89.353920 4.172041 0.662028
-49.460781 -89.241783 3.747732 0.675166
-49.520073 -89.303993 3.365325 0.694331
-49.520069 -89.303986 2.973135 0.720470
-49.520069 -89.303993 2.583046 0.721263
-49.520069 -89.303986 2.194210 0.730800
-49.520069 -89.303986 1.805790 0.694850
-49.520069 -89.303986 1.416953 0.726711
-49.520069 -89.303986 1.026864 0.711589
-49.567646 -89.353905 0.626742 0.620661
-49.567646 -89.353912 0.229292 0.625208
-48.915329 -88.669479 0.000000 0.529946
-47.720726 -87.416069 0.000000 0.520592
-46.840591 -86.492607 0.000001 0.561807
-49.882324 -89.559578 5.081849 0.741176
-49.882324 -89.559578 4.657287 0.741176
-49.683556 -89.353920 4.186643 0.649531
-49.570930 -89.237396 3.758576 0.702449
-49.683540 -89.353905 3.382490 0.100526
-49.780205 -89.453918 2.996775 0.741176
-49.683544 -89.353912 2.590377 0.118975
-49.780205 -89.453918 2.198928 0.741176
-49.780205 -89.453918 1.801072 0.741176
-49.780205 -89.453918 1.402790 0.741176
-49.780205 -89.453918 1.003225 0.741176
-49.683540 -89.353905 0.617510 0.604166
-49.683544 -89.353912 0.217387 0.633600
-48.970695 -88.616348 0.000000 0.546258
-47.767365 -87.371307 0.000001 0.508186
-46.880810 -86.454018 0.000001 0.557244
-50.002594 -89.559586 5.102861 0.741176
-50.002594 -89.559586 4.675404 0.741176
-49.801029 -89.353920 4.201551 0.650172
-49.686821 -89.237396 3.770566 0.698482
-49.801018 -89.353905 3.391916 0.106294
-49.899036 -89.453918 3.003571 0.741176
-49.801018 -89.353912 2.594402 0.106157
-49.899036 -89.453918 2.200284 0.741176
-49.899036 -89.453918 1.799716 0.741176
-49.899036 -89.453918 1.398718 0.741176
-49.899036 -89.453918 0.996429 0.741176
-49.801018 -89.353912 0.608084 0.599832
-49.801018 -89.353912 0.205233 0.613809
-49.025684 -88.562828 0.000001 0.538964
-47.813694 -87.326218 0.000001 0.562737
-46.920753 -86.415138 0.000001 0.478660
-50.124519 -89.559586 5.124315 0.741176
-50.124519 -89.559586 4.693902 0.741176
-49.920120 -89.353920 4.216773 0.628977
-49.804306 -89.237396 3.782808 0.701060
-49.896114 -89.329765 3.397624 0.695857
-50.019505 -89.453918 3.010510 0.741176
-49.920105 -89.353912 2.598512 0.111772
-50.019505 -89.453918 2.201669 0.741176
-50.019505 -89.453918 1.798331 0.741176
-50.019505 -89.453918 1.394561 0.741176
-50.019505 -89.453918 0.989490 0.741176
-49.920109 -89.353912 0.598460 0.615000
-49.920109 -89.353912 0.192824 0.645502
-49.080299 -88.508926 0.000000 0.524346
-47.859707 -87.280800 0.000001 0.536065
-46.960426 -86.375984 0.000000 0.557214
-50.223721 -89.535339 5.137601 0.059495
-50.248150 -89.559586 4.712791 0.741176
-50.040874 -89.353920 4.232316 0.658351
-49.922466 -89.236435 3.795106 0.696315
-49.956078 -89.269783 3.397627 0.694652
-50.141659 -89.453918 3.017595 0.741176
-50.141663 -89.453918 2.609684 0.735256
-50.141659 -89.453918 2.203083 0.741176
-50.141659 -89.453918 1.796917 0.741176
-50.141663 -89.453918 1.390316 0.741176
-50.141659 -89.453918 0.982405 0.741176
-50.040863 -89.353912 0.588633 0.614389
-50.040863 -89.353912 0.180153 0.635294
-49.134541 -88.454643 0.000000 0.551598
-47.905399 -87.235069 0.000001 0.500572
-46.999828 -86.336548 0.000000 0.535882
-50.301308 -89.488914 5.143283 0.079347
-50.373531 -89.559586 4.732080 0.741176
-50.163342 -89.353920 4.248189 0.636530
-50.107342 -89.299126 3.821168 0.671107
-50.053349 -89.246300 3.403702 0.706630
-50.265541 -89.453918 3.024831 0.741176
-50.265541 -89.453918 2.614019 0.737163
-50.265541 -89.453918 2.204527 0.741176
-50.265541 -89.453918 1.795473 0.741176
-50.265541 -89.453918 1.385981 0.741176
-50.265541 -89.453918 0.975169 0.741176
-50.163330 -89.353912 0.578597 0.625452
-50.163330 -89.353912 0.167213 0.606287
-49.188396 -88.399979 0.000000 0.531426
-47.950775 -87.189026 0.000000 0.546838
-47.038948 -86.296844 0.000001 0.546426
-50.422997 -89.484589 5.164389 0.085313
-50.473495 -89.533318 4.743612 0.072160
-50.287567 -89.353920 4.264401 0.622690
-50.235817 -89.303986 3.835338 0.702907
-50.166801 -89.237389 3.412348 0.734585
-50.391212 -89.453926 3.032221 0.741176
-50.391209 -89.453918 2.618447 0.734676
-50.391209 -89.453918 2.206002 0.741176
-50.391209 -89.453918 1.793998 0.741176
-50.391209 -89.453918 1.381553 0.741176
-50.391212 -89.453926 0.967778 0.741176
-50.287560 -89.353912 0.568347 0.629465
-50.287560 -89.353912 0.153996 0.606958
-49.241875 -88.344948 -0.000000 0.555489
-47.995827 -87.142654 0.000001 0.548638
-47.077797 -86.256866 0.000000 0.515389
-50.550930 -89.484581 5.187527 0.074510
-50.550934 -89.484581 4.748406 0.065415
-50.413605 -89.353920 4.280960 0.732174
-50.361122 -89.303986 3.848760 0.685100
-50.291138 -89.237389 3.422676 0.694713
-50.518707 -89.453918 3.039770 0.741176
-50.518707 -89.453918 2.622969 0.741634
-50.518707 -89.453918 2.207509 0.741176
-50.518707 -89.453918 1.792492 0.741176
-50.518707 -89.453918 1.377030 0.741176
-50.518707 -89.453926 0.960230 0.741176
-50.413597 -89.353912 0.557878 0.594965
-50.413597 -89.353912 0.140497 0.624720
-49.294960 -88.289536 0.000000 0.541787
-48.040550 -87.095978 0.000000 0.522606
-47.116360 -86.216614 0.000001 0.567071
-50.680763 -89.484581 5.211165 0.086275
-50.760704 -89.559586 4.792464 0.741176
-50.541504 -89.353920 4.297876 0.645609
-50.488289 -89.303986 3.862470 0.697459
-50.417316 -89.237396 3.433227 0.704601
-50.580360 -89.390373 3.039865 0.107378
-50.580360 -89.390373 2.623027 0.108278
-50.580360 -89.390373 2.207527 0.108003
-50.580360 -89.390373 1.792472 0.111818
-50.580360 -89.390373 1.376973 0.104799
-50.580360 -89.390373 0.960134 0.119585
-50.541500 -89.353912 0.547183 0.620081
-50.541496 -89.353912 0.126706 0.637125
-49.347660 -88.233765 0.000000 0.546197
-48.084949 -87.048988 0.000001 0.541283
-47.154640 -86.176102 0.000001 0.550851
-50.893612 -89.559586 5.262981 0.741176
-50.893616 -89.559586 4.813466 0.741176
-50.671326 -89.353920 4.315157 0.640558
-50.617355 -89.303986 3.876477 0.695567
-50.547256 -89.239120 3.444300 0.697597
-50.671318 -89.353912 3.043284 0.110521
-50.671318 -89.353912 2.625076 0.118456
-50.671318 -89.353912 2.208210 0.114611
-50.671318 -89.353912 1.791790 0.120790
-50.671318 -89.353912 1.374924 0.119631
-50.671322 -89.353912 0.956715 0.120562
-50.671314 -89.353912 0.536256 0.590051
-50.671318 -89.353912 0.112618 0.632654
-49.399975 -88.177620 -0.000000 0.545144
-48.129021 -87.001686 0.000000 0.538674
-47.192638 -86.135315 0.000001 0.560708
-51.028545 -89.559593 5.287871 0.741176
-51.028545 -89.559593 4.834927 0.741176
-50.803116 -89.353920 4.332817 0.654551
-50.748386 -89.303986 3.890790 0.732204
-50.691879 -89.252426 3.457587 0.694408
-50.912712 -89.453911 3.063407 0.741176
-50.912712 -89.453911 2.637132 0.749996
-50.912712 -89.453911 2.212226 0.741176
-50.912712 -89.453911 1.787774 0.746258
-50.912712 -89.453911 1.362868 0.741176
-50.912712 -89.453911 0.936593 0.750957
-50.803108 -89.353912 0.525092 0.616953
-50.803108 -89.353912 0.098221 0.672480
-49.451893 -88.121117 -0.000000 0.570016
-48.172760 -86.954086 0.000000 0.509041
-47.230354 -86.094269 0.000000 0.552636
-51.165558 -89.559593 5.313305 0.741176
-51.165558 -89.559593 4.856857 0.741176
-50.936939 -89.353920 4.350862 0.633478
-50.881439 -89.303986 3.905417 0.698039
-50.881439 -89.303986 3.477730 0.721569
-51.048088 -89.453911 3.071633 0.741176
-51.048088 -89.453911 2.642060 0.742870
-51.048084 -89.453903 2.213867 0.741176
-51.048084 -89.453903 1.786133 0.750042
-51.048088 -89.453911 1.357939 0.741176
-51.048088 -89.453911 0.928367 0.752941
-50.936935 -89.353912 0.513682 0.605142
-50.936935 -89.353912 0.083510 0.673014
-49.503410 -88.064247 0.000000 0.525185
-48.216164 -86.906174 0.000000 0.558251
-47.267780 -86.052963 0.000000 0.551965
-51.304710 -89.559593 5.339299 0.741176
-51.304710 -89.559593 4.879270 0.741176
-51.072861 -89.353920 4.369306 0.724849
-51.016571 -89.303986 3.920366 0.730373
-51.016575 -89.303986 3.489324 0.694179
-51.185577 -89.453911 3.080040 0.741176
-51.185577 -89.453911 2.647098 0.741176
-51.185577 -89.453903 2.215545 0.741176
-51.185577 -89.453903 1.784455 0.741176
-51.185577 -89.453903 1.352903 0.741176
-51.185577 -89.453911 0.919959 0.736248
-51.072853 -89.353912 0.502021 0.615991
-51.072853 -89.353912 0.068474 0.627024
-49.554535 -88.007019 -0.000000 0.540352
-48.259235 -86.857964 0.000000 0.556832
-47.304916 -86.011391 0.000001 0.467399
-51.356190 -89.480972 5.335958 0.733104
-51.356190 -89.480972 4.876390 0.763424
-51.210930 -89.353912 4.388157 0.637079
-51.153847 -89.303986 3.935646 0.709987
-51.153851 -89.303986 3.501174 0.698802
-51.325249 -89.453911 3.088634 0.741176
-51.325249 -89.453911 2.652246 0.741176
-51.325249 -89.453911 2.217260 0.741176
-51.325249 -89.453911 1.782740 0.741176
-51.325249 -89.453911 1.347753 0.741176
-51.325249 -89.453911 0.911366 0.740597
-51.210930 -89.353912 0.490102 0.632197
-51.210930 -89.353912 0.053105 0.553735
-49.605259 -87.949440 -0.000000 0.524941
-48.301968 -86.809448 0.000000 0.562264
-47.341759 -85.969559 0.000001 0.510887
-51.401192 -89.397003 5.330676 0.733333
-51.401188 -89.397003 4.871834 0.733257
-51.351227 -89.353912 4.407431 0.658274
-51.351227 -89.353912 3.962608 0.653117
-51.293335 -89.303986 3.513289 0.696300
-51.467171 -89.453911 3.097420 0.741176
-51.467171 -89.453903 2.657510 0.741176
-51.467171 -89.453911 2.219013 0.741176
-51.467171 -89.453911 1.780986 0.741176
-51.467171 -89.453903 1.342490 0.741176
-51.467171 -89.453911 0.902580 0.723400
-51.351227 -89.353912 0.477916 0.593439
-51.351227 -89.353912 0.037393 0.633982
-49.655579 -87.891502 -0.000000 0.518486
-48.344360 -86.760643 0.000000 0.550561
-47.378311 -85.927475 0.000001 0.560662
-51.443325 -89.310982 5.324677 0.750713
-51.443329 -89.310989 4.866663 0.763439
-51.493813 -89.353912 4.427136 0.663630
-51.493816 -89.353912 3.978673 0.684932
-51.435097 -89.303986 3.525676 0.693523
-51.611404 -89.453903 3.106402 0.741176
-51.611404 -89.453903 2.662892 0.741176
-51.611404 -89.453911 2.220806 0.741176
-51.611404 -89.453903 1.779194 0.741176
-51.611404 -89.453903 1.337107 0.741176
-51.547035 -89.399170 0.900525 0.117479
-51.493813 -89.353912 0.465457 0.632486
-51.493813 -89.353912 0.021328 0.619745
-49.705494 -87.833221 -0.000000 0.560174
-48.386410 -86.711540 0.000000 0.552834
-47.414570 -85.885139 0.000001 0.574548
-51.638760 -89.353912 5.369019 0.651987
-51.638763 -89.353912 4.904896 0.658152
-51.638763 -89.353912 4.447288 0.622003
-51.638763 -89.353912 3.995101 0.661540
-51.579208 -89.303986 3.538344 0.703014
-51.649940 -89.363289 3.104023 0.109972
-51.649944 -89.363289 2.661467 0.117922
-51.649944 -89.363289 2.220332 0.108751
-51.649944 -89.363289 1.779668 0.121477
-51.649944 -89.363289 1.338533 0.104829
-51.638771 -89.353928 0.897171 0.117571
-51.638763 -89.353912 0.452716 0.626017
-51.638760 -89.353912 0.004900 0.607050
-49.754997 -87.774590 0.000000 0.568032
-48.428120 -86.662148 0.000000 0.541375
-47.450531 -85.842552 0.000000 0.544442
-51.786152 -89.353920 5.397395 0.653147
-51.786152 -89.353920 4.929362 0.646128
-51.786152 -89.353920 4.467900 0.665812
-51.786156 -89.353920 4.011905 0.662959
-51.725739 -89.303986 3.551299 0.731106
-51.725746 -89.303993 3.105690 0.698955
-51.725746 -89.303993 2.662465 0.695735
-51.725746 -89.303993 2.220664 0.688853
-51.725746 -89.303993 1.779336 0.686793
-51.725750 -89.303993 1.337535 0.700404
-51.725750 -89.303993 0.894310 0.737926
-51.786140 -89.353912 0.439686 0.618479
-51.724297 -89.302795 -0.000001 0.538918
-49.804092 -87.715614 -0.000000 0.544213
-48.469479 -86.612465 -0.000000 0.515206
-47.486195 -85.799713 0.000000 0.539895
-51.936050 -89.353928 5.426419 0.651057
-51.936050 -89.353928 4.954389 0.636118
-51.936054 -89.353928 4.488985 0.704997
-51.936054 -89.353928 4.029094 0.645426
-51.874763 -89.303986 3.564551 0.655146
-51.874756 -89.303978 3.115134 0.702129
-51.874756 -89.303978 2.668124 0.696880
-51.874756 -89.303978 2.222549 0.665278
-51.874756 -89.303978 1.777451 0.691356
-51.874756 -89.303978 1.331876 0.728756
-51.874760 -89.303986 0.884866 0.699687
-51.936028 -89.353905 0.426357 0.602152
-51.784012 -89.230034 -0.000000 0.525200
-49.852776 -87.656296 0.000000 0.532036
-48.510490 -86.562492 0.000000 0.553811
-47.521561 -85.756622 0.000000 0.528374
-52.035065 -89.310974 5.438933 0.723598
-52.035065 -89.310974 4.965178 0.756176
-51.961266 -89.251686 4.480850 0.625803
-52.088535 -89.353928 4.046678 0.674403
-52.026367 -89.303986 3.578110 0.694331
-52.072472 -89.341019 3.129647 0.696544
-52.072468 -89.341019 2.676819 0.707561
-52.072472 -89.341019 2.225445 0.694697
-52.072472 -89.341019 1.774555 0.733593
-52.072472 -89.341019 1.323181 0.705165
-52.072472 -89.341026 0.870352 0.695125
-52.072472 -89.341026 0.415087 0.699001
-51.843220 -89.156860 -0.000001 0.518441
-49.901039 -87.596642 0.000000 0.534600
-48.551155 -86.512230 -0.000000 0.525536
-47.556622 -85.713287 -0.000000 0.554559
-52.503376 -89.559570 5.569471 0.741176
-52.503380 -89.559578 5.077734 0.741176
-52.081966 -89.225853 4.495089 0.623407
-52.243690 -89.353928 4.064671 0.649332
-52.180626 -89.303986 3.591984 0.692409
-52.096584 -89.237434 3.125896 0.694408
-52.096584 -89.237427 2.674572 0.699077
-52.096584 -89.237434 2.224697 0.678431
-52.096584 -89.237434 1.775303 0.710765
-52.096581 -89.237427 1.325428 0.735256
-52.096584 -89.237427 0.874103 0.734981
-52.096584 -89.237434 0.420349 0.716030
-51.901913 -89.083267 -0.000001 0.510094
-49.948891 -87.536652 -0.000000 0.494530
-48.591465 -86.461685 0.000000 0.505226
-47.591377 -85.669708 0.000000 0.563409
-52.665054 -89.559578 5.601308 0.741176
-52.665054 -89.559578 5.105185 0.741176
-52.237541 -89.225853 4.517342 0.597192
-52.401608 -89.353928 4.083085 0.699275
-52.337627 -89.303986 3.606182 0.698039
-52.401581 -89.353905 3.151459 0.700389
-52.401585 -89.353912 2.689888 0.727764
-52.401585 -89.353912 2.229798 0.733333
-52.401585 -89.353912 1.770202 0.698299
-52.401585 -89.353912 1.310112 0.713390
-52.401581 -89.353905 0.848540 0.718135
-52.401585 -89.353912 0.384484 0.734661
-51.960094 -89.009277 -0.000001 0.505516
-49.996319 -87.476326 -0.000000 0.562158
-48.631424 -86.410866 0.000000 0.553368
-47.625832 -85.625893 0.000000 0.547936
-52.829651 -89.559578 5.633897 0.741176
-52.829651 -89.559578 5.133283 0.741176
-52.392567 -89.223267 4.539350 0.624857
-52.562374 -89.353928 4.101934 0.693492
-52.497467 -89.303986 3.620717 0.712428
-52.692337 -89.453926 3.175327 0.741176
-52.562366 -89.353920 2.696131 0.728130
-52.562366 -89.353920 2.231878 0.764767
-52.562366 -89.353920 1.768122 0.785626
-52.562366 -89.353920 1.303868 0.784405
-52.562366 -89.353920 0.838119 0.752529
-52.562366 -89.353920 0.369863 0.785290
-52.017754 -88.934875 -0.000001 0.549050
-50.043327 -87.415672 -0.000000 0.560403
-48.671028 -86.359772 -0.000000 0.513268
-47.659977 -85.581833 0.000000 0.576120
-52.973488 -89.541550 5.659787 0.084672
-52.907166 -89.491257 5.137630 0.065873
-52.973492 -89.541557 4.658506 0.056489
-52.726086 -89.353928 4.121233 0.657267
-52.660233 -89.303986 3.635596 0.721721
-52.857944 -89.453926 3.186118 0.741176
-52.857933 -89.453918 2.710653 0.061799
-52.923874 -89.503929 2.238069 0.741176
-52.923874 -89.503929 1.761931 0.741176
-52.923878 -89.503929 1.285282 0.741176
-52.866711 -89.460571 0.812979 0.062684
-52.861809 -89.456856 0.335300 0.065736
-52.074890 -88.860069 -0.000001 0.541650
-50.089909 -87.354691 -0.000000 0.543786
-48.710270 -86.308395 0.000000 0.522728
-47.693813 -85.537537 0.000000 0.546838
-53.167988 -89.559586 5.701427 0.741176
-53.067638 -89.484581 5.164451 0.068025
-53.167984 -89.559586 4.688751 0.741176
-52.892834 -89.353928 4.140993 0.631556
-52.826019 -89.303986 3.650833 0.701427
-53.026627 -89.453926 3.197168 0.741176
-53.026638 -89.453934 2.717274 0.076341
-53.093525 -89.503929 2.240287 0.741176
-53.093525 -89.503929 1.759713 0.741176
-53.093525 -89.503929 1.278624 0.741176
-53.086857 -89.498947 0.796667 0.074540
-53.028149 -89.455063 0.320137 0.076936
-52.131508 -88.784874 -0.000001 0.542199
-50.136063 -87.293388 -0.000000 0.488594
-48.749153 -86.256752 -0.000000 0.524865
-47.727345 -85.493004 0.000000 0.517342
-53.341930 -89.559586 5.736416 0.741176
-53.240112 -89.484589 5.194366 0.079561
-53.341930 -89.559586 4.714170 0.741176
-53.062729 -89.353928 4.161231 0.666117
-52.994934 -89.303986 3.666438 0.695644
-53.198494 -89.453934 3.208485 0.741176
-53.198494 -89.453934 2.724054 0.070863
-53.198471 -89.453911 2.241178 0.076585
-53.198463 -89.453911 1.758822 0.077150
-53.198444 -89.453896 1.275949 0.086244
-53.263012 -89.501457 0.784944 0.066835
-53.198391 -89.453850 0.304492 0.080766
-52.187599 -88.709282 -0.000000 0.560678
-50.181793 -87.231766 -0.000001 0.530922
-48.787682 -86.204834 -0.000000 0.510079
-47.760559 -85.448242 0.000000 0.542321
-53.519203 -89.559593 5.772262 0.741176
-53.519207 -89.559593 5.252587 0.741176
-53.519207 -89.559593 4.740207 0.741176
-53.235878 -89.353920 4.181964 0.650385
-53.167084 -89.303986 3.682425 0.690486
-53.373650 -89.453934 3.220077 0.741176
-53.373634 -89.453918 2.730999 0.056107
-53.442516 -89.503922 2.244885 0.741176
-53.442516 -89.503922 1.755115 0.741176
-53.442520 -89.503922 1.264819 0.741176
-53.439121 -89.501457 0.773288 0.069810
-53.315895 -89.412003 0.296422 0.765774
-52.243156 -88.633301 -0.000000 0.530861
-50.227085 -87.169823 -0.000000 0.545892
-48.825836 -86.152649 -0.000000 0.540063
-47.793461 -85.403244 0.000000 0.538888
-53.596985 -89.485962 5.777286 0.072114
-53.699924 -89.559593 5.284253 0.741176
-53.699921 -89.559593 4.766885 0.741176
-53.412392 -89.353920 4.203207 0.632853
-53.342575 -89.303986 3.698804 0.696910
-53.552204 -89.453934 3.231956 0.741176
-53.552174 -89.453911 2.738115 0.059327
-53.622086 -89.503914 2.247269 0.741176
-53.622086 -89.503914 1.752731 0.741176
-53.622086 -89.503914 1.257663 0.741176
-53.618652 -89.501457 0.761345 0.052262
-53.412399 -89.353928 0.291320 0.754818
-52.298195 -88.556938 -0.000001 0.531456
-50.271950 -87.107567 -0.000000 0.542153
-48.863632 -86.100204 0.000000 0.580560
-47.826050 -85.358017 0.000000 0.530556
-53.777794 -89.484596 5.814016 0.073426
-53.856186 -89.539856 5.309303 0.775586
-53.856186 -89.539848 4.787990 0.735454
-53.592377 -89.353920 4.224976 0.668528
-53.521530 -89.303986 3.715590 0.712139
-53.734283 -89.453934 3.244130 0.741176
-53.592411 -89.353943 2.736883 0.787961
-53.733818 -89.453606 2.248284 0.063920
-53.733662 -89.453499 1.751720 0.053056
-53.733658 -89.453491 1.254627 0.066148
-53.741081 -89.458725 0.755188 0.061448
-53.592392 -89.353928 0.274437 0.758038
-52.352688 -88.480186 -0.000001 0.562036
-50.316372 -87.044998 -0.000000 0.544381
-48.901058 -86.047493 -0.000000 0.524376
-47.858322 -85.312569 0.000000 0.542702
-53.901199 -89.440880 5.833067 0.740719
-53.901199 -89.440880 5.305016 0.751141
-53.901199 -89.440880 4.784378 0.760601
-53.775967 -89.353920 4.247290 0.663432
-53.691334 -89.295151 3.731013 0.704631
-53.881210 -89.427002 3.252735 0.737011
-53.776005 -89.353943 2.744274 0.769650
-53.881210 -89.426994 2.250010 0.735668
-53.881210 -89.427002 1.749990 0.712703
-53.881214 -89.427002 1.249434 0.737881
-53.881214 -89.427002 0.747265 0.737804
-53.775967 -89.353920 0.257133 0.763043
-52.406643 -88.403061 -0.000001 0.528252
-50.360363 -86.982124 -0.000001 0.513222
-48.938118 -85.994514 -0.000000 0.499535
-47.890274 -85.266899 -0.000000 0.511345
-53.906853 -89.315308 5.816382 0.714900
-53.906845 -89.315308 5.290628 0.750454
-53.906849 -89.315308 4.772257 0.764569
-53.963287 -89.353912 4.270168 0.622080
-53.811485 -89.250069 3.739451 0.705104
-53.963268 -89.353905 3.254874 0.740307
-53.963272 -89.353912 2.751848 0.720073
-53.963276 -89.353912 2.250437 0.719127
-53.963280 -89.353912 1.749563 0.737484
-53.963280 -89.353912 1.248152 0.708324
-53.963280 -89.353912 0.745125 0.706935
-53.971268 -89.359375 0.238278 0.626856
-52.460064 -88.325562 -0.000001 0.539117
-50.403912 -86.918938 -0.000000 0.517586
-48.974808 -85.941292 -0.000000 0.555001
-47.921909 -85.221001 0.000000 0.523995
-54.154465 -89.353912 5.873129 0.625208
-54.154465 -89.353912 5.339558 0.677943
-54.154465 -89.353912 4.813478 0.659678
-54.154465 -89.353912 4.293630 0.628519
-53.978249 -89.235161 3.754360 0.732601
-54.154476 -89.353920 3.267846 0.732525
-54.154476 -89.353920 2.759619 0.706249
-54.154472 -89.353920 2.253026 0.693324
-54.154472 -89.353920 1.746975 0.718059
-54.154476 -89.353920 1.240380 0.733883
-54.154476 -89.353920 0.732154 0.694575
-54.031288 -89.270905 0.238282 0.623072
-52.512939 -88.247681 -0.000001 0.528176
-50.447018 -86.855453 -0.000001 0.529046
-49.011120 -85.887802 -0.000000 0.521370
-47.953220 -85.174881 -0.000000 0.487800
-54.349644 -89.353905 5.913766 0.662348
-54.349640 -89.353905 5.374596 0.676768
-54.349644 -89.353905 4.842997 0.697139
-54.349644 -89.353905 4.317695 0.614588
-54.174118 -89.237389 3.773232 0.691646
-54.228836 -89.273712 3.269257 0.714504
-54.228836 -89.273712 2.760465 0.699443
-54.228836 -89.273712 2.253308 0.689403
-54.228836 -89.273712 1.746693 0.713146
-54.228836 -89.273712 1.239534 0.694942
-54.228828 -89.273712 0.730743 0.736004
-54.194981 -89.251244 0.223887 0.637430
-52.565266 -88.169441 -0.000001 0.515801
-50.489677 -86.791672 -0.000001 0.570626
-49.047066 -85.834068 -0.000001 0.544869
-47.984211 -85.128548 0.000000 0.570764
-58.649212 -92.034584 7.182539 0.463279
-58.055695 -91.646545 6.315429 0.654688
-58.055695 -91.646545 5.635622 0.647227
-58.055698 -91.646553 4.963864 0.665812
-54.370766 -89.237389 3.792124 0.680827
-58.055702 -91.646553 3.638329 0.702312
-58.055698 -91.646553 2.981591 0.695048
-58.055695 -91.646545 2.326963 0.611811
-58.055695 -91.646545 1.673037 0.593530
-58.055695 -91.646545 1.018409 0.650492
-58.055695 -91.646545 0.361672 0.625544
-55.883209 -90.226204 -0.000002 0.538094
-52.617050 -88.090836 -0.000001 0.564828
-50.531891 -86.727592 -0.000001 0.540459
-49.082626 -85.780083 -0.000000 0.540475
-48.014877 -85.082001 -0.000000 0.590372
-58.531715 -91.787140 7.124112 0.453513
-58.055698 -91.480644 6.295928 0.669352
-58.055702 -91.480652 5.619192 0.635935
-58.055698 -91.480644 4.950471 0.602197
-58.055698 -91.480644 4.288213 0.658412
-58.055698 -91.480644 3.630924 0.656397
-58.055698 -91.480644 2.977155 0.704967
-58.055698 -91.480644 2.325486 0.645136
-58.055695 -91.480644 1.674514 0.651286
-58.055695 -91.480644 1.022845 0.658885
-58.055695 -91.480644 0.369076 0.635004
-55.949268 -90.124390 -0.000002 0.541527
-52.668282 -88.011871 -0.000001 0.546853
-50.573662 -86.663216 -0.000001 0.519188
-49.117813 -85.725853 -0.000001 0.535439
-48.045219 -85.035240 -0.000000 0.523842
-58.440376 -91.560127 7.074218 0.496513
-58.055698 -91.316223 6.276806 0.607340
-58.055698 -91.316223 5.603084 0.622934
-58.055695 -91.316223 4.937339 0.655848
-58.055698 -91.316223 4.278028 0.655955
-58.055702 -91.316223 3.623665 0.668696
-58.055695 -91.316223 2.972806 0.674983
-58.055698 -91.316223 2.324037 0.646586
-58.055698 -91.316223 1.675963 0.594034
-58.055695 -91.316223 1.027194 0.665446
-58.055695 -91.316223 0.376335 0.658915
-56.014614 -90.022110 -0.000002 0.520836
-52.718964 -87.932556 -0.000001 0.531518
-50.614975 -86.598557 -0.000001 0.530510
-49.152622 -85.671371 -0.000001 0.527108
-48.075230 -84.988266 -0.000000 0.529320
-58.330124 -91.324577 7.019422 0.470298
-58.055695 -91.153259 6.258062 0.664210
-58.055698 -91.153259 5.587292 0.599847
-58.055702 -91.153259 4.924466 0.594995
-58.055698 -91.153259 4.268044 0.658824
-58.055702 -91.153259 3.616549 0.619486
-58.055695 -91.153259 2.968543 0.660746
-58.055698 -91.153259 2.322617 0.639368
-58.055698 -91.153259 1.677383 0.650187
-58.055695 -91.153252 1.031457 0.672801
