# This PCD file was generated using the MATLAB® pcwrite function
# from Computer Vision Toolbox®.
# .PCD v.7 - Point Cloud Data file format
VERSION .7
FIELDS x y z intensity
SIZE 4 4 4 4
TYPE F F F F
COUNT 1 1 1 1
WIDTH 1215
HEIGHT 1
VIEWPOINT 0 0 0 1 0 0 0
POINTS 1215
DATA ascii
173.059677 71.307152 6.220076 0.670253
173.080231 71.277542 5.630924 0.678431
173.080231 71.277542 5.058947 0.678431
173.080231 71.277542 4.493743 0.678431
173.059509 71.307381 3.938180 0.550988
173.059509 71.307396 3.381439 0.720638
173.059494 71.307404 2.827679 0.686244
173.118515 71.222366 2.274002 0.588205
173.080215 71.277542 1.724899 0.678431
173.080215 71.277542 1.174106 0.678431
173.080215 71.277542 0.621539 0.678431
173.059479 71.307426 0.061813 0.674937
174.977966 68.543037 -0.000006 0.571878
176.398346 66.496361 -0.000005 0.539757
177.385574 65.073837 -0.000003 0.541176
178.112915 64.025795 -0.000003 0.538201
173.202164 71.307137 6.199825 0.779797
173.222397 71.277542 5.613505 0.678431
173.222397 71.277542 5.044271 0.678431
173.222397 71.277542 4.481779 0.678431
173.202011 71.307365 3.928880 0.550988
173.201996 71.307381 3.374811 0.690715
173.201996 71.307388 2.823708 0.694301
173.260132 71.222366 2.272688 0.567346
173.222397 71.277542 1.726218 0.678431
173.222397 71.277542 1.178068 0.678431
173.222397 71.277542 0.628153 0.678431
173.201965 71.307426 0.071112 0.752911
175.055481 68.596436 -0.000006 0.555840
176.461548 66.539886 -0.000005 0.532448
177.438812 65.110519 -0.000004 0.539513
178.158813 64.057419 -0.000003 0.547723
173.343307 71.307114 6.179970 0.546227
173.363220 71.277542 5.596426 0.685557
173.363220 71.277534 5.029882 0.690303
173.363220 71.277534 4.470048 0.678431
173.343140 71.307358 3.919762 0.664225
173.343140 71.307365 3.368311 0.527703
173.343124 71.307388 2.819814 0.622003
173.400391 71.222359 2.271399 0.541161
173.363220 71.277542 1.727512 0.678431
173.363220 71.277542 1.181953 0.678431
173.363220 71.277542 0.634636 0.678431
173.343094 71.307426 0.080229 0.678889
175.133377 68.649284 -0.000006 0.531792
176.525040 66.582977 -0.000005 0.536507
177.492310 65.146820 -0.000004 0.497398
178.204941 64.088722 -0.000003 0.578912
173.483124 71.307098 6.160503 0.580697
173.502731 71.277542 5.579682 0.678431
173.502731 71.277542 5.015777 0.678431
173.502731 71.277542 4.458549 0.678431
173.482956 71.307343 3.910821 0.604089
173.482941 71.307358 3.361940 0.542046
173.482925 71.307381 2.815997 0.606241
173.539337 71.222359 2.270135 0.517647
173.502731 71.277542 1.728781 0.678431
173.502731 71.277542 1.185762 0.678431
173.502731 71.277542 0.640993 0.678431
173.482910 71.307426 0.089167 0.687449
175.211624 68.701599 -0.000006 0.525048
176.588837 66.625626 -0.000005 0.541482
177.546051 65.182739 -0.000004 0.538476
178.251282 64.119698 -0.000003 0.501289
173.677002 71.222359 6.116069 0.580682
173.640945 71.277542 5.563267 0.678431
173.640945 71.277542 5.001946 0.678431
173.640945 71.277542 4.447274 0.678431
173.621475 71.307335 3.902058 0.593805
173.621475 71.307343 3.355694 0.579202
173.621445 71.307388 2.812255 0.673152
173.640945 71.277542 2.269975 0.699382
173.640945 71.277542 1.730025 0.678431
173.640945 71.277542 1.189496 0.678431
173.640945 71.277542 0.647225 0.678431
173.621414 71.307426 0.097930 0.587198
175.290237 68.753357 -0.000006 0.549187
176.652924 66.667824 -0.000005 0.526497
177.600052 65.218292 -0.000004 0.537850
178.297836 64.150352 -0.000003 0.593256
173.813416 71.222359 6.097477 0.647059
173.777908 71.277542 5.547173 0.678431
173.777908 71.277542 4.988388 0.678431
173.777908 71.277542 4.436221 0.678431
173.758743 71.307320 3.893465 0.597665
173.758728 71.307343 3.349570 0.597269
173.758698 71.307388 2.808587 0.704982
173.777908 71.277542 2.268756 0.720348
173.777908 71.277542 1.731244 0.678431
173.777908 71.277542 1.193156 0.678431
173.777908 71.277542 0.653335 0.678431
173.758682 71.307426 0.106521 0.673655
175.369217 68.804573 -0.000006 0.551690
176.717316 66.709564 -0.000005 0.535058
177.654297 65.253464 -0.000004 0.558587
178.344620 64.180679 -0.000003 0.496406
173.948608 71.222359 6.079251 0.589059
173.913651 71.277542 5.531394 0.678431
173.913651 71.277542 4.975095 0.678431
173.913651 71.277542 4.425385 0.678431
173.894791 71.307304 3.885041 0.632212
173.894760 71.307343 3.343567 0.759670
173.894730 71.307388 2.804990 0.733639
173.913651 71.277542 2.267560 0.702327
173.913651 71.277542 1.732440 0.678431
173.913651 71.277542 1.196746 0.678431
173.913651 71.277542 0.659325 0.678431
173.894714 71.307426 0.114944 0.733013
175.448547 68.855232 -0.000006 0.514488
176.781998 66.750870 -0.000005 0.556115
177.708771 65.288261 -0.000004 0.513771
178.391586 64.210678 -0.000003 0.472160
174.073242 71.237381 6.065820 0.637598
174.048187 71.277542 5.515927 0.678431
174.048187 71.277542 4.962064 0.678431
174.048187 71.277542 4.414762 0.678431
174.029617 71.307304 3.876784 0.611673
174.029602 71.307343 3.337682 0.772686
174.029572 71.307388 2.801464 0.621546
174.048187 71.277542 2.266388 0.720348
174.048187 71.277542 1.733612 0.678431
174.048187 71.277542 1.200264 0.678431
174.048187 71.277542 0.665198 0.678431
174.029541 71.307419 0.123200 0.742580
175.528244 68.905334 -0.000006 0.550256
176.846954 66.791710 -0.000005 0.515343
177.763504 65.322670 -0.000004 0.548653
178.438782 64.240349 -0.000003 0.524727
174.203003 71.242645 6.049832 0.599512
174.203003 71.242645 5.491919 0.772793
174.203003 71.242645 4.941838 0.753231
174.203003 71.242645 4.398273 0.576272
174.163284 71.307304 3.868690 0.704692
174.163254 71.307343 3.331913 0.545174
174.163239 71.307388 2.798007 0.588724
174.181564 71.277542 2.265240 0.720348
174.181564 71.277542 1.734761 0.678431
174.181564 71.277542 1.203713 0.678431
174.181564 71.277542 0.670954 0.678431
174.163208 71.307419 0.131294 0.552941
175.608276 68.954880 -0.000007 0.553262
176.912201 66.832108 -0.000005 0.555764
177.818481 65.356697 -0.000004 0.545007
178.486176 64.269684 -0.000003 0.536156
174.295990 71.306999 6.051476 0.594430
174.295944 71.307083 5.493356 0.715282
174.295898 71.307159 4.943066 0.642985
174.295853 71.307243 4.399287 0.732952
174.295807 71.307304 3.860756 0.657298
174.295776 71.307343 3.326258 0.570016
174.295761 71.307388 2.794619 0.598062
174.313797 71.277550 2.264113 0.699382
174.313797 71.277550 1.735887 0.678431
174.313797 71.277542 1.207093 0.678431
174.313797 71.277542 0.676597 0.678431
174.295731 71.307419 0.139228 0.552392
175.688644 69.003868 -0.000007 0.537774
176.977722 66.872040 -0.000005 0.563867
177.873672 65.390343 -0.000004 0.517052
178.533783 64.298698 -0.000003 0.550362
174.427399 71.306984 6.034539 0.790097
174.427353 71.307068 5.478752 0.669459
174.427307 71.307144 4.930762 0.717754
174.427261 71.307220 4.389257 0.522759
174.427216 71.307289 3.852977 0.631296
174.427185 71.307350 3.320715 0.549020
174.427170 71.307388 2.791298 0.593484
174.444931 71.277542 2.263009 0.699504
174.444931 71.277542 1.736990 0.678431
174.444931 71.277542 1.210408 0.678431
174.444931 71.277542 0.682128 0.678431
174.427139 71.307419 0.147006 0.549249
175.769363 69.052292 -0.000007 0.551308
177.043518 66.911522 -0.000005 0.531807
177.929108 65.423599 -0.000004 0.563424
178.581573 64.327377 -0.000003 0.496025
174.557724 71.306976 6.017939 0.756466
174.557678 71.307053 5.464438 0.792599
174.557632 71.307129 4.918702 0.571420
174.557587 71.307213 4.379426 0.524437
174.557556 71.307274 3.845352 0.535042
174.557510 71.307343 3.315281 0.521279
174.557480 71.307388 2.788043 0.518791
174.574966 71.277542 2.261928 0.699504
174.574966 71.277542 1.738073 0.678431
174.574966 71.277542 1.213656 0.678431
174.574966 71.277542 0.687550 0.678431
174.557465 71.307419 0.154629 0.582910
175.850418 69.100159 -0.000007 0.541314
177.109604 66.950531 -0.000005 0.512444
177.984787 65.456474 -0.000004 0.576806
178.629578 64.355713 -0.000003 0.495308
174.703949 71.277542 5.993162 0.678431
174.703949 71.277542 5.443055 0.678431
174.703949 71.277534 4.900671 0.678431
174.703949 71.277542 4.364713 0.660151
174.686813 71.307266 3.837879 0.686458
174.686783 71.307327 3.309955 0.519783
174.686737 71.307388 2.784853 0.550301
174.703949 71.277542 2.260867 0.720592
174.703949 71.277542 1.739133 0.678431
174.703949 71.277542 1.216839 0.678431
174.703949 71.277542 0.692863 0.678431
174.686722 71.307419 0.162099 0.697108
175.931808 69.147446 -0.000007 0.541436
177.175949 66.989090 -0.000005 0.564141
178.040680 65.488953 -0.000004 0.545327
178.677765 64.383720 -0.000004 0.549294
174.831894 71.277542 5.977254 0.678431
174.831894 71.277542 5.429338 0.678431
174.831894 71.277542 4.889116 0.678431
174.831894 71.277542 4.355292 0.662257
174.815033 71.307266 3.830558 0.668208
174.815002 71.307320 3.304735 0.613397
174.814972 71.307373 2.781725 0.518273
174.831894 71.277542 2.259827 0.720592
174.831894 71.277542 1.740172 0.678431
174.831894 71.277542 1.219959 0.678431
174.831894 71.277542 0.698071 0.678431
174.814957 71.307419 0.169421 0.640513
176.013519 69.194168 -0.000007 0.579126
177.242569 67.027184 -0.000005 0.557885
178.096802 65.521042 -0.000004 0.529320
178.726166 64.411392 -0.000004 0.524514
174.958832 71.277542 5.961663 0.678431
174.958832 71.277542 5.415895 0.678431
174.958832 71.277542 4.877790 0.678431
174.989624 71.222359 4.336686 0.483635
174.942245 71.307274 3.823384 0.661677
174.942215 71.307327 3.299622 0.603540
174.942184 71.307381 2.778661 0.546975
174.989624 71.222359 2.257775 0.462638
174.989624 71.222359 1.742225 0.632700
174.989624 71.222359 1.226122 0.622522
174.989624 71.222359 0.708356 0.576242
174.942154 71.307419 0.176597 0.574685
176.095551 69.240326 -0.000007 0.558877
177.309448 67.064804 -0.000005 0.518166
178.153137 65.552742 -0.000005 0.551766
178.774734 64.438721 -0.000004 0.533455
175.084778 71.277542 5.946387 0.678431
175.084793 71.277542 5.402723 0.678431
175.084793 71.277542 4.866694 0.678431
175.115067 71.222366 4.327677 0.517647
175.068466 71.307274 3.816353 0.712139
175.068436 71.307335 3.294611 0.708232
175.068405 71.307388 2.775659 0.581704
175.068390 71.307426 2.258369 0.533822
175.068390 71.307426 1.741631 0.708827
175.068390 71.307426 1.224339 0.693507
175.068390 71.307426 0.705380 0.498344
175.068390 71.307426 0.183628 0.606134
176.177917 69.285904 -0.000007 0.570138
177.376587 67.101959 -0.000006 0.548486
178.209702 65.584045 -0.000004 0.513802
178.823517 64.465714 -0.000004 0.516243
175.209778 71.277542 5.931418 0.678431
175.209778 71.277542 5.389817 0.678431
175.209778 71.277542 4.855820 0.678431
175.239563 71.222366 4.318849 0.502388
175.193726 71.307281 3.809464 0.604486
175.193695 71.307343 3.289702 0.680064
175.193665 71.307388 2.772717 0.614649
175.193649 71.307419 2.257389 0.562997
175.193649 71.307419 1.742611 0.686336
175.193649 71.307419 1.227281 0.663661
175.193649 71.307419 0.710291 0.532433
175.193649 71.307426 0.190517 0.547707
176.260590 69.330902 -0.000007 0.529625
177.443985 67.138649 -0.000005 0.520562
178.266495 65.614952 -0.000005 0.587274
178.872467 64.492363 -0.000003 0.541070
175.333832 71.277542 5.916754 0.678431
175.333832 71.277542 5.377172 0.678431
175.333832 71.277534 4.845168 0.678431
175.363113 71.222366 4.310198 0.469642
175.318039 71.307281 3.802714 0.550515
175.318008 71.307343 3.284891 0.621790
175.317978 71.307404 2.769835 0.618784
175.317963 71.307419 2.256429 0.686213
175.317963 71.307419 1.743571 0.711528
175.317963 71.307419 1.230164 0.768002
175.317963 71.307419 0.715101 0.517647
175.317963 71.307419 0.197267 0.517800
176.343567 69.375328 -0.000007 0.564355
177.511642 67.174866 -0.000005 0.507424
178.323486 65.645462 -0.000004 0.515755
178.921616 64.518669 -0.000004 0.549279
175.456970 71.277542 5.902387 0.678431
175.456970 71.277542 5.364785 0.678431
175.456970 71.277542 4.834731 0.678431
175.485764 71.222366 4.301724 0.482979
175.441452 71.307281 3.796102 0.518166
175.441406 71.307350 3.280178 0.598428
175.441376 71.307404 2.767012 0.725521
175.441376 71.307419 2.255488 0.646494
175.441376 71.307419 1.744512 0.713436
175.441376 71.307419 1.232987 0.749218
175.441376 71.307426 0.719814 0.518624
175.441376 71.307419 0.203880 0.550912
176.426865 69.419174 -0.000007 0.537194
177.579544 67.210609 -0.000006 0.544244
178.380692 65.675575 -0.000005 0.527077
178.970947 64.544632 -0.000003 0.590082
175.579208 71.277542 5.888314 0.678431
175.579208 71.277542 5.352652 0.707012
175.579208 71.277542 4.824510 0.679118
175.607513 71.222366 4.293424 0.483360
175.563950 71.307281 3.789625 0.584710
175.563919 71.307350 3.275562 0.605524
175.563873 71.307411 2.764246 0.722560
175.566086 71.303123 2.254488 0.639979
175.566086 71.303123 1.745512 0.734157
175.566086 71.303123 1.235990 0.610025
175.566086 71.303123 0.724827 0.549752
175.566086 71.303123 0.210912 0.687495
176.510468 69.462433 -0.000007 0.533837
177.647690 67.245880 -0.000006 0.559274
178.438110 65.705284 -0.000004 0.568368
179.020447 64.570251 -0.000004 0.496452
175.700577 71.277542 5.874531 0.678431
175.700577 71.277542 5.340767 0.678431
175.700577 71.277542 4.814497 0.678431
175.728394 71.222366 4.285294 0.449210
175.685577 71.307281 3.783281 0.588006
175.685547 71.307350 3.271040 0.520592
175.685516 71.307411 2.761537 0.759152
175.566086 71.544250 2.258005 0.548699
175.566086 71.544250 1.741995 0.592538
175.566086 71.544250 1.225432 0.673182
175.566086 71.544250 0.707204 0.524529
175.566086 71.544250 0.186188 0.576288
176.594360 69.505112 -0.000008 0.543984
177.716095 67.280663 -0.000006 0.533288
178.495728 65.734596 -0.000005 0.528435
179.070129 64.595528 -0.000004 0.553262
175.821091 71.277542 5.861032 0.678431
175.821091 71.277542 5.329127 0.678431
175.821091 71.277542 4.804691 0.678431
175.837265 71.244896 4.281063 0.522240
175.806351 71.307274 3.777068 0.697292
175.806320 71.307350 3.266612 0.521202
175.806290 71.307411 2.758884 0.678935
175.566086 71.792145 2.261633 0.518074
175.566086 71.792145 1.738367 0.572168
175.566086 71.792145 1.214539 0.602167
175.566086 71.792145 0.689023 0.668788
175.566086 71.792145 0.160679 0.670817
176.678558 69.547195 -0.000008 0.579232
177.784729 67.314980 -0.000006 0.551263
178.553558 65.763504 -0.000005 0.557977
179.119995 64.620453 -0.000004 0.522972
175.940781 71.277542 5.847814 0.678431
175.940781 71.277542 5.317731 0.678431
175.940781 71.277542 4.795090 0.678431
175.926392 71.307106 4.283516 0.522957
175.926300 71.307266 3.770983 0.747356
175.926270 71.307350 3.262276 0.580285
175.926239 71.307411 2.756286 0.714015
175.566086 72.047127 2.265378 0.549020
175.566086 72.047127 1.734621 0.549020
175.566086 72.047127 1.203295 0.549111
175.566086 72.047127 0.670258 0.522805
175.566086 72.047134 0.134351 0.554696
176.763046 69.588699 -0.000007 0.539940
177.853607 67.348808 -0.000006 0.510506
178.611588 65.792007 -0.000005 0.569757
179.170029 64.645027 -0.000003 0.578561
176.059662 71.277542 5.834873 0.678431
176.059662 71.277534 5.306571 0.678431
176.059662 71.277542 4.785689 0.678431
176.045517 71.307091 4.275834 0.519295
176.045441 71.307259 3.765026 0.635294
176.045395 71.307350 3.258031 0.563745
176.045364 71.307419 2.753742 0.667475
175.566086 72.309532 2.269245 0.585016
175.566086 72.309532 1.730754 0.593820
175.566086 72.309532 1.191685 0.556573
175.566086 72.309532 0.650880 0.614740
175.566086 72.309532 0.107163 0.684153
176.847824 69.629608 -0.000008 0.564111
177.922714 67.382156 -0.000006 0.529610
178.669800 65.820099 -0.000005 0.533959
179.220230 64.669250 -0.000004 0.535821
176.177750 71.277534 5.822204 0.678431
176.177734 71.277542 5.295649 0.678431
176.177734 71.277542 4.776486 0.678431
176.163864 71.307083 4.268315 0.555535
176.163788 71.307251 3.759193 0.612009
176.163742 71.307350 3.253875 0.555810
176.163712 71.307419 2.751252 0.580316
175.636887 72.428978 2.270516 0.577996
175.636887 72.428978 1.729484 0.517647
175.636887 72.428978 1.187872 0.517647
175.636887 72.428978 0.644516 0.654902
175.636887 72.428978 0.098235 0.506889
176.932877 69.669930 -0.000008 0.547570
177.992050 67.415031 -0.000006 0.601709
178.728226 65.847794 -0.000005 0.535134
179.270599 64.693123 -0.000004 0.545983
176.295059 71.277534 5.809802 0.678431
176.295059 71.277534 5.284956 0.678431
176.295059 71.277542 4.767478 0.678431
176.281433 71.307076 4.260954 0.693568
176.281357 71.307236 3.753485 0.518730
176.281296 71.307358 3.249807 0.572854
176.281281 71.307419 2.748816 0.525872
175.764008 72.428909 2.269637 0.552605
175.764008 72.428909 1.730363 0.549020
175.764008 72.428909 1.190511 0.549020
175.764008 72.428909 0.648919 0.676478
175.764008 72.428909 0.104413 0.661250
177.018219 69.709648 -0.000008 0.510628
178.061615 67.447411 -0.000006 0.518044
178.786835 65.875076 -0.000005 0.531853
179.321136 64.716644 -0.000004 0.514244
176.414597 71.270966 5.795859 0.772122
176.414597 71.270966 5.272933 0.830808
176.414597 71.270958 4.757348 0.685618
176.398239 71.307068 4.253751 0.685618
176.398163 71.307228 3.747898 0.572427
176.398117 71.307350 3.245826 0.771252
176.398087 71.307419 2.746430 0.551385
175.890320 72.428848 2.268777 0.561120
175.890320 72.428848 1.731223 0.549020
175.890320 72.428848 1.193093 0.529656
175.890320 72.428848 0.653229 0.580392
175.890320 72.428848 0.110460 0.690776
177.103821 69.748772 -0.000008 0.523995
178.131409 67.479309 -0.000006 0.546120
178.845627 65.901947 -0.000005 0.528862
179.371826 64.739822 -0.000004 0.556008
176.514435 71.306786 5.793808 0.588495
176.514404 71.306870 5.271186 0.517388
176.514359 71.306961 4.755895 0.581292
176.514313 71.307068 4.246703 0.628763
176.514252 71.307220 3.742431 0.566934
176.514191 71.307358 3.241930 0.771252
176.514160 71.307419 2.744096 0.596307
176.015823 72.428787 2.267935 0.587228
176.015823 72.428787 1.732065 0.599374
176.015823 72.428780 1.195620 0.522148
176.015823 72.428780 0.657446 0.574792
176.015823 72.428780 0.116376 0.674296
177.189713 69.787292 -0.000008 0.529580
178.201431 67.510712 -0.000006 0.552163
178.904617 65.928406 -0.000005 0.508782
179.422684 64.762634 -0.000004 0.519265
176.629807 71.306770 5.782164 0.689158
176.629761 71.306862 5.261146 0.686427
176.629730 71.306946 4.747435 0.556191
176.629669 71.307068 4.239809 0.640070
176.629608 71.307213 3.737083 0.562325
176.629547 71.307358 3.238120 0.779553
176.629517 71.307419 2.741813 0.561257
176.140549 72.428719 2.267112 0.549020
176.140549 72.428719 1.732888 0.579614
176.140549 72.428726 1.198091 0.570245
176.140549 72.428726 0.661571 0.573159
176.140549 72.428719 0.122164 0.674296
177.275864 69.825226 -0.000008 0.541604
178.271667 67.541634 -0.000006 0.543969
178.963776 65.954453 -0.000005 0.516793
179.473709 64.785095 -0.000004 0.537865
176.744461 71.306763 5.770773 0.590875
176.744415 71.306847 5.251324 0.623713
176.744385 71.306946 4.739163 0.660883
176.744324 71.307068 4.233065 0.758663
176.744263 71.307205 3.731852 0.527352
176.744202 71.307358 3.234391 0.600824
176.744171 71.307419 2.739579 0.726131
176.264526 72.428658 2.266307 0.549020
176.264526 72.428658 1.733694 0.564797
176.264526 72.428658 1.200510 0.573144
176.264526 72.428658 0.665607 0.580392
176.264526 72.428658 0.127826 0.660197
177.362274 69.862549 -0.000008 0.541161
178.342102 67.572060 -0.000006 0.519310
179.023132 65.980087 -0.000005 0.529335
179.524872 64.807198 -0.000004 0.535607
176.858429 71.306747 5.759633 0.592432
176.858398 71.306839 5.241718 0.634073
176.858353 71.306946 4.731073 0.725032
176.858292 71.307068 4.226470 0.649760
176.858246 71.307198 3.726736 0.698970
176.858170 71.307358 3.230746 0.555993
176.858154 71.307419 2.737395 0.690898
176.423874 72.342529 2.263991 0.602640
176.423874 72.342529 1.736008 0.758083
176.423874 72.342529 1.207459 0.783337
176.423874 72.342529 0.677207 0.774136
176.423874 72.342529 0.144100 0.768811
177.448944 69.899269 -0.000008 0.526390
178.412766 67.601990 -0.000006 0.547082
179.082657 66.005310 -0.000005 0.545144
179.576202 64.828941 -0.000004 0.579232
176.971741 71.306732 5.748740 0.549020
176.971710 71.306824 5.232327 0.522515
176.971649 71.306946 4.723164 0.660029
176.971603 71.307068 4.220022 0.518929
176.971558 71.307190 3.721735 0.646250
176.971481 71.307350 3.227180 0.582147
176.971451 71.307419 2.735259 0.581857
176.545654 72.342529 2.263227 0.686763
176.524170 72.394760 1.735849 0.065003
176.524170 72.394760 1.206980 0.549020
176.524170 72.394760 0.676406 0.062745
176.524170 72.394760 0.142978 0.074510
177.535873 69.935379 -0.000008 0.544427
178.483627 67.631439 -0.000006 0.536553
179.142365 66.030113 -0.000005 0.535027
179.627686 64.850327 -0.000004 0.504631
177.084396 71.306725 5.738093 0.656992
177.084351 71.306824 5.223149 0.691920
177.084305 71.306946 4.715432 0.725628
177.084259 71.307068 4.213719 0.603113
177.084213 71.307190 3.716846 0.602777
177.084152 71.307343 3.223696 0.697185
177.084122 71.307426 2.733172 0.521324
176.666733 72.342529 2.262479 0.695628
176.628296 72.437843 1.735839 0.269734
176.628296 72.437843 1.206949 0.202152
176.645676 72.394768 0.680164 0.116304
176.645676 72.394760 0.148250 0.090791
177.623047 69.970886 -0.000008 0.530358
178.554703 67.660385 -0.000006 0.531029
179.202225 66.054497 -0.000005 0.542840
179.679306 64.871353 -0.000004 0.558679
177.196426 71.306709 5.727687 0.806149
177.196381 71.306831 5.214180 0.663310
177.196335 71.306946 4.707875 0.686030
177.196289 71.307068 4.207558 0.583749
177.196243 71.307190 3.712068 0.644831
177.196182 71.307327 3.220289 0.601480
177.196136 71.307426 2.731131 0.519799
176.787140 72.342529 2.261749 0.695628
176.750549 72.435143 1.736621 0.431128
176.750549 72.435135 1.209299 0.283070
176.766495 72.394768 0.683837 0.120470
176.766510 72.394760 0.153404 0.107301
177.710464 70.005783 -0.000008 0.545708
178.625961 67.688828 -0.000006 0.540032
179.262268 66.078461 -0.000005 0.522026
179.731079 64.892021 -0.000004 0.544213
177.307831 71.306709 5.717521 0.583947
177.307785 71.306831 5.205417 0.610468
177.307739 71.306953 4.700492 0.552850
177.307693 71.307068 4.201539 0.714611
177.307648 71.307190 3.707399 0.549172
177.307587 71.307320 3.216961 0.551843
177.307556 71.307419 2.729137 0.550698
176.906876 72.342529 2.261035 0.611765
176.871033 72.435135 1.737339 0.493874
176.871033 72.435135 1.211455 0.336049
176.886658 72.394768 0.687426 0.103670
176.886658 72.394768 0.158438 0.107103
177.798126 70.040070 -0.000008 0.527871
178.697433 67.716782 -0.000007 0.552056
179.322479 66.102013 -0.000005 0.577005
179.782990 64.912323 -0.000004 0.542504
177.418640 71.306709 5.707594 0.673625
177.418594 71.306831 5.196856 0.684871
177.418549 71.306953 4.693279 0.520653
177.418503 71.307068 4.195659 0.777691
177.418457 71.307190 3.702840 0.694133
177.418411 71.307312 3.213710 0.550668
177.475937 71.155533 2.719211 0.664988
177.025986 72.342529 2.260339 0.611765
177.006180 72.394768 1.738748 0.088930
177.006180 72.394768 1.215682 0.031373
177.006180 72.394768 0.690932 0.120500
177.006180 72.394760 0.163358 0.114977
177.886032 70.073738 -0.000008 0.529290
178.769089 67.744232 -0.000006 0.547448
179.382843 66.125137 -0.000005 0.559030
179.835037 64.932259 -0.000005 0.546944
177.528854 71.306709 5.697897 0.563867
177.528809 71.306831 5.188496 0.623774
177.528763 71.306953 4.686236 0.548730
177.528717 71.307068 4.189917 0.628016
177.528671 71.307190 3.698386 0.548577
177.528641 71.307304 3.210536 0.607706
177.585373 71.154434 2.717272 0.662440
177.144455 72.342529 2.259657 0.596551
177.110077 72.435143 1.738726 0.589532
177.110077 72.435143 1.215618 0.316014
177.125061 72.394768 0.694355 0.118349
177.125061 72.394760 0.168160 0.129412
177.974152 70.106804 -0.000009 0.545388
178.840942 67.771179 -0.000007 0.558694
179.443375 66.147842 -0.000005 0.532433
179.887238 64.951836 -0.000004 0.485222
177.638504 71.306709 5.688433 0.531899
177.638458 71.306831 5.180334 0.647501
177.638412 71.306953 4.679360 0.574670
177.638367 71.307076 4.184311 0.642100
177.638336 71.307190 3.694039 0.517647
177.638290 71.307312 3.207437 0.572778
177.694199 71.153358 2.715380 0.635294
177.262299 72.342529 2.258993 0.600519
177.228668 72.435135 1.739395 0.525811
177.228668 72.435135 1.217626 0.280613
177.243332 72.394768 0.697697 0.127611
177.243332 72.394768 0.172849 0.105882
178.062515 70.139244 -0.000009 0.524758
178.912979 67.797630 -0.000006 0.508507
179.504059 66.170120 -0.000005 0.553719
179.939560 64.971054 -0.000004 0.524147
177.747604 71.306709 5.679193 0.521263
177.747559 71.306839 5.172368 0.523598
177.747513 71.306953 4.672649 0.753567
177.747467 71.307076 4.178840 0.693385
177.747437 71.307190 3.689795 0.556466
177.747391 71.307304 3.204412 0.619165
177.747345 71.307426 2.721620 0.547250
177.379562 72.342529 2.258344 0.627359
177.361008 72.394760 1.740749 0.115572
177.361008 72.394760 1.221690 0.076204
177.361008 72.394768 0.700960 0.087251
177.361008 72.394768 0.177427 0.106844
178.151108 70.171066 -0.000009 0.525872
178.985184 67.823570 -0.000007 0.528771
179.564911 66.191978 -0.000006 0.517891
179.992020 64.989899 -0.000005 0.507088
177.856155 71.306717 5.670179 0.742779
177.856110 71.306839 5.164595 0.542779
177.856079 71.306953 4.666100 0.721935
177.856033 71.307076 4.173502 0.517723
177.855988 71.307190 3.685655 0.553063
177.855957 71.307304 3.201462 0.530465
177.855911 71.307426 2.719852 0.560388
177.496246 72.342529 2.257711 0.694423
177.496246 72.342529 1.742289 0.992157
177.496246 72.342529 1.226314 0.967117
177.496246 72.342529 0.708677 0.949706
177.496246 72.342529 0.188253 0.949020
178.239914 70.202271 -0.000009 0.545586
179.057587 67.849014 -0.000006 0.558923
179.625900 66.213409 -0.000005 0.549233
180.044601 65.008377 -0.000005 0.541619
177.964188 71.306717 5.661387 0.646952
177.964142 71.306839 5.157014 0.698299
177.964096 71.306953 4.659714 0.677577
177.964066 71.307076 4.168295 0.518105
177.964020 71.307190 3.681617 0.661051
177.963989 71.307304 3.198584 0.596262
177.963943 71.307419 2.718127 0.661631
177.583374 72.427856 2.258569 0.705806
177.583420 72.427734 1.741434 0.791943
177.583466 72.427620 1.223752 0.797253
177.583496 72.427513 0.704411 0.564782
177.583527 72.427399 0.182282 0.533089
178.328934 70.232857 -0.000009 0.499123
179.130157 67.873947 -0.000007 0.545480
179.687042 66.234413 -0.000005 0.517433
180.097321 65.026489 -0.000005 0.543496
177.988785 71.556549 5.718753 0.743755
177.988785 71.556541 5.206447 0.598764
177.988785 71.556534 4.701334 0.581369
177.988800 71.556526 4.202206 0.675700
177.988800 71.556519 3.707901 0.705989
177.988800 71.556511 3.217306 0.550469
177.988800 71.556503 2.729338 0.626490
177.699646 72.427750 2.257961 0.517647
177.699692 72.427620 1.742041 0.585412
177.699722 72.427490 1.225577 0.740307
177.699768 72.427383 0.707456 0.533516
177.699799 72.427269 0.186554 0.533089
178.418167 70.262817 -0.000009 0.556695
179.202896 67.898369 -0.000007 0.561883
179.748322 66.254997 -0.000006 0.536461
180.150162 65.044228 -0.000005 0.580575
177.988785 71.892654 5.798748 0.543801
177.988785 71.892670 5.275426 0.550546
177.988785 71.892677 4.759452 0.534691
177.988785 71.892662 4.249583 0.636255
177.988785 71.892654 3.744645 0.646784
177.988785 71.892647 3.243495 0.645991
177.988800 71.892639 2.745030 0.540902
177.815369 72.427650 2.257369 0.517647
177.815414 72.427513 1.742633 0.596994
177.815460 72.427383 1.227354 0.708919
177.815491 72.427254 0.710424 0.535103
177.815536 72.427139 0.190718 0.560952
178.507599 70.292152 -0.000008 0.546654
179.275818 67.922287 -0.000007 0.549981
179.809753 66.275146 -0.000005 0.529992
180.203125 65.061607 -0.000005 0.533089
177.988800 72.243553 5.882454 0.633875
177.988785 72.243561 5.347601 0.616098
177.988785 72.243568 4.820256 0.661631
177.988785 72.243576 4.299156 0.706676
177.988785 72.243584 3.783092 0.623606
177.988785 72.243591 3.270900 0.642786
177.988785 72.243584 2.761449 0.692638
177.930573 72.427544 2.256793 0.549020
177.930603 72.427414 1.743210 0.613672
177.930649 72.427277 1.229085 0.782956
177.930695 72.427139 0.713313 0.597223
177.930740 72.427010 0.194775 0.586526
178.597244 70.320869 -0.000009 0.503960
179.348892 67.945694 -0.000007 0.537881
179.871323 66.294868 -0.000006 0.540642
180.256210 65.078613 -0.000005 0.548913
177.988800 72.610291 5.970133 0.711055
177.988800 72.610283 5.423196 0.584680
177.988800 72.610291 4.883944 0.521889
177.988785 72.610298 4.351076 0.551949
177.988785 72.610306 3.823359 0.582177
177.988785 72.610321 3.299600 0.542885
177.988785 72.610329 2.778646 0.517647
177.988785 72.610321 2.259363 0.549020
177.988785 72.610321 1.740637 0.582254
177.988785 72.610313 1.221355 0.682277
177.988785 72.610306 0.700400 0.584604
177.988800 72.610291 0.176643 0.660609
178.687088 70.348953 -0.000009 0.550500
179.422134 67.968597 -0.000007 0.551659
179.933029 66.314156 -0.000006 0.540688
180.309418 65.095245 -0.000005 0.562310
177.988800 72.993988 6.062065 0.530205
177.988800 72.993980 5.502464 0.597192
177.988800 72.993973 4.950721 0.684413
177.988800 72.993980 4.405515 0.619425
177.988800 72.993988 3.865578 0.620249
177.988800 72.993996 3.329692 0.739345
177.988785 72.994011 2.796675 0.704982
177.988785 72.994019 2.265369 0.710994
177.988785 72.994011 1.734631 0.632349
177.988800 72.993996 1.203326 0.614832
177.988800 72.993988 0.670309 0.617975
177.988800 72.994003 0.134421 0.557168
178.777115 70.376419 -0.000009 0.563302
179.495529 67.990982 -0.000007 0.553307
179.994858 66.333015 -0.000006 0.549142
180.362732 65.111504 -0.000005 0.554376
177.988800 73.395905 6.158563 0.632364
177.988800 73.395897 5.585670 0.518669
177.988800 73.395889 5.020819 0.700786
177.988800 73.395874 4.462657 0.605402
177.988800 73.395889 3.909894 0.617060
177.988800 73.395897 3.361279 0.588418
177.988800 73.395912 2.815600 0.544427
177.988800 73.395920 2.271673 0.560555
177.988800 73.395905 1.728327 0.692317
177.988800 73.395905 1.184400 0.593179
177.988800 73.395920 0.638719 0.635676
177.988785 73.395927 0.090100 0.493019
178.867340 70.403244 -0.000009 0.544808
179.569092 68.012848 -0.000007 0.543984
180.056824 66.351440 -0.000006 0.545632
180.416168 65.127388 -0.000005 0.572793
177.988800 73.817398 6.259972 0.574655
177.988800 73.817390 5.673107 0.561013
177.988800 73.817383 5.094482 0.589014
177.988800 73.817375 4.522710 0.652125
177.988815 73.817368 3.956466 0.638102
177.988800 73.817368 3.394472 0.570520
177.988800 73.817383 2.835488 0.721950
177.988800 73.817406 2.278298 0.552895
177.988800 73.817390 1.721703 0.654246
177.988800 73.817406 1.164511 0.607187
177.988800 73.817421 0.605523 0.565484
177.988785 73.817444 0.043525 0.552300
178.957764 70.429443 -0.000009 0.558633
179.642792 68.034210 -0.000007 0.545693
180.118912 66.369438 -0.000006 0.547601
180.469711 65.142906 -0.000005 0.548012
177.988800 74.259987 6.366667 0.535943
177.988800 74.259979 5.765103 0.640299
177.988800 74.259972 5.171986 0.619989
177.988815 74.259956 4.585894 0.622187
177.988815 74.259949 4.005467 0.604608
177.988815 74.259933 3.429396 0.585748
177.988815 74.259949 2.856412 0.517647
177.988800 74.259979 2.285267 0.639658
177.988800 74.259987 1.714732 0.711986
177.988800 74.260010 1.143585 0.723857
177.988785 74.260025 0.570596 0.519692
178.001526 74.214264 -0.000012 0.533761
179.048340 70.455009 -0.000009 0.541283
179.716644 68.055054 -0.000007 0.556573
180.181137 66.386993 -0.000006 0.554009
180.523346 65.158043 -0.000005 0.534737
177.988800 74.725342 6.479069 0.621241
177.988800 74.725327 5.862019 0.660883
177.988800 74.725319 5.253635 0.554482
177.988815 74.725311 4.652456 0.756008
177.988815 74.725296 4.057089 0.717678
177.988815 74.725288 3.466190 0.678630
178.102219 74.306740 2.857153 0.533944
178.102219 74.306755 2.285513 0.258900
178.102234 74.306671 1.714488 0.647059
178.102264 74.306587 1.142855 0.647059
178.102295 74.306503 0.569386 0.599222
178.118561 74.246422 -0.000012 0.534188
179.139114 70.479950 -0.000009 0.549035
179.790634 68.075378 -0.000007 0.531838
180.243469 66.404121 -0.000006 0.541573
180.577103 65.172806 -0.000005 0.543465
177.988800 75.215302 6.597637 0.610269
177.988800 75.215286 5.964254 0.594675
177.988815 75.215279 5.339765 0.623758
177.988815 75.215271 4.722672 0.577050
177.988815 75.215248 4.111544 0.747951
177.988815 75.215256 3.505002 0.522622
178.228195 74.306732 2.855555 0.543999
178.228180 74.306747 2.284982 0.282490
178.228195 74.306679 1.715019 0.675105
178.228226 74.306595 1.144452 0.666667
178.228241 74.306511 0.572052 0.608682
178.228271 74.306427 -0.003423 0.069245
179.230042 70.504242 -0.000009 0.513008
179.864777 68.095192 -0.000007 0.534951
180.305939 66.420807 -0.000006 0.520638
180.630951 65.187202 -0.000005 0.548974
177.988800 75.731949 6.722894 0.634195
177.988815 75.731934 6.072255 0.653666
177.988815 75.731918 5.430751 0.669673
177.988815 75.731911 4.796847 0.646204
177.988815 75.731903 4.169070 0.724956
177.988815 75.731895 3.546006 0.519295
178.353699 74.306732 2.854005 0.545220
178.353683 74.306747 2.284465 0.284108
178.353699 74.306686 1.715536 0.674205
178.353729 74.306602 1.146002 0.666667
178.353745 74.306519 0.574638 0.607080
178.353775 74.306435 0.000206 0.094118
179.321152 70.527908 -0.000009 0.535988
179.939041 68.114479 -0.000007 0.554101
180.368500 66.437057 -0.000006 0.558465
180.684906 65.201218 -0.000005 0.553841
177.988800 76.277542 6.855407 0.580499
177.988815 76.277527 6.186512 0.689342
177.988815 76.277512 5.527010 0.561669
177.988815 76.277504 4.875320 0.553033
177.988815 76.277504 4.229930 0.593362
177.988815 76.277496 3.589383 0.584588
178.478745 74.306732 2.852502 0.516991
178.478745 74.306732 2.283964 0.305287
178.478760 74.306694 1.716036 0.672084
178.478775 74.306610 1.147504 0.666667
178.478790 74.306526 0.577146 0.466178
178.478821 74.306442 0.003724 0.116640
179.412415 70.550934 -0.000009 0.501167
180.013443 68.133255 -0.000007 0.506416
180.431183 66.452881 -0.000006 0.543145
180.738953 65.214851 -0.000005 0.513787
177.988815 76.854675 6.995822 0.580423
177.988815 76.854668 6.307585 0.635294
177.988815 76.854652 5.629009 0.543816
177.988815 76.854645 4.958474 0.686458
177.988815 76.854645 4.294419 0.587701
177.988815 76.854637 3.635348 0.652796
178.603363 74.306732 2.851046 0.499306
178.603363 74.306725 2.283479 0.313603
178.603378 74.306702 1.716521 0.670542
178.603394 74.306618 1.148960 0.666667
178.603409 74.306534 0.579576 0.609216
178.603439 74.306442 0.007134 0.160784
179.503845 70.573334 -0.000010 0.543969
180.087982 68.151505 -0.000007 0.549523
180.493973 66.468254 -0.000006 0.545434
180.793091 65.228111 -0.000005 0.554162
178.057602 77.172028 7.069182 0.654658
177.988815 77.466202 6.436091 0.606531
177.988815 77.466202 5.737274 0.567315
177.988815 77.466194 5.046734 0.591379
177.988815 77.466187 4.362868 0.571298
177.988815 77.466187 3.684134 0.674006
178.727570 74.306732 2.849636 0.549020
178.727570 74.306717 2.283009 0.321202
178.727570 74.306717 1.716991 0.666667
178.727600 74.306625 1.150370 0.678126
178.727615 74.306534 0.581929 0.611765
178.727631 74.306458 0.010434 0.099046
179.595428 70.595078 -0.000010 0.533333
180.162643 68.169243 -0.000008 0.567895
180.556885 66.483192 -0.000006 0.526238
180.847336 65.240990 -0.000005 0.549859
178.151001 77.399239 7.119400 0.654902
177.988815 78.115387 6.572730 0.666438
177.988815 78.115387 5.852388 0.607614
177.988815 78.115379 5.140578 0.670390
177.988815 78.115372 4.435650 0.641627
177.988815 78.115364 3.736009 0.678645
178.851364 74.306732 2.848272 0.517647
178.851364 74.306717 2.282555 0.295033
178.851364 74.306717 1.717445 0.666896
178.851379 74.306633 1.151733 0.689509
178.851410 74.306549 0.584205 0.652201
178.851425 74.306465 0.013627 0.101869
179.687164 70.616196 -0.000010 0.556390
180.237427 68.186455 -0.000008 0.549661
180.619873 66.497696 -0.000006 0.546914
180.901657 65.253494 -0.000005 0.551049
178.246414 77.630402 7.170721 0.656275
175.215256 91.462334 9.516691 0.365393
175.197723 91.542336 8.347493 0.678431
175.215256 91.462326 7.162513 0.404166
175.197723 91.542328 6.013166 0.678431
175.215256 91.462326 4.853669 0.392859
178.974762 74.306732 2.846953 0.524987
178.974777 74.306702 2.282115 0.319005
178.974777 74.306702 1.717884 0.666667
178.974792 74.306641 1.153051 0.689418
178.974808 74.306557 0.586404 0.657923
178.974823 74.306465 0.016714 0.135042
179.779037 70.636665 -0.000010 0.549294
180.312332 68.203140 -0.000008 0.562829
180.682983 66.511749 -0.000006 0.520699
180.956055 65.265617 -0.000005 0.571160
178.343857 77.865814 7.223223 0.649409
175.463608 91.462326 9.505392 0.423972
175.446671 91.542328 8.337952 0.678431
175.463608 91.462326 7.154751 0.406714
175.446655 91.542336 6.007133 0.678431
175.463608 91.462326 4.849380 0.392370
179.097794 74.306732 2.845680 0.546807
179.097809 74.306694 2.281691 0.317998
179.097809 74.306694 1.718309 0.672557
179.097824 74.306641 1.154324 0.668086
179.097839 74.306564 0.588529 0.659190
179.097855 74.306473 0.019694 0.135042
179.871048 70.656494 -0.000010 0.521447
180.387344 68.219307 -0.000008 0.530282
180.746170 66.525368 -0.000006 0.526497
181.010559 65.277359 -0.000005 0.549065
175.705490 91.490433 10.699092 0.289967
175.711243 91.462326 9.494491 0.413779
175.705490 91.490433 8.319106 0.290501
175.711243 91.462326 7.147265 0.392157
175.705490 91.490433 5.995218 0.291035
175.711227 91.462334 4.845241 0.408255
179.220459 74.306732 2.844452 0.580713
179.220474 74.306686 2.281282 0.316823
179.220474 74.306694 1.718718 0.666667
179.220474 74.306656 1.155552 0.678431
179.220490 74.306564 0.590578 0.659190
179.220520 74.306488 0.022570 0.149569
179.963211 70.675674 -0.000010 0.535515
180.462463 68.234947 -0.000008 0.537514
180.809464 66.538544 -0.000006 0.514382
181.065125 65.288719 -0.000005 0.542473
175.942368 91.542336 10.700150 0.678431
175.958160 91.462326 9.483986 0.357809
175.942368 91.542343 8.319876 0.678431
175.958160 91.462326 7.140049 0.398108
175.942368 91.542343 5.995705 0.678431
175.958160 91.462326 4.841253 0.413962
179.342773 74.306732 2.843268 0.616724
179.342789 74.306686 2.280888 0.322789
179.342789 74.306686 1.719112 0.690196
179.342789 74.306664 1.156735 0.709422
179.342804 74.306580 0.592553 0.659190
179.342819 74.306496 0.025340 0.159243
180.055496 70.694221 -0.000010 0.536294
180.537704 68.250061 -0.000008 0.509331
180.872849 66.551285 -0.000006 0.545739
181.119766 65.299698 -0.000005 0.560662
176.189194 91.542336 10.688396 0.678431
176.204391 91.462326 9.473875 0.349310
176.189194 91.542336 8.311336 0.678431
176.204391 91.462326 7.133103 0.368429
176.189194 91.542343 5.990305 0.678431
176.204391 91.462334 4.837414 0.377890
179.464752 74.306732 2.842128 0.802960
179.464767 74.306679 2.280508 0.321294
179.464767 74.306679 1.719492 0.698039
179.464767 74.306671 1.157874 0.699214
179.464783 74.306587 0.594455 0.659190
179.464798 74.306503 0.028007 0.160784
180.147903 70.712112 -0.000010 0.533318
180.613037 68.264648 -0.000008 0.558358
180.936325 66.563576 -0.000006 0.523964
181.174500 65.310303 -0.000005 0.573312
176.435349 91.542343 10.677097 0.678431
176.449982 91.462326 9.464152 0.431464
176.435349 91.542336 8.303127 0.678431
176.449982 91.462326 7.126428 0.397223
176.435349 91.542343 5.985116 0.678431
176.449982 91.462334 4.833724 0.423896
179.586411 74.306732 2.841033 0.676234
179.586426 74.306671 2.280143 0.313619
179.586426 74.306671 1.719857 0.678431
179.586426 74.306671 1.158970 0.699870
179.586441 74.306595 0.596282 0.654643
179.586456 74.306511 0.030571 0.149020
180.240433 70.729362 -0.000010 0.536934
180.688477 68.278717 -0.000008 0.534539
180.999878 66.575424 -0.000006 0.496742
181.229294 65.320518 -0.000005 0.533944
176.680893 91.542336 10.666246 0.678431
176.694946 91.462341 9.454822 0.393317
176.680893 91.542336 8.295246 0.678431
176.694946 91.462326 7.120019 0.392752
176.680893 91.542343 5.980133 0.678431
176.694946 91.462341 4.830180 0.439887
179.707764 74.306732 2.839982 0.648096
179.707779 74.306664 2.279792 0.312612
179.707779 74.306664 1.720207 0.690196
179.707779 74.306664 1.160022 0.709804
179.707779 74.306602 0.598036 0.671031
179.707794 74.306511 0.033034 0.139742
180.333084 70.745972 -0.000010 0.518746
180.764008 68.292252 -0.000008 0.544823
181.063507 66.586823 -0.000006 0.551919
181.284164 65.330345 -0.000005 0.536995
176.925827 91.542328 10.655842 0.678431
176.939301 91.462334 9.445873 0.397269
176.925827 91.542343 8.287691 0.678431
176.939301 91.462326 7.113873 0.380606
176.925827 91.542336 5.975355 0.678431
176.939301 91.462334 4.826783 0.413504
179.828812 74.306717 2.838973 0.670680
179.828827 74.306656 2.279457 0.311421
179.828827 74.306656 1.720543 0.691630
179.828827 74.306648 1.161030 0.698039
179.828827 74.306610 0.599718 0.678431
179.828842 74.306519 0.035393 0.138231
180.425858 70.761932 -0.000010 0.526467
180.839630 68.305260 -0.000008 0.531182
181.127213 66.597786 -0.000006 0.533471
181.339096 65.339798 -0.000005 0.544488
177.170197 91.542328 10.645886 0.678431
177.183090 91.462341 9.437309 0.401465
177.170197 91.542336 8.280457 0.678431
177.183090 91.462326 7.107991 0.396841
177.170197 91.542336 5.970783 0.678431
177.183090 91.462341 4.823533 0.404440
179.949570 74.306717 2.838008 0.644053
179.949585 74.306648 2.279135 0.310414
179.949585 74.306648 1.720865 0.690196
179.949585 74.306648 1.161995 0.709804
179.949585 74.306618 0.601328 0.678431
179.949600 74.306534 0.037652 0.132845
180.518723 70.777237 -0.000010 0.558511
180.915344 68.317741 -0.000008 0.537957
181.191010 66.608299 -0.000006 0.546258
181.394104 65.348869 -0.000006 0.549340
177.421997 91.490433 10.623220 0.252186
177.426331 91.462334 9.429128 0.384237
177.421997 91.490433 8.263994 0.253635
177.426331 91.462334 7.102372 0.419608
177.421997 91.490433 5.960373 0.256535
177.426331 91.462334 4.820425 0.389731
180.070068 74.306709 2.837085 0.697643
180.070084 74.306641 2.278828 0.297246
180.070084 74.306641 1.721172 0.698039
180.070084 74.306641 1.162918 0.709804
180.070084 74.306625 0.602867 0.678431
180.070099 74.306534 0.039810 0.360693
180.611710 70.791901 -0.000010 0.547997
180.991150 68.329697 -0.000008 0.550973
181.254868 66.618370 -0.000006 0.536507
181.449158 65.357552 -0.000006 0.525887
177.669052 91.462341 10.607052 0.400870
177.669052 91.462326 9.421324 0.388907
177.657288 91.542343 8.266959 0.678431
177.669052 91.462326 7.097012 0.410285
177.657288 91.542336 5.962247 0.678431
177.669052 91.462334 4.817463 0.401968
180.190308 74.306702 2.836205 0.703700
180.190308 74.306625 2.278535 0.295216
180.190308 74.306625 1.721465 0.698039
180.190308 74.306625 1.163798 0.709804
180.190308 74.306633 0.604333 0.663630
180.190323 74.306549 0.041868 0.324453
180.704788 70.805916 -0.000010 0.515923
181.067032 68.341118 -0.000008 0.541314
181.318787 66.627998 -0.000007 0.559976
181.504288 65.365845 -0.000005 0.561135
177.911270 91.462334 10.598439 0.413489
177.911270 91.462326 9.413898 0.406714
177.900085 91.542343 8.260688 0.678431
177.911270 91.462326 7.091912 0.387152
177.900085 91.542343 5.958284 0.678431
177.911270 91.462334 4.814644 0.390707
180.310287 74.306694 2.835369 0.679591
180.310303 74.306625 2.278256 0.276005
180.310303 74.306625 1.721744 0.698039
180.310303 74.306625 1.164635 0.709804
180.310303 74.306625 0.605730 0.663081
180.310303 74.306557 0.043826 0.328923
180.797958 70.819275 -0.000010 0.546288
181.142990 68.352013 -0.000008 0.531868
181.382782 66.637169 -0.000007 0.563210
181.559464 65.373756 -0.000005 0.513878
178.153015 91.462341 10.590261 0.436408
178.153015 91.462334 9.406847 0.382513
178.142395 91.542343 8.254734 0.678431
178.153015 91.462326 7.087070 0.374884
178.142395 91.542336 5.954519 0.678431
178.153015 91.462326 4.811967 0.330755
180.430038 74.306686 2.834574 0.648493
180.430054 74.306618 2.277992 0.274830
180.430054 74.306618 1.722008 0.690196
180.430054 74.306610 1.165429 0.677058
180.430054 74.306618 0.607057 0.662440
180.430069 74.306557 0.045686 0.301472
180.891235 70.831985 -0.000010 0.543832
181.219025 68.362373 -0.000008 0.569085
181.446838 66.645905 -0.000007 0.551400
181.614685 65.381287 -0.000005 0.574044
178.394318 91.462341 10.582520 0.407843
178.394318 91.462341 9.400173 0.367422
178.390793 91.490425 8.239575 0.305028
178.394318 91.462326 7.082483 0.414420
178.390793 91.490425 5.944935 0.306020
178.394318 91.462326 4.809432 0.398291
180.549576 74.306671 2.833821 0.702724
180.549591 74.306610 2.277740 0.269734
180.549591 74.306610 1.722259 0.666712
180.549591 74.306610 1.166182 0.678431
180.549591 74.306610 0.608313 0.661799
180.549591 74.306564 0.047447 0.322057
180.984589 70.844048 -0.000010 0.556023
181.295120 68.372208 -0.000008 0.528069
181.510956 66.654182 -0.000007 0.524147
181.669968 65.388428 -0.000006 0.525902
178.635193 91.462341 10.575209 0.395041
178.635193 91.462341 9.393867 0.389944
178.625702 91.542336 8.243773 0.678431
178.635193 91.462326 7.078155 0.430777
178.625702 91.542336 5.947589 0.678431
178.635193 91.462334 4.807039 0.397696
180.668900 74.306671 2.833110 0.737102
180.668900 74.306602 2.277504 0.269001
180.668900 74.306602 1.722496 0.678431
180.668900 74.306602 1.166893 0.678431
180.668900 74.306602 0.609499 0.654902
180.668915 74.306572 0.049109 0.298360
181.078018 70.855453 -0.000010 0.540978
181.371292 68.381500 -0.000008 0.542031
181.575134 66.662018 -0.000007 0.544076
181.725311 65.395180 -0.000006 0.551293
178.875671 91.462341 10.568326 0.380850
178.875671 91.462326 9.387930 0.400626
178.866745 91.542343 8.238762 0.678431
178.875671 91.462326 7.074078 0.407431
178.866745 91.542343 5.944421 0.678431
178.875671 91.462334 4.804787 0.393668
180.788025 74.306671 2.832442 0.759991
180.788025 74.306595 2.277281 0.224704
180.788025 74.306595 1.722719 0.625437
180.788025 74.306595 1.167562 0.623529
180.788025 74.306595 0.610616 0.608743
180.788025 74.306580 0.050674 0.238239
181.171539 70.866211 -0.000010 0.550118
181.447525 68.390274 -0.000008 0.538903
181.639359 66.669403 -0.000007 0.554879
181.780685 65.401550 -0.000006 0.540612
179.115768 91.462341 10.561872 0.389105
179.115768 91.462334 9.382365 0.391974
179.107422 91.542343 8.234061 0.678431
179.115768 91.462326 7.070257 0.414878
179.107422 91.542328 5.941448 0.678431
179.115768 91.462341 4.802673 0.387579
180.906967 74.306656 2.831814 0.727733
180.906967 74.306595 2.277072 0.511986
180.906967 74.306587 1.722928 0.373312
180.906967 74.306587 1.168189 0.380423
180.906967 74.306587 0.611663 0.311452
180.906967 74.306587 0.052143 0.279881
181.265121 70.876312 -0.000010 0.543038
181.523819 68.398506 -0.000008 0.519478
181.703629 66.676346 -0.000007 0.553872
181.836105 65.407532 -0.000006 0.547295
179.355530 91.462341 10.555844 0.427970
179.355530 91.462334 9.377168 0.396078
179.352783 91.490448 8.220186 0.257145
179.355530 91.462326 7.066686 0.430701
179.352783 91.490448 5.932676 0.259281
179.355530 91.462341 4.800700 0.448218
180.950302 75.081436 2.869470 0.632792
180.950302 75.081383 2.289616 0.610040
180.950302 75.081383 1.710384 0.624842
180.950302 75.081375 1.130532 0.586023
180.950302 75.081383 0.548811 0.570260
180.980652 74.769676 -0.000013 0.539742
181.358765 70.885757 -0.000010 0.554299
181.600174 68.406212 -0.000008 0.567437
181.767944 66.682831 -0.000007 0.545663
181.891556 65.413124 -0.000006 0.548852
179.594955 91.462341 10.550240 0.417258
179.594955 91.462341 9.372338 0.398779
179.587723 91.542343 8.225594 0.678431
179.594955 91.462326 7.063369 0.421347
179.587738 91.542336 5.936095 0.678431
179.594955 91.462326 4.798866 0.432715
180.950302 76.455101 2.936659 0.645914
180.950302 76.455078 2.311996 0.657954
180.950302 76.455078 1.688004 0.653758
180.950302 76.455078 1.063341 0.630228
180.950302 76.455078 0.436666 0.596582
181.101486 74.781021 -0.000014 0.549905
181.452484 70.894547 -0.000010 0.526482
181.676575 68.413376 -0.000008 0.500572
181.832321 66.688873 -0.000007 0.526879
181.947067 65.418335 -0.000006 0.543145
179.834076 91.462341 10.545059 0.405127
179.834076 91.462334 9.367874 0.405310
179.827423 91.542336 8.221822 0.678431
179.834076 91.462334 7.060302 0.441459
179.827423 91.542343 5.933712 0.678431
179.834076 91.462341 4.797172 0.448676
180.950302 78.058960 3.015158 0.577600
180.950302 78.058960 2.338144 0.553857
180.950302 78.058960 1.661856 0.641291
180.950302 78.058960 0.984842 0.632441
180.950302 78.058960 0.305646 0.628611
181.222412 74.791519 -0.000014 0.551522
181.546265 70.902695 -0.000011 0.548089
181.753021 68.420013 -0.000008 0.552773
181.896729 66.694458 -0.000007 0.517220
