# This PCD file was generated using the MATLAB® pcwrite function
# from Computer Vision Toolbox®.
# .PCD v.7 - Point Cloud Data file format
VERSION .7
FIELDS x y z intensity
SIZE 4 4 4 4
TYPE F F F F
COUNT 1 1 1 1
WIDTH 1189
HEIGHT 1
VIEWPOINT 0 0 0 1 0 0 0
POINTS 1189
DATA ascii
141.415359 133.423523 2.602931 0.377981
141.415359 133.423523 1.397069 0.395956
141.415359 133.423523 0.189914 0.432502
149.780426 142.649048 -0.000017 0.546090
154.486862 147.839584 -0.000012 0.535485
157.108093 150.730423 -0.000009 0.523339
159.519882 153.390305 0.200004 0.671061
160.566666 154.544754 0.200006 0.759350
160.943771 154.960648 0.053043 0.691096
140.966431 133.315323 11.325067 0.678431
141.065918 133.423523 10.008680 0.405264
140.966431 133.315338 8.773818 0.678431
141.065918 133.423523 7.500412 0.429816
140.966431 133.315338 6.282708 0.678431
141.065918 133.423523 5.040450 0.398001
140.966431 133.315323 3.828882 0.678431
141.065918 133.423523 2.606786 0.445533
141.065918 133.423523 1.393213 0.433753
141.065918 133.423523 0.178339 0.407111
149.654678 142.763855 -0.000017 0.550668
154.397247 147.921417 -0.000012 0.549416
157.038574 150.793900 -0.000009 0.483101
159.468887 153.436874 0.200004 0.747616
160.523697 154.583984 0.200007 0.680140
160.867981 154.958405 0.039825 0.673228
140.652847 133.360123 11.370202 0.546807
140.711960 133.423523 10.060619 0.409979
140.612305 133.316650 8.817421 0.678431
140.711960 133.423523 7.536086 0.419379
140.612305 133.316650 6.310277 0.678431
140.711960 133.423523 5.060168 0.414878
140.612305 133.316650 3.840654 0.678431
140.711960 133.423523 2.610722 0.379461
140.711960 133.423523 1.389278 0.449271
140.711960 133.423523 0.166525 0.419486
149.529739 142.879562 -0.000017 0.548104
154.308182 148.003891 -0.000012 0.544137
156.969513 150.857849 -0.000009 0.522560
159.418213 153.483795 0.200004 0.661051
160.481003 154.623520 0.200007 0.720439
160.791138 154.956085 0.026320 0.756390
140.353363 133.423523 11.409974 0.401663
140.353363 133.423523 10.113639 0.397681
140.253571 133.317993 8.861929 0.678431
140.353363 133.423523 7.572498 0.436133
140.253571 133.317993 6.338413 0.678431
140.353363 133.423523 5.080297 0.390234
140.253571 133.317993 3.852670 0.678431
140.353363 133.423523 2.614739 0.442985
140.353363 133.423523 1.385261 0.443351
140.353363 133.423523 0.154465 0.406104
149.405609 142.996124 -0.000017 0.526177
154.219711 148.086975 -0.000013 0.521660
157.827347 151.901993 0.200004 0.681010
159.367874 153.531067 0.200005 0.776333
160.438599 154.663345 0.200007 0.741527
160.713211 154.953751 0.012533 0.697597
139.990005 133.423523 11.472742 0.409430
139.989990 133.423523 10.167758 0.409232
139.890106 133.319366 8.907352 0.678431
139.990005 133.423523 7.609669 0.443336
139.890106 133.319366 6.367133 0.678431
139.990005 133.423523 5.100842 0.391745
139.890106 133.319351 3.864935 0.678431
139.989990 133.423523 2.618840 0.394003
139.989990 133.423523 1.381160 0.428122
139.989990 133.423508 0.142154 0.400885
149.282288 143.113556 -0.000018 0.536980
154.131805 148.170670 -0.000013 0.527916
157.765991 151.960419 0.200004 0.753491
159.317856 153.578705 0.200004 0.682231
160.396469 154.703476 0.200008 0.655985
160.634201 154.951385 -0.001544 0.672450
139.621735 133.423523 11.536823 0.426368
139.621735 133.423523 10.223011 0.404425
139.621735 133.423523 8.927643 0.394614
139.621735 133.423523 7.647616 0.410880
139.575546 133.376007 6.387584 0.147494
139.621735 133.423523 5.121818 0.440421
139.575546 133.376022 3.873667 0.143069
139.621735 133.423523 2.623025 0.412345
139.621735 133.423523 1.376974 0.345510
139.621735 133.423523 0.129586 0.397986
149.159790 143.231842 -0.000018 0.537942
154.044510 148.254974 -0.000012 0.537850
157.705063 152.019257 0.200004 0.670985
159.268173 153.626678 0.200005 0.751858
160.354614 154.743896 0.200008 0.748470
160.598358 154.994553 -0.000003 0.331960
139.248444 133.423523 11.602243 0.409705
139.248444 133.423523 10.279419 0.422263
139.248444 133.423523 8.975166 0.404593
139.248444 133.423523 7.686358 0.376928
139.148499 133.322174 6.426382 0.678431
139.248444 133.423523 5.143235 0.446326
139.148499 133.322174 3.890236 0.678431
139.248444 133.423523 2.627300 0.410529
139.248444 133.423523 1.372700 0.437995
139.248444 133.423523 0.116756 0.403113
149.038116 143.350983 -0.000018 0.528740
153.957779 148.339905 -0.000012 0.542489
157.644531 152.078537 0.200004 0.743145
159.218842 153.674988 0.200005 0.693309
160.313034 154.784607 0.200008 0.653895
160.558533 155.033554 -0.000003 0.339162
138.869965 133.423523 11.669044 0.374655
138.869965 133.423523 10.337018 0.408484
138.869965 133.423523 9.023690 0.457237
138.869965 133.423523 7.725918 0.412467
138.770035 133.323578 6.456947 0.678431
138.869965 133.423523 5.165100 0.390616
138.770020 133.323578 3.903289 0.678431
138.869965 133.423523 2.631664 0.443870
138.869965 133.423523 1.368337 0.398383
138.869965 133.423523 0.103655 0.407309
148.917297 143.470978 -0.000018 0.534356
153.871658 148.425415 -0.000013 0.521187
157.584412 152.138229 0.200004 0.731807
159.169830 153.723663 0.200006 0.760113
160.271759 154.825607 0.200008 0.754910
160.547226 155.101074 0.010000 1.000000
138.486176 133.423523 11.737262 0.396216
138.486160 133.423508 10.395837 0.383642
138.486176 133.423523 9.073242 0.407797
138.486176 133.423523 7.766314 0.409293
138.449295 133.387146 6.477975 0.477378
138.486176 133.423523 5.187430 0.423255
138.449295 133.387146 3.912268 0.456962
138.486176 133.423523 2.636120 0.408789
138.486176 133.423523 1.363880 0.390463
138.486176 133.423523 0.090276 0.411856
148.797287 143.591797 -0.000018 0.533089
153.786133 148.511536 -0.000013 0.535805
157.524719 152.198334 0.200004 0.703838
159.121170 153.772675 0.200006 0.662242
160.230759 154.866882 0.200009 0.689326
160.508148 155.140427 0.010002 1.000000
138.096909 133.423523 11.806926 0.397925
138.096893 133.423508 10.455905 0.402045
138.096909 133.423523 9.123848 0.386313
138.096909 133.423523 7.807569 0.373175
138.096909 133.423523 6.504010 0.411658
138.096909 133.423523 5.210235 0.405386
137.997116 133.326477 3.930225 0.678431
138.096909 133.423523 2.640671 0.407324
138.096909 133.423523 1.359329 0.377401
138.096909 133.423523 0.076612 0.392477
148.678146 143.713470 -0.000018 0.534585
153.701218 148.598251 -0.000013 0.533501
157.465454 152.258865 0.200004 0.754513
159.072845 153.822006 0.200006 0.743709
160.190048 154.908463 0.200009 0.681682
160.469345 155.180069 0.010004 1.000000
137.702011 133.423523 11.878080 0.418601
137.702011 133.423523 10.517258 0.409155
137.702011 133.423523 9.175535 0.438300
137.702011 133.423523 7.849706 0.427359
137.702011 133.423523 6.536690 0.401175
137.702011 133.423523 5.233527 0.403800
137.602371 133.327972 3.944124 0.678431
137.702011 133.423523 2.645319 0.392126
137.702011 133.423523 1.354680 0.372137
137.702011 133.423523 0.062657 0.406760
148.559845 143.835953 -0.000019 0.536522
153.616913 148.685562 -0.000013 0.535119
157.406601 152.319809 0.200004 0.673365
159.024872 153.871689 0.200007 0.699977
160.135193 154.936462 0.195686 0.708721
160.430817 155.219955 0.010004 1.000000
137.301331 133.423523 11.950766 0.399344
137.301315 133.423523 10.579925 0.413642
137.301315 133.423508 9.228334 0.453864
137.301315 133.423523 7.892748 0.403769
137.301331 133.423523 6.570070 0.404425
137.301315 133.423523 5.257319 0.399741
137.201889 133.329483 3.958321 0.678431
137.301315 133.423523 2.650068 0.419013
137.301315 133.423523 1.349932 0.390616
137.301315 133.423523 0.048402 0.442985
148.442413 143.959274 -0.000018 0.531182
153.533203 148.773453 -0.000013 0.497581
157.348190 152.381149 0.200004 0.734020
158.977249 153.921707 0.200007 0.736828
160.047546 154.933853 0.181591 0.768414
160.392563 155.260117 0.010004 1.000000
136.894669 133.423523 12.025020 0.424094
136.795456 133.330994 10.673251 0.678431
136.894669 133.423523 9.282272 0.374960
136.894669 133.423523 7.936719 0.428550
136.894684 133.423523 6.604173 0.444343
136.894669 133.423523 5.281626 0.416419
136.795456 133.330994 3.972825 0.678431
136.894684 133.423523 2.654919 0.358877
136.894684 133.423523 1.345082 0.397696
136.894669 133.423508 0.033839 0.380026
148.325851 144.083405 -0.000019 0.546349
153.450119 148.861923 -0.000013 0.547066
157.290192 152.442902 0.200004 0.699275
158.929977 153.972046 0.200007 0.705699
159.958466 154.931152 0.167167 0.687053
160.325378 155.273300 -0.000003 0.334966
136.481888 133.423523 12.100883 0.399542
136.442322 133.387131 10.720974 0.485557
136.481888 133.423508 9.337381 0.398932
136.481888 133.423523 7.981647 0.391577
136.481888 133.423523 6.639016 0.409049
136.481888 133.423523 5.306459 0.406012
136.442322 133.387131 3.983680 0.483085
136.481903 133.423523 2.659874 0.406775
136.481903 133.423523 1.340125 0.407279
136.481888 133.423523 0.018960 0.427283
148.210144 144.208344 -0.000019 0.536751
153.367645 148.950974 -0.000014 0.526070
157.232635 152.505066 0.200004 0.679133
158.883057 154.022720 0.200008 0.717861
159.868042 154.928482 0.152445 0.649165
160.287506 155.314209 -0.000003 0.344762
136.062805 133.423523 12.178404 0.417945
135.964203 133.334122 10.804947 0.678431
136.062790 133.423508 9.393694 0.415137
136.062790 133.423523 8.027555 0.357366
136.062805 133.423523 6.674618 0.429328
136.062790 133.423508 5.331837 0.433967
135.964218 133.334137 4.002781 0.678431
136.062790 133.423508 2.664939 0.447669
136.062790 133.423508 1.335061 0.417029
136.062790 133.423523 0.003757 0.444800
148.095322 144.334091 -0.000019 0.551324
153.285812 149.040604 -0.000013 0.543618
157.175507 152.567627 0.200005 0.748898
158.836487 154.073730 0.200008 0.743221
159.776093 154.925720 0.137376 0.708492
160.249924 155.355362 -0.000003 0.341375
135.637192 133.423523 12.257630 0.398810
135.549637 133.345245 10.869881 0.237079
135.637192 133.423523 9.451242 0.354330
135.637192 133.423523 8.074471 0.413962
135.637207 133.423523 6.711004 0.395331
135.637192 133.423523 5.357769 0.410666
135.549637 133.345245 4.017550 0.217533
135.637192 133.423523 2.670115 0.399023
135.637192 133.423523 1.329885 0.352117
135.815491 133.582932 -0.000032 0.529107
147.981369 144.460648 -0.000019 0.543725
153.204590 149.130798 -0.000014 0.546624
157.118820 152.630585 0.200005 0.690013
158.790268 154.125046 0.200008 0.725612
159.682632 154.922913 0.121971 0.752483
160.212616 155.396790 -0.000004 0.327657
135.204895 133.423523 12.338606 0.391226
135.107162 133.337357 10.942476 0.678431
135.204880 133.423508 9.510065 0.403754
135.204895 133.423523 8.122424 0.412772
135.204895 133.423523 6.748193 0.421286
135.204895 133.423523 5.384276 0.419303
135.107162 133.337357 4.034064 0.678431
135.204895 133.423523 2.675405 0.399680
135.204895 133.423523 1.324595 0.431525
135.626770 133.795471 -0.000033 0.541466
147.868317 144.587982 -0.000020 0.531472
153.124008 149.221558 -0.000014 0.540688
157.062592 152.693939 0.200006 0.739132
158.744415 154.176697 0.200008 0.753567
159.587616 154.920074 0.106218 0.722255
160.175613 155.438477 -0.000004 0.337758
134.765686 133.423508 12.421383 0.399130
134.668472 133.339005 11.013532 0.678431
134.765686 133.423523 9.570194 0.396414
134.668488 133.339020 8.190550 0.678431
134.765686 133.423523 6.786211 0.408148
134.765686 133.423523 5.411374 0.412024
134.769775 133.427063 4.043632 0.248859
134.765686 133.423523 2.680813 0.414160
134.765686 133.423523 1.319188 0.394141
135.439560 134.009308 -0.000033 0.539849
147.756149 144.716110 -0.000020 0.539422
153.044067 149.312881 -0.000014 0.554940
157.006790 152.757675 0.200006 0.668406
158.698929 154.228653 0.200009 0.692897
159.490997 154.917191 0.090106 0.678096
160.138901 155.480408 -0.000004 0.337804
134.319382 133.423523 12.506010 0.393851
134.222733 133.340683 11.086167 0.678431
134.319366 133.423508 9.631669 0.382330
134.222748 133.340698 8.240438 0.678431
134.319382 133.423523 6.825078 0.421424
134.319366 133.423508 5.439077 0.416144
134.319366 133.423523 4.060495 0.387823
134.319366 133.423523 2.686342 0.404623
134.319366 133.423523 1.313659 0.407477
135.253845 134.224472 -0.000033 0.541009
147.644867 144.845016 -0.000020 0.551293
152.964752 149.404770 -0.000014 0.530022
156.951431 152.821808 0.200006 0.723323
158.653809 154.280945 0.200009 0.739834
159.392715 154.914261 0.073624 0.657267
160.102478 155.522614 -0.000004 0.338582
133.865723 133.423508 12.592550 0.414572
133.769730 133.342392 11.160441 0.678431
133.865723 133.423523 9.694529 0.400061
133.769730 133.342392 8.291451 0.678431
133.865738 133.423523 6.864820 0.385397
133.865723 133.423523 5.467403 0.399268
133.865723 133.423508 4.077467 0.385580
133.865738 133.423523 2.691994 0.400443
133.865738 133.423523 1.308005 0.392676
135.069611 134.440887 -0.000034 0.545586
147.534500 144.974686 -0.000020 0.534768
152.886093 149.497192 -0.000014 0.551110
156.896530 152.886322 0.200007 0.729946
158.609055 154.333527 0.200009 0.682322
159.292679 154.911255 0.056749 0.692134
160.066345 155.565063 -0.000004 0.302312
133.404510 133.423508 12.681046 0.406363
123.384918 125.075378 14.026320 0.140642
133.404526 133.423523 9.758816 0.410330
123.211533 124.930923 10.293231 0.704540
133.404526 133.423523 6.905466 0.346654
133.404510 133.423508 5.496373 0.409262
133.404526 133.423508 4.094823 0.374899
133.404526 133.423523 2.697776 0.383948
133.404526 133.423523 1.302224 0.424643
134.886917 134.658615 -0.000034 0.537346
147.425049 145.105133 -0.000020 0.523445
152.808075 149.590164 -0.000014 0.531640
156.842072 152.951218 0.200007 0.701976
158.564651 154.386444 0.200010 0.752361
159.190918 154.908218 0.039492 0.752132
160.030518 155.607758 -0.000004 0.342718
nan nan nan 0.000000
123.384903 125.578438 13.957067 0.216449
123.384918 125.578445 12.073469 0.149660
123.211533 125.436020 10.245473 0.688548
123.182465 125.412140 8.399035 0.727062
124.773575 126.719116 6.392080 0.254276
124.777054 126.721970 4.631258 0.192157
123.211533 125.436020 2.909612 0.709804
123.211533 125.436020 1.090388 0.718898
134.705750 134.877609 -0.000034 0.542992
147.316498 145.236343 -0.000020 0.538567
152.730713 149.683685 -0.000014 0.558602
156.788071 153.016495 0.200007 0.756252
158.520630 154.439651 0.200010 0.681895
159.087296 154.905121 0.021820 0.760906
159.994980 155.650711 -0.000004 0.335760
nan nan nan 0.000000
123.384964 126.075821 13.889159 0.132692
123.384918 126.075775 12.016276 0.156512
123.153427 125.888321 10.209745 0.733333
123.153435 125.888329 8.367000 0.733333
124.772217 127.199203 6.367285 0.278431
124.773682 127.200394 4.616531 0.228473
123.211533 125.935364 2.904448 0.712840
123.211525 125.935364 1.095552 0.746578
134.526108 135.097855 -0.000034 0.539071
147.208878 145.368301 -0.000020 0.538659
152.653992 149.777740 -0.000014 0.545388
156.734528 153.082138 0.200008 0.668238
158.476990 154.493179 0.200011 0.692866
158.981781 154.901947 0.003729 0.720348
159.959747 155.693909 -0.000003 0.348211
nan nan nan 0.000000
123.384949 126.567543 13.822615 0.117647
123.384933 126.567520 11.960207 0.117418
123.153427 126.382721 10.163792 0.722210
123.153427 126.382721 8.331360 0.703639
124.775070 127.677277 6.342538 0.300923
124.775108 127.677307 4.601795 0.226520
123.211517 126.429092 2.899385 0.718715
123.211525 126.429100 1.100615 0.718425
134.348007 135.319366 -0.000034 0.545663
147.102158 145.501007 -0.000020 0.534615
152.577942 149.872330 -0.000015 0.531456
156.681458 153.148163 0.200008 0.721965
158.433716 154.546997 0.200011 0.682597
158.927841 154.941452 -0.000005 0.319921
159.924820 155.737350 -0.000004 0.330220
nan nan nan 0.000000
123.384933 127.053825 13.757377 0.123156
123.153442 126.871643 11.958843 0.731121
123.153435 126.871643 10.118741 0.721569
123.153427 126.871643 8.296423 0.728786
124.796356 128.164520 6.316355 0.110307
124.794479 128.163040 4.586227 0.126650
123.211517 126.917358 2.894421 0.712474
123.211517 126.917358 1.105578 0.721569
134.171478 135.542114 -0.000034 0.536675
146.996384 145.634460 -0.000020 0.534813
152.502548 149.967438 -0.000015 0.553704
156.628830 153.214554 0.200008 0.688869
158.390808 154.601120 0.200011 0.712779
158.887680 154.992111 -0.000005 0.332815
159.890198 155.781036 -0.000004 0.341283
nan nan nan 0.000000
123.384933 127.534790 13.693423 0.188785
123.153427 127.355225 11.904672 0.733333
123.153435 127.355225 10.074578 0.737194
123.153427 127.355225 8.262172 0.721569
124.774490 128.612656 6.295145 0.301961
124.774101 128.612366 4.573426 0.244572
123.211502 127.400269 2.889557 0.733333
123.211502 127.400269 1.110443 0.719448
133.996475 135.766068 -0.000035 0.533379
146.891541 145.768646 -0.000020 0.541650
152.427826 150.063080 -0.000014 0.544457
156.576675 153.281311 0.200009 0.676051
158.348297 154.655548 0.200011 0.711772
158.884491 155.071457 0.010002 1.000000
159.855881 155.824951 -0.000004 0.337423
nan nan nan 0.000000
123.384956 128.010605 13.630715 0.160784
123.153427 127.833588 11.851563 0.714763
123.153435 127.833588 10.031282 0.740078
123.153435 127.833588 8.228594 0.729412
124.772034 129.071121 6.272367 0.266667
124.772766 129.071686 4.559709 0.254536
123.211502 127.877991 2.884788 0.733333
123.211502 127.877991 1.115212 0.709804
133.823059 135.991241 -0.000035 0.537163
146.787643 145.903564 -0.000020 0.540322
152.353760 150.159241 -0.000015 0.534569
156.524994 153.348434 0.200009 0.687434
158.306168 154.710266 0.200011 0.682155
158.845245 155.122437 0.010005 1.000000
159.821869 155.869125 -0.000004 0.322576
nan nan nan 0.000000
123.414429 128.503555 13.561275 0.616480
123.153427 128.306885 11.799497 0.721569
123.153427 128.306885 9.988837 0.722026
123.153442 128.306885 8.195673 0.727550
124.773186 129.527466 6.249668 0.225315
124.774246 129.528259 4.546091 0.192020
123.211510 128.350647 2.880110 0.731456
123.211510 128.350647 1.119889 0.710903
133.651215 136.217636 -0.000034 0.538918
146.684692 146.039200 -0.000020 0.522637
152.280380 150.255920 -0.000015 0.549935
156.473785 153.415909 0.200010 0.714855
158.264404 154.765274 0.200012 0.722072
158.806366 155.173676 0.010007 1.000000
159.788162 155.913528 -0.000004 0.345296
nan nan nan 0.000000
123.190308 128.802597 13.561344 0.726055
123.153435 128.775208 11.748448 0.681743
123.153427 128.775208 9.947219 0.733059
123.153442 128.775223 8.163399 0.697032
124.775772 129.980087 6.227268 0.278431
124.773697 129.978546 4.532860 0.245411
123.211510 128.818344 2.875527 0.733333
123.211510 128.818344 1.124473 0.721019
133.480957 136.445221 -0.000035 0.544610
146.582672 146.175552 -0.000021 0.547585
152.207672 150.353104 -0.000015 0.559396
156.423035 153.483749 0.200010 0.670130
158.223038 154.820572 0.200012 0.686671
158.767838 155.225174 0.010007 1.000000
159.754776 155.958160 -0.000004 0.342626
nan nan nan 0.000000
123.153442 129.238708 13.511858 0.729473
123.153442 129.238724 11.698400 0.736797
123.153435 129.238708 9.906420 0.719539
123.153442 129.238708 8.131757 0.716381
124.774017 130.424820 6.205743 0.290196
124.774124 130.424896 4.519832 0.290196
123.211517 129.281219 2.871032 0.709804
123.211517 129.281219 1.128969 0.717845
133.312302 136.673981 -0.000035 0.539269
146.481628 146.312622 -0.000021 0.541802
152.135651 150.450790 -0.000015 0.534737
156.372772 153.551941 0.200011 0.758190
158.182053 154.876160 0.200013 0.672496
158.692261 155.249573 -0.000005 0.334203
159.721695 156.003021 -0.000004 0.317067
nan nan nan 0.000000
123.153442 129.697510 13.453610 0.734401
123.153442 129.697510 11.649331 0.713039
123.153435 129.697510 9.866417 0.733639
124.823570 130.902069 7.863843 0.151568
124.775299 130.867249 6.184334 0.259617
124.773453 130.865921 4.507122 0.225742
123.211517 129.739395 2.866625 0.721569
123.211517 129.739395 1.133375 0.721569
133.145218 136.903915 -0.000036 0.536538
146.381531 146.450378 -0.000021 0.548409
152.064316 150.548996 -0.000015 0.550652
156.322968 153.620468 0.200011 0.680095
158.061554 154.874405 0.182087 0.727596
158.654251 155.301880 -0.000005 0.342657
159.688934 156.048111 -0.000004 0.350072
nan nan nan 0.000000
123.153435 130.151703 13.396510 0.722713
123.153442 130.151703 11.601221 0.694957
123.153435 130.151703 9.827196 0.728466
124.823242 131.338379 7.834652 0.141909
124.774277 131.303589 6.163574 0.278431
124.771912 131.301910 4.494716 0.235294
123.211517 130.192978 2.862304 0.718532
123.211517 130.192978 1.137697 0.727169
132.979752 137.135010 -0.000036 0.545571
146.282394 146.588837 -0.000021 0.537514
151.993652 150.647675 -0.000015 0.557427
156.273651 153.689362 0.200011 0.701106
157.935852 154.870636 0.163090 0.727428
158.616623 155.354446 -0.000005 0.337728
159.656479 156.093445 -0.000004 0.336385
nan nan nan 0.000000
123.153442 130.601410 13.340520 0.733333
123.153442 130.601410 11.554050 0.734401
123.153435 130.601410 9.788744 0.749874
124.823181 131.770599 7.805995 0.117647
124.778473 131.739288 6.142703 0.290196
124.776123 131.737640 4.482207 0.266667
123.211517 130.642075 2.858068 0.692317
123.211517 130.642075 1.141933 0.733333
132.815933 137.367264 -0.000036 0.541024
146.184235 146.727982 -0.000021 0.541924
151.923691 150.746857 -0.000015 0.545495
156.224823 153.758591 0.200012 0.676204
157.807495 154.866791 0.143602 0.743328
158.579361 155.407272 -0.000005 0.336019
159.624359 156.138992 -0.000004 0.338384
nan nan nan 0.000000
123.153442 131.046753 13.285627 0.725429
123.153435 131.046738 11.507807 0.732326
123.153427 131.046738 9.751043 0.741115
124.823586 132.198929 7.777836 0.117464
124.771729 132.163147 6.123319 0.276646
124.771820 132.163208 4.470448 0.266667
123.211533 131.086823 2.853913 0.724926
123.211533 131.086823 1.146087 0.721569
132.653717 137.600647 -0.000036 0.544366
146.087051 146.867813 -0.000021 0.536553
153.285599 151.833832 0.200006 0.716442
156.176483 153.828156 0.200012 0.735576
157.676376 154.862869 0.123605 0.788663
158.542465 155.460358 -0.000005 0.331991
159.592545 156.184769 -0.000004 0.334371
nan nan nan 0.000000
123.153435 131.487808 13.231809 0.719585
123.153427 131.487808 11.462466 0.733333
123.153427 131.487808 9.714079 0.729610
124.822556 132.622162 7.750426 0.130632
124.776115 132.590591 6.103221 0.278431
124.776367 132.590759 4.458398 0.235294
123.211533 131.527283 2.849841 0.733333
123.211533 131.527283 1.150158 0.701732
132.493134 137.835144 -0.000036 0.540017
145.990845 147.008316 -0.000022 0.533349
153.223892 151.923965 0.200007 0.683085
156.128616 153.898041 0.200012 0.689555
157.542404 154.858871 0.103079 0.679133
158.505936 155.513687 -0.000005 0.340917
159.561050 156.230759 -0.000004 0.343572
nan nan nan 0.000000
123.153435 131.924713 13.179040 0.742519
123.153435 131.924713 11.418009 0.722347
123.153442 131.924713 9.677837 0.709804
124.823242 133.042557 7.723315 0.137255
124.775757 133.010773 6.083979 0.279988
124.772568 133.008636 4.447072 0.266667
123.211517 131.963593 2.845850 0.725170
123.211517 131.963593 1.154151 0.720302
132.334198 138.070770 -0.000037 0.541573
145.895615 147.149490 -0.000022 0.552834
153.162811 152.014526 0.200008 0.693385
156.081253 153.968277 0.200013 0.711223
157.405472 154.854782 0.082005 0.690654
158.469788 155.567291 -0.000005 0.337377
159.529877 156.276962 -0.000004 0.329259
nan nan nan 0.000000
123.153427 132.357544 13.127308 0.717205
123.153442 132.357544 11.374427 0.731731
123.153435 132.357544 9.642307 0.733333
124.824585 133.459473 7.696643 0.117647
124.773041 133.425491 6.065348 0.263905
124.775391 133.427032 4.435583 0.264042
123.211533 132.395844 2.841935 0.724819
123.211533 132.395844 1.158066 0.698497
132.176910 138.307510 -0.000037 0.543740
145.801376 147.291336 -0.000022 0.540902
153.102371 152.105515 0.200008 0.707698
156.034378 154.038849 0.200013 0.697627
157.265442 154.850601 0.060362 0.664881
158.434006 155.621140 -0.000005 0.338125
159.499023 156.323395 -0.000004 0.343908
nan nan nan 0.000000
123.153427 132.786407 13.076588 0.728649
123.153427 132.786407 11.331697 0.713527
123.153442 132.786407 9.607471 0.733333
124.822166 133.870117 7.671010 0.117647
124.775070 133.839523 6.046618 0.266636
124.774994 133.839478 4.424504 0.228122
123.211540 132.824142 2.838096 0.730846
123.211540 132.824142 1.161903 0.715312
132.021271 138.545334 -0.000037 0.544381
145.708130 147.433823 -0.000022 0.546029
153.042557 152.196915 0.200009 0.722484
155.987991 154.109726 0.200014 0.677378
157.122177 154.846298 0.038122 0.693584
158.398605 155.675232 -0.000005 0.331319
159.468506 156.370041 -0.000004 0.351339
nan nan nan 0.000000
123.153442 133.211395 13.026863 0.732647
123.153442 133.211395 11.289804 0.727779
123.153442 133.211395 9.573320 0.733333
124.823929 134.279739 7.645312 0.117647
124.774734 134.248276 6.028485 0.266667
124.778908 134.250946 4.413392 0.278431
123.153442 133.211395 2.835463 0.722255
123.211540 133.248550 1.165665 0.697780
131.867310 138.784241 -0.000037 0.538277
145.615891 147.576950 -0.000022 0.529198
152.983398 152.288742 0.200009 0.726497
155.942093 154.180939 0.200014 0.734432
156.975632 154.841919 0.015276 0.722164
158.363586 155.729568 -0.000006 0.336614
159.438309 156.416885 -0.000004 0.335348
123.153427 133.632614 14.732124 0.709804
123.153442 133.632614 12.978117 0.705303
123.153427 133.632614 11.248740 0.692714
123.153442 133.632614 9.539841 0.713756
124.821251 134.682907 7.620720 0.126696
124.773178 134.652649 6.010827 0.197299
124.770462 134.650940 4.403212 0.179049
123.153442 133.632629 2.831769 0.720745
123.211548 133.669205 1.169354 0.721523
131.714996 139.024200 -0.000037 0.544228
145.524643 147.720734 -0.000022 0.551446
152.924866 152.380966 0.200010 0.703655
155.896713 154.252472 0.200014 0.702892
156.863754 154.861450 -0.000008 0.336599
158.328949 155.784149 -0.000005 0.335897
159.408447 156.463959 -0.000004 0.348974
123.153442 134.050156 14.676697 0.709804
123.153442 134.050156 12.930328 0.720607
123.153442 134.050156 11.208477 0.747890
123.153450 134.050156 9.507019 0.696086
124.823586 135.085693 7.595936 0.131273
124.774239 135.055099 5.993266 0.259861
124.774612 135.055328 4.392511 0.236210
123.153442 134.050156 2.828150 0.721569
123.211540 134.086182 1.172970 0.727642
131.564392 139.265244 -0.000037 0.544869
145.434402 147.865143 -0.000022 0.537362
152.866989 152.473602 0.200011 0.719661
155.851822 154.324310 0.200015 0.728344
156.823090 154.926529 -0.000007 0.336492
158.294693 155.838974 -0.000005 0.338766
159.378906 156.511230 -0.000004 0.333700
123.211563 134.499557 14.605311 0.730617
123.153435 134.464081 12.883484 0.733333
123.153442 134.464081 11.169013 0.721935
123.384949 134.605392 9.434612 0.121782
124.825180 135.484528 7.571738 0.131746
124.775497 135.454208 5.976031 0.266667
124.776901 135.455063 4.382126 0.278431
123.153442 134.464081 2.824600 0.712200
123.211548 134.499542 1.176514 0.698039
131.415436 139.507309 -0.000038 0.543755
145.345154 148.010178 -0.000023 0.532265
152.809753 152.566650 0.200011 0.695186
155.807434 154.396469 0.200015 0.697490
156.829834 155.020554 0.010004 1.000000
158.260818 155.894043 -0.000005 0.343191
159.349701 156.558701 -0.000004 0.329793
123.211563 134.909424 14.552126 0.733333
123.211548 134.909409 12.822920 0.723476
123.153427 134.874481 11.130326 0.733013
123.384949 135.013611 9.403244 0.113970
124.822174 135.877182 7.548634 0.134340
124.772369 135.847260 5.959553 0.137011
124.772095 135.847092 4.372352 0.140566
123.153427 134.874496 2.821120 0.721569
123.211548 134.909409 1.179989 0.729473
131.268219 139.750427 -0.000037 0.539452
145.256943 148.155823 -0.000023 0.537453
152.753174 152.660080 0.200012 0.696712
155.763550 154.468933 0.200016 0.693492
156.790298 155.085876 0.010007 1.000000
158.227325 155.949341 -0.000005 0.339620
159.320816 156.606384 -0.000004 0.339498
123.211563 135.315857 14.499997 0.728740
123.211548 135.315857 12.777973 0.709758
123.153435 135.281479 11.092407 0.705028
123.384949 135.418396 9.372498 0.116320
124.826164 136.270752 7.525055 0.100374
124.774246 136.240051 5.942930 0.261692
124.774307 136.240082 4.362372 0.288411
123.153442 135.281494 2.817710 0.740047
123.211555 135.315857 1.183395 0.741024
131.122665 139.994537 -0.000039 0.540108
145.169754 148.302094 -0.000023 0.557870
152.697235 152.753922 0.200012 0.680797
155.720169 154.541702 0.200016 0.688518
156.751221 155.151474 0.010011 1.000000
158.194229 156.004868 -0.000005 0.337667
159.292267 156.654266 -0.000004 0.346471
123.211487 135.718918 14.448921 0.734035
123.211487 135.718918 12.733932 0.709804
123.153435 135.685120 11.055241 0.701045
123.384949 135.819870 9.342360 0.142657
124.823090 136.656891 7.502881 0.113832
124.772820 136.627640 5.926948 0.275669
124.772537 136.627472 4.352817 0.287617
123.153442 135.685120 2.814368 0.741176
123.211502 135.718918 1.186732 0.690089
130.978851 140.239685 -0.000039 0.544335
145.083588 148.448975 -0.000023 0.545144
152.641968 152.848129 0.200013 0.704997
155.677307 154.614761 0.200016 0.693370
156.664993 155.189621 -0.000007 0.334066
158.161514 156.060623 -0.000005 0.338170
159.264069 156.702347 -0.000004 0.339269
123.211510 136.118759 14.398839 0.721569
123.211502 136.118759 12.690749 0.709804
123.211502 136.118759 11.006639 0.731121
123.384933 136.218079 9.312830 0.122911
124.826218 137.043518 7.480330 0.117647
124.804558 137.031128 5.908153 0.117647
124.804443 137.031052 4.341545 0.117647
123.153442 136.085510 2.811091 0.732372
123.211510 136.118759 1.190004 0.694896
130.836731 140.485825 -0.000039 0.538735
144.998444 148.596451 -0.000023 0.546044
152.587357 152.942734 0.200014 0.709117
155.634949 154.688141 0.200017 0.731701
156.626633 155.256088 -0.000008 0.335576
158.129181 156.116608 -0.000006 0.337438
159.236191 156.750610 -0.000004 0.340581
123.211517 136.515411 14.349759 0.752941
123.211510 136.515411 12.648431 0.709804
123.211517 136.515411 10.970986 0.722805
123.384933 136.613129 9.283882 0.176135
124.821739 137.422745 7.459229 0.116411
124.774750 137.396271 5.895490 0.266667
124.778488 137.398376 4.333740 0.282017
123.153442 136.482697 2.807880 0.729839
123.211517 136.515411 1.193209 0.703258
130.696335 140.732956 -0.000039 0.541558
144.914322 148.744507 -0.000023 0.540612
152.533401 153.037704 0.200014 0.691966
155.593109 154.761795 0.200016 0.691447
156.588730 155.322800 -0.000008 0.338247
158.097260 156.172821 -0.000006 0.328679
159.208664 156.799088 -0.000004 0.335164
123.211517 136.908951 14.301669 0.733577
123.211517 136.908951 12.606962 0.709804
123.211517 136.908951 10.936052 0.722759
123.384933 137.005081 9.255518 0.174304
124.826714 137.804291 7.437315 0.129442
124.776024 137.776184 5.880199 0.247059
124.771484 137.773666 4.325046 0.228031
123.153442 136.876755 2.804734 0.734661
123.211517 136.908951 1.196351 0.710445
130.557663 140.981049 -0.000039 0.538735
144.831238 148.893158 -0.000023 0.543587
152.480133 153.133072 0.200015 0.699184
155.490387 154.801712 0.189606 0.745144
156.551285 155.389786 -0.000008 0.335760
158.065704 156.229263 -0.000005 0.337331
159.181473 156.847748 -0.000004 0.341543
123.211533 137.299469 14.254539 0.722988
123.211533 137.299469 12.566326 0.721569
123.211517 137.299454 10.901818 0.739590
123.384941 137.394012 9.227724 0.193256
124.822693 138.177917 7.417013 0.105882
124.776855 138.152924 5.865258 0.254414
124.773903 138.151306 4.316003 0.282109
123.153442 137.267792 2.801652 0.738949
123.211517 137.299469 1.199430 0.704067
130.420746 141.230118 -0.000039 0.544137
144.749207 149.042389 -0.000023 0.536110
152.427505 153.228790 0.200016 0.702434
155.312195 154.801590 0.166433 0.687953
156.514313 155.457031 -0.000008 0.332448
158.034561 156.285904 -0.000005 0.336843
159.154617 156.896591 -0.000004 0.338628
123.211533 137.687012 14.208366 0.721569
123.211533 137.687012 12.526514 0.721569
123.211517 137.687012 10.868278 0.721569
123.384949 137.779999 9.200488 0.165560
124.328064 138.285706 7.461171 0.132006
124.328049 138.285690 5.892451 0.120333
124.328056 138.285690 4.332131 0.106554
123.153442 137.655869 2.798632 0.728008
123.211533 137.687012 1.202446 0.721569
130.285553 141.480133 -0.000039 0.534981
144.668213 149.192169 -0.000023 0.538979
152.375549 153.324875 0.200016 0.743404
155.129349 154.801483 0.142568 0.663874
156.477829 155.524536 -0.000007 0.335866
158.003815 156.342773 -0.000005 0.340215
159.128098 156.945618 -0.000004 0.328038
123.211533 138.071671 14.163132 0.709804
123.211533 138.071671 12.487510 0.720882
123.211533 138.071671 10.835416 0.736980
123.384949 138.163101 9.173811 0.169604
123.617447 138.285690 7.533352 0.118029
123.617447 138.285690 5.943898 0.117647
123.617447 138.285690 4.362955 0.126879
123.153442 138.041031 2.795672 0.738445
123.211533 138.071671 1.205401 0.721569
130.152100 141.731079 -0.000039 0.540612
144.588257 149.342529 -0.000023 0.537987
152.324280 153.421326 0.200017 0.687236
154.941696 154.801361 0.117980 0.682567
156.441803 155.592285 -0.000007 0.334966
157.973465 156.399857 -0.000006 0.330571
159.101929 156.994843 -0.000004 0.336416
123.211540 138.453506 14.118815 0.713527
123.110275 138.401016 12.473935 0.732113
123.211533 138.453491 10.803226 0.733333
123.384956 138.543396 9.147674 0.171878
123.153450 138.423386 7.573315 0.752941
123.153442 138.423386 5.972383 0.733333
123.153442 138.423386 4.380023 0.736217
123.153442 138.423386 2.792774 0.733333
123.211533 138.453506 1.208297 0.732692
130.020432 141.982956 -0.000039 0.538857
144.509369 149.493439 -0.000023 0.537530
152.273666 153.518127 0.200017 0.703304
154.748978 154.801224 0.092639 0.694713
156.406250 155.660294 -0.000007 0.333135
157.943512 156.457153 -0.000006 0.342092
159.076111 157.044235 -0.000004 0.341253
123.211548 138.832581 14.075410 0.734966
122.714432 138.579285 12.532375 0.283818
123.211548 138.832581 10.771695 0.768795
123.384949 138.920944 9.122076 0.142290
123.153435 138.802979 7.553357 0.733333
123.153442 138.802979 5.958158 0.748669
123.153427 138.802979 4.371498 0.734859
123.153427 138.802979 2.789935 0.727260
123.211540 138.832581 1.211133 0.733333
129.890503 142.235733 -0.000040 0.541924
144.431534 149.644882 -0.000024 0.539467
152.223740 153.615280 0.200018 0.727687
154.550995 154.801102 0.066510 0.681208
156.371170 155.728546 -0.000007 0.339956
157.913971 156.514648 -0.000006 0.341741
159.050629 157.093811 -0.000005 0.335729
123.211548 139.208984 14.032900 0.734462
122.714447 138.960037 12.495296 0.247456
123.211540 139.208969 10.740819 0.723079
123.384956 139.295822 9.097000 0.131334
123.153442 139.179886 7.533806 0.733333
123.153442 139.179886 5.944221 0.746334
123.153442 139.179886 4.363149 0.752941
123.153442 139.179886 2.787155 0.732509
123.211548 139.208984 1.213910 0.730007
129.762344 142.489426 -0.000040 0.536187
144.354752 149.796875 -0.000024 0.537697
152.174500 153.712784 0.200018 0.696880
154.347504 154.800964 0.039559 0.667430
156.336563 155.797043 -0.000007 0.334096
157.884811 156.572357 -0.000005 0.339742
159.025497 157.143570 -0.000005 0.340780
123.211548 139.582748 13.991269 0.741176
122.714447 139.338135 12.458985 0.223621
123.211548 139.582748 10.710576 0.720882
123.384949 139.668076 9.072447 0.136126
123.153442 139.554153 7.514661 0.733333
123.153442 139.554153 5.930577 0.733333
123.153442 139.554153 4.354974 0.717662
123.153442 139.554153 2.784430 0.726802
123.211548 139.582748 1.216629 0.722942
129.635986 142.744019 -0.000040 0.537850
144.279022 149.949417 -0.000024 0.542748
152.125931 153.810638 0.200019 0.719905
154.138260 154.800827 0.011747 0.675273
156.302460 155.865768 -0.000007 0.335195
157.856079 156.630264 -0.000005 0.336187
159.000702 157.193497 -0.000004 0.337713
123.211517 139.953934 13.950519 0.709804
122.714447 139.713638 12.423432 0.220356
123.211533 139.953949 10.680969 0.709804
123.344940 140.018448 9.054999 0.702800
123.153450 139.925873 7.495914 0.733333
123.153442 139.925873 5.917214 0.737240
123.153442 139.925858 4.346968 0.721569
123.153442 139.925858 2.781764 0.726711
123.211533 139.953949 1.219292 0.709804
129.511383 142.999466 -0.000040 0.537926
144.204376 150.102463 -0.000024 0.537377
152.078064 153.908813 0.200020 0.706416
154.025879 154.850449 -0.000009 0.337896
156.268814 155.934738 -0.000007 0.342107
157.827728 156.688354 -0.000006 0.343145
158.976273 157.243591 -0.000004 0.337240
123.211517 140.322662 13.910611 0.711223
122.714439 140.086624 12.388625 0.230640
123.211525 140.322662 10.651982 0.716808
123.384949 140.405014 9.024871 0.335851
123.153442 140.295074 7.477562 0.723873
123.153442 140.295074 5.904134 0.733944
123.153442 140.295074 4.339131 0.733333
123.153435 140.295074 2.779153 0.734279
123.211517 140.322662 1.221899 0.731304
129.388565 143.255783 -0.000040 0.542184
144.130798 150.256027 -0.000024 0.544976
152.030853 154.007324 0.200020 0.742214
153.985214 154.935333 -0.000009 0.337346
156.235657 156.003937 -0.000007 0.336965
157.799789 156.746658 -0.000006 0.334783
158.952179 157.293869 -0.000004 0.335714
123.194824 140.681152 13.876160 0.731014
122.714432 140.457138 12.354552 0.193881
123.211533 140.688934 10.623604 0.729335
123.384956 140.769806 9.001829 0.374914
123.153435 140.661835 7.459597 0.742916
123.153442 140.661850 5.891330 0.721202
123.153435 140.661850 4.331459 0.721645
123.153427 140.661835 2.776598 0.738201
123.211525 140.688934 1.224451 0.700618
129.267548 143.512955 -0.000040 0.544320
144.058289 150.410110 -0.000024 0.545769
151.984344 154.106155 0.200020 0.717632
154.006348 155.049042 0.010009 1.000000
156.202988 156.073380 -0.000007 0.337179
157.772263 156.805161 -0.000006 0.334508
158.928452 157.344299 -0.000004 0.342412
123.153442 141.026230 13.849308 0.736675
122.714447 140.825241 12.321202 0.192157
123.211533 141.052826 10.595830 0.729519
123.211533 141.052826 9.007571 0.733333
123.153435 141.026230 7.442013 0.730663
123.153442 141.026245 5.878797 0.736889
123.153442 141.026245 4.323949 0.728878
123.153442 141.026230 2.774096 0.718990
123.211533 141.052826 1.226949 0.715587
129.148315 143.770966 -0.000041 0.539315
143.986862 150.564697 -0.000024 0.532387
151.938507 154.205307 0.200018 0.709422
153.967087 155.134079 0.010013 1.000000
156.170792 156.143036 -0.000007 0.332052
157.745148 156.863846 -0.000006 0.342428
158.905075 157.394913 -0.000004 0.339132
123.153435 141.388306 13.811847 0.726986
122.714439 141.191010 12.288570 0.163302
123.211517 141.414413 10.568650 0.733333
123.211533 141.414413 8.985415 0.746578
123.153435 141.388306 7.424807 0.721569
123.153442 141.388306 5.866531 0.740902
123.153442 141.388306 4.316602 0.733333
123.153442 141.388306 2.771650 0.718257
123.211533 141.414413 1.229393 0.709804
129.030899 144.029785 -0.000041 0.535943
143.916519 150.719772 -0.000024 0.551675
151.893372 154.304779 0.200016 0.730282
153.866760 155.191681 -0.000009 0.337774
156.139099 156.212921 -0.000006 0.337804
157.718445 156.922714 -0.000006 0.333684
158.882050 157.445663 -0.000005 0.319097
123.153427 141.748108 13.775187 0.720974
122.714447 141.554489 12.256636 0.137255
123.211533 141.773727 10.542057 0.730205
123.211533 141.773743 8.963734 0.718486
123.153427 141.748108 7.407971 0.733196
123.153435 141.748108 5.854533 0.710811
123.153435 141.748108 4.309413 0.724926
123.153427 141.748108 2.769254 0.703822
123.211533 141.773727 1.231785 0.721569
128.915283 144.289429 -0.000041 0.541726
146.079498 151.859894 0.200022 0.704005
151.848923 154.404556 0.200013 0.723964
153.828476 155.277664 -0.000009 0.334005
156.107880 156.283020 -0.000006 0.337423
157.692154 156.981781 -0.000005 0.337163
158.859375 157.496597 -0.000004 0.335180
123.153427 142.105698 13.739330 0.735393
122.714432 141.915726 12.225402 0.172549
123.211533 142.130844 10.516043 0.732738
123.211533 142.130844 8.942526 0.725063
123.153427 142.105698 7.391500 0.713619
123.153435 142.105713 5.842794 0.747173
123.153427 142.105698 4.302379 0.729335
123.153427 142.105698 2.766912 0.722393
123.211533 142.130844 1.234124 0.691218
128.801498 144.549881 -0.000041 0.538277
146.018143 152.000336 0.200023 0.717952
151.805176 154.504654 0.200012 0.721965
153.790802 155.363922 -0.000009 0.333059
156.077164 156.353333 -0.000006 0.337255
157.666275 157.041016 -0.000006 0.347112
158.837051 157.547668 -0.000004 0.338766
123.367432 142.551987 13.646017 0.322698
122.714439 142.274796 12.194850 0.149157
123.211525 142.485809 10.490599 0.747967
123.211540 142.485809 8.921783 0.752941
123.153435 142.461151 7.375391 0.692836
123.153427 142.461151 5.831313 0.731212
123.153435 142.461151 4.295500 0.721569
123.153442 142.461151 2.764620 0.719829
123.211533 142.485809 1.236412 0.729931
128.689545 144.811127 -0.000041 0.541543
145.957779 152.141205 0.200024 0.708934
151.762131 154.605042 0.200010 0.720180
153.753708 155.450439 -0.000009 0.335851
156.046936 156.423874 -0.000007 0.339391
157.640808 157.100433 -0.000005 0.335378
158.815094 157.598907 -0.000005 0.331106
123.367416 142.903564 13.611891 0.223529
122.714447 142.631744 12.164973 0.169604
123.211533 142.838669 10.465716 0.733333
123.211533 142.838669 8.901500 0.740932
123.211517 142.838669 7.352401 0.732479
123.153427 142.814484 5.820086 0.733333
123.153427 142.814484 4.288773 0.712840
123.153427 142.814484 2.762380 0.736355
123.211533 142.838669 1.238650 0.733333
128.579407 145.073135 -0.000041 0.543038
145.898407 152.282486 0.200025 0.720577
151.719788 154.705734 0.200008 0.731304
153.717239 155.537216 -0.000008 0.335149
156.017197 156.494614 -0.000006 0.332830
157.615753 157.160034 -0.000005 0.337301
158.793488 157.650284 -0.000005 0.334798
123.356918 143.248810 13.581368 0.304967
122.714447 142.986618 12.135765 0.173419
123.211533 143.189484 10.441392 0.721569
123.211533 143.189484 8.881668 0.743374
123.384918 143.260239 7.315477 0.135073
123.153427 143.165771 5.809110 0.770489
123.153427 143.165771 4.282196 0.717800
123.153435 143.165771 2.760190 0.740688
123.211533 143.189484 1.240838 0.721752
128.471085 145.335907 -0.000041 0.541390
145.840012 152.424179 0.200025 0.706004
151.678146 154.806717 0.200006 0.737972
153.681366 155.624237 -0.000008 0.338842
155.987961 156.565552 -0.000006 0.336522
157.591110 157.219803 -0.000005 0.335103
158.772247 157.701828 -0.000005 0.340398
123.367416 143.600662 13.545915 0.199145
122.714439 143.339478 12.107217 0.174365
123.211533 143.538315 10.417613 0.709804
123.211548 143.538315 8.862284 0.721569
123.384926 143.607666 7.300505 0.110521
123.153442 143.515076 5.798378 0.741176
123.153427 143.515076 4.275767 0.717433
123.153442 143.515076 2.758048 0.719173
123.211533 143.538315 1.242977 0.733333
128.364609 145.599426 -0.000042 0.540413
145.782608 152.566269 0.200027 0.707073
151.364792 154.799026 0.166251 0.677012
153.646118 155.711517 -0.000008 0.339727
155.959213 156.636703 -0.000006 0.334127
157.566895 157.279739 -0.000006 0.340993
158.751373 157.753510 -0.000004 0.325994
123.367447 143.946289 13.514033 0.207874
122.714447 143.690384 12.079313 0.729244
123.153419 143.862411 10.405736 0.735698
123.153427 143.862411 8.852600 0.742824
123.384941 143.953156 7.285871 0.128954
123.153427 143.862427 5.787894 0.728283
123.153427 143.862427 4.269487 0.718074
123.153435 143.862427 2.755955 0.721798
123.153442 143.862427 1.244045 0.693324
128.259979 145.863693 -0.000041 0.538491
145.726196 152.708771 0.200027 0.710369
151.059296 154.798828 0.133567 0.689876
153.611450 155.799026 -0.000008 0.340139
155.930954 156.708054 -0.000006 0.336172
157.543106 157.339859 -0.000005 0.339834
158.730850 157.805344 -0.000005 0.337026
123.367462 144.290039 13.482892 0.308293
121.956970 143.748596 12.227296 0.236271
123.211533 144.230179 10.371676 0.735241
123.211525 144.230179 8.824839 0.732464
123.384933 144.296753 7.271577 0.252094
123.100609 144.187592 5.782290 0.699413
123.100609 144.187607 4.266129 0.722896
123.100616 144.187607 2.754838 0.721569
123.211533 144.230179 1.247108 0.721569
128.157196 146.128693 -0.000041 0.538781
145.670776 152.851654 0.200027 0.711681
150.742706 154.798630 0.099602 0.704112
153.577423 155.886795 -0.000008 0.337240
155.903214 156.779602 -0.000006 0.341329
157.519714 157.400131 -0.000005 0.336461
158.710693 157.857300 -0.000005 0.332830
122.562523 144.329376 13.667882 0.507286
121.017441 143.748611 12.416988 0.210529
122.399414 144.268066 10.507369 0.715846
122.399414 144.268066 8.935456 0.735470
122.562653 144.329422 7.358673 0.105333
122.185333 144.187592 5.852447 0.727657
122.185333 144.187592 4.308163 0.730388
122.185188 144.187546 2.768841 0.731365
122.399414 144.268066 1.234904 0.722972
128.056274 146.394379 -0.000041 0.543664
145.616333 152.994904 0.200024 0.702861
150.414368 154.798416 0.064282 0.682063
153.543991 155.974777 -0.000008 0.334813
155.875961 156.851334 -0.000006 0.336065
157.496765 157.460556 -0.000005 0.341512
158.690887 157.909424 -0.000004 0.336996
121.454071 144.268036 13.933476 0.719265
120.260490 143.828873 12.564179 0.714855
121.454086 144.268051 10.668592 0.693553
121.454079 144.268036 9.066891 0.733822
121.620705 144.329346 7.460243 0.137896
121.235443 144.187592 5.925449 0.730495
121.235313 144.187546 4.351909 0.731167
121.235291 144.187546 2.783411 0.729458
121.454079 144.268036 1.220405 0.707317
127.957191 146.660767 -0.000041 0.535073
145.562866 153.138535 0.200021 0.700374
150.073578 154.798187 0.027527 0.719692
153.511185 156.063004 -0.000008 0.335225
155.849213 156.923248 -0.000005 0.335042
157.474228 157.521149 -0.000005 0.335439
158.671463 157.961670 -0.000004 0.333242
120.472168 144.268021 14.164601 0.729976
120.096252 144.132690 12.575068 0.724849
120.472168 144.268021 10.836487 0.720104
120.472176 144.268021 9.203758 0.737377
120.642502 144.329346 7.565989 0.124392
120.248680 144.187561 6.001481 0.739788
120.248657 144.187546 4.397457 0.732158
120.248657 144.187546 2.798582 0.729274
120.472183 144.268021 1.205305 0.731304
127.859970 146.927856 -0.000041 0.541665
145.510406 153.282532 0.200018 0.718746
149.807434 154.829590 -0.000008 0.339147
153.478989 156.151459 -0.000007 0.338872
155.822968 156.995361 -0.000006 0.337453
157.452118 157.581909 -0.000005 0.336370
158.652405 158.014038 -0.000004 0.335531
119.451721 144.268097 14.405392 0.726665
119.366791 144.238190 12.715848 0.734295
119.451706 144.268097 11.011402 0.727291
119.223068 144.187576 9.382313 0.730159
119.625702 144.329376 7.676185 0.126726
119.223022 144.187561 6.080708 0.733516
119.222992 144.187561 4.444925 0.715526
119.451721 144.268097 2.810426 0.731517
119.451714 144.268097 1.189575 0.709804
127.764633 147.195602 -0.000041 0.537972
145.458954 153.426895 0.200014 0.707042
149.848831 154.972855 0.010007 1.000000
153.447418 156.240143 -0.000007 0.338720
155.797226 157.067657 -0.000005 0.334966
157.430435 157.642807 -0.000005 0.338476
158.633698 158.066559 -0.000004 0.338857
118.389694 144.268082 14.656624 0.734005
118.443825 144.286713 12.900653 0.377111
118.155930 144.187592 11.238879 0.715618
118.155930 144.187592 9.531805 0.734874
118.155899 144.187576 7.841233 0.734813
118.155869 144.187561 6.163341 0.727901
118.155853 144.187561 4.494434 0.729503
118.155823 144.187546 2.830885 0.728985
118.389679 144.268066 1.173162 0.709804
127.671158 147.464020 -0.000042 0.546639
145.408524 153.571609 0.200011 0.709941
149.809174 155.086914 0.010015 1.000000
153.416458 156.329025 -0.000007 0.336339
155.771988 157.140121 -0.000005 0.337041
157.409180 157.703857 -0.000004 0.334295
158.615372 158.119202 -0.000004 0.337697
nan nan nan 0.000000
117.465988 144.329407 13.097607 0.239521
117.044609 144.187592 11.430305 0.721920
117.044609 144.187592 9.687859 0.715434
117.044579 144.187576 7.962258 0.733257
117.044563 144.187576 6.249603 0.701625
117.044540 144.187561 4.546117 0.724712
117.283691 144.268051 2.843970 0.733989
117.283691 144.268051 1.156029 0.709804
127.579544 147.733063 -0.000042 0.536110
145.359100 153.716690 0.200009 0.708644
149.687698 155.173447 -0.000008 0.336385
153.386124 156.418137 -0.000007 0.331960
155.747269 157.212769 -0.000005 0.331655
157.388336 157.765060 -0.000005 0.330327
158.597412 158.171967 -0.000004 0.340551
nan nan nan 0.000000
116.317307 144.329330 13.333021 0.260319
115.886208 144.187592 11.630308 0.712154
115.886261 144.187607 9.850901 0.728145
115.886200 144.187592 8.088707 0.734325
115.886169 144.187576 6.339728 0.731258
115.886139 144.187561 4.600117 0.732418
116.037628 144.237381 2.863477 0.740841
116.037628 144.237381 1.136523 0.735485
127.489838 148.002762 -0.000042 0.543053
145.310684 153.862091 0.200005 0.708415
149.649384 155.288620 -0.000007 0.336339
