# This PCD file was generated using the MATLABÂ® pcwrite function
# from Computer Vision ToolboxÂ®.
# .PCD v.7 - Point Cloud Data file format
VERSION .7
FIELDS x y z intensity
SIZE 4 4 4 4
TYPE F F F F
COUNT 1 1 1 1
WIDTH 1238
HEIGHT 1
VIEWPOINT 0 0 0 1 0 0 0
POINTS 1238
DATA ascii
195.727661 -42.333282 0.192848 0.762554
195.989517 -42.665127 0.009999 1.000000
188.122528 -32.460663 7.217422 0.763302
188.142517 -32.486366 6.491627 0.611765
188.142517 -32.486366 5.784061 0.611765
188.192535 -32.550667 5.072794 0.947890
188.122528 -32.460663 4.396197 0.764111
188.122528 -32.460663 3.707890 0.763378
188.122528 -32.460663 3.023269 0.764706
188.122528 -32.460663 2.340846 0.764706
188.122528 -32.460663 1.659154 0.746944
188.122528 -32.460663 0.976731 0.753536
188.122528 -32.460667 0.292110 0.764614
190.236893 -35.178978 -0.000020 0.552010
193.460632 -39.323547 0.200001 0.753460
194.837219 -41.093334 0.200001 0.661448
195.730545 -42.241848 0.177686 0.762448
196.033173 -42.630917 0.009997 1.000000
188.122528 -32.221668 7.264804 0.767483
188.142517 -32.247742 6.532418 0.611765
188.142517 -32.247742 5.818428 0.611765
188.142517 -32.247738 5.112894 0.611765
188.122528 -32.221664 4.417959 0.747494
188.122528 -32.221664 3.723400 0.743938
188.122528 -32.221664 3.032562 0.773709
188.122528 -32.221664 2.343942 0.758587
188.122528 -32.221664 1.656059 0.772641
188.122528 -32.221664 0.967438 0.773709
188.122528 -32.221668 0.276599 0.770260
190.332962 -35.104790 -0.000020 0.525444
193.527679 -39.271767 0.200001 0.738094
194.891876 -41.051117 0.200000 0.705150
195.733536 -42.148922 0.162194 0.698863
196.052780 -42.565334 -0.000004 0.328710
188.122528 -31.978281 7.313316 0.735775
188.142517 -32.004738 6.574180 0.611765
188.142517 -32.004738 5.853611 0.611765
188.142517 -32.004734 5.141577 0.611765
188.122528 -31.978277 4.440239 0.749798
188.122528 -31.978277 3.739280 0.733822
188.122528 -31.978281 3.042076 0.721569
188.122528 -31.978279 2.347110 0.733333
188.122528 -31.978279 1.652889 0.747036
188.122528 -31.978281 0.957924 0.717800
188.122528 -31.978279 0.260719 0.764446
190.429535 -35.031277 -0.000021 0.549767
193.595093 -39.220459 0.200001 0.708049
194.946823 -41.009285 0.199999 0.677073
195.736557 -42.054382 0.146342 0.674281
196.097137 -42.531574 -0.000004 0.334508
188.122528 -31.730350 7.362994 0.729259
188.142517 -31.757193 6.616948 0.611765
188.142517 -31.757195 5.889642 0.611765
188.142517 -31.757196 5.170949 0.611765
188.122528 -31.730352 4.463053 0.725490
188.122528 -31.730352 3.755542 0.746944
188.122528 -31.730354 3.051819 0.728603
188.122528 -31.730352 2.350356 0.743923
188.122528 -31.730352 1.649644 0.732662
188.122528 -31.730354 0.948181 0.719738
188.122528 -31.730354 0.244458 0.743923
190.526627 -34.958443 -0.000021 0.541588
193.662857 -39.169624 0.200001 0.697887
195.002060 -40.967831 0.199997 0.680095
195.739609 -41.958176 0.130117 0.656443
196.141724 -42.498123 -0.000004 0.347326
188.122528 -31.477730 7.413877 0.769009
188.142517 -31.504969 6.660753 0.611765
188.142517 -31.504971 5.926545 0.611765
188.142517 -31.504969 5.201034 0.611765
188.122528 -31.477730 4.486423 0.749767
188.122528 -31.477730 3.772198 0.765835
188.122528 -31.477734 3.061798 0.753948
188.122528 -31.477732 2.353680 0.760357
188.122528 -31.477732 1.646320 0.763561
188.122528 -31.477737 0.938202 0.757153
188.122528 -31.477734 0.227801 0.759106
190.624222 -34.886288 -0.000021 0.541314
193.730988 -39.119263 0.200002 0.690028
195.057587 -40.926769 0.199996 0.725612
195.742722 -41.860260 0.113511 0.739681
196.186554 -42.464985 -0.000004 0.329381
188.122528 -31.220261 7.466003 0.763241
188.142517 -31.247906 6.705624 0.611765
188.142517 -31.247902 5.964351 0.611765
188.142517 -31.247908 5.231853 0.611765
188.122528 -31.220261 4.510362 0.757809
188.122528 -31.220257 3.789261 0.760266
188.122528 -31.220261 3.072022 0.767254
188.122528 -31.220261 2.357085 0.753170
188.122528 -31.220261 1.642915 0.752255
188.122528 -31.220261 0.927978 0.746044
188.122528 -31.220259 0.210738 0.756405
190.722321 -34.814819 -0.000020 0.543084
193.799454 -39.069378 0.200002 0.724773
195.113403 -40.886097 0.199995 0.700038
195.745880 -41.760582 0.096513 0.715877
196.231598 -42.432159 -0.000003 0.343908
188.122528 -30.957775 7.519413 0.729915
188.142517 -30.985819 6.751608 0.611765
188.171539 -31.026533 5.993992 0.265431
188.142517 -30.985823 5.263433 0.611765
188.122528 -30.957771 4.534892 0.712215
188.122528 -30.957773 3.806745 0.702113
188.122528 -30.957771 3.082497 0.726665
188.122528 -30.957773 2.360575 0.716899
188.122528 -30.957773 1.639426 0.714656
188.122528 -30.957771 0.917503 0.713771
188.122528 -30.957775 0.193255 0.729778
190.820908 -34.744030 -0.000021 0.544015
193.868271 -39.019970 0.200002 0.680629
195.169510 -40.845818 0.199995 0.763272
195.749130 -41.659115 0.079120 0.725414
196.276886 -42.399651 -0.000004 0.333959
188.122528 -30.690084 7.574152 0.700359
188.162537 -30.747053 6.791211 0.282506
188.162537 -30.747057 6.036452 0.286244
188.162537 -30.747059 5.290634 0.294774
188.122528 -30.690084 4.560032 0.669917
188.122528 -30.690083 3.824664 0.708217
188.122528 -30.690086 3.093232 0.700816
188.122528 -30.690084 2.364150 0.709010
188.122528 -30.690084 1.635849 0.690196
188.122528 -30.690086 0.906767 0.697230
188.122528 -30.690086 0.175336 0.661265
190.919983 -34.673931 -0.000021 0.556680
193.937424 -38.971046 0.200002 0.729458
195.225891 -40.805931 0.199995 0.681834
195.752396 -41.555740 0.061302 0.649699
196.322388 -42.367458 -0.000003 0.334676
188.122528 -30.417025 7.630267 0.741176
188.142517 -30.445925 6.847038 0.611765
188.142517 -30.445927 6.083485 0.611765
188.142517 -30.445927 5.328978 0.611765
188.122528 -30.417028 4.585803 0.741115
188.122528 -30.417025 3.843032 0.734218
188.122528 -30.417027 3.104238 0.776471
188.122528 -30.417027 2.367816 0.757656
188.122528 -30.417027 1.632184 0.776471
188.122528 -30.417027 0.895762 0.776471
188.122528 -30.417027 0.156968 0.776471
191.019562 -34.604530 -0.000021 0.539223
194.006927 -38.922607 0.200002 0.698024
195.282547 -40.766438 0.199994 0.697032
195.755753 -41.450443 0.043058 0.679484
196.368118 -42.335587 -0.000004 0.330556
188.122528 -30.138399 7.687800 0.742290
188.142517 -30.167732 6.896569 0.611765
188.142517 -30.167732 6.125214 0.611765
188.142517 -30.167734 5.362995 0.611765
188.122528 -30.138401 4.612226 0.754864
188.122528 -30.138393 3.861865 0.759335
188.122528 -30.138399 3.115521 0.759762
188.122528 -30.138399 2.371575 0.751446
188.122528 -30.138399 1.628425 0.763699
188.122528 -30.138399 0.884478 0.753902
188.122528 -30.138401 0.138134 0.754818
191.119614 -34.535828 -0.000021 0.536217
194.076767 -38.874649 0.200002 0.669810
195.339478 -40.727341 0.199994 0.713893
195.759171 -41.343132 0.024370 0.665293
196.414078 -42.304031 -0.000004 0.342260
188.122528 -29.854004 7.746806 0.775647
188.192535 -29.958269 6.927989 0.899367
188.192520 -29.958263 6.151685 0.951629
188.192520 -29.958263 5.384576 0.944060
188.122528 -29.854006 4.639326 0.771191
188.122528 -29.854002 3.881181 0.775372
188.122528 -29.854004 3.127095 0.753704
188.122528 -29.854004 2.375430 0.776242
188.122528 -29.854004 1.624570 0.774868
188.122528 -29.854006 0.872905 0.773663
188.122528 -29.854006 0.118819 0.771878
191.220139 -34.467815 -0.000021 0.520623
194.146927 -38.827183 0.200001 0.748684
195.396683 -40.688644 0.199993 0.672526
195.762650 -41.233749 0.005223 0.741650
196.460236 -42.272797 -0.000004 0.329030
188.122528 -29.563627 7.807335 0.747433
188.122528 -29.563627 7.007304 0.724254
188.122528 -29.563627 6.218505 0.749889
188.122528 -29.563631 5.439048 0.750454
188.122528 -29.563623 4.667126 0.725170
188.122528 -29.563625 3.900995 0.729595
188.122528 -29.563633 3.138965 0.716167
188.122528 -29.563627 2.379384 0.725246
188.122528 -29.563627 1.620616 0.759548
188.122528 -29.563633 0.861034 0.751583
188.122528 -29.563631 0.099005 0.734646
191.321152 -34.400520 -0.000021 0.504265
194.217422 -38.780201 0.200000 0.689113
195.454147 -40.650349 0.199993 0.740490
195.802963 -41.177807 -0.000005 0.340520
196.506638 -42.241890 -0.000004 0.341955
188.280472 -29.509565 7.796949 0.629297
188.280472 -29.509563 6.998348 0.619745
188.280472 -29.509562 6.210961 0.607111
188.280472 -29.509565 5.432899 0.625071
188.280472 -29.509563 4.662355 0.620798
188.280472 -29.509562 3.897595 0.623041
188.280472 -29.509563 3.136929 0.629114
188.280472 -29.509560 2.378706 0.614847
188.280472 -29.509560 1.621294 0.636072
188.280472 -29.509562 0.863071 0.604898
188.280472 -29.509560 0.102404 0.595941
191.422623 -34.333923 -0.000021 0.533532
194.288239 -38.733704 0.199998 0.752026
195.511887 -40.612457 0.199993 0.702464
195.857010 -41.142338 -0.000005 0.337423
196.553238 -42.211304 -0.000004 0.342779
188.375565 -29.358562 7.815786 0.628031
188.375565 -29.358559 7.014591 0.606744
188.375565 -29.358562 6.224643 0.610178
188.375565 -29.358562 5.444053 0.618769
188.375565 -29.358562 4.671006 0.611048
188.375565 -29.358561 3.903761 0.634348
188.375565 -29.358559 3.140623 0.606134
188.375565 -29.358564 2.379936 0.628626
188.375565 -29.358564 1.620064 0.633646
188.375565 -29.358559 0.859376 0.624399
188.375565 -29.358561 0.096239 0.605234
191.524551 -34.268036 -0.000022 0.502525
194.359390 -38.687714 0.199997 0.724193
195.569885 -40.574963 0.199992 0.660288
195.936310 -41.146240 0.010001 1.000000
196.600052 -42.181046 -0.000004 0.339803
188.119553 -28.649694 8.000013 0.529992
188.122528 -28.654398 7.172237 0.718883
188.192551 -28.765266 6.333596 0.931319
188.192551 -28.765261 5.532875 0.952880
188.122528 -28.654396 4.754977 0.727703
188.122528 -28.654394 3.963611 0.722789
188.122528 -28.654400 3.176481 0.735027
188.122528 -28.654400 2.391881 0.716030
188.122528 -28.654400 1.608119 0.725246
188.122528 -28.654400 0.823519 0.714855
188.122528 -28.654400 0.036389 0.717159
191.626953 -34.202862 -0.000021 0.537453
194.430847 -38.642212 0.199995 0.734096
195.628143 -40.537876 0.199992 0.747860
195.990570 -41.111694 0.010000 1.000000
196.647064 -42.151115 -0.000004 0.331807
188.261230 -28.560871 8.000019 0.528405
188.122528 -28.337814 7.230175 0.694789
188.142532 -28.369991 6.399372 0.611765
188.142532 -28.369995 5.586496 0.611765
188.122528 -28.337811 4.785837 0.699947
188.122528 -28.337809 3.985607 0.718654
188.122528 -28.337812 3.189660 0.689204
188.122528 -28.337814 2.396270 0.717357
188.122528 -28.337814 1.603730 0.693980
188.122528 -28.337814 0.810340 0.717540
188.122528 -28.337811 0.014393 0.703761
191.729782 -34.138405 -0.000021 0.531701
194.502625 -38.597214 0.199993 0.700343
195.686661 -40.501198 0.199992 0.674479
196.045059 -41.077515 0.009995 1.000000
196.694305 -42.121513 -0.000004 0.335821
188.403549 -28.473045 8.000023 0.528969
188.122528 -28.014038 7.289686 0.748867
188.142532 -28.046713 6.449433 0.611765
188.142532 -28.046719 5.627306 0.611765
188.122528 -28.014036 4.817536 0.745525
188.122528 -28.014044 4.008199 0.764843
188.122528 -28.014038 3.203197 0.746059
188.122528 -28.014040 2.400779 0.744228
188.122528 -28.014040 1.599221 0.765133
188.122528 -28.014038 0.796803 0.730968
188.174545 -28.099012 -0.000031 0.546822
191.833084 -34.074673 -0.000021 0.518334
194.574707 -38.552719 0.199991 0.669139
195.745438 -40.464935 0.199992 0.698375
196.099823 -41.043770 0.010004 1.000000
196.741745 -42.092243 -0.000003 0.339605
188.422562 -28.180630 8.060150 0.497261
188.122528 -27.682789 7.350833 0.740490
188.142532 -27.715992 6.500864 0.611765
188.142532 -27.715994 5.669236 0.611765
188.122528 -27.682791 4.850105 0.768063
188.122528 -27.682791 4.031412 0.767895
188.122528 -27.682787 3.217105 0.768338
188.122528 -27.682793 2.405412 0.742336
188.122528 -27.682793 1.594588 0.739376
188.122528 -27.682791 0.782895 0.768978
188.320084 -28.010597 -0.000031 0.542458
191.936813 -34.011654 -0.000022 0.544137
194.647110 -38.508732 0.199990 0.687266
195.789063 -40.403515 0.194561 0.661463
196.130890 -40.970688 -0.000005 0.343450
196.789383 -42.063301 -0.000004 0.347906
188.422562 -27.849575 8.131323 0.504601
188.122528 -27.343790 7.413672 0.755627
188.142532 -27.377512 6.553724 0.611765
188.142532 -27.377508 5.712329 0.611765
188.122528 -27.343788 4.883576 0.754269
188.122528 -27.343786 4.055270 0.749615
188.122528 -27.343786 3.231399 0.749218
188.122528 -27.343788 2.410173 0.759289
188.122528 -27.343788 1.589827 0.764660
188.122528 -27.343784 0.768601 0.759518
188.466232 -27.923204 -0.000031 0.537697
192.928055 -35.444775 0.200002 0.711162
194.719818 -38.465252 0.199990 0.724468
195.793152 -40.274651 0.174819 0.669596
196.186371 -40.937511 -0.000005 0.341482
196.837219 -42.034695 -0.000004 0.335210
188.422562 -27.510639 8.204492 0.504295
188.122528 -26.996700 7.478280 0.726680
188.142532 -27.030964 6.608069 0.611765
188.142532 -27.030964 5.756633 0.611765
188.122528 -26.996696 4.917990 0.742611
188.122528 -26.996698 4.079798 0.744366
188.122528 -26.996700 3.246094 0.710460
188.122528 -26.996704 2.415068 0.731197
188.122528 -26.996704 1.584932 0.732525
188.122528 -26.996704 0.753905 0.709560
188.612991 -27.836836 -0.000031 0.528405
193.022202 -35.389374 0.200002 0.694316
194.792831 -38.422287 0.199990 0.700298
195.797363 -40.142944 0.154553 0.676402
196.242081 -40.904720 -0.000005 0.344640
196.885269 -42.006424 -0.000004 0.339437
188.422562 -27.163496 8.279741 0.516243
188.122528 -26.641214 7.544720 0.707408
188.142517 -26.676031 6.663956 0.611765
188.142532 -26.676037 5.802193 0.611765
188.122528 -26.641216 4.953379 0.665095
188.122528 -26.641214 4.105021 0.706127
188.122528 -26.641214 3.261207 0.705577
188.122528 -26.641218 2.420102 0.691234
188.122528 -26.641218 1.579898 0.667903
188.122528 -26.641218 0.738793 0.699306
188.760361 -27.751497 -0.000031 0.545083
193.116730 -35.334625 0.200001 0.712963
194.866135 -38.379829 0.199990 0.720150
195.801666 -40.008293 0.133743 0.735256
196.298035 -40.872322 -0.000005 0.341756
196.933502 -41.978489 -0.000004 0.329900
187.180695 -24.610725 8.989321 0.232395
188.122528 -26.276983 7.613069 0.708827
188.142532 -26.312372 6.721448 0.611765
188.142517 -26.312368 5.849064 0.611765
188.122528 -26.276983 4.989784 0.706279
188.122528 -26.276981 4.130969 0.686442
188.122528 -26.276983 3.276754 0.717311
188.122528 -26.276987 2.425280 0.719112
188.122528 -26.276987 1.574719 0.707195
188.122528 -26.276989 0.723247 0.701778
188.908310 -27.667183 -0.000031 0.560815
193.211624 -35.280525 0.199999 0.710246
194.939743 -38.337883 0.199989 0.707866
195.806015 -39.870476 0.112347 0.748425
196.354202 -40.840317 -0.000005 0.333532
196.981934 -41.950890 -0.000004 0.327901
186.786850 -23.501593 9.279903 0.232105
188.122528 -25.903641 7.683404 0.737652
188.142517 -25.939610 6.780611 0.611765
188.142517 -25.939606 5.897294 0.611765
188.192520 -26.029531 5.010677 0.953582
188.122513 -25.903639 4.157673 0.707042
188.122513 -25.903639 3.292752 0.737819
188.122528 -25.903645 2.430610 0.738018
188.122528 -25.903645 1.569390 0.696529
188.122528 -25.903643 0.707248 0.721950
189.056839 -27.583902 -0.000032 0.535668
193.306885 -35.227089 0.199996 0.711040
195.013641 -38.296452 0.199989 0.716945
195.810532 -39.729584 0.090389 0.725429
196.410583 -40.808701 -0.000005 0.340917
197.030548 -41.923630 -0.000004 0.340566
186.357101 -22.293058 9.596973 0.255634
188.122528 -25.520809 7.755807 0.690150
188.122528 -25.520805 6.849098 0.689296
188.122513 -25.520803 5.953126 0.690196
188.122528 -25.520809 5.065814 0.692088
188.122513 -25.520803 4.185160 0.708904
188.122513 -25.520802 3.309221 0.702800
188.122528 -25.520811 2.436096 0.699321
188.122528 -25.520811 1.563905 0.700374
188.122528 -25.520813 0.690779 0.691722
189.205963 -27.501667 -0.000032 0.540795
193.402527 -35.174316 0.199994 0.707668
195.087814 -38.255539 0.199988 0.671855
195.815094 -39.585239 0.067790 0.706783
196.467194 -40.777481 -0.000005 0.342824
197.079361 -41.896713 -0.000004 0.350362
163.321732 20.977161 21.875490 0.589624
188.122513 -25.128067 7.830369 0.776471
188.122513 -25.128069 6.911914 0.776471
188.122513 -25.128065 6.004336 0.776211
188.122513 -25.128069 5.105529 0.775250
188.122513 -25.128067 4.213467 0.765942
188.122513 -25.128069 3.326180 0.768231
188.122528 -25.128080 2.441745 0.773709
188.122528 -25.128080 1.558255 0.773785
188.122528 -25.128077 0.673819 0.775051
189.355637 -27.420469 -0.000032 0.543999
193.498550 -35.122223 0.199992 0.696391
195.162277 -38.215141 0.199988 0.695644
195.819763 -39.437428 0.044554 0.660853
196.524017 -40.746655 -0.000005 0.333745
197.128357 -41.870132 -0.000004 0.333715
163.948395 20.977161 21.801611 0.689128
188.122513 -24.725002 7.907179 0.717327
188.122528 -24.725008 6.976623 0.761059
188.122513 -24.725002 6.057089 0.757763
188.122513 -24.725002 5.146441 0.751171
188.122513 -24.725002 4.242626 0.749996
188.122513 -24.725000 3.343652 0.766735
188.122528 -24.725014 2.447564 0.764111
188.122528 -24.725014 1.552436 0.763439
188.122513 -24.725004 0.656347 0.754665
189.505890 -27.340322 -0.000032 0.548882
193.594910 -35.070789 0.199990 0.716197
195.237030 -38.175270 0.199988 0.691447
195.824554 -39.286015 0.020656 0.712413
196.581070 -40.716228 -0.000005 0.338872
197.177551 -41.843899 -0.000004 0.337652
164.570465 20.977146 21.729233 0.711757
188.122528 -24.311165 7.986333 0.764630
188.122513 -24.311163 7.043308 0.746258
188.192520 -24.445759 6.088949 0.933898
188.192520 -24.445759 5.171150 0.947402
188.122513 -24.311159 4.272678 0.754269
188.122528 -24.311163 3.361657 0.768124
188.122513 -24.311157 2.453562 0.763287
188.122513 -24.311157 1.546439 0.766476
188.122528 -24.311167 0.638343 0.765988
189.656693 -27.261230 -0.000032 0.533272
193.691650 -35.020039 0.199988 0.699443
195.312042 -38.135918 0.199987 0.741604
195.839417 -39.149994 -0.000006 0.333059
196.638321 -40.686203 -0.000005 0.342718
197.226913 -41.818008 -0.000003 0.327825
165.188004 20.977154 21.658342 0.698924
188.265656 -24.166052 8.000023 0.510262
188.122513 -23.886049 7.112061 0.712123
188.142532 -23.925186 6.160981 0.611765
188.142532 -23.925188 5.227015 0.611765
188.122513 -23.886047 4.303659 0.718883
188.122513 -23.886049 3.380219 0.716945
188.122513 -23.886051 2.459744 0.720562
188.122513 -23.886051 1.540256 0.710903
188.122528 -23.886053 0.619780 0.721080
189.808044 -27.183191 -0.000032 0.539071
193.788727 -34.969963 0.199985 0.678584
195.387344 -38.097092 0.199987 0.685374
195.907623 -39.114830 -0.000006 0.339132
196.695770 -40.656574 -0.000005 0.333501
197.276459 -41.792465 -0.000003 0.345678
165.801163 20.977154 21.588909 0.441581
188.438644 -24.078358 8.000027 0.523980
188.122513 -23.449169 7.182968 0.725978
188.142532 -23.489010 6.218693 0.611765
188.142532 -23.489014 5.271772 0.611765
188.122513 -23.449167 4.335612 0.722225
188.122513 -23.449167 3.399364 0.735943
188.122513 -23.449175 2.466121 0.715755
188.122513 -23.449175 1.533879 0.724941
188.122513 -23.449173 0.600636 0.734249
189.959930 -27.106199 -0.000033 0.538109
193.886154 -34.920570 0.199984 0.711116
195.462906 -38.058792 0.199986 0.682521
196.000748 -39.129269 0.009999 1.000000
196.753448 -40.627350 -0.000005 0.333623
197.326172 -41.767265 -0.000004 0.331426
166.410034 20.977161 21.520916 0.603922
188.422577 -23.607714 8.092564 0.517662
188.122513 -22.999975 7.256128 0.756161
188.142548 -23.040541 6.278239 0.611765
188.142548 -23.040535 5.317953 0.611765
188.122513 -22.999973 4.368581 0.763073
188.122513 -22.999968 3.419116 0.768307
188.122513 -22.999975 2.472701 0.764035
188.122513 -22.999975 1.527299 0.769757
188.122513 -22.999973 0.580883 0.748959
190.112366 -27.030279 -0.000033 0.541970
193.983932 -34.871864 0.199984 0.711315
195.538742 -38.021019 0.199986 0.699107
196.069092 -39.095207 0.009994 1.000000
196.811310 -40.598526 -0.000005 0.337423
197.376068 -41.742413 -0.000004 0.330709
167.014725 20.977161 21.454338 0.561303
188.422577 -23.156479 8.180099 0.499046
188.122513 -22.537899 7.331649 0.738781
188.142548 -22.579199 6.339707 0.611765
188.142548 -22.579201 5.365623 0.611765
188.122513 -22.537899 4.402613 0.737408
188.122513 -22.537897 3.439507 0.738262
188.122513 -22.537901 2.479493 0.716304
188.122513 -22.537901 1.520507 0.728069
188.122513 -22.537901 0.560493 0.730190
190.265320 -26.955427 -0.000033 0.536889
194.082047 -34.823841 0.199983 0.700175
195.614838 -37.983788 0.199987 0.715526
196.137695 -39.061703 0.010005 1.000000
196.869370 -40.570110 -0.000005 0.333288
197.426132 -41.717907 -0.000004 0.340230
167.615326 20.977169 21.389151 0.563790
188.422577 -22.692064 8.270500 0.495628
188.122513 -22.062323 7.409638 0.771359
188.142563 -22.104391 6.403183 0.611765
188.142563 -22.104389 5.414852 0.611765
188.122513 -22.062325 4.437757 0.756191
188.122513 -22.062323 3.460563 0.768704
188.122513 -22.062330 2.486506 0.768444
188.122513 -22.062330 1.513494 0.745220
188.122513 -22.062325 0.539437 0.750835
190.418793 -26.881641 -0.000033 0.548898
194.180496 -34.776512 0.199982 0.706630
195.691193 -37.947086 0.199988 0.717693
196.182846 -38.978947 -0.000006 0.340139
196.927643 -40.542099 -0.000005 0.337438
197.476379 -41.693756 -0.000004 0.343389
168.211960 20.977154 21.325335 0.548760
187.148254 -19.490566 9.013279 0.248356
188.122513 -21.572611 7.490213 0.736767
188.142563 -21.615461 6.468765 0.611765
188.142563 -21.615461 5.465714 0.611765
188.122513 -21.572607 4.474067 0.726955
188.122513 -21.572609 3.482317 0.735439
188.122513 -21.572613 2.493753 0.730571
188.122513 -21.572613 1.506247 0.735119
188.122513 -21.572615 0.517682 0.750256
190.572784 -26.808931 -0.000033 0.546731
194.279266 -34.729866 0.199982 0.716304
195.767792 -37.910919 0.199989 0.667231
196.252228 -38.946182 -0.000006 0.341939
196.986099 -40.514496 -0.000005 0.338384
197.526779 -41.669956 -0.000004 0.333227
168.804703 20.977161 21.262878 0.490929
186.665573 -17.897015 9.369375 0.240894
188.122513 -21.068048 7.573505 0.724468
188.122513 -21.068048 6.543684 0.727703
188.122513 -21.068052 5.523816 0.707012
188.122513 -21.068048 4.511600 0.725811
188.122513 -21.068050 3.504805 0.727947
188.122513 -21.068056 2.501244 0.716030
188.122513 -21.068058 1.498757 0.719524
188.122513 -21.068054 0.495195 0.725460
190.727264 -26.737289 -0.000033 0.553628
194.378357 -34.683910 0.199982 0.707149
195.844650 -37.875286 0.199989 0.710170
196.321838 -38.913902 -0.000006 0.334264
197.044754 -40.487301 -0.000005 0.340291
197.577347 -41.646507 -0.000004 0.335531
169.393661 20.977146 21.201750 0.756909
186.129456 -16.128986 9.764893 0.246876
188.317154 -20.979492 7.573495 0.587442
188.317154 -20.979492 6.543677 0.621164
188.317154 -20.979490 5.523811 0.627482
188.317154 -20.979492 4.511597 0.621790
188.317154 -20.979490 3.504803 0.635294
188.317154 -20.979488 2.501244 0.628351
188.317154 -20.979486 1.498757 0.624567
188.317154 -20.979488 0.495196 0.608515
190.882248 -26.666735 -0.000033 0.532509
194.477783 -34.638649 0.199981 0.673899
195.843521 -37.666725 0.171763 0.668757
196.391693 -38.882111 -0.000005 0.337987
197.103592 -40.460514 -0.000005 0.329732
197.628082 -41.623413 -0.000003 0.338979
169.978912 20.977154 21.141947 0.636683
169.978943 20.977100 18.504896 0.612222
188.122513 -20.011452 7.748763 0.762951
188.192535 -20.169641 6.660897 0.923598
188.192535 -20.169641 5.614720 0.938155
188.122513 -20.011448 4.590578 0.759747
188.122513 -20.011442 3.552125 0.748714
188.122513 -20.011450 2.517005 0.754574
188.122513 -20.011450 1.482995 0.761883
188.122513 -20.011450 0.447876 0.757900
191.037720 -26.597260 -0.000034 0.538048
194.577515 -34.594086 0.199981 0.691341
195.845963 -37.459656 0.143867 0.680476
196.461746 -38.850807 -0.000005 0.337316
197.162613 -40.434143 -0.000005 0.333669
197.678970 -41.600674 -0.000003 0.332204
170.560562 20.977146 21.083437 0.575357
170.448914 21.234219 18.514994 0.678431
188.122513 -19.457781 7.841026 0.730129
188.142517 -19.503845 6.754325 0.611765
188.142517 -19.503847 5.687178 0.611765
188.122513 -19.457779 4.632154 0.719646
188.122513 -19.457785 3.577035 0.715129
188.122513 -19.457785 2.525302 0.711315
188.122513 -19.457785 1.474697 0.718608
188.122513 -19.457790 0.422965 0.726345
191.193680 -26.528877 -0.000034 0.542092
194.677551 -34.550217 0.199981 0.710933
195.848450 -37.246109 0.115004 0.696086
196.532028 -38.819992 -0.000006 0.335363
197.221817 -40.408180 -0.000005 0.334035
197.730026 -41.578289 -0.000004 0.341741
171.138687 20.977161 21.026215 0.709575
171.029175 21.234196 18.465467 0.678431
188.122513 -18.886017 7.936596 0.742672
188.142517 -18.932989 6.832112 0.611765
188.142517 -18.932991 5.747504 0.611765
188.122513 -18.886011 4.675222 0.733516
188.122513 -18.886013 3.602838 0.726940
188.122513 -18.886017 2.533898 0.731624
188.122513 -18.886019 1.466102 0.721019
188.122513 -18.886021 0.397162 0.730632
191.350098 -26.461584 -0.000034 0.536797
194.777893 -34.507050 0.199981 0.714244
195.850952 -37.025650 0.085111 0.744656
196.602509 -38.789665 -0.000006 0.336721
197.281204 -40.382633 -0.000005 0.329809
197.781235 -41.556259 -0.000004 0.339269
171.713394 20.977161 20.970253 0.526696
171.713409 20.977131 18.356863 0.730983
188.197968 -18.475817 8.000026 0.528893
188.149597 -18.360043 6.910008 0.943771
188.142532 -18.343130 5.810025 0.611765
188.122513 -18.295202 4.719855 0.774029
188.122513 -18.295202 3.629580 0.775372
188.122513 -18.295202 2.542806 0.775555
188.122513 -18.295210 1.457195 0.775067
188.122513 -18.295212 0.370420 0.767208
191.506989 -26.395388 -0.000034 0.545113
194.878540 -34.464596 0.199982 0.689067
195.853592 -36.798222 0.054181 0.759457
196.673218 -38.759838 -0.000005 0.337789
197.340775 -40.357506 -0.000005 0.337499
197.832581 -41.534592 -0.000004 0.330770
172.284760 20.977161 20.915537 0.624704
172.284760 20.977116 18.309681 0.584772
188.422577 -18.416811 7.994322 0.519341
188.192520 -17.855215 6.976771 0.945647
188.142532 -17.733210 5.874861 0.611765
188.122498 -17.684307 4.766141 0.755062
188.122498 -17.684307 3.657312 0.757733
188.122498 -17.684307 2.552042 0.756741
188.122513 -17.684313 1.447958 0.750652
188.122513 -17.684315 0.342689 0.760235
191.664352 -26.330286 -0.000033 0.531853
194.979477 -34.422844 0.199983 0.700328
195.856339 -36.563324 0.022138 0.761196
196.744125 -38.730499 -0.000005 0.341009
197.400497 -40.332787 -0.000005 0.334462
197.884094 -41.513283 -0.000004 0.335500
172.852844 20.977161 20.862053 0.561761
172.749634 21.234234 18.323406 0.566293
188.422577 -17.799576 8.098398 0.501381
188.122513 -17.052238 7.091052 0.739681
188.192505 -17.226582 5.926709 0.937163
188.122498 -17.052235 4.814169 0.733700
188.122498 -17.052235 3.686086 0.742519
188.122513 -17.052242 2.561627 0.738338
188.122513 -17.052248 1.438372 0.731991
188.122513 -17.052242 0.313913 0.721828
191.822144 -26.266273 -0.000034 0.538796
195.080719 -34.381794 0.199984 0.712093
195.886963 -36.389786 -0.000008 0.341436
196.815231 -38.701660 -0.000005 0.336889
197.460419 -40.308491 -0.000005 0.337621
197.935745 -41.492332 -0.000003 0.342199
173.417770 20.977161 20.809788 0.672206
173.316635 21.234226 18.278170 0.678431
188.422577 -17.160494 8.206461 0.498848
188.122498 -16.397778 7.181268 0.728069
188.122498 -16.397781 6.018289 0.720119
188.122498 -16.397781 4.864037 0.718441
188.122498 -16.397785 3.715964 0.728313
188.122498 -16.397785 2.571579 0.708553
188.122513 -16.397797 1.428420 0.709453
188.122513 -16.397797 0.284036 0.708156
191.980392 -26.203377 -0.000034 0.547845
195.182220 -34.341461 0.199986 0.686473
195.974442 -36.355019 -0.000008 0.336065
196.886551 -38.673317 -0.000005 0.340139
197.520493 -40.284615 -0.000004 0.336507
197.987549 -41.471745 -0.000003 0.334646
173.979599 20.977161 20.758718 0.610788
173.979614 20.977123 18.174467 0.610925
187.362930 -13.748821 8.854892 0.208179
188.122498 -15.719704 7.274997 0.720378
188.192566 -15.901505 6.068564 0.938720
188.122498 -15.719707 4.915846 0.725231
188.122498 -15.719704 3.747005 0.724361
188.122498 -15.719700 2.581919 0.734142
188.122513 -15.719711 1.418081 0.726574
188.122513 -15.719715 0.252994 0.721691
193.016266 -28.417637 0.199971 0.707912
195.284012 -34.301826 0.199987 0.703609
196.086380 -36.383751 0.009990 1.000000
196.958054 -38.645470 -0.000005 0.337453
197.580734 -40.261154 -0.000004 0.333639
198.039490 -41.451515 -0.000003 0.337514
174.538406 20.977169 20.708839 0.655009
174.538437 20.977108 18.131454 0.632471
186.793655 -11.495541 9.274889 0.216876
188.122498 -15.016594 7.372445 0.707012
188.142548 -15.069702 6.160026 0.611765
188.122498 -15.016594 4.969713 0.722377
188.122498 -15.016594 3.779280 0.728038
188.122498 -15.016590 2.592670 0.738140
188.122498 -15.016602 1.407330 0.727474
188.122498 -15.016605 0.220720 0.718914
193.159454 -28.363012 0.199971 0.713985
195.386078 -34.262909 0.199987 0.714199
196.173935 -36.350464 0.010003 1.000000
197.029755 -38.618126 -0.000005 0.331426
197.641129 -40.238113 -0.000004 0.339086
198.091583 -41.431652 -0.000003 0.335683
175.094299 20.977146 20.660126 0.542611
175.094299 20.977131 18.089458 0.584115
186.148193 -8.943008 9.751080 0.251270
188.122498 -14.286983 7.473835 0.763409
188.142532 -14.341190 6.238540 0.611765
188.192581 -14.476654 5.009179 0.934478
188.122498 -14.286976 3.812860 0.760235
188.122498 -14.286976 2.603854 0.758511
188.122498 -14.286987 1.396145 0.759747
188.122498 -14.286987 0.187141 0.763622
193.303024 -28.309391 0.199970 0.704051
195.488419 -34.224705 0.199988 0.694774
196.238281 -36.254395 -0.000008 0.334447
197.101639 -38.591282 -0.000005 0.336019
197.701691 -40.215500 -0.000004 0.340169
198.143799 -41.412151 -0.000004 0.334340
175.647308 20.977146 20.612570 0.481132
175.554367 21.234241 18.107506 0.678431
175.647308 20.977169 15.520355 0.580392
188.122498 -13.529270 7.579403 0.769985
188.142502 -13.584606 6.320288 0.611765
188.192535 -13.722973 5.067223 0.945922
188.122498 -13.529263 3.847822 0.768261
188.122498 -13.529263 2.615500 0.773159
188.122498 -13.529274 1.384500 0.775799
188.122498 -13.529278 0.152179 0.775433
193.446976 -28.256798 0.199972 0.716945
195.591019 -34.187214 0.199989 0.676081
196.326691 -36.222084 -0.000007 0.334691
197.173706 -38.564938 -0.000005 0.340383
197.762421 -40.193310 -0.000004 0.331441
198.196152 -41.393013 -0.000003 0.346197
176.197540 20.977154 20.566164 0.419730
176.106613 21.234264 18.067350 0.678431
176.197540 20.977177 15.486646 0.625238
188.122498 -12.741699 7.689407 0.741970
188.122498 -12.741699 6.412371 0.727199
188.122498 -12.741695 5.144920 0.717342
188.122498 -12.741692 3.884254 0.733425
188.122498 -12.741695 2.627636 0.721294
188.122498 -12.741711 1.372365 0.735637
188.122498 -12.741711 0.115747 0.731777
193.591309 -28.205235 0.199975 0.714565
195.693878 -34.150455 0.199992 0.713787
196.415329 -36.190388 -0.000007 0.336965
197.245972 -38.539104 -0.000005 0.339559
197.823288 -40.171543 -0.000004 0.339788
198.248642 -41.374245 -0.000004 0.331151
176.745071 20.977154 20.520889 0.659983
176.745087 20.977100 17.969398 0.605066
176.745056 20.977169 15.453759 0.635996
188.313843 -12.475723 7.717278 0.594034
188.313843 -12.475731 6.433987 0.619303
188.313843 -12.475727 5.160325 0.618952
188.313843 -12.475739 3.893483 0.630884
188.313843 -12.475731 2.630711 0.600320
188.313843 -12.475735 1.369290 0.639170
188.313843 -12.475742 0.106517 0.615381
193.735992 -28.154713 0.199982 0.699702
195.796997 -34.114418 0.199995 0.706554
196.504181 -36.159313 -0.000007 0.332601
197.318405 -38.513771 -0.000005 0.338064
197.884308 -40.150200 -0.000004 0.337148
198.301254 -41.355843 -0.000004 0.341619
177.289948 20.977161 20.476730 0.611414
177.289963 20.977123 17.931328 0.530602
177.289963 20.977131 15.421674 0.492638
188.122498 -11.069378 7.923853 0.738933
188.142532 -11.128670 6.586996 0.611765
188.142532 -11.128662 5.269383 0.611765
188.122498 -11.069378 3.961899 0.736782
188.122498 -11.069378 2.653499 0.733837
188.122498 -11.069397 1.346501 0.724025
188.122498 -11.069393 0.038101 0.745769
193.881042 -28.105217 0.199989 0.698634
195.875687 -34.006081 0.191130 0.674601
196.593246 -36.128860 -0.000007 0.339254
197.391006 -38.488945 -0.000005 0.336812
197.945480 -40.129284 -0.000004 0.338018
198.354004 -41.337811 -0.000003 0.323705
177.832260 20.977146 20.433681 0.651301
177.754349 21.213078 17.947878 0.291203
177.743637 21.245518 15.441828 0.609094
188.225876 -10.493401 8.000029 0.497078
188.142517 -10.240986 6.683854 0.611765
188.142517 -10.240986 5.338418 0.611765
188.122498 -10.180351 4.003323 0.773098
188.122498 -10.180347 2.667297 0.755795
188.122498 -10.180363 1.332703 0.770871
188.143341 -10.243484 -0.000058 0.536980
194.026428 -28.056726 0.199996 0.710002
195.875305 -33.654884 0.152797 0.710781
196.682510 -36.099030 -0.000007 0.342138
197.463791 -38.464626 -0.000005 0.336828
198.006805 -40.108795 -0.000004 0.338460
198.406860 -41.320145 -0.000003 0.342458
178.372101 20.977154 20.391724 0.514031
178.289169 21.234234 17.916378 0.678431
178.318024 21.144794 15.391979 0.122057
188.422592 -10.183365 8.034696 0.528695
188.142502 -9.314953 6.785128 0.611765
188.142502 -9.314957 5.410602 0.611765
188.122482 -9.252930 4.046637 0.730892
188.122498 -9.252934 2.681724 0.698741
188.122498 -9.252941 1.318275 0.700603
188.413528 -10.155281 -0.000058 0.540002
194.172150 -28.009249 0.200002 0.703548
195.874863 -33.288322 0.112692 0.671092
196.772003 -36.069824 -0.000007 0.333532
197.536743 -38.440815 -0.000005 0.342016
198.068253 -40.088737 -0.000004 0.336233
198.459854 -41.302849 -0.000003 0.338567
178.909485 20.977146 20.350849 0.714702
178.909485 20.977146 17.822792 0.630671
178.909500 20.977116 15.330228 0.657862
188.422592 -9.237656 8.168356 0.485405
188.122498 -8.284481 6.898776 0.728420
188.122498 -8.284477 5.491605 0.719387
188.122482 -8.284473 4.091967 0.726925
188.122482 -8.284473 2.696825 0.733883
188.122498 -8.284489 1.303176 0.732082
188.684341 -10.068981 -0.000058 0.542077
194.318192 -27.962772 0.200008 0.705913
195.874252 -32.905037 0.070660 0.744106
196.861679 -36.041245 -0.000007 0.338033
197.609848 -38.417515 -0.000005 0.336904
198.129852 -40.069107 -0.000003 0.342077
198.512970 -41.285923 -0.000003 0.336583
179.444519 20.977154 20.311043 0.470054
179.444534 20.977139 17.788471 0.450187
179.444534 20.977131 15.301318 0.435279
188.422592 -8.249035 8.308387 0.492378
188.192307 -7.499382 6.982634 0.949050
188.192307 -7.499378 5.551375 0.951431
188.122482 -7.272102 4.139457 0.698634
188.122482 -7.272099 2.712643 0.727245
188.122498 -7.272118 1.287357 0.707378
188.955734 -9.984547 -0.000060 0.541512
194.464539 -27.917301 0.200011 0.709422
195.873749 -32.504684 0.026663 0.702846
196.951569 -36.013290 -0.000007 0.335195
197.683121 -38.394722 -0.000005 0.338064
198.191589 -40.049908 -0.000004 0.333394
198.566193 -41.269371 -0.000003 0.332296
179.977280 20.977139 20.272305 0.546136
179.977280 20.977139 17.755070 0.545983
179.977280 20.977131 15.273175 0.545830
186.692413 -1.438858 9.349589 0.250645
188.122482 -6.212627 7.126621 0.722484
188.142471 -6.279377 5.648287 0.611765
188.122482 -6.212631 4.189266 0.717418
188.122482 -6.212639 2.729235 0.720058
188.122498 -6.212658 1.270767 0.731548
189.227707 -9.902027 -0.000060 0.544198
194.611206 -27.872854 0.200015 0.709880
195.921860 -32.247963 0.000009 0.337240
197.041641 -35.985966 -0.000006 0.339803
197.756561 -38.372452 -0.000004 0.337087
198.253448 -40.031143 -0.000003 0.338216
198.619537 -41.253189 -0.000003 0.343725
180.507813 20.977154 20.234613 0.479805
180.507813 20.977154 17.722574 0.479500
180.507813 20.977146 15.245800 0.518761
180.507813 20.977154 12.798364 0.522377
188.122482 -5.102596 7.249078 0.755322
188.170792 -5.268036 5.727150 0.293843
188.122482 -5.102592 4.241559 0.745830
188.122482 -5.102589 2.746653 0.749081
188.122482 -5.102608 1.253348 0.731426
189.500259 -9.821407 -0.000060 0.541909
194.758179 -27.829435 0.200019 0.713695
196.062561 -32.296814 0.009988 1.000000
197.131912 -35.959267 -0.000007 0.339834
197.830139 -38.350685 -0.000004 0.336614
198.315445 -40.012806 -0.000003 0.338582
198.672989 -41.237377 -0.000003 0.334173
181.036179 20.977146 20.197966 0.488243
181.036179 20.977161 17.690975 0.489174
181.036179 20.977146 15.219178 0.489937
181.036179 20.977146 12.776659 0.476478
188.147919 -4.027641 7.367095 0.598444
188.147919 -4.027641 5.825399 0.623224
188.147919 -4.027641 4.291957 0.611643
188.147919 -4.027641 2.763441 0.603845
188.147919 -4.027641 1.236560 0.635111
189.773376 -9.742695 -0.000060 0.536522
194.905457 -27.787033 0.200022 0.705165
196.178604 -32.263412 0.009993 1.000000
197.222351 -35.933197 -0.000007 0.337514
197.903885 -38.329437 -0.000004 0.341192
198.377563 -39.994904 -0.000003 0.331426
198.726547 -41.221943 -0.000003 0.342885
181.562439 20.977154 20.162342 0.417044
181.562439 20.977169 17.660265 0.418357
181.562439 20.977169 15.193306 0.419821
181.562454 20.977146 12.755567 0.592660
188.122482 -2.715183 7.513257 0.753826
188.142593 -2.787807 5.923397 0.611765
188.122482 -2.715176 4.354374 0.724956
188.122482 -2.715183 2.784231 0.753292
188.122482 -2.715202 1.215769 0.740948
190.047028 -9.665913 -0.000060 0.540673
195.053009 -27.745625 0.200023 0.698940
196.271729 -32.147141 0.000009 0.335393
197.312973 -35.907768 -0.000007 0.334569
197.977768 -38.308701 -0.000004 0.331807
198.439804 -39.977436 -0.000003 0.338857
198.780228 -41.206879 -0.000003 0.332433
181.865341 21.798870 20.340910 0.586587
181.865341 21.798817 17.814215 0.556023
181.865356 21.798801 15.323003 0.588449
181.865341 21.798817 12.861305 0.621973
188.122467 -1.428894 7.656004 0.721981
188.171539 -1.611004 6.015856 0.277760
188.122482 -1.428905 4.415331 0.718654
188.122482 -1.428898 2.804537 0.724727
188.122482 -1.428898 1.195464 0.737026
190.321213 -9.591034 -0.000060 0.541848
195.200851 -27.705254 0.200024 0.706386
196.388809 -32.115162 0.000009 0.336294
197.403778 -35.882965 -0.000007 0.339147
198.051788 -38.288483 -0.000004 0.333547
198.502167 -39.960403 -0.000003 0.337072
198.834000 -41.192192 -0.000003 0.343130
181.865280 23.816608 20.829395 0.512047
181.864670 23.818966 18.235941 0.679637
181.865280 23.816624 15.677858 0.658427
181.864670 23.818966 13.150949 0.515328
188.122467 -0.074165 7.806632 0.717983
188.172150 -0.263809 6.122605 0.937255
188.122467 -0.074154 4.479655 0.726726
188.122467 -0.074154 2.825963 0.729305
188.122467 -0.074154 1.174039 0.731884
190.595901 -9.518055 -0.000060 0.539467
195.348969 -27.665903 0.200023 0.709834
196.506104 -32.084015 0.000010 0.333791
197.494751 -35.858803 -0.000006 0.335622
198.125946 -38.268784 -0.000004 0.341833
198.564651 -39.943810 -0.000003 0.343832
198.887863 -41.177883 -0.000003 0.336004
181.865234 25.944874 21.345577 0.613428
181.706451 26.568897 18.819557 0.177951
181.865250 25.944874 16.052813 0.547448
181.706451 26.568905 13.551784 0.160784
188.122467 1.354763 7.965798 0.760449
188.192566 1.079292 6.228817 0.937758
188.122467 1.354771 4.547626 0.747570
188.122467 1.354771 2.848603 0.752514
188.122467 1.354771 1.151398 0.742351
190.871094 -9.446991 -0.000060 0.541268
195.497360 -27.627594 0.200023 0.707134
196.623627 -32.053665 0.000010 0.334737
197.585892 -35.835274 -0.000006 0.337377
198.200256 -38.249603 -0.000004 0.337087
198.627243 -39.927643 -0.000003 0.334096
198.941833 -41.163952 -0.000003 0.336767
181.865204 28.193188 21.891842 0.653284
181.865143 28.193394 19.151541 0.552560
181.865189 28.193211 16.449635 0.612299
181.865158 28.193356 13.779783 0.542046
188.422607 1.649357 7.990273 0.512413
188.142578 2.782944 6.365311 0.611765
188.122467 2.864304 4.619559 0.727398
188.122467 2.864304 2.872562 0.735683
188.122467 2.864304 1.127437 0.736858
191.146790 -9.377857 -0.000060 0.538048
195.646011 -27.590319 0.200024 0.707485
196.741348 -32.024147 0.000010 0.336492
197.677200 -35.812374 -0.000006 0.338903
198.274689 -38.230934 -0.000004 0.336477
198.689957 -39.911926 -0.000002 0.337499
198.995911 -41.150391 -0.000003 0.342321
181.635284 31.531483 22.717951 0.678431
181.635284 31.531483 19.863804 0.678431
181.635284 31.531490 17.049725 0.678431
181.635300 31.531445 14.268970 0.678431
188.422607 3.209229 8.164635 0.499077
188.122467 4.461670 6.499447 0.759014
188.122467 4.461674 4.695809 0.762615
188.122467 4.461674 2.897962 0.747326
188.122467 4.461674 1.102039 0.757763
191.422958 -9.310658 -0.000060 0.538705
195.794922 -27.554098 0.200024 0.708766
196.859283 -31.995457 0.000010 0.331960
197.768661 -35.790119 -0.000007 0.341115
198.349243 -38.212795 -0.000004 0.335073
198.752762 -39.896637 -0.000003 0.334936
199.050064 -41.137211 -0.000003 0.329564
181.865295 33.093349 23.085499 0.572122
181.865356 33.093128 20.180660 0.507378
181.865356 33.093128 17.316671 0.658289
181.865311 33.093349 14.486630 0.538354
187.216187 10.056644 8.963190 0.214435
188.148712 6.041908 6.625062 0.290196
188.122452 6.154922 4.776769 0.739193
188.122467 6.154911 2.924928 0.750713
188.122467 6.154911 1.075072 0.740078
191.699585 -9.245380 -0.000061 0.543130
195.847763 -27.104202 0.165115 0.704463
196.977402 -31.967583 0.000010 0.336400
197.860275 -35.768501 -0.000007 0.333089
198.423935 -38.195175 -0.000004 0.337514
198.815689 -39.881790 -0.000003 0.341878
199.104324 -41.124413 -0.000003 0.334997
181.715302 36.438160 23.910637 0.248081
181.865295 35.771313 20.744553 0.652262
181.715302 36.438152 17.916101 0.173083
181.715302 36.438168 14.975272 0.252506
181.865234 35.771595 11.984265 0.628672
188.142471 7.864098 6.770831 0.611765
188.122467 7.953060 4.862885 0.748165
188.122467 7.953056 2.953615 0.744259
188.122467 7.953056 1.046386 0.755611
192.870438 -13.155636 0.200027 0.711482
195.842590 -26.369307 0.106278 0.713085
197.095718 -31.940538 0.000010 0.340002
197.952026 -35.747524 -0.000007 0.332479
198.498734 -38.178074 -0.000004 0.332601
198.878708 -39.867386 -0.000002 0.338704
199.158661 -41.111992 -0.000002 0.340627
181.705170 39.356670 24.624971 0.137377
181.865250 38.621082 21.345518 0.559945
181.705185 39.356625 18.434996 0.114061
181.746445 39.167034 15.369504 0.156176
181.865204 38.621258 12.304353 0.566720
188.200150 9.509388 6.901530 0.948928
188.122452 9.866428 4.954663 0.754147
188.122452 9.866421 2.984185 0.750027
188.122452 9.866421 1.015815 0.755306
193.120193 -13.100403 0.200029 0.708721
195.838776 -25.593479 0.044098 0.725246
197.214233 -31.914312 0.000010 0.339544
198.043930 -35.727184 -0.000007 0.334524
198.573654 -38.161495 -0.000004 0.334432
198.941833 -39.853416 -0.000002 0.325826
199.213089 -41.099949 -0.000002 0.327459
nan nan nan 0.000000
nan nan nan 0.000000
nan nan nan 0.000000
nan nan nan 0.000000
nan nan nan 0.000000
188.122452 11.906624 7.095077 0.751156
188.192505 11.573517 5.035952 0.938506
188.122452 11.906628 3.016833 0.743160
188.122452 11.906628 0.983169 0.743008
193.370331 -13.046928 0.200031 0.710338
195.890915 -25.032257 -0.000007 0.336538
197.332916 -31.888927 0.000011 0.339300
198.135986 -35.707497 -0.000007 0.335912
198.648697 -38.145439 -0.000004 0.339422
199.005051 -39.839893 -0.000003 0.341985
199.267593 -41.088287 -0.000002 0.327626
nan nan nan 0.000000
nan nan nan 0.000000
nan nan nan 0.000000
nan nan nan 0.000000
nan nan nan 0.000000
188.332962 13.050060 7.183399 0.623056
188.332962 13.050056 5.105593 0.623011
188.332962 13.050053 3.034458 0.603479
188.332962 13.050053 0.965542 0.611902
193.620834 -12.995201 0.200033 0.708080
196.081909 -25.117146 0.009979 1.000000
197.451767 -31.864363 0.000011 0.338338
198.228165 -35.688446 -0.000007 0.335668
198.723846 -38.129910 -0.000004 0.338384
199.068359 -39.826813 -0.000002 0.337926
199.322189 -41.077003 -0.000002 0.335882
nan nan nan 0.000000
nan nan nan 0.000000
nan nan nan 0.000000
nan nan nan 0.000000
nan nan nan 0.000000
nan nan nan 0.000000
nan nan nan 0.000000
nan nan nan 0.000000
nan nan nan 0.000000
193.871689 -12.945217 0.200035 0.707408
196.224686 -24.964550 -0.000002 0.337041
197.570801 -31.840626 0.000011 0.337713
198.320480 -35.670036 -0.000007 0.338399
198.799103 -38.114906 -0.000004 0.331334
199.131760 -39.814171 -0.000002 0.339651
199.376846 -41.066105 -0.000002 0.335088
nan nan nan 0.000000
nan nan nan 0.000000
nan nan nan 0.000000
nan nan nan 0.000000
nan nan nan 0.000000
nan nan nan 0.000000
nan nan nan 0.000000
nan nan nan 0.000000
nan nan nan 0.000000
194.122894 -12.896980 0.200036 0.709560
196.391907 -24.932419 -0.000002 0.337423
197.689987 -31.817738 0.000012 0.336522
198.412918 -35.652275 -0.000007 0.338033
198.874451 -38.100426 -0.000003 0.337911
199.195251 -39.801971 -0.000002 0.340673
199.438995 -41.094841 0.010004 1.000000
nan nan nan 0.000000
nan nan nan 0.000000
nan nan nan 0.000000
nan nan nan 0.000000
nan nan nan 0.000000
nan nan nan 0.000000
nan nan nan 0.000000
nan nan nan 0.000000
nan nan nan 0.000000
194.374420 -12.850506 0.200037 0.710109
196.559357 -24.901466 -0.000001 0.338094
197.809341 -31.795662 0.000011 0.336492
198.505478 -35.635155 -0.000008 0.338903
198.949921 -38.086475 -0.000003 0.333974
199.258820 -39.790215 -0.000002 0.332341
199.493530 -41.084747 0.010002 1.000000
nan nan nan 0.000000
nan nan nan 0.000000
nan nan nan 0.000000
nan nan nan 0.000000
nan nan nan 0.000000
nan nan nan 0.000000
nan nan nan 0.000000
nan nan nan 0.000000
nan nan nan 0.000000
194.626266 -12.805759 0.200038 0.701991
196.727020 -24.871685 0.000000 0.337713
197.928833 -31.774429 0.000012 0.334813
198.598145 -35.618687 -0.000008 0.334401
199.025467 -38.073051 -0.000003 0.335012
199.322464 -39.778904 -0.000002 0.335012
199.548126 -41.075035 0.010000 1.000000
nan nan nan 0.000000
nan nan nan 0.000000
nan nan nan 0.000000
nan nan nan 0.000000
nan nan nan 0.000000
nan nan nan 0.000000
nan nan nan 0.000000
nan nan nan 0.000000
nan nan nan 0.000000
194.878418 -12.762787 0.200039 0.710903
196.894882 -24.843069 0.000000 0.335927
198.048477 -31.754028 0.000012 0.338476
198.690933 -35.602863 -0.000008 0.337972
199.101105 -38.060150 -0.000003 0.339559
199.386200 -39.768040 -0.000002 0.327169
199.602798 -41.065708 0.009998 1.000000
nan nan nan 0.000000
nan nan nan 0.000000
nan nan nan 0.000000
nan nan nan 0.000000
nan nan nan 0.000000
nan nan nan 0.000000
nan nan nan 0.000000
nan nan nan 0.000000
nan nan nan 0.000000
195.130798 -12.721165 0.200019 0.703044
197.062943 -24.815628 0.000001 0.337591
198.168259 -31.734468 0.000012 0.335744
198.783829 -35.587692 -0.000008 0.338079
199.176849 -38.047783 -0.000003 0.338704
199.449997 -39.757618 -0.000002 0.335378
199.651245 -41.017345 -0.000002 0.337789
nan nan nan 0.000000
nan nan nan 0.000000
nan nan nan 0.000000
nan nan nan 0.000000
nan nan nan 0.000000
nan nan nan 0.000000
nan nan nan 0.000000
nan nan nan 0.000000
nan nan nan 0.000000
195.383484 -12.681339 0.200002 0.714702
197.231201 -24.789387 0.000005 0.338033
198.288177 -31.715738 0.000012 0.332494
198.876831 -35.573162 -0.000008 0.342184
199.252655 -38.035942 -0.000003 0.339757
199.513870 -39.747643 -0.000002 0.335851
199.706314 -41.008743 -0.000002 0.340642
nan nan nan 0.000000
nan nan nan 0.000000
nan nan nan 0.000000
nan nan nan 0.000000
nan nan nan 0.000000
nan nan nan 0.000000
nan nan nan 0.000000
nan nan nan 0.000000
nan nan nan 0.000000
195.636414 -12.643253 0.199983 0.701885
197.399628 -24.764305 0.000005 0.337072
198.408218 -31.697847 0.000012 0.336919
198.969940 -35.559288 -0.000008 0.339498
199.328568 -38.024628 -0.000003 0.334432
199.577820 -39.738113 -0.000001 0.337438
199.761459 -41.000526 -0.000001 0.334920
nan nan nan 0.000000
nan nan nan 0.000000
nan nan nan 0.000000
nan nan nan 0.000000
nan nan nan 0.000000
nan nan nan 0.000000
nan nan nan 0.000000
nan nan nan 0.000000
nan nan nan 0.000000
195.824020 -12.132675 0.176443 0.688777
197.568222 -24.740385 0.000006 0.338079
198.528397 -31.680799 0.000012 0.339223
199.063126 -35.546066 -0.000008 0.334157
199.404541 -38.013847 -0.000003 0.331044
199.641815 -39.729031 -0.000001 0.336675
199.816650 -40.992695 -0.000001 0.335805
nan nan nan 0.000000
nan nan nan 0.000000
nan nan nan 0.000000
nan nan nan 0.000000
nan nan nan 0.000000
nan nan nan 0.000000
nan nan nan 0.000000
nan nan nan 0.000000
nan nan nan 0.000000
195.824036 -10.141251 0.079487 0.694743
197.736984 -24.717642 0.000006 0.337224
198.648666 -31.664583 0.000012 0.340993
199.156418 -35.533493 -0.000008 0.335531
199.480591 -38.003597 -0.000003 0.337789
199.705887 -39.720398 -0.000001 0.338384
199.871887 -40.985249 -0.000001 0.322896
nan nan nan 0.000000
nan nan nan 0.000000
nan nan nan 0.000000
nan nan nan 0.000000
