# This PCD file was generated using the MATLABÂ® pcwrite function
# from Computer Vision ToolboxÂ®.
# .PCD v.7 - Point Cloud Data file format
VERSION .7
FIELDS x y z intensity
SIZE 4 4 4 4
TYPE F F F F
COUNT 1 1 1 1
WIDTH 1303
HEIGHT 1
VIEWPOINT 0 0 0 1 0 0 0
POINTS 1303
DATA ascii
97.796089 -60.208122 4.446117 0.968627
97.897842 -60.149368 3.753105 0.968627
98.000183 -60.090286 3.056165 0.968627
98.103317 -60.030739 2.353753 0.968627
98.207497 -59.970596 1.644279 0.968627
98.312958 -59.909706 0.926093 0.968627
97.534203 -60.359318 0.281324 0.963851
94.437729 -62.147068 -0.000001 0.551369
91.058281 -64.098190 -0.000000 0.532509
88.900795 -65.343811 -0.000000 0.553948
87.401260 -66.209564 -0.000000 0.533578
85.604988 -67.246651 0.200004 0.718013
97.444489 -60.578583 7.203574 0.968627
97.560623 -60.512604 6.515567 0.968627
97.676605 -60.446716 5.828502 0.968627
97.390671 -60.609154 5.072326 0.968627
97.797493 -60.378048 4.436543 0.968627
97.898857 -60.320461 3.746205 0.968627
98.000793 -60.262558 3.051985 0.968627
98.103531 -60.204193 2.352344 0.968627
98.207291 -60.145248 1.645703 0.968627
98.312317 -60.085587 0.930414 0.968627
97.534187 -60.527626 0.288183 0.980392
94.498047 -62.252392 -0.000001 0.551263
91.105057 -64.179871 -0.000000 0.516182
88.938934 -65.410400 -0.000000 0.522103
87.433395 -66.265671 0.000000 0.534447
85.629921 -67.290184 0.200004 0.677394
97.447769 -60.742882 7.184088 0.968627
97.563492 -60.678207 6.498549 0.968627
97.679062 -60.613625 5.813982 0.968627
97.390694 -60.774784 5.060267 0.963577
97.798874 -60.546661 4.427158 0.968627
97.899857 -60.490223 3.739443 0.968627
98.001396 -60.433475 3.047888 0.968627
98.103729 -60.376282 2.350965 0.968627
98.207085 -60.318520 1.647097 0.968627
98.311699 -60.260052 0.934648 0.968627
97.534180 -60.694595 0.294905 0.973129
94.557625 -62.358131 -0.000001 0.519219
91.151268 -64.261879 -0.000001 0.521645
88.976601 -65.477257 -0.000000 0.547219
87.465126 -66.321991 -0.000000 0.622156
85.654541 -67.333885 0.200004 0.713619
97.450996 -60.905991 7.164987 0.968627
97.566315 -60.842594 6.481869 0.968627
97.681465 -60.779289 5.799752 0.968627
97.390709 -60.939133 5.048451 0.961517
97.800217 -60.714005 4.417961 0.968627
97.900826 -60.658695 3.732816 0.968627
98.001984 -60.603085 3.043874 0.968627
98.103928 -60.547043 2.349613 0.968627
98.206879 -60.490440 1.648464 0.968627
98.311089 -60.433151 0.938797 0.968627
97.534164 -60.860271 0.301492 0.975891
94.616470 -62.464287 -0.000001 0.532921
91.196907 -64.344200 -0.000001 0.550988
89.013809 -65.544373 -0.000001 0.536156
87.496468 -66.378532 0.000000 0.545632
85.678864 -67.377769 0.200005 0.722927
97.454163 -61.067928 7.146264 0.968627
97.569077 -61.005795 6.465519 0.968627
97.683815 -60.943756 5.785802 0.968627
97.390732 -61.102226 5.036873 0.980392
97.801544 -60.880096 4.408948 0.968627
97.901779 -60.825901 3.726322 0.968627
98.002563 -60.771408 3.039940 0.968627
98.104126 -60.716496 2.348289 0.968627
98.206688 -60.661041 1.649804 0.968627
98.310486 -60.604912 0.942862 0.968627
97.534149 -61.024681 0.307947 0.980392
94.674568 -62.570847 -0.000001 0.552010
91.241959 -64.426849 0.000000 0.537285
89.050537 -65.611748 0.000000 0.550378
87.527412 -66.435295 -0.000000 0.550042
85.702881 -67.421814 0.200005 0.762478
97.457260 -61.228729 7.127915 0.968627
97.571777 -61.167835 6.449496 0.968627
97.686127 -61.107037 5.772133 0.968627
97.390747 -61.264091 5.025529 0.980392
97.802841 -61.044975 4.400117 0.968627
97.902710 -60.991875 3.719958 0.968627
98.003136 -60.938480 3.036087 0.968627
98.104309 -60.884682 2.346991 0.968627
98.206497 -60.830353 1.651115 0.968627
98.309906 -60.775368 0.946845 0.968627
97.534142 -61.187847 0.314270 0.974411
94.731918 -62.677811 -0.000001 0.535546
91.286446 -64.509804 -0.000000 0.559960
89.086800 -65.679375 -0.000000 0.565698
87.557961 -66.492264 0.000000 0.544564
85.726585 -67.466026 0.200005 0.678325
97.460289 -61.388412 7.109932 0.968627
97.574425 -61.328743 6.433793 0.968627
97.688385 -61.269165 5.758737 0.968627
97.390762 -61.424759 5.014416 0.980392
97.804115 -61.208664 4.391463 0.968627
97.903633 -61.156639 3.713723 0.968627
98.003685 -61.104332 3.032311 0.968627
98.104500 -61.051628 2.345719 0.968627
98.206306 -60.998405 1.652401 0.968627
98.309334 -60.944542 0.950746 0.968627
97.534134 -61.349808 0.320464 0.968627
94.788528 -62.785175 -0.000001 0.529137
91.330345 -64.593063 -0.000000 0.568200
89.122589 -65.747253 -0.000000 0.561486
87.588112 -66.549454 0.000000 0.499870
85.749985 -67.510406 0.200005 0.715923
97.463264 -61.547009 7.092312 0.968627
97.577026 -61.488544 6.418409 0.968627
97.690598 -61.430176 5.745613 0.968627
97.390785 -61.584259 5.003531 0.980392
97.805359 -61.371197 4.382985 0.968627
97.904526 -61.320229 3.707616 0.968627
98.004227 -61.268993 3.028612 0.968627
98.104683 -61.217365 2.344474 0.968627
98.206116 -61.165234 1.653660 0.968627
98.308777 -61.112476 0.954567 0.968627
97.534119 -61.510597 0.326532 0.968627
94.844383 -62.892929 -0.000001 0.539055
91.373657 -64.676636 -0.000000 0.546395
89.157906 -65.815376 -0.000000 0.550378
87.617867 -66.606850 0.000000 0.525811
85.773071 -67.554939 0.200005 0.767086
97.466179 -61.704540 7.075048 0.968627
97.579575 -61.647263 6.403336 0.968627
97.692772 -61.590080 5.732755 0.968627
97.390808 -61.742615 4.992869 0.980392
97.806580 -61.532593 4.374681 0.968627
97.905403 -61.482674 3.701633 0.968627
98.004761 -61.432484 3.024988 0.968627
98.104866 -61.381920 2.343254 0.968627
98.205940 -61.330864 1.654893 0.968627
98.308228 -61.279194 0.958309 0.968627
97.534111 -61.670227 0.332474 0.968627
94.899483 -63.001068 -0.000001 0.525338
91.416397 -64.760506 -0.000001 0.535805
89.192741 -65.883751 -0.000000 0.541512
87.647217 -66.664452 0.000000 0.517250
85.795845 -67.599640 0.200005 0.677958
97.469032 -61.861038 7.058135 0.968627
97.582062 -61.804932 6.388569 0.968627
97.694901 -61.748917 5.720160 0.968627
97.390831 -61.899860 4.982428 0.970459
97.807770 -61.692886 4.366547 0.968627
97.906265 -61.643997 3.695773 0.968627
98.005280 -61.594841 3.021440 0.968627
98.105042 -61.545326 2.342059 0.968627
98.205757 -61.495327 1.656101 0.968627
98.307686 -61.444729 0.961974 0.968627
97.534103 -61.828739 0.338295 0.968627
94.953827 -63.109596 -0.000001 0.558663
91.458542 -64.844673 -0.000000 0.523888
89.227097 -65.952362 -0.000000 0.548959
87.676163 -66.722252 -0.000000 0.541161
85.818306 -67.644501 0.200005 0.704601
97.471825 -62.016521 7.041567 0.968627
97.584503 -61.961571 6.374105 0.968627
97.696983 -61.906708 5.707825 0.968627
97.390839 -62.056023 4.972202 0.980392
97.808945 -61.852104 4.358581 0.968627
97.907104 -61.804222 3.690035 0.968627
98.005798 -61.756092 3.017965 0.968627
98.105209 -61.707603 2.340889 0.968627
98.205589 -61.658646 1.657283 0.968627
98.307159 -61.609108 0.965563 0.968627
97.534088 -61.986156 0.343995 0.965866
95.007416 -63.218494 -0.000001 0.530785
91.500099 -64.929123 -0.000000 0.553841
89.260979 -66.021217 -0.000000 0.539208
87.704704 -66.780258 -0.000000 0.545495
85.840454 -67.689514 0.200005 0.667552
97.474571 -62.171017 7.025343 0.968627
97.586899 -62.117199 6.359941 0.968627
97.699020 -62.063480 5.695744 0.968627
97.390854 -62.211124 4.962191 0.980392
97.810081 -62.010265 4.350780 0.968627
97.907928 -61.963387 3.684415 0.968627
98.006287 -61.916260 3.014562 0.968627
97.459091 -62.178432 2.328017 0.223529
97.553665 -62.133118 1.670267 0.223529
97.649338 -62.087280 1.004882 0.223529
97.534081 -62.142502 0.349575 0.980392
95.060234 -63.327770 -0.000001 0.516228
91.541069 -65.013870 -0.000001 0.541466
89.294373 -66.090302 -0.000000 0.507088
87.732841 -66.838463 0.000000 0.522179
85.862289 -67.734680 0.200005 0.740444
96.812424 -62.637390 6.825407 0.223529
96.904839 -62.593903 6.182707 0.223529
96.996918 -62.550575 5.542322 0.223529
97.088860 -62.507309 4.902879 0.223529
97.180862 -62.464020 4.263000 0.223529
97.273117 -62.420601 3.621315 0.223529
97.365852 -62.376968 2.976432 0.223529
97.459236 -62.333023 2.326934 0.223529
97.553497 -62.288666 1.671361 0.223529
97.648849 -62.243797 1.008202 0.223529
97.534073 -62.297810 0.355037 0.970047
95.112297 -63.437408 -0.000001 0.535622
91.581444 -65.098900 -0.000001 0.528496
89.327293 -66.159622 -0.000000 0.533837
87.760574 -66.896866 -0.000000 0.577691
85.883804 -67.779999 0.200006 0.742367
96.814583 -62.784542 6.810320 0.223529
96.906708 -62.741974 6.169559 0.223529
96.998505 -62.699558 5.531129 0.223529
97.090172 -62.657204 4.893658 0.223529
97.181885 -62.614826 4.255775 0.223529
97.273865 -62.572327 3.616112 0.223529
97.366287 -62.529621 2.973283 0.223529
97.459373 -62.486607 2.325874 0.223529
97.553329 -62.443195 1.672432 0.223529
97.648369 -62.399281 1.011452 0.223529
97.534058 -62.452099 0.360385 0.968627
95.163589 -63.547409 -0.000001 0.524880
91.621223 -65.184212 -0.000000 0.532357
89.359718 -66.229172 -0.000000 0.554192
87.787895 -66.955452 -0.000000 0.565148
85.905006 -67.825470 0.200006 0.694240
96.816711 -62.930798 6.795553 0.223529
96.908562 -62.889130 6.156692 0.223529
97.000084 -62.847610 5.520175 0.223529
97.091469 -62.806160 4.884635 0.223529
97.182899 -62.764683 4.248705 0.223529
97.282089 -62.719688 3.611696 0.223529
97.413414 -62.660118 2.972719 0.223529
97.546249 -62.599861 2.326395 0.223529
97.680908 -62.538776 1.671185 0.223529
97.817734 -62.476707 1.005470 0.223529
97.534058 -62.605392 0.365618 0.968627
95.214111 -63.657764 -0.000001 0.555550
91.660408 -65.269798 -0.000001 0.517708
89.391663 -66.298943 -0.000000 0.534371
87.814804 -67.014236 -0.000000 0.557748
85.925896 -67.871078 0.200005 0.684718
96.948463 -63.018436 6.816657 0.223529
97.080856 -62.959496 6.184403 0.223529
97.213356 -62.900501 5.551626 0.223529
97.346252 -62.841331 4.916969 0.223529
97.479836 -62.781857 4.279052 0.223529
97.614395 -62.721947 3.636473 0.223529
97.750229 -62.661469 2.987784 0.223529
97.887665 -62.600281 2.331488 0.223529
99.448860 -61.905193 1.640547 0.968627
99.600334 -61.837753 0.912724 0.968627
97.534042 -62.757721 0.370739 0.972671
95.263870 -63.768467 -0.000001 0.538537
91.698990 -65.355652 -0.000000 0.541329
89.423119 -66.368935 -0.000000 0.513664
87.841309 -67.073204 0.000000 0.553582
85.946457 -67.916840 0.200006 0.729549
98.710670 -62.395046 7.283546 0.968627
98.878746 -62.321617 6.595287 0.968627
99.047340 -62.247959 5.904869 0.968627
98.323929 -62.564011 5.066261 0.960037
99.227386 -62.169296 4.491434 0.968627
99.376350 -62.104218 3.789100 0.968627
99.526749 -62.038513 3.079988 0.968627
99.678932 -61.972023 2.362456 0.968627
99.833267 -61.904598 1.634788 0.968627
99.990143 -61.836063 0.895170 0.968627
97.534042 -62.909103 0.375748 0.966705
95.312851 -63.879517 -0.000001 0.540398
91.736977 -65.441772 -0.000001 0.566476
89.454086 -66.439140 -0.000000 0.552102
87.867393 -67.132355 -0.000000 0.517311
85.966705 -67.962738 0.200006 0.740291
99.064598 -62.403564 7.364062 0.968627
99.238380 -62.329082 6.665932 0.968627
99.412750 -62.254349 5.965428 0.968627
98.690254 -62.564011 5.116132 0.975433
99.602798 -62.172894 4.530906 0.968627
99.757004 -62.106804 3.817660 0.968627
99.912720 -62.040058 3.097360 0.968627
100.070343 -61.972504 2.368332 0.968627
100.230217 -61.903980 1.628822 0.968627
100.392769 -61.834312 0.876982 0.968627
97.728767 -62.976101 0.363276 0.968627
95.361053 -63.990906 -0.000001 0.529763
91.774361 -65.528160 -0.000000 0.534768
89.484566 -66.509567 -0.000000 0.552743
87.893066 -67.191681 0.000000 0.537789
85.986626 -68.008781 0.200006 0.661021
99.429428 -62.412376 7.447320 0.968627
99.609200 -62.336807 6.739004 0.968627
99.789635 -62.260960 6.028085 0.968627
99.068710 -62.564011 5.167808 0.972763
99.858025 -62.232212 4.555267 0.966888
100.149994 -62.109478 3.847237 0.968627
100.311325 -62.041664 3.115355 0.968627
100.474663 -61.973003 2.374418 0.968627
100.640381 -61.903339 1.622640 0.968627
100.808907 -61.832497 0.858129 0.968627
98.106628 -62.968430 0.334510 0.957092
95.408478 -64.102631 -0.000001 0.540291
91.811142 -65.614807 -0.000001 0.551659
89.514542 -66.580208 -0.000000 0.571786
87.918327 -67.251190 0.000000 0.523720
86.006226 -68.054962 0.200006 0.733013
99.805710 -62.421494 7.533460 0.968627
99.991783 -62.344803 6.814626 0.968627
100.178589 -62.267807 6.092943 0.968627
99.459946 -62.564007 5.221387 0.968627
99.918427 -62.375038 4.555368 0.977813
100.556000 -62.112251 3.877883 0.968627
100.723236 -62.043320 3.134005 0.968627
100.892586 -61.973518 2.380729 0.968627
101.064461 -61.902679 1.616229 0.968627
101.239288 -61.830620 0.838573 0.968627
98.496964 -62.960922 0.304725 0.970459
95.455109 -64.214684 -0.000000 0.552621
91.847305 -65.701706 -0.000000 0.540337
89.544037 -66.651047 -0.000000 0.534463
87.943176 -67.310875 -0.000000 0.528389
86.025505 -68.101280 0.200006 0.697398
100.194046 -62.430931 7.622629 0.968627
100.386734 -62.353081 6.892929 0.968627
100.580246 -62.274895 6.160124 0.968627
100.775009 -62.196209 5.422614 0.968627
99.977837 -62.518288 4.555470 0.973404
100.975693 -62.115128 3.909657 0.968627
101.149155 -62.045044 3.153347 0.968627
101.324860 -61.974052 2.387275 0.968627
100.945152 -62.127468 1.619426 0.223529
100.946396 -62.126961 0.857396 0.223529
98.901535 -62.953140 0.273771 0.978088
95.500977 -64.327057 -0.000001 0.555810
91.882874 -65.788857 -0.000000 0.519356
89.573029 -66.722099 -0.000000 0.532082
87.967598 -67.370728 -0.000000 0.556664
86.044464 -68.147728 0.200006 0.682383
100.595047 -62.440708 7.714982 0.968627
100.794708 -62.361656 6.974053 0.968627
100.995277 -62.282246 6.229743 0.968627
101.197205 -62.202297 5.480426 0.968627
100.283607 -62.564014 4.586176 0.980392
101.409836 -62.118111 3.942619 0.968627
100.942665 -62.303074 3.139220 0.223529
100.943916 -62.302582 2.379491 0.223529
100.945160 -62.302090 1.620487 0.223529
100.946404 -62.301598 0.860582 0.223529
99.233307 -62.979858 0.249326 0.980392
95.546051 -64.439743 -0.000001 0.538079
91.917831 -65.876251 -0.000001 0.518212
89.601524 -66.793343 -0.000000 0.498116
87.991608 -67.430756 -0.000000 0.547127
86.063095 -68.194305 0.200006 0.714488
101.009384 -62.450840 7.810687 0.968627
101.216393 -62.370548 7.058149 0.968627
101.424400 -62.289867 6.301936 0.968627
100.938919 -62.478172 5.429822 0.223529
100.717606 -62.564011 4.632662 0.975341
100.941429 -62.477196 3.896116 0.223529
100.942680 -62.476715 3.136107 0.223529
100.943924 -62.476231 2.378454 0.223529
100.945160 -62.475750 1.621524 0.223529
100.978394 -62.462860 0.862010 0.223529
99.645599 -62.979816 0.217848 0.968627
95.590332 -64.552750 -0.000001 0.540856
91.952179 -65.963890 -0.000000 0.527916
89.629524 -66.864792 -0.000001 0.543465
88.015198 -67.490944 -0.000000 0.543603
86.081398 -68.241013 0.200006 0.774853
101.437790 -62.461342 7.909928 0.968627
100.936386 -62.651806 6.979922 0.223529
100.937668 -62.651321 6.195685 0.223529
100.938942 -62.650837 5.420647 0.223529
100.940201 -62.650360 4.653009 0.223529
100.941452 -62.649883 3.891042 0.223529
100.942688 -62.649414 3.133069 0.223529
101.061539 -62.604267 2.379500 0.223529
101.248642 -62.533195 1.617225 0.223529
103.119980 -61.822338 0.752511 0.968627
100.072960 -62.979794 0.185134 0.980392
95.633835 -64.666054 -0.000001 0.531075
91.985909 -66.051773 -0.000000 0.543282
89.657021 -66.936432 -0.000000 0.555245
88.038361 -67.551300 -0.000000 0.525490
86.099373 -68.287849 0.200006 0.701122
100.935120 -62.824020 7.760102 0.223529
100.936417 -62.823540 6.966877 0.223529
100.937698 -62.823059 6.184695 0.223529
100.938965 -62.822590 5.411686 0.223529
100.957458 -62.815712 4.648174 0.223529
101.144073 -62.746311 3.903813 0.223529
101.332939 -62.676071 3.150553 0.223529
103.214264 -61.976418 2.416090 0.968627
103.422523 -61.898964 1.580274 0.968627
103.634697 -61.820061 0.728802 0.968627
100.516296 -62.979778 0.151106 0.966049
95.676537 -64.779671 -0.000001 0.528893
92.019028 -66.139877 -0.000001 0.539162
89.684021 -67.008255 -0.000000 0.555093
88.061104 -67.611816 0.000000 0.557809
86.117027 -68.334808 0.200007 0.658076
100.935150 -62.994850 7.745334 0.223529
100.936447 -62.994377 6.954142 0.223529
101.032005 -62.959599 6.192222 0.223529
101.222733 -62.890179 5.447729 0.223529
102.118896 -62.564003 4.783568 0.973816
103.307907 -62.131241 4.087740 0.968627
103.518173 -62.054710 3.261845 0.968627
103.731491 -61.977070 2.424030 0.968627
103.948364 -61.898132 1.572194 0.968627
104.169395 -61.817684 0.704109 0.968627
100.976540 -62.979786 0.115689 0.979767
95.718445 -64.893570 -0.000001 0.541848
92.051529 -66.228218 -0.000001 0.517296
89.710518 -67.080276 -0.000000 0.534173
88.083427 -67.672485 -0.000000 0.544381
86.134346 -68.381889 0.200006 0.678187
101.097527 -63.107006 7.774086 0.223529
101.294044 -63.037029 7.023691 0.223529
103.298218 -62.323376 6.619411 0.968627
103.542458 -62.236408 5.804337 0.968627
102.622459 -62.564003 4.838075 0.970748
103.827637 -62.134861 4.127735 0.968627
104.046623 -62.056885 3.286235 0.968627
104.268860 -61.977749 2.432299 0.968627
104.494888 -61.897263 1.563774 0.968627
104.725319 -61.815212 0.678371 0.968627
101.454758 -62.979805 0.078796 0.980392
95.759560 -65.007767 -0.000001 0.532708
92.083412 -66.316780 -0.000001 0.541650
89.736511 -67.152473 -0.000001 0.527855
88.105331 -67.733315 -0.000000 0.543297
86.151344 -68.429092 0.200006 0.694484
103.308311 -62.507538 8.346298 0.968627
103.558655 -62.420361 7.529270 0.968627
103.810654 -62.332603 6.706801 0.968627
104.064896 -62.244068 5.877056 0.968627
103.146172 -62.563999 4.894902 0.980392
104.367661 -62.138634 4.169398 0.968627
104.595917 -62.059147 3.311651 0.968627
104.827637 -61.978455 2.440920 0.968627
105.063385 -61.896358 1.554995 0.968627
104.676094 -62.031227 0.684177 0.223529
101.952080 -62.979828 0.040334 0.978836
95.799873 -65.122246 -0.000001 0.532036
92.114685 -66.405563 -0.000001 0.549203
89.762001 -67.224854 -0.000000 0.530571
88.126801 -67.794289 -0.000000 0.557412
86.168007 -68.476410 0.200006 0.737087
103.819809 -62.520252 8.466407 0.968627
104.080399 -62.431541 7.635033 0.968627
104.342819 -62.342209 6.797788 0.968627
104.607674 -62.252045 5.952798 0.968627
103.691299 -62.564003 4.954199 0.980392
104.929268 -62.142563 4.212834 0.968627
105.167374 -62.061508 3.338158 0.968627
104.673218 -62.229733 2.437192 0.223529
104.674652 -62.229240 1.562783 0.223529
104.676094 -62.228752 0.687336 0.223529
102.469742 -62.979855 0.000200 0.968627
95.839386 -65.237007 -0.000001 0.552117
92.145325 -66.494568 -0.000001 0.539742
89.786987 -67.297409 -0.000000 0.532448
88.147850 -67.855415 -0.000000 0.503883
86.184334 -68.523849 0.200007 0.733135
104.350983 -62.533493 8.591452 0.968627
104.622437 -62.443192 7.745184 0.968627
104.895905 -62.352219 6.892588 0.968627
105.172043 -62.260361 6.031749 0.968627
104.259262 -62.564003 5.016126 0.980392
104.670349 -62.427254 4.185266 0.223529
104.671783 -62.426773 3.309359 0.223529
104.673218 -62.426296 2.436167 0.223529
104.674660 -62.425819 1.563809 0.223529
104.676094 -62.425339 0.690417 0.223529
102.526405 -63.140446 -0.000003 0.540108
95.878098 -65.352036 -0.000001 0.521157
92.175346 -66.583778 -0.000000 0.514504
89.811462 -67.370140 -0.000000 0.538201
88.168472 -67.916687 -0.000001 0.558862
86.200340 -68.571396 0.200007 0.722393
104.903023 -62.547283 8.721733 0.968627
105.186020 -62.455334 7.859999 0.968627
104.665985 -62.624302 6.837383 0.223529
104.667458 -62.623825 5.943804 0.223529
104.668915 -62.623352 5.058761 0.223529
104.670364 -62.622879 4.180258 0.223529
104.671783 -62.622417 3.306358 0.223529
104.713333 -62.608917 2.435856 0.223529
104.964783 -62.527218 1.559817 0.223529
106.509293 -62.025375 0.598726 0.974060
102.579597 -63.302212 -0.000003 0.548714
95.916008 -65.467339 -0.000001 0.534905
92.204750 -66.673195 -0.000000 0.531319
89.835434 -67.443031 -0.000000 0.538094
88.188660 -67.978096 -0.000000 0.540551
86.216011 -68.619049 0.200007 0.681941
104.663017 -62.819958 8.643612 0.223529
104.664520 -62.819481 7.728715 0.223529
104.666000 -62.819012 6.826556 0.223529
104.667465 -62.818546 5.934977 0.223529
104.668915 -62.818085 5.051913 0.223529
104.813728 -62.772148 4.187709 0.223529
105.067688 -62.691589 3.323838 0.223529
107.305817 -61.981613 2.479388 0.968627
107.587334 -61.892311 1.515780 0.968627
106.568268 -62.215580 0.598823 0.980392
102.631638 -63.464348 -0.000002 0.542000
95.953110 -65.582901 -0.000001 0.540963
92.233521 -66.762817 -0.000001 0.542458
89.858887 -67.516098 -0.000000 0.553094
88.208427 -68.039650 -0.000000 0.523491
86.231346 -68.666817 0.200007 0.676463
104.663040 -63.013783 8.629100 0.223529
104.664536 -63.013321 7.716198 0.223529
104.653000 -63.016891 6.813530 0.223529
104.908974 -62.937653 5.963879 0.223529
106.116074 -62.563995 5.219519 0.980392
107.420799 -62.160118 4.406703 0.968627
107.705246 -62.072067 3.456585 0.968627
107.994591 -61.982498 2.490138 0.968627
108.289589 -61.891182 1.504809 0.968627
106.625916 -62.406174 0.598921 0.974685
102.682564 -63.626842 -0.000003 0.549584
95.989403 -65.698715 -0.000002 0.550484
92.261673 -66.852638 -0.000001 0.557687
89.881836 -67.589325 -0.000000 0.543465
88.227760 -68.101341 -0.000000 0.509575
86.246346 -68.714691 0.200007 0.677974
104.730545 -63.186398 8.632627 0.223529
104.994324 -63.106758 7.778414 0.223529
107.345749 -62.396824 7.315073 0.968627
107.674835 -62.297466 6.383995 0.968627
108.008453 -62.196739 5.440062 0.972259
108.113495 -62.165024 4.460902 0.968627
108.411606 -62.075020 3.489728 0.968627
108.714989 -61.983425 2.501408 0.968627
109.024437 -61.889999 1.493303 0.968627
106.682213 -62.597153 0.599019 0.963973
102.732353 -63.789684 -0.000002 0.541817
96.024887 -65.814781 -0.000001 0.533623
92.289192 -66.942657 -0.000001 0.538857
89.904266 -67.662704 -0.000000 0.550942
88.246658 -68.163162 -0.000000 0.567132
86.261009 -68.762665 0.200007 0.719112
107.347969 -62.608746 9.302276 0.968627
107.685181 -62.509499 8.372217 0.968627
108.025719 -62.409271 7.432996 0.968627
108.370377 -62.307835 6.482429 0.968627
108.719971 -62.204945 5.518234 0.968627
108.838120 -62.170170 4.517721 0.968627
109.150887 -62.078121 3.524489 0.968627
108.615616 -62.235657 2.498670 0.223529
108.617264 -62.235176 1.501302 0.223529
106.700783 -62.799225 0.600981 0.976181
102.781006 -63.952873 -0.000003 0.538720
96.059563 -65.931099 -0.000001 0.531518
92.316086 -67.032860 -0.000001 0.532006
89.926193 -67.736244 -0.000000 0.538842
88.265129 -68.225121 -0.000000 0.529931
86.275345 -68.810745 0.200007 0.763607
108.026512 -62.625900 9.464294 0.968627
108.379662 -62.524635 8.515345 0.968627
108.736488 -62.422318 7.556528 0.968627
109.097824 -62.318707 6.585602 0.968627
108.610687 -62.458389 5.498027 0.223529
108.612343 -62.457916 4.493361 0.223529
108.613983 -62.457443 3.493961 0.223529
108.615616 -62.456978 2.497660 0.223529
108.617264 -62.456505 1.502313 0.223529
107.475273 -62.783966 0.564234 0.979797
102.828506 -64.116402 -0.000003 0.546227
96.093430 -66.047646 -0.000001 0.534691
92.342346 -67.123253 -0.000001 0.524529
89.947601 -67.809929 -0.000000 0.529839
88.283165 -68.287201 -0.000001 0.508156
86.289337 -68.858917 0.200007 0.735088
108.735741 -62.643871 9.634012 0.968627
109.105972 -62.540501 8.665354 0.968627
108.607361 -62.679714 7.521168 0.223529
108.609039 -62.679249 6.501275 0.223529
108.610703 -62.678783 5.491126 0.223529
108.612350 -62.678322 4.488441 0.223529
108.613991 -62.677864 3.491013 0.223529
108.841736 -62.614277 2.500519 0.223529
111.449883 -61.886070 1.455169 0.968627
108.291580 -62.767883 0.525431 0.971984
102.874878 -64.280251 -0.000002 0.546593
96.126472 -66.164436 -0.000001 0.541054
92.367973 -67.213821 -0.000001 0.531167
89.968498 -67.883766 -0.000001 0.541146
88.300766 -68.349403 -0.000000 0.551202
86.303001 -68.907188 0.200007 0.682628
108.603966 -62.900150 9.585142 0.223529
108.605675 -62.899685 8.540577 0.223529
108.607376 -62.899223 7.510564 0.223529
108.609055 -62.898769 6.492630 0.223529
108.631699 -62.892616 5.486921 0.223529
108.965698 -62.801872 4.513683 0.223529
111.591721 -62.088398 3.639739 0.968627
111.962631 -61.987625 2.552478 0.968627
112.341751 -61.884621 1.441092 0.968627
109.153282 -62.750908 0.484397 0.971115
102.920090 -64.444427 -0.000002 0.524193
96.158707 -66.281448 -0.000001 0.545174
92.392967 -67.304573 -0.000001 0.537011
89.988876 -67.957748 -0.000000 0.544488
88.317932 -68.411736 -0.000000 0.529656
86.316322 -68.955559 0.200007 0.741909
108.603989 -63.118801 9.570971 0.223529
108.605705 -63.118347 8.528361 0.223529
108.741081 -63.082581 7.525428 0.223529
111.496025 -62.354694 6.927172 0.968627
111.922264 -62.242077 5.871943 0.968627
110.703720 -62.564030 4.656384 0.968627
112.489555 -62.092194 3.682295 0.968627
112.880798 -61.988823 2.566987 0.968627
112.346733 -62.129929 1.442052 0.223529
110.064369 -62.732952 0.440935 0.979065
102.964172 -64.608902 -0.000003 0.537346
96.190109 -66.398682 -0.000001 0.533852
92.417328 -67.395493 -0.000000 0.551034
90.008736 -68.031868 -0.000000 0.526345
88.334663 -68.474174 -0.000000 0.524971
86.329308 -69.004013 0.200007 0.660655
108.834503 -63.277473 9.616829 0.223529
111.500275 -62.593021 9.161943 0.968627
111.935257 -62.481335 8.115438 0.968627
112.376816 -62.367962 7.053111 0.968627
112.826088 -62.252609 5.972258 0.968627
111.613190 -62.564026 4.728551 0.958404
112.343063 -62.376629 3.671808 0.223529
112.344894 -62.376160 2.556902 0.223529
112.346733 -62.375687 1.443067 0.223529
111.029297 -62.713943 0.394825 0.979614
103.007088 -64.773697 -0.000002 0.551431
96.220711 -66.516136 -0.000001 0.541131
92.441055 -67.486580 -0.000000 0.548638
90.028076 -68.106133 -0.000000 0.550515
88.350960 -68.536736 -0.000000 0.527794
86.341949 -69.052567 0.200007 0.677958
110.182289 -63.160217 9.951323 0.968978
112.379517 -62.612385 9.345016 0.968627
112.837997 -62.498074 8.273936 0.968627
112.337524 -62.622856 7.038185 0.223529
112.339386 -62.622391 5.907543 0.223529
112.341232 -62.621933 4.785258 0.223529
112.343063 -62.621475 3.668858 0.223529
112.353470 -62.618881 2.556064 0.223529
114.115097 -62.179657 1.414226 0.968627
112.053093 -62.693771 0.345823 0.979065
103.048859 -64.938774 -0.000002 0.532067
96.250481 -66.633797 -0.000001 0.532082
92.464149 -67.577835 -0.000001 0.561166
90.046898 -68.180519 -0.000000 0.546166
88.366821 -68.599411 -0.000000 0.484413
86.354256 -69.101196 0.200007 0.710750
111.089966 -63.168629 10.171620 0.970626
112.333778 -62.867718 9.322266 0.223529
112.335663 -62.867260 8.169147 0.223529
112.337540 -62.866810 7.029553 0.223529
112.339394 -62.866360 5.900847 0.223529
112.500359 -62.827419 4.793910 0.223529
114.111023 -62.437759 3.755358 0.968627
114.113068 -62.437263 2.584735 0.968627
114.115097 -62.436771 1.415229 0.968627
112.909378 -62.728466 0.305377 0.980148
103.089478 -65.104141 -0.000002 0.546456
96.279434 -66.751663 -0.000001 0.547753
92.486603 -67.669243 -0.000001 0.550271
90.065201 -68.255043 -0.000000 0.523095
88.382240 -68.662193 -0.000000 0.546197
86.366226 -69.149918 0.200008 0.699931
112.331879 -63.111271 10.477567 0.223529
112.333794 -63.110825 9.310102 0.223529
112.335693 -63.110378 8.158900 0.223529
112.639008 -63.039238 7.067127 0.223529
114.106918 -62.694942 6.103220 0.968627
113.720024 -62.785686 4.891987 0.964675
114.111015 -62.693981 3.752442 0.968627
114.113068 -62.693501 2.583764 0.968627
114.115097 -62.693024 1.416201 0.968627
112.891953 -62.979912 0.309073 0.974853
103.128937 -65.269798 -0.000002 0.528405
96.307564 -66.869736 -0.000001 0.550744
92.508423 -67.760811 -0.000001 0.529549
90.082985 -68.329689 -0.000000 0.532815
88.397224 -68.725082 -0.000000 0.545174
86.377853 -69.198715 0.200008 0.679744
112.331909 -63.353561 10.463920 0.223529
112.761475 -63.255966 9.393054 0.223529
114.102776 -62.951233 8.478706 0.968627
114.104858 -62.950760 7.281948 0.968627
114.106934 -62.950287 6.096616 0.968627
113.720169 -63.038158 4.887343 0.980392
114.111031 -62.949356 3.749620 0.968627
114.113068 -62.948895 2.582824 0.968627
114.137527 -62.943336 1.416766 0.223529
113.976837 -62.979843 0.257140 0.963058
103.167259 -65.435715 -0.000003 0.533074
96.334869 -66.987991 -0.000002 0.550774
92.529594 -67.852524 -0.000001 0.540383
90.100250 -68.404457 -0.000000 0.535439
88.411766 -68.788071 -0.000000 0.535897
86.389137 -69.247597 0.200008 0.739254
114.098557 -63.206673 10.903813 0.968627
114.100693 -63.206203 9.677677 0.968627
114.102798 -63.205738 8.468609 0.968627
114.104874 -63.205284 7.273715 0.968627
114.106949 -63.204826 6.090229 0.968627
113.719337 -63.290047 4.882770 0.980392
114.111038 -63.203926 3.746892 0.968627
114.430237 -63.133747 2.587229 0.968627
115.577103 -62.881596 1.393555 0.968627
115.130478 -62.979790 0.201830 0.969039
103.204391 -65.601898 -0.000003 0.548791
96.361343 -67.106438 -0.000001 0.543603
92.550125 -67.944389 -0.000001 0.534981
90.116989 -68.479347 -0.000000 0.539376
88.425865 -68.851166 -0.000000 0.557488
86.400078 -69.296562 0.200007 0.728618
114.098579 -63.460365 10.890390 0.968627
114.100708 -63.459915 9.666101 0.968627
114.102806 -63.459469 8.458853 0.968627
114.104904 -63.459023 7.265763 0.968627
114.106956 -63.458588 6.084062 0.968627
113.719910 -63.540855 4.878470 0.978363
114.187576 -63.441452 3.748101 0.223529
115.618454 -63.137306 2.606222 0.968627
116.843842 -62.876846 1.373278 0.968627
116.359253 -62.979847 0.142827 0.974655
103.240387 -65.768341 -0.000003 0.549310
96.386986 -67.225067 -0.000001 0.543282
92.570015 -68.036392 -0.000001 0.539971
90.133202 -68.554352 -0.000000 0.550469
88.439529 -68.914352 -0.000000 0.522148
86.410683 -69.345596 0.200008 0.733715
114.098602 -63.713310 10.877439 0.968627
114.100723 -63.712875 9.654932 0.968627
114.102821 -63.712444 8.449443 0.968627
114.104912 -63.712013 7.258092 0.968627
114.106964 -63.711594 6.078109 0.968627
113.761902 -63.782425 4.877789 0.980392
115.658493 -63.393112 3.819322 0.968627
116.886139 -63.141113 2.626515 0.968627
118.198334 -62.871758 1.351564 0.968627
113.744095 -63.786079 0.276687 0.223529
103.275208 -65.935028 -0.000003 0.544305
96.411812 -67.343872 -0.000002 0.542367
92.589264 -68.128532 -0.000001 0.514763
90.148895 -68.629463 -0.000000 0.554040
87.545609 -69.163841 0.200009 0.683009
86.420937 -69.394699 0.200008 0.670283
114.098618 -63.965530 10.864955 0.968627
114.100739 -63.965111 9.644168 0.968627
114.102844 -63.964695 8.440374 0.968627
114.104919 -63.964283 7.250694 0.968627
114.631683 -63.859982 6.133909 0.968627
114.544403 -63.877262 4.939149 0.980301
116.953407 -63.400269 3.881612 0.223529
118.241684 -63.145184 2.648247 0.968627
113.742188 -64.036102 1.426812 0.223529
113.744095 -64.035728 0.279112 0.223529
103.308868 -66.101952 -0.000003 0.530968
96.435806 -67.462852 -0.000001 0.551766
92.607872 -68.220802 -0.000001 0.542718
90.164063 -68.704689 -0.000000 0.532677
87.557106 -69.220879 0.200009 0.696971
86.430855 -69.443878 0.200008 0.684398
114.098633 -64.217056 10.852938 0.968627
114.100761 -64.216652 9.633806 0.968627
114.102852 -64.216255 8.431642 0.968627
114.447144 -64.150574 7.295254 0.968627
115.800949 -63.892326 6.265240 0.968627
115.772675 -63.897717 5.037691 0.972534
118.283539 -63.418747 3.945583 0.968627
113.740280 -64.285416 2.572378 0.223529
113.742188 -64.285049 1.427589 0.223529
119.371651 -63.211178 -0.000004 0.542290
103.341362 -66.269112 -0.000003 0.533516
96.458961 -67.581993 -0.000002 0.558984
92.625832 -68.313202 -0.000001 0.536385
90.178703 -68.780014 -0.000000 0.569223
87.568207 -69.277992 0.200009 0.738476
86.440430 -69.493126 0.200008 0.673838
114.098648 -64.467911 10.841384 0.968627
114.100784 -64.467522 9.623841 0.968627
114.252144 -64.439743 8.450863 0.968627
115.602386 -64.191925 7.462566 0.968627
117.046738 -63.926838 6.405385 0.968627
117.085983 -63.919636 5.143209 0.971466
113.738388 -64.534035 3.716025 0.223529
113.740280 -64.533684 2.571632 0.223529
124.963242 -62.473892 1.241649 0.223529
119.423935 -63.490543 -0.000004 0.536767
103.372681 -66.436485 -0.000003 0.544320
96.481285 -67.701294 -0.000001 0.542840
92.643143 -68.405724 -0.000001 0.545495
90.192825 -68.855438 -0.000000 0.527672
87.578911 -69.335182 0.200009 0.756939
86.449654 -69.542435 0.200008 0.698131
114.098671 -64.718124 10.830291 0.968627
114.157883 -64.707687 9.626795 0.968627
115.392792 -64.489937 8.653515 0.968627
116.832764 -64.236038 7.641034 0.968627
118.376984 -63.963749 6.555245 0.968627
113.736496 -64.781990 4.860384 0.223529
113.738388 -64.781654 3.713871 0.223529
129.453049 -62.010746 2.832002 0.968627
128.905853 -62.107231 1.177090 0.223529
119.474258 -63.770271 -0.000004 0.542748
103.402832 -66.604088 -0.000002 0.546899
96.502777 -67.820747 -0.000001 0.544594
92.659813 -68.498360 -0.000001 0.549218
90.206413 -68.930962 -0.000001 0.534340
87.589211 -69.392441 0.200009 0.684520
86.458534 -69.591812 0.200008 0.698650
114.111008 -64.965645 10.822780 0.968627
115.169388 -64.786629 9.839170 0.968627
116.607117 -64.543457 8.869587 0.968627
118.145966 -64.283180 7.831797 0.968627
113.734573 -65.029312 6.008104 0.223529
113.736496 -65.028984 4.856937 0.223529
128.900436 -62.464207 4.467248 0.223529
128.903152 -62.463745 2.821874 0.223529
119.602791 -64.036781 1.332478 0.223529
119.522629 -64.050339 -0.000004 0.541299
103.431816 -66.771889 -0.000002 0.549874
96.523438 -67.940346 -0.000001 0.538811
92.675835 -68.591118 -0.000001 0.563058
90.219475 -69.006577 -0.000001 0.521019
87.599113 -69.449776 0.200009 0.734356
86.467079 -69.641243 0.200008 0.759503
114.929413 -65.082191 11.020262 0.968627
116.366821 -64.849380 10.092107 0.968627
117.902573 -64.600647 9.100439 0.968627
113.732658 -65.276024 7.161878 0.223529
113.734589 -65.275711 6.003477 0.223529
128.897736 -62.819824 6.112989 0.223529
129.052979 -62.794678 4.471990 0.223529
119.600571 -64.325630 2.666714 0.223529
119.836700 -64.287384 1.329371 0.223529
119.569046 -64.330734 -0.000004 0.537346
103.459633 -66.939880 -0.000002 0.535058
96.543259 -68.060089 -0.000001 0.545434
92.691208 -68.683983 -0.000001 0.520974
90.232002 -69.082283 -0.000000 0.547509
87.608620 -69.507179 0.200010 0.724590
86.475273 -69.690742 0.200008 0.686305
116.108994 -65.153976 11.309282 0.968627
117.643654 -64.916405 10.362220 0.968627
113.730728 -65.522156 8.324460 0.223529
113.732681 -65.521851 7.156176 0.223529
128.400055 -63.251228 7.706274 0.709804
132.626602 -62.596928 6.417832 0.223529
119.598358 -64.613800 3.999249 0.223529
119.804840 -64.581833 2.669359 0.223529
137.495346 -61.843208 1.037707 0.968627
119.613525 -64.611450 -0.000004 0.547829
103.486267 -67.108070 -0.000002 0.536004
96.562248 -68.179962 -0.000001 0.537316
92.705933 -68.776947 -0.000001 0.541390
90.244011 -69.158073 -0.000001 0.542046
87.617722 -69.564644 0.200010 0.700587
86.483116 -69.740288 0.200008 0.734646
117.366158 -65.230606 11.617778 0.968627
113.728775 -65.767731 9.498693 0.223529
113.730759 -65.767433 8.317789 0.223529
131.747589 -63.106949 9.851971 0.973754
130.817047 -63.244362 7.981319 0.709804
119.596146 -64.901314 5.333149 0.223529
119.771072 -64.875481 4.005716 0.223529
136.417068 -62.417419 2.943441 0.223529
136.420166 -62.416962 1.056506 0.223529
119.656021 -64.892471 -0.000004 0.537697
103.511734 -67.276443 -0.000002 0.534218
96.580391 -68.299973 -0.000001 0.535256
92.720009 -68.870018 -0.000001 0.529656
90.255486 -69.233948 -0.000000 0.540185
87.626419 -69.622169 0.200009 0.677791
86.490623 -69.789894 0.200008 0.741405
113.726799 -66.012772 10.687536 0.223529
113.728790 -66.012489 9.491157 0.223529
132.617828 -63.357822 11.781830 0.223529
132.947784 -63.311451 10.023859 0.223529
119.593918 -65.188202 6.671502 0.223529
119.731316 -65.168900 5.340990 0.223529
136.413971 -62.824310 4.829349 0.223529
140.086899 -62.308117 3.003136 0.223529
139.807526 -62.347382 1.001481 0.223529
119.696556 -65.173782 -0.000004 0.545876
103.536018 -67.444992 -0.000002 0.529427
96.597702 -68.420097 -0.000001 0.545464
92.733437 -68.963188 -0.000001 0.526345
90.266434 -69.309898 -0.000001 0.551644
87.634720 -69.679764 0.200010 0.673793
86.497772 -69.839546 0.200008 0.764141
113.726830 -66.257050 10.679239 0.223529
nan nan nan 0.000000
nan nan nan 0.000000
119.591690 -65.474510 8.017442 0.223529
119.681595 -65.462517 6.677211 0.223529
140.656967 -62.663818 7.068808 0.223529
140.371140 -62.701954 5.022769 0.223529
nan nan nan 0.000000
nan nan nan 0.000000
119.735123 -65.455376 -0.000004 0.538933
103.559120 -67.613701 -0.000002 0.530800
96.614174 -68.540352 -0.000001 0.549325
92.746208 -69.056442 -0.000001 0.554192
90.276840 -69.385925 -0.000000 0.559197
87.642616 -69.737404 0.200010 0.687663
86.504585 -69.889252 0.200008 0.669734
nan nan nan 0.000000
nan nan nan 0.000000
119.589417 -65.760254 9.374182 0.223529
119.617676 -65.756683 8.015873 0.223529
140.947449 -63.062119 9.138855 0.223529
nan nan nan 0.000000
nan nan nan 0.000000
nan nan nan 0.000000
nan nan nan 0.000000
119.771729 -65.737221 -0.000004 0.536950
103.581062 -67.782570 -0.000002 0.529015
96.629807 -68.660713 -0.000001 0.535409
92.758331 -69.149788 -0.000001 0.549798
90.286728 -69.462021 -0.000000 0.552789
87.650108 -69.795105 0.200010 0.685084
86.511047 -69.939003 0.200008 0.664576
nan nan nan 0.000000
119.587151 -66.045456 10.745054 0.223529
119.589447 -66.045181 9.367870 0.223529
141.542328 -63.427475 11.285973 0.223529
nan nan nan 0.000000
nan nan nan 0.000000
nan nan nan 0.000000
nan nan nan 0.000000
nan nan nan 0.000000
119.806366 -66.019318 -0.000004 0.541848
103.601807 -67.951584 -0.000002 0.545678
96.644600 -68.781174 -0.000001 0.544991
92.769806 -69.243217 -0.000001 0.546319
90.296074 -69.538185 -0.000000 0.550927
87.657196 -69.852852 0.200010 0.735561
86.517159 -69.988792 0.200008 0.666865
119.584846 -66.330162 12.133506 0.223529
119.587173 -66.329903 10.737995 0.223529
nan nan nan 0.000000
nan nan nan 0.000000
nan nan nan 0.000000
nan nan nan 0.000000
nan nan nan 0.000000
nan nan nan 0.000000
nan nan nan 0.000000
119.839043 -66.301651 -0.000004 0.538048
103.621384 -68.120743 -0.000002 0.539315
96.658554 -68.901741 -0.000001 0.542473
92.780624 -69.336723 -0.000001 0.535637
90.304901 -69.614418 -0.000000 0.547036
87.663887 -69.910652 0.200010 0.686915
86.522926 -70.038628 0.200008 0.678630
119.584854 -66.614143 12.125826 0.223529
nan nan nan 0.000000
nan nan nan 0.000000
nan nan nan 0.000000
nan nan nan 0.000000
nan nan nan 0.000000
nan nan nan 0.000000
nan nan nan 0.000000
nan nan nan 0.000000
119.869728 -66.584198 -0.000004 0.547448
103.639778 -68.290031 -0.000002 0.544579
96.671661 -69.022408 -0.000001 0.535866
92.790787 -69.430298 -0.000001 0.538277
90.313187 -69.690704 -0.000000 0.554726
87.670166 -69.968491 0.200010 0.751888
86.528343 -70.088501 0.200008 0.678981
nan nan nan 0.000000
nan nan nan 0.000000
nan nan nan 0.000000
nan nan nan 0.000000
nan nan nan 0.000000
nan nan nan 0.000000
nan nan nan 0.000000
nan nan nan 0.000000
nan nan nan 0.000000
119.898453 -66.866959 -0.000004 0.538155
103.656982 -68.459442 -0.000002 0.523537
96.683914 -69.143150 -0.000001 0.539620
92.800301 -69.523941 -0.000001 0.520836
90.320938 -69.767044 -0.000000 0.527260
87.676048 -70.026375 0.200010 0.734874
86.533409 -70.138412 0.200008 0.679591
nan nan nan 0.000000
nan nan nan 0.000000
nan nan nan 0.000000
nan nan nan 0.000000
nan nan nan 0.000000
nan nan nan 0.000000
nan nan nan 0.000000
nan nan nan 0.000000
nan nan nan 0.000000
119.925186 -67.149918 -0.000003 0.546487
103.673004 -68.628975 -0.000002 0.542672
96.695343 -69.263985 -0.000001 0.547814
92.809158 -69.617653 -0.000001 0.567117
90.328163 -69.843445 -0.000001 0.497520
87.681526 -70.084305 0.200010 0.693965
86.538132 -70.188362 0.200008 0.666285
nan nan nan 0.000000
nan nan nan 0.000000
nan nan nan 0.000000
nan nan nan 0.000000
nan nan nan 0.000000
nan nan nan 0.000000
nan nan nan 0.000000
nan nan nan 0.000000
nan nan nan 0.000000
119.949959 -67.433052 -0.000003 0.535363
103.687836 -68.798615 -0.000002 0.540063
96.705925 -69.384895 -0.000002 0.542626
92.817368 -69.711426 -0.000001 0.527520
90.334846 -69.919884 -0.000000 0.564645
87.686592 -70.142265 0.200010 0.755703
86.542503 -70.238335 0.200008 0.688167
nan nan nan 0.000000
nan nan nan 0.000000
nan nan nan 0.000000
nan nan nan 0.000000
nan nan nan 0.000000
nan nan nan 0.000000
nan nan nan 0.000000
nan nan nan 0.000000
nan nan nan 0.000000
119.972763 -67.716354 -0.000004 0.541329
103.701500 -68.968346 -0.000002 0.537133
96.715652 -69.505875 -0.000001 0.527108
92.824905 -69.805252 -0.000001 0.542046
90.341003 -69.996376 -0.000000 0.533089
87.691261 -70.200256 0.200010 0.729091
86.546532 -70.288338 0.200008 0.683925
nan nan nan 0.000000
nan nan nan 0.000000
nan nan nan 0.000000
nan nan nan 0.000000
nan nan nan 0.000000
nan nan nan 0.000000
nan nan nan 0.000000
nan nan nan 0.000000
nan nan nan 0.000000
119.993561 -67.999802 -0.000003 0.541405
103.713974 -69.138176 -0.000002 0.538293
96.724548 -69.626923 -0.000001 0.553674
92.831810 -69.899124 -0.000001 0.529046
90.346626 -70.072906 -0.000000 0.537713
87.695518 -70.258286 0.200010 0.727062
86.550201 -70.338371 0.200008 0.696544
nan nan nan 0.000000
nan nan nan 0.000000
nan nan nan 0.000000
nan nan nan 0.000000
nan nan nan 0.000000
nan nan nan 0.000000
nan nan nan 0.000000
nan nan nan 0.000000
nan nan nan 0.000000
120.012413 -68.283394 -0.000004 0.539742
103.725258 -69.308090 -0.000002 0.535683
96.732590 -69.748024 -0.000002 0.546029
92.838043 -69.993050 -0.000001 0.540291
90.351707 -70.149475 -0.000000 0.546700
87.699371 -70.316338 0.200010 0.675715
86.553528 -70.388428 0.200008 0.688350
nan nan nan 0.000000
nan nan nan 0.000000
nan nan nan 0.000000
nan nan nan 0.000000
nan nan nan 0.000000
nan nan nan 0.000000
nan nan nan 0.000000
nan nan nan 0.000000
nan nan nan 0.000000
120.029266 -68.567108 -0.000004 0.542855
103.735352 -69.478073 -0.000002 0.543847
96.739784 -69.869179 -0.000001 0.531258
92.843620 -70.087006 -0.000001 0.535790
90.356255 -70.226074 -0.000000 0.549569
87.702827 -70.374420 0.200010 0.725719
86.556503 -70.438507 0.200008 0.705669
nan nan nan 0.000000
nan nan nan 0.000000
nan nan nan 0.000000
nan nan nan 0.000000
nan nan nan 0.000000
nan nan nan 0.000000
nan nan nan 0.000000
nan nan nan 0.000000
nan nan nan 0.000000
120.044144 -68.850937 -0.000004 0.543221
103.744263 -69.648125 -0.000001 0.539117
96.746140 -69.990387 -0.000001 0.547982
92.848549 -70.181007 -0.000001 0.549737
90.360275 -70.302704 -0.000000 0.554849
87.705872 -70.432526 0.200010 0.719966
86.559128 -70.488609 0.200008 0.693736
nan nan nan 0.000000
nan nan nan 0.000000
nan nan nan 0.000000
nan nan nan 0.000000
nan nan nan 0.000000
nan nan nan 0.000000
nan nan nan 0.000000
nan nan nan 0.000000
nan nan nan 0.000000
120.057053 -69.134857 -0.000004 0.541360
103.751991 -69.818237 -0.000002 0.537926
96.751648 -70.111633 -0.000001 0.550637
92.852821 -70.275040 -0.000001 0.557977
90.363754 -70.379364 -0.000000 0.561746
87.708511 -70.490646 0.200010 0.665110
86.561401 -70.538727 0.200008 0.746944
nan nan nan 0.000000
nan nan nan 0.000000
nan nan nan 0.000000
nan nan nan 0.000000
nan nan nan 0.000000
nan nan nan 0.000000
nan nan nan 0.000000
nan nan nan 0.000000
nan nan nan 0.000000
120.067963 -69.418869 -0.000004 0.544259
103.758522 -69.988396 -0.000002 0.541665
96.756302 -70.232918 -0.000001 0.540963
92.856438 -70.369102 -0.000001 0.534539
90.366699 -70.456039 -0.000000 0.528252
87.710747 -70.548790 0.200010 0.737819
86.563332 -70.588852 0.200008 0.698222
nan nan nan 0.000000
nan nan nan 0.000000
nan nan nan 0.000000
nan nan nan 0.000000
nan nan nan 0.000000
nan nan nan 0.000000
nan nan nan 0.000000
nan nan nan 0.000000
nan nan nan 0.000000
120.076874 -69.702942 -0.000004 0.541207
103.763885 -70.158600 -0.000002 0.531395
96.760117 -70.354225 -0.000001 0.558663
92.859390 -70.463181 -0.000000 0.541817
90.369110 -70.532738 -0.000000 0.531746
87.712570 -70.606941 0.200010 0.722789
86.564903 -70.639000 0.200008 0.746899
nan nan nan 0.000000
nan nan nan 0.000000
nan nan nan 0.000000
nan nan nan 0.000000
nan nan nan 0.000000
nan nan nan 0.000000
nan nan nan 0.000000
nan nan nan 0.000000
nan nan nan 0.000000
120.083817 -69.987076 -0.000004 0.541054
103.768036 -70.328835 -0.000002 0.540398
96.763084 -70.475563 -0.000001 0.543725
92.861687 -70.557281 -0.000001 0.557626
90.370987 -70.609451 -0.000000 0.536873
87.713997 -70.665108 0.200010 0.731853
86.566132 -70.689148 0.200008 0.736736
nan nan nan 0.000000
nan nan nan 0.000000
nan nan nan 0.000000
nan nan nan 0.000000
nan nan nan 0.000000
nan nan nan 0.000000
nan nan nan 0.000000
nan nan nan 0.000000
nan nan nan 0.000000
120.088776 -70.271248 -0.000004 0.539559
103.771019 -70.499092 -0.000002 0.539300
96.765198 -70.596916 -0.000001 0.556695
92.863335 -70.651398 -0.000001 0.540703
90.372322 -70.686180 -0.000000 0.568658
87.715012 -70.723282 0.200010 0.690150
86.567009 -70.739311 0.200008 0.733715
nan nan nan 0.000000
nan nan nan 0.000000
nan nan nan 0.000000
nan nan nan 0.000000
nan nan nan 0.000000
nan nan nan 0.000000
nan nan nan 0.000000
nan nan nan 0.000000
nan nan nan 0.000000
120.091743 -70.555450 -0.000003 0.541863
103.772797 -70.669365 -0.000002 0.535393
95.028107 -70.730415 0.199986 0.713603
91.516075 -70.754929 0.199997 0.696437
89.273941 -70.770584 0.200008 0.712673
87.715622 -70.781464 0.200010 0.722255
86.567535 -70.789474 0.200008 0.686076
nan nan nan 0.000000
nan nan nan 0.000000
nan nan nan 0.000000
nan nan nan 0.000000
nan nan nan 0.000000
nan nan nan 0.000000
nan nan nan 0.000000
nan nan nan 0.000000
nan nan nan 0.000000
116.021729 -70.839661 0.199992 0.704555
101.334312 -70.839653 0.199991 0.690059
95.028488 -70.839645 0.199986 0.726192
91.516380 -70.839645 0.199995 0.707103
89.274239 -70.839645 0.199998 0.714076
87.715820 -70.839645 0.200010 0.717510
86.567703 -70.839645 0.200008 0.744335
nan nan nan 0.000000
nan nan nan 0.000000
nan nan nan 0.000000
nan nan nan 0.000000
nan nan nan 0.000000
nan nan nan 0.000000
nan nan nan 0.000000
nan nan nan 0.000000
nan nan nan 0.000000
116.020676 -71.095451 0.200000 0.710582
101.333771 -70.992905 0.199992 0.725124
95.028107 -70.948883 0.199987 0.720775
91.516098 -70.924362 0.199994 0.700694
89.274055 -70.908707 0.199988 0.693416
87.715622 -70.897827 0.200010 0.661967
86.567535 -70.889809 0.200008 0.764813
nan nan nan 0.000000
nan nan nan 0.000000
nan nan nan 0.000000
nan nan nan 0.000000
nan nan nan 0.000000
nan nan nan 0.000000
nan nan nan 0.000000
nan nan nan 0.000000
nan nan nan 0.000000
116.017838 -71.351227 0.200008 0.704402
101.332169 -71.146156 0.199992 0.688563
95.026955 -71.058113 0.199987 0.715419
91.515221 -71.009071 0.199992 0.695781
89.273338 -70.977768 0.199987 0.718563
87.715012 -70.956001 0.200010 0.728069
86.567009 -70.939972 0.200008 0.749706
nan nan nan 0.000000
nan nan nan 0.000000
nan nan nan 0.000000
nan nan nan 0.000000
nan nan nan 0.000000
nan nan nan 0.000000
nan nan nan 0.000000
nan nan nan 0.000000
nan nan nan 0.000000
116.013199 -71.606979 0.200017 0.711650
101.329483 -71.299393 0.199992 0.722530
95.025040 -71.167328 0.199988 0.696422
91.513748 -71.093773 0.199991 0.675258
89.272125 -71.046822 0.199987 0.712459
87.713997 -71.014175 0.200010 0.723049
86.566132 -70.990135 0.200008 0.660853
nan nan nan 0.000000
nan nan nan 0.000000
nan nan nan 0.000000
nan nan nan 0.000000
nan nan nan 0.000000
nan nan nan 0.000000
nan nan nan 0.000000
nan nan nan 0.000000
nan nan nan 0.000000
116.007118 -71.862694 0.200009 0.708858
101.325745 -71.452599 0.199992 0.691875
95.022362 -71.276527 0.199989 0.713527
91.511688 -71.178467 0.199990 0.693523
89.270439 -71.115860 0.199988 0.702937
87.712570 -71.072342 0.200011 0.682567
86.564903 -71.040283 0.200008 0.740444
nan nan nan 0.000000
nan nan nan 0.000000
nan nan nan 0.000000
nan nan nan 0.000000
nan nan nan 0.000000
nan nan nan 0.000000
nan nan nan 0.000000
nan nan nan 0.000000
nan nan nan 0.000000
115.999329 -72.118370 0.199997 0.705837
101.320923 -71.605782 0.199992 0.720012
95.018929 -71.385712 0.199989 0.687510
91.509033 -71.263138 0.199989 0.692424
89.268265 -71.184891 0.199989 0.707179
87.710747 -71.130501 0.200010 0.720607
86.563332 -71.090431 0.200008 0.763058
nan nan nan 0.000000
nan nan nan 0.000000
nan nan nan 0.000000
nan nan nan 0.000000
nan nan nan 0.000000
nan nan nan 0.000000
nan nan nan 0.000000
nan nan nan 0.000000
nan nan nan 0.000000
115.989731 -72.373985 0.199986 0.708644
101.315033 -71.758926 0.199993 0.712154
