# This PCD file was generated using the MATLABÂ® pcwrite function
# from Computer Vision ToolboxÂ®.
# .PCD v.7 - Point Cloud Data file format
VERSION .7
FIELDS x y z intensity
SIZE 4 4 4 4
TYPE F F F F
COUNT 1 1 1 1
WIDTH 1192
HEIGHT 1
VIEWPOINT 0 0 0 1 0 0 0
POINTS 1192
DATA ascii
-38.020199 -55.415390 3.377194 0.549020
-38.020199 -55.415390 3.068071 0.567941
-38.020199 -55.415390 2.761268 0.700801
-38.020199 -55.415394 2.456108 0.614710
-38.020199 -55.415394 2.151927 0.543069
-38.020199 -55.415394 1.848073 0.535149
-38.020199 -55.415390 1.543892 0.840772
-38.020199 -55.415390 1.238732 0.574029
-38.020199 -55.415394 0.931929 0.534600
-38.020199 -55.415390 0.622806 0.582132
-38.020199 -55.415394 0.310667 0.552850
-38.004776 -55.434006 0.000007 0.542077
-37.190945 -56.416386 0.000007 0.545235
-38.020145 -55.312992 4.345393 0.842893
-38.020180 -55.312950 4.022299 0.779019
-38.020199 -55.312927 3.703732 0.784253
-38.020199 -55.312923 3.388932 0.710994
-38.020199 -55.312927 3.077175 0.701350
-38.020199 -55.312927 2.767756 0.782116
-38.020199 -55.312927 2.459995 0.697108
-38.020199 -55.312923 2.153222 0.683207
-38.020199 -55.312927 1.846778 0.712520
-38.020199 -55.312927 1.540005 0.774243
-38.020199 -55.312927 1.232243 0.755459
-38.020199 -55.312927 0.922825 0.485100
-38.020199 -55.312927 0.611068 0.592874
-38.020195 -55.312927 0.296268 0.553674
-37.954849 -55.392937 0.000007 0.563348
-37.147896 -56.380974 0.000006 0.552010
-38.020153 -55.208748 4.365676 0.549020
-38.020191 -55.208702 4.039788 0.580270
-38.020199 -55.208694 3.718464 0.575708
-38.020199 -55.208694 3.400942 0.628382
-38.020199 -55.208694 3.086488 0.576226
-38.020199 -55.208694 2.774395 0.571359
-38.020199 -55.208694 2.463972 0.549020
-38.020199 -55.208694 2.154547 0.566323
-38.020199 -55.208694 1.845453 0.564889
-38.020199 -55.208694 1.536027 0.567239
-38.020195 -55.208694 1.225605 0.744015
-38.020199 -55.208694 0.913511 0.723903
-38.020199 -55.208694 0.599059 0.539666
-38.020199 -55.208694 0.281537 0.626108
-37.904640 -55.352219 0.000007 0.569162
-37.104603 -56.345863 0.000006 0.507744
-38.020164 -55.102680 4.386431 0.788327
-38.020199 -55.102634 4.057683 0.546502
-38.020199 -55.102634 3.733537 0.531197
-38.020199 -55.102634 3.413230 0.517647
-38.020199 -55.102634 3.096019 0.567575
-38.020199 -55.102638 2.781188 0.550851
-38.020199 -55.102638 2.468042 0.517647
-38.020195 -55.102638 2.155903 0.572931
-38.020195 -55.102638 1.844097 0.525307
-38.020199 -55.102638 1.531958 0.517647
-38.020195 -55.102638 1.218812 0.610056
-38.020195 -55.102638 0.903982 0.652018
-38.020195 -55.102638 0.586771 0.823621
-38.020195 -55.102638 0.266464 0.646189
-37.854141 -55.311852 0.000007 0.522881
-37.061066 -56.311058 0.000006 0.535195
-38.020172 -54.994732 4.407670 0.545510
-38.020199 -54.994698 4.075993 0.618570
-38.020199 -54.994698 3.748962 0.709834
-38.020199 -54.994698 3.425806 0.549020
-38.020199 -54.994698 3.105771 0.517647
-38.020199 -54.994698 2.788139 0.550759
-38.020199 -54.994698 2.472207 0.531929
-38.020195 -54.994701 2.157290 0.517647
-38.020195 -54.994701 1.842710 0.551766
-38.020199 -54.994698 1.527793 0.549020
-38.020199 -54.994698 1.211861 0.517647
-38.020195 -54.994701 0.894229 0.560021
-38.020199 -54.994698 0.574195 0.549020
-38.020195 -54.994701 0.251038 0.517647
-37.803368 -55.271839 0.000007 0.520134
-37.017284 -56.276558 0.000006 0.528817
-37.971294 -54.948231 4.409358 0.371664
-38.020199 -54.884815 4.094735 0.517708
-38.020199 -54.884815 3.764753 0.491646
-38.020195 -54.884819 3.438677 0.703029
-38.020199 -54.884815 3.115755 0.659571
-38.020199 -54.884819 2.795254 0.525109
-38.020195 -54.884819 2.476470 0.583658
-38.020195 -54.884819 2.158710 0.556878
-38.020195 -54.884819 1.841290 0.523674
-38.020195 -54.884819 1.523530 0.586862
-38.020199 -54.884819 1.204745 0.544228
-38.020195 -54.884819 0.884246 0.524819
-38.020195 -54.884819 0.561323 0.586862
-38.020195 -54.884819 0.235248 0.533089
-37.752312 -55.232182 0.000007 0.538781
-36.973263 -56.242363 0.000006 0.525093
-37.990303 -54.812256 4.439296 0.678431
-38.020187 -54.772938 4.113919 0.713603
-38.020195 -54.772926 3.780917 0.521279
-38.020199 -54.772926 3.451856 0.560906
-38.020195 -54.772926 3.125975 0.804776
-38.020199 -54.772926 2.802539 0.696864
-38.020195 -54.772930 2.480834 0.592523
-38.020195 -54.772930 2.160164 0.629953
-38.020195 -54.772930 1.839836 0.743038
-38.020195 -54.772930 1.519165 0.547539
-38.020195 -54.772926 1.197461 0.613138
-38.020195 -54.772930 0.874025 0.731197
-38.020195 -54.772926 0.548144 0.598016
-38.020199 -54.772926 0.219082 0.776989
-37.700981 -55.192879 0.000007 0.552865
-36.929001 -56.208477 0.000006 0.507744
-37.990303 -54.698864 4.461968 0.678431
-38.020180 -54.658989 4.133564 0.552453
-38.020187 -54.658978 3.797466 0.595163
-38.020195 -54.658970 3.465349 0.538842
-38.020199 -54.658962 3.136440 0.597787
-38.020195 -54.658962 2.809998 0.827024
-38.020195 -54.658966 2.485304 0.734096
-38.020195 -54.658966 2.161652 0.560784
-38.020195 -54.658966 1.838348 0.522393
-38.020195 -54.658966 1.514696 0.529534
-38.020195 -54.658966 1.190002 0.549020
-38.020195 -54.658966 0.863560 0.561318
-38.020195 -54.658966 0.534650 0.772427
-38.020199 -54.658962 0.202530 0.568276
-37.649380 -55.153938 0.000006 0.535302
-36.884510 -56.174896 0.000005 0.533806
-37.990307 -54.583340 4.485189 0.678431
-38.020168 -54.542896 4.153682 0.566537
-38.020176 -54.542885 3.814415 0.713756
-38.020184 -54.542873 3.479166 0.694377
-38.020191 -54.542866 3.147156 0.549020
-38.020195 -54.542854 2.817637 0.642008
-38.020195 -54.542858 2.489881 0.619669
-38.020195 -54.542854 2.163177 0.550088
-38.020195 -54.542854 1.836823 0.558526
-38.020195 -54.542854 1.510119 0.517647
-38.020195 -54.542854 1.182363 0.565682
-38.020195 -54.542854 0.852842 0.834745
-38.020195 -54.542854 0.520830 0.557443
-38.020199 -54.542854 0.185577 0.579416
-37.597507 -55.115356 0.000006 0.533928
-36.839783 -56.141632 0.000005 0.467674
-37.990307 -54.465611 4.508974 0.678431
-38.020157 -54.424587 4.174290 0.754467
-38.020164 -54.424576 3.831777 0.517647
-38.020172 -54.424568 3.493320 0.616800
-38.020180 -54.424553 3.158133 0.697612
-38.020187 -54.424545 2.825461 0.719585
-38.020195 -54.424534 2.494569 0.865080
-38.020195 -54.424530 2.164739 0.567742
-38.020195 -54.424534 1.835261 0.521996
-38.020195 -54.424530 1.505431 0.538369
-38.020195 -54.424534 1.174538 0.673671
-38.020195 -54.424530 0.841863 0.775799
-38.020195 -54.424534 0.506674 0.735485
-38.020199 -54.424526 0.168212 0.740764
-37.545364 -55.077141 0.000006 0.538079
-36.794823 -56.108681 0.000005 0.582574
-37.990311 -54.345596 4.533344 0.678431
-38.020145 -54.303986 4.195404 0.572076
-38.020153 -54.303978 3.849565 0.549020
-38.020161 -54.303963 3.507822 0.549630
-38.020168 -54.303951 3.169380 0.593194
-38.020176 -54.303944 2.833477 0.532906
-38.020184 -54.303932 2.499372 0.698802
-37.935143 -54.422543 2.163950 0.381201
-37.935143 -54.422543 1.836050 0.437949
-37.935143 -54.422543 1.507798 0.530388
-37.935143 -54.422543 1.178489 0.540932
-37.935143 -54.422543 0.847407 0.508141
-37.935143 -54.422543 0.513822 0.375616
-38.020203 -54.303909 0.150420 0.555154
-37.492958 -55.039288 0.000006 0.547173
-36.749638 -56.076042 0.000005 0.552819
-37.990311 -54.223228 4.558317 0.678431
-38.020130 -54.181015 4.217041 0.550240
-38.020142 -54.181004 3.867794 0.714153
-38.020149 -54.180992 3.522682 0.600656
-38.020157 -54.180984 3.180905 0.821347
-38.020164 -54.180969 2.841691 0.550393
-38.020180 -54.180950 2.504294 0.593469
-37.990299 -54.223244 2.167131 0.678431
-37.990299 -54.223244 1.832869 0.678431
-37.990299 -54.223244 1.498250 0.678431
-37.990303 -54.223244 1.162552 0.678431
-37.990299 -54.223244 0.825048 0.678431
-37.990303 -54.223244 0.484991 0.678431
-38.020199 -54.180920 0.132187 0.570932
-37.440289 -55.001801 0.000006 0.535668
-36.704224 -56.043720 0.000005 0.561181
-37.990314 -54.098412 4.583917 0.674449
-38.020119 -54.055588 4.239220 0.599588
-38.020126 -54.055576 3.886478 0.549020
-38.020134 -54.055565 3.537915 0.569787
-38.020145 -54.055553 3.192718 0.586938
-38.020149 -54.055546 2.850111 0.565713
-38.020180 -54.055504 2.509340 0.545296
-37.990303 -54.098427 2.168803 0.678431
-37.990303 -54.098427 1.831197 0.678431
-37.990303 -54.098427 1.493229 0.678431
-37.990303 -54.098431 1.154173 0.678431
-37.990303 -54.098427 0.813291 0.678431
-37.990303 -54.098427 0.469832 0.678431
-38.020203 -54.055473 0.113498 0.774304
-37.387356 -54.964684 0.000006 0.524071
-36.658581 -56.011719 0.000005 0.514107
-37.935135 -54.051537 4.585720 0.575738
-38.020107 -53.927620 4.261957 0.567956
-38.020115 -53.927608 3.905634 0.574701
-38.020123 -53.927597 3.553531 0.619028
-38.020130 -53.927586 3.204829 0.567987
-38.020149 -53.927559 2.858745 0.708858
-38.020176 -53.927521 2.514513 0.596429
-37.990303 -53.971085 2.170517 0.678431
-37.990303 -53.971085 1.829483 0.678431
-37.990303 -53.971085 1.488082 0.678431
-37.990303 -53.971085 1.145582 0.678431
-37.990303 -53.971085 0.801238 0.678431
-37.990303 -53.971085 0.454291 0.678431
-38.020203 -53.927483 0.094337 0.520317
-37.334167 -54.927940 0.000006 0.523125
-36.612724 -55.980034 0.000005 0.534966
-37.990314 -53.841110 4.637073 0.678431
-38.009155 -53.813213 4.281054 0.447776
-38.020103 -53.797009 3.925278 0.569162
-38.020111 -53.796997 3.569545 0.548775
-38.020123 -53.796982 3.217250 0.582437
-38.020149 -53.796944 2.867599 0.744945
-38.020176 -53.796902 2.519817 0.560037
-37.990303 -53.841122 2.172276 0.678431
-37.990303 -53.841122 1.827724 0.678431
-37.990307 -53.841118 1.482804 0.678431
-37.990303 -53.841122 1.136772 0.678431
-37.990303 -53.841125 0.788878 0.678431
-37.990303 -53.841125 0.438354 0.678431
-38.020203 -53.796860 0.074688 0.557275
-37.280724 -54.891563 0.000006 0.541619
-36.566643 -55.948669 0.000005 0.591226
-37.990314 -53.708435 4.664676 0.678431
-37.947926 -53.772137 4.281058 0.473014
-38.020092 -53.663681 3.945427 0.590906
-38.020096 -53.663673 3.585971 0.551202
-38.020119 -53.663639 3.229991 0.747860
-38.020145 -53.663597 2.876681 0.621714
-38.020172 -53.663559 2.525259 0.569787
-37.990307 -53.708447 2.174079 0.678431
-37.990307 -53.708447 1.825921 0.678431
-37.990303 -53.708447 1.477390 0.678431
-37.990307 -53.708447 1.127736 0.678431
-37.990303 -53.708447 0.776200 0.678431
-37.990303 -53.708447 0.422007 0.678431
-38.020206 -53.663509 0.054535 0.731762
-37.227028 -54.855564 0.000006 0.553170
-36.520344 -55.917629 0.000005 0.551675
-37.990311 -53.572948 4.692996 0.678431
-37.935135 -53.657135 4.300263 0.537713
-38.020077 -53.527527 3.966099 0.746761
-38.020092 -53.527508 3.602826 0.736950
-38.020119 -53.527466 3.243064 0.620813
-38.020145 -53.527420 2.885998 0.579232
-38.020172 -53.527382 2.530841 0.569711
-37.990307 -53.572952 2.175929 0.678431
-37.990307 -53.572952 1.824071 0.678431
-37.990307 -53.572956 1.471836 0.678431
-37.990307 -53.572952 1.118465 0.678431
-37.990307 -53.572952 0.763193 0.678431
-37.990307 -53.572952 0.405234 0.678431
-38.020206 -53.527332 0.033858 0.732036
-37.173080 -54.819939 0.000006 0.553246
-36.473827 -55.886909 0.000005 0.564553
-37.990307 -53.434547 4.722057 0.678431
-37.935143 -53.520020 4.325089 0.566476
-38.020061 -53.388443 3.987313 0.530175
-38.020088 -53.388405 3.620123 0.587427
-38.020119 -53.388359 3.256479 0.518959
-38.020145 -53.388321 2.895560 0.613565
-38.020172 -53.388275 2.536570 0.576440
-37.990311 -53.434544 2.177828 0.678431
-37.990311 -53.434544 1.822172 0.678431
-37.990307 -53.434547 1.466135 0.678431
-37.990307 -53.434547 1.108952 0.678431
-37.990307 -53.434547 0.749845 0.678431
-37.990307 -53.434547 0.388024 0.669886
-38.020210 -53.388222 0.012638 0.819776
-37.118889 -54.784691 0.000005 0.551751
-36.427101 -55.856518 0.000005 0.511315
-37.990307 -53.293114 4.751890 0.678431
-37.990307 -53.293114 4.372783 0.678431
-38.020058 -53.246304 4.009092 0.543420
-38.020088 -53.246262 3.637878 0.558022
-38.020115 -53.246216 3.270248 0.525994
-38.020142 -53.246170 2.905375 0.567880
-38.020172 -53.246128 2.542450 0.706981
-37.990311 -53.293110 2.179777 0.678431
-37.990311 -53.293110 1.820223 0.678431
-37.990311 -53.293114 1.460284 0.678431
-37.990311 -53.293110 1.099186 0.678431
-37.990311 -53.293114 0.736144 0.678431
-37.990311 -53.293114 0.370356 0.669612
-37.993237 -53.288506 0.000007 0.555184
-37.064449 -54.749825 0.000005 0.550637
-36.380161 -55.826454 0.000004 0.498039
-37.956890 -53.201935 4.766742 0.592935
-37.956890 -53.201939 4.385589 0.646311
-38.020058 -53.101006 4.031454 0.593027
-38.020084 -53.100956 3.656109 0.774121
-38.020115 -53.100914 3.284387 0.799847
-38.020142 -53.100868 2.915452 0.780056
-38.020172 -53.100822 2.548488 0.742443
-37.990311 -53.148533 2.181778 0.678431
-37.990311 -53.148533 1.818222 0.678431
-37.990311 -53.148533 1.454277 0.678431
-37.990311 -53.148537 1.089159 0.678431
-37.990311 -53.148537 0.722075 0.678431
-37.953873 -53.206760 0.362405 0.699031
-37.928333 -53.247570 0.000006 0.519295
-37.009769 -54.715336 0.000005 0.540764
-36.333015 -55.796719 0.000004 0.535485
-38.019939 -52.952614 4.828129 0.780896
-38.019993 -52.952522 4.438543 0.683970
-38.020042 -52.952446 4.054417 0.565728
-38.020081 -52.952377 3.674832 0.712215
-38.020111 -52.952328 3.298908 0.541634
-38.020142 -52.952282 2.925802 0.743313
-38.020168 -52.952236 2.554689 0.621363
-37.990311 -53.000694 2.183833 0.678431
-37.990311 -53.000694 1.816167 0.678431
-37.990311 -53.000694 1.448106 0.678431
-37.990311 -53.000694 1.078860 0.678431
-37.990311 -53.000694 0.707627 0.678431
-37.935139 -53.090240 0.349188 0.585657
-37.863140 -53.207088 0.000007 0.549706
-36.954849 -54.681232 0.000005 0.544701
-36.285660 -55.767311 0.000004 0.548974
-38.019920 -52.800655 4.860602 0.592279
-38.019978 -52.800560 4.466543 0.560998
-38.020023 -52.800484 4.078006 0.650919
-38.020065 -52.800415 3.694063 0.595331
-38.020107 -52.800346 3.313826 0.512352
-38.020142 -52.800293 2.936435 0.616098
-38.020168 -52.800247 2.561060 0.560540
-37.990314 -52.849464 2.185944 0.678431
-37.990314 -52.849464 1.814055 0.678431
-37.990314 -52.849464 1.441768 0.678431
-37.990314 -52.849464 1.068281 0.678431
-37.990314 -52.849464 0.692783 0.678431
-37.935139 -52.940430 0.330228 0.515663
-37.797672 -53.167065 0.000006 0.582498
-36.899693 -54.647511 0.000005 0.523690
-36.238102 -55.738239 0.000004 0.550561
-37.965233 -52.736729 4.867259 0.512367
-37.965229 -52.736732 4.472259 0.371466
-38.020016 -52.644970 4.102251 0.553124
-38.020050 -52.644913 3.713826 0.688121
-38.020088 -52.644844 3.329152 0.520195
-38.020130 -52.644775 2.947360 0.546807
-38.020164 -52.644718 2.567607 0.580453
-37.990314 -52.694714 2.188114 0.678431
-37.990314 -52.694714 1.811886 0.678431
-37.990314 -52.694714 1.435254 0.678431
-37.990314 -52.694714 1.057408 0.678431
-37.990314 -52.694717 0.677530 0.678431
-37.935135 -52.787132 0.310745 0.473854
-37.731922 -53.127495 0.000006 0.488640
-36.844299 -54.614174 0.000005 0.532631
-36.190342 -55.709496 0.000004 0.520623
-37.990299 -52.536331 4.913649 0.678431
-37.990299 -52.536335 4.512258 0.678431
-38.020016 -52.485764 4.127175 0.582788
-38.020061 -52.485687 3.734149 0.577218
-38.020096 -52.485630 3.344912 0.759716
-38.020130 -52.485573 2.958592 0.523278
-38.020161 -52.485516 2.574336 0.611963
-37.990318 -52.536301 2.190344 0.678431
-37.990318 -52.536304 1.809655 0.678431
-37.990318 -52.536301 1.428558 0.678431
-37.990318 -52.536304 1.046233 0.678431
-37.990318 -52.536304 0.661849 0.678431
-38.020191 -52.485466 0.265814 0.665080
-37.665901 -53.088387 0.000006 0.533181
-36.788681 -54.581230 0.000005 0.538003
-36.142380 -55.681087 0.000004 0.542351
-37.990307 -52.374104 4.948756 0.678431
-37.990303 -52.374107 4.542528 0.678431
-38.020000 -52.322750 4.152799 0.658824
-38.020065 -52.322639 3.755044 0.538643
-38.020107 -52.322567 3.361119 0.517784
-38.020142 -52.322510 2.970144 0.731655
-38.020176 -52.322449 2.581257 0.592462
-37.968483 -52.411839 2.191924 0.536324
-37.968483 -52.411839 1.808076 0.561624
-37.968487 -52.411839 1.423816 0.590646
-37.968483 -52.411839 1.038317 0.605402
-37.968483 -52.411842 0.650744 0.605173
-38.020191 -52.322418 0.244919 0.597513
-37.599606 -53.049744 0.000006 0.542718
-36.732826 -54.548672 0.000005 0.551690
-36.094223 -55.653015 0.000004 0.550195
-37.990314 -52.207909 4.984868 0.678431
-37.990311 -52.207912 4.573665 0.678431
-38.019974 -52.155777 4.179151 0.549020
-38.020065 -52.155624 3.776533 0.697047
-38.020119 -52.155521 3.377789 0.551827
-38.020157 -52.155460 2.982025 0.632013
-38.020191 -52.155399 2.588376 0.556970
-38.020199 -52.155380 2.195986 0.529183
-38.020199 -52.155384 1.804014 0.656092
-38.020199 -52.155380 1.411623 0.534005
-38.020199 -52.155384 1.017967 0.656260
-38.020199 -52.155384 0.622193 0.548012
-38.020199 -52.155384 0.223426 0.692439
-37.533047 -53.011559 0.000006 0.520699
-36.676750 -54.516506 0.000005 0.581003
-36.045872 -55.625278 0.000004 0.555276
-37.990318 -52.037582 5.022024 0.678431
-37.990318 -52.037582 4.605703 0.678431
-38.019947 -51.984657 4.206264 0.664088
-38.020058 -51.984459 3.798645 0.610529
-38.020115 -51.984356 3.394937 0.797665
-38.020172 -51.984257 2.994251 0.549645
-38.020206 -51.984196 2.595701 0.688792
-38.020206 -51.984192 2.198425 0.586557
-38.020206 -51.984192 1.801575 0.660060
-38.020206 -51.984192 1.404299 0.555978
-38.020203 -51.984196 1.005743 0.678584
-38.020206 -51.984192 0.605041 0.597391
-38.020203 -51.984200 0.201311 0.609171
-37.466217 -52.973846 0.000006 0.525582
-36.620453 -54.484730 0.000005 0.514488
-35.997326 -55.597885 0.000004 0.557260
-37.983398 -51.875542 5.056669 0.533867
-37.983398 -51.875542 4.635577 0.535363
-38.019917 -51.809219 4.234170 0.564584
-38.020054 -51.808971 3.821404 0.646494
-38.020111 -51.808865 3.412589 0.538872
-38.020168 -51.808765 3.006832 0.537820
-38.020214 -51.808681 2.603240 0.759976
-38.020214 -51.808678 2.200937 0.527321
-38.020214 -51.808681 1.799064 0.593942
-38.020214 -51.808681 1.396760 0.548791
-38.020214 -51.808681 0.993160 0.571969
-38.020214 -51.808685 0.587388 0.791150
-38.020210 -51.808685 0.178548 0.574380
-37.399128 -52.936600 0.000006 0.547356
-36.563931 -54.453350 0.000005 0.534051
-35.948593 -55.570824 0.000004 0.527901
-37.990307 -51.683891 5.099631 0.678431
-37.990307 -51.683895 4.672619 0.678431
-38.019890 -51.629272 4.262905 0.539528
-38.020035 -51.629002 3.844832 0.534646
-38.020107 -51.628868 3.430762 0.548318
-38.020164 -51.628761 3.019785 0.641230
-38.658184 -50.450703 2.676813 0.630060
-39.140423 -49.560280 2.242013 0.586053
-39.140297 -49.560516 1.757990 0.716884
-39.140175 -49.560741 1.273465 0.690532
-39.140053 -49.560970 0.787396 0.628092
-39.139942 -49.561169 0.298723 0.520912
-38.518173 -50.709225 0.000007 0.540352
-37.331783 -52.899815 0.000006 0.526009
-36.507191 -54.422363 0.000005 0.543877
-35.899673 -55.544106 0.000003 0.547372
-37.990307 -51.500114 5.140187 0.678431
-37.990307 -51.500114 4.707588 0.678431
-37.990295 -51.500145 4.281056 0.529076
-38.020008 -51.444351 3.868960 0.732738
-38.020107 -51.444168 3.449481 0.677668
-38.020164 -51.444057 3.033128 0.727031
-38.573471 -50.405155 2.676816 0.607584
-40.702679 -46.407326 2.299564 0.615595
-40.702675 -46.407326 1.700436 0.606714
-40.702675 -46.407330 1.100666 0.566033
-40.702675 -46.407326 0.498963 0.554879
-40.269588 -47.220497 0.000009 0.535805
-38.435249 -50.664684 0.000007 0.545327
-37.264179 -52.863506 0.000005 0.537301
-36.450237 -54.391777 0.000005 0.572519
-35.850567 -55.517731 0.000003 0.569329
-37.990311 -51.311455 5.181975 0.678431
-37.990311 -51.311455 4.743619 0.678431
-37.935127 -51.416832 4.289773 0.574945
-38.019978 -51.254799 3.893822 0.559884
-38.020100 -51.254562 3.468768 0.547555
-38.020161 -51.254448 3.046875 0.557107
-38.488449 -50.360188 2.676818 0.600443
-40.558411 -46.407326 2.298462 0.632898
-40.558411 -46.407326 1.701538 0.610788
-40.558411 -46.407326 1.103975 0.620035
-40.558411 -46.407330 0.504487 0.554757
-40.162266 -47.163822 0.000009 0.525856
-38.352016 -50.620728 0.000007 0.536080
-37.196323 -52.827675 0.000005 0.558282
-36.393074 -54.361584 0.000004 0.542031
-35.801273 -55.491699 0.000003 0.497734
-37.990311 -51.117699 5.225048 0.678431
-37.990311 -51.117695 4.780759 0.678431
-37.935127 -51.224892 4.320769 0.563806
-38.019947 -51.060127 3.919448 0.620890
-38.020096 -51.059830 3.488650 0.578607
-38.020157 -51.059715 3.061046 0.541955
-38.403091 -50.315865 2.676819 0.620356
-40.415199 -46.407326 2.297382 0.635904
-40.415195 -46.407330 1.702618 0.572030
-40.415199 -46.407326 1.107217 0.578546
-40.415199 -46.407326 0.509897 0.527581
-40.054550 -47.107887 0.000009 0.544503
-38.268478 -50.577351 0.000007 0.545251
-37.128220 -52.792313 0.000005 0.573159
-36.335697 -54.331795 0.000004 0.539742
-35.751804 -55.466015 0.000003 0.568795
-37.954018 -50.990334 5.249331 0.705592
-37.954018 -50.990334 4.801697 0.636484
-37.935127 -51.027664 4.352734 0.517983
-38.019917 -50.860100 3.945874 0.522789
-38.020073 -50.859795 3.509146 0.680613
-38.020157 -50.859631 3.075659 0.677287
-38.317429 -50.272133 2.676819 0.628641
-40.273010 -46.407330 2.296324 0.695735
-40.273010 -46.407333 1.703676 0.654475
-40.273010 -46.407333 1.110393 0.594430
-40.273010 -46.407330 0.515198 0.502571
-39.946445 -47.052715 0.000009 0.549508
-38.184639 -50.534561 0.000007 0.544030
-37.059875 -52.757423 0.000005 0.555779
-36.278118 -54.302402 0.000004 0.566278
-35.702156 -55.440674 0.000003 0.532815
-38.019592 -50.655071 5.331761 0.554757
-38.019669 -50.654915 4.872808 0.605585
-38.019775 -50.654701 4.420300 0.574014
-38.019886 -50.654480 3.973135 0.570779
-38.020042 -50.654167 3.530289 0.604929
-38.020153 -50.653942 3.090734 0.616541
-38.231453 -50.229008 2.676819 0.611688
-40.131824 -46.407326 2.295288 0.750484
-40.131821 -46.407333 1.704712 0.621347
-40.131821 -46.407330 1.113503 0.554269
-40.131824 -46.407326 0.520389 0.590204
-39.837959 -46.998299 0.000009 0.545724
-38.100502 -50.492355 0.000007 0.527077
-36.991283 -52.723019 0.000005 0.569329
-36.220333 -54.273415 0.000004 0.549157
-35.652332 -55.415680 0.000003 0.572168
-38.019558 -50.443611 5.379268 0.545846
-38.019657 -50.443405 4.913781 0.589960
-38.019768 -50.443176 4.454821 0.744579
-38.019878 -50.442955 4.001279 0.538155
-38.020012 -50.442684 3.552109 0.732799
-38.020149 -50.442402 3.106292 0.614832
-38.145187 -50.186481 2.676819 0.611490
-39.991615 -46.407326 2.294273 0.727733
-39.991611 -46.407333 1.705727 0.624414
-39.991615 -46.407326 1.116548 0.644770
-39.991615 -46.407326 0.525472 0.531807
-39.729095 -46.944633 0.000009 0.548241
-38.016075 -50.450737 0.000007 0.522423
-36.922455 -52.689095 0.000005 0.537484
-36.162346 -54.244835 0.000004 0.555352
-35.602333 -55.391037 0.000003 0.538613
-38.019531 -50.226002 5.428324 0.550256
-38.019646 -50.225761 4.956087 0.657649
-38.019760 -50.225529 4.490463 0.540063
-38.019871 -50.225296 4.030336 0.689921
-38.019981 -50.225067 3.574640 0.603387
-38.020138 -50.224739 3.122355 0.634256
-38.058617 -50.144569 2.676819 0.608530
-39.852360 -46.407326 2.293280 0.699413
-39.852356 -46.407330 1.706720 0.704875
-39.852356 -46.407330 1.119530 0.673472
-39.852356 -46.407330 0.530449 0.581537
-39.619862 -46.891731 0.000009 0.546746
-37.931358 -50.409710 0.000006 0.544335
-36.853390 -52.655647 0.000005 0.519127
-36.104164 -54.216656 0.000004 0.568963
-35.552166 -55.366737 0.000003 0.552224
-38.019520 -50.001945 5.479005 0.536370
-38.019638 -50.001698 4.999788 0.681163
-38.019753 -50.001453 4.527282 0.526421
-38.019867 -50.001213 4.060353 0.641932
-38.019978 -50.000977 3.597920 0.655680
-38.020107 -50.000698 3.138943 0.620737
-38.020206 -50.000492 2.682400 0.625452
-39.714035 -46.407326 2.292308 0.720195
-39.714031 -46.407330 1.707692 0.678492
-39.714035 -46.407326 1.122449 0.749813
-39.714031 -46.407330 0.535320 0.625589
-39.510258 -46.839600 0.000009 0.534585
-37.846359 -50.369282 0.000007 0.545113
-36.784096 -52.622684 0.000005 0.548348
-36.045784 -54.188889 0.000004 0.565866
-35.501827 -55.342796 0.000003 0.533181
-38.019508 -49.771149 5.531382 0.632303
-38.019627 -49.770889 5.044952 0.615976
-38.019745 -49.770641 4.565331 0.700313
-38.019859 -49.770393 4.091374 0.712840
-38.019974 -49.770149 3.621979 0.627787
-38.020084 -49.769901 3.156088 0.525460
-37.922585 -49.980537 2.681258 0.651347
-39.576614 -46.407326 2.291356 0.676890
-39.576614 -46.407330 1.708644 0.681529
-39.576614 -46.407333 1.125306 0.727657
-39.576614 -46.407330 0.540089 0.708095
-39.400299 -46.788227 0.000009 0.525689
-37.761078 -50.329441 0.000006 0.542641
-36.714573 -52.590206 0.000005 0.557687
-35.987213 -54.161526 0.000004 0.508034
-35.451324 -55.319202 0.000003 0.555810
-38.019497 -49.533283 5.585538 0.648814
-38.019615 -49.533020 5.091648 0.648844
-38.019737 -49.532757 4.604674 0.591379
-38.019852 -49.532501 4.123448 0.690455
-38.019966 -49.532249 3.646855 0.587686
-38.020081 -49.531998 3.173819 0.690745
-37.872395 -49.856972 2.685748 0.666224
-39.440079 -46.407330 2.290425 0.622751
-39.440079 -46.407330 1.709575 0.649683
-39.440079 -46.407333 1.128103 0.658061
-39.440079 -46.407333 0.544757 0.672328
-39.289978 -46.737629 0.000009 0.533913
-37.675518 -50.290195 0.000006 0.527794
-36.644821 -52.558216 0.000005 0.546227
-35.928452 -54.134571 0.000004 0.548959
-35.400658 -55.295963 0.000003 0.545968
-38.875153 -47.369678 6.167711 0.929534
-39.178028 -46.690666 5.754138 0.647059
-39.304409 -46.407333 5.219199 0.665766
-39.304409 -46.407333 4.624386 0.597055
-39.304413 -46.407333 4.035321 0.655634
-39.304413 -46.407330 3.450675 0.697978
-39.304409 -46.407333 2.869161 0.660471
-39.304409 -46.407333 2.289513 0.663096
-39.304409 -46.407333 1.710487 0.698421
-39.304409 -46.407333 1.130839 0.657557
-39.304413 -46.407330 0.549324 0.655436
-39.179306 -46.687798 0.000009 0.537850
-37.589691 -50.251553 0.000006 0.554528
-36.574852 -52.526711 0.000005 0.581064
-35.869503 -54.108032 0.000003 0.543572
-35.349831 -55.273079 0.000003 0.569528
-38.744675 -47.378090 6.152574 0.865095
-39.070023 -46.634789 5.755749 0.649058
-39.169582 -46.407333 5.209284 0.646586
-39.169582 -46.407333 4.616302 0.744991
-39.169582 -46.407333 4.029051 0.549020
-39.169582 -46.407333 3.446207 0.611933
-39.169582 -46.407333 2.866483 0.612818
-39.169582 -46.407333 2.288621 0.616312
-39.169582 -46.407333 1.711378 0.696391
-39.169582 -46.407333 1.133516 0.638148
-39.169582 -46.407333 0.553793 0.652888
-39.068291 -46.638744 0.000009 0.551263
-37.503593 -50.213509 0.000006 0.536187
-36.504665 -52.495693 0.000005 0.553964
-35.810371 -54.081902 0.000003 0.496284
-35.298847 -55.250549 0.000003 0.511696
-38.615189 -47.386311 6.137781 0.926207
-38.956711 -46.590988 5.754693 0.652873
-39.035576 -46.407333 5.199586 0.700664
-39.035576 -46.407333 4.608395 0.653132
-39.035576 -46.407333 4.022919 0.549020
-39.035576 -46.407326 3.441836 0.548989
-39.035576 -46.407330 2.863864 0.545220
-39.035576 -46.407333 2.287749 0.576562
-39.035576 -46.407333 1.712251 0.662196
-39.035576 -46.407330 1.136135 0.660807
-39.035576 -46.407326 0.558163 0.567620
-38.956936 -46.590462 0.000008 0.533654
-37.417233 -50.176064 0.000006 0.533196
-36.434261 -52.465172 0.000005 0.516945
-35.751057 -54.056190 0.000004 0.540551
-35.247704 -55.228374 0.000003 0.553719
-38.486675 -47.394341 6.123333 0.913939
-38.848354 -46.535591 5.756544 0.634195
-38.902370 -46.407333 5.190099 0.627176
-38.902370 -46.407333 4.600661 0.517647
-38.902374 -46.407333 4.016922 0.517647
-38.902374 -46.407333 3.437562 0.544610
-38.902374 -46.407333 2.861304 0.549020
-38.902370 -46.407333 2.286896 0.575555
-38.902370 -46.407333 1.713104 0.645426
-38.902374 -46.407333 1.138696 0.592340
-38.902374 -46.407333 0.562438 0.544244
-38.845249 -46.542961 0.000008 0.524300
-37.330612 -50.139229 0.000006 0.520806
-36.363644 -52.435143 0.000005 0.557992
-35.691566 -54.030888 0.000004 0.533364
-35.196411 -55.206558 0.000002 0.547341
-38.359097 -47.402187 6.109218 0.919356
-38.738789 -46.482780 5.757962 0.638178
-38.769943 -46.407333 5.180824 0.641581
-38.769947 -46.407333 4.593101 0.549020
-38.769947 -46.407333 4.011059 0.517647
-38.769947 -46.407333 3.433382 0.517525
-38.769947 -46.407330 2.858799 0.517647
-38.769947 -46.407330 2.286062 0.517647
-38.769947 -46.407330 1.713938 0.703334
-38.769947 -46.407330 1.141200 0.560296
-38.769947 -46.407333 0.566617 0.510735
-38.733227 -46.496246 0.000008 0.534508
-37.243736 -50.102997 0.000006 0.538186
-36.292820 -52.405602 0.000004 0.532418
-35.631897 -54.006001 0.000003 0.540291
-35.144962 -55.185104 0.000002 0.543694
-38.232441 -47.409851 6.095434 0.926482
-38.638283 -46.407337 5.764828 0.573617
-38.638283 -46.407333 5.171757 0.517647
-38.638283 -46.407333 4.585710 0.561456
-38.638283 -46.407333 4.005325 0.569100
-38.638283 -46.407333 3.429296 0.617166
-38.638283 -46.407333 2.856351 0.554253
-38.638283 -46.407333 2.285246 0.521019
-38.638283 -46.407333 1.714753 0.692622
-38.638283 -46.407333 1.143648 0.563867
-38.638283 -46.407333 0.570704 0.526070
-38.620888 -46.450302 0.000008 0.548104
-37.156609 -50.067368 0.000006 0.538216
-36.221794 -52.376556 0.000004 0.514061
-35.572060 -53.981537 0.000004 0.566003
-35.093365 -55.164009 0.000002 0.564340
-38.106678 -47.417324 6.081976 0.936843
-38.507362 -46.407337 5.754309 0.545281
-38.507362 -46.407337 5.162895 0.573465
-38.507366 -46.407333 4.578485 0.633143
-38.507366 -46.407333 3.999723 0.567895
-38.507366 -46.407333 3.425303 0.527077
-38.507366 -46.407333 2.853959 0.529168
-38.507366 -46.407333 2.284450 0.549020
-38.507366 -46.407333 1.715550 0.673350
-38.507366 -46.407333 1.146041 0.518257
-38.507366 -46.407333 0.574697 0.517647
-38.507366 -46.407333 0.000277 0.638941
-37.069241 -50.032352 0.000006 0.524529
-36.150566 -52.348011 0.000004 0.548791
-35.512054 -53.957481 0.000003 0.547753
-35.041626 -55.143269 0.000002 0.575494
-37.981781 -47.424629 6.068838 0.966049
-38.377167 -46.407337 5.744032 0.543633
-38.377167 -46.407333 5.154237 0.720226
-38.377167 -46.407333 4.571425 0.667750
-38.377167 -46.407333 3.994247 0.631891
-38.377167 -46.407333 3.421401 0.568521
-38.377167 -46.407333 2.851621 0.584405
-38.377167 -46.407333 2.283671 0.549020
-38.377167 -46.407333 1.716329 0.671656
-38.377167 -46.407333 1.148379 0.517647
-38.377167 -46.407333 0.578599 0.517647
-38.377167 -46.407333 0.005752 0.710781
-36.981625 -49.997948 0.000006 0.543496
-36.079140 -52.319962 0.000004 0.526741
-35.451878 -53.933853 0.000003 0.544350
-34.989742 -55.122894 0.000002 0.538262
-37.857731 -47.431755 6.056016 0.933410
-38.247673 -46.407341 5.733991 0.746349
-38.247673 -46.407341 5.145776 0.698894
-38.247673 -46.407333 4.564529 0.629679
-38.247673 -46.407333 3.988899 0.632715
-38.247673 -46.407333 3.417588 0.600824
-38.247673 -46.407333 2.849337 0.587243
-38.247673 -46.407333 2.282910 0.549020
-38.247673 -46.407333 1.717090 0.658808
-38.247673 -46.407333 1.150663 0.549020
-38.247673 -46.407333 0.582411 0.517372
-38.247673 -46.407333 0.011101 0.683803
-36.893772 -49.964149 0.000006 0.535393
-36.007519 -52.292412 0.000004 0.524056
-35.391541 -53.910645 0.000003 0.539345
-34.937714 -55.102886 0.000003 0.527352
-37.734497 -47.438709 6.043507 0.899733
-38.118870 -46.407341 5.724185 0.755154
-38.118870 -46.407341 5.137515 0.604288
-38.118870 -46.407333 4.557795 0.701686
-38.118870 -46.407337 3.983676 0.647181
-38.118870 -46.407333 3.413866 0.614771
-38.118870 -46.407333 2.847107 0.587854
-38.118870 -46.407333 2.282167 0.549020
-38.118870 -46.407333 1.717833 0.684184
-38.118870 -46.407333 1.152893 0.608087
-38.118870 -46.407333 0.586134 0.615717
-38.118870 -46.407333 0.016323 0.765805
-36.805687 -49.930977 0.000005 0.543404
-35.935711 -52.265366 0.000004 0.519768
-35.331043 -53.887856 0.000003 0.548409
-34.885551 -55.083237 0.000002 0.544747
-37.612068 -47.445488 6.031304 0.932082
-38.020180 -46.326595 5.733173 0.755993
-38.020180 -46.326591 5.145088 0.652506
-38.020184 -46.326591 4.563968 0.698680
-38.020184 -46.326591 3.988465 0.631800
-38.020184 -46.326591 3.417278 0.678553
-38.020187 -46.326584 2.849151 0.549676
-38.020195 -46.326553 2.282849 0.597894
-38.020195 -46.326553 1.717151 0.696727
-38.020195 -46.326553 1.150847 0.547936
-38.020195 -46.326553 0.582718 0.658732
-38.020195 -46.326553 0.011531 0.771664
-36.717369 -49.898411 0.000005 0.529473
-35.863712 -52.238819 0.000004 0.549950
-35.270386 -53.865490 0.000003 0.537682
-34.833252 -55.063953 0.000002 0.525887
-37.490410 -47.452103 6.019403 0.932708
-38.020130 -45.967705 5.806082 0.616983
-38.020130 -45.967705 5.206511 0.549416
-38.020130 -45.967697 4.614043 0.669215
-38.020130 -45.967697 4.027299 0.585412
-38.020157 -45.967628 3.444964 0.531991
-38.020195 -45.967522 2.865745 0.693370
-38.020199 -45.967506 2.288375 0.553017
-38.020199 -45.967506 1.711624 0.672633
-38.020199 -45.967506 1.134255 0.667231
-38.020199 -45.967510 0.555025 0.536568
-37.940353 -46.191254 0.000008 0.531701
-36.628830 -49.866463 0.000005 0.553689
-35.791531 -52.212772 0.000004 0.558984
-35.209576 -53.843552 0.000003 0.500008
-34.780819 -55.045033 0.000002 0.553460
-37.369511 -47.458549 6.007800 0.927825
-38.020073 -45.594505 5.882087 0.672145
-38.020073 -45.594505 5.270543 0.595239
-38.020073 -45.594505 4.666243 0.654917
-38.020134 -45.594330 4.067803 0.549020
-38.020184 -45.594185 3.473840 0.600351
-38.020199 -45.594147 2.883042 0.580697
-38.020206 -45.594128 2.294137 0.696239
-38.020206 -45.594124 1.705863 0.697307
-38.020206 -45.594124 1.116957 0.628290
-38.020206 -45.594124 0.526154 0.750774
-37.825901 -46.150864 0.000008 0.546242
-36.540066 -49.835136 0.000005 0.554360
-35.719170 -52.187237 0.000004 0.547295
-35.148613 -53.822033 0.000003 0.526360
-34.728252 -55.026482 0.000002 0.547189
-37.249344 -47.464832 5.996494 0.890028
-38.020016 -45.206081 5.961386 0.562844
-38.020039 -45.206013 5.337363 0.533700
-38.020103 -45.205822 4.720746 0.600855
-38.020168 -45.205635 4.110074 0.554543
-38.020187 -45.205574 3.503961 0.612467
-38.020203 -45.205536 2.901089 0.618616
-38.020210 -45.205505 2.300149 0.673426
-38.020210 -45.205505 1.699851 0.669352
-38.020210 -45.205505 1.098910 0.574319
-38.020210 -45.205509 0.496032 0.665492
-37.711170 -46.111271 0.000008 0.542809
-36.451088 -49.804428 0.000005 0.523308
-35.646629 -52.162205 0.000004 0.530266
-35.087502 -53.800945 0.000003 0.527779
-34.675560 -55.008297 0.000002 0.542550
-37.129890 -47.470959 5.985476 0.802609
-37.945938 -45.023438 5.993651 0.379599
-37.945938 -45.023438 5.364532 0.507057
-37.945934 -45.023445 4.742865 0.482353
-38.020164 -44.800812 4.154204 0.551186
-38.020191 -44.800728 3.535416 0.762875
-38.020206 -44.800690 2.919935 0.677256
-38.020218 -44.800652 2.306426 0.625391
-38.020218 -44.800652 1.693573 0.661250
-38.020218 -44.800652 1.080063 0.566522
-38.020218 -44.800652 0.464577 0.517647
-37.596169 -46.072479 0.000008 0.556222
-36.361897 -49.774345 0.000005 0.524056
-35.573921 -52.137680 0.000004 0.552712
-35.026245 -53.780281 0.000002 0.529564
-34.622742 -54.990482 0.000002 0.516136
-37.118664 -47.146721 6.061734 0.666667
-37.926807 -44.665306 6.065821 0.536767
-37.990295 -44.470360 5.462640 0.678431
-37.990295 -44.470360 4.822845 0.678431
-38.020134 -44.378746 4.200317 0.581003
-38.020164 -44.378654 3.568285 0.580896
-38.020187 -44.378578 2.939629 0.597055
-37.979263 -44.504242 2.310823 0.271809
-37.979263 -44.504242 1.689177 0.478553
-37.979263 -44.504238 1.066863 0.515480
-37.979263 -44.504238 0.442544 0.355779
-37.480892 -46.034492 0.000008 0.549538
-36.272499 -49.744884 0.000005 0.540780
-35.501038 -52.113659 0.000004 0.542794
-34.964844 -53.760048 0.000002 0.508461
-34.569801 -54.973034 0.000001 0.575540
-37.118664 -46.773148 6.150810 0.666667
-38.019859 -43.938969 6.221310 0.522377
-37.948837 -44.162327 5.513681 0.614466
-37.948837 -44.162327 4.864456 0.637308
-38.020096 -43.938217 4.248559 0.616205
-38.020126 -43.938126 3.602669 0.674784
-38.020164 -43.938007 2.960232 0.586770
-37.935143 -44.205399 2.315257 0.504784
-37.990322 -44.031853 1.681763 0.678431
-37.990326 -44.031853 1.044605 0.678431
-37.990322 -44.031857 0.405396 0.678431
-37.365360 -45.997307 0.000007 0.536202
-36.182896 -49.716049 0.000005 0.542062
-35.427994 -52.090153 0.000004 0.577966
-34.903305 -53.740242 0.000002 0.568551
-34.516739 -54.955959 0.000002 0.589654
-38.019791 -43.478775 7.005730 0.666896
-38.019798 -43.478745 6.316137 0.661326
-37.990307 -43.573795 5.618109 0.678431
-37.990307 -43.573792 4.949589 0.678431
-37.973663 -43.627434 4.281068 0.584146
-38.020100 -43.477776 3.638680 0.635645
-38.020157 -43.477592 2.981812 0.709987
-37.935143 -43.751572 2.322343 0.450568
-37.990326 -43.573730 1.674610 0.678431
-37.990326 -43.573730 1.023134 0.678431
-37.990326 -43.573730 0.369557 0.678431
-37.249569 -45.960934 0.000007 0.547814
-36.093094 -49.687836 0.000005 0.541253
-35.354782 -52.067154 0.000003 0.530053
-34.841629 -53.720871 0.000003 0.522286
-34.463562 -54.939255 0.000002 0.511803
-38.019726 -42.997391 7.121014 0.542275
-38.019730 -42.997375 6.415534 0.565225
-37.935150 -43.276833 5.666830 0.737560
-37.935150 -43.276833 4.989306 0.730175
-37.935143 -43.276859 4.318329 0.498695
-38.020088 -42.996197 3.676434 0.587594
-38.020153 -42.995979 3.004433 0.552361
-37.935146 -43.276844 2.329770 0.521416
-37.990334 -43.094513 1.667113 0.678431
-37.990334 -43.094505 1.000624 0.678431
-37.935150 -43.276833 0.347608 0.608530
-37.133526 -45.925369 0.000007 0.536355
-36.003101 -49.660255 0.000005 0.526055
-35.281418 -52.044666 0.000003 0.535668
-34.779819 -53.701923 0.000002 0.557946
-34.410267 -54.922920 0.000002 0.515801
-38.019661 -42.493286 7.241994 0.618555
-38.019665 -42.493267 6.519850 0.697154
-37.935150 -42.779701 5.753500 0.443046
-37.935150 -42.779701 5.059962 0.522744
-37.935150 -42.779697 4.373129 0.400351
-38.020046 -42.491974 3.716045 0.714900
-38.020126 -42.491699 3.028169 0.652461
-37.935150 -42.779701 2.337564 0.420905
-37.990334 -42.592667 1.659244 0.678431
-37.990334 -42.592667 0.977002 0.678431
-37.935150 -42.779694 0.308551 0.456916
-37.017239 -45.890614 0.000007 0.546212
-35.912914 -49.633301 0.000005 0.531319
-35.207893 -52.022694 0.000003 0.540398
-34.717880 -53.683414 0.000002 0.534722
-34.356857 -54.906960 0.000002 0.534646
-38.019585 -41.964767 7.369094 0.517647
-38.019608 -41.964695 6.629453 0.560998
-37.990303 -42.066631 5.880877 0.678431
-37.990303 -42.066628 5.163805 0.678431
-37.990303 -42.066628 4.453662 0.678431
-38.020050 -41.963150 3.757677 0.636164
-38.020134 -41.962856 3.053113 0.549020
-38.020187 -41.962681 2.350790 0.572915
-38.020187 -41.962685 1.649210 0.691279
-38.020184 -41.962685 0.946878 0.530510
-38.020187 -41.962685 0.242282 0.590356
-36.900711 -45.856667 0.000007 0.538155
-35.822540 -49.606979 0.000005 0.542962
-35.134220 -52.001232 0.000003 0.516228
-34.655811 -53.665333 0.000002 0.562432
-34.303341 -54.891369 0.000001 0.542184
-38.019497 -41.409996 7.502776 0.622660
-38.019531 -41.409874 6.744729 0.603616
-37.990295 -41.514313 5.977559 0.678431
-37.990295 -41.514313 5.242622 0.678431
-37.990295 -41.514317 4.514789 0.678431
-38.020016 -41.408146 3.801456 0.591806
-38.020142 -41.407696 3.079351 0.670298
-38.398617 -40.055733 2.382501 0.628550
-39.398914 -36.482544 1.556780 0.615656
-39.398914 -36.482544 0.669389 0.560662
-38.672741 -39.076527 0.000011 0.546227
-36.783951 -45.823540 0.000007 0.549538
-35.731987 -49.581284 0.000005 0.525658
-35.060398 -51.980289 0.000003 0.496193
-34.593616 -53.647690 0.000002 0.506752
-34.249714 -54.876156 0.000002 0.557961
-38.019417 -40.826824 7.643577 0.571694
-38.019417 -40.826824 6.866105 0.612802
-37.954388 -41.065529 6.054533 0.570611
-37.954388 -41.065533 5.305373 0.518456
-37.954384 -41.065536 4.563454 0.486442
-38.019947 -40.824883 3.847554 0.599329
-38.020145 -40.824158 3.106985 0.551751
-38.229488 -40.055733 2.381764 0.615076
-39.202938 -36.482536 1.557634 0.635874
-39.202934 -36.482544 0.671952 0.587121
-38.508602 -39.031197 0.000011 0.542077
-36.666958 -45.791233 0.000007 0.555901
-35.641258 -49.556229 0.000004 0.543984
-34.986431 -51.959862 0.000003 0.565469
-34.531303 -53.630478 0.000002 0.543282
-34.195984 -54.861313 0.000001 0.533761
-38.019333 -40.212975 7.792068 0.550912
-38.019299 -40.213104 6.994110 0.727275
-38.019390 -40.212761 6.207454 0.694530
-38.019539 -40.212204 5.430125 0.615473
-38.019726 -40.211494 4.660289 0.546593
-38.019913 -40.210793 3.896182 0.587198
-38.020134 -40.209961 3.136124 0.724743
-38.060997 -40.055733 2.381048 0.612222
-39.007694 -36.482544 1.558463 0.728145
-39.007698 -36.482540 0.674441 0.732754
-38.344147 -38.987007 0.000011 0.523583
-36.549744 -45.759739 0.000007 0.537362
-35.550350 -49.531803 0.000005 0.536278
-34.912323 -51.939949 0.000003 0.527153
-34.468868 -53.613701 0.000002 0.511666
-34.142151 -54.846848 0.000001 0.573358
-37.934967 -39.893250 7.864213 0.647059
-38.019180 -39.566193 7.129288 0.582864
-38.019325 -39.565636 6.321377 0.553262
-38.019520 -39.564873 5.523031 0.715755
-38.019714 -39.564125 4.732346 0.646693
-38.019905 -39.563385 3.947543 0.595819
-38.020096 -39.562645 3.166893 0.558587
-38.813183 -36.482544 2.440733 0.670192
-38.813183 -36.482540 1.559267 0.637186
-38.813183 -36.482544 0.676856 0.564248
-38.179398 -38.943970 0.000011 0.542550
-36.432316 -45.729061 0.000007 0.526940
-35.459278 -49.508015 0.000005 0.544976
-34.838081 -51.920555 0.000003 0.537301
-34.406322 -53.597366 0.000002 0.562936
-34.088223 -54.832764 0.000001 0.566171
-37.767723 -39.888329 7.855104 0.644526
-37.864883 -39.499786 7.134993 0.654902
-38.463120 -37.107384 6.774795 0.870710
-38.385559 -37.417553 5.845126 0.627894
-38.619366 -36.482536 5.092933 0.616602
-38.619370 -36.482536 4.204488 0.639445
-38.619370 -36.482536 3.320802 0.645701
-38.619366 -36.482540 2.439952 0.595148
-38.619366 -36.482544 1.560047 0.690089
-38.619370 -36.482536 0.679198 0.662501
-38.014343 -38.902081 0.000010 0.533257
-36.314674 -45.699203 0.000006 0.543587
-35.368042 -49.484859 0.000005 0.548974
-34.763702 -51.901680 0.000003 0.556558
-34.343658 -53.581463 0.000002 0.534325
-34.034191 -54.819050 0.000001 0.572564
-37.600956 -39.883568 7.846271 0.654505
-37.695114 -39.495533 7.127115 0.647059
-38.273365 -37.112473 6.765636 0.793622
-38.200550 -37.412552 5.839283 0.645243
-38.426220 -36.482536 5.087618 0.707927
-38.426224 -36.482536 4.200700 0.664164
-38.426220 -36.482536 3.318532 0.674723
-38.426224 -36.482536 2.439197 0.660685
-38.426224 -36.482536 1.560803 0.664775
-38.426220 -36.482540 0.681468 0.577005
-37.848999 -38.861343 0.000010 0.529000
-36.196823 -45.670174 0.000006 0.532128
-35.276646 -49.462345 0.000004 0.537667
-34.689190 -51.883324 0.000003 0.555062
-34.280888 -53.565998 0.000001 0.506004
-33.980068 -54.805717 0.000001 0.542245
-37.434654 -39.878944 7.837715 0.647059
-37.525829 -39.491417 7.119482 0.669673
-38.084370 -37.117401 6.756772 0.935607
-38.018982 -37.395321 5.835508 0.633082
-38.233734 -36.482544 5.082470 0.571145
-38.233734 -36.482536 4.197032 0.626245
-38.233734 -36.482536 3.316334 0.548348
-38.233734 -36.482540 2.438465 0.597726
-38.233734 -36.482540 1.561536 0.661006
-38.233734 -36.482544 0.683666 0.597726
-37.683380 -38.821770 0.000010 0.539376
-36.078777 -45.641968 0.000006 0.531792
-35.185097 -49.440464 0.000004 0.518227
-34.614559 -51.865486 0.000003 0.507713
-34.218010 -53.550972 0.000002 0.513527
-33.925854 -54.792763 0.000001 0.563348
-37.268799 -39.874474 7.829432 0.654902
-37.357014 -39.487427 7.112094 0.666667
-37.896095 -37.122169 6.748197 0.937255
-37.834728 -37.391411 5.829907 0.625422
-38.041874 -36.482544 5.077491 0.616159
-38.041874 -36.482544 4.193482 0.650935
-38.041874 -36.482540 3.314207 0.562066
-38.041874 -36.482544 2.437757 0.598917
-38.041874 -36.482544 1.562244 0.640421
-38.041874 -36.482544 0.685792 0.628916
-37.517487 -38.783348 0.000011 0.534829
-35.960537 -45.614578 0.000006 0.549645
-35.093395 -49.419228 0.000004 0.531044
-34.539799 -51.848175 0.000003 0.556237
-34.155029 -53.536385 0.000002 0.558740
-33.871548 -54.780182 0.000000 0.499840
-37.118652 -39.800915 7.839180 0.635615
-37.188652 -39.483574 7.104950 0.635294
-37.708523 -37.126770 6.739913 0.925002
-37.653915 -37.374336 5.826509 0.663279
-38.020115 -35.714188 5.163194 0.593591
-38.020149 -35.714024 4.254581 0.570809
-38.020214 -35.713741 3.350828 0.638621
-38.020210 -35.713753 2.449955 0.635752
-38.020210 -35.713749 1.550045 0.686320
-38.020210 -35.713753 0.649172 0.695506
-37.351326 -38.746090 0.000010 0.533242
-35.842110 -45.588020 0.000006 0.546731
-35.001549 -49.398628 0.000004 0.507256
-34.464924 -51.831383 0.000002 0.549050
-34.091949 -53.522240 0.000001 0.541039
-33.817158 -54.767986 0.000000 0.572824
-37.767960 -35.976204 8.809933 0.758450
-37.641186 -36.570610 7.740513 0.926345
-37.521622 -37.131222 6.731912 0.887007
-37.470352 -37.371613 5.821132 0.653635
-37.955120 -35.098625 5.230814 0.533349
-37.955124 -35.098621 4.302764 0.392401
-38.020184 -34.793556 3.395006 0.583917
-38.020187 -34.793549 2.464671 0.589517
-38.020187 -34.793552 1.535330 0.658259
-38.020187 -34.793545 0.604992 0.602686
-37.184914 -38.709988 0.000010 0.534508
-35.723495 -45.562294 0.000006 0.554162
-34.909561 -49.378670 0.000004 0.537469
-34.389931 -51.815117 0.000003 0.520088
-34.028770 -53.508533 0.000001 0.529809
-33.762680 -54.756168 0.000001 0.507225
-37.572849 -35.982651 8.798324 0.534188
-37.450638 -36.575935 7.730944 0.955642
-37.335377 -37.135509 6.724195 0.898802
-37.286739 -37.371635 5.815540 0.640146
-37.935154 -34.223770 5.328846 0.618036
-37.935150 -34.223778 4.372636 0.488075
-38.020088 -33.811447 3.442227 0.665583
-38.020180 -33.810986 2.480407 0.633509
-37.990292 -33.956100 1.522018 0.678431
-37.990292 -33.956093 0.565027 0.678431
-37.018253 -38.675053 0.000010 0.537392
-35.604710 -45.537392 0.000006 0.547234
-34.817436 -49.359364 0.000004 0.549844
-34.314827 -51.799374 0.000003 0.513924
-33.965496 -53.495270 0.000002 0.565728
-33.708126 -54.744732 0.000001 0.549920
-37.378433 -35.988869 8.787140 0.496956
-37.260757 -36.581051 7.721728 0.937255
-37.149754 -37.139641 6.716758 0.937255
-37.118675 -37.296043 5.821586 0.662928
-37.994804 -32.887138 5.480920 0.501228
-37.994804 -32.887138 4.481027 0.355200
-38.020069 -32.760010 3.492856 0.612177
-38.020199 -32.759354 2.497274 0.656611
-37.990280 -32.909912 1.505238 0.678431
-37.990280 -32.909904 0.514652 0.678431
-36.851353 -38.641277 0.000010 0.551766
-35.485748 -45.513313 0.000006 0.560189
-34.725178 -49.340698 0.000004 0.566903
-34.239616 -51.784153 0.000003 0.534142
-33.902134 -53.482449 0.000001 0.548135
-33.653492 -54.733681 0.000001 0.561105
-37.184689 -35.994854 8.776373 0.521874
-37.118668 -36.339672 7.767019 0.635950
-38.019512 -31.634813 7.730172 0.587549
-38.019562 -31.634556 6.671442 0.609873
-37.944645 -32.025833 5.577067 0.592920
-37.944641 -32.025837 4.549556 0.563439
-38.020061 -31.631952 3.547247 0.597543
-38.307465 -30.130936 2.540389 0.652125
-38.991631 -26.557732 1.400077 0.627787
-38.991631 -26.557732 0.198943 0.586297
-36.684219 -38.608665 0.000010 0.547372
-35.366623 -45.490074 0.000006 0.541238
-34.632790 -49.322670 0.000004 0.541024
-34.164303 -51.769459 0.000003 0.559396
-33.838684 -53.470070 0.000001 0.558907
-33.598782 -54.723003 0.000001 0.536431
-37.889881 -31.125029 10.007853 0.611765
-37.987930 -30.592865 9.021544 0.640208
-38.019371 -30.422203 7.947018 0.635676
-38.019341 -30.422382 6.848155 0.596414
-38.019501 -30.421501 5.760049 0.629175
-38.019730 -30.420265 4.680080 0.624720
-38.019978 -30.418922 3.605815 0.616022
-38.073036 -30.130932 2.539681 0.662913
-38.731377 -26.557735 1.400863 0.693385
-38.731377 -26.557739 0.201303 0.573770
-36.516861 -38.577225 0.000010 0.558663
-35.247337 -45.467670 0.000006 0.521355
-34.540279 -49.305290 0.000004 0.527810
-34.088886 -51.755287 0.000002 0.547723
-33.775146 -53.458134 0.000001 0.542260
-33.543999 -54.712715 0.000001 0.547189
-37.664078 -31.120241 9.998978 0.636744
-37.758194 -30.588598 9.013630 0.645106
-37.854164 -30.046516 8.008945 0.635294
-38.420822 -26.845692 7.380848 0.926818
-38.293724 -27.563606 6.089197 0.811933
-38.471798 -26.557735 4.998336 0.611521
-38.471798 -26.557728 3.796430 0.541634
-38.471798 -26.557732 2.598382 0.590112
-38.471798 -26.557732 1.401618 0.647700
-38.471798 -26.557732 0.203571 0.523766
-36.349289 -38.546959 0.000010 0.543877
