# This PCD file was generated using the MATLABÂ® pcwrite function
# from Computer Vision ToolboxÂ®.
# .PCD v.7 - Point Cloud Data file format
VERSION .7
FIELDS x y z intensity
SIZE 4 4 4 4
TYPE F F F F
COUNT 1 1 1 1
WIDTH 1281
HEIGHT 1
VIEWPOINT 0 0 0 1 0 0 0
POINTS 1281
DATA ascii
105.660614 21.234243 4.468421 0.678431
105.200546 20.977123 3.453043 0.672709
105.200539 20.977119 2.484002 0.709804
105.200539 20.977119 1.515998 0.560784
105.200539 20.977121 0.546957 0.418830
100.674049 18.447353 -0.000024 0.539528
94.557808 15.029104 -0.000017 0.532753
91.151398 13.125331 -0.000014 0.560830
88.976707 11.909937 -0.000011 0.550927
87.465218 11.065195 -0.000010 0.543679
86.351624 10.442828 -0.000008 0.579583
106.096863 21.234243 9.636340 0.678431
106.096870 21.234243 8.584342 0.678431
105.629166 20.977121 7.449999 0.723278
105.629166 20.977121 6.442998 0.681727
106.096863 21.234241 5.507130 0.678431
106.096863 21.234241 4.499707 0.678431
105.629166 20.977123 3.471460 0.635355
105.629166 20.977123 2.490136 0.532494
105.629166 20.977123 1.509864 0.670634
105.629166 20.977121 0.528540 0.584955
100.756607 18.298416 -0.000025 0.532860
94.616653 14.922949 -0.000018 0.548516
91.197037 13.043003 -0.000014 0.524651
89.013908 11.842821 -0.000011 0.517922
87.496559 11.008652 -0.000009 0.539712
86.378647 10.394075 -0.000008 0.519326
106.376244 21.143353 9.686884 0.734707
106.376244 21.143353 8.627922 0.718441
106.068802 20.977119 7.520232 0.694408
106.068802 20.977119 6.500256 0.624384
106.376244 21.143353 5.530343 0.425864
106.376244 21.143353 4.516253 0.511345
106.068810 20.977125 3.490423 0.517174
106.068817 20.977127 2.496454 0.561990
106.068817 20.977127 1.503547 0.646265
106.068810 20.977123 0.509576 0.770184
100.838127 18.148909 -0.000025 0.535576
94.674751 14.816385 -0.000018 0.536324
91.242088 12.960358 -0.000013 0.539193
89.050644 11.775448 -0.000011 0.530739
87.527504 10.951892 -0.000010 0.527703
86.405327 10.345134 -0.000008 0.531579
106.519943 20.977118 9.698929 0.493095
106.519943 20.977118 8.638308 0.694072
106.519951 20.977123 7.592580 0.537163
106.519951 20.977121 6.559234 0.572976
106.519943 20.977119 5.535875 0.626673
106.519951 20.977121 4.520196 0.610422
106.519958 20.977127 3.509956 0.392279
106.519958 20.977125 2.502959 0.435355
106.519958 20.977125 1.497041 0.431510
106.519958 20.977125 0.490044 0.710353
100.918602 17.998837 -0.000025 0.546151
94.732101 14.709419 -0.000018 0.541634
91.286575 12.877403 -0.000014 0.551690
89.086906 11.707819 -0.000011 0.536889
87.558052 10.894917 -0.000010 0.524361
86.431671 10.296008 -0.000008 0.537865
106.983109 20.977127 9.801558 0.500786
106.983109 20.977127 8.726797 0.689693
106.983093 20.977119 7.667124 0.619379
106.983093 20.977119 6.620005 0.440391
106.983116 20.977131 5.583010 0.535958
106.983116 20.977131 4.553790 0.677485
106.983101 20.977123 3.530083 0.499794
106.983109 20.977125 2.509663 0.488029
106.983109 20.977125 1.490336 0.539757
106.983093 20.977121 0.469917 0.470939
100.998016 17.848202 -0.000025 0.541283
94.788712 14.602058 -0.000018 0.528054
91.330475 12.794138 -0.000014 0.545113
89.122696 11.639940 -0.000011 0.554406
87.588211 10.837731 -0.000010 0.549355
86.457664 10.246700 -0.000008 0.577813
107.458832 20.977146 9.907356 0.694240
107.458832 20.977144 8.818021 0.638224
107.458786 20.977119 7.743970 0.563775
107.458786 20.977119 6.682652 0.752697
107.458839 20.977148 5.631598 0.686519
107.458839 20.977146 4.588423 0.461143
107.458801 20.977127 3.550831 0.371267
107.458801 20.977129 2.516575 0.689662
107.458801 20.977127 1.483425 0.511955
107.458794 20.977125 0.449169 0.556252
101.076385 17.697018 -0.000025 0.542168
94.844566 14.494303 -0.000018 0.548333
91.373795 12.710569 -0.000014 0.533837
89.158012 11.571814 -0.000012 0.524163
87.617958 10.780334 -0.000009 0.549386
86.483322 10.197212 -0.000008 0.530724
108.456604 21.234253 10.159284 0.678431
108.456604 21.234249 9.035241 0.678431
107.947571 20.977118 7.823214 0.536019
107.947571 20.977121 6.747254 0.630060
108.456604 21.234249 5.747300 0.678431
108.456604 21.234251 4.670889 0.678431
107.947586 20.977129 3.572227 0.780682
107.947586 20.977129 2.523702 0.803845
107.947586 20.977129 1.476299 0.576074
107.947586 20.977127 0.427773 0.579721
101.153694 17.545290 -0.000025 0.536126
94.899673 14.386160 -0.000018 0.527718
91.416527 12.626701 -0.000014 0.539025
89.192848 11.503439 -0.000011 0.551843
87.647308 10.722733 -0.000010 0.494148
86.508629 10.147545 -0.000009 0.525704
108.787842 21.144798 10.223440 0.160784
108.787849 21.144800 9.090561 0.192157
108.450066 20.977125 7.904970 0.790600
108.450073 20.977125 6.813905 0.833906
108.787849 21.144800 5.776766 0.123018
108.787857 21.144800 4.691891 0.160784
108.450081 20.977129 3.594300 0.559823
108.450073 20.977129 2.531053 0.798001
108.450073 20.977129 1.468947 0.579538
108.450073 20.977129 0.405701 0.730831
101.229935 17.393026 -0.000025 0.541848
94.954010 14.277634 -0.000018 0.545113
91.458672 12.542534 -0.000014 0.544671
89.227203 11.434826 -0.000011 0.527382
87.676254 10.664928 -0.000010 0.519371
86.533585 10.097703 -0.000008 0.562325
108.966835 20.977097 10.245121 0.776471
108.966843 20.977100 9.109257 0.469337
108.966888 20.977121 7.989347 0.887602
108.966888 20.977123 6.882691 0.623423
108.966843 20.977100 5.786724 0.582513
108.966843 20.977097 4.698989 0.584100
108.966843 20.977098 3.617077 0.585885
108.966904 20.977131 2.538642 0.587213
108.966904 20.977131 1.461358 0.608072
108.966904 20.977129 0.382918 0.448157
101.305130 17.240238 -0.000026 0.533547
95.007599 14.168734 -0.000018 0.546181
91.500229 12.458076 -0.000014 0.548898
89.261086 11.365973 -0.000011 0.548608
87.704796 10.606922 -0.000010 0.551934
86.558197 10.047688 -0.000008 0.548684
109.498734 20.977125 10.365079 0.644907
109.498741 20.977129 9.212687 0.612009
109.498734 20.977125 8.076473 0.563378
109.498734 20.977125 6.953719 0.577203
109.498734 20.977127 5.841817 0.626535
109.498734 20.977127 4.738255 0.657267
109.498734 20.977125 3.640603 0.463859
109.498749 20.977131 2.546477 0.553796
109.498741 20.977131 1.453522 0.444175
109.498741 20.977131 0.359396 0.463462
101.379242 17.086924 -0.000025 0.530388
95.060417 14.059456 -0.000017 0.541115
91.541199 12.373331 -0.000014 0.511894
89.294487 11.296886 -0.000011 0.543328
87.732933 10.548717 -0.000010 0.543954
86.582458 9.997501 -0.000008 0.564904
110.046356 20.977156 10.488995 0.659083
110.046356 20.977156 9.319532 0.640482
110.046288 20.977121 8.166473 0.680201
110.046288 20.977121 7.027092 0.482490
110.046356 20.977156 5.898726 0.674113
110.046356 20.977156 4.778818 0.567422
110.046356 20.977156 3.664907 0.362478
110.046310 20.977133 2.554572 0.451881
110.046310 20.977133 1.445428 0.487633
110.046310 20.977131 0.335095 0.804746
101.452278 16.933094 -0.000025 0.536034
95.112488 13.949818 -0.000018 0.536263
91.581581 12.288302 -0.000015 0.537804
89.327400 11.227568 -0.000012 0.525261
87.760666 10.490319 -0.000010 0.521462
86.606369 9.947148 -0.000008 0.559121
110.960594 21.138962 10.713675 0.160784
111.166809 21.234247 9.562323 0.678431
110.973236 21.144800 8.332230 0.160784
110.610344 20.977121 7.102921 0.585855
111.166824 21.234251 6.028050 0.550378
111.166824 21.234251 4.870993 0.678431
111.166817 21.234249 3.720133 0.516762
110.610367 20.977135 2.562938 0.547936
110.610367 20.977133 1.437063 0.592981
110.610367 20.977131 0.309981 0.629099
101.524246 16.778765 -0.000026 0.535805
95.163780 13.839819 -0.000018 0.550027
91.621353 12.202991 -0.000014 0.505699
89.359833 11.158020 -0.000011 0.564889
87.787987 10.431728 -0.000010 0.539803
86.629921 9.896628 -0.000008 0.556695
111.378555 21.061880 10.800829 0.830900
111.378548 21.061876 9.588404 0.646922
111.378540 21.061874 8.393003 0.687785
111.191711 20.977123 7.181332 0.528618
111.378548 21.061878 6.041942 0.653956
111.378555 21.061878 4.880895 0.591821
111.378548 21.061876 3.726065 0.556939
111.191734 20.977135 2.571587 0.398795
111.191734 20.977133 1.428413 0.446479
111.191727 20.977131 0.284013 0.602014
101.595139 16.623934 -0.000026 0.531533
95.214310 13.729463 -0.000018 0.527626
91.660538 12.117406 -0.000014 0.537850
89.391769 11.088249 -0.000011 0.529107
87.814896 10.372948 -0.000010 0.512154
86.653130 9.845946 -0.000009 0.535424
111.791252 20.977127 10.886415 0.623804
111.791252 20.977127 9.662203 0.603723
111.791260 20.977129 8.455179 0.632654
111.791245 20.977123 7.262450 0.462135
111.791260 20.977133 6.081250 0.687861
111.791260 20.977131 4.908912 0.355856
111.791260 20.977133 3.742852 0.343984
111.791275 20.977137 2.580536 0.683696
111.791275 20.977137 1.419464 0.504387
111.791267 20.977135 0.257147 0.468254
101.664948 16.468611 -0.000026 0.533745
95.264061 13.618759 -0.000018 0.532998
91.699127 12.031549 -0.000014 0.535225
89.423233 11.018257 -0.000011 0.559396
87.841400 10.313981 -0.000010 0.554879
86.675980 9.795104 -0.000009 0.537392
112.409897 20.977127 11.028201 0.444373
112.409973 20.977160 9.784473 0.441672
112.409966 20.977158 8.558187 0.475380
112.409882 20.977121 7.346413 0.483955
112.409882 20.977123 6.146365 0.602289
112.409988 20.977165 4.955333 0.783780
112.409973 20.977161 3.770663 0.442985
112.409912 20.977137 2.589798 0.548806
112.409912 20.977137 1.410202 0.589075
112.409912 20.977137 0.229340 0.614237
101.733665 16.312805 -0.000026 0.530343
95.313042 13.507710 -0.000019 0.543496
91.737114 11.945425 -0.000014 0.510658
89.454193 10.948046 -0.000011 0.522362
87.867485 10.254830 -0.000010 0.551034
86.698471 9.744102 -0.000009 0.543694
113.048637 20.977131 11.175040 0.524681
113.648590 21.234270 10.052043 0.666880
113.648590 21.234270 8.783607 0.678431
113.048622 20.977125 7.433369 0.718532
113.048630 20.977127 6.213805 0.775876
113.648575 21.234266 5.056911 0.678431
113.648575 21.234266 3.831524 0.678431
113.048653 20.977139 2.599392 0.523842
113.048645 20.977139 1.400609 0.452552
113.048653 20.977139 0.200541 0.469520
101.801300 16.156523 -0.000026 0.531182
95.361244 13.396317 -0.000019 0.534966
91.774498 11.859037 -0.000014 0.553170
89.484673 10.877621 -0.000012 0.551919
87.893158 10.195498 -0.000010 0.533562
86.720612 9.692944 -0.000009 0.583017
113.708519 20.977131 11.327193 0.760342
113.879662 21.049072 10.082355 0.791592
113.879654 21.049072 8.809144 0.460212
113.708511 20.977125 7.523471 0.754864
113.708511 20.977127 6.283683 0.757824
113.879654 21.049070 5.068419 0.669978
113.879654 21.049072 3.838419 0.797940
113.708542 20.977140 2.609331 0.760784
113.708542 20.977140 1.390669 0.683436
113.708542 20.977142 0.170699 0.744762
101.867836 15.999773 -0.000026 0.540703
95.408669 13.284594 -0.000018 0.546212
91.811279 11.772392 -0.000015 0.552285
89.514656 10.806984 -0.000011 0.519188
87.918419 10.135990 -0.000010 0.520974
86.742393 9.641633 -0.000008 0.536721
114.390686 20.977131 11.484948 0.515129
114.390640 20.977112 10.178270 0.704372
114.390648 20.977114 8.889950 0.593606
114.390678 20.977125 7.616894 0.535698
114.390678 20.977125 6.356135 0.540337
114.390656 20.977114 5.104834 0.543130
114.390648 20.977114 3.860236 0.547768
114.390717 20.977140 2.619637 0.550744
114.390717 20.977140 1.380363 0.564324
114.390717 20.977142 0.139759 0.558404
101.933273 15.842560 -0.000026 0.534234
95.455307 13.172541 -0.000018 0.538125
91.847450 11.685492 -0.000015 0.525277
89.544144 10.736140 -0.000011 0.531823
87.943268 10.076307 -0.000010 0.553567
86.763809 9.590172 -0.000009 0.592721
115.096375 20.977133 11.648612 0.533730
115.096306 20.977104 10.319380 0.577523
115.096313 20.977104 9.008832 0.421164
115.096359 20.977123 7.713813 0.765866
115.096359 20.977125 6.431300 0.708217
115.096313 20.977102 5.158405 0.592172
115.096313 20.977106 3.892334 0.619837
115.096413 20.977146 2.630328 0.531640
115.096405 20.977144 1.369671 0.546181
115.096405 20.977146 0.107661 0.539513
101.997620 15.684896 -0.000026 0.541726
95.501175 13.060167 -0.000019 0.538506
91.883011 11.598340 -0.000015 0.512093
89.573135 10.665092 -0.000012 0.552453
87.967697 10.016450 -0.000010 0.536919
86.784874 9.538561 -0.000008 0.532738
115.826874 20.977133 11.818507 0.766720
116.296745 21.163166 10.575034 0.135897
116.296745 21.163166 9.224212 0.160784
115.826859 20.977125 7.814423 0.405386
115.826859 20.977127 6.509327 0.649775
116.296753 21.163168 5.255464 0.160784
116.296753 21.163170 3.950484 0.160784
115.826912 20.977146 2.641428 0.642298
115.826912 20.977146 1.358572 0.652445
115.826912 20.977146 0.074340 0.562692
102.060852 15.526789 -0.000026 0.526390
95.546242 12.947475 -0.000018 0.550668
91.917969 11.510943 -0.000015 0.556878
89.601639 10.593843 -0.000012 0.543603
87.991699 9.956426 -0.000010 0.540108
86.805573 9.486806 -0.000009 0.555581
116.583603 20.977135 11.994987 0.499733
116.583694 20.977169 10.618078 0.550622
116.583694 20.977171 9.260476 0.597894
116.583588 20.977127 7.918933 0.515801
116.583588 20.977127 6.590379 0.592493
116.583694 20.977171 5.271805 0.604959
116.583710 20.977175 3.960275 0.633738
116.583641 20.977150 2.652957 0.595850
116.583633 20.977148 1.347042 0.609812
116.583641 20.977150 0.039726 0.680644
102.122986 15.368242 -0.000026 0.541848
95.590530 12.834472 -0.000019 0.553124
91.952316 11.423304 -0.000014 0.644022
89.629639 10.522398 -0.000012 0.523903
88.015289 9.896235 -0.000010 0.510567
86.825912 9.434907 -0.000009 0.540795
117.368065 20.977135 12.178438 0.578592
117.368164 20.977171 10.776256 0.580865
117.368156 20.977169 9.393733 0.622583
117.368042 20.977125 8.027569 0.622644
117.368050 20.977129 6.674632 0.593591
117.368164 20.977171 5.331854 0.423743
117.368156 20.977169 3.996255 0.487373
117.368111 20.977152 2.664943 0.627543
117.368103 20.977150 1.335058 0.729992
117.368103 20.977150 0.003748 0.515343
102.184013 15.209263 -0.000026 0.543542
95.634033 12.721163 -0.000019 0.540063
91.986046 11.335426 -0.000014 0.559609
89.657135 10.450757 -0.000012 0.540627
88.038460 9.835880 -0.000010 0.521111
86.845886 9.382867 -0.000009 0.555215
118.181908 20.977135 12.369260 0.465095
118.181915 20.977139 10.940770 0.556390
118.788971 21.202898 9.650181 0.129412
118.181892 20.977129 8.140575 0.654826
118.181892 20.977129 6.762272 0.795041
118.788971 21.202898 5.447419 0.160784
118.788971 21.202902 4.065494 0.220493
118.181961 20.977156 2.677408 0.437629
118.181961 20.977154 1.322592 0.494194
117.540276 20.738516 -0.000044 0.537011
102.243927 15.049864 -0.000026 0.551080
95.676727 12.607550 -0.000019 0.541268
92.019173 11.247317 -0.000015 0.550820
89.684135 10.378927 -0.000012 0.557107
88.061203 9.775365 -0.000010 0.529610
86.865501 9.330688 -0.000008 0.549249
119.026886 20.977137 12.567903 0.615915
119.026901 20.977140 11.112045 0.672328
119.026901 20.977142 9.676630 0.699870
119.026871 20.977131 8.258207 0.599161
119.026871 20.977131 6.853500 0.551110
119.026924 20.977148 5.459339 0.523354
119.026917 20.977146 4.072634 0.415595
119.026947 20.977156 2.690386 0.664515
119.026947 20.977156 1.309615 0.575753
117.638420 20.471775 -0.000045 0.541222
102.302734 14.890051 -0.000026 0.537270
95.718643 12.493642 -0.000019 0.534585
92.051674 11.158978 -0.000015 0.570382
89.710632 10.306910 -0.000012 0.542916
88.083527 9.714693 -0.000010 0.507622
86.884750 9.278376 -0.000009 0.572168
119.904922 20.977139 12.774836 0.573083
119.904938 20.977140 11.290473 0.584619
119.904938 20.977144 9.826948 0.582544
119.904938 20.977142 8.380758 0.530632
119.904907 20.977131 6.948538 0.589639
119.904945 20.977146 5.527077 0.698222
119.904938 20.977142 4.113219 0.563836
119.904968 20.977154 2.703904 0.471962
119.904968 20.977154 1.296096 0.599878
117.734680 20.204350 -0.000044 0.542397
102.360413 14.729832 -0.000026 0.540703
95.759758 12.379447 -0.000019 0.541131
92.083557 11.070414 -0.000015 0.551141
89.736626 10.234711 -0.000012 0.534432
88.105431 9.653868 -0.000010 0.552636
86.903633 9.225929 -0.000009 0.539666
121.302902 21.145973 13.119177 0.160784
120.818069 20.977140 11.476495 0.592447
121.302902 21.145973 10.077078 0.166598
121.302902 21.145973 8.584671 0.122866
120.818054 20.977135 7.047624 0.573114
121.302895 21.145973 5.639793 0.160784
121.302895 21.145971 4.180751 0.160784
120.818130 20.977160 2.717999 0.543450
120.818130 20.977160 1.282002 0.521462
117.829086 19.936266 -0.000044 0.541070
102.416977 14.569212 -0.000026 0.541985
95.800072 12.264967 -0.000019 0.533059
92.114822 10.981629 -0.000015 0.570459
89.762115 10.162332 -0.000012 0.532647
88.126900 9.592890 -0.000010 0.530266
86.922150 9.173352 -0.000009 0.535927
121.768585 20.977140 13.215704 0.510369
121.768600 20.977146 11.670606 0.554314
121.768562 20.977135 10.147192 0.627497
121.768562 20.977135 8.641829 0.579843
121.768555 20.977131 7.151014 0.513939
121.768570 20.977135 5.671389 0.578347
121.768570 20.977137 4.199682 0.672587
121.768654 20.977165 2.732706 0.601114
121.768646 20.977163 1.267295 0.680049
117.921623 19.667532 -0.000045 0.534859
102.472420 14.408203 -0.000027 0.549569
95.839584 12.150206 -0.000019 0.534325
92.145470 10.892630 -0.000015 0.553750
89.787102 10.089776 -0.000012 0.536843
88.147949 9.531763 -0.000010 0.555276
86.940292 9.120646 -0.000009 0.536431
123.531731 21.234228 13.654825 0.678431
122.758911 20.977146 11.873322 0.684016
123.531723 21.234224 10.466174 0.678431
123.531738 21.234230 8.901876 0.678431
122.758865 20.977131 7.258991 0.514672
123.531723 21.234224 5.815131 0.678431
123.531723 21.234226 4.285805 0.678431
122.758965 20.977163 2.748065 0.561746
122.758957 20.977163 1.251936 0.527047
118.012283 19.398157 -0.000045 0.536095
102.526741 14.246811 -0.000027 0.533852
95.878304 12.035173 -0.000019 0.536812
92.175491 10.803415 -0.000015 0.512154
89.811577 10.017047 -0.000012 0.563485
88.168571 9.470492 -0.000010 0.538094
86.958076 9.067815 -0.000008 0.541192
123.884262 21.007229 13.720948 0.647929
123.791672 20.977144 12.085217 0.640009
123.884270 21.007231 10.514215 0.560464
123.884262 21.007231 8.941034 0.633387
123.791634 20.977133 7.371857 0.442939
123.884262 21.007227 5.836778 0.662379
123.884262 21.007229 4.298776 0.534615
123.791733 20.977167 2.764119 0.492058
123.791733 20.977165 1.235881 0.508919
118.101067 19.128159 -0.000045 0.548837
102.579926 14.085045 -0.000027 0.542748
95.916214 11.919874 -0.000019 0.538918
92.204895 10.713997 -0.000014 0.544594
89.835541 9.944150 -0.000012 0.541161
88.188759 9.409079 -0.000010 0.536767
86.975487 9.014863 -0.000009 0.486397
124.869698 20.977112 13.953667 0.444160
124.869812 20.977148 12.306931 0.694133
124.869705 20.977114 10.683263 0.601938
124.869690 20.977112 9.078850 0.667582
124.869781 20.977137 7.489952 0.745083
124.869690 20.977110 5.912957 0.566155
124.869690 20.977110 4.344418 0.549828
124.869873 20.977169 2.780918 0.620310
124.869873 20.977169 1.219083 0.760861
118.187943 18.857540 -0.000045 0.541100
102.631973 13.922905 -0.000026 0.544320
95.953308 11.804312 -0.000019 0.532723
92.233665 10.624373 -0.000015 0.539803
89.859001 9.871087 -0.000012 0.519997
88.208519 9.347525 -0.000010 0.552895
86.992531 8.961789 -0.000009 0.498680
126.385452 21.097561 14.324997 0.398886
125.996468 20.977148 12.539129 0.510170
125.996475 20.977152 10.878908 0.571099
126.385460 21.097563 9.298746 0.470298
125.996429 20.977137 7.613632 0.699229
126.385460 21.097561 6.034509 0.508431
126.385468 21.097565 4.417244 0.631144
125.996559 20.977177 2.798511 0.577935
125.996552 20.977175 1.201489 0.693782
118.272949 18.586325 -0.000045 0.548577
102.682899 13.760409 -0.000027 0.545022
95.989609 11.688494 -0.000019 0.527718
92.261818 10.534552 -0.000015 0.566781
89.881950 9.797861 -0.000012 0.559472
88.227852 9.285834 -0.000010 0.537621
87.009193 8.908598 -0.000009 0.567681
127.174919 20.977093 14.505284 0.630472
127.175110 20.977150 12.782572 0.641245
127.175110 20.977152 11.083999 0.508522
127.174927 20.977097 9.405512 0.704448
127.175064 20.977135 7.743299 0.489891
127.174911 20.977093 6.093525 0.529244
127.174919 20.977093 4.452603 0.589426
127.175201 20.977177 2.816956 0.705745
127.175201 20.977177 1.183045 0.418906
118.356049 18.314524 -0.000045 0.540505
102.732689 13.597565 -0.000027 0.552514
96.025093 11.572424 -0.000019 0.549920
92.289337 10.444536 -0.000015 0.531426
89.904388 9.724478 -0.000012 0.508278
88.246758 9.224011 -0.000010 0.543725
87.025490 8.855291 -0.000009 0.516442
128.886536 21.117535 14.926207 0.574304
128.886551 21.117535 13.145466 0.730266
128.409576 20.977156 11.299256 0.567834
128.886551 21.117538 9.654778 0.582650
128.409515 20.977139 7.879394 0.389319
128.409515 20.977139 6.190539 0.724102
128.886551 21.117537 4.535157 0.623560
128.409653 20.977179 2.836315 0.634104
128.409637 20.977177 1.163686 0.494316
118.437248 18.042147 -0.000045 0.542107
102.781342 13.434373 -0.000027 0.548562
96.059769 11.456110 -0.000019 0.569970
92.316231 10.354330 -0.000015 0.527977
89.926308 9.650939 -0.000012 0.515419
88.265228 9.162057 -0.000010 0.523125
87.041412 8.801871 -0.000009 0.557397
129.703842 20.977108 15.112988 0.590768
129.703857 20.977112 13.306519 0.519448
129.704010 20.977158 11.525436 0.522545
129.703827 20.977106 9.765385 0.426688
129.703949 20.977140 8.022394 0.776822
129.703949 20.977140 6.292463 0.594873
129.703842 20.977110 4.571790 0.516716
129.704102 20.977184 2.856656 0.568017
129.704102 20.977182 1.143345 0.573602
118.516541 17.769209 -0.000045 0.540322
102.828850 13.270846 -0.000027 0.536950
96.093628 11.339558 -0.000019 0.531273
92.342491 10.263938 -0.000015 0.549722
89.947716 9.577250 -0.000012 0.549371
88.283264 9.099977 -0.000010 0.518975
87.056969 8.748343 -0.000009 0.499413
131.063065 20.977165 15.440599 0.635935
131.387787 21.067827 13.661808 0.614160
131.063049 20.977160 11.763380 0.637705
131.387772 21.067823 10.009403 0.480964
131.062973 20.977139 8.172832 0.613367
131.062988 20.977142 6.399687 0.594598
131.387772 21.067825 4.652604 0.655161
131.063141 20.977188 2.878055 0.565301
131.063141 20.977186 1.121945 0.618326
118.593933 17.495728 -0.000045 0.541009
102.875214 13.106993 -0.000027 0.537438
96.126678 11.222771 -0.000019 0.550637
92.368118 10.173366 -0.000015 0.522759
89.968613 9.503412 -0.000012 0.535271
88.300865 9.037770 -0.000010 0.561593
87.072144 8.694708 -0.000009 0.531838
132.491806 20.977167 15.785636 0.650874
132.491653 20.977125 13.886459 0.649241
132.491791 20.977161 12.014018 0.623285
132.491669 20.977131 10.163701 0.638117
132.491669 20.977125 8.331287 0.682048
132.491730 20.977142 6.512633 0.466575
132.491669 20.977127 4.703705 0.667659
132.491898 20.977190 2.900594 0.664897
132.491898 20.977190 1.099404 0.533181
118.669418 17.221714 -0.000045 0.541222
102.920441 12.942821 -0.000027 0.529931
96.158905 11.105758 -0.000020 0.544564
92.393120 10.082617 -0.000015 0.563653
89.988991 9.429431 -0.000012 0.629618
88.318031 8.975443 -0.000010 0.516945
87.086952 8.640966 -0.000009 0.521309
133.995911 20.977167 16.149555 0.495308
133.995575 20.977083 14.200210 0.639124
133.995880 20.977160 12.278371 0.602747
133.995575 20.977081 10.379183 0.639628
133.995590 20.977085 8.498405 0.571633
133.995834 20.977146 6.631759 0.659617
133.995590 20.977081 4.775070 0.486946
133.996017 20.977196 2.924371 0.635065
133.996017 20.977196 1.075629 0.531899
118.742981 16.947178 -0.000046 0.537820
102.964516 12.778337 -0.000027 0.532036
96.190315 10.988522 -0.000019 0.530297
92.417480 9.991696 -0.000015 0.555840
90.008850 9.355310 -0.000012 0.567376
88.334763 8.912998 -0.000010 0.508537
87.101379 8.587124 -0.000009 0.570352
135.581680 20.977169 16.533947 0.592889
136.305939 21.163130 14.693219 0.160784
135.581665 20.977163 12.557595 0.669291
136.234436 21.144770 10.706834 0.165759
136.305939 21.163130 8.761004 0.178546
135.581589 20.977146 6.757589 0.646830
136.305939 21.163128 4.887210 0.160784
135.581787 20.977198 2.949482 0.552453
135.581787 20.977198 1.050518 0.748806
118.814598 16.672127 -0.000045 0.542123
103.007431 12.613544 -0.000027 0.548302
96.220917 10.871068 -0.000019 0.526268
92.441208 9.900606 -0.000015 0.559762
90.028191 9.281050 -0.000012 0.490364
88.351059 8.850437 -0.000010 0.523384
87.115425 8.533181 -0.000009 0.528557
137.256058 20.977169 16.940544 0.505028
137.256058 20.977167 14.882300 0.613016
137.256058 20.977169 12.852960 0.563119
137.256058 20.977169 10.847649 0.570809
137.256042 20.977165 8.861719 0.575280
137.255966 20.977146 6.890686 0.549233
137.256042 20.977165 4.930218 0.503258
137.256195 20.977203 2.976045 0.615885
137.256195 20.977203 1.023955 0.727687
118.884338 16.396597 -0.000045 0.539971
103.049210 12.448462 -0.000027 0.537774
96.250687 10.753405 -0.000019 0.547509
92.464294 9.809354 -0.000015 0.545327
90.047012 9.206659 -0.000012 0.555749
88.366920 8.787766 -0.000010 0.535561
87.129105 8.479143 -0.000009 0.527291
139.026947 20.977173 17.371325 0.592248
139.026932 20.977171 15.253735 0.536934
139.026932 20.977171 13.165880 0.544945
139.026932 20.977171 11.102750 0.631891
139.026932 20.977171 9.059561 0.601175
139.026855 20.977152 7.031699 0.639765
139.026917 20.977169 5.014706 0.647028
139.027100 20.977209 3.004186 0.650874
139.027100 20.977209 0.995812 0.689158
118.952126 16.120577 -0.000045 0.541421
103.089828 12.283091 -0.000027 0.560845
96.279640 10.635536 -0.000019 0.542916
92.486755 9.717942 -0.000015 0.527749
90.065323 9.132137 -0.000012 0.551080
88.382339 8.724983 -0.000010 0.567254
87.142395 8.425010 -0.000009 0.529412
141.392334 21.091927 17.954361 0.535637
140.903107 20.977177 15.647920 0.656825
141.392334 21.091928 13.589405 0.536751
140.903076 20.977175 11.373478 0.598871
141.392334 21.091927 9.327332 0.459449
140.902985 20.977150 7.181344 0.613428
141.392334 21.091928 5.129056 0.647974
140.903244 20.977213 3.034053 0.664561
140.903244 20.977213 0.965947 0.608988
119.017990 15.844088 -0.000045 0.540444
103.129288 12.117435 -0.000027 0.535241
96.307770 10.517467 -0.000019 0.548348
92.508568 9.626374 -0.000015 0.526528
90.083099 9.057489 -0.000012 0.532677
88.397324 8.662094 -0.000010 0.536660
87.155319 8.370785 -0.000009 0.528099
143.804733 21.184019 18.548340 0.197040
142.894333 20.977182 16.066967 0.532372
143.804749 21.184021 14.020878 0.160784
142.894318 20.977180 11.661281 0.608469
144.189087 21.271341 9.645473 0.160784
144.189056 21.271338 7.449312 0.312169
144.189072 21.271339 5.264913 0.267323
144.189072 21.271339 3.087527 0.356420
142.894135 20.977135 0.934204 0.646754
119.081924 15.567152 -0.000045 0.540673
103.167610 11.951517 -0.000028 0.537270
96.335068 10.399206 -0.000020 0.539300
92.529739 9.534658 -0.000015 0.532464
90.100365 8.982719 -0.000013 0.550774
88.411865 8.599103 -0.000010 0.542321
87.167854 8.316472 -0.000009 0.526375
145.011658 20.977146 18.832075 0.579705
145.011841 20.977184 16.513290 0.529625
145.011658 20.977146 14.226984 0.691234
145.011826 20.977182 11.967821 0.445853
146.459641 21.295504 9.900997 0.160784
146.459641 21.295506 7.631436 0.227039
146.459641 21.295506 5.374032 0.273411
146.459641 21.295506 3.123872 0.336492
145.011642 20.977144 0.900387 0.572976
119.143929 15.289774 -0.000045 0.543267
103.204750 11.785328 -0.000028 0.541360
96.361549 10.280757 -0.000019 0.539757
92.550270 9.442796 -0.000015 0.553689
90.117104 8.907831 -0.000012 0.530175
88.425964 8.536011 -0.000010 0.553536
87.180016 8.262072 -0.000009 0.557748
147.267807 20.977100 19.384451 0.601358
147.268219 20.977190 16.989624 0.554513
147.267807 20.977098 14.628235 0.564477
147.268219 20.977184 12.294966 0.650935
148.739777 21.289976 10.157248 0.678431
148.739777 21.289976 7.814081 0.678431
148.739777 21.289976 5.483459 0.678431
148.739777 21.289978 3.160324 0.678431
147.268051 20.977152 0.864297 0.544976
119.203987 15.011971 -0.000045 0.539788
103.240738 11.618886 -0.000028 0.525994
96.387192 10.162125 -0.000019 0.538903
92.570160 9.350792 -0.000015 0.515923
90.133324 8.832828 -0.000012 0.562585
88.439629 8.472823 -0.000010 0.536171
87.191795 8.207588 -0.000009 0.575677
149.677399 20.977098 19.975269 0.526207
149.677856 20.977190 17.499056 0.553231
149.677399 20.977098 15.057411 0.555886
149.677826 20.977190 12.644852 0.619532
151.201401 21.289932 10.434451 0.666850
151.201401 21.289932 8.011655 0.671656
151.201416 21.289934 5.601838 0.675578
151.201416 21.289936 3.199754 0.658457
149.677689 20.977160 0.825698 0.660807
119.262115 14.733757 -0.000045 0.539269
103.275558 11.452198 -0.000028 0.545220
96.412018 10.043320 -0.000020 0.544137
92.589409 9.258653 -0.000015 0.523400
90.149017 8.757713 -0.000012 0.535317
88.452850 8.409541 -0.000010 0.566735
87.203194 8.153025 -0.000009 0.530236
152.257172 20.977200 20.608728 0.587976
152.256683 20.977102 18.045042 0.607080
152.257187 20.977201 15.517567 0.564508
152.256699 20.977104 13.019839 0.696742
153.509750 21.225216 10.693296 0.196902
153.892548 21.301012 8.228147 0.252842
153.892548 21.301010 5.731544 0.267292
153.892548 21.301012 3.242959 0.245701
152.257019 20.977169 0.784324 0.622705
119.318336 14.455153 -0.000047 0.539513
103.309219 11.285272 -0.000028 0.548653
96.436012 9.924342 -0.000020 0.546349
92.608017 9.166382 -0.000015 0.530297
90.164185 8.682490 -0.000012 0.540429
88.465630 8.346169 -0.000010 0.547005
87.214211 8.098383 -0.000009 0.546914
155.025055 20.977200 21.289312 0.590768
155.024872 20.977167 18.631937 0.653574
155.025055 20.977203 16.011946 0.635294
155.024887 20.977171 13.422921 0.679072
155.025024 20.977198 10.858968 0.655894
156.264282 21.213596 8.417675 0.160784
156.264282 21.213596 5.845098 0.161608
156.264267 21.213594 3.280783 0.167224
155.024902 20.977173 0.739861 0.609369
119.372551 14.176147 -0.000047 0.537026
103.341713 11.118111 -0.000027 0.532601
96.459167 9.805200 -0.000020 0.534859
92.625977 9.073981 -0.000015 0.556191
90.178825 8.607163 -0.000012 0.523827
88.477959 8.282707 -0.000010 0.534340
87.224846 8.043664 -0.000009 0.561517
158.003174 20.977207 22.022573 0.578790
158.916550 21.144838 19.464779 0.165316
158.003204 20.977211 16.544596 0.557198
158.916534 21.144838 13.994924 0.263157
158.003174 20.977205 11.195736 0.546929
159.707047 21.289923 8.696304 0.579553
159.707031 21.289919 6.012036 0.627771
159.707031 21.289921 3.336391 0.597314
158.003082 20.977186 0.691958 0.559869
119.424835 13.896776 -0.000046 0.539528
103.373039 10.950729 -0.000028 0.537209
96.481491 9.685899 -0.000020 0.527886
92.643295 8.981460 -0.000015 0.532830
90.192940 8.531736 -0.000012 0.528176
88.489853 8.219163 -0.000010 0.548516
87.235100 7.988873 -0.000009 0.508354
161.401550 21.009773 22.861818 0.591333
161.401550 21.009775 19.987846 0.601648
161.216888 20.977213 17.120108 0.586938
161.401581 21.009775 14.354172 0.593927
161.216858 20.977207 11.559597 0.557092
162.991333 21.290096 8.961349 0.678431
162.990753 21.289991 6.170808 0.678431
162.990753 21.289991 3.389275 0.678431
161.216782 20.977192 0.640201 0.607889
119.475159 13.617044 -0.000046 0.537987
103.403191 10.783133 -0.000028 0.555367
96.502991 9.566444 -0.000020 0.526665
92.659958 8.888817 -0.000015 0.541848
90.206528 8.456213 -0.000012 0.537652
88.501297 8.155536 -0.000010 0.534493
87.244972 7.934012 -0.000009 0.530983
164.695358 20.977186 23.673443 0.531411
164.695557 20.977219 20.687708 0.588647
164.695374 20.977188 17.743809 0.611551
164.695374 20.977190 14.834811 0.546075
164.695526 20.977215 11.953947 0.571649
165.978241 21.194170 9.201350 0.164096
165.978271 21.194172 6.314632 0.164096
165.978256 21.194170 3.437183 0.163088
164.695480 20.977205 0.584106 0.595285
119.523544 13.336971 -0.000046 0.541756
103.432175 10.615330 -0.000028 0.533242
96.523643 9.446844 -0.000020 0.543252
92.675980 8.796062 -0.000015 0.549584
90.219589 8.380596 -0.000012 0.532143
88.512306 8.091831 -0.000010 0.577951
87.254456 7.879084 -0.000009 0.493690
168.905090 21.047087 24.716635 0.554040
168.473755 20.977226 21.492769 0.531060
168.905029 21.047077 18.501575 0.550896
168.905060 21.047081 15.452569 0.586145
168.473755 20.977224 12.382764 0.564843
170.080536 21.237465 9.533785 0.169299
170.080536 21.237465 6.513805 0.104585
170.080536 21.237465 3.503529 0.218112
168.473724 20.977221 0.523108 0.617105
119.569962 13.056566 -0.000046 0.541161
103.459991 10.447330 -0.000028 0.537926
96.543472 9.327102 -0.000020 0.550790
92.691353 8.703197 -0.000015 0.551949
90.232117 8.304890 -0.000012 0.510506
88.522865 8.028051 -0.000010 0.526177
87.263565 7.824090 -0.000009 0.530846
172.592361 20.977232 25.626143 0.621851
172.591064 20.977032 22.371077 0.663249
172.591064 20.977034 19.162029 0.570352
172.592377 20.977236 15.991180 0.576059
172.592331 20.977228 12.850739 0.546136
174.612030 21.289892 9.901443 0.678431
174.612030 21.289892 6.734085 0.678431
174.612030 21.289892 3.576901 0.678431
172.592346 20.977228 0.456542 0.644984
119.614426 12.775845 -0.000047 0.537758
103.486633 10.279139 -0.000028 0.542306
96.562454 9.207224 -0.000019 0.539940
92.706085 8.610228 -0.000015 0.537987
90.244125 8.229098 -0.000012 0.561440
88.532974 7.964199 -0.000010 0.567269
87.272285 7.769034 -0.000009 0.528527
nan nan nan 0.000000
nan nan nan 0.000000
nan nan nan 0.000000
177.100006 20.977245 16.652309 0.621027
177.098480 20.977018 13.363297 0.668162
nan nan nan 0.000000
nan nan nan 0.000000
nan nan nan 0.000000
177.099915 20.977232 0.383608 0.614481
119.656929 12.494820 -0.000046 0.540047
103.512093 10.110766 -0.000028 0.550820
96.580605 9.087216 -0.000019 0.535363
92.720161 8.517159 -0.000015 0.549584
90.255600 8.153225 -0.000012 0.546807
88.542648 7.900279 -0.000010 0.524575
87.280617 7.713919 -0.000009 0.542580
nan nan nan 0.000000
nan nan nan 0.000000
nan nan nan 0.000000
nan nan nan 0.000000
nan nan nan 0.000000
nan nan nan 0.000000
nan nan nan 0.000000
nan nan nan 0.000000
nan nan nan 0.000000
119.697472 12.213503 -0.000046 0.536675
103.536377 9.942219 -0.000028 0.549538
96.597916 8.967085 -0.000020 0.536217
92.733582 8.423990 -0.000015 0.524971
90.266548 8.077272 -0.000012 0.516915
88.551865 7.836291 -0.000010 0.519570
87.288567 7.658747 -0.000009 0.530144
nan nan nan 0.000000
nan nan nan 0.000000
nan nan nan 0.000000
nan nan nan 0.000000
nan nan nan 0.000000
nan nan nan 0.000000
nan nan nan 0.000000
nan nan nan 0.000000
nan nan nan 0.000000
119.736038 11.931906 -0.000046 0.539620
103.559486 9.773504 -0.000028 0.533730
96.614388 8.846834 -0.000020 0.538415
92.746361 8.330731 -0.000015 0.548638
90.276962 8.001245 -0.000012 0.565652
88.560638 7.772240 -0.000010 0.559091
87.296135 7.603519 -0.000009 0.557824
nan nan nan 0.000000
nan nan nan 0.000000
nan nan nan 0.000000
nan nan nan 0.000000
nan nan nan 0.000000
nan nan nan 0.000000
nan nan nan 0.000000
nan nan nan 0.000000
nan nan nan 0.000000
119.772644 11.650053 -0.000046 0.539559
103.581421 9.604635 -0.000027 0.545632
96.630020 8.726473 -0.000019 0.558465
92.758484 8.237387 -0.000015 0.535317
90.286842 7.925148 -0.000012 0.515892
88.568970 7.708130 -0.000010 0.535485
87.303314 7.548242 -0.000009 0.538476
nan nan nan 0.000000
nan nan nan 0.000000
nan nan nan 0.000000
nan nan nan 0.000000
nan nan nan 0.000000
nan nan nan 0.000000
nan nan nan 0.000000
nan nan nan 0.000000
nan nan nan 0.000000
119.807281 11.367949 -0.000046 0.541268
103.602165 9.435616 -0.000027 0.545586
96.644806 8.606006 -0.000019 0.541451
92.769951 8.143960 -0.000015 0.523735
90.296196 7.848983 -0.000012 0.545403
88.576843 7.643964 -0.000010 0.525444
87.310104 7.492916 -0.000009 0.549798
nan nan nan 0.000000
nan nan nan 0.000000
nan nan nan 0.000000
nan nan nan 0.000000
nan nan nan 0.000000
nan nan nan 0.000000
nan nan nan 0.000000
nan nan nan 0.000000
nan nan nan 0.000000
119.839951 11.085611 -0.000046 0.540993
103.621742 9.266457 -0.000027 0.542718
96.658760 8.485438 -0.000020 0.535836
92.780769 8.050454 -0.000015 0.555276
90.305016 7.772755 -0.000012 0.528634
88.584274 7.579744 -0.000010 0.515099
87.316513 7.437543 -0.000009 0.541573
nan nan nan 0.000000
nan nan nan 0.000000
nan nan nan 0.000000
nan nan nan 0.000000
nan nan nan 0.000000
144.746338 13.417580 7.389107 0.696452
144.746338 13.417580 5.228840 0.710903
144.746338 13.417580 3.075511 0.709804
144.746338 13.417580 0.924488 0.729198
119.870644 10.803053 -0.000046 0.537804
103.640137 9.097167 -0.000027 0.533364
96.671867 8.364777 -0.000019 0.527108
92.790939 7.956876 -0.000015 0.536889
90.313301 7.696467 -0.000012 0.520882
88.591255 7.515475 -0.000010 0.534997
87.322533 7.382127 -0.000009 0.539284
nan nan nan 0.000000
nan nan nan 0.000000
nan nan nan 0.000000
nan nan nan 0.000000
nan nan nan 0.000000
144.746323 12.956537 7.385286 0.752941
144.746323 12.956537 5.226551 0.762310
144.746338 12.956539 3.074749 0.734524
144.746338 12.956539 0.925250 0.776471
119.899368 10.520287 -0.000046 0.540413
103.657349 8.927752 -0.000028 0.549966
96.684128 8.244025 -0.000019 0.547585
92.800446 7.863229 -0.000015 0.549783
90.321060 7.620124 -0.000012 0.545388
88.597794 7.451157 -0.000010 0.567391
87.328163 7.326671 -0.000009 0.528161
nan nan nan 0.000000
nan nan nan 0.000000
nan nan nan 0.000000
nan nan nan 0.000000
nan nan nan 0.000000
144.746323 12.496124 7.381734 0.729519
144.746323 12.496124 5.224422 0.719265
144.746338 12.496125 3.074040 0.748898
144.746338 12.496125 0.925960 0.725246
119.926102 10.237322 -0.000046 0.536568
103.673370 8.758218 -0.000028 0.546670
96.695557 8.123192 -0.000020 0.529885
92.809311 7.769517 -0.000015 0.542000
90.328278 7.543727 -0.000012 0.524895
88.603874 7.386796 -0.000010 0.535775
87.333412 7.271175 -0.000008 0.547921
nan nan nan 0.000000
nan nan nan 0.000000
nan nan nan 0.000000
nan nan nan 0.000000
nan nan nan 0.000000
144.746338 12.036301 7.378448 0.743999
144.746323 12.036299 5.222456 0.767376
144.746338 12.036301 3.073384 0.753948
144.746338 12.036301 0.926616 0.727214
119.950882 9.954183 -0.000046 0.541924
103.688202 8.588577 -0.000028 0.532723
96.706139 8.002281 -0.000020 0.550149
92.817513 7.675747 -0.000015 0.540124
90.334969 7.467283 -0.000012 0.530266
88.609505 7.322393 -0.000010 0.528618
87.338272 7.215645 -0.000009 0.557519
nan nan nan 0.000000
nan nan nan 0.000000
nan nan nan 0.000000
nan nan nan 0.000000
170.987274 13.596132 12.569510 0.236973
144.746323 11.577015 7.375427 0.759106
144.746338 11.577017 5.220646 0.759106
144.746338 11.577017 3.072782 0.744274
144.746338 11.577017 0.927218 0.757992
119.973686 9.670879 -0.000046 0.538918
103.701874 8.418840 -0.000028 0.536065
96.715866 7.881301 -0.000020 0.549599
92.825058 7.581922 -0.000015 0.549004
90.341118 7.390794 -0.000012 0.534279
88.614693 7.257954 -0.000010 0.570672
87.342743 7.160083 -0.000009 0.529915
nan nan nan 0.000000
nan nan nan 0.000000
nan nan nan 0.000000
nan nan nan 0.000000
170.968460 12.951839 12.561925 0.249149
144.746307 11.118223 7.372672 0.733333
144.726334 11.116826 5.218011 0.611765
144.746323 11.118223 3.072233 0.720012
144.746323 11.118223 0.927769 0.733333
119.994499 9.387421 -0.000047 0.541634
103.714340 8.249010 -0.000028 0.534325
96.724762 7.760255 -0.000020 0.538979
92.831955 7.488046 -0.000015 0.550271
90.346741 7.314264 -0.000012 0.568566
88.619423 7.193479 -0.000010 0.542626
87.346825 7.104491 -0.000009 0.534142
nan nan nan 0.000000
nan nan nan 0.000000
nan nan nan 0.000000
nan nan nan 0.000000
170.951447 12.308546 12.555071 0.230320
144.746323 10.659875 7.370180 0.776471
144.726334 10.658618 5.216517 0.611765
144.746338 10.659876 3.071734 0.776471
144.746338 10.659876 0.928265 0.741176
120.013344 9.103823 -0.000047 0.540871
103.725632 8.079096 -0.000028 0.530221
96.732803 7.639149 -0.000020 0.559747
92.838188 7.394123 -0.000015 0.533471
90.351830 7.237696 -0.000012 0.558221
88.623711 7.128973 -0.000010 0.514946
87.350517 7.048871 -0.000009 0.545205
nan nan nan 0.000000
nan nan nan 0.000000
nan nan nan 0.000000
nan nan nan 0.000000
170.936279 11.666167 12.548945 0.209995
144.746323 10.201936 7.367954 0.721263
144.726318 10.200818 5.215182 0.611765
144.746338 10.201936 3.071291 0.724208
144.746338 10.201936 0.928709 0.694179
120.030182 8.820103 -0.000046 0.540093
103.735718 7.909109 -0.000027 0.534768
96.739998 7.517991 -0.000020 0.541619
92.843773 7.300160 -0.000015 0.532052
90.356377 7.161095 -0.000012 0.528099
88.627541 7.064439 -0.000010 0.586160
87.353821 6.993227 -0.000009 0.564034
nan nan nan 0.000000
nan nan nan 0.000000
nan nan nan 0.000000
nan nan nan 0.000000
170.922836 11.024576 12.543534 0.228397
144.746323 9.744347 7.365991 0.750118
144.726334 9.743370 5.214008 0.611765
144.746338 9.744348 3.070898 0.755917
144.746338 9.744348 0.929102 0.753979
120.045067 8.536268 -0.000047 0.539178
103.744629 7.739053 -0.000027 0.536156
96.746353 7.396785 -0.000020 0.560067
92.848701 7.206160 -0.000015 0.542535
90.360390 7.084463 -0.000012 0.537362
88.630928 6.999879 -0.000010 0.520272
87.356735 6.937562 -0.000009 0.518242
nan nan nan 0.000000
nan nan nan 0.000000
nan nan nan 0.000000
nan nan nan 0.000000
170.911301 10.383697 12.538864 0.237827
144.746323 9.287074 7.364290 0.743511
144.726349 9.286236 5.212990 0.611765
144.746338 9.287074 3.070559 0.746258
144.746338 9.287074 0.929441 0.766110
120.057968 8.252339 -0.000047 0.538521
103.752357 7.568941 -0.000027 0.538018
96.751862 7.275537 -0.000020 0.544518
92.852966 7.112128 -0.000015 0.540352
90.363876 7.007805 -0.000012 0.556527
88.633858 6.935297 -0.000010 0.556619
87.359268 6.881877 -0.000009 0.520012
nan nan nan 0.000000
nan nan nan 0.000000
nan nan nan 0.000000
nan nan nan 0.000000
168.195679 9.648921 12.223443 0.776471
144.746338 8.830066 7.362853 0.709804
144.726334 8.829368 5.212128 0.611765
144.746338 8.830067 3.070272 0.709804
144.746338 8.830067 0.929728 0.725917
120.068886 7.968326 -0.000047 0.538796
103.758896 7.398778 -0.000027 0.549355
96.756516 7.154254 -0.000020 0.546654
92.856583 7.018068 -0.000015 0.542519
90.366821 6.931125 -0.000012 0.548531
88.636337 6.870696 -0.000010 0.524010
87.361412 6.826175 -0.000009 0.563378
nan nan nan 0.000000
nan nan nan 0.000000
nan nan nan 0.000000
nan nan nan 0.000000
168.195694 9.028270 12.221203 0.753796
144.746338 8.373283 7.361677 0.776471
144.726334 8.372725 5.211422 0.611765
144.746338 8.373284 3.070036 0.771923
144.746338 8.373284 0.929962 0.760479
120.077797 7.684244 -0.000046 0.539071
103.764252 7.228575 -0.000027 0.538888
96.760330 7.032942 -0.000020 0.534401
92.859535 6.923985 -0.000015 0.519707
90.369232 6.854426 -0.000012 0.533394
88.638374 6.806080 -0.000010 0.555779
87.363159 6.770461 -0.000009 0.565484
nan nan nan 0.000000
nan nan nan 0.000000
nan nan nan 0.000000
nan nan nan 0.000000
168.195709 8.407856 12.219459 0.744213
144.746338 7.916677 7.360762 0.709804
144.746338 7.916677 5.211858 0.721111
144.746338 7.916677 3.069856 0.709804
144.746338 7.916677 0.930146 0.716518
120.084747 7.400105 -0.000047 0.541680
103.768402 7.058337 -0.000027 0.527047
96.763298 6.911605 -0.000020 0.543770
92.861839 6.829884 -0.000015 0.554772
90.371101 6.777712 -0.000012 0.529717
88.639954 6.741451 -0.000010 0.544930
87.364525 6.714735 -0.000009 0.515343
nan nan nan 0.000000
nan nan nan 0.000000
nan nan nan 0.000000
nan nan nan 0.000000
168.195709 7.787628 12.218215 0.760616
144.746323 7.460206 7.360108 0.765530
144.746338 7.460206 5.211466 0.776471
144.746338 7.460206 3.069723 0.776379
144.746338 7.460206 0.930275 0.753033
120.089706 7.115928 -0.000047 0.539696
103.771385 6.888076 -0.000027 0.537942
96.765411 6.790252 -0.000020 0.532265
92.863480 6.735770 -0.000015 0.543450
90.372444 6.700987 -0.000012 0.559380
88.641083 6.676813 -0.000010 0.530312
87.365494 6.659002 -0.000009 0.515419
nan nan nan 0.000000
nan nan nan 0.000000
nan nan nan 0.000000
nan nan nan 0.000000
112.289474 6.777249 5.785815 0.478920
144.746323 7.003825 7.359717 0.759930
144.746338 7.003825 5.211230 0.741741
144.746338 7.003825 3.069646 0.739239
144.746338 7.003825 0.930354 0.743099
120.092682 6.831722 -0.000047 0.540413
103.773163 6.717798 -0.000027 0.536843
96.766685 6.668887 -0.000020 0.530831
92.864471 6.641646 -0.000015 0.547997
90.373245 6.624256 -0.000012 0.557870
88.641754 6.612168 -0.000010 0.564157
87.366081 6.603263 -0.000009 0.532280
nan nan nan 0.000000
nan nan nan 0.000000
112.632172 6.547508 8.050112 0.489174
nan nan nan 0.000000
111.894241 6.547508 5.740256 0.478737
113.413132 6.547508 4.790411 0.477806
144.726349 6.547491 5.210171 0.611765
144.746338 6.547491 3.069620 0.720104
144.746338 6.547491 0.930380 0.747250
120.093674 6.547504 -0.000047 0.544945
103.773758 6.547513 -0.000027 0.547936
96.767105 6.547516 -0.000020 0.538125
92.864799 6.547519 -0.000015 0.539498
90.373512 6.547520 -0.000012 0.526558
88.641983 6.547521 -0.000010 0.567605
87.366272 6.547522 -0.000008 0.544839
111.961517 6.320053 10.160995 0.494072
111.280540 6.324808 8.889639 0.502678
112.805328 6.314162 8.081767 0.496880
nan nan nan 0.000000
111.797318 6.321200 5.729196 0.475746
113.099075 6.312111 4.764727 0.493965
144.726334 6.091289 5.210248 0.611765
144.746338 6.091149 3.069646 0.760113
144.746338 6.091149 0.930354 0.757168
120.092682 6.263281 -0.000047 0.539544
103.773163 6.377224 -0.000027 0.537728
96.766678 6.426144 -0.000019 0.533700
92.864464 6.453390 -0.000015 0.543862
90.373245 6.470783 -0.000012 0.547753
88.641754 6.482872 -0.000010 0.567880
87.366081 6.491779 -0.000009 0.530648
112.158554 6.089828 10.210951 0.487678
111.514748 6.098817 8.940730 0.638865
112.220276 6.088965 7.975746 0.494118
111.425331 6.100066 6.753674 0.480919
112.649139 6.082977 5.827475 0.481483
113.095909 6.076738 4.764669 0.481895
144.726349 5.635047 5.210484 0.611765
144.746338 5.634768 3.069723 0.756069
144.746338 5.634768 0.930275 0.755886
120.089706 5.979076 -0.000047 0.536645
103.771378 6.206947 -0.000027 0.539300
96.765411 6.304779 -0.000020 0.535561
92.863480 6.359266 -0.000015 0.539712
90.372444 6.394051 -0.000012 0.507073
88.641083 6.418228 -0.000010 0.581903
87.365494 6.436040 -0.000009 0.549081
110.847305 5.888398 9.883430 0.493843
110.995071 5.885303 8.829314 0.488533
111.779999 5.868860 7.896348 0.490242
nan nan nan 0.000000
111.385712 5.877119 5.682563 0.491218
112.477325 5.854253 4.714274 0.486915
144.726334 5.178712 5.210876 0.611765
144.746338 5.178293 3.069856 0.724880
144.746338 5.178293 0.930146 0.731594
120.084740 5.694895 -0.000046 0.539513
103.768402 6.036684 -0.000027 0.539590
96.763290 6.183424 -0.000020 0.548623
92.861839 6.265151 -0.000015 0.568292
90.371101 6.317326 -0.000012 0.511681
88.639954 6.353589 -0.000010 0.518715
87.364525 6.380307 -0.000009 0.570733
110.760170 5.671032 9.862941 0.477729
111.315193 5.655528 8.899646 0.475731
111.809631 5.641717 7.902748 0.474510
110.901749 5.667077 6.677367 0.465171
111.727234 5.644019 5.722495 0.460868
112.348785 5.626657 4.704193 0.499443
144.726349 4.722252 5.211422 0.611765
144.746338 4.721694 3.070036 0.752941
144.746338 4.721694 0.929963 0.776471
120.077789 5.410762 -0.000046 0.540246
103.764252 5.866449 -0.000027 0.531838
96.760323 6.062090 -0.000019 0.550164
92.859535 6.171051 -0.000015 0.543160
90.369232 6.240613 -0.000012 0.518364
88.638367 6.288961 -0.000010 0.542290
87.363159 6.324582 -0.000009 0.540002
110.627556 5.456382 9.831428 0.476417
111.743202 5.417421 8.993656 0.492195
111.025032 5.442501 7.761192 0.494118
111.444717 5.427845 6.758985 0.495888
110.677628 5.454633 5.602490 0.457511
113.099838 5.370047 4.766407 0.487953
113.476791 5.356883 3.676000 0.473777
144.746338 4.264907 3.070272 0.712062
144.746338 4.264907 0.929728 0.712154
120.068878 5.126678 -0.000046 0.542367
103.758888 5.696245 -0.000027 0.541085
96.756516 5.940777 -0.000020 0.544106
92.856583 6.076968 -0.000015 0.533516
90.366814 6.163914 -0.000012 0.499306
88.636337 6.224345 -0.000009 0.523934
87.361404 6.268867 -0.000009 0.512703
110.318802 5.250864 9.756121 0.464652
112.086853 5.176759 9.069818 0.471122
110.474487 5.244339 7.662474 0.467567
111.239639 5.212269 6.729813 0.442527
110.878937 5.227386 5.626636 0.484184
112.094040 5.176458 4.684606 0.469642
113.466843 5.118920 3.675961 0.471672
144.746338 3.807904 3.070559 0.754070
144.746338 3.807904 0.929441 0.754070
120.057968 4.842667 -0.000046 0.539376
103.752357 5.526083 -0.000027 0.536965
96.751862 5.819495 -0.000020 0.548165
92.852966 5.982909 -0.000015 0.536828
90.363876 6.087234 -0.000012 0.559060
88.633858 6.159744 -0.000010 0.527916
87.359268 6.213166 -0.000009 0.567941
110.753281 5.013185 9.867544 0.455879
111.602074 4.971672 8.967233 0.471778
113.364014 4.885497 8.190665 0.500130
111.441193 4.979540 6.761248 0.504112
111.103760 4.996044 5.653679 0.463294
110.773163 5.012213 4.577022 0.481788
