# This PCD file was generated using the MATLABÂ® pcwrite function
# from Computer Vision ToolboxÂ®.
# .PCD v.7 - Point Cloud Data file format
VERSION .7
FIELDS x y z intensity
SIZE 4 4 4 4
TYPE F F F F
COUNT 1 1 1 1
WIDTH 1284
HEIGHT 1
VIEWPOINT 0 0 0 1 0 0 0
POINTS 1284
DATA ascii
nan nan nan 0.000000
96.283157 -63.496544 11.945867 0.223529
nan nan nan 0.000000
nan nan nan 0.000000
nan nan nan 0.000000
nan nan nan 0.000000
nan nan nan 0.000000
nan nan nan 0.000000
nan nan nan 0.000000
101.300903 -65.322861 0.000030 0.538643
118.927689 -71.738525 0.200016 0.700648
124.437561 -73.743958 0.149135 0.688899
126.886147 -74.635178 -0.000021 0.332830
129.227203 -75.487259 -0.000016 0.339818
130.854309 -76.079483 -0.000014 0.338262
132.053101 -76.515800 -0.000011 0.344747
nan nan nan 0.000000
96.521408 -63.242149 11.916545 0.223529
96.752472 -63.328087 10.309538 0.223529
nan nan nan 0.000000
nan nan nan 0.000000
nan nan nan 0.000000
nan nan nan 0.000000
nan nan nan 0.000000
nan nan nan 0.000000
101.399048 -65.056137 0.000030 0.536995
118.980553 -71.594673 0.200011 0.709590
124.761841 -73.744728 0.184176 0.734340
126.918655 -74.546844 -0.000021 0.340597
129.253693 -75.415245 -0.000016 0.337194
130.876633 -76.018806 -0.000013 0.338689
132.072342 -76.463493 -0.000011 0.336736
nan nan nan 0.000000
nan nan nan 0.000000
96.884674 -63.037254 10.305639 0.968627
96.975769 -63.071861 8.756546 0.223529
96.940079 -63.058304 7.244375 0.223529
nan nan nan 0.000000
nan nan nan 0.000000
nan nan nan 0.000000
nan nan nan 0.000000
101.499039 -64.790092 0.000030 0.539620
119.034454 -71.451210 0.200009 0.703899
124.929352 -73.690483 0.200019 0.696254
126.951775 -74.458733 -0.000020 0.338964
129.280701 -75.343414 -0.000016 0.334707
130.899384 -75.958298 -0.000013 0.338857
132.091949 -76.411316 -0.000011 0.340948
nan nan nan 0.000000
nan nan nan 0.000000
97.787407 -63.045605 10.151747 0.980392
nan nan nan 0.000000
97.195694 -62.816093 7.226906 0.223529
97.414352 -62.900902 5.706250 0.223529
nan nan nan 0.000000
nan nan nan 0.000000
nan nan nan 0.000000
101.600891 -64.524765 0.000030 0.541344
119.089340 -71.308121 0.200006 0.709453
124.968498 -73.588509 0.200019 0.690272
126.985504 -74.370857 -0.000020 0.337270
129.308197 -75.271774 -0.000016 0.342245
130.922546 -75.897942 -0.000014 0.327108
132.111938 -76.359276 -0.000011 0.334218
nan nan nan 0.000000
nan nan nan 0.000000
98.657333 -63.053646 10.003836 0.980392
97.383636 -62.549347 8.728168 0.968627
nan nan nan 0.000000
97.412865 -62.560921 5.716536 0.223529
97.628708 -62.646381 4.215327 0.223529
97.608185 -62.638252 2.738276 0.223529
nan nan nan 0.000000
101.704597 -64.260147 0.000030 0.536721
119.145248 -71.165421 0.200006 0.703685
125.008362 -73.486801 0.200019 0.685191
127.019852 -74.283211 -0.000021 0.337728
129.336197 -75.200325 -0.000016 0.339559
130.946136 -75.837746 -0.000014 0.335561
132.132278 -76.307373 -0.000011 0.339040
nan nan nan 0.000000
nan nan nan 0.000000
99.496284 -63.061401 9.861578 0.976394
98.199066 -62.537289 8.616525 0.968627
97.819702 -62.384018 7.178459 0.968627
nan nan nan 0.000000
nan nan nan 0.000000
97.841385 -62.392776 2.736224 0.223529
98.052567 -62.478096 1.267502 0.223529
101.810135 -63.996258 0.000031 0.542397
119.202171 -71.023132 0.200006 0.704845
125.048920 -73.385384 0.200019 0.710750
127.054810 -74.195816 -0.000020 0.338918
129.364700 -75.129074 -0.000016 0.338827
130.970154 -75.777725 -0.000013 0.340932
132.152969 -76.255615 -0.000011 0.329824
nan nan nan 0.000000
101.122841 -63.405571 10.978229 0.223529
100.305984 -63.068886 9.724651 0.970947
98.988007 -62.525650 8.508821 0.968627
98.622009 -62.374794 7.093404 0.968627
98.252151 -62.222351 5.663126 0.968627
98.059448 -62.142925 4.204973 0.968627
nan nan nan 0.000000
98.052872 -62.140217 1.265418 0.223529
101.917526 -63.733116 0.000030 0.539406
119.260078 -70.881233 0.200006 0.704158
125.090195 -73.284248 0.200019 0.683604
127.090370 -74.108665 -0.000021 0.327550
129.393692 -75.058029 -0.000016 0.334890
130.994583 -75.717865 -0.000014 0.336522
132.174042 -76.204010 -0.000011 0.337484
nan nan nan 0.000000
101.370804 -63.195004 10.946262 0.223529
101.373123 -63.195976 9.536505 0.223529
101.247833 -63.143311 8.164138 0.223529
99.398453 -62.365898 7.011333 0.968627
99.041519 -62.215858 5.603577 0.968627
98.859741 -62.139442 4.168741 0.968627
98.542389 -62.006042 2.728030 0.968627
nan nan nan 0.000000
102.026741 -63.470734 0.000031 0.544152
119.318970 -70.739746 0.200006 0.702464
125.132172 -73.183403 0.200019 0.694133
127.188744 -74.047913 0.009988 1.000000
129.423187 -74.987183 -0.000016 0.336828
131.019424 -75.658188 -0.000013 0.339590
132.195450 -76.152550 -0.000011 0.333532
nan nan nan 0.000000
100.249870 -62.399940 11.236213 0.223529
101.373085 -62.881355 9.558880 0.223529
101.375381 -62.882339 8.161847 0.223529
101.377655 -62.883316 6.778485 0.223529
101.379913 -62.884281 5.405664 0.223529
101.091034 -62.760468 4.055917 0.223529
99.327988 -62.004822 2.716206 0.968627
99.017349 -61.871677 1.278265 0.968627
102.137779 -63.209106 0.000030 0.540749
117.137070 -69.637840 0.000018 0.541726
125.174850 -73.082855 0.200019 0.690806
127.225342 -73.961700 0.009988 1.000000
129.453171 -74.916550 -0.000016 0.344900
131.044678 -75.598679 -0.000013 0.333303
132.217239 -76.101234 -0.000011 0.342672
nan nan nan 0.000000
100.995613 -62.399948 11.088393 0.223529
101.536209 -62.636135 9.549358 0.968627
101.208832 -62.493103 8.207453 0.968627
100.879013 -62.349007 6.855544 0.968627
101.379883 -62.567837 5.415973 0.223529
101.382141 -62.568825 4.046532 0.223529
101.384384 -62.569801 2.681650 0.223529
101.236267 -62.505089 1.315705 0.223529
102.322960 -62.979858 0.003906 0.980392
117.204689 -69.481552 0.000017 0.540612
125.218231 -72.982597 0.200019 0.686900
127.200714 -73.848732 -0.000021 0.338674
129.483643 -74.846123 -0.000016 0.337713
131.070358 -75.539345 -0.000013 0.336126
132.239380 -76.050079 -0.000012 0.333944
nan nan nan 0.000000
101.381187 -62.250050 11.025265 0.223529
102.220963 -62.623947 9.436253 0.968627
101.904343 -62.482971 8.113664 0.968627
101.585434 -62.340988 6.781559 0.968627
101.263557 -62.197678 5.436947 0.968627
101.110855 -62.129692 4.067431 0.968627
101.384384 -62.251472 2.683752 0.223529
101.386627 -62.252472 1.316288 0.223529
103.020317 -62.979843 0.035251 0.966674
117.273407 -69.325752 0.000018 0.541939
125.262314 -72.882660 0.200019 0.700008
127.238693 -73.762604 -0.000021 0.331914
129.514603 -74.775909 -0.000016 0.336416
131.096451 -75.480194 -0.000013 0.332509
132.261871 -75.999077 -0.000011 0.318105
104.755478 -63.460358 11.572038 0.223529
98.709068 -60.717575 11.687349 0.223529
102.885628 -62.612152 9.326820 0.968627
102.579254 -62.473175 8.022942 0.968627
102.270744 -62.333229 6.710014 0.968627
101.959457 -62.192017 5.385091 0.968627
101.815384 -62.126663 4.035923 0.968627
101.539246 -62.001404 2.683118 0.968627
101.259323 -61.874428 1.311852 0.968627
103.696198 -62.979843 0.065537 0.964004
117.343216 -69.170433 0.000018 0.546288
125.307083 -72.783020 0.200019 0.681819
127.431664 -73.746780 0.025126 0.721126
129.546066 -74.705917 -0.000016 0.333852
131.122940 -75.421227 -0.000013 0.332494
132.284714 -75.948235 -0.000011 0.343008
105.099243 -63.325321 11.507824 0.223529
105.101402 -63.326321 10.197492 0.223529
104.863373 -63.216335 8.953854 0.223529
103.234512 -62.463692 7.935151 0.968627
102.935928 -62.325726 6.640796 0.968627
102.634720 -62.186546 5.334935 0.980392
102.498787 -62.123734 4.005456 0.968627
102.231728 -62.000336 2.672822 0.968627
101.961090 -61.875282 1.322299 0.968627
104.351547 -62.979832 0.094810 0.968627
117.414101 -69.015610 0.000018 0.544015
125.352562 -72.683708 0.200019 0.716854
127.653252 -73.746780 0.055012 0.678386
129.578003 -74.636147 -0.000016 0.337850
131.149857 -75.362450 -0.000013 0.334615
132.307922 -75.897552 -0.000011 0.345663
105.099197 -63.032436 11.538841 0.223529
105.274261 -63.114819 10.182961 0.968765
105.103477 -63.034451 8.928247 0.223529
105.105583 -63.035442 7.647764 0.223529
104.983284 -62.977890 6.395627 0.223529
104.737732 -62.862343 5.155234 0.223529
103.162079 -62.120895 3.975982 0.968627
102.903687 -61.999306 2.662863 0.968627
102.641884 -61.876106 1.332402 0.968627
104.987411 -62.979836 0.123122 0.974838
117.486069 -68.861282 0.000018 0.535195
125.398727 -72.584709 0.200019 0.693049
127.868240 -73.746780 0.083915 0.695262
129.610443 -74.566597 -0.000016 0.339544
131.177185 -75.303856 -0.000013 0.335958
132.331482 -75.847031 -0.000011 0.336355
104.394348 -62.399937 11.766290 0.223529
105.898460 -63.120590 10.060643 0.980392
104.768021 -62.578964 9.018936 0.968627
105.105560 -62.740692 7.666521 0.223529
105.107651 -62.741692 6.394357 0.223529
105.109726 -62.742683 5.131890 0.223529
105.111771 -62.743668 3.876335 0.223529
104.868118 -62.626930 2.629419 0.223529
103.302719 -61.876915 1.342176 0.968627
105.604721 -62.979851 0.150517 0.968353
117.559105 -68.707458 0.000018 0.540764
125.445580 -72.486038 0.200019 0.705867
128.076935 -73.746780 0.111880 0.662715
129.643356 -74.497284 -0.000016 0.339727
131.204910 -75.245453 -0.000013 0.340932
132.355392 -75.796677 -0.000011 0.336904
104.818817 -62.304115 11.681009 0.223529
106.504311 -63.126190 9.942308 0.961364
105.361053 -62.568584 8.922606 0.968627
105.091248 -62.436985 7.688041 0.968627
104.819824 -62.304607 6.446053 0.968627
105.351730 -62.564034 5.120401 0.974701
105.111771 -62.446999 3.882678 0.223529
105.113823 -62.447998 2.627074 0.223529
105.115883 -62.449005 1.372963 0.223529
106.204147 -62.979790 0.177029 0.979477
117.633217 -68.554146 0.000017 0.548287
125.493118 -72.387688 0.200018 0.697978
128.279648 -73.746780 0.138952 0.682200
129.676758 -74.428192 -0.000016 0.338094
131.233047 -75.187248 -0.000013 0.337835
132.379654 -75.746490 -0.000011 0.337987
nan nan nan 0.000000
107.092636 -63.131626 9.827778 0.980392
105.938110 -62.558510 8.829203 0.968627
105.676476 -62.428631 7.610696 0.968627
105.413330 -62.298008 6.385125 0.968627
105.949219 -62.564026 5.076442 0.965499
105.040466 -62.112911 3.893069 0.968627
104.805756 -61.996403 2.634860 0.968627
105.115891 -62.150352 1.370806 0.223529
106.786743 -62.979778 0.202709 0.976806
117.708405 -68.401360 0.000018 0.529351
125.541344 -72.289680 0.200018 0.703014
128.476639 -73.746780 0.165171 0.684123
129.710632 -74.359344 -0.000016 0.341238
131.261597 -75.129242 -0.000013 0.334997
132.404266 -75.696472 -0.000011 0.342153
106.205292 -62.399918 11.359255 0.223529
107.664276 -63.136909 9.716871 0.980392
106.499924 -62.548744 8.738596 0.968627
106.246094 -62.420528 7.535682 0.968627
105.990860 -62.291595 6.326048 0.968627
106.530144 -62.564014 5.033851 0.965682
105.632172 -62.110413 3.867131 0.968627
105.404678 -61.995499 2.626104 0.968627
105.174355 -61.879150 1.369674 0.968627
107.353195 -62.979767 0.227591 0.968627
117.784653 -68.249100 0.000018 0.536660
125.590256 -72.192009 0.200018 0.693263
128.668167 -73.746780 0.190574 0.653483
129.744995 -74.290726 -0.000016 0.336538
131.290543 -75.071442 -0.000013 0.336065
132.429214 -75.646629 -0.000011 0.340063
113.836548 -66.028587 9.243410 0.223529
108.034866 -63.046913 9.654383 0.968627
107.047104 -62.539268 8.650665 0.968627
106.800751 -62.412663 7.462903 0.968627
106.553101 -62.285385 6.268741 0.968627
107.095245 -62.564011 4.992566 0.976577
106.207932 -62.107994 3.841983 0.968627
105.987320 -61.994614 2.617615 0.968627
105.764023 -61.879852 1.378277 0.968627
107.904167 -62.979744 0.251708 0.968627
117.861954 -68.097366 0.000017 0.536187
125.639839 -72.094681 0.200018 0.700832
128.763428 -73.699989 0.200013 0.681407
129.779831 -74.222351 -0.000016 0.334569
131.319885 -75.013840 -0.000013 0.324346
132.454529 -75.596970 -0.000011 0.338384
114.170219 -65.975220 9.175356 0.223529
113.860001 -65.813042 8.262468 0.223529
108.778641 -63.156563 8.319254 0.223529
107.341103 -62.405029 7.392263 0.968627
107.100700 -62.279350 6.213131 0.968627
107.645187 -62.564003 4.952530 0.977356
106.768433 -62.105644 3.817589 0.968627
106.554428 -61.993763 2.609381 0.968627
106.337837 -61.880531 1.386618 0.968627
108.440613 -62.979843 0.275108 0.969085
117.940323 -67.946190 0.000018 0.535988
125.690102 -71.997696 0.200016 0.685969
128.802414 -73.624779 0.200013 0.708965
129.815140 -74.154228 -0.000016 0.329915
131.349640 -74.956444 -0.000013 0.344900
132.480179 -75.547478 -0.000011 0.341573
114.170189 -65.748718 9.201826 0.223529
114.171829 -65.749588 8.209287 0.223529
113.889038 -65.599228 7.289416 0.223529
109.048935 -63.025688 7.125229 0.223529
108.887787 -62.940002 5.995825 0.223529
108.689896 -62.834782 4.866403 0.223529
107.314301 -62.103363 3.793920 0.968627
107.106621 -61.992935 2.601396 0.968627
106.896469 -61.881199 1.394710 0.968627
108.962662 -62.979813 0.297794 0.975433
118.019737 -67.795563 0.000017 0.536950
125.741043 -71.901070 0.200017 0.711818
128.841919 -73.549843 0.200013 0.706340
129.850937 -74.086349 -0.000016 0.338949
131.379791 -74.899261 -0.000013 0.338003
132.506180 -75.498169 -0.000011 0.342565
nan nan nan 0.000000
114.171799 -65.521400 8.232581 0.223529
114.173416 -65.522278 7.250431 0.223529
113.922813 -65.386772 6.322564 0.223529
109.050789 -62.752476 5.989492 0.223529
109.052673 -62.753494 4.843337 0.223529
109.002953 -62.726608 3.706340 0.223529
108.807503 -62.620926 2.572010 0.223529
107.440582 -61.881836 1.402562 0.968627
109.093216 -62.775414 0.298701 0.977569
118.100204 -67.645493 0.000018 0.544442
125.792664 -71.804802 0.200016 0.706920
128.881958 -73.475182 0.200013 0.743908
129.935577 -74.044876 0.009992 1.000000
131.410339 -74.842285 -0.000013 0.348196
132.532516 -75.449043 -0.000011 0.320500
110.296890 -63.161251 10.363564 0.948745
109.320183 -62.624298 9.452106 0.968627
114.173393 -65.292381 7.270458 0.223529
114.175003 -65.293274 6.296358 0.223529
113.960419 -65.175301 5.360176 0.223529
109.210503 -62.564003 4.839412 0.968627
109.054535 -62.478256 3.709955 0.223529
109.056412 -62.479294 2.569543 0.223529
109.058289 -62.480324 1.430492 0.223529
109.536621 -62.743286 0.317071 0.973953
118.181717 -67.495987 0.000017 0.536248
125.844955 -71.708900 0.200016 0.705623
128.922501 -73.400803 0.200013 0.675853
129.972122 -73.977844 0.009991 1.000000
131.441284 -74.785522 -0.000013 0.341741
132.559204 -75.400108 -0.000011 0.340352
110.782730 -63.165741 10.256579 0.976165
109.796799 -62.614719 9.363075 0.968627
109.584030 -62.495804 8.247522 0.968627
114.174988 -65.061615 6.313020 0.223529
114.176590 -65.062508 5.344715 0.223529
114.001053 -64.964409 4.400434 0.223529
108.870300 -62.096909 3.726954 0.968627
109.056412 -62.200928 2.571752 0.223529
109.058296 -62.201981 1.428284 0.223529
110.010254 -62.734016 0.337201 0.980392
118.264267 -67.347046 0.000017 0.545830
125.897903 -71.613358 0.200016 0.701671
128.963577 -73.326706 0.200013 0.745022
130.009140 -73.911057 0.009992 1.000000
131.472626 -74.728981 -0.000013 0.331960
132.586227 -75.351349 -0.000011 0.336019
111.256317 -63.170120 10.152690 0.960449
110.262238 -62.605400 9.276484 0.968627
110.055283 -62.487839 8.173529 0.968627
109.847893 -62.370018 7.068223 0.968627
114.176575 -64.829063 5.357901 0.223529
114.178162 -64.829964 4.393194 0.223529
114.043884 -64.753685 3.441451 0.223529
109.178680 -61.989857 2.571703 0.968627
108.991722 -61.883644 1.424778 0.968627
110.472595 -62.724903 0.356770 0.980392
118.347862 -67.198692 0.000017 0.539742
125.951530 -71.518196 0.200016 0.734447
129.005157 -73.252907 0.200013 0.747951
129.998810 -73.817375 -0.000016 0.338567
131.504364 -74.672653 -0.000013 0.331121
132.613586 -75.302788 -0.000011 0.338460
114.282135 -64.654709 9.310172 0.968627
110.716919 -62.596329 9.192240 0.968627
110.515564 -62.480072 8.101557 0.968627
110.313812 -62.363590 7.008724 0.968627
110.111214 -62.246620 5.911386 0.968627
114.178154 -64.594681 4.402783 0.223529
114.179756 -64.595604 3.439518 0.223529
114.088097 -64.542679 2.481229 0.223529
109.483513 -61.884216 1.431766 0.968627
110.924240 -62.716022 0.375807 0.977447
118.432495 -67.050926 0.000017 0.543786
126.005806 -71.423401 0.200016 0.694118
129.047256 -73.179390 0.200013 0.735164
130.036942 -73.750786 -0.000015 0.334203
131.536499 -74.616554 -0.000013 0.331014
132.641296 -75.254417 -0.000011 0.327214
114.651443 -64.635162 9.232685 0.968627
114.267853 -64.410110 8.332346 0.968627
110.965317 -62.472519 8.031517 0.968627
110.768982 -62.357330 6.950837 0.968627
110.571869 -62.241684 5.865870 0.968627
111.121246 -62.564003 4.703174 0.968627
114.179749 -64.358421 3.445380 0.223529
114.181343 -64.359360 2.481419 0.223529
114.132919 -64.330948 1.517663 0.223529
113.763580 -64.114258 0.530917 0.223529
118.518143 -66.903755 0.000017 0.530221
126.060760 -71.328995 0.200016 0.696513
129.089874 -73.106178 0.200012 0.670146
130.181747 -73.746780 0.022390 0.727932
131.569016 -74.560684 -0.000013 0.335286
132.669342 -75.206238 -0.000011 0.340261
115.013145 -64.616104 9.157129 0.968627
114.639130 -64.393150 8.265190 0.968627
114.259048 -64.166573 7.358751 0.968627
111.213814 -62.351242 6.894500 0.968627
111.021965 -62.236877 5.821583 0.968627
111.570709 -62.564003 4.671451 0.953704
110.774101 -62.089119 3.646140 0.968627
114.181343 -64.120255 2.483410 0.223529
114.182953 -64.121216 1.516620 0.223529
114.184540 -64.122162 0.548915 0.223529
118.604828 -66.757187 0.000017 0.553964
126.116364 -71.234978 0.200016 0.711223
129.132996 -73.033257 0.200012 0.718441
130.329926 -73.746780 0.045598 0.647318
131.601929 -74.505035 -0.000013 0.336248
132.697708 -75.158264 -0.000011 0.330282
115.367523 -64.597519 9.083438 0.968627
115.002762 -64.376610 8.199710 0.968627
114.632202 -64.152191 7.301899 0.968627
114.254852 -63.923664 6.387701 0.968627
112.573181 -62.905201 5.629019 0.223529
112.415138 -62.809486 4.601735 0.223529
111.222679 -62.087303 3.627295 0.968627
111.057220 -61.987095 2.545210 0.968627
110.889999 -61.885826 1.451591 0.968627
114.184563 -63.881092 0.542816 0.223529
118.692528 -66.611221 0.000017 0.552346
126.172623 -71.141350 0.200016 0.715450
129.176620 -72.960640 0.200012 0.764431
130.474686 -73.746780 0.068176 0.697215
131.635223 -74.449623 -0.000013 0.335943
132.726425 -75.110481 -0.000010 0.327260
115.714813 -64.579384 9.011553 0.968627
115.358994 -64.360481 8.135853 0.968627
114.997620 -64.138161 7.246475 0.968627
114.629753 -63.911850 6.341148 0.968627
114.254433 -63.680954 5.417434 0.968627
114.108940 -63.591442 4.449784 0.223529
112.678558 -62.711464 3.550271 0.223529
112.522423 -62.615406 2.519388 0.223529
112.364639 -62.518337 1.477581 0.223529
112.631287 -62.682381 0.447001 0.968627
118.781250 -66.465881 0.000017 0.552834
126.229530 -71.048111 0.200016 0.718776
129.220764 -72.888336 0.200012 0.673747
130.616150 -73.746780 0.090145 0.758663
131.668900 -74.394447 -0.000012 0.325750
132.755463 -75.062904 -0.000010 0.337591
116.055260 -64.561691 8.941412 0.968627
115.708084 -64.344742 8.073565 0.968627
115.355591 -64.124481 7.192428 0.968627
114.996887 -63.900341 6.295763 0.968627
114.631012 -63.671715 5.381174 0.968627
114.392982 -63.522976 4.432948 0.968627
114.167702 -63.382206 3.470731 0.223529
112.785873 -62.518738 2.516558 0.223529
112.787560 -62.519798 1.483475 0.223529
113.035019 -62.674423 0.463652 0.980392
118.870987 -66.321152 0.000017 0.540795
126.287094 -70.955276 0.200016 0.697093
129.265411 -72.816330 0.200012 0.724804
130.754425 -73.746780 0.111529 0.726528
131.702972 -74.339500 -0.000013 0.317052
132.784836 -75.015526 -0.000011 0.341772
116.389084 -64.544418 8.872957 0.968627
116.050270 -64.329391 8.012792 0.968627
115.706367 -64.111145 7.139713 0.968627
115.356491 -63.889107 6.251512 0.968627
114.999748 -63.662712 5.345832 0.968627
114.770714 -63.517357 4.406984 0.968627
114.456360 -63.317863 3.460416 0.968627
114.192490 -63.150406 2.491572 0.223529
112.787567 -62.258812 1.481199 0.223529
113.430191 -62.666637 0.479877 0.979385
118.961716 -66.177063 0.000017 0.537545
126.345306 -70.862846 0.200016 0.721447
129.310547 -72.744652 0.200012 0.696147
130.889648 -73.746780 0.132349 0.698894
131.737411 -74.284798 -0.000013 0.337881
132.814545 -74.968361 -0.000011 0.339727
116.716545 -64.527557 8.806132 0.968627
116.385811 -64.314415 7.953484 0.968627
116.050201 -64.098129 7.088284 0.968627
115.708878 -63.878159 6.208351 0.968627
115.360947 -63.653931 5.311370 0.968627
115.140541 -63.511887 4.381680 0.968627
114.834183 -63.314449 3.444870 0.968627
114.521057 -63.112656 2.487375 0.968627
114.200241 -62.905907 1.506380 0.968627
113.817139 -62.659012 0.495689 0.968627
119.053467 -66.033607 0.000017 0.542565
126.404160 -70.770821 0.200016 0.714366
129.356186 -72.673279 0.200012 0.709529
131.021927 -73.746780 0.152627 0.670283
131.772247 -74.230331 -0.000012 0.339727
132.844574 -74.921402 -0.000010 0.332753
117.037811 -64.511093 8.740887 0.968627
116.714897 -64.299782 7.895595 0.968627
116.387321 -64.085419 7.038096 0.968627
116.054260 -63.867474 6.166246 0.968627
116.158394 -63.935616 5.216781 0.980392
115.502716 -63.506554 4.357012 0.968627
115.204063 -63.311119 3.429719 0.968627
114.898903 -63.111423 2.482201 0.968627
114.586334 -62.906883 1.511687 0.968627
114.265381 -62.696861 0.515170 0.968627
119.146202 -65.890793 0.000016 0.541955
125.008896 -69.727242 0.000012 0.511498
129.402328 -72.602234 0.200012 0.667353
131.151367 -73.746780 0.172380 0.744488
131.807465 -74.176117 -0.000012 0.335622
132.874924 -74.874649 -0.000011 0.326894
117.353111 -64.495018 8.677167 0.968627
117.037766 -64.285507 7.839076 0.968627
116.717964 -64.073021 6.989111 0.968627
116.392891 -63.857048 6.125162 0.968627
116.500595 -63.928604 5.184360 0.980392
115.857529 -63.501350 4.332958 0.968627
115.566322 -63.307873 3.414949 0.968627
115.268837 -63.110226 2.477157 0.968627
114.964218 -62.907837 1.516858 0.968627
114.651520 -62.700073 0.531094 0.968627
119.239944 -65.748634 0.000017 0.551339
125.075706 -69.625916 0.000013 0.557046
129.448959 -72.531509 0.200012 0.699992
131.278076 -73.746780 0.191629 0.686519
131.843048 -74.122139 -0.000013 0.344350
132.905609 -74.828110 -0.000010 0.303304
117.662621 -64.479309 8.614931 0.968627
117.354614 -64.271561 7.783883 0.968627
117.042328 -64.060921 6.941292 0.968627
116.724991 -63.846870 6.085065 0.968627
116.836021 -63.921764 5.152732 0.980392
116.205215 -63.496273 4.309499 0.968627
115.921204 -63.304703 3.400548 0.968627
115.631134 -63.109055 2.472242 0.968627
115.334190 -62.908760 1.521897 0.968627
115.029442 -62.703201 0.546607 0.968627
119.334679 -65.607132 0.000017 0.535927
125.143227 -69.525063 0.000013 0.534997
129.496094 -72.461113 0.200012 0.744167
131.354858 -73.714882 0.200009 0.728527
131.879013 -74.068420 -0.000012 0.348013
132.936630 -74.781792 -0.000010 0.334905
119.844139 -65.749588 7.984128 0.223529
119.600227 -65.582581 7.223587 0.223529
117.360641 -64.049103 6.894597 0.968627
117.050797 -63.836941 6.045922 0.968627
117.164925 -63.915089 5.121868 0.980392
116.546036 -63.491322 4.286614 0.968627
116.268967 -63.301613 3.386503 0.968627
115.986076 -63.107910 2.467448 0.968627
115.696541 -62.909660 1.526810 0.968627
115.399483 -62.706261 0.561728 0.968627
119.430389 -65.466293 0.000017 0.531746
125.211449 -69.424675 0.000012 0.545983
129.543701 -72.391045 0.200012 0.681712
131.393692 -73.657761 0.200010 0.712428
131.953583 -74.041122 0.009994 1.000000
132.967957 -74.735687 -0.000010 0.337072
120.032715 -65.677551 7.955494 0.223529
119.880569 -65.571800 7.175069 0.223529
119.639847 -65.404495 6.413183 0.223529
117.370476 -63.827236 6.007706 0.968627
117.487503 -63.908577 5.091746 0.978271
116.969925 -63.548851 4.255325 0.223529
116.609863 -63.298592 3.372802 0.968627
116.333900 -63.106796 2.462773 0.968627
116.051529 -62.910542 1.531599 0.968627
115.761879 -62.709229 0.576465 0.968627
119.527084 -65.326126 0.000017 0.541833
125.280365 -69.324768 0.000012 0.544793
129.591812 -72.321312 0.200012 0.707790
131.432907 -73.600914 0.200010 0.669566
131.990097 -73.988174 0.009994 1.000000
132.999619 -74.689804 -0.000010 0.338231
120.032669 -65.474388 7.984691 0.223529
120.034035 -65.475357 7.159866 0.223529
119.920685 -65.395393 6.372274 0.223529
119.682648 -65.227470 5.607617 0.223529
117.803978 -63.902214 5.062344 0.980392
117.207977 -63.481777 4.242492 0.968627
117.030045 -63.356258 3.354268 0.223529
116.674858 -63.105705 2.458213 0.968627
116.399406 -62.911392 1.536271 0.968627
116.116928 -62.712128 0.590835 0.968627
119.624748 -65.186630 0.000016 0.535317
125.349976 -69.225349 0.000012 0.539544
129.640396 -72.251923 0.200012 0.752163
131.472519 -73.544342 0.200010 0.677607
132.026993 -73.935486 0.009994 1.000000
133.031586 -74.644142 -0.000010 0.338430
118.846458 -64.420006 8.379887 0.968627
120.033997 -65.270203 7.185540 0.223529
120.035355 -65.271172 6.368361 0.223529
119.963913 -65.220024 5.574248 0.223529
119.728065 -65.051178 4.805347 0.223529
117.529533 -63.477173 4.221218 0.968627
117.271980 -63.292782 3.346386 0.968627
117.051529 -63.134956 2.452911 0.223529
116.740433 -62.912231 1.540828 0.968627
116.464882 -62.714954 0.604849 0.968627
119.723396 -65.047829 0.000017 0.536263
125.420288 -69.126419 0.000012 0.551095
129.689468 -72.182869 0.200012 0.672587
131.512527 -73.488045 0.200010 0.670420
132.026596 -73.856087 -0.000012 0.337118
133.063873 -74.598709 -0.000010 0.325002
119.129700 -64.405998 8.324395 0.968627
118.855118 -64.206505 7.526437 0.968627
120.035316 -65.063972 6.390420 0.223529
120.036667 -65.064957 5.578951 0.223529
120.009705 -65.045372 4.779458 0.223529
119.775558 -64.875244 4.004792 0.223529
117.593620 -63.289974 3.333651 0.968627
117.337112 -63.103607 2.449421 0.968627
117.074829 -62.913048 1.545274 0.968627
116.805969 -62.717712 0.618519 0.968627
119.822998 -64.909714 0.000017 0.531182
125.491280 -69.027977 0.000012 0.543099
129.739029 -72.114159 0.200012 0.691218
131.552917 -73.432030 0.200009 0.692287
132.064407 -73.803650 -0.000012 0.342123
133.096481 -74.553497 -0.000010 0.330495
119.408157 -64.392303 8.270135 0.968627
119.139671 -64.194359 7.478391 0.968627
118.867859 -63.993965 6.676827 0.968627
120.036629 -64.855659 5.597291 0.223529
120.037971 -64.856651 4.789657 0.223529
120.039299 -64.857628 3.988194 0.223529
119.824615 -64.699341 3.204314 0.223529
117.658844 -63.102592 2.445183 0.968627
117.402817 -62.913837 1.549612 0.968627
117.140442 -62.720398 0.631857 0.968627
119.923576 -64.772308 0.000017 0.546609
125.562965 -68.930038 0.000012 0.518425
129.789063 -72.045799 0.200012 0.685176
131.593704 -73.376297 0.200010 0.717235
132.102585 -73.751480 -0.000012 0.339849
133.129410 -74.508514 -0.000010 0.335103
119.668808 -64.369057 8.221190 0.968627
119.419418 -64.182495 7.431413 0.968627
119.153664 -63.983677 6.636195 0.968627
118.884064 -63.781994 5.829504 0.968627
120.037949 -64.645210 4.804162 0.223529
120.039284 -64.646210 3.998531 0.223529
120.040611 -64.647202 3.197322 0.223529
119.874695 -64.523079 2.402213 0.223529
119.637131 -64.345360 1.592932 0.223529
117.468521 -62.723022 0.644873 0.968627
120.025108 -64.635605 0.000017 0.554421
125.635330 -68.832596 0.000012 0.536873
129.839569 -71.977783 0.200012 0.718502
131.634888 -73.320854 0.200009 0.700664
132.204224 -73.746780 0.017004 0.728511
133.162643 -74.463768 -0.000010 0.341711
119.744308 -64.208679 8.230265 0.968627
119.675354 -64.156349 7.390665 0.968627
119.434616 -63.973618 6.596468 0.968627
119.171043 -63.773552 5.796261 0.968627
119.301491 -63.872566 4.925318 0.980392
118.757690 -63.459797 4.141000 0.968627
120.040604 -64.433578 3.203638 0.223529
120.041931 -64.434593 2.400899 0.223529
119.925308 -64.346069 1.596705 0.223529
119.687454 -64.165527 0.774580 0.223529
120.127586 -64.499603 0.000016 0.537011
125.708374 -68.735672 0.000012 0.530419
129.890549 -71.910126 0.200012 0.718563
131.676453 -73.265701 0.200009 0.748150
132.310242 -73.746780 0.035291 0.660243
133.196182 -74.419250 -0.000010 0.336843
119.744240 -63.989468 8.263628 0.968627
119.745743 -63.990631 7.400326 0.968627
119.683662 -63.942818 6.563874 0.968627
119.453156 -63.765305 5.763760 0.968627
119.585258 -63.867035 4.899771 0.980392
119.051132 -63.455704 4.122090 0.968627
118.822197 -63.279396 3.285629 0.968627
120.041931 -64.218719 2.403045 0.223529
120.043266 -64.219757 1.596983 0.223529
119.975929 -64.167892 0.785910 0.223529
120.231003 -64.364334 0.000016 0.539071
125.782089 -68.639252 0.000012 0.544778
129.942001 -71.842834 0.200012 0.695277
131.718384 -73.210838 0.200009 0.678080
132.414322 -73.746780 0.053149 0.638743
133.230042 -74.374969 -0.000010 0.341680
119.744179 -63.767883 8.297661 0.968627
119.745697 -63.769070 7.429664 0.968627
119.747185 -63.770233 6.573988 0.968627
119.693146 -63.728012 5.739021 0.968627
119.864174 -63.861633 4.874799 0.980392
119.339478 -63.451698 4.103610 0.968627
119.115753 -63.276901 3.274309 0.968627
118.887756 -63.098770 2.429201 0.968627
120.043266 -64.001556 1.594795 0.223529
120.044617 -64.002609 0.783599 0.223529
120.335373 -64.229774 0.000016 0.542626
125.856476 -68.543350 0.000011 0.549386
129.993927 -71.775894 0.200012 0.692866
131.760727 -73.156265 0.200009 0.743389
132.516541 -73.746780 0.070593 0.709819
133.264206 -74.330925 -0.000010 0.333883
119.744125 -63.543877 8.332371 0.968627
119.745651 -63.545082 7.459589 0.968627
119.747147 -63.546268 6.599195 0.968627
119.748627 -63.547443 5.749117 0.968627
120.059906 -63.794159 4.861903 0.980392
119.701126 -63.509792 4.077360 0.223529
119.404213 -63.274464 3.263246 0.968627
119.181412 -63.097874 2.425434 0.968627
118.953873 -62.917526 1.569815 0.968627
120.044624 -63.782051 0.776898 0.223529
120.440674 -64.095955 0.000016 0.545129
125.931534 -68.447968 0.000012 0.536202
130.046310 -71.709320 0.200012 0.667689
131.803421 -73.101990 0.200009 0.672923
132.616943 -73.746780 0.087635 0.740963
133.298676 -74.287117 -0.000010 0.334646
119.744064 -63.317364 8.367781 0.968627
119.745590 -63.318592 7.490117 0.968627
119.747101 -63.319809 6.624909 0.968627
119.748596 -63.321007 5.770077 0.968627
120.139069 -63.634956 4.866212 0.980392
119.842621 -63.396606 4.074083 0.223529
119.762863 -63.332481 3.247698 0.223529
119.469971 -63.096985 2.421752 0.968627
119.247612 -62.918205 1.573579 0.968627
119.020035 -62.735233 0.705477 0.968627
120.546913 -63.962875 0.000016 0.538552
126.007248 -68.353111 0.000012 0.562753
130.099167 -71.643112 0.200012 0.740948
131.846512 -73.048019 0.200009 0.778531
132.715591 -73.746780 0.104287 0.722042
133.333450 -74.243553 -0.000010 0.329198
119.744003 -63.088303 8.403901 0.968627
119.745544 -63.089558 7.521257 0.968627
119.747055 -63.090797 6.651139 0.968627
119.748558 -63.092018 5.791458 0.968627
120.139038 -63.410488 4.882466 0.980392
119.751511 -63.094429 4.095481 0.968627
119.752975 -63.095623 3.255398 0.968627
119.825607 -63.154861 2.416633 0.223529
119.536270 -62.918877 1.577256 0.968627
119.313881 -62.737503 0.716765 0.968627
120.654076 -63.830544 0.000016 0.544198
126.083633 -68.258797 0.000012 0.535134
130.152481 -71.577278 0.200012 0.729564
131.889984 -72.994347 0.200009 0.672374
132.812546 -73.746780 0.120559 0.757305
133.368530 -74.200233 -0.000009 0.331518
119.743935 -62.856602 8.440754 0.968627
119.745483 -62.857887 7.553026 0.968627
119.747009 -62.859146 6.677899 0.968627
119.748520 -62.860390 5.813271 0.968627
120.139008 -63.183437 4.899048 0.980392
119.751495 -62.862854 4.107535 0.968627
119.752960 -62.864075 3.262619 0.968627
119.754440 -62.865292 2.420542 0.968627
119.846977 -62.941849 1.581424 0.223529
119.669395 -62.794937 0.732052 0.223529
120.762161 -63.698959 0.000016 0.541222
126.160675 -68.165009 0.000012 0.543694
130.206253 -71.511810 0.200011 0.702327
131.933807 -72.940979 0.200009 0.764309
132.907852 -73.746780 0.136466 0.646448
133.403915 -74.157158 -0.000010 0.339361
119.743866 -62.622219 8.478348 0.968627
119.745430 -62.623528 7.585435 0.968627
119.746964 -62.624817 6.705200 0.968627
119.748482 -62.626087 5.835522 0.968627
120.138977 -62.953758 4.915963 0.980392
119.751472 -62.628597 4.119832 0.968627
119.752953 -62.629841 3.269986 0.968627
119.754425 -62.631081 2.422994 0.968627
119.755905 -62.632320 1.577037 0.968627
119.848450 -62.709976 0.736139 0.223529
120.871162 -63.568130 0.000016 0.536965
126.238358 -68.071762 0.000012 0.519173
130.260483 -71.446732 0.200012 0.750164
131.978012 -72.887924 0.200009 0.673976
133.001556 -73.746780 0.152015 0.668482
133.439590 -74.114334 -0.000009 0.338521
119.898994 -62.517143 8.465656 0.968627
119.791245 -62.425438 7.605493 0.968627
119.746918 -62.387714 6.733053 0.968627
119.748444 -62.389015 5.858225 0.968627
120.138954 -62.721367 4.933222 0.980392
119.751450 -62.391571 4.132378 0.968627
119.752945 -62.392845 3.277501 0.968627
119.754425 -62.394108 2.425497 0.968627
119.755913 -62.395370 1.574534 0.968627
119.757401 -62.396637 0.722786 0.968627
120.981079 -63.438068 0.000016 0.547112
126.316704 -67.979057 0.000012 0.559960
130.315155 -71.382027 0.200012 0.695628
132.022598 -72.835175 0.200009 0.757946
133.093719 -73.746780 0.167220 0.722210
133.505997 -74.097649 0.009995 1.000000
120.168503 -62.511723 8.415283 0.968627
120.063057 -62.420708 7.561583 0.968627
119.957962 -62.329994 6.710730 0.968627
119.852997 -62.239391 5.860892 0.968627
120.229095 -62.564034 4.937127 0.976349
119.751427 -62.151711 4.145179 0.968627
119.752930 -62.153008 3.285169 0.968627
119.754425 -62.154305 2.428051 0.968627
119.755920 -62.155590 1.571981 0.968627
119.757408 -62.156876 0.715121 0.968627
121.091888 -63.308773 0.000015 0.529961
126.395683 -67.886902 0.000011 0.540642
130.370285 -71.317703 0.200011 0.722362
132.067535 -72.782738 0.200009 0.657618
133.184387 -73.746780 0.182088 0.796994
133.542084 -74.055534 0.009996 1.000000
120.433884 -62.506416 8.365988 0.968627
120.330688 -62.416080 7.518616 0.968627
120.227844 -62.326042 6.674141 0.968627
120.125137 -62.236130 5.830746 0.968627
120.499695 -62.564034 4.913635 0.968627
120.006760 -62.132500 4.130411 0.968627
119.917038 -62.053951 3.282277 0.968627
119.826775 -61.974934 2.429083 0.968627
119.755920 -61.912907 1.569375 0.968627
119.757416 -61.914215 0.707301 0.971664
121.203613 -63.180267 0.000016 0.550759
126.475311 -67.795303 0.000011 0.505531
130.425873 -71.253769 0.200011 0.756268
132.112854 -72.730614 0.200009 0.709621
133.273605 -73.746780 0.196629 0.656214
133.578476 -74.013680 0.009996 1.000000
121.405914 -63.132164 8.079691 0.223529
121.320602 -63.056423 7.266779 0.223529
121.235703 -62.981049 6.457763 0.223529
120.393082 -62.232925 5.801245 0.968627
120.766006 -62.564034 4.890653 0.980392
120.278183 -62.130920 4.113803 0.968627
120.190399 -62.052971 3.272235 0.968627
120.102089 -61.974571 2.425708 0.968627
120.013069 -61.895538 1.572344 0.968627
119.923141 -61.815693 0.710207 0.968627
121.316223 -63.052532 0.000016 0.537026
126.555580 -67.704269 0.000012 0.553964
130.481888 -71.190224 0.200011 0.688930
132.158524 -72.678810 0.200009 0.673136
133.323853 -73.713440 0.200008 0.676631
133.615158 -73.972076 0.009996 1.000000
121.654366 -63.127861 8.034016 0.223529
121.570854 -63.052666 7.227027 0.223529
121.487747 -62.977844 6.423963 0.223529
121.404877 -62.903221 5.623086 0.223529
121.322052 -62.828644 4.822675 0.223529
121.239090 -62.753948 4.021016 0.223529
120.459526 -62.052025 3.262410 0.968627
120.373123 -61.974228 2.422405 0.968627
120.286034 -61.895805 1.575677 0.968627
120.198051 -61.816582 0.720304 0.968627
121.429718 -62.925587 0.000016 0.548653
126.636475 -67.613785 0.000012 0.541787
130.538361 -71.127068 0.200011 0.756054
132.204559 -72.627327 0.200009 0.726711
133.362625 -73.670059 0.200007 0.676783
133.652130 -73.930725 0.009996 1.000000
121.663551 -62.908516 8.069218 0.223529
121.664932 -62.909767 7.232707 0.223529
121.666283 -62.911003 6.408068 0.223529
121.654922 -62.900635 5.595866 0.223529
121.573853 -62.826607 4.801373 0.223529
121.492661 -62.752468 4.005695 0.223529
121.411179 -62.678059 3.207118 0.223529
121.329216 -62.603218 2.403902 0.223529
121.246605 -62.527786 1.594268 0.223529
120.468697 -61.817451 0.730182 0.968627
121.741669 -62.979839 0.021953 0.968215
126.718002 -67.523872 0.000011 0.533471
130.595261 -71.064308 0.200011 0.685771
132.250946 -72.576164 0.200009 0.659419
133.401703 -73.626961 0.200007 0.699168
133.659882 -73.862709 -0.000009 0.342306
121.456543 -62.486282 8.178976 0.968627
121.664879 -62.679199 7.266422 0.223529
121.666245 -62.680466 6.436466 0.223529
121.667587 -62.681709 5.616465 0.223529
121.668915 -62.682945 4.804510 0.223529
121.670242 -62.684174 3.998767 0.223529
121.662674 -62.677162 3.198052 0.223529
121.582458 -62.602882 2.400855 0.223529
121.501617 -62.528015 1.597342 0.223529
121.419952 -62.452393 0.785696 0.223529
121.989532 -62.979836 0.036913 0.968627
126.800148 -67.434532 0.000011 0.522896
130.652603 -71.001953 0.200012 0.690776
132.297684 -72.525322 0.200008 0.668818
133.441086 -73.584129 0.200007 0.670604
133.697617 -73.821678 -0.000009 0.328450
121.703033 -62.481514 8.134636 0.968627
121.610214 -62.394344 7.317016 0.968627
121.517738 -62.307503 6.502511 0.968627
121.425415 -62.220806 5.689364 0.968627
121.790909 -62.564026 4.803577 0.978469
121.670227 -62.450699 4.011825 0.223529
121.671547 -62.451942 3.205279 0.223529
121.672867 -62.453186 2.401443 0.223529
121.674194 -62.454426 1.598587 0.223529
121.675514 -62.455666 0.794988 0.223529
122.233696 -62.979836 0.051555 0.980392
126.882927 -67.345764 0.000011 0.546029
130.710373 -70.939995 0.200011 0.700008
132.344788 -72.474815 0.200009 0.746334
133.480774 -73.541580 0.200007 0.675929
133.735626 -73.780907 -0.000009 0.323537
121.946053 -62.476837 8.091210 0.968627
121.855148 -62.390266 7.279186 0.968627
121.764587 -62.304024 6.470312 0.968627
121.674179 -62.217934 5.662846 0.968627
122.037605 -62.564026 4.782956 0.972763
121.575012 -62.123497 4.035931 0.968627
121.496155 -62.048409 3.225161 0.968627
121.672874 -62.216690 2.404102 0.223529
121.674194 -62.217949 1.595928 0.223529
121.675522 -62.219215 0.787006 0.223529
122.474251 -62.979836 0.065886 0.976349
126.966316 -67.257584 0.000012 0.539544
130.768585 -70.878448 0.200011 0.675517
132.392242 -72.424637 0.200009 0.673808
133.520752 -73.499306 0.200007 0.661219
133.780609 -73.746773 0.002303 0.728511
122.185699 -62.472260 8.048679 0.968627
122.096657 -62.386269 7.242135 0.968627
122.007965 -62.300621 6.438777 0.968627
121.919426 -62.215118 5.636878 0.968627
122.280731 -62.564026 4.762770 0.968673
121.823105 -62.122101 4.021328 0.968627
121.745903 -62.047546 3.216335 0.968627
121.668274 -61.972580 2.406921 0.968627
121.590050 -61.897041 1.591299 0.968627
121.511047 -61.820755 0.767625 0.968627
122.711319 -62.979843 0.079916 0.980392
127.050323 -67.169983 0.000011 0.516457
130.827209 -70.817299 0.200011 0.696925
132.440048 -72.374794 0.200009 0.714183
133.561020 -73.457314 0.200007 0.694148
133.860764 -73.746773 0.016794 0.720882
122.422066 -62.467773 8.007016 0.968627
122.334839 -62.382355 7.205843 0.968627
122.247963 -62.297279 6.407894 0.968627
122.161255 -62.212364 5.611446 0.968627
122.520355 -62.564026 4.743007 0.968627
122.067688 -62.120743 4.007028 0.968627
121.992088 -62.046707 3.207693 0.968627
121.916084 -61.972275 2.404018 0.968627
121.839493 -61.897274 1.594228 0.968627
121.762154 -61.821541 0.776497 0.968627
122.944962 -62.979836 0.093650 0.980392
127.134933 -67.082970 0.000011 0.533043
130.886276 -70.756561 0.200011 0.692103
132.488190 -72.325279 0.200009 0.696040
133.601578 -73.415604 0.200007 0.695354
133.939774 -73.746780 0.030981 0.695125
122.655243 -62.463375 7.966203 0.968627
122.569786 -62.378517 7.170296 0.968627
122.484680 -62.294006 6.377644 0.968627
122.399750 -62.209660 5.586539 0.968627
122.756584 -62.564018 4.723657 0.980392
122.308861 -62.119408 3.993024 0.968627
122.234825 -62.045883 3.199230 0.968627
122.160393 -61.971970 2.401175 0.968627
122.085396 -61.897499 1.597096 0.968627
122.009674 -61.822300 0.785181 0.968627
123.175301 -62.979824 0.107098 0.978469
127.220161 -66.996552 0.000011 0.517876
129.989044 -69.746185 0.000009 0.527825
132.536682 -72.276108 0.200009 0.729534
133.642441 -73.374168 0.200007 0.700511
134.017654 -73.746780 0.044872 0.679469
nan nan nan 0.000000
nan nan nan 0.000000
nan nan nan 0.000000
nan nan nan 0.000000
nan nan nan 0.000000
nan nan nan 0.000000
nan nan nan 0.000000
nan nan nan 0.000000
nan nan nan 0.000000
168.242416 -108.134087 -0.000005 0.537102
156.743271 -96.554344 -0.000006 0.536995
151.806198 -91.582672 0.000003 0.531060
149.056549 -88.813744 0.000003 0.544152
147.301132 -87.046028 0.000004 0.555673
146.081055 -85.817398 0.000005 0.524483
145.182159 -84.912201 0.000005 0.526589
nan nan nan 0.000000
nan nan nan 0.000000
nan nan nan 0.000000
nan nan nan 0.000000
nan nan nan 0.000000
nan nan nan 0.000000
nan nan nan 0.000000
nan nan nan 0.000000
nan nan nan 0.000000
168.040039 -108.333649 -0.000005 0.532464
156.622009 -96.673904 -0.000006 0.533913
151.719772 -91.667892 0.000003 0.547997
148.989517 -88.879837 0.000003 0.555581
147.246490 -87.099907 0.000004 0.586526
146.035019 -85.862793 0.000005 0.551476
145.142456 -84.951340 0.000005 0.557534
nan nan nan 0.000000
nan nan nan 0.000000
nan nan nan 0.000000
nan nan nan 0.000000
nan nan nan 0.000000
nan nan nan 0.000000
nan nan nan 0.000000
nan nan nan 0.000000
nan nan nan 0.000000
167.836288 -108.531799 -0.000005 0.543694
156.499939 -96.792625 -0.000006 0.537377
151.632767 -91.752502 0.000003 0.518700
148.922043 -88.945465 0.000003 0.536767
147.191483 -87.153404 0.000004 0.526635
145.988678 -85.907860 0.000005 0.527840
145.102509 -84.990196 0.000005 0.608759
nan nan nan 0.000000
nan nan nan 0.000000
nan nan nan 0.000000
nan nan nan 0.000000
nan nan nan 0.000000
nan nan nan 0.000000
nan nan nan 0.000000
nan nan nan 0.000000
nan nan nan 0.000000
167.631149 -108.728516 -0.000005 0.543282
156.377029 -96.910484 -0.000006 0.543770
151.545166 -91.836510 0.000003 0.515541
148.854111 -89.010612 0.000003 0.523217
147.136093 -87.206520 0.000004 0.547967
145.942017 -85.952606 0.000005 0.471763
145.062271 -85.028778 0.000005 0.577081
nan nan nan 0.000000
nan nan nan 0.000000
nan nan nan 0.000000
nan nan nan 0.000000
nan nan nan 0.000000
nan nan nan 0.000000
nan nan nan 0.000000
nan nan nan 0.000000
nan nan nan 0.000000
167.424637 -108.923782 -0.000005 0.544701
156.253311 -97.027489 -0.000006 0.541054
151.456985 -91.919907 0.000002 0.548058
148.785706 -89.075287 0.000003 0.509194
147.080338 -87.259239 0.000004 0.500816
145.895050 -85.997025 0.000004 0.522225
145.021774 -85.067078 0.000005 0.521508
nan nan nan 0.000000
nan nan nan 0.000000
nan nan nan 0.000000
nan nan nan 0.000000
nan nan nan 0.000000
nan nan nan 0.000000
nan nan nan 0.000000
nan nan nan 0.000000
nan nan nan 0.000000
167.216782 -109.117622 -0.000005 0.539590
156.128769 -97.143623 -0.000006 0.531899
151.368225 -92.002686 0.000002 0.534905
148.716873 -89.139481 0.000003 0.532799
147.024216 -87.311577 0.000004 0.482429
145.847763 -86.041115 0.000004 0.560327
144.981003 -85.105095 0.000005 0.552911
nan nan nan 0.000000
nan nan nan 0.000000
nan nan nan 0.000000
nan nan nan 0.000000
nan nan nan 0.000000
nan nan nan 0.000000
nan nan nan 0.000000
nan nan nan 0.000000
nan nan nan 0.000000
167.007568 -109.310005 -0.000006 0.537652
156.003418 -97.258888 -0.000006 0.568597
151.278870 -92.084831 0.000002 0.554742
148.647583 -89.203194 0.000003 0.545434
146.967728 -87.363518 0.000004 0.563409
145.800171 -86.084869 0.000004 0.558465
144.939972 -85.142830 0.000005 0.541421
nan nan nan 0.000000
nan nan nan 0.000000
nan nan nan 0.000000
nan nan nan 0.000000
nan nan nan 0.000000
nan nan nan 0.000000
nan nan nan 0.000000
nan nan nan 0.000000
nan nan nan 0.000000
166.797028 -109.500923 -0.000006 0.537102
155.877274 -97.373268 -0.000006 0.532509
151.188965 -92.166359 0.000002 0.532662
148.577850 -89.266418 0.000003 0.570947
146.910889 -87.415062 0.000004 0.515480
145.752289 -86.128296 0.000004 0.538964
144.898682 -85.180267 0.000005 0.539040
nan nan nan 0.000000
nan nan nan 0.000000
nan nan nan 0.000000
nan nan nan 0.000000
nan nan nan 0.000000
nan nan nan 0.000000
nan nan nan 0.000000
nan nan nan 0.000000
nan nan nan 0.000000
166.585144 -109.690369 -0.000005 0.537606
155.750320 -97.486771 -0.000006 0.540475
151.098480 -92.247261 0.000002 0.530358
148.507690 -89.329163 0.000003 0.541680
146.853683 -87.466209 0.000004 0.538811
145.704086 -86.171387 0.000004 0.469596
144.857117 -85.217422 0.000004 0.495125
nan nan nan 0.000000
nan nan nan 0.000000
nan nan nan 0.000000
nan nan nan 0.000000
nan nan nan 0.000000
nan nan nan 0.000000
nan nan nan 0.000000
nan nan nan 0.000000
nan nan nan 0.000000
166.371948 -109.878311 -0.000005 0.536126
155.622589 -97.599380 -0.000006 0.549706
151.007446 -92.327522 0.000002 0.531609
148.437073 -89.391411 0.000003 0.537987
146.796127 -87.516960 0.000004 0.503670
145.655594 -86.214142 0.000004 0.518090
144.815308 -85.254288 0.000004 0.520333
nan nan nan 0.000000
nan nan nan 0.000000
nan nan nan 0.000000
nan nan nan 0.000000
nan nan nan 0.000000
nan nan nan 0.000000
nan nan nan 0.000000
nan nan nan 0.000000
nan nan nan 0.000000
166.157440 -110.064766 -0.000005 0.543587
155.494080 -97.711105 -0.000007 0.540200
150.915848 -92.407150 0.000002 0.549615
148.366043 -89.453163 0.000003 0.541192
146.738205 -87.567299 0.000004 0.505699
145.606812 -86.256554 0.000004 0.493355
144.773239 -85.290855 0.000004 0.542443
nan nan nan 0.000000
nan nan nan 0.000000
nan nan nan 0.000000
nan nan nan 0.000000
nan nan nan 0.000000
nan nan nan 0.000000
nan nan nan 0.000000
nan nan nan 0.000000
nan nan nan 0.000000
165.941650 -110.249733 -0.000005 0.534905
155.364777 -97.821922 -0.000007 0.551522
150.823685 -92.486130 0.000002 0.549310
148.294571 -89.514420 0.000003 0.567376
146.679947 -87.617233 0.000004 0.542321
145.557724 -86.298622 0.000004 0.499535
144.730927 -85.327133 0.000004 0.538048
nan nan nan 0.000000
nan nan nan 0.000000
nan nan nan 0.000000
nan nan nan 0.000000
nan nan nan 0.000000
nan nan nan 0.000000
nan nan nan 0.000000
nan nan nan 0.000000
nan nan nan 0.000000
165.724564 -110.433182 -0.000005 0.541451
155.234726 -97.931831 -0.000006 0.542382
150.730988 -92.564468 0.000002 0.555093
148.222672 -89.575180 0.000003 0.554696
146.621338 -87.666771 0.000003 0.546105
145.508347 -86.340355 0.000004 0.557763
144.688339 -85.363113 0.000004 0.496620
nan nan nan 0.000000
nan nan nan 0.000000
nan nan nan 0.000000
nan nan nan 0.000000
nan nan nan 0.000000
nan nan nan 0.000000
nan nan nan 0.000000
nan nan nan 0.000000
nan nan nan 0.000000
165.506210 -110.615120 -0.000006 0.542809
155.103897 -98.040833 -0.000007 0.538369
150.637741 -92.642166 0.000002 0.519265
148.150360 -89.635429 0.000003 0.540200
146.562378 -87.715889 0.000003 0.538003
145.458679 -86.381737 0.000003 0.536049
144.645523 -85.398788 0.000004 0.524376
nan nan nan 0.000000
nan nan nan 0.000000
nan nan nan 0.000000
nan nan nan 0.000000
nan nan nan 0.000000
nan nan nan 0.000000
nan nan nan 0.000000
nan nan nan 0.000000
nan nan nan 0.000000
165.286591 -110.795525 -0.000006 0.541955
154.972305 -98.148918 -0.000007 0.538964
150.543945 -92.719200 0.000002 0.584939
148.077621 -89.695175 0.000003 0.537850
146.503082 -87.764595 0.000004 0.524880
145.408722 -86.422768 0.000004 0.555276
144.602448 -85.434174 0.000005 0.525490
nan nan nan 0.000000
nan nan nan 0.000000
nan nan nan 0.000000
nan nan nan 0.000000
nan nan nan 0.000000
nan nan nan 0.000000
nan nan nan 0.000000
nan nan nan 0.000000
nan nan nan 0.000000
165.065720 -110.974380 -0.000006 0.541238
154.839966 -98.256081 -0.000006 0.550591
150.449631 -92.795586 0.000002 0.555215
148.004471 -89.754410 0.000003 0.530983
146.443451 -87.812889 0.000003 0.544717
145.358475 -86.463455 0.000004 0.526894
144.559128 -85.469254 0.000004 0.524330
nan nan nan 0.000000
nan nan nan 0.000000
nan nan nan 0.000000
nan nan nan 0.000000
nan nan nan 0.000000
nan nan nan 0.000000
nan nan nan 0.000000
nan nan nan 0.000000
nan nan nan 0.000000
164.843582 -111.151695 -0.000006 0.535744
154.706894 -98.362320 -0.000007 0.551659
150.354782 -92.871307 0.000002 0.545296
147.930908 -89.813141 0.000003 0.524163
146.383484 -87.860764 0.000003 0.528786
145.307953 -86.503784 0.000004 0.548165
144.515564 -85.504028 0.000004 0.563348
nan nan nan 0.000000
nan nan nan 0.000000
nan nan nan 0.000000
nan nan nan 0.000000
