# This PCD file was generated using the MATLABÂ® pcwrite function
# from Computer Vision ToolboxÂ®.
# .PCD v.7 - Point Cloud Data file format
VERSION .7
FIELDS x y z intensity
SIZE 4 4 4 4
TYPE F F F F
COUNT 1 1 1 1
WIDTH 1284
HEIGHT 1
VIEWPOINT 0 0 0 1 0 0 0
POINTS 1284
DATA ascii
-55.780075 -112.954971 10.822256 0.646983
-55.780079 -112.954971 9.192162 0.631998
-55.780090 -112.954979 7.577823 0.632120
-55.780094 -112.954987 5.975595 0.615900
-55.780102 -112.954987 4.381946 0.660548
-55.780102 -112.954987 2.793415 0.658045
-57.937756 -114.190956 1.165895 0.629892
-49.032837 -109.089951 0.000057 0.536309
-34.872910 -100.978722 0.000034 0.535821
-28.793674 -97.496353 -0.000008 0.337087
-25.349060 -95.523170 0.010001 1.000000
-23.245901 -94.318420 -0.000008 0.341299
-21.743389 -93.457733 0.000002 0.333379
-20.636456 -92.823654 -0.000002 0.340078
-57.479359 -113.524124 14.585527 0.678996
-58.776989 -114.255470 13.173424 0.678431
-55.780064 -112.566422 10.787327 0.666835
-55.780071 -112.566422 9.163687 0.692226
-55.780083 -112.566422 7.555740 0.654826
-55.780094 -112.566437 5.959856 0.625132
-55.780098 -112.566437 4.372516 0.629801
-55.780106 -112.566437 2.790275 0.625055
-58.723820 -114.225502 1.154432 0.136324
-49.173237 -108.842842 0.000057 0.541726
-34.957039 -100.830673 0.000034 0.538872
-28.853680 -97.390854 -0.000014 0.335271
-25.454102 -95.474869 -0.000006 0.340429
-23.283810 -94.251701 -0.000008 0.343450
-21.775322 -93.401527 0.000003 0.339223
-20.663990 -92.775185 -0.000001 0.333959
-58.147797 -113.493668 14.727953 0.641215
-59.521786 -114.255447 13.313834 0.678431
-55.806118 -112.195358 10.758520 0.668559
-55.806126 -112.195366 9.140203 0.633509
-55.806137 -112.195374 7.537527 0.641962
-55.806152 -112.195381 5.946876 0.631830
-55.806160 -112.195389 4.364739 0.637415
-55.806168 -112.195389 2.787683 0.657160
-56.057064 -112.334496 1.207622 0.666087
-49.311905 -108.594765 0.000057 0.546670
-35.040123 -100.682037 0.000034 0.544335
-28.912903 -97.284912 -0.000014 0.338994
-25.500027 -95.392700 -0.000005 0.334722
-23.321251 -94.184723 -0.000008 0.337133
-21.806862 -93.345093 0.000004 0.337331
-20.691185 -92.726524 0.000001 0.340154
-60.099815 -114.154121 15.236124 0.662501
-60.268097 -114.245888 13.454084 0.129412
-56.544350 -112.215179 10.877963 0.678431
-56.466515 -112.172737 9.224424 0.751766
-56.544369 -112.215195 7.613043 0.678431
-56.444508 -112.160736 5.991371 0.742840
-56.544365 -112.215187 4.396987 0.678431
-56.269363 -112.065216 2.793300 0.726955
-60.167389 -114.190964 1.134046 0.638010
-49.448860 -108.345734 0.000057 0.534463
-35.122177 -100.532829 0.000033 0.541604
-28.971420 -97.178574 -0.000019 0.338445
-25.545380 -95.310219 -0.000005 0.336339
-23.358227 -94.117477 -0.000008 0.333745
-21.838013 -93.288445 0.000004 0.333989
-20.718040 -92.677681 0.000001 0.333410
-60.339222 -113.863907 15.254288 0.646265
-60.949020 -114.190956 13.577799 0.639933
-57.265034 -112.215172 10.993308 0.678431
-57.185978 -112.172775 9.318300 0.753521
-57.265053 -112.215187 7.685969 0.678431
-57.163544 -112.160744 6.043232 0.764096
-57.265060 -112.215187 4.428128 0.678431
-56.985458 -112.065231 2.803606 0.691371
-60.949032 -114.190964 1.122795 0.641398
-49.584053 -108.095741 0.000057 0.538705
-35.203182 -100.383049 0.000033 0.541405
-29.029079 -97.071777 -0.000009 0.337942
-25.590157 -95.227425 -0.000005 0.339956
-23.394733 -94.049980 -0.000008 0.337087
-21.868763 -93.231583 0.000005 0.340673
-20.744556 -92.628647 0.000002 0.340185
-60.577312 -113.571838 15.272593 0.665248
-61.751297 -114.190948 13.730784 0.638926
-58.004787 -112.215195 11.112151 0.678431
-57.924362 -112.172775 9.415006 0.746014
-58.004795 -112.215195 7.761106 0.678431
-57.924366 -112.172783 6.098775 0.741314
-58.004810 -112.215202 4.460215 0.678431
-57.720490 -112.065262 2.814226 0.721691
-61.751301 -114.190956 1.111204 0.641108
-49.717506 -107.844810 0.000056 0.541924
-35.283142 -100.232704 0.000033 0.535714
-29.086077 -96.964615 -0.000010 0.334066
-25.634354 -95.144318 -0.000005 0.340337
-23.430767 -93.982231 -0.000009 0.336187
-21.899115 -93.174500 0.000006 0.332479
-20.770725 -92.579430 0.000003 0.338247
-60.813358 -113.277550 15.290830 0.644724
-62.630383 -114.219620 13.901905 0.753826
-58.764370 -112.215210 11.234631 0.678431
-58.682510 -112.172768 9.514665 0.748272
-58.764374 -112.215210 7.838542 0.678431
-58.682533 -112.172775 6.153864 0.752911
-58.764389 -112.215218 4.493284 0.678431
-58.475327 -112.065346 2.825172 0.695308
-62.575081 -114.190948 1.099258 0.669291
-49.849216 -107.592964 0.000057 0.542626
-35.362045 -100.081802 0.000033 0.538964
-29.142235 -96.857025 0.000001 0.340108
-25.677967 -95.060905 -0.000004 0.334630
-23.466324 -93.914230 -0.000008 0.335912
-21.929070 -93.117210 0.000006 0.346990
-20.796553 -92.530037 0.000004 0.330114
-61.385731 -113.153488 15.404134 0.648829
-63.421352 -114.190933 14.051008 0.637171
-59.437721 -112.160698 11.339063 0.778988
-59.437737 -112.160706 9.613480 0.782574
-59.437729 -112.160706 7.904571 0.797055
-59.437729 -112.160706 6.208483 0.785779
-59.437744 -112.160706 4.521481 0.780804
-59.250717 -112.065392 2.836458 0.706798
-63.421352 -114.190933 1.086942 0.647227
-49.979141 -107.340195 0.000057 0.540002
-35.439899 -99.930359 0.000033 0.545922
-29.197727 -96.749077 0.000001 0.338918
-25.721001 -94.977188 -0.000004 0.340597
-23.501408 -93.845985 -0.000009 0.336172
-21.958626 -93.059715 0.000006 0.338888
-20.822033 -92.480461 0.000004 0.333349
nan nan nan 0.000000
-64.291130 -114.190926 14.218677 0.627161
-60.268665 -112.176155 11.475283 0.807141
-60.237877 -112.160736 9.719417 0.798123
-60.268661 -112.176155 7.990691 0.798733
-60.261860 -112.172745 6.269243 0.749249
-60.268673 -112.176163 4.558258 0.803647
-60.047703 -112.065475 2.848098 0.693339
-60.570557 -112.327370 1.142331 0.669673
-50.107307 -107.086533 0.000057 0.540352
-35.516689 -99.778381 0.000033 0.535973
-29.252384 -96.640709 0.000010 0.338003
-25.763451 -94.893173 -0.000004 0.335973
-23.536011 -93.777496 -0.000009 0.337224
-21.987778 -93.002014 0.000006 0.342901
-20.847172 -92.430710 0.000004 0.341207
nan nan nan 0.000000
-65.185684 -114.191002 14.391732 0.637995
-61.144970 -112.202255 11.620209 0.115496
-61.171333 -112.215225 9.847033 0.678431
-61.171337 -112.215225 8.085701 0.678431
-61.085056 -112.172760 6.329699 0.750439
-61.171341 -112.215233 4.598830 0.678431
-47.445110 -105.459488 2.615312 0.692485
-65.185677 -114.190994 1.061127 0.651438
-50.233715 -106.831978 0.000057 0.542382
-35.592419 -99.625862 0.000033 0.530709
-29.306364 -96.532005 0.000010 0.340429
-25.805309 -94.808861 -0.000004 0.333730
-23.570141 -93.708763 -0.000009 0.334020
-22.016529 -92.944107 0.000006 0.332052
-20.871964 -92.380783 0.000004 0.338399
nan nan nan 0.000000
-66.021713 -114.150337 14.550166 0.648859
-47.518932 -105.203598 8.833525 0.252369
-47.370136 -105.131653 7.546373 0.534234
-47.371193 -105.132156 6.301578 0.588296
-47.371010 -105.132072 5.065935 0.559365
-47.371315 -105.132217 3.836946 0.546563
-47.371315 -105.132217 2.611878 0.546593
-47.371315 -105.132217 1.388122 0.541207
-47.371315 -105.132217 0.163053 0.540597
-35.667088 -99.472824 0.000032 0.531441
-29.359505 -96.422882 0.000020 0.338567
-25.846577 -94.724266 -0.000004 0.336980
-23.603785 -93.639793 -0.000009 0.333181
-22.044874 -92.886009 0.000006 0.333715
-20.896404 -92.330681 0.000003 0.333257
nan nan nan 0.000000
-48.075382 -105.177628 10.217251 0.387442
-47.515324 -104.911629 8.809973 0.406729
-47.371918 -104.843521 7.528140 0.553094
-47.372044 -104.843582 6.287319 0.566079
-47.371265 -104.843208 5.055717 0.549111
-47.371323 -104.843239 3.830812 0.563699
-47.371319 -104.843231 2.609834 0.555276
-47.371319 -104.843231 1.390166 0.565255
-47.371323 -104.843239 0.169188 0.587900
-35.740677 -99.319260 0.000032 0.547082
-29.411993 -96.313454 0.000015 0.335927
-25.887253 -94.639381 -0.000003 0.340963
-23.636944 -93.570595 -0.000008 0.334936
-22.072811 -92.827713 0.000006 0.332509
-20.920494 -92.280418 0.000003 0.341482
nan nan nan 0.000000
-48.139095 -104.914261 10.205475 0.544381
-47.509777 -104.620728 8.786518 0.374182
-47.370552 -104.555794 7.509780 0.576715
-47.370987 -104.556000 6.273119 0.586709
-47.371468 -104.556221 5.045710 0.592218
-47.371319 -104.556152 3.824805 0.567773
-47.371315 -104.556152 2.607833 0.579629
-47.371315 -104.556152 1.392166 0.577401
-47.371323 -104.556152 0.175195 0.573632
-35.813198 -99.165192 0.000032 0.544030
-29.463671 -96.203636 0.000016 0.338796
-25.927343 -94.554214 -0.000003 0.340520
-23.669621 -93.501160 -0.000007 0.338567
-22.100346 -92.769218 0.000006 0.347021
-20.944233 -92.229980 0.000003 0.343618
nan nan nan 0.000000
-48.776169 -104.914291 10.330379 0.535805
-47.503414 -104.331429 8.763382 0.428061
-47.372311 -104.271393 7.492318 0.543954
-47.371834 -104.271172 6.259462 0.562707
-47.371021 -104.270805 5.035858 0.553948
-47.371319 -104.270935 3.818927 0.525612
-47.371319 -104.270935 2.605876 0.559106
-47.371319 -104.270935 1.394124 0.535439
-47.371319 -104.270935 0.181073 0.542367
-35.884636 -99.010620 0.000032 0.551644
-29.514675 -96.093498 0.000005 0.340078
-25.966827 -94.468765 -0.000002 0.338506
-23.701813 -93.431503 -0.000007 0.338842
-22.127464 -92.710533 0.000006 0.340612
-20.967617 -92.179382 0.000003 0.342473
-49.951912 -105.147598 11.953691 0.450126
-49.432907 -104.914291 10.459548 0.571237
-47.497185 -104.044121 8.740751 0.396979
-47.371338 -103.987549 7.474791 0.566964
-47.370987 -103.987396 6.245884 0.575631
-47.371269 -103.987518 5.026279 0.580682
-47.371315 -103.987541 3.813173 0.568963
-47.371319 -103.987541 2.603960 0.570230
-47.371323 -103.987541 1.396040 0.561517
-47.371319 -103.987541 0.186825 0.535454
-35.954990 -98.855553 0.000032 0.539864
-29.564819 -95.982971 0.000006 0.338949
-26.005722 -94.383049 -0.000003 0.335180
-23.733517 -93.361626 -0.000006 0.335149
-22.154177 -92.651665 0.000006 0.338079
-20.990650 -92.128624 0.000003 0.334691
-50.110222 -104.914230 11.966135 0.549752
-50.110222 -104.914230 10.593177 0.554040
-47.494881 -103.760429 8.719368 0.363241
-47.370392 -103.705505 7.457642 0.585153
-47.371830 -103.706146 6.232810 0.573602
-47.371502 -103.706001 5.016906 0.570596
-47.371319 -103.705917 3.807545 0.558877
-47.371315 -103.705917 2.602084 0.557046
-47.371315 -103.705917 1.397915 0.545159
-47.371323 -103.705917 0.192454 0.566873
-36.024269 -98.699997 0.000032 0.544549
-29.614283 -95.872139 -0.000005 0.335546
-26.044014 -94.297066 -0.000002 0.339879
-23.764725 -93.291519 -0.000005 0.336263
-22.180477 -92.592606 0.000006 0.337301
-21.013327 -92.077705 0.000003 0.334676
-50.809525 -104.914246 12.126646 0.548241
-50.809467 -104.914223 10.731563 0.533989
-47.490044 -103.477409 8.697939 0.425925
-47.371807 -103.426231 7.441245 0.520638
-47.370861 -103.425819 6.219794 0.539055
-47.371037 -103.425896 5.007675 0.538170
-47.371319 -103.426018 3.802039 0.527581
-47.371323 -103.426018 2.600250 0.583246
-47.371323 -103.426018 1.399749 0.538964
-47.371319 -103.426018 0.197960 0.560174
-36.092461 -98.543961 0.000032 0.532494
-29.662876 -95.760918 -0.000004 0.336461
-26.081699 -94.210808 -0.000002 0.330617
-23.795452 -93.221207 -0.000004 0.341970
-22.206366 -92.533371 0.000006 0.337072
-21.035648 -92.026627 0.000003 0.340230
-51.531666 -104.914238 12.292900 0.563714
-51.531635 -104.914223 10.874919 0.535058
-47.484501 -103.195869 8.676826 0.385748
-47.370911 -103.147636 7.424839 0.551415
-47.371700 -103.147972 6.207287 0.531289
-47.371281 -103.147797 4.998708 0.581888
-47.371326 -103.147812 3.796654 0.529534
-47.371323 -103.147812 2.598457 0.571756
-47.371323 -103.147812 1.401543 0.539681
-47.371323 -103.147812 0.203346 0.583078
-36.159554 -98.387459 0.000032 0.528695
-29.710789 -95.649406 -0.000015 0.336934
-26.118790 -94.124298 -0.000002 0.336080
-23.825684 -93.150673 -0.000004 0.335271
-22.231840 -92.473953 0.000006 0.346532
-21.057615 -91.975395 0.000003 0.339788
-52.278042 -104.914261 12.465243 0.576974
-52.278011 -104.914246 11.023521 0.570779
-47.479111 -102.916130 8.656195 0.471901
-47.370041 -102.870712 7.408799 0.557137
-47.370911 -102.871078 6.194857 0.553094
-47.371510 -102.871323 4.989938 0.541680
-47.371323 -102.871246 3.791388 0.550362
-47.371326 -102.871246 2.596704 0.569375
-47.371326 -102.871246 1.403297 0.544656
-47.371326 -102.871246 0.208611 0.565744
-36.225559 -98.230492 0.000032 0.548180
-29.757828 -95.537521 -0.000014 0.336217
-26.155273 -94.037521 -0.000001 0.340139
-23.855425 -93.079933 -0.000003 0.339452
-22.256897 -92.414360 0.000005 0.332387
-21.079224 -91.924011 0.000002 0.324651
nan nan nan 0.000000
-53.049736 -104.914230 11.177616 0.552117
-47.473892 -102.638161 8.636038 0.402243
-47.371777 -102.596474 7.393530 0.568338
-47.371742 -102.596458 6.182903 0.538949
-47.371117 -102.596207 4.981310 0.568994
-47.371326 -102.596291 3.786240 0.559396
-47.371323 -102.596291 2.594988 0.562676
-47.371323 -102.596291 1.405012 0.551156
-47.371326 -102.596291 0.213760 0.579919
-36.290470 -98.073067 0.000031 0.542336
-29.804157 -95.425339 -0.000023 0.337484
-26.191149 -93.950500 -0.000001 0.335866
-23.884670 -93.008995 -0.000003 0.344869
-22.281542 -92.354591 0.000005 0.331868
-21.100473 -91.872475 0.000001 0.334356
nan nan nan 0.000000
nan nan nan 0.000000
-47.472424 -102.363335 8.617052 0.239322
-47.371254 -102.322861 7.378253 0.554192
-47.371140 -102.322815 6.171043 0.552605
-47.371391 -102.322914 4.972934 0.550759
-47.371323 -102.322891 3.781207 0.570138
-47.371326 -102.322891 2.593311 0.535470
-47.371326 -102.322891 1.406688 0.520882
-47.371326 -102.322891 0.218793 0.581781
-36.354271 -97.915184 0.000031 0.549310
-29.849632 -95.312805 -0.000023 0.338720
-26.226416 -93.863228 -0.000001 0.335058
-23.913416 -92.937843 -0.000001 0.338888
-22.305763 -92.294655 0.000006 0.327398
-21.121363 -91.820801 0.000000 0.345418
nan nan nan 0.000000
nan nan nan 0.000000
-47.467812 -102.088844 8.597882 0.365576
-47.370457 -102.050682 7.363276 0.538918
-47.371956 -102.051270 6.159628 0.566781
-47.371620 -102.051132 4.964747 0.581415
-47.371323 -102.051018 3.776289 0.547265
-47.371323 -102.051018 2.591674 0.552468
-47.371323 -102.051018 1.408326 0.544701
-47.371326 -102.051018 0.223710 0.577401
-36.416973 -97.756866 0.000031 0.527611
-29.813282 -95.168198 0.009991 1.000000
-26.261074 -93.775719 -0.000001 0.336706
-23.941668 -92.866501 -0.000000 0.332357
-22.329567 -92.234550 0.000005 0.339361
-21.141891 -91.768974 -0.000001 0.337484
nan nan nan 0.000000
nan nan nan 0.000000
-47.463371 -101.815971 8.579171 0.292042
-47.372162 -101.780945 7.349039 0.548363
-47.371246 -101.780594 6.148289 0.569375
-47.371246 -101.780594 4.956695 0.556130
-47.371323 -101.780624 3.771485 0.568826
-47.371326 -101.780624 2.590074 0.528435
-47.371326 -101.780624 1.409927 0.552697
-47.371323 -101.780624 0.228515 0.582162
-34.201637 -96.723839 0.200018 0.706691
-29.856861 -95.055565 0.010004 1.000000
-26.295116 -93.687958 0.000000 0.338659
-23.969418 -92.794952 0.000000 0.338033
-22.352951 -92.174278 0.000005 0.344869
-21.162052 -91.717003 -0.000001 0.328801
nan nan nan 0.000000
nan nan nan 0.000000
-47.458366 -101.544411 8.560768 0.420768
-47.371696 -101.511826 7.334794 0.593011
-47.370686 -101.511444 6.137231 0.592096
-47.371510 -101.511757 4.948884 0.571115
-47.371326 -101.511688 3.766791 0.548760
-47.371326 -101.511688 2.588510 0.584360
-47.371326 -101.511688 1.411490 0.562875
-47.371330 -101.511688 0.233208 0.568353
-34.256077 -96.580582 0.200018 0.711833
-29.981300 -94.973343 -0.000019 0.337804
-26.328552 -93.599968 -0.000000 0.329335
-23.996674 -92.723221 0.000001 0.337667
-22.375912 -92.113846 0.000006 0.335912
-21.181858 -91.664902 -0.000002 0.335348
nan nan nan 0.000000
nan nan nan 0.000000
-47.454353 -101.274704 8.542971 0.323934
-47.370964 -101.244011 7.320840 0.564614
-47.371494 -101.244202 6.126599 0.557595
-47.371159 -101.244080 4.941205 0.565988
-47.371323 -101.244141 3.762208 0.568795
-47.371330 -101.244141 2.586984 0.558129
-47.371326 -101.244141 1.413016 0.558907
-47.371326 -101.244141 0.237791 0.567773
-34.309547 -96.436951 0.200015 0.705119
-30.023579 -94.859566 -0.000013 0.335439
-26.361370 -93.511749 0.000000 0.334798
-24.023428 -92.651299 0.000001 0.336477
-22.398453 -92.053253 0.000006 0.338888
-21.201296 -91.612656 -0.000003 0.335119
nan nan nan 0.000000
nan nan nan 0.000000
-47.449806 -101.006241 8.525482 0.444846
-47.370541 -100.977692 7.307267 0.578103
-47.370960 -100.977844 6.116058 0.565911
-47.371414 -100.978012 4.933760 0.590936
-47.371326 -100.977974 3.757735 0.560937
-47.371326 -100.977974 2.585493 0.551934
-47.371326 -100.977974 1.414507 0.543450
-47.371326 -100.977974 0.242265 0.568627
-34.361965 -96.292938 0.200016 0.711101
-30.065098 -94.745514 -0.000013 0.334188
-26.393572 -93.423294 0.000000 0.340627
-24.049681 -92.579193 0.000001 0.337575
-22.420567 -91.992508 0.000006 0.323949
-21.220369 -91.560280 -0.000004 0.338857
nan nan nan 0.000000
nan nan nan 0.000000
-47.446251 -100.739540 8.508591 0.363226
-47.372227 -100.713463 7.294351 0.544808
-47.371761 -100.713303 6.105933 0.537743
-47.371078 -100.713058 4.926446 0.574868
-47.371326 -100.713150 3.753370 0.551827
-47.371326 -100.713150 2.584040 0.568322
-47.371326 -100.713150 1.415961 0.518837
-47.371326 -100.713150 0.246630 0.549020
-34.413395 -96.148575 0.200016 0.704570
-30.105782 -94.631165 -0.000008 0.337026
-26.425152 -93.334625 0.000000 0.337972
-24.075426 -92.506905 0.000001 0.340307
-22.442261 -91.931610 0.000006 0.340444
-21.239075 -91.507774 -0.000004 0.346563
nan nan nan 0.000000
nan nan nan 0.000000
-47.442200 -100.474030 8.492001 0.450980
-47.371830 -100.449791 7.281431 0.570901
-47.371254 -100.449593 6.095898 0.567041
-47.371338 -100.449623 4.919361 0.577203
-47.371330 -100.449615 3.749112 0.554223
-47.371330 -100.449615 2.582621 0.573892
-47.371330 -100.449615 1.417380 0.523659
-47.371330 -100.449615 0.250888 0.584222
-34.463799 -96.003845 0.200017 0.700511
-30.145699 -94.516548 -0.000007 0.338689
-26.456114 -93.245735 0.000000 0.337285
-24.100666 -92.434441 0.000001 0.342824
-22.463528 -91.870560 0.000006 0.335042
-21.257412 -91.455132 -0.000005 0.340002
nan nan nan 0.000000
nan nan nan 0.000000
-47.438419 -100.209938 8.475861 0.390066
-47.371452 -100.187393 7.268830 0.543282
-47.370758 -100.187157 6.086113 0.585138
-47.371586 -100.187439 4.912449 0.532357
-47.371330 -100.187355 3.744957 0.551324
-47.371326 -100.187347 2.581237 0.549111
-47.371326 -100.187347 1.418763 0.527459
-47.371326 -100.187347 0.255042 0.517647
-34.513187 -95.858765 0.200018 0.712322
-30.184822 -94.401657 -0.000007 0.337987
-26.486458 -93.156631 0.000000 0.333837
-24.125404 -92.361801 0.000001 0.335088
-22.484365 -91.809357 0.000006 0.339330
-21.275379 -91.402367 -0.000004 0.348028
nan nan nan 0.000000
nan nan nan 0.000000
-47.434914 -99.947220 8.460163 0.450980
-47.371105 -99.926239 7.256549 0.563180
-47.371685 -99.926430 6.076743 0.553918
-47.371296 -99.926300 4.905667 0.555932
-47.371326 -99.926315 3.740908 0.558663
-47.371330 -99.926315 2.579888 0.534905
-47.371330 -99.926315 1.420112 0.560967
-47.371326 -99.926315 0.259091 0.584634
-34.561584 -95.713348 0.200017 0.702480
-30.223091 -94.286476 -0.000000 0.337575
-26.516178 -93.067314 0.000001 0.337133
-24.149632 -92.288994 0.000002 0.341756
-22.504778 -91.748016 0.000006 0.343984
-21.292976 -91.349472 -0.000004 0.327016
nan nan nan 0.000000
nan nan nan 0.000000
-47.453171 -99.692757 8.449009 0.347295
-47.370766 -99.666290 7.244583 0.557351
-47.371212 -99.666435 6.067446 0.555764
-47.371540 -99.666534 4.899101 0.579782
-47.371323 -99.666466 3.736962 0.540871
-47.371334 -99.666473 2.578575 0.517769
-47.371334 -99.666473 1.421426 0.543267
-47.371323 -99.666466 0.263037 0.589883
-34.608929 -95.567589 0.200020 0.698665
-30.260612 -94.171051 -0.000001 0.338277
-26.545271 -92.977798 0.000001 0.340124
-24.173351 -92.216011 0.000001 0.340612
-22.524757 -91.686539 0.000006 0.337591
-21.310205 -91.296463 -0.000003 0.308461
nan nan nan 0.000000
nan nan nan 0.000000
-47.497639 -99.447388 8.443216 0.386786
-47.370445 -99.407516 7.232927 0.595834
-47.370750 -99.407608 6.058389 0.531685
-47.371273 -99.407768 4.892663 0.549020
-47.371330 -99.407791 3.733119 0.543145
-47.371326 -99.407791 2.577294 0.549020
-47.371326 -99.407791 1.422706 0.550118
-47.371334 -99.407791 0.266880 0.578927
-34.655243 -95.421501 0.200023 0.700420
-30.297318 -94.055359 -0.000000 0.339315
-26.573742 -92.888077 0.000001 0.336278
-24.196560 -92.142868 0.000002 0.339330
-22.544312 -91.624916 0.000006 0.332464
-21.327066 -91.243332 -0.000004 0.336507
nan nan nan 0.000000
nan nan nan 0.000000
-47.542114 -99.202477 8.437766 0.446571
-47.372368 -99.150566 7.221925 0.562036
-47.371662 -99.150345 6.049736 0.529046
-47.371510 -99.150299 4.886436 0.569223
-47.371330 -99.150246 3.729376 0.549020
-47.371326 -99.150246 2.576047 0.521752
-47.371326 -99.150246 1.423953 0.555886
-47.371330 -99.150246 0.270623 0.556954
-34.700584 -95.275108 0.200022 0.694911
-30.333229 -93.939423 -0.000002 0.341176
-26.601582 -92.798164 0.000001 0.337118
-24.219261 -92.069572 0.000001 0.343679
-22.563435 -91.563164 0.000006 0.337560
-21.343554 -91.190079 -0.000003 0.337026
nan nan nan 0.000000
nan nan nan 0.000000
-47.586617 -98.957993 8.432657 0.390829
-47.372078 -98.894012 7.210881 0.540642
-47.371227 -98.893761 6.041154 0.556863
-47.371258 -98.893768 4.880335 0.550515
-47.371330 -98.893791 3.725734 0.517647
-47.371323 -98.893791 2.574834 0.540688
-47.371330 -98.893791 1.425167 0.566918
-47.371330 -98.893791 0.274265 0.586999
-34.744923 -95.128410 0.200019 0.703182
-30.368320 -93.823235 -0.000002 0.339452
-26.628792 -92.708054 0.000002 0.335958
-24.241444 -91.996109 0.000002 0.336812
-22.582123 -91.501274 0.000007 0.333776
-21.359667 -91.136719 -0.000003 0.348074
nan nan nan 0.000000
nan nan nan 0.000000
-47.631180 -98.713928 8.427893 0.416281
-47.371807 -98.638550 7.200140 0.590494
-47.370800 -98.638260 6.032804 0.550423
-47.371490 -98.638458 4.874442 0.547799
-47.371330 -98.638412 3.722190 0.524514
-47.371330 -98.638405 2.573653 0.539651
-47.371330 -98.638405 1.426347 0.566903
-47.371334 -98.638412 0.277809 0.577554
-34.788288 -94.981415 0.200013 0.697993
-30.402607 -93.706810 -0.000002 0.339635
-26.655380 -92.617760 0.000002 0.330571
-24.263119 -91.922501 0.000002 0.342489
-22.600384 -91.439262 0.000006 0.335683
-21.375410 -91.083244 -0.000003 0.332891
nan nan nan 0.000000
nan nan nan 0.000000
-48.099487 -98.590179 8.503592 0.409751
-47.651066 -98.463242 7.232789 0.578897
-47.651276 -98.463303 6.058270 0.550851
-47.649765 -98.462875 4.892404 0.563546
-47.371353 -98.384056 3.718746 0.531624
-47.371342 -98.384056 2.572505 0.551476
-47.371346 -98.384056 1.427494 0.544030
-47.371353 -98.384056 0.281254 0.601053
-34.830563 -94.834106 0.200011 0.707698
-30.436119 -93.590157 -0.000008 0.333654
-26.681332 -92.527275 0.000002 0.336599
-24.284275 -91.848740 0.000002 0.339040
-22.618206 -91.377121 0.000007 0.339330
-21.390779 -91.029663 -0.000003 0.347051
nan nan nan 0.000000
nan nan nan 0.000000
-49.382309 -98.684830 8.733040 0.387030
-48.383060 -98.409485 7.335222 0.726818
-48.383064 -98.409485 6.137688 0.708186
-48.383064 -98.409485 4.949137 0.753628
-47.755501 -98.236565 3.734973 0.732479
-48.058098 -98.319946 2.583048 0.721767
-48.058086 -98.319939 1.416952 0.677333
-48.058086 -98.319939 0.249607 0.707103
-34.871746 -94.686485 0.200015 0.704402
-30.468769 -93.473259 -0.000008 0.337316
-26.706650 -92.436623 0.000002 0.336263
-24.304918 -91.774826 0.000002 0.337774
-22.635597 -91.314850 0.000007 0.328695
-21.405771 -90.975983 -0.000002 0.342901
nan nan nan 0.000000
nan nan nan 0.000000
-50.736263 -98.780304 8.975332 0.393561
-49.552471 -98.462982 7.504698 0.582315
-49.700897 -98.502769 6.286799 0.709804
-49.609673 -98.478317 5.047674 0.692927
-48.541641 -98.192032 3.771668 0.828412
-49.080574 -98.336494 2.599265 0.679408
-49.080555 -98.336487 1.400736 0.678431
-49.080559 -98.336487 0.200921 0.680400
-34.911892 -94.538582 0.200019 0.713558
-30.500607 -93.356140 -0.000009 0.337530
-26.731340 -92.345787 0.000002 0.332937
-24.325043 -91.700775 0.000002 0.336690
-22.652552 -91.252472 0.000007 0.329229
-21.420391 -90.922188 -0.000002 0.333944
nan nan nan 0.000000
nan nan nan 0.000000
-52.191830 -98.883034 9.236167 0.385336
-50.425591 -98.422783 7.628390 0.696590
-50.824497 -98.526733 6.412473 0.708949
-50.379578 -98.410789 5.107291 0.688792
-50.211842 -98.367081 3.853194 0.826871
-50.094383 -98.336479 2.615303 0.678264
-50.094517 -98.336510 1.384694 0.678431
-49.985054 -98.307983 0.158319 0.700832
-34.951042 -94.390411 0.200020 0.696376
-30.531631 -93.238800 -0.000010 0.339300
-26.755392 -92.254784 0.000002 0.339971
-24.344650 -91.626587 0.000002 0.333364
-22.669071 -91.189964 0.000007 0.340581
-21.434635 -90.868294 -0.000002 0.341909
nan nan nan 0.000000
nan nan nan 0.000000
-53.764679 -98.994789 9.518419 0.357137
-51.352360 -98.384132 7.760115 0.726787
-51.391838 -98.394127 6.471894 0.690196
-51.663643 -98.462929 5.210334 0.552056
-51.087330 -98.317047 3.894240 0.820478
-51.164104 -98.336479 2.632258 0.678431
-51.445572 -98.407730 1.362991 0.678431
-51.268532 -98.362915 0.096577 0.159365
-34.989155 -94.241974 0.200022 0.725460
-30.561878 -93.121254 -0.000016 0.340612
-26.778807 -92.163612 0.000003 0.344656
-24.363741 -91.552269 0.000002 0.337133
-22.685154 -91.127350 0.000008 0.340612
-21.448503 -90.814308 -0.000002 0.336583
nan nan nan 0.000000
nan nan nan 0.000000
-58.587189 -99.882736 10.408929 0.519219
-52.809860 -98.463112 7.972724 0.554238
-53.076721 -98.528694 6.663710 0.776471
-52.548775 -98.398964 5.279483 0.579858
-52.195377 -98.312126 3.946999 0.827451
-52.316425 -98.341866 2.650576 0.836942
-52.316425 -98.341866 1.349424 0.834775
-52.316422 -98.341866 0.046878 0.829908
-35.026234 -94.093269 0.200022 0.704875
-30.591251 -93.003494 -0.000016 0.336721
-26.801586 -92.072281 0.000003 0.336400
-24.382309 -91.477814 0.000003 0.339040
-22.700798 -91.064629 0.000008 0.340505
-21.461990 -90.760223 -0.000001 0.337194
nan nan nan 0.000000
nan nan nan 0.000000
-58.587177 -99.551071 10.394730 0.577966
-54.023460 -98.463387 8.147704 0.542016
-54.200340 -98.505539 6.788718 0.705699
-54.085934 -98.478271 5.403517 0.678431
-53.605808 -98.363846 4.014942 0.821424
-53.490913 -98.336456 2.669235 0.678431
-53.490982 -98.336479 1.330764 0.678431
-53.308971 -98.293098 0.000048 0.538323
-35.062313 -93.944321 0.200020 0.723247
-30.619808 -92.885529 -0.000016 0.338964
-26.823727 -91.980797 0.000003 0.339940
-24.400360 -91.403229 0.000003 0.329030
-22.716024 -91.001793 0.000003 0.343969
-21.475101 -90.706047 -0.000001 0.323278
nan nan nan 0.000000
nan nan nan 0.000000
-58.587185 -99.220505 10.380988 0.468009
-58.587181 -99.220505 8.832428 0.608515
-54.912907 -98.371872 6.865012 0.686946
-55.306782 -98.462837 5.500685 0.563928
-54.885517 -98.365540 4.076167 0.819745
-54.759777 -98.336494 2.689450 0.680720
-54.759697 -98.336479 1.310551 0.681636
-53.373886 -98.016403 0.000049 0.540307
-35.097366 -93.795128 0.200016 0.694408
-30.647537 -92.767365 -0.000017 0.336858
-26.845230 -91.889160 0.000003 0.337774
-24.417889 -91.328522 0.000003 0.332036
-22.730795 -90.938858 0.000003 0.336675
-21.487837 -90.651779 -0.000001 0.334127
nan nan nan 0.000000
nan nan nan 0.000000
-58.587185 -98.890999 10.367701 0.459052
-58.587185 -98.890999 8.821594 0.528786
-58.587189 -98.891006 7.290430 0.490059
-58.587185 -98.890999 5.770756 0.585855
-58.587189 -98.890999 4.259218 0.552453
-58.587185 -98.890999 2.752534 0.452689
-58.587189 -98.890999 1.247465 0.531106
-53.436878 -97.739258 0.000048 0.537270
-35.131420 -93.645706 0.200009 0.715709
-30.674450 -92.649017 -0.000018 0.332830
-26.866091 -91.797371 0.000003 0.339117
-24.434898 -91.253693 0.000003 0.341421
-22.745129 -90.875816 0.000002 0.326848
-21.500191 -90.597420 -0.000001 0.340169
nan nan nan 0.000000
-46.518494 -95.951996 9.250229 0.672709
-46.518494 -95.951996 8.108103 0.649149
-46.518494 -95.951996 6.979505 0.636942
-46.518486 -95.951996 5.861813 0.657404
-46.518490 -95.951996 4.752508 0.647242
-46.518490 -95.951996 3.649143 0.653971
-46.518494 -95.951996 2.549322 0.636698
-46.518494 -95.951996 1.450678 0.654414
-46.518486 -95.951996 0.350857 0.649470
-35.164406 -93.496040 0.200004 0.685786
-30.700523 -92.530472 -0.000018 0.338354
-26.886314 -91.705437 0.000003 0.335439
-24.451382 -91.178749 0.000003 0.333043
-22.759014 -90.812683 0.000002 0.335088
-21.512163 -90.542976 -0.000000 0.340642
nan nan nan 0.000000
-46.518501 -95.712585 9.239475 0.679026
-46.518494 -95.712578 8.099042 0.655879
-46.518497 -95.712578 6.972118 0.647578
-46.518494 -95.712578 5.856085 0.679805
-46.518494 -95.712578 4.748425 0.674678
-46.518494 -95.712578 3.646697 0.669093
-46.518494 -95.712578 2.548507 0.662654
-46.518494 -95.712578 1.451493 0.661830
-46.518494 -95.712578 0.353303 0.671717
-35.196281 -93.346138 0.200003 0.721843
-30.725796 -92.411766 -0.000022 0.336095
-26.905890 -91.613373 0.000003 0.337774
-24.467340 -91.103691 0.000003 0.336126
-22.772455 -90.749443 0.000004 0.331441
-21.523756 -90.488457 0.000000 0.324041
nan nan nan 0.000000
-46.518494 -95.473854 9.229101 0.654536
-46.518494 -95.473854 8.090305 0.664759
-46.518494 -95.473854 6.964993 0.631571
-46.518494 -95.473854 5.850560 0.665858
-46.518501 -95.473862 4.744487 0.690547
-46.518497 -95.473862 3.644338 0.637186
-46.518490 -95.473854 2.547721 0.660349
-46.518490 -95.473854 1.452279 0.648737
-46.518494 -95.473854 0.355662 0.664851
-35.227047 -93.195999 0.200009 0.696178
-30.750210 -92.292870 -0.000021 0.340459
-26.924824 -91.521164 0.000003 0.330785
-24.482779 -91.028526 0.000003 0.336721
-22.785446 -90.686119 0.000006 0.337591
-21.534969 -90.433853 0.000000 0.335271
nan nan nan 0.000000
-46.518497 -95.235809 9.219110 0.698848
-46.518494 -95.235809 8.081886 0.650431
-46.518497 -95.235809 6.958131 0.622583
-46.518497 -95.235809 5.845238 0.680415
-46.518497 -95.235809 4.740694 0.669367
-46.518494 -95.235809 3.642065 0.656825
-46.518494 -95.235809 2.546964 0.654521
-46.518490 -95.235809 1.453036 0.702419
-46.518494 -95.235809 0.357934 0.661067
-35.256775 -93.045654 0.200014 0.722301
-30.773796 -92.173813 -0.000021 0.337346
-26.943119 -91.428833 0.000003 0.333883
-24.497692 -90.953255 0.000003 0.336034
-22.798012 -90.622704 0.000006 0.326986
-21.545801 -90.379173 0.000000 0.330343
-46.973614 -95.083618 10.477361 0.680751
-46.518497 -94.998398 9.209497 0.659663
-46.518490 -94.998398 8.073788 0.671839
-46.518494 -94.998398 6.951529 0.665431
-46.518497 -94.998398 5.840117 0.682414
-46.518494 -94.998405 4.737044 0.666117
-46.518497 -94.998398 3.639879 0.655818
-46.518497 -94.998398 2.546236 0.689403
-46.518494 -94.998398 1.453764 0.655848
-46.518497 -94.998398 0.360121 0.678386
-35.285446 -92.895103 0.200019 0.702647
-30.796551 -92.054596 -0.000021 0.337713
-26.960760 -91.336372 0.000004 0.340627
-24.512077 -90.877876 0.000003 0.333684
-22.810133 -90.559196 0.000006 0.335531
-21.556252 -90.324417 0.000000 0.342245
-46.992958 -94.847038 10.471424 0.774212
-46.518501 -94.761620 9.200263 0.657145
-46.518490 -94.761620 8.066006 0.677378
-46.518494 -94.761620 6.945186 0.677806
-46.518494 -94.761620 5.835197 0.676738
-46.518494 -94.761620 4.733538 0.631388
-46.518497 -94.761620 3.637777 0.661311
-46.518494 -94.761620 2.545536 0.654383
-46.518494 -94.761620 1.454464 0.661311
-46.518494 -94.761620 0.362222 0.685100
-35.375450 -92.755592 0.194826 0.673320
-30.818466 -91.935219 -0.000021 0.339254
-26.977758 -91.243790 0.000004 0.333837
-24.525932 -90.802399 0.000004 0.335363
-22.821808 -90.495613 0.000006 0.337011
-21.566317 -90.269600 0.000001 0.334722
-46.984310 -94.605934 10.458799 0.762875
-46.518497 -94.525429 9.191399 0.695918
-46.518490 -94.525429 8.058538 0.672129
-46.518490 -94.525429 6.939098 0.653590
-46.518494 -94.525429 5.830477 0.689265
-46.518501 -94.525429 4.730174 0.670832
-46.518497 -94.525429 3.635761 0.662928
-46.518494 -94.525429 2.544865 0.667292
-46.518494 -94.525429 1.455136 0.683558
-46.518497 -94.525429 0.364238 0.640742
-35.557571 -92.631088 0.181894 0.757717
-30.839550 -91.815689 -0.000020 0.337255
-26.994118 -91.151093 0.000004 0.335698
-24.539267 -90.726830 0.000004 0.328420
-22.833046 -90.431953 0.000005 0.334279
-21.576002 -90.214699 0.000001 0.329152
-46.976021 -94.365601 10.446707 0.776440
-46.518497 -94.289810 9.182907 0.647059
-46.518501 -94.289810 8.051388 0.666316
-46.518497 -94.289810 6.933267 0.694224
-46.518494 -94.289810 5.825953 0.670405
-46.518497 -94.289810 4.726950 0.660883
-46.518497 -94.289810 3.633831 0.638865
-46.518497 -94.289810 2.544221 0.658763
-46.518497 -94.289810 1.455779 0.649119
-46.518497 -94.289810 0.366170 0.669429
-35.742683 -92.504852 0.168656 0.683192
-30.859798 -91.696022 -0.000020 0.335546
-27.009821 -91.058289 0.000004 0.338476
-24.552071 -90.651176 0.000004 0.338247
-22.843830 -90.368210 0.000005 0.342702
-21.585302 -90.159744 0.000001 0.349081
-46.968102 -94.125984 10.435147 0.760479
-46.518494 -94.054733 9.174784 0.662287
-46.518494 -94.054733 8.044544 0.620127
-46.518494 -94.054733 6.927688 0.675151
-46.518494 -94.054733 5.821628 0.683162
-46.518494 -94.054733 4.723866 0.679011
-46.518494 -94.054733 3.631982 0.655131
-46.518494 -94.054733 2.543605 0.653239
-46.518494 -94.054733 1.456394 0.667811
-46.518494 -94.054733 0.368017 0.658427
-35.930447 -92.376732 0.155139 0.694331
-30.879211 -91.576210 -0.000019 0.336034
-27.024876 -90.965370 0.000004 0.329519
-24.564342 -90.575424 0.000004 0.338338
-22.854176 -90.304398 0.000005 0.338811
-21.594219 -90.104713 0.000001 0.337652
-46.960537 -93.887070 10.424113 0.745434
-46.518497 -93.820175 9.167029 0.647059
-46.518494 -93.820175 8.038009 0.647425
-46.518494 -93.820175 6.922361 0.650919
-46.518494 -93.820175 5.817496 0.660105
-46.518501 -93.820175 4.720922 0.681971
-46.518494 -93.820175 3.630219 0.658747
-46.518494 -93.820175 2.543018 0.644953
-46.518490 -93.820175 1.456982 0.654948
-46.518494 -93.820175 0.369781 0.632715
-36.109634 -92.244980 0.142273 0.669322
-30.897789 -91.456268 -0.000019 0.338369
-27.039291 -90.872353 0.000003 0.329686
-24.576090 -90.499596 0.000004 0.334798
-22.864071 -90.240509 0.000005 0.321599
-21.602749 -90.049629 0.000002 0.342031
-46.953339 -93.648819 10.413608 0.746899
-46.518497 -93.586121 9.159641 0.634211
-46.518490 -93.586113 8.031784 0.647120
-46.518497 -93.586121 6.917287 0.617456
-46.518490 -93.586113 5.813561 0.652918
-46.518490 -93.586113 4.718117 0.684398
-46.518490 -93.586113 3.628537 0.665232
-46.518490 -93.586113 2.542458 0.681895
-46.518490 -93.586113 1.457541 0.647974
-46.518490 -93.586113 0.371462 0.676616
-36.290085 -92.111198 0.129238 0.673609
-30.915520 -91.336197 -0.000018 0.339651
-27.053047 -90.779236 0.000004 0.342885
-24.587303 -90.423683 0.000004 0.318776
-22.873522 -90.176559 0.000005 0.337118
-21.610897 -89.994492 0.000001 0.338552
-46.946491 -93.411194 10.403618 0.767254
-46.518497 -93.352524 9.152615 0.661845
-46.518494 -93.352524 8.025866 0.658106
-46.518494 -93.352524 6.912462 0.703273
-46.518494 -93.352524 5.809818 0.670512
-46.518494 -93.352524 4.715449 0.638056
-46.518494 -93.352524 3.626940 0.624262
-46.518494 -93.352524 2.541926 0.697047
-46.518494 -93.352524 1.458074 0.674220
-46.518494 -93.352524 0.373060 0.679332
-36.473019 -91.975502 0.115934 0.728115
-30.932415 -91.216003 -0.000017 0.339620
-27.066166 -90.686028 0.000002 0.335851
-24.597992 -90.347694 0.000004 0.340566
-22.882526 -90.112541 0.000004 0.330861
-21.618660 -89.939293 0.000002 0.322454
-46.940010 -93.174164 10.394152 0.782254
-46.518494 -93.119377 9.145948 0.667247
-46.518490 -93.119377 8.020249 0.663828
-46.518494 -93.119377 6.907885 0.675120
-46.518497 -93.119385 5.806269 0.657664
-46.518490 -93.119377 4.712919 0.672984
-46.518494 -93.119377 3.625423 0.623941
-46.518497 -93.119377 2.541421 0.707439
-46.518497 -93.119377 1.458579 0.649363
-46.518494 -93.119377 0.374575 0.686519
-36.651394 -91.836929 0.102941 0.696635
-30.948494 -91.095703 -0.000018 0.337331
-27.078608 -90.592728 0.000005 0.337591
-24.608149 -90.271629 0.000004 0.330388
-22.891083 -90.048462 0.000004 0.338003
-21.626036 -89.884041 0.000002 0.334432
-46.933868 -92.937698 10.385196 0.773632
-46.518494 -92.886658 9.139645 0.654475
-46.518497 -92.886658 8.014940 0.624643
-46.518497 -92.886658 6.903555 0.650141
-46.518497 -92.886658 5.802910 0.650217
-46.518494 -92.886658 4.710526 0.667124
-46.518494 -92.886658 3.623991 0.670649
-46.518494 -92.886658 2.540944 0.683436
-46.518494 -92.886658 1.459057 0.627207
-46.518494 -92.886658 0.376010 0.677348
-36.825027 -91.695526 0.090271 0.680720
-30.963707 -90.975288 -0.000017 0.338201
-27.090427 -90.499344 0.000003 0.341390
-24.617771 -90.195503 0.000005 0.337972
-22.899193 -89.984322 0.000004 0.337316
-21.633026 -89.828735 0.000002 0.339086
-46.928082 -92.701767 10.376753 0.612757
-46.518494 -92.654335 9.133698 0.681910
-46.518490 -92.654335 8.009928 0.654795
-46.518494 -92.654335 6.899470 0.618952
-46.518490 -92.654335 5.799742 0.697704
-46.518494 -92.654335 4.708268 0.663005
-46.518497 -92.654335 3.622637 0.642908
-46.518494 -92.654335 2.540493 0.672480
-46.518494 -92.654335 1.459507 0.678431
-46.518497 -92.654335 0.377362 0.660243
-37.001217 -91.552246 0.077318 0.710735
-30.978085 -90.854774 -0.000017 0.335866
-27.101583 -90.405876 0.000003 0.342016
-24.626865 -90.119308 0.000004 0.338323
-22.906853 -89.920128 0.000004 0.313741
-21.639633 -89.773392 0.000002 0.337957
-46.922653 -92.466331 10.368823 0.697475
-46.518494 -92.422386 9.128110 0.656748
-46.518497 -92.422386 8.005220 0.676310
-46.518494 -92.422386 6.895632 0.675120
-46.518501 -92.422386 5.796767 0.688685
-46.518501 -92.422386 4.706147 0.628397
-46.518494 -92.422386 3.621366 0.624994
-46.518494 -92.422386 2.540070 0.672511
-46.518494 -92.422386 1.459931 0.687144
-46.518494 -92.422386 0.378634 0.611765
-37.177700 -91.406769 0.064268 0.753063
-30.991615 -90.734154 -0.000016 0.334920
-27.112083 -90.312340 0.000003 0.331884
-24.635424 -90.043053 0.000005 0.336767
-22.914066 -89.855888 0.000004 0.340948
-21.645851 -89.717995 0.000002 0.338369
-46.917561 -92.231369 10.361396 0.719173
-46.518497 -92.190796 9.122879 0.665522
-46.518497 -92.190796 8.000813 0.651759
-46.518497 -92.190796 6.892037 0.663371
-46.518501 -92.190796 5.793980 0.677165
-46.518494 -92.190796 4.704159 0.677531
-46.518497 -92.190796 3.620176 0.617746
-46.518497 -92.190796 2.539673 0.667353
-46.518497 -92.190796 1.460327 0.672129
-46.518505 -92.190796 0.379823 0.638178
-37.346287 -91.258247 0.051795 0.677714
-31.004307 -90.613449 -0.000015 0.338308
-27.121929 -90.218727 0.000003 0.338277
-24.643454 -89.966736 0.000005 0.335988
-22.920832 -89.791595 0.000003 0.328603
-21.651684 -89.662560 0.000002 0.325383
-46.912811 -91.996841 10.354475 0.524590
-46.518505 -91.959526 9.118000 0.695979
-46.518490 -91.959526 7.996701 0.711803
-46.518494 -91.959526 6.888687 0.654902
-46.518497 -91.959534 5.791381 0.694194
-46.518490 -91.959526 4.702308 0.642893
-46.518490 -91.959526 3.619066 0.649973
-46.518494 -91.959526 2.539303 0.686687
-46.518494 -91.959526 1.460697 0.669688
-46.518497 -91.959526 0.380933 0.640833
-37.516972 -91.107780 0.039071 0.672877
-31.016155 -90.492661 -0.000015 0.339147
-27.131123 -90.125046 0.000003 0.337575
-24.650948 -89.890366 0.000005 0.340856
-22.927145 -89.727257 0.000003 0.340108
-21.657125 -89.607086 0.000003 0.309010
-46.908417 -91.762718 10.348057 0.544335
-46.518494 -91.728569 9.113472 0.643687
-46.518497 -91.728569 7.992890 0.687434
-46.518490 -91.728569 6.885579 0.667063
-46.518497 -91.728569 5.788970 0.684138
-46.518494 -91.728569 4.700589 0.665080
-46.518490 -91.728569 3.618037 0.614725
-46.518494 -91.728569 2.538960 0.669749
-46.518497 -91.728569 1.461040 0.694392
-46.518494 -91.728569 0.381963 0.657145
-37.690010 -90.955338 0.026075 0.740902
-31.027176 -90.371788 -0.000015 0.339757
-27.139664 -90.031303 0.000003 0.338247
-24.657909 -89.813950 0.000005 0.333883
-22.933014 -89.662872 0.000003 0.335088
-21.662184 -89.551575 0.000003 0.338003
-46.904354 -91.528969 10.342140 0.562203
-46.518501 -91.497887 9.109301 0.682826
-46.518490 -91.497887 7.989373 0.677577
-46.518494 -91.497887 6.882713 0.665873
-46.518497 -91.497887 5.786748 0.676921
-46.518497 -91.497887 4.699005 0.675349
-46.518494 -91.497887 3.617087 0.652644
-46.518494 -91.497887 2.538645 0.676448
-46.518494 -91.497887 1.461356 0.677104
-46.518501 -91.497887 0.382912 0.653452
-37.855011 -90.800026 0.013660 0.722881
-31.037334 -90.250839 -0.000014 0.335225
-27.147549 -89.937508 0.000003 0.336049
-24.664333 -89.737480 0.000005 0.337057
-22.938427 -89.598457 0.000003 0.336385
-21.666853 -89.496025 0.000003 0.339208
nan nan nan 0.000000
nan nan nan 0.000000
nan nan nan 0.000000
nan nan nan 0.000000
nan nan nan 0.000000
nan nan nan 0.000000
nan nan nan 0.000000
nan nan nan 0.000000
nan nan nan 0.000000
26.892574 -85.869568 0.000028 0.541924
10.617572 -87.066261 0.000016 0.548150
3.630052 -87.580055 0.000011 0.531579
-0.261642 -87.866211 0.000008 0.539696
-2.746158 -88.048897 0.000005 0.522835
-4.473001 -88.175873 0.000005 0.566705
-5.745255 -88.269417 0.000003 0.545724
nan nan nan 0.000000
nan nan nan 0.000000
nan nan nan 0.000000
nan nan nan 0.000000
nan nan nan 0.000000
nan nan nan 0.000000
nan nan nan 0.000000
nan nan nan 0.000000
nan nan nan 0.000000
26.912422 -86.153084 0.000028 0.543343
10.629464 -87.236130 0.000016 0.528496
3.638528 -87.701126 0.000011 0.529015
-0.255067 -87.960106 0.000008 0.503105
-2.740802 -88.125450 0.000006 0.494743
-4.468484 -88.240364 0.000005 0.547677
-5.741363 -88.325027 0.000003 0.512062
nan nan nan 0.000000
nan nan nan 0.000000
nan nan nan 0.000000
nan nan nan 0.000000
nan nan nan 0.000000
nan nan nan 0.000000
nan nan nan 0.000000
nan nan nan 0.000000
nan nan nan 0.000000
26.930283 -86.436737 0.000028 0.532509
10.640176 -87.406082 0.000016 0.536767
3.646157 -87.822258 0.000011 0.511818
-0.249149 -88.054054 0.000008 0.571328
-2.735977 -88.202034 0.000006 0.560189
-4.464419 -88.304886 0.000005 0.534707
-5.737858 -88.380661 0.000003 0.558511
nan nan nan 0.000000
nan nan nan 0.000000
nan nan nan 0.000000
nan nan nan 0.000000
nan nan nan 0.000000
nan nan nan 0.000000
nan nan nan 0.000000
nan nan nan 0.000000
nan nan nan 0.000000
26.946182 -86.720497 0.000028 0.543694
10.649692 -87.576096 0.000016 0.546807
3.652942 -87.943443 0.000011 0.557702
-0.243888 -88.148033 0.000008 0.531411
-2.731686 -88.278648 0.000006 0.547951
-4.460804 -88.369431 0.000005 0.577554
-5.734742 -88.436310 0.000004 0.512215
nan nan nan 0.000000
nan nan nan 0.000000
nan nan nan 0.000000
nan nan nan 0.000000
nan nan nan 0.000000
nan nan nan 0.000000
nan nan nan 0.000000
nan nan nan 0.000000
nan nan nan 0.000000
26.960075 -87.004372 0.000029 0.536294
10.658025 -87.746178 0.000016 0.537911
3.658889 -88.064667 0.000011 0.536843
-0.239281 -88.242050 0.000008 0.560235
-2.727933 -88.355293 0.000006 0.564569
-4.457640 -88.433998 0.000005 0.544854
-5.732013 -88.491989 0.000003 0.556939
nan nan nan 0.000000
nan nan nan 0.000000
nan nan nan 0.000000
nan nan nan 0.000000
nan nan nan 0.000000
nan nan nan 0.000000
nan nan nan 0.000000
nan nan nan 0.000000
nan nan nan 0.000000
26.972008 -87.288330 0.000028 0.535515
10.665172 -87.916313 0.000016 0.533578
3.663983 -88.185928 0.000011 0.528572
-0.235331 -88.336090 0.000008 0.548196
-2.724711 -88.431961 0.000006 0.554437
-4.454928 -88.498589 0.000005 0.545174
-5.729674 -88.547676 0.000004 0.538003
nan nan nan 0.000000
nan nan nan 0.000000
nan nan nan 0.000000
nan nan nan 0.000000
nan nan nan 0.000000
nan nan nan 0.000000
nan nan nan 0.000000
nan nan nan 0.000000
nan nan nan 0.000000
26.981945 -87.572372 0.000028 0.539803
10.671126 -88.086494 0.000017 0.542641
3.668225 -88.307228 0.000011 0.543526
-0.232037 -88.430161 0.000008 0.540017
-2.722027 -88.508644 0.000006 0.531228
-4.452665 -88.563194 0.000005 0.512901
-5.727724 -88.603386 0.000004 0.544564
nan nan nan 0.000000
nan nan nan 0.000000
nan nan nan 0.000000
nan nan nan 0.000000
nan nan nan 0.000000
nan nan nan 0.000000
nan nan nan 0.000000
nan nan nan 0.000000
nan nan nan 0.000000
26.989902 -87.856468 0.000029 0.540566
10.675893 -88.256706 0.000017 0.536995
3.671628 -88.428543 0.000011 0.535897
-0.229399 -88.524254 0.000008 0.550637
-2.719874 -88.585350 0.000006 0.543694
-4.450854 -88.627823 0.000005 0.504997
-5.726164 -88.659111 0.000004 0.574075
nan nan nan 0.000000
nan nan nan 0.000000
nan nan nan 0.000000
nan nan nan 0.000000
nan nan nan 0.000000
nan nan nan 0.000000
nan nan nan 0.000000
nan nan nan 0.000000
nan nan nan 0.000000
26.995884 -88.140617 0.000029 0.540337
10.679473 -88.426956 0.000017 0.542428
3.674178 -88.549889 0.000011 0.536934
-0.227418 -88.618362 0.000008 0.554788
-2.718261 -88.662071 0.000006 0.552956
-4.449494 -88.692451 0.000005 0.557824
-5.724990 -88.714836 0.000004 0.541207
nan nan nan 0.000000
nan nan nan 0.000000
nan nan nan 0.000000
nan nan nan 0.000000
nan nan nan 0.000000
nan nan nan 0.000000
nan nan nan 0.000000
nan nan nan 0.000000
nan nan nan 0.000000
26.999870 -88.424805 0.000029 0.537758
10.681869 -88.597221 0.000017 0.559594
3.675887 -88.671249 0.000011 0.545388
-0.226095 -88.712479 0.000008 0.554406
-2.717185 -88.738800 0.000006 0.575814
-4.448586 -88.757095 0.000005 0.574639
-5.724207 -88.770576 0.000004 0.538293
nan nan nan 0.000000
nan nan nan 0.000000
nan nan nan 0.000000
nan nan nan 0.000000
nan nan nan 0.000000
nan nan nan 0.000000
nan nan nan 0.000000
nan nan nan 0.000000
nan nan nan 0.000000
27.001862 -88.709007 0.000030 0.550240
10.683080 -88.767502 0.000017 0.532280
3.676745 -88.792618 0.000011 0.551492
-0.225430 -88.806602 0.000008 0.552346
-2.716640 -88.815536 0.000006 0.504952
-4.448129 -88.821739 0.000005 0.567788
-5.723811 -88.826317 0.000004 0.504143
nan nan nan 0.000000
nan nan nan 0.000000
nan nan nan 0.000000
nan nan nan 0.000000
nan nan nan 0.000000
nan nan nan 0.000000
nan nan nan 0.000000
nan nan nan 0.000000
nan nan nan 0.000000
27.001896 -88.993217 0.000030 0.537896
10.683089 -88.937790 0.000017 0.534051
3.676749 -88.913986 0.000012 0.531884
-0.225424 -88.900734 0.000009 0.556573
-2.716635 -88.892273 0.000007 0.531884
-4.448123 -88.886391 0.000005 0.521218
-5.723806 -88.882057 0.000004 0.501518
nan nan nan 0.000000
nan nan nan 0.000000
nan nan nan 0.000000
nan nan nan 0.000000
nan nan nan 0.000000
nan nan nan 0.000000
nan nan nan 0.000000
nan nan nan 0.000000
nan nan nan 0.000000
26.999939 -89.277420 0.000030 0.548012
10.681918 -89.108063 0.000017 0.547112
3.675914 -89.035355 0.000012 0.527352
-0.226070 -88.994858 0.000008 0.520516
-2.717163 -88.969002 0.000006 0.525795
-4.448569 -88.951035 0.000005 0.536614
-5.724190 -88.937798 0.000004 0.552987
nan nan nan 0.000000
nan nan nan 0.000000
nan nan nan 0.000000
nan nan nan 0.000000
nan nan nan 0.000000
nan nan nan 0.000000
nan nan nan 0.000000
nan nan nan 0.000000
nan nan nan 0.000000
26.995998 -89.561600 0.000030 0.539223
10.679545 -89.278328 0.000017 0.549355
3.674232 -89.156715 0.000012 0.553170
-0.227375 -89.088974 0.000008 0.527626
-2.718227 -89.045731 0.000006 0.543969
-4.449464 -89.015678 0.000005 0.528359
-5.724964 -88.993530 0.000004 0.554208
nan nan nan 0.000000
nan nan nan 0.000000
nan nan nan 0.000000
nan nan nan 0.000000
nan nan nan 0.000000
nan nan nan 0.000000
nan nan nan 0.000000
nan nan nan 0.000000
nan nan nan 0.000000
26.990074 -89.845757 0.000030 0.540658
10.676002 -89.448578 0.000017 0.532204
3.671702 -89.278053 0.000012 0.510719
-0.229342 -89.183083 0.000009 0.539788
-2.719829 -89.122452 0.000007 0.531884
-4.450813 -89.080307 0.000005 0.552331
-5.726127 -89.049263 0.000004 0.553399
nan nan nan 0.000000
nan nan nan 0.000000
nan nan nan 0.000000
nan nan nan 0.000000
nan nan nan 0.000000
nan nan nan 0.000000
nan nan nan 0.000000
nan nan nan 0.000000
nan nan nan 0.000000
26.982151 -90.129852 0.000031 0.542565
10.671264 -89.618797 0.000017 0.534432
3.668324 -89.399384 0.000012 0.543389
-0.231960 -89.277176 0.000009 0.560479
-2.721963 -89.199158 0.000007 0.572366
-4.452613 -89.144936 0.000005 0.558358
-5.727677 -89.104980 0.000004 0.517388
nan nan nan 0.000000
nan nan nan 0.000000
nan nan nan 0.000000
nan nan nan 0.000000
nan nan nan 0.000000
nan nan nan 0.000000
