# This PCD file was generated using the MATLABÂ® pcwrite function
# from Computer Vision ToolboxÂ®.
# .PCD v.7 - Point Cloud Data file format
VERSION .7
FIELDS x y z intensity
SIZE 4 4 4 4
TYPE F F F F
COUNT 1 1 1 1
WIDTH 1238
HEIGHT 1
VIEWPOINT 0 0 0 1 0 0 0
POINTS 1238
DATA ascii
-45.096428 -114.190948 4.961658 0.649042
-45.096424 -114.190948 4.296889 0.629236
-45.096428 -114.190948 3.637109 0.622324
-45.096359 -114.190933 2.980857 0.650339
-45.096489 -114.190956 2.326721 0.611872
-45.096634 -114.190971 1.673276 0.703655
-45.096786 -114.190987 1.019121 0.655085
-45.096924 -114.191010 0.362850 0.613687
-42.535065 -113.874939 0.000005 0.549249
-38.662209 -113.397118 0.000004 0.542733
-36.189716 -113.092072 0.000003 0.536767
-34.471241 -112.880058 0.000003 0.532540
-33.205143 -112.723854 0.000003 0.570642
-46.303341 -114.190979 7.301364 0.643046
-46.303211 -114.190964 6.571007 0.635065
-46.303139 -114.190956 5.850924 0.639261
-46.303131 -114.190956 5.139387 0.645533
-46.303131 -114.190948 4.434724 0.651652
-46.303139 -114.190956 3.735351 0.630747
-46.302975 -114.190933 3.039713 0.673304
-46.302826 -114.190918 2.346321 0.637507
-46.302662 -114.190895 1.653682 0.641962
-46.302513 -114.190880 0.960309 0.621546
-46.302460 -114.190872 0.264704 0.648219
-42.549507 -113.754425 0.000006 0.541787
-38.673405 -113.303658 0.000004 0.529702
-36.198845 -113.015884 0.000004 0.547280
-34.478931 -112.815865 0.000003 0.495186
-33.211777 -112.668503 0.000003 0.543328
-47.664131 -114.190979 7.640079 0.636423
-47.664124 -114.190979 6.863088 0.648936
-47.664009 -114.190964 6.096987 0.630167
-47.664013 -114.190964 5.339984 0.635599
-47.664009 -114.190964 4.590296 0.640497
-47.664009 -114.190964 3.846234 0.632517
-47.663826 -114.190941 3.106147 0.638071
-47.663361 -114.190895 2.368444 0.622141
-47.662762 -114.190826 1.631565 0.644800
-47.662445 -114.190788 0.893921 0.637858
-47.662445 -114.190788 0.153894 0.626963
-42.563103 -113.633820 0.000006 0.519142
-38.683952 -113.210129 0.000004 0.560922
-36.207443 -112.939629 0.000003 0.515190
-34.486176 -112.751625 0.000003 0.546822
-33.218021 -112.613113 0.000003 0.553597
-49.719135 -114.242912 8.153351 0.111650
-49.842144 -114.255478 7.332357 0.678431
-49.309238 -114.201035 6.394883 0.746090
-49.210609 -114.190956 5.568130 0.623652
-49.842152 -114.255478 4.840265 0.678431
-49.309299 -114.201042 3.980481 0.770672
-49.210541 -114.190948 3.181712 0.621576
-49.209850 -114.190880 2.393611 0.653223
-49.208939 -114.190788 1.606404 0.634211
-49.208939 -114.190788 0.818366 0.634897
-49.208935 -114.190788 0.027791 0.660395
-42.575859 -113.513123 0.000006 0.545937
-38.693848 -113.116516 0.000004 0.536828
-36.215508 -112.863319 0.000003 0.527214
-34.492973 -112.687340 0.000003 0.554437
-33.223881 -112.557678 0.000003 0.544396
-50.983780 -114.190926 8.467319 0.642893
-50.983784 -114.190926 7.576370 0.649546
-50.983780 -114.190926 6.697925 0.655421
-50.983788 -114.190926 5.829887 0.628229
-50.983795 -114.190926 4.970239 0.631510
-50.983795 -114.190926 4.117038 0.647272
-50.983849 -114.190933 3.268409 0.630610
-51.089886 -114.201019 2.424244 0.740429
-51.346954 -114.225471 1.571530 0.135195
-51.242119 -114.215500 0.718845 0.155413
-49.562725 -114.055763 0.000008 0.538766
-42.587776 -113.392342 0.000005 0.535821
-38.703087 -113.022842 0.000004 0.538888
-36.223042 -112.786957 0.000003 0.505257
-34.499313 -112.623001 0.000003 0.552254
-33.229355 -112.502205 0.000002 0.580179
-53.038383 -114.190941 8.979831 0.635386
-53.771080 -114.255478 8.177135 0.678431
-53.771088 -114.255478 7.204052 0.678431
-53.038383 -114.190941 6.133389 0.679713
-53.771080 -114.255470 5.290231 0.678431
-53.771088 -114.255478 4.345114 0.678431
-53.038406 -114.190941 3.368923 0.637247
-53.038628 -114.190964 2.455986 0.653651
-53.038246 -114.190926 1.544021 0.624918
-53.037865 -114.190895 0.631104 0.657877
-49.578262 -113.886192 0.000008 0.542565
-42.598846 -113.271477 0.000005 0.544594
-38.711670 -112.929108 0.000004 0.515404
-36.230042 -112.710541 0.000003 0.547234
-34.505215 -112.558624 0.000003 0.560510
-33.234436 -112.446701 0.000002 0.503044
-55.446381 -114.190926 9.580862 0.643000
-55.446526 -114.190933 8.536536 0.632593
-55.446663 -114.190948 7.506863 0.647990
-55.446804 -114.190956 6.489376 0.653056
-55.446938 -114.190971 5.481714 0.631907
-55.447075 -114.190979 4.481604 0.636423
-55.447105 -114.190987 3.486835 0.646586
-55.446289 -114.190918 2.495245 0.652796
-55.446152 -114.190903 1.504758 0.639933
-55.446392 -114.190926 0.513200 0.628733
-49.592613 -113.716515 0.000008 0.533120
-42.609074 -113.150536 0.000005 0.532906
-38.719604 -112.835320 0.000004 0.546334
-36.236511 -112.634079 0.000003 0.514870
-34.510658 -112.494202 0.000003 0.537209
-33.239136 -112.391159 0.000002 0.552590
-55.780075 -114.003761 9.660573 0.639429
-55.780075 -114.003761 8.605236 0.651179
-55.780079 -114.003761 7.564716 0.659388
-55.780079 -114.003761 6.536520 0.657710
-55.780087 -114.003761 5.518261 0.619852
-55.780083 -114.003761 4.507640 0.647059
-55.780090 -114.003761 3.502433 0.647059
-56.251305 -114.038643 2.508185 0.659297
-58.775345 -114.225471 1.450398 0.136049
-58.640049 -114.215462 0.356681 0.473945
-49.605774 -113.546738 0.000008 0.544244
-42.618454 -113.029526 0.000005 0.528023
-38.726879 -112.741470 0.000004 0.544915
-36.242439 -112.557571 0.000003 0.528176
-34.515656 -112.429749 0.000003 0.585504
-33.243446 -112.335579 0.000002 0.535897
-55.780075 -113.789780 9.656801 0.648493
-55.780075 -113.789780 8.601987 0.623240
-55.780075 -113.789780 7.561976 0.670939
-55.780075 -113.789780 6.534287 0.636759
-55.780079 -113.789780 5.516529 0.665293
-55.780075 -113.789780 4.506406 0.678431
-55.780083 -113.789780 3.501693 0.656779
-56.266380 -113.822365 2.508183 0.662943
-61.917202 -114.200996 1.399140 0.776699
-61.767162 -114.190941 0.203520 0.642634
-49.617748 -113.376869 0.000008 0.550698
-42.626991 -112.908455 0.000005 0.530800
-38.733498 -112.647575 0.000004 0.535393
-36.247833 -112.481026 0.000003 0.545357
-34.520203 -112.365265 0.000003 0.546868
-33.247364 -112.279976 0.000002 0.539727
-55.780075 -113.575989 9.653412 0.664683
-55.780075 -113.575989 8.599060 0.584039
-55.780075 -113.575996 7.559511 0.634562
-55.780075 -113.575989 6.532277 0.633692
-55.780079 -113.575996 5.514969 0.650553
-55.780079 -113.575996 4.505295 0.650797
-55.780087 -113.575996 3.501028 0.627482
-56.279999 -113.605988 2.508181 0.660044
-66.785995 -114.236298 1.319591 0.678431
-63.880222 -114.061966 0.100321 0.591699
-49.628536 -113.206932 0.000008 0.538781
-42.634682 -112.787331 0.000005 0.542901
-38.739464 -112.553635 0.000004 0.540764
-36.252701 -112.404442 0.000003 0.546166
-34.524300 -112.300743 0.000003 0.564248
-33.250893 -112.224350 0.000002 0.526162
-55.780075 -113.362389 9.650393 0.612039
-55.780067 -113.362389 8.596456 0.625177
-55.780075 -113.362389 7.557319 0.647913
-55.780075 -113.362389 6.530488 0.637919
-55.780079 -113.362389 5.513583 0.666590
-55.780083 -113.362389 4.504308 0.620310
-55.780090 -113.362389 3.500437 0.656809
-56.292034 -113.389519 2.508177 0.668116
-69.349472 -114.081451 1.277852 0.647456
-63.894863 -113.792404 0.100351 0.551049
-49.638145 -113.036919 0.000008 0.539635
-42.641533 -112.666153 0.000005 0.541085
-38.744774 -112.459656 0.000004 0.543664
-36.257030 -112.327827 0.000003 0.555138
-34.527946 -112.236198 0.000003 0.546014
-33.254040 -112.168694 0.000002 0.540612
-55.780071 -113.148941 9.647749 0.611765
-55.780067 -113.148941 8.594177 0.613794
-55.780071 -113.148941 7.555399 0.645640
-55.780075 -113.148941 6.528924 0.647059
-55.780075 -113.148941 5.512370 0.653391
-55.780087 -113.148941 4.503443 0.622705
-55.780090 -113.148941 3.499918 0.618204
-56.302422 -113.172966 2.508172 0.659785
-98.883072 -115.131386 0.794305 0.720867
-63.907894 -113.522766 0.100366 0.606943
-49.646561 -112.866837 0.000008 0.546395
-42.647530 -112.544930 0.000005 0.540475
-38.749428 -112.365646 0.000004 0.541451
-36.260818 -112.251183 0.000003 0.514672
-34.531143 -112.171631 0.000003 0.546090
-33.256798 -112.113022 0.000002 0.551171
-55.780071 -112.935631 9.645480 0.622705
-55.780071 -112.935631 8.592222 0.636057
-55.780075 -112.935631 7.553751 0.646845
-55.780075 -112.935631 6.527580 0.647059
-55.780083 -112.935631 5.511329 0.646510
-55.780090 -112.935631 4.502701 0.617182
-55.780090 -112.935631 3.499473 0.638071
-56.311359 -112.956345 2.508167 0.665675
-99.015457 -114.621780 0.792494 0.268330
-63.919067 -113.253044 0.100380 0.595376
-49.653801 -112.696709 0.000008 0.548653
-42.652679 -112.423668 0.000005 0.535073
-38.753422 -112.271599 0.000004 0.531212
-36.264080 -112.174515 0.000003 0.532296
-34.533886 -112.107040 0.000003 0.547768
-33.259163 -112.057327 0.000002 0.555047
-55.780067 -112.722435 9.643583 0.621347
-55.780067 -112.722435 8.590589 0.623880
-55.780075 -112.722435 7.552375 0.657816
-55.780075 -112.722435 6.526459 0.663355
-55.780079 -112.722435 5.510458 0.651499
-55.780083 -112.722435 4.502080 0.647059
-55.780090 -112.722435 3.499102 0.618296
-56.318665 -112.739670 2.508162 0.657740
-99.015472 -114.106361 0.792794 0.275303
-63.928387 -112.983253 0.100393 0.591348
-49.659836 -112.526527 0.000008 0.532738
-42.656990 -112.302376 0.000005 0.540703
-38.756763 -112.177528 0.000004 0.529274
-36.266804 -112.097832 0.000003 0.551812
-34.536182 -112.042435 0.000003 0.562631
-33.261139 -112.001625 0.000002 0.527504
-55.780071 -112.509331 9.642063 0.623529
-55.780067 -112.509331 8.589275 0.636820
-55.780071 -112.509331 7.551269 0.664744
-55.780075 -112.509331 6.525558 0.676387
-55.780083 -112.509331 5.509760 0.654902
-55.780079 -112.509331 4.501582 0.646357
-55.780090 -112.509331 3.498803 0.649119
-56.324608 -112.522957 2.508157 0.638498
-55.972267 -112.514145 1.497610 0.640940
-55.972267 -112.514145 0.491752 0.661036
-49.664696 -112.356316 0.000008 0.541024
-42.660446 -112.181053 0.000005 0.531838
-38.759449 -112.083443 0.000004 0.540703
-36.268990 -112.021126 0.000003 0.543130
-34.538025 -111.977814 0.000003 0.518746
-33.262730 -111.945900 0.000002 0.505684
-55.780075 -112.296310 9.640916 0.647715
-55.780067 -112.296310 8.588285 0.621927
-55.780079 -112.296310 7.550436 0.668193
-55.780079 -112.296310 6.524879 0.647059
-55.780083 -112.296310 5.509231 0.623346
-55.780083 -112.296310 4.501206 0.648173
-55.780090 -112.296310 3.498577 0.657359
-56.328926 -112.306213 2.508152 0.638926
-60.474754 -112.380989 1.423995 0.606500
-60.474754 -112.380989 0.270750 0.598764
-49.668358 -112.186073 0.000008 0.541161
-42.663063 -112.059708 0.000005 0.538323
-38.761471 -111.989334 0.000004 0.536370
-36.270641 -111.944405 0.000003 0.535668
-34.539413 -111.913177 0.000003 0.558007
-33.263931 -111.890175 0.000002 0.495277
-64.028000 -112.174522 11.706264 0.698207
-56.172394 -112.087677 8.672354 0.713176
-61.970890 -112.151779 8.676399 0.706477
-64.983528 -112.185081 7.889705 0.784421
-56.762184 -112.094200 5.621863 0.714046
-64.983551 -112.185081 5.255640 0.798657
-64.983543 -112.185081 3.950590 0.783551
-60.091110 -112.130997 2.569668 0.695308
-98.772156 -112.558609 0.797320 0.798444
-63.799641 -112.171997 0.107574 0.593042
-49.670834 -112.015808 0.000008 0.543236
-42.664825 -111.938354 0.000005 0.547311
-38.762840 -111.895218 0.000004 0.548516
-36.271759 -111.867683 0.000003 0.530556
-34.540356 -111.848541 0.000003 0.529778
-33.264740 -111.834442 0.000002 0.559365
nan nan nan 0.000000
nan nan nan 0.000000
nan nan nan 0.000000
nan nan nan 0.000000
-98.772156 -112.045509 10.454569 0.782513
-98.699509 -112.045212 8.020042 0.327352
-99.015472 -112.046501 5.622380 0.662776
-98.772156 -112.045509 3.202617 0.821073
-98.772156 -112.045509 0.797383 0.823285
-65.991112 -111.911987 0.000013 0.540749
-49.672119 -111.845520 0.000008 0.540917
-42.665749 -111.816986 0.000005 0.543496
-38.763554 -111.801094 0.000004 0.543664
-36.272339 -111.790947 0.000003 0.529549
-34.540844 -111.783897 0.000003 0.503044
-33.265163 -111.778694 0.000002 0.542153
nan nan nan 0.000000
nan nan nan 0.000000
nan nan nan 0.000000
nan nan nan 0.000000
nan nan nan 0.000000
-98.699524 -111.532654 8.020019 0.349691
-99.015472 -111.531731 5.622366 0.678431
-98.883087 -111.532120 3.204425 0.831617
-98.772171 -111.532440 0.797388 0.802701
-65.991280 -111.627777 0.000013 0.538338
-49.672226 -111.675240 0.000008 0.540917
-42.665810 -111.695618 0.000005 0.543175
-38.763611 -111.706963 0.000004 0.557717
-36.272381 -111.714211 0.000003 0.559899
-34.540882 -111.719246 0.000003 0.564126
-33.265194 -111.722954 0.000002 0.536751
nan nan nan 0.000000
nan nan nan 0.000000
nan nan nan 0.000000
nan nan nan 0.000000
nan nan nan 0.000000
-98.772156 -111.019348 8.026241 0.618463
-98.772171 -111.019348 5.610577 0.799756
-98.968369 -111.017403 3.205878 0.640711
-98.772171 -111.019348 0.797335 0.822049
-65.989456 -111.343567 0.000013 0.539025
-49.671127 -111.504959 0.000008 0.536034
-42.665039 -111.574249 0.000005 0.541894
-38.763004 -111.612839 0.000004 0.555917
-36.271893 -111.637474 0.000003 0.526604
-34.540470 -111.654602 0.000003 0.527459
-33.264839 -111.667213 0.000002 0.557351
nan nan nan 0.000000
nan nan nan 0.000000
nan nan nan 0.000000
nan nan nan 0.000000
nan nan nan 0.000000
nan nan nan 0.000000
-98.772171 -110.506195 5.610912 0.761700
-98.968369 -110.502884 3.205988 0.653407
-98.772171 -110.506195 0.797222 0.802167
-65.985657 -111.059387 0.000013 0.538766
-49.668854 -111.334686 0.000008 0.548669
-42.663414 -111.452888 0.000005 0.520317
-38.761745 -111.518723 0.000004 0.530892
-36.270866 -111.560745 0.000003 0.519936
-34.539604 -111.589958 0.000003 0.506828
-33.264091 -111.611481 0.000002 0.554910
nan nan nan 0.000000
nan nan nan 0.000000
nan nan nan 0.000000
nan nan nan 0.000000
nan nan nan 0.000000
nan nan nan 0.000000
-98.772186 -109.992905 5.611427 0.803647
-98.968384 -109.988228 3.206161 0.622217
-98.772171 -109.992905 0.797051 0.791974
-65.979889 -110.775223 0.000013 0.542794
-49.665379 -111.164436 0.000008 0.531914
-42.660942 -111.331543 0.000005 0.538262
-38.759834 -111.424614 0.000004 0.520897
-36.269302 -111.484024 0.000003 0.569924
-34.538288 -111.525322 0.000003 0.512566
-33.262959 -111.555748 0.000002 0.534707
nan nan nan 0.000000
nan nan nan 0.000000
nan nan nan 0.000000
nan nan nan 0.000000
nan nan nan 0.000000
nan nan nan 0.000000
-98.772171 -109.479454 5.612116 0.800275
-98.772156 -109.479454 3.203178 0.833982
-98.772156 -109.479454 0.796822 0.828397
-65.972115 -110.491119 0.000013 0.538033
-49.660725 -110.994217 0.000008 0.543954
-42.657631 -111.210220 0.000005 0.550561
-38.757256 -111.330521 0.000004 0.527504
-36.267204 -111.407318 0.000003 0.528008
-34.536518 -111.460701 0.000003 0.519265
-33.261436 -111.500031 0.000002 0.497047
nan nan nan 0.000000
nan nan nan 0.000000
nan nan nan 0.000000
nan nan nan 0.000000
nan nan nan 0.000000
nan nan nan 0.000000
nan nan nan 0.000000
nan nan nan 0.000000
nan nan nan 0.000000
-65.962349 -110.207069 0.000013 0.538201
-49.654884 -110.824036 0.000008 0.540673
-42.653458 -111.088921 0.000005 0.551431
-38.754025 -111.236443 0.000004 0.546487
-36.264568 -111.330627 0.000003 0.540963
-34.534302 -111.396088 0.000003 0.526543
-33.259518 -111.444321 0.000002 0.553689
nan nan nan 0.000000
nan nan nan 0.000000
nan nan nan 0.000000
nan nan nan 0.000000
nan nan nan 0.000000
nan nan nan 0.000000
nan nan nan 0.000000
nan nan nan 0.000000
nan nan nan 0.000000
-65.950592 -109.923103 0.000013 0.540963
-49.647850 -110.653893 0.000008 0.535180
-42.648445 -110.967651 0.000005 0.537362
-38.750137 -111.142395 0.000004 0.549767
-36.261398 -111.253960 0.000003 0.555367
-34.531631 -111.331497 0.000003 0.560861
-33.257217 -111.388626 0.000002 0.540734
nan nan nan 0.000000
nan nan nan 0.000000
nan nan nan 0.000000
nan nan nan 0.000000
nan nan nan 0.000000
nan nan nan 0.000000
nan nan nan 0.000000
nan nan nan 0.000000
nan nan nan 0.000000
-65.936897 -109.639221 0.000013 0.537987
-49.639633 -110.483810 0.000008 0.536828
-42.642586 -110.846420 0.000005 0.545647
-38.745598 -111.048378 0.000004 0.542138
-36.257698 -111.177315 0.000003 0.525338
-34.528515 -111.266922 0.000003 0.539712
-33.254528 -111.332947 0.000002 0.562966
nan nan nan 0.000000
nan nan nan 0.000000
nan nan nan 0.000000
nan nan nan 0.000000
nan nan nan 0.000000
nan nan nan 0.000000
nan nan nan 0.000000
nan nan nan 0.000000
nan nan nan 0.000000
-65.921188 -109.355438 0.000014 0.538903
-49.630219 -110.313782 0.000008 0.536660
-42.635887 -110.725235 0.000005 0.547936
-38.740398 -110.954391 0.000004 0.528359
-36.253460 -111.100693 0.000003 0.551553
-34.524940 -111.202377 0.000003 0.528542
-33.251450 -111.277290 0.000002 0.537331
nan nan nan 0.000000
nan nan nan 0.000000
nan nan nan 0.000000
nan nan nan 0.000000
nan nan nan 0.000000
nan nan nan 0.000000
nan nan nan 0.000000
nan nan nan 0.000000
nan nan nan 0.000000
-65.903511 -109.071777 0.000013 0.539437
-49.619629 -110.143829 0.000008 0.536461
-42.628334 -110.604103 0.000005 0.542123
-38.734543 -110.860451 0.000004 0.527214
-36.248684 -111.024101 0.000003 0.514580
-34.520920 -111.137856 0.000003 0.567163
-33.247982 -111.221657 0.000002 0.508751
nan nan nan 0.000000
nan nan nan 0.000000
nan nan nan 0.000000
nan nan nan 0.000000
nan nan nan 0.000000
nan nan nan 0.000000
nan nan nan 0.000000
nan nan nan 0.000000
nan nan nan 0.000000
-65.883850 -108.788246 0.000013 0.540566
-49.607845 -109.973953 0.000008 0.539818
-42.619938 -110.483017 0.000005 0.533165
-38.728031 -110.766548 0.000004 0.523278
-36.243378 -110.947556 0.000003 0.520226
-34.516449 -111.073357 0.000002 0.554376
-33.244125 -111.166046 0.000002 0.545357
nan nan nan 0.000000
nan nan nan 0.000000
nan nan nan 0.000000
nan nan nan 0.000000
nan nan nan 0.000000
nan nan nan 0.000000
nan nan nan 0.000000
nan nan nan 0.000000
nan nan nan 0.000000
-65.862198 -108.504852 0.000013 0.541222
-49.594887 -109.804161 0.000008 0.537469
-42.610695 -110.362000 0.000006 0.530495
-38.720863 -110.672691 0.000004 0.545968
-36.237534 -110.871040 0.000003 0.554452
-34.511528 -111.008896 0.000002 0.542641
-33.239880 -111.110466 0.000002 0.536645
nan nan nan 0.000000
nan nan nan 0.000000
nan nan nan 0.000000
nan nan nan 0.000000
nan nan nan 0.000000
nan nan nan 0.000000
nan nan nan 0.000000
nan nan nan 0.000000
nan nan nan 0.000000
-65.838608 -108.221626 0.000013 0.541039
-49.580738 -109.634460 0.000008 0.536736
-42.600609 -110.241051 0.000006 0.544778
-38.713043 -110.578888 0.000004 0.548608
-36.231159 -110.794571 0.000003 0.533791
-34.506157 -110.944473 0.000002 0.565698
-33.235249 -111.054916 0.000002 0.534615
nan nan nan 0.000000
nan nan nan 0.000000
nan nan nan 0.000000
nan nan nan 0.000000
nan nan nan 0.000000
nan nan nan 0.000000
nan nan nan 0.000000
nan nan nan 0.000000
nan nan nan 0.000000
-65.813004 -107.938568 0.000013 0.539101
-49.565407 -109.464874 0.000008 0.537194
-42.589680 -110.120171 0.000006 0.536980
-38.704567 -110.485146 0.000004 0.540108
-36.224247 -110.718147 0.000003 0.547066
-34.500336 -110.880089 0.000002 0.537987
-33.230228 -110.999405 0.000002 0.554314
nan nan nan 0.000000
nan nan nan 0.000000
nan nan nan 0.000000
nan nan nan 0.000000
nan nan nan 0.000000
nan nan nan 0.000000
nan nan nan 0.000000
nan nan nan 0.000000
nan nan nan 0.000000
-65.785439 -107.655693 0.000013 0.540566
-49.548885 -109.295387 0.000008 0.540063
-42.577911 -109.999374 0.000005 0.536065
-38.695435 -110.391457 0.000004 0.537240
-36.216805 -110.641769 0.000003 0.530251
-34.494064 -110.815750 0.000002 0.473274
-33.224823 -110.943924 0.000002 0.543175
nan nan nan 0.000000
nan nan nan 0.000000
nan nan nan 0.000000
nan nan nan 0.000000
nan nan nan 0.000000
nan nan nan 0.000000
nan nan nan 0.000000
nan nan nan 0.000000
nan nan nan 0.000000
-65.755890 -107.373024 0.000013 0.539879
-49.531181 -109.126030 0.000008 0.539376
-42.565289 -109.878662 0.000006 0.565225
-38.685650 -110.297844 0.000004 0.525139
-36.208828 -110.565453 0.000003 0.534127
-34.487343 -110.751450 0.000002 0.535943
-33.219028 -110.888489 0.000002 0.533074
nan nan nan 0.000000
nan nan nan 0.000000
nan nan nan 0.000000
nan nan nan 0.000000
nan nan nan 0.000000
nan nan nan 0.000000
nan nan nan 0.000000
nan nan nan 0.000000
nan nan nan 0.000000
-65.724365 -107.090561 0.000014 0.540200
-49.512299 -108.956795 0.000008 0.540017
-42.551838 -109.758041 0.000005 0.542611
-38.675213 -110.204292 0.000004 0.550042
-36.200317 -110.489189 0.000003 0.568902
-34.480175 -110.687202 0.000002 0.560723
-33.212849 -110.833084 0.000002 0.522316
nan nan nan 0.000000
nan nan nan 0.000000
nan nan nan 0.000000
nan nan nan 0.000000
-104.878006 -102.019913 11.225031 0.537896
-104.877975 -102.019913 8.575140 0.542885
-104.877975 -102.019913 5.939443 0.541222
-104.877975 -102.019913 3.312212 0.543206
-104.877975 -102.019913 0.687790 0.533074
-65.690880 -106.808327 0.000013 0.540413
-49.492233 -108.787697 0.000008 0.542016
-42.537529 -109.637512 0.000006 0.523796
-38.664124 -110.110817 0.000004 0.524895
-36.191277 -110.412987 0.000003 0.543877
-34.472557 -110.623001 0.000002 0.538506
-33.206280 -110.777733 0.000002 0.530465
nan nan nan 0.000000
nan nan nan 0.000000
nan nan nan 0.000000
-77.708130 -104.968102 9.841586 0.601846
-79.116333 -104.786041 8.244825 0.733333
-79.040695 -104.795815 6.444747 0.725978
-79.116325 -104.786041 4.666782 0.719265
-79.368210 -104.753471 2.892448 0.230152
-79.368210 -104.753471 1.107552 0.267933
-65.655426 -106.526337 0.000013 0.542748
-49.470993 -108.618744 0.000008 0.543008
-42.522388 -109.517097 0.000006 0.529335
-38.652378 -110.017426 0.000004 0.524132
-36.181705 -110.336853 0.000003 0.539422
-34.464493 -110.558861 0.000002 0.551232
-33.199326 -110.722427 0.000002 0.545739
nan nan nan 0.000000
nan nan nan 0.000000
nan nan nan 0.000000
-74.977295 -104.968086 9.440029 0.621073
-76.616333 -104.744537 7.960353 0.750256
-76.616333 -104.744537 6.248244 0.761944
-75.611595 -104.881569 4.495484 0.622461
-76.652039 -104.739662 2.848417 0.100801
-76.652039 -104.739662 1.151582 0.105882
-65.617996 -106.244598 0.000013 0.539864
-49.448574 -108.449936 0.000008 0.530251
-42.506409 -109.396782 0.000006 0.529854
-38.639984 -109.924118 0.000004 0.548058
-36.171600 -110.260780 0.000003 0.556161
-34.455982 -110.494774 0.000002 0.511116
-33.191986 -110.667175 0.000002 0.540642
nan nan nan 0.000000
nan nan nan 0.000000
nan nan nan 0.000000
-72.512474 -104.968056 9.077934 0.629419
-74.116348 -104.737892 7.675634 0.751110
-74.116348 -104.737892 6.045309 0.733333
-74.007614 -104.753494 4.418317 0.623224
-74.007965 -104.753441 2.805536 0.700359
-74.007965 -104.753441 1.194464 0.708049
-65.578613 -105.963120 0.000013 0.539055
-49.424973 -108.281296 0.000008 0.535683
-42.489586 -109.276581 0.000006 0.531258
-38.626942 -109.830902 0.000004 0.548852
-36.160965 -110.184784 0.000003 0.570825
-34.447014 -110.430748 0.000003 0.528222
-33.184261 -110.611969 0.000002 0.525826
nan nan nan 0.000000
-67.319611 -105.413445 11.181956 0.317174
nan nan nan 0.000000
-71.542297 -104.777336 8.939669 0.664637
-71.731735 -104.748802 7.404041 0.678431
-71.731720 -104.748802 5.851732 0.654902
-71.731720 -104.748802 4.307734 0.656306
-71.731720 -104.748802 2.768696 0.635721
-71.731720 -104.748802 1.231304 0.678431
-65.537247 -105.681938 0.000013 0.541421
-49.400200 -108.112823 0.000008 0.541787
-42.471928 -109.156502 0.000005 0.549798
-38.613243 -109.737778 0.000004 0.531563
-36.149796 -110.108871 0.000003 0.527108
-34.437611 -110.366791 0.000002 0.554101
-33.176147 -110.556816 0.000002 0.546517
-65.415161 -105.413467 12.177515 0.315587
-65.812347 -105.350800 10.862282 0.313542
-67.252380 -105.123581 9.731474 0.906523
-67.252396 -105.123573 8.302925 0.968627
-67.245392 -105.124680 6.887367 0.968627
-67.245384 -105.124680 5.483470 1.000000
-66.847214 -105.187508 4.067290 0.500298
-67.248398 -105.124207 2.695251 1.000000
-67.248398 -105.124207 1.304749 0.997726
-65.493935 -105.401039 0.000013 0.539925
-49.374237 -107.944527 0.000008 0.543236
-42.453430 -109.036545 0.000005 0.547219
-38.598896 -109.644745 0.000004 0.533074
-36.138103 -110.033028 0.000003 0.553521
-34.427757 -110.302902 0.000002 0.497780
-33.167652 -110.501724 0.000002 0.539971
-63.657276 -105.415947 11.742709 0.308705
-65.042358 -105.187477 10.703723 0.549722
-65.042480 -105.187454 9.332649 0.516960
-65.042511 -105.187447 7.977796 0.613733
-65.042618 -105.187431 6.636042 0.602594
-65.042625 -105.187431 5.304340 0.530266
-65.042549 -105.187447 3.979765 0.514885
-65.042480 -105.187454 2.659449 0.511421
-65.042480 -105.187454 1.340551 0.576120
-65.042374 -105.187469 0.020242 0.591470
-49.347111 -107.776421 0.000008 0.539727
-42.434097 -108.916725 0.000005 0.539528
-38.583900 -109.551819 0.000004 0.519860
-36.125877 -109.957268 0.000003 0.527138
-34.417458 -110.239075 0.000003 0.538430
-33.158772 -110.446701 0.000002 0.534997
-62.071133 -105.413445 11.351027 0.311330
-63.383965 -105.187462 10.350522 0.797879
-64.161392 -105.053650 9.178606 0.785046
-63.384232 -105.187416 7.735233 0.613642
-64.152412 -105.055191 6.537585 0.878309
-64.152420 -105.055191 5.234164 0.845457
-63.384106 -105.187439 3.899424 0.575982
-64.159409 -105.053986 2.645563 0.878676
-64.159409 -105.053986 1.354437 0.845594
-63.383938 -105.187469 0.100584 0.620600
-49.318817 -107.608505 0.000008 0.545693
-42.413925 -108.797043 0.000005 0.541497
-38.568256 -109.459000 0.000004 0.529015
-36.113125 -109.881607 0.000003 0.517723
-34.406719 -110.175331 0.000002 0.543709
-33.149509 -110.391731 0.000002 0.548165
-60.594624 -105.413445 10.986760 0.304158
-61.854668 -105.187485 10.025209 0.535973
-61.854675 -105.187485 8.761003 0.581384
-61.805885 -105.196228 7.504412 0.139071
-61.854847 -105.187454 6.274624 0.451408
-61.854858 -105.187447 5.046741 0.609186
-61.854713 -105.187477 3.825424 0.571496
-61.854668 -105.187485 2.608038 0.605386
-61.854668 -105.187485 1.391961 0.472114
-61.854729 -105.187469 0.174575 0.641901
-49.289345 -107.440788 0.000007 0.531609
-42.392921 -108.677505 0.000005 0.538491
-38.551968 -109.366295 0.000004 0.530617
-36.099846 -109.806023 0.000003 0.533639
-34.395527 -110.111656 0.000002 0.523568
-33.139862 -110.336830 0.000002 0.509865
-60.061024 -105.258194 10.862278 0.319127
-61.132137 -105.058380 9.876721 0.878584
-61.132137 -105.058380 8.635904 0.805264
-60.440060 -105.187485 7.305351 0.476081
-61.123131 -105.060066 6.194458 0.723507
-61.123123 -105.060066 4.989600 0.845167
-60.440086 -105.187477 3.757061 0.487831
-61.130135 -105.058762 2.596755 0.924453
-61.130138 -105.058754 1.403245 0.998291
-60.440125 -105.187469 0.242936 0.531838
-49.258705 -107.273285 0.000008 0.528832
-42.371078 -108.558113 0.000005 0.544503
-38.535030 -109.273697 0.000004 0.546548
-36.086037 -109.730545 0.000003 0.518410
-34.383896 -110.048065 0.000002 0.555871
-33.129833 -110.281998 0.000002 0.561959
-59.127731 -105.187454 10.635926 0.504280
-59.127724 -105.187454 9.446220 0.551141
-59.127644 -105.187469 8.273204 0.559899
-59.127613 -105.187477 7.114096 0.534646
-59.127613 -105.187477 5.966193 0.501991
-59.127617 -105.187477 4.826906 0.601968
-59.127625 -105.187469 3.693719 0.525917
-59.127720 -105.187454 2.564171 0.499046
-59.127720 -105.187454 1.435828 0.563958
-59.127613 -105.187477 0.306282 0.469368
-49.226891 -107.105995 0.000008 0.544701
-42.348404 -108.438881 0.000006 0.531777
-38.517441 -109.181229 0.000004 0.543343
-36.071701 -109.655159 0.000003 0.551751
-34.371819 -109.984558 0.000002 0.551461
-33.119419 -110.227242 0.000002 0.536553
-58.587173 -105.050613 10.509725 0.441703
-58.587170 -105.050613 9.337404 0.450980
-58.587177 -105.050613 8.181547 0.485359
-58.587181 -105.050613 7.039378 0.528389
-58.587177 -105.050613 5.908248 0.669581
-58.587181 -105.050613 4.785604 0.458152
-58.587181 -105.050613 3.668972 0.479820
-58.587177 -105.050613 2.555927 0.567773
-58.587177 -105.050613 1.444073 0.470283
-58.587181 -105.050613 0.331027 0.549615
-49.193909 -106.938934 0.000008 0.540200
-42.324898 -108.319809 0.000005 0.545739
-38.499214 -109.088882 0.000004 0.535012
-36.056843 -109.579872 0.000003 0.535393
-34.359299 -109.921127 0.000002 0.565087
-33.108624 -110.172554 0.000001 0.538979
-58.587173 -104.808350 10.521890 0.433768
-58.587177 -104.808350 9.347897 0.559808
-58.587177 -104.808350 8.190386 0.554681
-58.587181 -104.808350 7.046585 0.521721
-58.587173 -104.808350 5.913836 0.648096
-58.587177 -104.808350 4.789587 0.454627
-58.587181 -104.808350 3.671360 0.447440
-58.587181 -104.808350 2.556721 0.535882
-58.587181 -104.808350 1.443278 0.558831
-58.587181 -104.808350 0.328640 0.545205
-49.159767 -106.772110 0.000008 0.534630
-42.300568 -108.200905 0.000005 0.534661
-38.480343 -108.996666 0.000004 0.538598
-36.041458 -109.504692 0.000003 0.528222
-34.346336 -109.857796 0.000002 0.536507
-33.097446 -110.117943 0.000002 0.539254
-58.587173 -104.565376 10.534509 0.548379
-58.587173 -104.565376 9.358777 0.516304
-54.916161 -105.356842 7.516240 0.679469
-54.916168 -105.356842 6.497000 0.695430
-55.357422 -105.261703 5.539541 0.542260
-55.357422 -105.261711 4.522809 0.542794
-54.893417 -105.361748 3.488202 0.830930
-54.782326 -105.385696 2.493854 0.691356
-54.784554 -105.385216 1.506109 0.693141
-54.784554 -105.385216 0.517269 0.700420
-49.124466 -106.605522 0.000008 0.549035
-42.275398 -108.082169 0.000005 0.522499
-38.460827 -108.904587 0.000004 0.548272
-36.025543 -109.429626 0.000003 0.527611
-34.332932 -109.794548 0.000002 0.522667
-33.085892 -110.063408 0.000002 0.531563
-54.369923 -105.261765 9.465290 0.543084
-54.370121 -105.261726 8.436899 0.562982
-53.921394 -105.361755 7.339243 0.706523
-54.200340 -105.299568 6.395101 0.678431
-54.200340 -105.299568 5.408583 0.689601
-54.273491 -105.283264 4.435614 0.425391
-53.921440 -105.361740 3.441560 0.826246
-53.853527 -105.376877 2.479038 0.679377
-53.853455 -105.376892 1.520963 0.678431
-53.853455 -105.376892 0.561862 0.678431
-49.087982 -106.439194 0.000008 0.540536
-42.249405 -107.963615 0.000005 0.544610
-38.440670 -108.812637 0.000004 0.534264
-36.009109 -109.354675 0.000003 0.549554
-34.319084 -109.731407 0.000002 0.520729
-33.073952 -110.008965 0.000002 0.553185
-53.442760 -105.261749 9.238789 0.557900
-53.442848 -105.261726 8.241577 0.560693
-53.165009 -105.325699 7.206466 0.682063
-53.629997 -105.218636 6.315243 0.706783
-53.509285 -105.246429 5.332400 0.678431
-53.442909 -105.261711 4.369585 0.552529
-52.818756 -105.405426 3.388253 0.695628
-52.942680 -105.376892 2.464501 0.669245
-52.942612 -105.376907 1.535500 0.678431
-52.942612 -105.376907 0.605503 0.678431
-49.050358 -106.273117 0.000008 0.533364
-42.222580 -107.845245 0.000006 0.538460
-38.419868 -108.720840 0.000004 0.529641
-35.992153 -109.279831 0.000003 0.533578
-34.304802 -109.668358 0.000002 0.550652
-33.061634 -109.954597 0.000002 0.544366
-52.433159 -105.294273 8.990686 0.693599
-52.570145 -105.261726 8.058044 0.542687
-52.968430 -105.167084 7.178212 0.675746
-52.459507 -105.288017 6.143836 0.689052
-52.522491 -105.273048 5.221165 0.678431
-52.570183 -105.261711 4.299905 0.542123
-52.094933 -105.374641 3.353972 0.699779
-52.062454 -105.382362 2.450456 0.697108
-52.121765 -105.368271 1.548547 0.151354
-52.121758 -105.368271 0.644673 0.148196
-49.011566 -106.107307 0.000008 0.539284
-42.194935 -107.727066 0.000006 0.545220
-38.398426 -108.629189 0.000004 0.558160
-35.974674 -109.205116 0.000003 0.543053
-34.290077 -109.605408 0.000002 0.557229
-33.048939 -109.900322 0.000001 0.522850
-51.431427 -105.339111 8.744132 0.716747
-51.359024 -105.356850 7.798945 0.703716
-51.397026 -105.347534 6.892559 0.689448
-51.397026 -105.347534 5.988557 0.673930
-51.747292 -105.261719 5.134778 0.547524
-51.133766 -105.412041 4.182520 0.828214
-51.277233 -105.376884 3.314896 0.678431
-51.160892 -105.405396 2.436026 0.702129
-51.495354 -105.323448 1.558339 0.678431
-51.312271 -105.368301 0.683331 0.160784
-48.971626 -105.941772 0.000008 0.538155
-42.166466 -107.609085 0.000006 0.523949
-38.376347 -108.537682 0.000004 0.548226
-35.956673 -109.130516 0.000003 0.545251
-34.274910 -109.542564 0.000002 0.561273
-33.035862 -109.846138 0.000001 0.536599
-50.368511 -105.413551 8.481255 0.718196
-50.750313 -105.317177 7.673432 0.751675
-50.816422 -105.300484 6.792104 0.697627
-50.816422 -105.300484 5.906664 0.686763
-50.816429 -105.300484 5.029780 0.689830
-50.554367 -105.366631 4.137316 0.824338
-50.523136 -105.374519 3.278973 0.834394
-50.523140 -105.374519 2.426020 0.838315
-50.523140 -105.374519 1.573980 0.836728
-50.523136 -105.374519 0.721027 0.836637
-48.930527 -105.776520 0.000008 0.559121
-42.137169 -107.491302 0.000006 0.544701
-38.353630 -108.446335 0.000004 0.540734
-35.938152 -109.056053 0.000003 0.523095
-34.259308 -109.479828 0.000002 0.547906
-33.022408 -109.792046 0.000001 0.543511
-50.204910 -105.269424 8.450514 0.739971
-50.187679 -105.273903 7.558031 0.747524
-50.598862 -105.167053 6.759779 0.652094
-50.246078 -105.258728 5.826242 0.695460
-50.246075 -105.258728 4.967410 0.691402
-49.849564 -105.361763 4.081430 0.825284
-49.791328 -105.376900 3.244116 0.678431
-49.681541 -105.405426 2.412553 0.676112
-49.791306 -105.376907 1.585591 0.678431
-49.791306 -105.376907 0.755885 0.678431
-48.888271 -105.611565 0.000008 0.541772
-42.107056 -107.373726 0.000006 0.546700
-38.330276 -108.355156 0.000004 0.546487
-35.919113 -108.981712 0.000003 0.535317
-34.243267 -109.417198 0.000002 0.540581
-33.008575 -109.738045 0.000002 0.530724
-49.537460 -105.261757 8.289336 0.570550
-49.163452 -105.361740 7.339290 0.704982
-49.692337 -105.220352 6.597806 0.696818
-49.594856 -105.246414 5.733298 0.682887
-49.594856 -105.246414 4.895329 0.683146
-49.158501 -105.363068 4.026610 0.826734
-49.106697 -105.376915 3.211593 0.678431
-49.163506 -105.361725 2.404538 0.824308
-49.106674 -105.376923 1.596424 0.678431
-49.106670 -105.376923 0.788408 0.678431
-48.844872 -105.446907 0.000008 0.532601
-42.076126 -107.256363 0.000005 0.540963
-38.306278 -108.264137 0.000004 0.540063
-35.899555 -108.907516 0.000003 0.566430
-34.226788 -109.354691 0.000002 0.543114
-32.994370 -109.684143 0.000002 0.547570
-48.875992 -105.261757 8.129417 0.553948
-48.643097 -105.325760 7.232852 0.688945
-49.138580 -105.189590 6.502021 0.697154
-48.848602 -105.269279 5.625569 0.694194
-48.931828 -105.246414 4.821710 0.678431
-48.316620 -105.415482 3.958860 0.825895
-48.456913 -105.376930 3.180783 0.678431
-48.353333 -105.405396 2.391556 0.716411
-48.456886 -105.376938 1.606687 0.678431
-48.456886 -105.376938 0.819219 0.678431
-48.512238 -105.361725 0.024505 0.816068
-42.044369 -107.139221 0.000005 0.539239
-38.281654 -108.173286 0.000004 0.521813
-35.879478 -108.833450 0.000003 0.490257
-34.209877 -109.292290 0.000002 0.537850
-32.979786 -109.630341 0.000001 0.521584
-48.247292 -105.261757 7.977713 0.557641
-47.924652 -105.352852 7.081802 0.690349
-47.924652 -105.352852 6.281268 0.678431
-48.247368 -105.261734 5.539955 0.562127
-48.247360 -105.261734 4.745382 0.534981
-47.703773 -105.415215 3.910458 0.826993
-47.449677 -105.486954 3.131665 0.679652
-47.449844 -105.486908 2.376955 0.695705
-47.893242 -105.361717 1.615505 0.816602
-47.893242 -105.361717 0.845692 0.819913
-47.893238 -105.361717 0.073399 0.830411
-42.011799 -107.022301 0.000005 0.530922
-38.256397 -108.082611 0.000004 0.517418
-35.858887 -108.759529 0.000003 0.526085
-34.192524 -109.230011 0.000002 0.540887
-32.964828 -109.576645 0.000001 0.551644
-47.648930 -105.261757 7.833612 0.527672
-47.648926 -105.261757 7.029960 0.549645
-47.648926 -105.261757 6.237593 0.564660
-47.648933 -105.261757 5.454610 0.558160
-47.648926 -105.261757 4.679193 0.564981
-47.371338 -105.342232 3.885897 0.828275
-47.371330 -105.342232 3.129920 0.579721
-47.371330 -105.342232 2.376371 0.525475
-47.371330 -105.342232 1.623629 0.581430
-47.371326 -105.342232 0.870080 0.551858
-47.371330 -105.342232 0.114103 0.582849
-41.978409 -106.905617 0.000005 0.544213
-38.230499 -107.992119 0.000004 0.541299
-35.837776 -108.685753 0.000003 0.575601
-34.174744 -109.167862 0.000002 0.533013
-32.949493 -109.523056 0.000001 0.515999
-47.370682 -105.174896 7.772870 0.537255
-47.371716 -105.174591 6.977818 0.517952
-47.371780 -105.174568 6.193676 0.563043
-47.371380 -105.174690 5.418746 0.562539
-47.371368 -105.174690 4.651379 0.555886
-47.371346 -105.174698 3.889769 0.566918
-47.371349 -105.174698 3.132240 0.539345
-47.371349 -105.174698 2.377144 0.555398
-47.371346 -105.174698 1.622856 0.557794
-47.371346 -105.174698 0.867760 0.590845
-47.371346 -105.174698 0.110230 0.529778
-41.944210 -106.789162 0.000005 0.548562
-38.203976 -107.901802 0.000004 0.541375
-35.816154 -108.612129 0.000003 0.514321
-34.156525 -109.105835 0.000002 0.524544
-32.933784 -109.469574 0.000001 0.540215
-47.371979 -105.006287 7.785363 0.567407
-47.371056 -105.006569 6.988152 0.581460
-47.371220 -105.006523 6.202400 0.568627
-47.371628 -105.006393 5.425983 0.573526
-47.371437 -105.006454 4.656970 0.566796
-47.371342 -105.006485 3.893748 0.553033
-47.371346 -105.006485 3.134624 0.588418
-47.371342 -105.006485 2.377938 0.549493
-47.371342 -105.006485 1.622062 0.547845
-47.371346 -105.006485 0.865376 0.532662
-47.371338 -105.006485 0.106252 0.567864
-41.909203 -106.672951 0.000005 0.545144
-38.176819 -107.811676 0.000004 0.529702
-35.794018 -108.538651 0.000003 0.512978
-34.137875 -109.043930 0.000002 0.519326
-32.917706 -109.416199 0.000002 0.544915
-47.371346 -104.837540 7.797688 0.555642
-47.371948 -104.837357 6.999122 0.605982
-47.371758 -104.837418 6.211575 0.540352
-47.371239 -104.837578 5.433318 0.520485
-47.371269 -104.837563 4.662685 0.563577
-47.371346 -104.837540 3.897836 0.536385
-47.371346 -104.837540 3.137074 0.535042
-47.371346 -104.837540 2.378753 0.550896
-47.371346 -104.837540 1.621246 0.549020
-47.371346 -104.837540 0.862926 0.553429
-47.371346 -104.837540 0.102163 0.541070
-41.873383 -106.556984 0.000005 0.526085
-38.149044 -107.721741 0.000004 0.534936
-35.771370 -108.465340 0.000003 0.512505
-34.118793 -108.982162 0.000002 0.555215
-32.901253 -109.362938 0.000001 0.529458
-47.370735 -104.668053 7.810356 0.564462
-47.371338 -104.667862 7.010045 0.575525
-47.371208 -104.667908 6.220788 0.567041
-47.371513 -104.667809 5.440959 0.543999
-47.371346 -104.667862 4.668587 0.581125
-47.371346 -104.667862 3.902035 0.534096
-47.371346 -104.667862 3.139590 0.584756
-47.371346 -104.667862 2.379592 0.531746
-47.371346 -104.667862 1.620408 0.564492
-47.371346 -104.667862 0.860410 0.552560
-47.371346 -104.667862 0.097964 0.583963
-41.836746 -106.441269 0.000005 0.526726
-38.120628 -107.632004 0.000004 0.532433
-35.748207 -108.392181 0.000003 0.543496
-34.099285 -108.920532 0.000001 0.567163
-32.884430 -109.309799 0.000002 0.550072
-47.372158 -104.497154 7.823900 0.548226
-47.370739 -104.497620 7.021264 0.559731
-47.371780 -104.497276 6.230465 0.572671
-47.371124 -104.497498 5.448696 0.549020
-47.371429 -104.497391 4.674645 0.572534
-47.371346 -104.497421 3.906347 0.564279
-47.371346 -104.497421 3.142172 0.538506
-47.371346 -104.497421 2.380452 0.543236
-47.371346 -104.497421 1.619548 0.561425
-47.371346 -104.497421 0.857827 0.588296
-47.371346 -104.497421 0.093653 0.544610
-41.799309 -106.325821 0.000005 0.545495
-38.091599 -107.542465 0.000004 0.542367
-35.724541 -108.319183 0.000003 0.550317
-34.079342 -108.859039 0.000002 0.522576
-32.867237 -109.256775 0.000001 0.545495
-47.371620 -104.326103 7.837272 0.524758
-47.371712 -104.326073 7.033137 0.517647
-47.371265 -104.326225 6.240182 0.566766
-47.371414 -104.326172 5.456745 0.531243
-47.371262 -104.326225 4.680831 0.550072
-47.371346 -104.326202 3.910770 0.571633
-47.371346 -104.326195 3.144822 0.558511
-47.371346 -104.326202 2.381335 0.540810
-47.371346 -104.326202 1.618665 0.530953
-47.371346 -104.326195 0.855177 0.563302
-47.371346 -104.326202 0.089229 0.540795
-41.761063 -106.210632 0.000005 0.532555
-38.061939 -107.453125 0.000004 0.529976
-35.700359 -108.246353 0.000003 0.568429
-34.058975 -108.797684 0.000002 0.575402
-32.849674 -109.203873 0.000001 0.546288
-47.371117 -104.154251 7.851000 0.551598
-47.371166 -104.154236 7.044966 0.568322
-47.371868 -104.153992 6.250370 0.546197
-47.371037 -104.154282 5.464895 0.574823
-47.371353 -104.154175 4.687209 0.555764
-47.371346 -104.154175 3.915309 0.573281
-47.371346 -104.154175 3.147542 0.569528
-47.371346 -104.154175 2.382241 0.556435
-47.371342 -104.154175 1.617759 0.560784
-47.371346 -104.154175 0.852458 0.574823
-47.371346 -104.154175 0.084691 0.565942
-41.722015 -106.095718 0.000005 0.543206
-38.031658 -107.364006 0.000003 0.543908
-35.675674 -108.173698 0.000003 0.527657
-34.038177 -108.736473 0.000002 0.547219
-32.831741 -109.151093 0.000001 0.537255
-47.370640 -103.981567 7.865091 0.533181
-47.370636 -103.981567 7.057101 0.579568
-47.371376 -103.981308 6.260601 0.559136
-47.371349 -103.981316 5.473362 0.586404
-47.371445 -103.981285 4.693749 0.537255
-47.371346 -103.981316 3.919962 0.569757
-47.371342 -103.981316 3.150329 0.559686
-47.371342 -103.981316 2.383170 0.521950
-47.371342 -103.981316 1.616831 0.548898
-47.371342 -103.981316 0.849670 0.570748
-47.371346 -103.981316 0.080038 0.565270
-41.682167 -105.981071 0.000005 0.528710
-38.000755 -107.275093 0.000004 0.589136
-35.650478 -108.101219 0.000003 0.551553
-34.016953 -108.675407 0.000002 0.579507
-32.813438 -109.098442 0.000001 0.534401
-47.372238 -103.807297 7.880087 0.586114
-47.371693 -103.807487 7.069908 0.584298
-47.370895 -103.807777 6.271093 0.580392
-47.371674 -103.807495 5.482042 0.559960
-47.371277 -103.807640 4.700420 0.559747
-47.371346 -103.807617 3.924732 0.588235
-47.371349 -103.807617 3.153188 0.540383
-47.371346 -103.807617 2.384121 0.548287
-47.371346 -103.807617 1.615879 0.550393
-47.371346 -103.807617 0.846812 0.582544
-47.371346 -103.807617 0.075268 0.567285
-41.641525 -105.866707 0.000005 0.541436
-37.969231 -107.186401 0.000004 0.512840
-35.624779 -108.028915 0.000003 0.540459
-33.995300 -108.614494 0.000002 0.552804
-32.794773 -109.045921 0.000001 0.524880
-47.371841 -103.632851 7.894915 0.579782
-47.371216 -103.633087 7.082675 0.535409
-47.371555 -103.632957 6.282067 0.534249
-47.371311 -103.633049 5.490828 0.555840
-47.371376 -103.633026 4.707291 0.526360
-47.371349 -103.633034 3.929619 0.549950
-47.371346 -103.633034 3.156116 0.559075
-47.371346 -103.633034 2.385097 0.538872
-47.371346 -103.633034 1.614903 0.530495
-47.371346 -103.633034 0.843884 0.537606
-47.371349 -103.633034 0.070379 0.557382
-41.600082 -105.752632 0.000005 0.535470
-37.937084 -107.097931 0.000004 0.553491
-35.598576 -107.956787 0.000003 0.544045
-33.973225 -108.553726 0.000002 0.520302
-32.775738 -108.993530 0.000001 0.502602
-47.371483 -103.457512 7.910114 0.527459
-47.370750 -103.457787 7.095757 0.557229
-47.371098 -103.457657 6.293091 0.572000
-47.371647 -103.457451 5.499940 0.528679
-47.371479 -103.457512 4.714328 0.526406
-47.371346 -103.457565 3.934627 0.522911
-47.371346 -103.457565 3.159116 0.558083
-47.371346 -103.457565 2.386096 0.538872
-47.371346 -103.457565 1.613904 0.549020
-47.371346 -103.457565 0.840883 0.562753
-47.371346 -103.457565 0.065372 0.534615
-41.557838 -105.638855 0.000005 0.532845
-37.904327 -107.009689 0.000004 0.540978
-35.571873 -107.884850 0.000003 0.541253
-33.950726 -108.493126 0.000002 0.562310
-32.756336 -108.941269 0.000001 0.493523
-47.371162 -103.281235 7.925697 0.543770
-47.371902 -103.280945 7.109531 0.537346
-47.371796 -103.280991 6.304607 0.605173
-47.371300 -103.281181 5.509163 0.546441
-47.371307 -103.281174 4.721503 0.610544
-47.371346 -103.281158 3.939755 0.530983
-47.371346 -103.281158 3.162189 0.581201
-47.371346 -103.281158 2.387120 0.531868
-47.371346 -103.281158 1.612880 0.539727
-47.371346 -103.281158 0.837810 0.616419
-47.371346 -103.281158 0.060244 0.547494
-41.514801 -105.525368 0.000005 0.545937
-37.870953 -106.921677 0.000004 0.539940
-35.544662 -107.813103 0.000003 0.525338
-33.927803 -108.432678 0.000002 0.573938
-32.736572 -108.889153 0.000001 0.533440
-47.370880 -103.104004 7.941661 0.575738
-47.371506 -103.103752 7.123270 0.578180
-47.371372 -103.103806 6.316177 0.573678
-47.371662 -103.103699 5.518720 0.524636
-47.371422 -103.103790 4.728884 0.579660
-47.371346 -103.103821 3.945006 0.517647
-47.371346 -103.103821 3.165335 0.559121
-47.371346 -103.103821 2.388167 0.545739
-47.371346 -103.103821 1.611832 0.558206
-47.371346 -103.103821 0.834665 0.579690
-47.371346 -103.103821 0.054993 0.543450
-41.470982 -105.412186 0.000005 0.542931
-37.836964 -106.833900 0.000004 0.538399
-35.516956 -107.741539 0.000003 0.523629
-33.904461 -108.372391 0.000002 0.525429
-32.716446 -108.837166 0.000001 0.553399
-47.370636 -102.925781 7.958014 0.547387
-47.371124 -102.925591 7.137338 0.568643
-47.370956 -102.925659 6.328022 0.550546
-47.371323 -102.925507 5.528389 0.523049
-47.371250 -102.925537 4.736403 0.559609
-47.371346 -102.925499 3.950380 0.534569
-47.371346 -102.925499 3.168555 0.546258
-47.371342 -102.925507 2.389240 0.549020
-47.371342 -102.925507 1.610760 0.517647
-47.371346 -102.925499 0.831445 0.563729
-47.371346 -102.925499 0.049619 0.533349
-41.426361 -105.299309 0.000005 0.549355
-37.802364 -106.746361 0.000004 0.558556
-35.488750 -107.670174 0.000003 0.543465
-33.880699 -108.312263 0.000002 0.552163
-32.695953 -108.785332 0.000001 0.524636
-47.370430 -102.746567 7.974758 0.540322
-47.370766 -102.746429 7.151741 0.554223
-47.371719 -102.746040 6.340376 0.529046
-47.370987 -102.746338 5.538283 0.565576
-47.371368 -102.746185 4.744134 0.541634
-47.371346 -102.746193 3.955881 0.525368
-47.371346 -102.746193 3.171850 0.570031
-47.371346 -102.746193 2.390337 0.548898
-47.371346 -102.746193 1.609662 0.560784
-47.371346 -102.746193 0.828150 0.566415
-47.371346 -102.746193 0.044119 0.558480
-41.380962 -105.186752 0.000005 0.539712
-37.767159 -106.659065 0.000003 0.517968
-35.460045 -107.599014 0.000003 0.532418
-33.856514 -108.252312 0.000002 0.544106
-32.675106 -108.733635 0.000001 0.548150
-47.372364 -102.565430 7.992472 0.552789
-47.372055 -102.565559 7.166863 0.581109
-47.371342 -102.565857 6.352789 0.534066
-47.371384 -102.565842 5.548527 0.564553
-47.371197 -102.565918 4.752007 0.538170
-47.371346 -102.565857 3.961507 0.551400
-47.371346 -102.565857 3.175221 0.566918
-47.371346 -102.565849 2.391461 0.539391
-47.371346 -102.565849 1.608539 0.535454
-47.371346 -102.565857 0.824779 0.576867
-47.371346 -102.565857 0.038492 0.543450
-41.334778 -105.074509 0.000005 0.558694
-37.731339 -106.572021 0.000004 0.555261
-35.430847 -107.528046 0.000002 0.539605
-33.831913 -108.192528 0.000002 0.503700
-32.653896 -108.682083 0.000001 0.538918
-47.372253 -102.384079 8.010026 0.529900
-47.371758 -102.384293 7.181955 0.581338
-47.370972 -102.384628 6.365487 0.557015
-47.371059 -102.384590 5.558887 0.562814
-47.371334 -102.384476 4.760099 0.563043
-47.371349 -102.384468 3.967263 0.579217
-47.371353 -102.384468 3.178670 0.566232
-47.371349 -102.384468 2.392609 0.548775
-47.371349 -102.384468 1.607391 0.550317
-47.371349 -102.384468 0.821330 0.600107
-47.371349 -102.384468 0.032736 0.545708
-41.287811 -104.962593 0.000005 0.532464
-37.694908 -106.485222 0.000004 0.533928
-35.401146 -107.457291 0.000003 0.539910
-33.806900 -108.132919 0.000001 0.553063
-32.632324 -108.630684 0.000001 0.532586
-47.372192 -102.201637 8.027988 0.604105
-47.371490 -102.201942 7.197396 0.537667
-47.371796 -102.201813 6.378712 0.601709
-47.371487 -102.201942 5.569604 0.565774
-47.371468 -102.201950 4.768374 0.522805
-47.371346 -102.202003 3.973148 0.575372
-47.371349 -102.202003 3.182197 0.524681
-47.371349 -102.202003 2.393784 0.562142
-47.371349 -102.202003 1.606216 0.588861
-47.371349 -102.202003 0.817804 0.523537
-47.371346 -102.202003 0.026851 0.544854
-41.240063 -104.851013 0.000005 0.545220
-37.657879 -106.398689 0.000004 0.545281
-35.370960 -107.386742 0.000003 0.547173
-33.781464 -108.073479 0.000002 0.545098
-32.610394 -108.579437 0.000001 0.535027
-47.372162 -102.018082 8.046367 0.546746
-47.371246 -102.018486 7.213188 0.555688
-47.371464 -102.018387 6.392000 0.532677
-47.371170 -102.018517 5.580440 0.551400
-47.371296 -102.018463 4.776795 0.570031
-47.371346 -102.018440 3.979166 0.587015
-47.371349 -102.018440 3.185802 0.545922
-47.371346 -102.018440 2.394985 0.559594
-47.371346 -102.018440 1.605015 0.528328
