# This PCD file was generated using the MATLABÂ® pcwrite function
# from Computer Vision ToolboxÂ®.
# .PCD v.7 - Point Cloud Data file format
VERSION .7
FIELDS x y z intensity
SIZE 4 4 4 4
TYPE F F F F
COUNT 1 1 1 1
WIDTH 1194
HEIGHT 1
VIEWPOINT 0 0 0 1 0 0 0
POINTS 1194
DATA ascii
-42.482933 -144.717377 0.000002 0.531472
-44.334282 -143.050415 0.000001 0.520424
-45.621040 -141.891800 0.000001 0.546822
-47.162422 -140.503922 0.200000 0.682826
nan nan nan 0.000000
nan nan nan 0.000000
nan nan nan 0.000000
nan nan nan 0.000000
nan nan nan 0.000000
nan nan nan 0.000000
nan nan nan 0.000000
nan nan nan 0.000000
nan nan nan 0.000000
-22.439581 -163.147034 0.000004 0.542290
-34.490593 -152.142899 0.000003 0.554711
-39.664539 -147.418411 0.000002 0.535790
-42.546162 -144.787109 0.000002 0.519844
-44.385830 -143.107254 0.000001 0.527489
-45.664467 -141.939697 0.000001 0.558297
-47.196121 -140.541092 0.200000 0.764492
nan nan nan 0.000000
nan nan nan 0.000000
nan nan nan 0.000000
nan nan nan 0.000000
nan nan nan 0.000000
nan nan nan 0.000000
nan nan nan 0.000000
nan nan nan 0.000000
nan nan nan 0.000000
-22.631960 -163.356247 0.000005 0.545419
-34.605850 -152.268250 0.000003 0.560357
-39.746689 -147.507751 0.000002 0.555840
-42.609875 -144.856400 0.000002 0.567193
-44.437767 -143.163742 0.000001 0.580804
-45.708225 -141.987274 0.000001 0.570321
-47.230080 -140.578018 0.200000 0.677897
nan nan nan 0.000000
nan nan nan 0.000000
nan nan nan 0.000000
nan nan nan 0.000000
nan nan nan 0.000000
nan nan nan 0.000000
nan nan nan 0.000000
nan nan nan 0.000000
nan nan nan 0.000000
-22.825796 -163.564102 0.000005 0.541634
-34.721985 -152.392792 0.000003 0.544381
-39.829468 -147.596512 0.000002 0.543618
-42.674065 -144.925247 0.000002 0.527565
-44.490105 -143.219864 0.000002 0.508186
-45.752316 -142.034561 0.000001 0.546471
-47.264294 -140.614716 0.200000 0.687922
nan nan nan 0.000000
nan nan nan 0.000000
nan nan nan 0.000000
nan nan nan 0.000000
nan nan nan 0.000000
nan nan nan 0.000000
nan nan nan 0.000000
nan nan nan 0.000000
nan nan nan 0.000000
-23.021070 -163.770615 0.000004 0.550393
-34.838982 -152.516510 0.000003 0.544869
-39.912861 -147.684692 0.000002 0.529839
-42.738739 -144.993637 0.000002 0.547295
-44.542824 -143.275620 0.000001 0.508141
-45.796734 -142.081528 0.000001 0.567605
-47.298763 -140.651169 0.200000 0.722194
nan nan nan 0.000000
nan nan nan 0.000000
nan nan nan 0.000000
nan nan nan 0.000000
nan nan nan 0.000000
nan nan nan 0.000000
nan nan nan 0.000000
nan nan nan 0.000000
nan nan nan 0.000000
-23.217798 -163.975739 0.000005 0.537530
-34.956848 -152.639404 0.000003 0.520363
-39.996868 -147.772293 0.000002 0.546715
-42.803894 -145.061569 0.000002 0.530922
-44.595940 -143.331009 0.000001 0.526299
-45.841480 -142.128189 0.000001 0.596948
-47.333485 -140.687378 0.200000 0.670420
nan nan nan 0.000000
nan nan nan 0.000000
nan nan nan 0.000000
nan nan nan 0.000000
nan nan nan 0.000000
nan nan nan 0.000000
nan nan nan 0.000000
nan nan nan 0.000000
nan nan nan 0.000000
-23.415934 -164.179504 0.000005 0.541268
-35.075562 -152.761490 0.000002 0.541863
-40.081478 -147.859314 0.000002 0.525872
-42.869514 -145.129059 0.000001 0.563653
-44.649437 -143.386017 0.000001 0.525750
-45.886551 -142.174545 0.000001 0.552316
-46.797997 -141.281982 0.000001 0.535653
nan nan nan 0.000000
nan nan nan 0.000000
nan nan nan 0.000000
nan nan nan 0.000000
nan nan nan 0.000000
nan nan nan 0.000000
nan nan nan 0.000000
nan nan nan 0.000000
nan nan nan 0.000000
-23.615509 -164.381851 0.000005 0.538460
-35.195129 -152.882736 0.000003 0.547356
-40.166706 -147.945724 0.000002 0.531121
-42.935608 -145.196075 0.000002 0.528023
-44.703316 -143.440659 0.000001 0.482368
-45.931942 -142.220566 0.000001 0.551904
-46.837135 -141.321671 0.000001 0.521538
-62.918095 -125.207077 5.702543 0.692195
-63.067085 -125.057045 5.238141 0.678431
-63.067085 -125.057045 4.728038 0.678431
-63.067085 -125.057045 4.223976 0.678431
-63.067085 -125.057045 3.724786 0.678431
-63.024891 -125.099533 3.224432 0.721660
-62.918026 -125.207153 2.726158 0.664424
-65.029037 -123.081337 2.290905 0.653223
-65.029037 -123.081337 1.709095 0.642771
-65.029037 -123.081337 1.126663 0.601785
-65.029037 -123.081345 0.542354 0.616129
-64.137794 -123.978828 0.100407 0.617197
-62.003105 -126.128487 0.000009 0.514305
-60.247704 -127.896187 0.000007 0.563226
-59.027630 -129.124817 0.000006 0.561120
-58.128738 -130.030014 0.000005 0.523812
-62.773617 -125.207130 5.677124 0.700618
-62.874733 -125.103867 5.201769 0.764126
-62.874737 -125.103867 4.697396 0.725994
-62.874733 -125.103867 4.198997 0.730785
-62.874737 -125.103867 3.705413 0.727932
-62.874737 -125.103867 3.215534 0.741176
-62.773621 -125.207123 2.721178 0.659113
-64.855331 -123.081337 2.288909 0.622950
-64.855331 -123.081337 1.711091 0.621363
-64.855331 -123.081337 1.132655 0.628321
-64.855324 -123.081345 0.552355 0.670542
-64.055717 -123.897881 0.100405 0.618647
-61.936081 -126.062393 0.000009 0.547906
-60.193066 -127.842316 0.000007 0.513893
-58.981602 -129.079422 0.000006 0.561578
-58.089046 -129.990875 0.000006 0.587625
-62.631050 -125.207230 5.652210 0.716777
-62.776093 -125.057030 5.194169 0.678431
-62.776093 -125.057030 4.690993 0.678431
-62.776093 -125.057030 4.193776 0.678431
-62.776093 -125.057030 3.701365 0.678431
-62.735035 -125.099548 3.207802 0.721904
-62.631126 -125.207146 2.716296 0.711727
-64.683990 -123.081337 2.286954 0.633707
-64.683990 -123.081337 1.713046 0.647013
-64.683983 -123.081345 1.138523 0.658457
-64.683983 -123.081345 0.562150 0.662013
-63.973087 -123.817497 0.100403 0.622263
-61.868599 -125.996773 0.000009 0.562127
-60.138050 -127.788818 0.000008 0.548394
-58.935253 -129.034348 0.000006 0.546990
-58.049084 -129.952011 0.000006 0.481361
-62.496990 -125.200401 5.630201 0.684337
-62.633518 -125.057037 5.172855 0.678431
-62.633518 -125.057037 4.673036 0.678431
-62.633514 -125.057037 4.179137 0.678431
-62.633518 -125.057030 3.690012 0.678431
-62.593033 -125.099548 3.199742 0.759060
-62.490597 -125.207115 2.711519 0.699718
-64.514938 -123.081337 2.285039 0.605173
-64.514938 -123.081337 1.714961 0.647059
-64.514938 -123.081337 1.144271 0.633265
-64.514931 -123.081345 0.571743 0.689006
-63.889893 -123.737701 0.100402 0.616556
-61.800659 -125.931625 0.000009 0.551583
-60.082664 -127.735703 0.000007 0.526299
-58.888592 -128.989609 0.000006 0.527352
-58.008854 -129.913437 0.000006 0.534310
-62.406910 -125.148529 5.624138 0.710765
-62.492828 -125.057030 5.151978 0.678431
-62.492828 -125.057030 4.655448 0.678431
-62.492828 -125.057030 4.164799 0.678431
-62.492828 -125.057030 3.678891 0.678431
-62.452904 -125.099548 3.191848 0.764874
-62.351852 -125.207153 2.706834 0.691020
-64.348122 -123.081337 2.283164 0.625437
-64.348122 -123.081337 1.716836 0.663264
-64.348122 -123.081337 1.149902 0.629770
-64.348114 -123.081345 0.581141 0.668345
-63.806145 -123.658485 0.100400 0.611612
-61.732269 -125.866951 0.000009 0.533700
-60.026909 -127.682983 0.000008 0.560845
-58.841621 -128.945190 0.000006 0.520562
-57.968353 -129.875137 0.000006 0.518288
-62.303520 -125.111519 5.613256 0.706188
-62.353970 -125.057037 5.131524 0.678431
-62.353970 -125.057037 4.638216 0.678431
-62.353970 -125.057037 4.150751 0.678431
-62.303066 -125.112007 3.659377 0.709072
-62.314602 -125.099548 3.184114 0.730129
-62.214996 -125.207115 2.702250 0.719768
-64.183479 -123.081337 2.281326 0.622492
-64.183479 -123.081337 1.718674 0.675334
-64.183472 -123.081345 1.155419 0.628122
-64.183472 -123.081345 0.590349 0.676341
-63.721848 -123.579857 0.100399 0.586465
-61.663429 -125.802757 0.000009 0.518471
-59.970791 -127.630646 0.000007 0.560403
-58.794342 -128.901108 0.000006 0.502205
-57.927586 -129.837112 0.000006 0.478080
-62.167145 -125.111519 5.590134 0.779919
-62.216896 -125.057037 5.111485 0.678431
-62.216896 -125.057037 4.621334 0.678431
-62.216896 -125.057037 4.136988 0.678431
-62.167141 -125.111526 3.648834 0.717769
-62.178078 -125.099548 3.176537 0.767819
-62.079811 -125.207161 2.697753 0.683345
-64.052734 -123.046524 2.280297 0.790585
-64.052734 -123.046524 1.719703 0.784543
-64.020943 -123.081337 1.160823 0.639933
-64.020943 -123.081345 0.599369 0.667613
-63.636932 -123.501892 0.100409 0.592706
-61.594139 -125.739044 0.000009 0.526894
-59.914307 -127.578705 0.000008 0.547356
-58.746754 -128.857346 0.000006 0.597452
-57.886555 -129.799393 0.000006 0.539330
-62.032501 -125.111519 5.567478 0.699077
-62.081558 -125.057037 5.091850 0.678431
-62.081558 -125.057037 4.604792 0.678431
-62.081558 -125.057037 4.123503 0.678431
-62.032501 -125.111526 3.638430 0.788540
-62.043282 -125.099548 3.169113 0.753902
-61.946434 -125.207108 2.693354 0.715190
-63.918587 -123.016800 2.279183 0.678431
-63.918587 -123.016800 1.720817 0.678431
-63.860474 -123.081345 1.166119 0.643397
-63.860470 -123.081345 0.608208 0.645121
-63.551281 -123.424736 0.100452 0.546014
-61.524410 -125.675812 0.000009 0.549432
-59.857460 -127.527161 0.000007 0.576486
-58.698864 -128.813919 0.000006 0.552712
-57.845261 -129.761948 0.000006 0.537987
-61.899536 -125.111519 5.545279 0.722911
-61.947914 -125.057037 5.072611 0.678431
-61.947914 -125.057037 4.588583 0.678431
-61.947914 -125.057037 4.110289 0.678431
-61.899544 -125.111519 3.628236 0.803586
-61.910172 -125.099548 3.161838 0.753643
-61.814610 -125.207184 2.689035 0.706600
-63.759312 -123.016800 2.277446 0.678431
-63.759312 -123.016800 1.722554 0.678431
-63.702007 -123.081337 1.171308 0.623560
-63.702007 -123.081345 0.616868 0.668635
-63.466125 -123.347023 0.100317 0.595254
-61.454243 -125.613075 0.000009 0.520378
-59.800255 -127.476013 0.000007 0.551827
-58.650669 -128.770828 0.000006 0.623575
-57.803707 -129.724792 0.000006 0.576837
-61.770782 -125.108589 5.524502 0.805585
-61.815910 -125.057037 5.053757 0.678431
-61.815914 -125.057037 4.572700 0.678431
-61.815914 -125.057037 4.097340 0.678431
-61.768219 -125.111519 3.618245 0.807843
-61.778698 -125.099548 3.154708 0.762341
-61.684525 -125.207115 2.684811 0.696071
-63.601997 -123.016800 2.275743 0.678431
-63.601997 -123.016800 1.724256 0.678431
-63.545494 -123.081337 1.176392 0.625086
-63.545494 -123.081345 0.625355 0.652964
-63.379715 -123.270714 0.100306 0.592599
-61.383636 -125.550827 0.000009 0.546914
-59.742691 -127.425270 0.000008 0.568154
-58.602177 -128.728073 0.000006 0.557076
-57.761894 -129.687927 0.000006 0.514626
-61.673428 -125.071045 5.515601 0.132479
-61.685516 -125.057037 5.035280 0.678431
-61.685516 -125.057037 4.557134 0.678431
-61.685516 -125.057037 4.084650 0.678431
-61.638489 -125.111519 3.608453 0.796628
-61.648827 -125.099548 3.147722 0.746838
-61.555901 -125.207199 2.680662 0.704097
-63.446594 -123.016800 2.274075 0.678431
-63.446594 -123.016800 1.725925 0.678431
-63.390884 -123.081337 1.181375 0.585199
-63.390884 -123.081337 0.633672 0.651713
-63.292740 -123.195045 0.100301 0.596628
-61.312595 -125.489075 0.000009 0.539788
-59.684780 -127.374924 0.000007 0.539696
-58.553387 -128.685669 0.000006 0.562600
-57.719826 -129.651352 0.000006 0.570459
-61.556683 -125.057037 5.499234 0.678431
-61.556683 -125.057037 5.017173 0.678431
-61.556683 -125.057037 4.541878 0.678431
-61.556683 -125.057037 4.072213 0.678431
-61.510315 -125.111519 3.598857 0.807248
-61.520508 -125.099548 3.140875 0.751034
-61.428944 -125.207130 2.676606 0.696544
-63.293053 -123.016800 2.272440 0.678431
-63.293053 -123.016800 1.727560 0.678431
-63.238125 -123.081337 1.186259 0.584558
-63.238125 -123.081337 0.641823 0.698009
-63.205227 -123.119995 0.100296 0.592447
-61.241123 -125.427818 0.000010 0.529381
-59.626514 -127.324989 0.000008 0.542489
-58.504299 -128.643600 0.000006 0.576333
-57.677502 -129.615082 0.000006 0.526345
-61.429371 -125.057037 5.478650 0.678431
-61.429371 -125.057037 4.999423 0.678431
-61.429375 -125.057037 4.526926 0.678431
-61.429371 -125.057037 4.060024 0.678431
-61.383659 -125.111519 3.589452 0.772412
-61.393703 -125.099548 3.134164 0.727108
-61.303490 -125.207062 2.672631 0.694011
-63.141327 -123.016800 2.270837 0.678431
-63.141327 -123.016800 1.729163 0.678431
-63.087170 -123.081345 1.191046 0.586603
-63.087170 -123.081337 0.649813 0.635966
-63.087170 -123.081345 0.105666 0.625254
-61.169228 -125.367065 0.000010 0.532128
-59.567905 -127.275459 0.000007 0.534508
-58.454922 -128.601868 0.000006 0.505455
-57.634926 -129.579102 0.000006 0.536416
-61.303543 -125.057037 5.458475 0.678431
-61.303543 -125.057037 4.982028 0.678431
-61.303543 -125.057037 4.512271 0.678431
-61.303543 -125.057037 4.048076 0.678431
-61.258476 -125.111519 3.580235 0.660441
-61.268379 -125.099548 3.127586 0.731762
-61.179352 -125.207161 2.668723 0.689235
-62.991371 -123.016792 2.269267 0.678431
-62.991371 -123.016792 1.730733 0.678431
-62.937973 -123.081337 1.195738 0.682124
-62.937973 -123.081345 0.657643 0.644099
-62.937973 -123.081345 0.116653 0.641291
-61.096916 -125.306808 0.000009 0.516136
-59.508949 -127.226341 0.000008 0.526665
-58.405254 -128.560486 0.000006 0.594690
-57.592102 -129.543427 0.000006 0.541665
-61.179161 -125.057037 5.438698 0.678431
-61.179161 -125.057037 4.964976 0.678431
-61.179161 -125.057037 4.497905 0.678431
-61.179161 -125.057037 4.036365 0.678431
-61.137260 -125.108414 3.571659 0.770291
-61.144493 -125.099548 3.121139 0.754101
-61.056793 -125.207077 2.664904 0.711742
-62.843132 -123.016800 2.267727 0.678431
-62.843132 -123.016800 1.732273 0.678431
-62.790493 -123.081337 1.200337 0.656687
-62.790493 -123.081337 0.665319 0.640223
-62.790489 -123.081345 0.127422 0.603433
-61.024193 -125.247047 0.000006 0.534493
-59.449654 -127.177635 0.000008 0.557260
-58.355297 -128.519455 0.000006 0.543923
-57.549026 -129.508041 0.000006 0.541833
-61.056183 -125.057037 5.419313 0.678431
-61.056183 -125.057037 4.948261 0.678431
-61.056183 -125.057037 4.483822 0.678431
-61.056183 -125.057037 4.024885 0.678431
-61.022011 -125.099548 3.564108 0.749599
-61.022011 -125.099548 3.114818 0.740017
-60.935455 -125.207199 2.661149 0.728298
-62.696575 -123.016800 2.266218 0.678431
-62.696575 -123.016800 1.733782 0.678431
-62.644680 -123.081345 1.204845 0.688762
-62.644680 -123.081337 0.672843 0.654673
-62.644676 -123.081345 0.137979 0.616526
-60.951042 -125.187813 0.000006 0.535500
-59.390018 -127.129341 0.000008 0.531823
-58.305058 -128.478775 0.000007 0.551446
-57.505707 -129.472961 0.000006 0.579034
-60.934582 -125.057045 5.400310 0.678431
-60.934582 -125.057037 4.931875 0.678431
-60.934578 -125.057037 4.470018 0.678431
-60.934582 -125.057037 4.013631 0.678431
-60.900894 -125.099548 3.555415 0.766445
-60.900894 -125.099548 3.108623 0.743664
-60.815636 -125.207115 2.657479 0.716686
-62.551651 -123.016800 2.264738 0.678431
-62.551651 -123.016800 1.735262 0.678431
-62.500496 -123.081345 1.209264 0.664500
-62.500496 -123.081345 0.680219 0.657893
-62.500492 -123.081345 0.148327 0.633600
-60.877480 -125.129082 0.000005 0.570886
-59.330048 -127.081467 0.000008 0.583917
-58.254536 -128.438431 0.000006 0.536431
-57.462143 -129.438187 0.000006 0.567590
-60.814316 -125.057037 5.381680 0.678431
-60.814320 -125.057037 4.915812 0.678431
-60.814320 -125.057037 4.456486 0.678431
-60.814320 -125.057037 4.002599 0.678431
-60.781113 -125.099548 3.546894 0.756252
-60.781109 -125.099548 3.102549 0.752667
-60.696960 -125.207253 2.653869 0.728786
-62.408325 -123.016792 2.263288 0.678431
-62.408325 -123.016792 1.736712 0.678431
-62.357895 -123.081337 1.213596 0.659937
-62.357895 -123.081345 0.687450 0.639460
-62.357895 -123.081345 0.158472 0.640986
-60.764000 -125.121445 0.009525 0.482002
-59.269745 -127.034012 0.000008 0.541405
-58.203732 -128.398453 0.000006 0.520027
-57.418339 -129.403717 0.000006 0.530694
-60.695358 -125.057045 5.363417 0.678431
-60.695358 -125.057045 4.900064 0.678431
-60.695358 -125.057045 4.443219 0.678431
-60.695358 -125.057045 3.991783 0.678431
-60.662628 -125.099548 3.538540 0.759899
-60.662624 -125.099548 3.096594 0.731533
-60.579750 -125.207161 2.650343 0.693874
-62.266552 -123.016792 2.261866 0.678431
-62.266552 -123.016792 1.738134 0.678431
-62.216846 -123.081345 1.217843 0.661646
-62.216843 -123.081345 0.694538 0.636774
-62.216846 -123.081345 0.168417 0.617487
-60.653351 -125.111588 0.018429 0.627787
-59.209110 -126.986984 0.000008 0.563851
-58.152649 -128.358826 0.000006 0.547692
-57.374294 -129.369553 0.000006 0.547387
-60.577671 -125.057045 5.345512 0.678431
-60.577671 -125.057037 4.884626 0.678431
-60.577671 -125.057037 4.430213 0.678431
-60.577671 -125.057037 3.981181 0.678431
-60.545410 -125.099548 3.530349 0.753124
-60.545410 -125.099548 3.090757 0.728557
-60.463791 -125.207077 2.646886 0.691722
-62.126297 -123.016792 2.260472 0.678431
-62.126297 -123.016792 1.739528 0.678431
-62.077301 -123.081345 1.222007 0.672496
-62.077301 -123.081345 0.701488 0.648402
-62.077301 -123.081345 0.178167 0.611963
-60.528782 -125.121452 0.030815 0.578088
-59.148151 -126.940376 0.000008 0.544991
-58.101292 -128.319565 0.000007 0.525124
-57.330013 -129.335693 0.000006 0.557855
-60.436642 -125.089905 5.317678 0.721569
-60.436642 -125.089905 4.860628 0.740673
-60.436642 -125.089905 4.409993 0.737285
-60.436642 -125.089905 3.964697 0.725048
-60.429436 -125.099541 3.522320 0.770779
-60.429436 -125.099541 3.085034 0.728099
-60.348869 -125.207237 2.643482 0.720653
-61.946762 -123.071274 2.257992 0.722240
-61.946762 -123.071274 1.742008 0.733059
-61.946762 -123.071274 1.225471 0.735637
-61.946762 -123.071274 0.707271 0.721874
-61.946762 -123.071274 0.186280 0.724895
-60.413040 -125.121452 0.041147 0.568490
-59.086868 -126.894196 0.000008 0.521859
-58.049660 -128.280655 0.000007 0.556939
-57.285496 -129.302155 0.000005 0.493935
-60.345993 -125.057037 5.310750 0.678431
-60.345993 -125.057037 4.854654 0.678431
-60.345993 -125.057037 4.404962 0.678431
-60.345993 -125.057037 3.960595 0.678431
-60.314659 -125.099541 3.514448 0.758114
-60.314659 -125.099533 3.079423 0.755581
-60.235329 -125.207138 2.640160 0.699809
-61.847790 -123.020035 2.257699 0.129412
-61.828060 -123.046799 1.742845 0.129412
-61.828060 -123.046799 1.227983 0.133120
-61.820694 -123.056786 0.712480 0.119738
-61.820694 -123.056793 0.193589 0.452125
-60.298500 -125.121452 0.051277 0.585977
-59.025261 -126.848442 0.000008 0.540322
-57.997761 -128.242111 0.000007 0.549767
-57.240746 -129.268921 0.000006 0.547112
-60.231941 -125.057037 5.293877 0.678431
-60.231937 -125.057037 4.840105 0.678431
-60.231937 -125.057037 4.392704 0.678431
-60.231941 -125.057037 3.950603 0.678431
-60.201061 -125.099533 3.506730 0.720623
-60.201061 -125.099541 3.073922 0.742412
-60.122948 -125.207047 2.636903 0.700343
-61.721527 -123.006783 2.256654 0.678431
-61.692455 -123.046799 1.744155 0.172961
-61.692451 -123.046799 1.231918 0.129412
-61.685192 -123.056793 0.719042 0.119814
-61.685196 -123.056793 0.202796 0.462898
-60.185139 -125.121452 0.061208 0.605951
-58.963341 -126.803123 0.000008 0.560693
-57.945595 -128.203934 0.000007 0.507012
-57.195763 -129.235992 0.000006 0.529397
-60.119030 -125.057037 5.277332 0.678431
-60.119030 -125.057037 4.825839 0.678431
-60.119030 -125.057037 4.380686 0.678431
-60.119030 -125.057037 3.940805 0.678431
-60.088608 -125.099533 3.499162 0.764035
-60.088608 -125.099533 3.068528 0.724773
-60.011509 -125.207222 2.633694 0.705760
-61.586861 -123.006783 2.255365 0.678431
-61.558216 -123.046799 1.745440 0.124819
-61.558216 -123.046799 1.235775 0.136522
-61.551060 -123.056793 0.725475 0.110780
-61.551060 -123.056793 0.211823 0.444358
-60.072918 -125.121452 0.070946 0.569772
-58.901100 -126.758232 0.000008 0.533974
-57.893158 -128.166122 0.000006 0.520882
-57.150551 -129.203384 0.000006 0.522438
-60.007248 -125.057037 5.261111 0.678431
-60.007248 -125.057045 4.811853 0.678431
-60.007248 -125.057037 4.368904 0.678431
-60.007248 -125.057037 3.931199 0.678431
-59.977272 -125.099533 3.491743 0.751492
-59.977272 -125.099533 3.063240 0.722301
-59.901375 -125.207130 2.630563 0.678752
-61.453537 -123.006790 2.254101 0.678431
-61.425316 -123.046791 1.746700 0.117647
-61.425316 -123.046791 1.239557 0.118959
-61.418262 -123.056793 0.731784 0.111696
-61.418262 -123.056793 0.220672 0.452445
-59.961811 -125.121452 0.080493 0.581033
-58.838551 -126.713783 0.000008 0.551995
-57.840466 -128.128677 0.000006 0.585321
-57.105118 -129.171097 0.000005 0.532952
-59.896561 -125.057045 5.245208 0.678431
-59.896561 -125.057045 4.798141 0.678431
-59.896561 -125.057045 4.357351 0.678431
-59.896564 -125.057045 3.921782 0.678431
-59.867031 -125.099533 3.484469 0.734768
-59.867031 -125.099533 3.058055 0.768795
-59.792316 -125.207031 2.627494 0.684886
-61.321518 -123.006790 2.252862 0.678431
-61.293716 -123.046791 1.747935 0.143374
-61.293716 -123.046791 1.243265 0.134737
-61.293716 -123.046791 0.736969 0.116823
-61.286766 -123.056793 0.229349 0.444358
-59.853931 -125.118385 0.089299 0.571740
-58.775696 -126.669769 0.000007 0.538506
-57.787506 -128.091583 0.000006 0.573541
-57.059456 -129.139130 0.000006 0.546242
-59.786942 -125.057053 5.229615 0.678431
-59.786942 -125.057045 4.784697 0.678431
-59.786942 -125.057045 4.346025 0.678431
-59.786942 -125.057045 3.912548 0.678431
-59.757851 -125.099533 3.477337 0.757305
-59.757851 -125.099533 3.052972 0.722652
-59.684113 -125.207230 2.624468 0.740703
-61.190773 -123.006790 2.251647 0.678431
-61.163387 -123.046791 1.749146 0.136980
-61.163387 -123.046791 1.246901 0.133761
-61.163383 -123.046791 0.743038 0.109514
-61.156540 -123.056793 0.237856 0.450980
-59.750244 -125.110649 0.097088 0.551369
-58.712532 -126.626190 0.000008 0.534493
-57.734295 -128.054886 0.000006 0.537652
-57.013573 -129.107468 0.000006 0.567529
-59.641628 -125.111519 5.197871 0.720088
-59.641628 -125.111519 4.757325 0.733959
-59.641628 -125.111519 4.322965 0.724346
-59.641624 -125.111519 3.893748 0.732845
-59.641624 -125.111519 3.468680 0.721233
-59.641624 -125.111519 3.046802 0.706874
-59.577137 -125.207130 2.621518 0.721065
-61.061275 -123.006790 2.250456 0.678431
-61.034298 -123.046791 1.750334 0.131594
-61.034302 -123.046791 1.250465 0.129900
-61.034298 -123.046791 0.748987 0.117510
-61.027550 -123.056793 0.246197 0.455573
-59.663597 -125.078949 0.100424 0.556558
-58.649063 -126.583061 0.000007 0.519554
-57.680824 -128.018539 0.000006 0.536385
-56.967468 -129.076141 0.000005 0.537957
-59.527977 -125.121521 5.179953 0.654521
-59.527977 -125.121521 4.741875 0.625299
-59.527977 -125.121521 4.309949 0.680797
-59.527977 -125.121521 3.883138 0.672801
-59.527977 -125.121521 3.460451 0.624582
-59.527977 -125.121521 3.040937 0.624582
-59.471161 -125.207039 2.618625 0.720638
-60.932991 -123.006798 2.249288 0.678431
-60.906418 -123.046791 1.751498 0.132433
-60.906418 -123.046791 1.253960 0.137530
-60.906418 -123.046783 0.754820 0.123919
-60.899769 -123.056793 0.254375 0.444358
-59.589306 -125.029213 0.100424 0.507469
-58.585297 -126.540375 0.000007 0.541848
-57.627102 -127.982582 0.000006 0.551659
-56.921150 -129.045135 0.000006 0.508019
-59.422054 -125.121529 5.165345 0.662959
-59.422054 -125.121529 4.729280 0.688731
-59.422054 -125.121529 4.299337 0.640787
-59.422050 -125.121536 3.874486 0.638102
-59.422050 -125.121536 3.453743 0.615076
-59.422050 -125.121536 3.036155 0.613001
-59.365959 -125.207253 2.615772 0.707851
-60.805889 -123.006798 2.248143 0.678431
-60.779720 -123.046783 1.752639 0.150759
-60.779724 -123.046783 1.257386 0.122881
-60.779720 -123.046783 0.760538 0.114687
-60.773170 -123.056793 0.262392 0.450980
-59.514668 -124.980003 0.100424 0.573709
-58.521236 -126.498131 0.000007 0.552956
-57.573132 -127.946991 0.000006 0.520104
-56.874615 -129.014450 0.000005 0.562158
-59.317093 -125.121544 5.151023 0.651423
-59.317093 -125.121544 4.716930 0.685664
-59.317093 -125.121544 4.288933 0.630167
-59.317093 -125.121544 3.866005 0.615793
-59.317089 -125.121544 3.447165 0.652262
-59.317093 -125.121544 3.031467 0.645823
-59.261921 -125.207153 2.612992 0.708965
-60.636772 -123.073792 2.245717 0.686610
-60.636772 -123.073792 1.754284 0.706767
-60.631901 -123.081345 1.262765 0.625650
-60.631901 -123.081352 0.769516 0.654169
-60.631901 -123.081352 0.273613 0.633814
-59.416130 -124.967865 0.106875 0.652506
-58.456879 -126.456345 0.000008 0.535363
-57.518913 -127.911781 0.000006 0.541421
-56.827866 -128.984085 0.000006 0.544030
-59.213074 -125.121552 5.136983 0.611765
-59.213074 -125.121552 4.704824 0.709194
-59.213070 -125.121552 4.278734 0.611765
-59.213070 -125.121559 3.857691 0.648035
-59.213070 -125.121559 3.440717 0.656794
-59.213070 -125.121559 3.026871 0.629969
-59.158810 -125.207062 2.610266 0.693645
-59.325790 -124.943932 2.208377 0.668116
-59.325790 -124.943932 1.791623 0.655589
-59.325794 -124.943932 1.374423 0.635721
-59.325794 -124.943932 0.955879 0.678569
-59.325794 -124.943932 0.535082 0.709438
-59.307190 -124.973251 0.116254 0.698039
-58.392231 -126.415001 0.000008 0.529992
-57.464451 -127.876953 0.000006 0.552300
-56.780903 -128.954056 0.000006 0.532784
-59.116249 -125.111511 5.126186 0.717769
-59.116249 -125.111511 4.695516 0.706386
-59.116249 -125.111519 4.270892 0.698848
-59.116249 -125.111519 3.851297 0.698848
-59.116249 -125.111519 3.435758 0.702159
-59.116249 -125.111519 3.023336 0.678691
-59.056396 -125.207298 2.607576 0.725368
-59.244804 -124.905785 2.208199 0.675044
-59.244804 -124.905785 1.791801 0.637171
-59.244804 -124.905785 1.374957 0.689509
-59.244804 -124.905785 0.956771 0.684123
-59.244804 -124.905785 0.536333 0.639536
-59.227661 -124.933212 0.117515 0.649805
-58.327297 -126.374107 0.000008 0.527962
-57.409748 -127.842506 0.000006 0.525338
-56.733738 -128.924347 0.000005 0.568307
-59.027302 -125.089813 5.119065 0.793347
-59.027302 -125.089813 4.689376 0.792401
-59.027302 -125.089813 4.265719 0.795178
-59.027302 -125.089813 3.847081 0.784894
-59.021324 -125.099533 3.431175 0.761105
-59.021324 -125.099533 3.020071 0.771572
-58.955086 -125.207199 2.604957 0.718761
-59.201229 -124.807098 2.209196 0.712871
-59.201229 -124.807098 1.790805 0.610422
-59.201233 -124.807098 1.371965 0.629511
-59.201233 -124.807098 0.951776 0.666362
-59.201233 -124.807098 0.529326 0.663279
-59.177078 -124.846359 0.110518 0.657923
-58.262081 -126.333672 0.000008 0.545861
-57.354805 -127.808441 0.000006 0.524041
-56.686359 -128.894989 0.000006 0.555993
-58.945522 -125.057037 5.115401 0.678431
-58.945522 -125.057037 4.686216 0.678431
-58.945522 -125.057037 4.263058 0.678431
-58.945522 -125.057037 3.844911 0.678431
-58.919785 -125.099533 3.425090 0.763699
-58.919785 -125.099533 3.015733 0.736309
-58.854641 -125.207100 2.602390 0.715557
-60.181133 -123.016792 2.242556 0.678431
-60.181133 -123.016792 1.757444 0.678431
-60.142036 -123.081352 1.275519 0.631708
-60.142036 -123.081352 0.790804 0.628672
-60.142036 -123.081352 0.303478 0.665141
-59.136425 -124.741814 0.100424 0.592432
-58.196579 -126.293694 0.000008 0.536583
-57.299622 -127.774757 0.000006 0.534447
-56.638783 -128.865936 0.000006 0.548287
-58.844437 -125.057037 5.102359 0.678431
-58.844437 -125.057037 4.674972 0.678431
-58.844437 -125.057037 4.253584 0.678431
-58.844437 -125.057037 3.837187 0.678431
-58.819103 -125.099533 3.419124 0.751934
-58.811962 -125.111519 3.010337 0.741039
-58.755039 -125.207008 2.599874 0.673014
-60.060661 -123.016792 2.241540 0.678431
-60.060661 -123.016792 1.758459 0.678431
-60.022179 -123.081345 1.278552 0.650034
-60.022179 -123.081345 0.795865 0.634882
-60.022179 -123.081352 0.310580 0.659022
-59.059792 -124.695778 0.100425 0.532143
-58.130806 -126.254166 0.000008 0.501259
-57.244209 -127.741463 0.000006 0.532097
-56.591003 -128.837234 0.000005 0.509102
-58.744190 -125.057037 5.089577 0.678431
-58.744190 -125.057037 4.663950 0.678431
-58.744190 -125.057037 4.244298 0.678431
-58.744186 -125.057037 3.829618 0.678431
-58.719257 -125.099533 3.413277 0.755688
-58.712227 -125.111519 3.006174 0.742870
-58.656048 -125.207268 2.597387 0.724727
-59.941189 -123.016792 2.240546 0.678431
-59.941189 -123.016792 1.759455 0.678431
-59.903313 -123.081345 1.281525 0.672908
-59.903313 -123.081352 0.800827 0.630900
-59.903313 -123.081345 0.317541 0.613275
-58.982841 -124.650269 0.100425 0.578439
-58.064758 -126.215111 0.000008 0.547265
-57.188564 -127.708549 0.000006 0.524071
-56.543022 -128.808853 0.000006 0.551980
-58.644760 -125.057037 5.077049 0.678431
-58.644760 -125.057037 4.653148 0.678431
-58.644756 -125.057045 4.235198 0.678431
-58.644760 -125.057037 3.822199 0.678431
-58.620224 -125.099533 3.407546 0.758144
-58.613308 -125.111511 3.002095 0.768414
-58.558083 -125.207169 2.594971 0.688350
-59.822689 -123.016792 2.239570 0.678431
-59.822689 -123.016792 1.760430 0.678431
-59.785419 -123.081352 1.284438 0.662577
-59.785419 -123.081352 0.805689 0.621088
-59.785419 -123.081352 0.324363 0.619181
-58.905571 -124.605301 0.100425 0.556100
-57.998436 -126.176514 0.000008 0.525185
-57.132690 -127.676033 0.000006 0.514519
-56.494850 -128.780807 0.000005 0.579385
-58.546127 -125.057037 5.064771 0.678431
-58.546127 -125.057037 4.642560 0.678431
-58.546127 -125.057037 4.226279 0.678431
-58.546127 -125.057045 3.814927 0.678431
-58.521984 -125.099541 3.401929 0.759380
-58.515182 -125.111511 2.998096 0.722515
-58.460896 -125.207077 2.592602 0.694057
-59.705143 -123.016792 2.238614 0.678431
-59.705143 -123.016792 1.761386 0.678431
-59.668472 -123.081345 1.287293 0.651865
-59.668472 -123.081345 0.810455 0.638987
-59.668468 -123.081345 0.331049 0.626993
-58.827991 -124.560867 0.100425 0.610925
-57.931847 -126.138374 0.000008 0.557656
-57.076591 -127.643906 0.000007 0.527214
-56.446480 -128.753113 0.000005 0.551095
-58.448277 -125.057037 5.052738 0.678431
-58.448277 -125.057037 4.632186 0.678431
-58.448277 -125.057037 4.217538 0.678431
-58.448277 -125.057045 3.807802 0.678431
-58.424522 -125.099541 3.396425 0.738735
-58.417831 -125.111511 2.994177 0.731121
-58.364479 -125.206985 2.590281 0.700130
-59.588524 -123.016792 2.237677 0.678431
-59.588524 -123.016792 1.762323 0.678431
-59.552444 -123.081345 1.290092 0.679347
-59.552444 -123.081345 0.815125 0.635264
-59.552444 -123.081352 0.337602 0.645502
-58.750103 -124.516983 0.100425 0.608957
-57.864994 -126.100708 0.000008 0.539773
-57.020271 -127.612167 0.000006 0.551781
-56.397915 -128.725754 0.000005 0.564950
-58.351185 -125.057037 5.040948 0.678431
-58.351181 -125.057037 4.622019 0.678431
-58.351181 -125.057037 4.208974 0.678431
-58.351181 -125.057037 3.800820 0.678431
-58.327820 -125.099541 3.391032 0.736309
-58.321236 -125.111511 2.990338 0.730465
-58.268639 -125.207184 2.587989 0.719600
-59.472813 -123.016800 2.236759 0.678431
-59.472813 -123.016792 1.763241 0.678431
-59.437325 -123.081345 1.292834 0.688121
-59.437325 -123.081345 0.819701 0.648661
-59.437325 -123.081345 0.344023 0.642771
-58.671909 -124.473640 0.100426 0.622675
-57.797878 -126.063499 0.000007 0.551995
-56.963726 -127.580826 0.000006 0.569986
-56.349163 -128.698730 0.000005 0.548852
-58.225380 -125.111519 5.013882 0.800732
-58.225380 -125.111519 4.598682 0.781521
-58.225380 -125.111519 4.189313 0.807843
-58.225380 -125.111519 3.784792 0.807752
-58.225380 -125.111519 3.384181 0.776471
-58.225380 -125.111519 2.986575 0.776547
-58.173710 -125.207077 2.585762 0.685237
-59.328526 -123.071281 2.234847 0.806058
-59.328526 -123.071281 1.765154 0.805585
-59.323082 -123.081345 1.295520 0.637430
-59.323082 -123.081352 0.824186 0.656550
-59.323082 -123.081345 0.350314 0.618570
-58.593422 -124.430832 0.100424 0.599908
-57.730507 -126.026772 0.000008 0.547341
-56.906967 -127.549881 0.000006 0.555764
-56.300220 -128.672043 0.000005 0.559457
-58.152489 -125.069679 5.014489 0.129412
-58.152489 -125.069679 4.599206 0.120180
-58.152489 -125.069679 4.189755 0.145190
-58.152489 -125.069679 3.785152 0.129412
-58.136616 -125.099533 3.380570 0.729168
-58.130241 -125.111526 2.982888 0.710048
-58.079491 -125.206970 2.583579 0.707973
-59.244022 -123.016792 2.234979 0.678431
-59.244022 -123.016792 1.765021 0.678431
-59.209698 -123.081345 1.298152 0.688457
-59.209698 -123.081345 0.828579 0.651301
-59.209698 -123.081345 0.356477 0.617670
-58.514626 -124.388596 0.100426 0.600656
-57.662880 -125.990509 0.000008 0.525536
-56.849991 -127.519333 0.000006 0.553674
-56.251095 -128.645706 0.000006 0.566400
-58.064293 -125.057045 5.006986 0.678431
-58.064293 -125.057045 4.592737 0.678431
-58.064293 -125.057045 4.184303 0.678431
-58.064289 -125.057045 3.780708 0.678431
-58.042076 -125.099533 3.375497 0.733944
-58.035812 -125.111519 2.979277 0.712230
-57.985970 -125.206856 2.581441 0.710231
-59.130905 -123.016785 2.234115 0.678431
-59.130905 -123.016785 1.765885 0.678431
-59.097153 -123.081345 1.300731 0.704036
-59.097153 -123.081345 0.832882 0.674983
-59.097153 -123.081352 0.362516 0.625177
-58.435543 -124.346901 0.100426 0.603418
-57.595001 -125.954720 0.000007 0.528771
-56.792809 -127.489182 0.000006 0.528435
-56.201786 -128.619705 0.000005 0.541131
-57.970066 -125.057037 4.996125 0.678431
-57.970062 -125.057045 4.583371 0.678431
-57.970066 -125.057045 4.176414 0.678431
-57.970062 -125.057045 3.774276 0.678431
-57.948227 -125.099533 3.370529 0.742748
-57.942062 -125.111526 2.975739 0.735225
-57.895508 -125.202118 2.579603 0.712703
-59.018608 -123.016792 2.233270 0.678431
-59.018608 -123.016792 1.766730 0.678431
-58.985428 -123.081345 1.303257 0.643366
-58.985428 -123.081352 0.837098 0.655238
-58.985428 -123.081345 0.368431 0.654063
-58.356182 -124.305733 0.100422 0.573877
-57.526875 -125.919403 0.000007 0.535622
-56.735413 -127.459427 0.000006 0.543511
-56.152298 -128.594055 0.000005 0.522087
-57.876511 -125.057037 4.985486 0.678431
-57.876511 -125.057045 4.574199 0.678431
-57.876511 -125.057045 4.168685 0.678431
-57.876511 -125.057045 3.767975 0.678431
-57.855045 -125.099533 3.365662 0.742718
-57.848991 -125.111526 2.972275 0.714855
-57.804501 -125.199600 2.577683 0.723964
-58.907112 -123.016792 2.232441 0.678431
-58.907112 -123.016792 1.767559 0.678431
-58.874504 -123.081345 1.305730 0.644404
-58.874500 -123.081345 0.841227 0.645411
-58.874500 -123.081345 0.374224 0.637995
-58.276505 -124.265190 0.100429 0.646540
-57.458500 -125.884567 0.000008 0.547478
-56.677811 -127.430084 0.000006 0.551186
-56.102634 -128.568741 0.000005 0.547662
-57.783615 -125.057045 4.975067 0.678431
-57.783615 -125.057045 4.565215 0.678431
-57.783615 -125.057037 4.161118 0.678431
-57.783615 -125.057045 3.761806 0.678431
-57.762520 -125.099533 3.360896 0.740154
-57.756573 -125.111526 2.968882 0.726940
-57.714073 -125.197136 2.575802 0.686915
-58.796398 -123.016792 2.231630 0.678431
-58.796398 -123.016792 1.768370 0.678431
-58.764355 -123.081345 1.308154 0.638468
-58.764355 -123.081345 0.845271 0.708659
-58.764355 -123.081345 0.379898 0.665721
-58.196571 -124.225151 0.100427 0.609888
-57.389885 -125.850212 0.000008 0.524758
-56.620007 -127.401138 0.000006 0.554223
-56.052792 -128.543793 0.000005 0.589837
-57.691364 -125.057037 4.964865 0.678431
-57.691360 -125.057045 4.556417 0.678431
-57.691360 -125.057045 4.153706 0.678431
-57.691360 -125.057045 3.755764 0.678431
-57.670639 -125.099533 3.356229 0.695811
-57.664791 -125.111526 2.965559 0.723278
-57.624210 -125.194725 2.573959 0.701717
-58.686455 -123.016792 2.230836 0.678431
-58.686455 -123.016792 1.769164 0.678431
-58.654968 -123.081345 1.310526 0.650309
-58.654968 -123.081345 0.849232 0.699763
-58.654968 -123.081345 0.385454 0.673381
-58.116375 -124.185631 0.100419 0.612970
-57.321037 -125.816330 0.000007 0.514626
-56.562000 -127.372589 0.000006 0.523110
-56.002777 -128.519180 0.000005 0.533135
-57.599735 -125.057037 4.954876 0.678431
-57.599735 -125.057037 4.547805 0.678431
-57.599735 -125.057037 4.146450 0.678431
-57.599731 -125.057045 3.749848 0.678431
-57.579376 -125.099533 3.351660 0.741970
-57.573631 -125.111526 2.962306 0.776471
-57.536819 -125.188362 2.572372 0.716594
-58.577251 -123.016792 2.230058 0.678431
-58.577251 -123.016792 1.769942 0.678431
-58.546322 -123.081345 1.312849 0.610925
-58.546322 -123.081345 0.853109 0.637736
-58.546322 -123.081345 0.390893 0.675471
-58.035847 -124.146797 0.100432 0.620310
-57.251949 -125.782928 0.000008 0.540612
-56.503796 -127.344452 0.000006 0.553994
-55.952591 -128.494919 0.000005 0.523018
-57.508720 -125.057037 4.945096 0.678431
-57.508717 -125.057037 4.539373 0.678431
-57.508717 -125.057045 4.139346 0.678431
-57.508717 -125.057045 3.744058 0.678431
-57.488720 -125.099533 3.347186 0.727214
-57.483082 -125.111526 2.959121 0.776471
-57.459476 -125.161682 2.571926 0.722683
-58.468781 -123.016792 2.229297 0.678431
-58.468781 -123.016792 1.770703 0.678431
-58.438404 -123.081345 1.315123 0.614954
-58.438404 -123.081345 0.856904 0.688258
-58.438404 -123.081345 0.396219 0.637171
-57.955109 -124.108414 0.100425 0.588647
-57.182632 -125.750015 0.000007 0.506889
-56.445396 -127.316727 0.000006 0.540215
-55.902237 -128.471008 0.000005 0.497948
-57.418297 -125.057037 4.935525 0.678431
-57.418297 -125.057037 4.531120 0.678431
-57.418297 -125.057045 4.132393 0.678431
-57.418297 -125.057045 3.738389 0.678431
-57.398663 -125.099533 3.342808 0.752728
-57.393124 -125.111526 2.956004 0.776471
-57.382076 -125.135437 2.571488 0.701823
-58.361019 -123.016792 2.228551 0.678431
-58.361019 -123.016792 1.771448 0.678431
-58.331192 -123.081345 1.317349 0.618997
-58.331192 -123.081345 0.860619 0.691203
-58.331192 -123.081345 0.401431 0.657511
-57.874119 -124.070549 0.100412 0.556161
-57.113083 -125.717590 0.000008 0.523064
-56.386806 -127.289406 0.000006 0.555764
-55.851719 -128.447449 0.000005 0.548272
-57.328461 -125.057037 4.926157 0.678431
-57.328457 -125.057037 4.523043 0.678431
-57.328457 -125.057045 4.125587 0.678431
-57.328457 -125.057045 3.732842 0.678431
-57.309181 -125.099533 3.338523 0.750408
-57.303745 -125.111519 2.952953 0.786435
-57.304615 -125.109604 2.571058 0.699275
-58.253952 -123.016792 2.227822 0.678431
-58.253952 -123.016792 1.772178 0.678431
-58.224667 -123.081345 1.319528 0.634119
-58.224667 -123.081345 0.864255 0.630426
-58.224667 -123.081345 0.406533 0.661158
-57.792778 -124.033447 0.100430 0.548302
-57.043312 -125.685646 0.000008 0.536736
-56.328026 -127.262489 0.000006 0.539269
-55.801037 -128.424240 0.000005 0.492836
-57.239189 -125.057037 4.916990 0.678431
-57.239185 -125.057045 4.515138 0.678431
-57.239185 -125.057045 4.118929 0.678431
-57.239185 -125.057045 3.727413 0.678431
-57.220268 -125.099533 3.334330 0.752773
-57.214928 -125.111526 2.949968 0.781125
-57.227135 -125.084114 2.570640 0.684825
-58.147560 -123.016792 2.227108 0.678431
-58.147560 -123.016792 1.772892 0.678431
-58.118816 -123.081345 1.321659 0.601114
-58.118816 -123.081345 0.867813 0.652140
-58.118816 -123.081345 0.411524 0.597574
-57.711269 -123.996719 0.100418 0.598108
-56.973320 -125.654190 0.000008 0.536980
-56.269062 -127.235992 0.000006 0.556848
-55.750195 -128.401398 0.000005 0.534646
-57.150467 -125.057037 4.908022 0.678431
-57.150467 -125.057037 4.507406 0.678431
-57.150467 -125.057037 4.112415 0.678431
-57.150467 -125.057045 3.722103 0.678431
-57.131901 -125.099533 3.330227 0.751278
-57.126663 -125.111526 2.947048 0.776471
-57.124985 -125.115364 2.567210 0.639170
-58.041824 -123.016792 2.226410 0.678431
-58.041824 -123.016792 1.773590 0.678431
-58.013622 -123.081345 1.323745 0.618997
-58.013622 -123.081345 0.871294 0.683711
-58.013622 -123.081345 0.416408 0.631571
-57.629421 -123.960754 0.100436 0.596399
-56.903111 -125.623222 0.000008 0.524224
-56.209911 -127.209900 0.000006 0.538003
-55.699192 -128.378906 0.000005 0.522774
-57.062290 -125.057037 4.899250 0.678431
-57.062286 -125.057037 4.499843 0.678431
-57.062286 -125.057045 4.106043 0.678431
-57.062286 -125.057045 3.716908 0.678431
-57.044075 -125.099541 3.326215 0.738170
-57.038937 -125.111526 2.944191 0.784436
-57.037533 -125.114799 2.565529 0.625818
-57.936733 -123.016792 2.225727 0.678431
-57.936733 -123.016792 1.774273 0.678431
-57.909065 -123.081345 1.325785 0.620157
-57.909065 -123.081345 0.874699 0.619043
-57.909065 -123.081345 0.421185 0.622095
-57.547409 -123.925163 0.100422 0.620615
-56.832684 -125.592743 0.000007 0.536767
-56.150578 -127.184235 0.000006 0.521309
-55.648033 -128.356766 0.000005 0.589181
-56.974636 -125.057037 4.890671 0.678431
-56.974636 -125.057037 4.492446 0.678431
-56.974632 -125.057045 4.099812 0.678431
-56.974632 -125.057045 3.711827 0.678431
-56.956772 -125.099533 3.322290 0.751659
-56.951733 -125.111526 2.941397 0.792065
-56.950588 -125.114243 2.563885 0.583490
-57.832272 -123.016792 2.225059 0.678431
-57.832272 -123.016792 1.774941 0.678431
-57.805134 -123.081345 1.327780 0.615351
-57.805134 -123.081345 0.878029 0.632166
-57.805138 -123.081345 0.425856 0.625650
-57.465069 -123.890335 0.100440 0.622248
-56.762051 -125.562767 0.000008 0.512886
-56.091072 -127.158966 0.000006 0.536095
-55.596725 -128.334976 0.000005 0.560403
-56.887497 -125.057037 4.882283 0.678431
-56.887497 -125.057037 4.485213 0.678431
-56.887493 -125.057045 4.093718 0.678431
-56.887493 -125.057045 3.706860 0.678431
-56.869980 -125.099533 3.318454 0.760250
-56.865040 -125.111526 2.938665 0.776471
-56.864143 -125.113701 2.562278 0.702449
-57.728420 -123.016792 2.224406 0.678431
-57.728420 -123.016792 1.775594 0.678431
-57.701813 -123.081345 1.329731 0.603891
-57.701813 -123.081345 0.881284 0.631464
-57.701813 -123.081345 0.430424 0.637690
-57.382568 -123.855896 0.100425 0.622675
-56.691208 -125.533272 0.000007 0.557214
-56.031387 -127.134125 0.000005 0.538659
-55.545261 -128.313568 0.000005 0.529458
-56.800854 -125.057037 4.874083 0.678431
-56.800854 -125.057037 4.478143 0.678431
-56.800854 -125.057045 4.087761 0.678431
-56.800854 -125.057045 3.702004 0.678431
-56.783684 -125.099533 3.314703 0.745907
-56.778843 -125.111526 2.935995 0.784482
-56.778175 -125.113167 2.560706 0.663676
-57.625164 -123.016792 2.223768 0.678431
-57.625164 -123.016792 1.776232 0.678431
-57.599083 -123.081345 1.331638 0.618128
-57.599079 -123.081345 0.884467 0.638331
-57.599083 -123.081345 0.434890 0.653010
-57.299854 -123.821968 0.100402 0.621683
-56.620159 -125.504280 0.000008 0.528328
-55.971531 -127.109695 0.000006 0.558572
-55.493652 -128.292496 0.000005 0.532280
-56.714703 -125.057037 4.866070 0.678431
-56.714703 -125.057045 4.471232 0.678431
-56.714703 -125.057045 4.081940 0.678431
-56.714699 -125.057045 3.697258 0.678431
-56.697876 -125.099541 3.311036 0.748867
-56.693130 -125.111526 2.933385 0.779980
-56.692684 -125.112648 2.559170 0.599939
-57.522488 -123.016792 2.223144 0.678431
-57.522488 -123.016792 1.776856 0.678431
-57.496929 -123.081345 1.333501 0.610254
-57.496929 -123.081345 0.887577 0.642237
-57.496929 -123.081345 0.439254 0.624170
-57.216782 -123.788925 0.100427 0.595865
-56.548912 -125.475784 0.000007 0.543328
-55.911507 -127.085693 0.000006 0.513588
-55.441898 -128.271805 0.000004 0.550515
-56.629025 -125.057037 4.858237 0.678431
-56.629025 -125.057045 4.464480 0.678431
-56.629025 -125.057037 4.076252 0.678431
-56.629025 -125.057045 3.692621 0.678431
-56.612541 -125.099533 3.307454 0.738048
-56.607891 -125.111526 2.930835 0.779355
-56.609192 -125.108177 2.557878 0.621927
-57.420380 -123.016792 2.222534 0.678431
-57.420380 -123.016792 1.777466 0.678431
-57.395340 -123.081345 1.335322 0.641688
-57.395340 -123.081345 0.890617 0.619486
-57.395340 -123.081345 0.443518 0.636759
-57.133606 -123.756142 0.100402 0.595590
-56.477467 -125.447784 0.000007 0.518425
-55.851318 -127.062103 0.000006 0.520958
-55.389999 -128.251465 0.000005 0.553903
-56.543808 -125.057037 4.850589 0.678431
-56.543808 -125.057037 4.457885 0.678431
-56.543808 -125.057045 4.070694 0.678431
-56.543808 -125.057045 3.688091 0.678431
-56.527664 -125.099541 3.303955 0.753079
-56.523113 -125.111526 2.928343 0.774594
-56.524693 -125.107368 2.556428 0.662623
-57.318821 -123.016792 2.221939 0.678431
-57.318821 -123.016792 1.778062 0.678431
-57.294300 -123.081345 1.337101 0.637034
-57.294300 -123.081345 0.893586 0.630518
-57.294300 -123.081345 0.447684 0.620706
-57.050079 -123.724266 0.100427 0.613764
-56.405827 -125.420288 0.000007 0.542107
-55.790962 -127.038933 0.000006 0.531243
-55.337959 -128.231491 0.000005 0.546044
-56.459045 -125.057037 4.843118 0.678431
-56.459045 -125.057045 4.451444 0.678431
-56.459045 -125.057037 4.065269 0.678431
-56.459045 -125.057037 3.683667 0.678431
-56.443241 -125.099533 3.300539 0.759289
-56.438782 -125.111519 2.925910 0.703151
-56.440624 -125.106575 2.555011 0.591012
-57.217800 -123.016792 2.221357 0.678431
-57.217800 -123.016792 1.778643 0.678431
-57.193794 -123.081345 1.338838 0.628748
-57.193794 -123.081345 0.896485 0.631113
-57.193794 -123.081345 0.451752 0.620035
-56.966461 -123.692627 0.100398 0.605478
-56.334000 -125.393280 0.000007 0.534646
-55.730450 -127.016190 0.000006 0.527138
-55.285782 -128.211868 0.000005 0.567071
-56.374718 -125.057037 4.835825 0.678431
-56.374718 -125.057037 4.445155 0.678431
-56.374718 -125.057045 4.059970 0.678431
-56.374718 -125.057045 3.679348 0.678431
-56.359253 -125.099533 3.297202 0.750088
-56.354889 -125.111519 2.923535 0.756558
-56.356972 -125.105804 2.553627 0.627268
-57.117302 -123.016792 2.220789 0.678431
-57.117302 -123.016792 1.779211 0.678431
-57.093811 -123.081345 1.340534 0.635996
-57.093807 -123.081345 0.899316 0.624216
-57.093807 -123.081345 0.455724 0.645121
-56.882500 -123.661919 0.100424 0.629953
-56.261982 -125.366791 0.000008 0.577035
-55.669777 -126.993866 0.000006 0.549264
-55.233467 -128.192627 0.000004 0.522469
-56.290825 -125.057037 4.828706 0.678431
-56.290821 -125.057037 4.439017 0.678431
-56.290821 -125.057037 4.054799 0.678431
-56.290821 -125.057045 3.675132 0.678431
-56.275688 -125.099533 3.293946 0.769985
-56.271423 -125.111526 2.921217 0.704723
-56.273724 -125.105057 2.552277 0.611017
-57.017315 -123.016792 2.220235 0.678431
-57.017315 -123.016792 1.779765 0.678431
-56.994331 -123.081345 1.342190 0.610346
-56.994331 -123.081345 0.902079 0.630701
-56.994331 -123.081345 0.459600 0.651804
-56.798340 -123.631760 0.100443 0.613977
-56.189781 -125.340797 0.000007 0.528283
-55.608952 -126.971970 0.000005 0.569223
-55.181023 -128.173737 0.000004 0.513893
-56.207340 -125.057037 4.821760 0.678431
-56.207340 -125.057037 4.433028 0.678431
-56.207340 -125.057037 4.049754 0.678431
-56.188980 -125.109756 3.662739 0.727428
-56.192543 -125.099533 3.290768 0.767620
-56.188366 -125.111526 2.918955 0.619776
-56.190876 -125.104317 2.550959 0.639643
-56.917824 -123.016792 2.219694 0.678431
-56.917824 -123.016792 1.780306 0.678431
-56.895344 -123.081345 1.343805 0.612772
-56.895344 -123.081345 0.904775 0.600580
-56.895348 -123.081345 0.463382 0.684764
-56.714066 -123.601906 0.100419 0.609064
-56.117401 -125.315308 0.000007 0.507530
-55.547974 -126.950493 0.000005 0.529305
-55.128448 -128.155228 0.000004 0.561578
-56.124264 -125.057037 4.814985 0.678431
-56.124264 -125.057037 4.427186 0.678431
-56.124264 -125.057045 4.044832 0.678431
-56.105225 -125.112968 3.658244 0.692134
-56.109798 -125.099541 3.287669 0.769818
-56.079086 -125.189751 2.909973 0.717174
-56.108414 -125.103600 2.549674 0.659937
-56.818817 -123.016792 2.219167 0.678431
-56.818817 -123.016792 1.780834 0.678431
-56.796841 -123.081345 1.345380 0.641917
-56.796841 -123.081345 0.907405 0.661768
-56.796841 -123.081345 0.467072 0.691203
-56.629490 -123.572929 0.100439 0.594827
-56.044849 -125.290321 0.000007 0.531624
-55.486851 -126.929451 0.000005 0.552880
-55.075741 -128.137085 0.000004 0.567239
-56.041580 -125.057037 4.808380 0.678431
-56.041580 -125.057037 4.421491 0.678431
-56.041580 -125.057037 4.040033 0.678431
-56.023460 -125.111519 3.654579 0.730343
-56.027443 -125.099533 3.284648 0.773571
-55.995743 -125.194832 2.907398 0.721950
-56.026939 -125.101059 2.548515 0.570703
-56.720276 -123.016792 2.218652 0.678431
-56.720276 -123.016792 1.781348 0.678431
-56.698803 -123.081345 1.346916 0.615961
-56.698803 -123.081345 0.909969 0.669367
-56.698803 -123.081345 0.470669 0.595514
-56.544819 -123.544235 0.100411 0.600351
-55.972118 -125.265846 0.000007 0.527398
-55.425579 -126.908829 0.000005 0.517296
-55.022911 -128.119308 0.000004 0.567254
-55.959282 -125.057037 4.801940 0.678431
-55.959282 -125.057037 4.415938 0.678431
-55.959282 -125.057037 4.035357 0.678431
-55.941582 -125.111519 3.650785 0.738705
-55.945473 -125.099533 3.281702 0.764294
-55.912903 -125.199776 2.904891 0.707881
