# This PCD file was generated using the MATLABÂ® pcwrite function
# from Computer Vision ToolboxÂ®.
# .PCD v.7 - Point Cloud Data file format
VERSION .7
FIELDS x y z intensity
SIZE 4 4 4 4
TYPE F F F F
COUNT 1 1 1 1
WIDTH 1161
HEIGHT 1
VIEWPOINT 0 0 0 1 0 0 0
POINTS 1161
DATA ascii
-45.843597 -147.953598 3.709981 0.627390
-45.843590 -147.953598 3.024522 0.642939
-45.843582 -147.953613 2.341264 0.629694
-45.843582 -147.953613 1.658736 0.647059
-45.843575 -147.953613 0.975477 0.634150
-45.843575 -147.953613 0.290017 0.665980
-48.650356 -145.914352 -0.000014 0.541390
-51.807377 -143.620636 -0.000010 0.548211
-53.822853 -142.156311 -0.000008 0.569284
-55.972893 -140.594208 0.200006 0.652918
-56.901741 -139.919357 0.200004 0.750500
-46.089043 -147.953522 7.174185 0.621714
-46.089046 -147.953522 6.461378 0.642466
-46.089043 -147.953522 5.758578 0.613687
-46.089043 -147.953522 5.064104 0.657435
-46.089043 -147.953522 4.376340 0.623529
-46.089039 -147.953522 3.693738 0.615976
-46.089005 -147.953552 3.014791 0.672572
-46.088921 -147.953613 2.338024 0.628214
-46.088921 -147.953613 1.661976 0.662669
-46.088921 -147.953613 0.985203 0.668757
-46.088921 -147.953613 0.306250 0.654902
-48.722042 -146.012299 -0.000014 0.528115
-51.862968 -143.696594 -0.000010 0.548867
-53.868176 -142.218231 -0.000008 0.543526
-56.007256 -140.641159 0.200006 0.748547
-56.931370 -139.959839 0.200005 0.760906
-46.329590 -147.953659 7.125834 0.673503
-46.329586 -147.953659 6.419689 0.653788
-46.329590 -147.953659 5.723455 0.629969
-46.329590 -147.953659 5.035470 0.628794
-46.329590 -147.953659 4.354133 0.645884
-46.329590 -147.953659 3.677909 0.669245
-46.329605 -147.953644 3.005305 0.624857
-46.329666 -147.953613 2.334861 0.614115
-46.329666 -147.953613 1.665139 0.688975
-46.329662 -147.953613 0.994698 0.640711
-46.329659 -147.953613 0.322097 0.630793
-48.794403 -146.109741 -0.000014 0.554620
-51.919090 -143.772171 -0.000010 0.546242
-53.913925 -142.279831 -0.000008 0.515923
-56.041946 -140.687866 0.200006 0.663630
-56.961281 -140.000107 0.200004 0.676356
-46.566040 -147.953537 7.078515 0.628367
-46.566036 -147.953537 6.378889 0.610361
-46.566040 -147.953537 5.689083 0.668925
-46.566040 -147.953537 5.007448 0.616434
-46.566032 -147.953552 4.332402 0.614527
-46.566032 -147.953552 3.662420 0.671687
-46.566032 -147.953552 2.996026 0.658763
-46.565956 -147.953613 2.331773 0.609003
-46.565956 -147.953613 1.668227 0.663218
-46.565956 -147.953613 1.003969 0.614954
-46.565948 -147.953613 0.337571 0.637156
-48.867455 -146.206665 -0.000013 0.535424
-51.975739 -143.847336 -0.000010 0.546288
-53.960110 -142.341110 -0.000008 0.501259
-55.339321 -141.294235 -0.000006 0.567727
-56.991470 -140.040176 0.200005 0.724590
-46.797924 -147.953613 7.032382 0.657603
-46.797924 -147.953613 6.339110 0.632609
-46.797924 -147.953613 5.655572 0.651576
-46.797928 -147.953613 4.980128 0.621454
-46.797924 -147.953613 4.311214 0.678431
-46.797924 -147.953613 3.647319 0.655497
-46.797924 -147.953613 2.986978 0.636713
-46.797928 -147.953613 2.328758 0.623575
-46.797928 -147.953613 1.671242 0.682002
-46.797928 -147.953613 1.013022 0.707683
-46.797928 -147.953613 0.352681 0.628580
-48.941174 -146.303085 -0.000013 0.527337
-52.032913 -143.922119 -0.000010 0.540703
-54.006718 -142.402069 -0.000008 0.544274
-55.378586 -141.345596 -0.000006 0.551293
-57.021942 -140.080032 0.200005 0.714351
-47.025700 -147.953644 6.987305 0.589624
-47.025700 -147.953644 6.300242 0.655909
-47.025700 -147.953644 5.622828 0.639994
-47.025700 -147.953644 4.953434 0.644846
-47.025703 -147.953644 4.290512 0.658518
-47.025700 -147.953644 3.632562 0.668925
-47.025692 -147.953644 2.978137 0.587427
-47.025742 -147.953613 2.325812 0.619089
-47.025742 -147.953613 1.674188 0.625208
-47.025742 -147.953613 1.021865 0.676875
-47.025742 -147.953613 0.367441 0.594415
-49.015560 -146.398987 -0.000014 0.526726
-52.090603 -143.996490 -0.000010 0.551644
-54.053753 -142.462708 -0.000008 0.539788
-55.418209 -141.396667 -0.000006 0.545602
-57.052692 -140.119675 0.200005 0.705058
-47.249474 -147.953644 6.943255 0.674769
-47.249474 -147.953644 6.262262 0.618875
-47.249474 -147.953644 5.590829 0.645167
-47.249477 -147.953644 4.927348 0.674937
-47.249481 -147.953644 4.270280 0.676814
-47.249481 -147.953644 3.618142 0.678111
-47.249466 -147.953659 2.969498 0.678431
-47.249527 -147.953613 2.322934 0.616907
-47.249527 -147.953613 1.677066 0.660044
-47.249523 -147.953613 1.030505 0.647059
-47.249523 -147.953613 0.381862 0.625742
-49.090618 -146.494370 -0.000014 0.550835
-52.148811 -144.070465 -0.000010 0.532952
-54.101204 -142.523010 -0.000008 0.507851
-55.458187 -141.447479 -0.000006 0.550912
-57.083717 -140.159088 0.200005 0.755917
-47.469372 -147.953629 6.900205 0.638819
-47.469376 -147.953629 6.225142 0.674189
-47.469368 -147.953629 5.559558 0.616480
-47.469372 -147.953629 4.901855 0.620661
-47.469368 -147.953629 4.250509 0.651774
-47.469368 -147.953629 3.604051 0.676081
-47.469360 -147.953644 2.961055 0.617258
-47.469395 -147.953613 2.320122 0.621805
-47.469395 -147.953613 1.679878 0.670787
-47.469395 -147.953613 1.038947 0.624582
-47.469391 -147.953613 0.395951 0.679835
-49.166336 -146.589233 -0.000014 0.545144
-52.207542 -144.144028 -0.000010 0.525048
-54.149078 -142.582977 -0.000008 0.520027
-55.498520 -141.498001 -0.000006 0.576455
-57.115013 -140.198303 0.200005 0.664179
-47.685490 -147.953598 6.858130 0.647013
-47.685486 -147.953598 6.188864 0.640650
-47.685486 -147.953598 5.528994 0.640330
-47.685490 -147.953598 4.876938 0.658076
-47.685490 -147.953598 4.231185 0.635523
-47.685486 -147.953598 3.590278 0.666804
-47.685486 -147.953598 2.952802 0.615244
-47.685474 -147.953613 2.317374 0.668452
-47.685474 -147.953613 1.682626 0.619013
-47.685474 -147.953613 1.047196 0.675959
-47.685474 -147.953613 0.409720 0.663096
-49.242725 -146.683548 -0.000013 0.546014
-52.266777 -144.217178 -0.000010 0.554513
-54.197372 -142.642609 -0.000007 0.545693
-55.539207 -141.548233 -0.000006 0.552941
-57.146587 -140.237289 0.200005 0.696315
-47.897835 -147.953659 6.817037 0.629740
-47.897835 -147.953659 6.153431 0.652094
-47.897835 -147.953659 5.499143 0.673823
-47.897839 -147.953659 4.852603 0.698482
-47.897835 -147.953659 4.212313 0.626947
-47.897842 -147.953659 3.576826 0.641718
-47.897812 -147.953674 2.944745 0.617716
-47.897896 -147.953613 2.314688 0.651164
-47.897896 -147.953613 1.685312 0.636439
-47.897896 -147.953613 1.055260 0.686320
-47.897896 -147.953613 0.423179 0.643885
-49.319763 -146.777328 -0.000013 0.520790
-52.326523 -144.289917 -0.000010 0.545022
-54.246078 -142.701920 -0.000008 0.557549
-55.580238 -141.598190 -0.000006 0.562188
-57.178429 -140.276062 0.200005 0.692378
-48.106758 -147.953613 6.776824 0.680781
-48.106754 -147.953613 6.118758 0.606836
-48.106758 -147.953613 5.469931 0.601785
-48.106758 -147.953598 4.828789 0.639460
-48.106758 -147.953598 4.193843 0.625269
-48.106758 -147.953613 3.563663 0.609674
-48.106758 -147.953598 2.936856 0.677577
-48.106758 -147.953613 2.312062 0.624201
-48.106758 -147.953613 1.687938 0.639094
-48.106754 -147.953613 1.063144 0.618173
-48.106750 -147.953613 0.436336 0.664042
-49.397453 -146.870575 -0.000013 0.541848
-52.386780 -144.362228 -0.000009 0.555169
-54.295197 -142.760864 -0.000008 0.545113
-55.621624 -141.647858 -0.000006 0.560830
-57.210541 -140.314590 0.200005 0.674296
-48.312149 -147.953629 6.737531 0.636759
-48.312149 -147.953629 6.084878 0.649546
-48.312153 -147.953629 5.441388 0.666300
-48.312149 -147.953629 4.805520 0.634455
-48.312157 -147.953629 4.175797 0.644999
-48.312153 -147.953629 3.550800 0.637491
-48.312138 -147.953644 2.929150 0.645167
-48.312172 -147.953613 2.309495 0.629343
-48.312172 -147.953613 1.690505 0.646494
-48.312168 -147.953613 1.070851 0.642969
-48.312168 -147.953613 0.449201 0.644419
-49.475796 -146.963287 -0.000013 0.542916
-52.447536 -144.434128 -0.000009 0.522850
-54.344734 -142.819473 -0.000007 0.524453
-55.663349 -141.697250 -0.000006 0.539315
-57.242924 -140.352921 0.200005 0.685832
-48.514221 -147.953629 6.699100 0.648112
-48.514221 -147.953629 6.051740 0.705806
-48.514221 -147.953629 5.413471 0.665385
-48.514221 -147.953629 4.782761 0.631464
-48.514221 -147.953629 4.158147 0.616632
-48.514225 -147.953629 3.538220 0.669947
-48.514202 -147.953644 2.921613 0.610559
-48.514244 -147.953613 2.306984 0.634562
-48.514244 -147.953613 1.693016 0.668513
-48.514240 -147.953613 1.078389 0.643061
-48.514244 -147.953613 0.461782 0.661036
-49.554779 -147.055435 -0.000013 0.539651
-52.508789 -144.505600 -0.000010 0.543175
-54.394669 -142.877747 -0.000008 0.529458
-55.705421 -141.746323 -0.000006 0.557137
-57.275570 -140.391006 0.200005 0.675425
-48.713051 -147.953629 6.661511 0.577844
-48.713055 -147.953629 6.019330 0.620539
-48.713058 -147.953613 5.386166 0.577523
-48.713058 -147.953613 4.760501 0.625284
-48.713058 -147.953629 4.140884 0.618021
-48.713058 -147.953613 3.525915 0.613596
-48.713039 -147.953644 2.914241 0.669444
-48.713070 -147.953613 2.304528 0.610971
-48.713070 -147.953613 1.695471 0.667292
-48.713070 -147.953613 1.085761 0.646006
-48.713074 -147.953613 0.474085 0.606241
-49.634411 -147.147034 -0.000013 0.532967
-52.570545 -144.576630 -0.000010 0.572824
-54.445015 -142.935654 -0.000007 0.562158
-55.747837 -141.795120 -0.000006 0.540154
-57.308483 -140.428864 0.200005 0.689754
-48.908752 -147.953613 6.624738 0.604242
-48.908752 -147.953613 5.987624 0.662623
-48.908752 -147.953613 5.359454 0.629129
-48.908752 -147.953613 4.738726 0.606867
-48.908756 -147.953613 4.123995 0.645502
-48.908752 -147.953613 3.513878 0.656016
-48.908749 -147.953613 2.907029 0.626429
-48.908756 -147.953613 2.302127 0.635721
-48.908756 -147.953613 1.697873 0.625605
-48.908756 -147.953613 1.092972 0.621714
-48.908756 -147.953613 0.486121 0.657313
-49.714680 -147.238083 -0.000012 0.537728
-52.632797 -144.647247 -0.000009 0.540291
-54.495758 -142.993225 -0.000007 0.555306
-55.790588 -141.843613 -0.000006 0.487053
-57.341660 -140.466492 0.200005 0.688151
-49.101391 -147.953598 6.588765 0.645167
-49.101391 -147.953598 5.956605 0.651118
-49.101395 -147.953598 5.333323 0.644999
-49.101395 -147.953598 4.717422 0.638102
-49.101395 -147.953598 4.107473 0.634836
-49.101395 -147.953598 3.502103 0.678660
-49.101406 -147.953583 2.899972 0.645426
-49.101387 -147.953613 2.299777 0.644053
-49.101387 -147.953613 1.700223 0.625223
-49.101387 -147.953613 1.100026 0.677043
-49.101387 -147.953613 0.497896 0.671550
-49.795574 -147.328552 -0.000012 0.541924
-52.695538 -144.717407 -0.000009 0.546578
-54.546906 -143.050415 -0.000007 0.508782
-55.833679 -141.891800 -0.000006 0.528969
-57.375099 -140.503891 0.200005 0.686198
-49.291046 -147.953613 6.553572 0.643809
-49.291054 -147.953613 5.926261 0.635172
-49.291054 -147.953613 5.307758 0.678370
-49.291054 -147.953613 4.696582 0.681041
-49.291054 -147.953613 4.091311 0.634302
-49.291054 -147.953613 3.490582 0.682994
-49.291046 -147.953613 2.893071 0.624628
-49.291054 -147.953613 2.297478 0.623133
-49.291054 -147.953613 1.702522 0.662654
-49.291054 -147.953613 1.106929 0.648051
-49.291054 -147.953613 0.509417 0.635676
-49.877106 -147.418472 -0.000012 0.552377
-52.758766 -144.787140 -0.000009 0.522103
-54.598454 -143.107269 -0.000007 0.579873
-55.877106 -141.939697 -0.000006 0.530236
-57.408798 -140.541061 0.200005 0.714961
-49.477837 -147.953613 6.519131 0.709926
-49.477837 -147.953613 5.896565 0.585824
-49.477837 -147.953613 5.282740 0.646128
-49.477840 -147.953613 4.676186 0.699062
-49.477840 -147.953613 4.075493 0.648966
-49.477840 -147.953613 3.479308 0.618296
-49.477821 -147.953629 2.886317 0.621653
-49.477840 -147.953613 2.295228 0.654765
-49.477840 -147.953613 1.704772 0.639323
-49.477840 -147.953613 1.113684 0.625818
-49.477837 -147.953613 0.520691 0.643778
-49.959255 -147.507813 -0.000012 0.549325
-52.822479 -144.856430 -0.000009 0.518257
-54.650391 -143.163757 -0.000007 0.552987
-55.920860 -141.987289 -0.000006 0.526650
-57.442753 -140.577988 0.200004 0.666712
-49.593079 -148.018173 6.509049 0.678431
-49.661831 -147.953613 5.867502 0.670680
-49.593079 -148.018173 5.275416 0.678431
-49.593079 -148.018173 4.670216 0.678431
-49.593079 -148.018173 4.070863 0.678431
-49.652466 -147.962402 3.469328 0.696727
-49.661816 -147.953629 2.879706 0.618891
-49.661831 -147.953613 2.293026 0.612024
-49.661831 -147.953613 1.706974 0.627527
-49.661835 -147.953613 1.120295 0.654398
-49.661835 -147.953613 0.531725 0.644343
-50.042034 -147.596573 -0.000012 0.549081
-52.886673 -144.925262 -0.000009 0.540536
-54.702728 -143.219879 -0.000006 0.505562
-55.964954 -142.034561 -0.000006 0.531838
-57.476967 -140.614685 0.200005 0.727199
-49.775307 -148.018173 6.475883 0.678431
-49.843102 -147.953613 5.839057 0.625895
-49.775307 -148.018173 5.251326 0.678431
-49.775307 -148.018173 4.650575 0.678431
-49.775307 -148.018173 4.055632 0.678431
-49.843105 -147.953613 3.457475 0.642405
-49.843098 -147.953613 2.873235 0.664530
-49.843109 -147.953613 2.290870 0.669902
-49.843105 -147.953613 1.709130 0.642786
-49.843105 -147.953613 1.126765 0.665782
-49.843105 -147.953613 0.542524 0.625513
-50.125431 -147.684753 -0.000012 0.558572
-52.951347 -144.993652 -0.000009 0.502327
-54.755451 -143.275635 -0.000007 0.538521
-56.009373 -142.081528 -0.000005 0.522148
-57.511436 -140.651138 0.200004 0.721355
-49.954887 -148.018173 6.443418 0.678431
-50.021744 -147.953613 5.811209 0.628717
-49.954887 -148.018173 5.227741 0.678431
-49.954887 -148.018173 4.631349 0.678431
-49.954887 -148.018173 4.040721 0.678431
-50.021744 -147.953613 3.446904 0.652689
-50.021751 -147.953598 2.866900 0.678965
-50.021744 -147.953613 2.288760 0.649729
-50.021744 -147.953613 1.711239 0.641276
-50.021744 -147.953613 1.133099 0.630518
-50.021748 -147.953613 0.553096 0.654154
-50.209435 -147.772354 -0.000012 0.533593
-53.016502 -145.061600 -0.000009 0.548318
-54.808563 -143.331009 -0.000007 0.531151
-56.054119 -142.128189 -0.000005 0.542428
-57.546162 -140.687332 0.200005 0.667262
-50.187534 -147.963684 6.392123 0.723003
-50.197815 -147.953613 5.783946 0.679713
-50.131886 -148.018173 5.204652 0.678431
-50.131889 -148.018173 4.612526 0.678431
-50.131889 -148.018173 4.026123 0.678431
-50.197819 -147.953613 3.436553 0.638209
-50.197815 -147.953613 2.860700 0.689433
-50.197819 -147.953613 2.286695 0.650690
-50.197819 -147.953613 1.713305 0.626276
-50.197819 -147.953613 1.139301 0.622217
-50.197819 -147.953613 0.563446 0.647578
-50.294052 -147.859375 -0.000012 0.526665
-53.082123 -145.129074 -0.000009 0.545525
-54.862064 -143.386032 -0.000007 0.552071
-56.099190 -142.174545 -0.000005 0.436576
-57.010643 -141.281967 -0.000005 0.529000
-50.361259 -147.963684 6.361138 0.788540
-50.371391 -147.953613 5.757254 0.627619
-50.306381 -148.018173 5.182046 0.678431
-50.306381 -148.018173 4.594097 0.678431
-50.361259 -147.963684 4.002933 0.771496
-50.371399 -147.953613 3.426419 0.664485
-50.371395 -147.953613 2.854628 0.686961
-50.371399 -147.953613 2.284672 0.628916
-50.371399 -147.953613 1.715328 0.607126
-50.371399 -147.953613 1.145372 0.607630
-50.371399 -147.953613 0.573581 0.645594
-50.379276 -147.945786 -0.000011 0.542718
-53.148216 -145.196106 -0.000009 0.532570
-54.915947 -143.440659 -0.000006 0.563409
-56.144581 -142.220566 -0.000005 0.558877
-57.049782 -141.321671 -0.000005 0.584634
-75.241623 -123.081429 6.452920 0.649638
-75.241623 -123.081421 5.839477 0.634379
-75.241623 -123.081421 5.234646 0.656123
-75.241623 -123.081421 4.636978 0.635996
-75.241623 -123.081421 4.045086 0.701366
-75.241623 -123.081421 3.457636 0.641489
-75.241699 -123.081345 2.873336 0.651652
-75.241699 -123.081345 2.290905 0.633707
-75.241699 -123.081345 1.709096 0.647059
-75.241699 -123.081345 1.126663 0.641627
-75.241699 -123.081345 0.542355 0.636011
-74.965454 -123.359528 0.000002 0.544289
-72.215805 -126.128448 0.000002 0.548379
-70.460396 -127.896164 0.000002 0.573419
-69.240311 -129.124786 0.000002 0.531426
-68.341415 -130.029984 0.000002 0.590509
-75.067955 -123.081390 6.422384 0.693706
-75.067947 -123.081390 5.813145 0.633478
-75.067955 -123.081383 5.212463 0.610147
-75.067955 -123.081383 4.618894 0.648692
-75.067955 -123.081383 4.031061 0.666850
-75.067955 -123.081383 3.447639 0.651896
-75.067993 -123.081345 2.867345 0.640360
-75.067993 -123.081345 2.288908 0.603143
-75.067993 -123.081345 1.711092 0.657252
-75.067993 -123.081345 1.132655 0.626276
-75.067993 -123.081345 0.552355 0.661936
-74.879036 -123.274307 0.000002 0.533394
-72.148781 -126.062355 0.000002 0.543603
-70.405754 -127.842285 0.000002 0.529961
-69.194283 -129.079407 0.000002 0.475792
-68.301727 -129.990845 0.000002 0.564370
-74.896675 -123.081322 6.392485 0.622293
-74.896675 -123.081314 5.787366 0.667536
-74.896675 -123.081314 5.190744 0.636835
-74.896675 -123.081314 4.601188 0.632120
-74.896675 -123.081314 4.017330 0.617197
-74.896675 -123.081314 3.437852 0.645121
-74.896652 -123.081345 2.861476 0.690517
-74.896652 -123.081345 2.286953 0.637736
-74.896652 -123.081345 1.713046 0.640024
-74.896652 -123.081345 1.138524 0.607004
-74.896652 -123.081345 0.562151 0.618982
-74.792023 -123.189690 0.000002 0.536370
-72.081299 -125.996735 0.000002 0.545174
-70.350739 -127.788788 0.000003 0.522499
-69.147934 -129.034332 0.000002 0.535592
-68.261765 -129.951996 0.000002 0.524742
-74.727570 -123.081375 6.363157 0.640116
-74.727577 -123.081375 5.762079 0.641108
-74.727577 -123.081375 5.169440 0.619532
-74.727570 -123.081375 4.583820 0.653666
-74.727577 -123.081367 4.003860 0.615366
-74.727577 -123.081367 3.428252 0.623713
-74.727600 -123.081345 2.855728 0.641794
-74.727600 -123.081345 2.285039 0.635508
-74.727600 -123.081345 1.714961 0.640635
-74.727600 -123.081345 1.144272 0.627710
-74.727600 -123.081345 0.571745 0.657404
-74.704422 -123.105682 0.000002 0.517418
-72.013367 -125.931580 0.000003 0.526299
-70.295357 -127.735672 0.000002 0.540017
-69.101280 -128.989578 0.000002 0.551843
-68.221535 -129.913406 0.000002 0.533928
-74.560738 -123.081390 6.334440 0.667247
-74.560738 -123.081390 5.737318 0.611246
-74.560738 -123.081390 5.148581 0.628183
-74.560738 -123.081390 4.566814 0.604288
-74.560745 -123.081390 3.990672 0.642939
-74.560738 -123.081390 3.418852 0.640146
-74.560783 -123.081345 2.850097 0.675273
-74.560783 -123.081345 2.283164 0.614450
-74.560783 -123.081345 1.716837 0.617136
-74.560783 -123.081345 1.149903 0.625467
-74.560783 -123.081345 0.581142 0.605020
-74.560783 -123.081345 0.009321 0.637690
-71.944977 -125.866905 0.000002 0.546227
-70.239601 -127.682953 0.000003 0.550713
-69.054306 -128.945160 0.000002 0.532982
-68.181030 -129.875107 0.000002 0.524544
-74.396103 -123.081383 6.306316 0.596292
-74.396103 -123.081383 5.713068 0.595407
-74.396103 -123.081383 5.128150 0.675303
-74.396103 -123.081383 4.550160 0.626230
-74.396103 -123.081383 3.977755 0.595514
-74.396103 -123.081383 3.409646 0.631357
-74.396133 -123.081345 2.844580 0.611444
-74.396141 -123.081345 2.281326 0.595193
-74.396141 -123.081345 1.718674 0.607187
-74.396141 -123.081345 1.155419 0.619257
-74.396141 -123.081345 0.590350 0.612451
-74.396141 -123.081345 0.022238 0.713649
-71.876129 -125.802711 0.000003 0.527886
-70.183479 -127.630615 0.000002 0.508492
-69.007027 -128.901077 0.000003 0.540841
-68.140266 -129.837097 0.000002 0.511254
-74.233597 -123.081360 6.278770 0.650202
-74.233597 -123.081352 5.689318 0.639597
-74.233597 -123.081352 5.108140 0.614618
-74.233604 -123.081352 4.533848 0.612360
-74.233604 -123.081352 3.965104 0.619364
-74.233604 -123.081352 3.400628 0.674357
-74.233604 -123.081345 2.839175 0.657023
-74.233612 -123.081345 2.279525 0.652323
-74.233612 -123.081345 1.720474 0.632883
-74.233612 -123.081345 1.160824 0.636973
-74.233612 -123.081345 0.599370 0.615351
-74.233612 -123.081345 0.034895 0.658686
-71.806839 -125.738998 0.000003 0.545892
-70.126991 -127.578674 0.000003 0.531212
-68.959435 -128.857315 0.000002 0.563607
-68.099236 -129.799362 0.000002 0.538811
-74.073174 -123.081306 6.251787 0.670680
-74.073181 -123.081299 5.666052 0.651148
-74.073181 -123.081299 5.088540 0.650492
-74.073174 -123.081299 4.517867 0.652293
-74.073174 -123.081306 3.952711 0.653407
-74.073174 -123.081306 3.391795 0.650584
-74.073143 -123.081345 2.833880 0.691264
-74.073135 -123.081345 2.277762 0.654902
-74.073135 -123.081345 1.722238 0.643290
-74.073135 -123.081345 1.166119 0.644114
-74.073143 -123.081345 0.608209 0.625986
-74.073135 -123.081345 0.047295 0.655146
-71.737114 -125.675774 0.000002 0.524880
-70.070152 -127.527130 0.000002 0.550134
-68.911545 -128.813889 0.000002 0.511070
-68.057938 -129.761917 0.000002 0.493263
-73.914665 -123.081352 6.225314 0.641123
-73.914673 -123.081345 5.643226 0.675441
-73.914665 -123.081352 5.069309 0.683726
-73.914665 -123.081352 4.502191 0.696864
-73.914665 -123.081352 3.940553 0.669093
-73.914665 -123.081352 3.383129 0.621836
-73.914673 -123.081345 2.828691 0.674907
-73.914673 -123.081345 2.276033 0.636149
-73.914673 -123.081345 1.723967 0.649912
-73.914673 -123.081345 1.171309 0.625254
-73.914673 -123.081345 0.616869 0.641459
-73.914673 -123.081345 0.059446 0.640131
-71.666946 -125.613029 0.000003 0.519478
-70.012947 -127.475983 0.000002 0.562158
-68.863350 -128.770798 0.000002 0.530144
-68.016388 -129.724762 0.000002 0.543465
-73.758133 -123.081367 6.199381 0.623392
-73.758133 -123.081375 5.620864 0.616632
-73.758133 -123.081375 5.050470 0.683757
-73.758133 -123.081375 4.486833 0.681300
-73.758133 -123.081375 3.928643 0.638422
-73.758133 -123.081375 3.374640 0.620447
-73.758156 -123.081352 2.823606 0.629557
-73.758156 -123.081345 2.274339 0.651774
-73.758156 -123.081345 1.725660 0.612680
-73.758163 -123.081345 1.176393 0.633494
-73.758163 -123.081345 0.625356 0.632670
-73.758163 -123.081345 0.071353 0.637171
-71.596336 -125.550781 0.000002 0.539818
-69.955383 -127.425240 0.000003 0.533928
-68.814857 -128.728058 0.000002 0.577035
-67.974571 -129.687912 0.000002 0.572976
-73.603523 -123.081375 6.173971 0.611688
-73.603523 -123.081375 5.598955 0.663294
-73.603523 -123.081375 5.032013 0.674708
-73.603523 -123.081375 4.471786 0.651835
-73.603523 -123.081375 3.916973 0.633692
-73.603523 -123.081375 3.366323 0.636301
-73.603546 -123.081352 2.818623 0.630610
-73.603546 -123.081345 2.272679 0.635096
-73.603546 -123.081345 1.727320 0.602640
-73.603546 -123.081345 1.181376 0.612497
-73.603546 -123.081345 0.633673 0.658000
-73.603546 -123.081345 0.083023 0.612268
-71.525299 -125.489029 0.000002 0.552544
-69.897469 -127.374893 0.000002 0.512489
-68.766068 -128.685638 0.000002 0.540597
-67.932503 -129.651337 0.000002 0.543954
-73.450775 -123.081360 6.149073 0.671870
-73.450775 -123.081360 5.577489 0.635813
-73.450775 -123.081360 5.013927 0.626535
-73.450775 -123.081360 4.457042 0.643977
-73.450775 -123.081360 3.905539 0.653178
-73.450775 -123.081360 3.358173 0.638376
-73.450783 -123.081352 2.813739 0.635126
-73.450790 -123.081345 2.271053 0.620432
-73.450790 -123.081345 1.728947 0.629480
-73.450790 -123.081345 1.186260 0.675242
-73.450790 -123.081345 0.641825 0.666285
-73.450790 -123.081345 0.094459 0.651041
-71.453827 -125.427773 0.000003 0.521233
-69.839203 -127.324959 0.000003 0.535653
-68.716980 -128.643570 0.000002 0.565957
-67.890182 -129.615067 0.000002 0.539559
-73.299843 -123.081337 6.124676 0.669902
-73.299843 -123.081337 5.556451 0.671092
-73.299843 -123.081337 4.996205 0.630076
-73.299843 -123.081337 4.442594 0.648020
-73.299843 -123.081337 3.894333 0.612314
-73.299843 -123.081337 3.350186 0.642420
-73.299835 -123.081345 2.808953 0.660563
-73.299835 -123.081345 2.269458 0.665019
-73.299835 -123.081345 1.730542 0.653880
-73.299835 -123.081345 1.191047 0.620249
-73.299835 -123.081345 0.649814 0.659556
-73.299835 -123.081345 0.105668 0.653376
-71.381935 -125.367020 0.000002 0.553719
-69.780594 -127.275421 0.000002 0.526482
-68.667603 -128.601837 0.000002 0.553826
-67.847603 -129.579086 0.000002 0.485954
-73.150604 -123.081383 6.100740 0.621180
-73.150604 -123.081383 5.535812 0.618341
-73.150604 -123.081383 4.978817 0.629786
-73.150612 -123.081383 4.428419 0.660899
-73.150604 -123.081383 3.883340 0.650126
-73.150612 -123.081383 3.342351 0.620249
-73.150627 -123.081360 2.804260 0.651713
-73.150642 -123.081345 2.267896 0.642908
-73.150642 -123.081345 1.732104 0.658427
-73.150642 -123.081345 1.195738 0.640711
-73.150635 -123.081345 0.657644 0.664836
-73.150642 -123.081345 0.116654 0.660990
-71.309616 -125.306763 0.000002 0.572198
-69.721642 -127.226303 0.000002 0.572168
-68.617935 -128.560455 0.000002 0.507820
-67.804779 -129.543396 0.000002 0.561379
-73.003166 -123.081337 6.077306 0.616724
-73.003166 -123.081337 5.515607 0.660853
-73.003166 -123.081337 4.961795 0.648859
-73.003166 -123.081337 4.414542 0.685512
-73.003166 -123.081337 3.872577 0.641367
-73.003166 -123.081337 3.334680 0.620966
-73.003159 -123.081337 2.799663 0.640146
-73.003159 -123.081345 2.266364 0.674510
-73.003159 -123.081345 1.733636 0.688304
-73.003159 -123.081345 1.200337 0.642527
-73.003159 -123.081345 0.665321 0.691539
-73.003159 -123.081345 0.127424 0.641154
-71.236870 -125.247032 0.000005 0.534905
-69.662346 -127.177597 0.000003 0.531624
-68.567978 -128.519424 0.000002 0.555978
-67.761703 -129.508026 0.000003 0.516564
-72.857330 -123.081360 6.054314 0.670527
-72.857338 -123.081352 5.495783 0.657725
-72.857338 -123.081352 4.945093 0.669734
-72.857338 -123.081360 4.400927 0.663752
-72.857338 -123.081352 3.862018 0.659525
-72.857338 -123.081352 3.327154 0.600732
-72.857338 -123.081352 2.795154 0.624079
-72.857346 -123.081345 2.264862 0.642710
-72.857346 -123.081345 1.735138 0.628443
-72.857346 -123.081345 1.204845 0.656458
-72.857346 -123.081345 0.672845 0.640055
-72.857346 -123.081345 0.137981 0.604425
-71.163719 -125.187798 0.000005 0.528649
-69.602707 -127.129311 0.000003 0.548943
-68.517738 -128.478745 0.000002 0.586145
-67.718384 -129.472946 0.000002 0.559396
-72.713150 -123.081360 6.031780 0.598230
-72.713150 -123.081360 5.476353 0.595895
-72.713150 -123.081360 4.928724 0.617319
-72.713150 -123.081360 4.387582 0.575555
-72.713150 -123.081360 3.851669 0.610162
-72.713150 -123.081360 3.319777 0.612589
-72.713150 -123.081360 2.790734 0.618311
-72.713158 -123.081352 2.263390 0.646647
-72.713158 -123.081345 1.736610 0.637598
-72.713158 -123.081345 1.209265 0.675044
-72.713158 -123.081345 0.680221 0.635081
-72.713158 -123.081345 0.148329 0.621592
-71.090157 -125.129066 0.000004 0.526284
-69.542740 -127.081436 0.000002 0.525093
-68.467216 -128.438416 0.000002 0.562127
-67.674820 -129.438171 0.000002 0.515435
-72.570557 -123.081360 6.009693 0.646113
-72.570557 -123.081360 5.457308 0.641886
-72.570557 -123.081352 4.912680 0.644327
-72.570557 -123.081352 4.374502 0.591913
-72.570549 -123.081360 3.841525 0.659083
-72.570549 -123.081360 3.312547 0.646403
-72.570557 -123.081352 2.786403 0.650523
-72.570564 -123.081345 2.261947 0.648127
-72.570564 -123.081345 1.738053 0.617060
-72.570557 -123.081345 1.213597 0.636164
-72.570557 -123.081345 0.687451 0.626886
-72.570557 -123.081345 0.158474 0.619226
-71.016190 -125.070862 0.000005 0.542977
-69.482437 -127.033981 0.000002 0.568322
-68.416412 -128.398422 0.000002 0.592401
-67.631020 -129.403687 0.000002 0.596414
-72.429512 -123.081345 5.988040 0.630472
-72.429504 -123.081345 5.438639 0.641276
-72.429512 -123.081345 4.896952 0.649882
-72.429512 -123.081345 4.361680 0.640162
-72.429504 -123.081345 3.831581 0.639582
-72.429504 -123.081345 3.305459 0.643671
-72.429512 -123.081345 2.782156 0.652720
-72.429512 -123.081345 2.260533 0.656336
-72.429512 -123.081345 1.739468 0.664820
-72.429512 -123.081345 1.217844 0.670878
-72.429504 -123.081345 0.694540 0.598398
-72.429504 -123.081345 0.168419 0.630655
-70.941811 -125.013168 0.000005 0.515557
-69.421799 -126.986954 0.000003 0.548852
-68.365334 -128.358810 0.000002 0.531792
-67.586975 -129.369537 0.000002 0.536095
-72.289978 -123.081337 5.966815 0.619898
-72.289978 -123.081329 5.420337 0.628489
-72.289978 -123.081329 4.881533 0.678431
-72.289978 -123.081337 4.349110 0.611902
-72.289978 -123.081329 3.821832 0.632303
-72.289978 -123.081329 3.298512 0.694087
-72.289978 -123.081329 2.777993 0.621454
-72.289963 -123.081345 2.259146 0.629877
-72.289963 -123.081345 1.740855 0.647059
-72.289963 -123.081345 1.222008 0.619211
-72.289963 -123.081345 0.701489 0.612284
-72.289963 -123.081345 0.178170 0.634379
-70.867035 -124.956001 0.000005 0.521111
-69.360840 -126.940338 0.000002 0.532372
-68.313972 -128.319550 0.000003 0.516533
-67.542694 -129.335678 0.000002 0.538827
-72.151886 -123.081360 5.945993 0.660029
-72.151886 -123.081360 5.402385 0.632425
-72.151886 -123.081360 4.866407 0.670481
-72.151886 -123.081360 4.336780 0.648753
-72.151886 -123.081360 3.812270 0.633341
-72.151886 -123.081360 3.291696 0.635676
-72.151886 -123.081360 2.773909 0.661326
-72.151894 -123.081345 2.257786 0.639841
-72.151894 -123.081345 1.742214 0.668193
-72.151894 -123.081345 1.226090 0.636408
-72.151894 -123.081345 0.708303 0.628855
-72.151894 -123.081345 0.187729 0.648722
-70.791855 -124.899353 0.000004 0.536843
-69.299561 -126.894157 0.000002 0.538231
-68.262344 -128.280640 0.000003 0.477928
-67.498177 -129.302124 0.000002 0.535195
-72.015266 -123.081337 5.925593 0.664042
-72.015266 -123.081337 5.384795 0.596338
-72.015266 -123.081337 4.851589 0.642390
-72.015266 -123.081337 4.324698 0.666209
-72.015266 -123.081337 3.802901 0.629343
-72.015266 -123.081329 3.285018 0.631922
-72.015274 -123.081322 2.769909 0.655726
-72.015259 -123.081345 2.256453 0.670893
-72.015259 -123.081345 1.743547 0.667903
-72.015259 -123.081345 1.230092 0.624033
-72.015259 -123.081345 0.714983 0.631388
-72.015259 -123.081345 0.197101 0.687587
-70.716293 -124.843231 0.000004 0.524483
-69.237953 -126.848404 0.000002 0.526192
-68.210442 -128.242096 0.000002 0.549126
-67.453423 -129.268890 0.000002 0.570123
-71.880020 -123.081345 5.905583 0.658473
-71.880020 -123.081345 5.367542 0.644511
-71.880020 -123.081345 4.837053 0.657725
-71.880020 -123.081345 4.312850 0.654994
-71.880020 -123.081345 3.793711 0.645136
-71.880020 -123.081345 3.278468 0.641932
-71.880028 -123.081337 2.765984 0.645350
-71.880020 -123.081352 2.255146 0.662181
-71.880020 -123.081345 1.744854 0.672465
-71.880020 -123.081345 1.234016 0.632486
-71.880020 -123.081345 0.721532 0.608438
-71.880020 -123.081345 0.206289 0.673167
-70.640335 -124.787636 0.000004 0.575463
-69.176025 -126.803085 0.000002 0.552789
-68.158272 -128.203903 0.000002 0.569100
-67.408440 -129.235977 0.000003 0.569711
-71.746147 -123.081352 5.885966 0.654734
-71.746147 -123.081352 5.350626 0.633738
-71.746147 -123.081352 4.822804 0.630564
-71.746147 -123.081352 4.301232 0.633204
-71.746147 -123.081352 3.784701 0.657176
-71.746147 -123.081352 3.272047 0.630243
-71.746147 -123.081352 2.762137 0.662654
-71.746147 -123.081345 2.253864 0.654169
-71.746147 -123.081345 1.746136 0.697368
-71.746147 -123.081345 1.237863 0.637873
-71.746147 -123.081345 0.727952 0.600977
-71.746147 -123.081352 0.215298 0.663447
-70.563988 -124.732574 0.000004 0.524636
-69.113785 -126.758202 0.000003 0.542382
-68.105843 -128.166092 0.000002 0.483436
-67.363228 -129.203369 0.000003 0.529000
-71.613609 -123.081352 5.866734 0.695827
-71.613602 -123.081352 5.334044 0.674876
-71.613609 -123.081352 4.808834 0.619654
-71.613609 -123.081352 4.289844 0.631189
-71.613602 -123.081352 3.775869 0.660594
-71.613602 -123.081352 3.265750 0.669261
-71.613602 -123.081360 2.758364 0.653834
-71.613609 -123.081345 2.252608 0.662333
-71.613609 -123.081345 1.747392 0.645731
-71.613609 -123.081345 1.241635 0.619440
-71.613609 -123.081345 0.734248 0.650599
-71.613609 -123.081345 0.224131 0.652308
-70.487267 -124.678047 0.000004 0.533150
-69.051239 -126.713753 0.000003 0.551659
-68.053146 -128.128647 0.000002 0.535332
-67.317795 -129.171082 0.000002 0.533104
-71.482368 -123.081352 5.847878 0.589853
-71.482361 -123.081352 5.317786 0.623301
-71.482361 -123.081352 4.795136 0.600412
-71.482368 -123.081352 4.278677 0.653590
-71.482368 -123.081352 3.767209 0.677134
-71.482361 -123.081352 3.259578 0.626856
-71.482368 -123.081352 2.754667 0.631937
-71.482368 -123.081345 2.251376 0.599420
-71.482368 -123.081345 1.748624 0.649607
-71.482368 -123.081345 1.245333 0.618845
-71.482368 -123.081345 0.740421 0.626108
-71.482368 -123.081345 0.232790 0.613550
-70.410164 -124.624054 0.000004 0.553140
-68.988380 -126.669739 0.000003 0.532845
-68.000191 -128.091568 0.000002 0.578485
-67.272133 -129.139099 0.000002 0.557122
-71.352394 -123.081352 5.829391 0.641703
-71.352394 -123.081352 5.301846 0.644907
-71.352394 -123.081352 4.781708 0.655665
-71.352386 -123.081352 4.267729 0.668513
-71.352394 -123.081352 3.758718 0.635294
-71.352394 -123.081345 3.253527 0.638972
-71.352402 -123.081337 2.751041 0.676661
-71.352394 -123.081352 2.250168 0.653544
-71.352394 -123.081352 1.749832 0.649363
-71.352394 -123.081345 1.248959 0.637263
-71.352394 -123.081345 0.746472 0.645060
-71.352394 -123.081345 0.241281 0.650355
-70.332680 -124.570610 0.000004 0.541024
-68.925217 -126.626160 0.000003 0.519875
-67.946976 -128.054855 0.000002 0.534249
-67.226250 -129.107452 0.000002 0.586450
-71.223656 -123.081352 5.811266 0.645548
-71.223656 -123.081352 5.286217 0.630396
-71.223656 -123.081352 4.768540 0.612131
-71.223656 -123.081352 4.256995 0.621897
-71.223656 -123.081352 3.750393 0.640040
-71.223663 -123.081345 3.247594 0.626123
-71.223671 -123.081322 2.747487 0.644358
-71.223656 -123.081352 2.248984 0.642451
-71.223656 -123.081345 1.751016 0.673961
-71.223656 -123.081345 1.252514 0.651072
-71.223656 -123.081345 0.752406 0.612406
-71.223656 -123.081345 0.249606 0.653925
-70.254829 -124.517700 0.000004 0.530175
-68.861755 -126.583023 0.000002 0.549371
-67.893509 -128.018509 0.000002 0.520027
-67.180145 -129.076126 0.000003 0.573343
-71.096123 -123.081352 5.793495 0.676982
-71.109344 -123.061447 5.276056 0.724041
-71.109344 -123.061447 4.759980 0.750607
-71.109344 -123.061447 4.250017 0.741207
-71.109344 -123.061447 3.744981 0.722988
-71.096123 -123.081352 3.241776 0.615030
-71.096123 -123.081352 2.744000 0.664332
-71.096123 -123.081345 2.247823 0.653346
-71.096123 -123.081345 1.752177 0.665110
-71.096130 -123.081345 1.255999 0.654719
-71.096130 -123.081345 0.758223 0.660975
-71.096123 -123.081345 0.257767 0.638605
-70.176613 -124.465332 0.000003 0.557855
-68.797981 -126.540344 0.000002 0.555062
-67.839783 -127.982552 0.000002 0.534295
-67.133827 -129.045105 0.000003 0.514046
-70.969772 -123.081345 5.776073 0.653559
-71.012009 -123.016800 5.272533 0.678431
-71.012009 -123.016800 4.757013 0.678431
-71.012009 -123.016800 4.247597 0.678431
-71.012009 -123.016800 3.743105 0.678431
-70.969772 -123.081345 3.236074 0.668772
-70.969788 -123.081329 2.740585 0.650858
-70.969772 -123.081345 2.246685 0.622095
-70.969772 -123.081345 1.753315 0.656001
-70.969772 -123.081345 1.259416 0.660090
-70.969772 -123.081345 0.763926 0.654963
-70.969772 -123.081345 0.265769 0.632258
-70.098030 -124.413521 0.000003 0.528344
-68.733925 -126.498100 0.000003 0.526543
-67.785812 -127.946968 0.000002 0.545678
-67.087288 -129.014420 0.000002 0.550072
-70.844574 -123.081345 5.758992 0.659434
-70.886169 -123.016800 5.257730 0.678431
-70.886169 -123.016800 4.744541 0.678431
-70.886169 -123.016800 4.237430 0.678431
-70.886169 -123.016800 3.735220 0.678431
-70.844566 -123.081352 3.230482 0.684291
-70.844574 -123.081345 2.737234 0.660304
-70.844574 -123.081345 2.245569 0.662120
-70.844574 -123.081345 1.754431 0.662928
-70.844574 -123.081345 1.262766 0.631586
-70.844574 -123.081345 0.769517 0.640238
-70.844574 -123.081345 0.273614 0.634745
-70.019089 -124.362251 0.000004 0.536507
-68.669563 -126.456306 0.000003 0.535836
-67.731598 -127.911758 0.000003 0.510094
-67.040543 -128.984070 0.000002 0.442542
-70.720490 -123.081345 5.742247 0.624109
-70.761452 -123.016800 5.243217 0.678431
-70.761452 -123.016800 4.732315 0.678431
-70.761452 -123.016800 4.227463 0.678431
-70.761452 -123.016800 3.727491 0.678431
-70.720482 -123.081352 3.225000 0.618845
-70.720482 -123.081360 2.733949 0.682551
-70.720490 -123.081352 2.244475 0.655894
-70.720490 -123.081352 1.755525 0.593118
-70.720490 -123.081345 1.266050 0.652094
-70.720490 -123.081345 0.774999 0.613886
-70.720490 -123.081352 0.281304 0.612650
-69.939789 -124.311539 0.000003 0.542794
-68.604919 -126.414963 0.000003 0.552438
-67.677132 -127.876923 0.000003 0.531823
-66.993584 -128.954041 0.000002 0.553429
-70.597504 -123.081345 5.725831 0.635554
-70.637833 -123.016800 5.228990 0.678431
-70.637833 -123.016800 4.720328 0.678431
-70.637833 -123.016800 4.217691 0.678431
-70.637833 -123.016800 3.719912 0.678431
-70.597496 -123.081352 3.219626 0.678523
-70.597488 -123.081360 2.730729 0.662501
-70.597504 -123.081345 2.243403 0.633753
-70.597504 -123.081345 1.756598 0.655406
-70.597504 -123.081345 1.269270 0.624811
-70.597504 -123.081345 0.780373 0.588632
-70.597496 -123.081352 0.288844 0.658320
-69.860138 -124.261383 0.000003 0.546639
-68.539986 -126.374077 0.000003 0.527077
-67.622429 -127.842476 0.000003 0.524453
-66.946411 -128.924332 0.000002 0.536934
-70.475586 -123.081345 5.709738 0.640467
-70.515289 -123.016800 5.215043 0.678431
-70.515289 -123.016800 4.708578 0.678431
-70.515289 -123.016800 4.208113 0.678431
-70.515289 -123.016800 3.712483 0.678431
-70.475578 -123.081352 3.214359 0.697398
-70.475571 -123.081360 2.727573 0.628107
-70.475578 -123.081345 2.242352 0.659983
-70.475578 -123.081345 1.757649 0.667506
-70.475578 -123.081345 1.272426 0.620356
-70.475578 -123.081345 0.785640 0.628260
-70.475578 -123.081345 0.296235 0.682094
-69.780136 -124.211777 0.000003 0.525200
-68.474770 -126.333633 0.000003 0.511040
-67.567482 -127.808411 0.000002 0.494469
-66.899040 -128.894958 0.000003 0.519463
-70.354706 -123.081345 5.693964 0.708751
-70.393791 -123.016800 5.201372 0.678431
-70.393791 -123.016800 4.697061 0.678431
-70.393791 -123.016800 4.198723 0.678431
-70.393799 -123.016800 3.705202 0.678431
-70.354706 -123.081345 3.209195 0.672572
-70.354698 -123.081360 2.724479 0.621698
-70.354706 -123.081345 2.241321 0.628305
-70.354706 -123.081345 1.758679 0.658213
-70.354706 -123.081345 1.275520 0.646571
-70.354706 -123.081345 0.790804 0.638911
-70.354706 -123.081345 0.303480 0.640833
-69.699791 -124.162735 0.000003 0.531960
-68.409271 -126.293655 0.000003 0.558129
-67.512306 -127.774727 0.000002 0.564736
-66.851456 -128.865921 0.000003 0.566690
-70.234848 -123.081345 5.678500 0.645197
-70.273323 -123.016800 5.187971 0.678431
-70.273323 -123.016800 4.685771 0.678431
-70.273323 -123.016800 4.189519 0.678431
-70.273323 -123.016800 3.698063 0.678431
-70.234848 -123.081345 3.204134 0.627298
-70.234840 -123.081360 2.721447 0.623621
-70.234848 -123.081352 2.240310 0.618936
-70.234848 -123.081352 1.759689 0.655711
-70.234848 -123.081345 1.278553 0.613184
-70.234848 -123.081345 0.795866 0.655924
-70.234848 -123.081352 0.310581 0.648753
-69.619110 -124.114258 0.000003 0.535424
-68.343491 -126.254135 0.000003 0.539391
-67.456894 -127.741432 0.000002 0.543847
-66.803680 -128.837204 0.000003 0.534264
-70.115982 -123.081345 5.663345 0.626734
-70.153847 -123.016808 5.174835 0.678431
-70.153847 -123.016808 4.674704 0.678431
-70.153847 -123.016808 4.180497 0.678431
-70.153854 -123.016800 3.691067 0.678431
-70.115982 -123.081345 3.199172 0.606271
-70.115982 -123.081352 2.718474 0.642420
-70.115982 -123.081345 2.239321 0.660517
-70.115982 -123.081345 1.760680 0.653956
-70.115982 -123.081345 1.281525 0.646128
-70.115982 -123.081345 0.800828 0.652995
-70.115982 -123.081352 0.317542 0.632807
-69.538094 -124.066338 0.000003 0.526162
-68.277443 -126.215073 0.000003 0.530694
-67.401245 -127.708527 0.000003 0.510353
-66.755699 -128.808838 0.000002 0.534585
-69.998093 -123.081345 5.648491 0.649241
-70.035355 -123.016800 5.161962 0.678431
-70.035355 -123.016808 4.663859 0.678431
-70.035355 -123.016800 4.171656 0.678431
-70.035355 -123.016800 3.684210 0.678431
-69.998085 -123.081345 3.194310 0.591394
-69.998085 -123.081352 2.715561 0.624704
-69.998085 -123.081345 2.238350 0.643076
-69.998085 -123.081345 1.761650 0.663386
-69.998085 -123.081345 1.284439 0.627665
-69.998085 -123.081345 0.805690 0.650248
-69.998085 -123.081345 0.324365 0.632807
-69.456741 -124.018997 0.000003 0.527184
-68.211121 -126.176476 0.000003 0.533120
-67.345367 -127.676003 0.000002 0.531579
-66.707527 -128.780792 0.000002 0.549249
-69.881142 -123.081337 5.633933 0.641367
-69.917801 -123.016808 5.149343 0.678431
-69.917801 -123.016800 4.653229 0.678431
-69.917801 -123.016808 4.162990 0.678431
-69.917801 -123.016800 3.677489 0.678431
-69.881142 -123.081345 3.189544 0.620432
-69.881134 -123.081352 2.712706 0.630884
-69.881134 -123.081352 2.237399 0.633982
-69.881134 -123.081345 1.762601 0.660380
-69.881142 -123.081345 1.287294 0.655085
-69.881142 -123.081345 0.810456 0.654215
-69.881134 -123.081352 0.331051 0.635645
-69.375061 -123.972214 0.000003 0.539086
-68.144531 -126.138336 0.000003 0.514565
-67.289268 -127.643875 0.000003 0.550301
-66.659157 -128.753082 0.000002 0.566644
-69.765121 -123.081337 5.619666 0.611856
-69.784424 -123.046799 5.129558 0.822828
-69.784424 -123.046806 4.636559 0.824552
-69.784424 -123.046806 4.149400 0.843900
-69.801186 -123.016800 3.670903 0.678431
-69.765114 -123.081345 3.184874 0.620310
-69.765114 -123.081352 2.709908 0.631479
-69.765114 -123.081345 2.236467 0.635874
-69.765114 -123.081352 1.763533 0.634714
-69.765114 -123.081352 1.290092 0.645106
-69.765114 -123.081352 0.815126 0.627207
-69.765114 -123.081345 0.337603 0.643748
-69.293053 -123.926003 0.000003 0.520775
-68.077682 -126.100670 0.000003 0.540093
-67.232948 -127.612144 0.000002 0.562768
-66.610588 -128.725723 0.000003 0.547311
-69.649994 -123.081337 5.605685 0.650416
-69.685478 -123.016800 5.124864 0.678431
-69.685478 -123.016800 4.632606 0.678431
-69.685478 -123.016800 4.146177 0.678431
-69.685478 -123.016800 3.664450 0.678431
-69.649994 -123.081345 3.180298 0.643107
-69.649994 -123.081352 2.707165 0.622065
-69.649994 -123.081352 2.235554 0.627680
-69.649994 -123.081352 1.764446 0.649149
-69.649994 -123.081352 1.292834 0.632441
-69.649994 -123.081345 0.819702 0.622568
-69.649994 -123.081345 0.344024 0.632136
-69.210724 -123.880371 0.000003 0.537743
-68.010567 -126.063469 0.000002 0.556573
-67.176407 -127.580803 0.000003 0.569375
-66.561836 -128.698700 0.000002 0.543206
-69.535751 -123.081345 5.591987 0.657786
-69.570648 -123.016800 5.112994 0.678431
-69.570648 -123.016800 4.622604 0.678431
-69.570648 -123.016800 4.138024 0.678431
-69.570648 -123.016800 3.658127 0.678431
-69.535751 -123.081345 3.175814 0.642420
-69.535751 -123.081352 2.704479 0.634089
-69.535751 -123.081345 2.234659 0.625513
-69.535751 -123.081345 1.765341 0.622248
-69.535751 -123.081352 1.295521 0.646021
-69.535751 -123.081352 0.824187 0.604501
-69.535751 -123.081352 0.350315 0.623102
-69.128082 -123.835320 0.000003 0.555703
-67.943192 -126.026733 0.000003 0.552163
-67.119644 -127.549850 0.000002 0.524208
-66.512894 -128.672012 0.000003 0.554025
-69.422371 -123.081337 5.578566 0.635737
-69.427719 -123.071274 5.088036 0.701076
-69.427719 -123.071281 4.601579 0.748012
-69.427719 -123.071281 4.120883 0.743755
-69.427719 -123.071274 3.644833 0.743465
-69.422371 -123.081345 3.171421 0.639719
-69.422363 -123.081352 2.701847 0.631312
-69.422363 -123.081352 2.233782 0.633463
-69.422363 -123.081352 1.766218 0.680644
-69.422363 -123.081345 1.298153 0.647578
-69.422363 -123.081352 0.828580 0.672694
-69.422363 -123.081352 0.356479 0.637369
-69.045128 -123.790833 0.000003 0.512200
-67.875565 -125.990479 0.000003 0.538979
-67.062675 -127.519302 0.000003 0.502525
-66.463768 -128.645676 0.000003 0.563912
-69.309830 -123.081337 5.565419 0.628580
-69.309830 -123.081337 5.074238 0.620691
-69.309830 -123.081337 4.589955 0.647395
-69.309830 -123.081337 4.111407 0.623087
-69.309830 -123.081337 3.637484 0.647608
-69.309830 -123.081337 3.167117 0.634058
-69.309822 -123.081352 2.699268 0.654688
-69.309822 -123.081345 2.232923 0.651011
-69.309822 -123.081345 1.767077 0.635721
-69.309822 -123.081352 1.300731 0.667994
-69.309822 -123.081345 0.832883 0.692912
-69.309822 -123.081352 0.362518 0.645670
-68.961868 -123.746933 0.000003 0.514382
-67.807686 -125.954681 0.000003 0.519234
-67.005486 -127.489151 0.000003 0.552499
-66.414459 -128.619690 0.000003 0.567361
-69.198105 -123.081337 5.552540 0.655726
-69.198097 -123.081337 5.063134 0.602457
-69.198105 -123.081337 4.580599 0.651682
-69.198097 -123.081337 4.103780 0.635935
-69.198097 -123.081337 3.631569 0.638285
-69.198097 -123.081345 3.162901 0.621012
-69.198097 -123.081345 2.696743 0.626291
-69.198097 -123.081345 2.232082 0.650721
-69.198097 -123.081345 1.767918 0.624765
-69.198097 -123.081352 1.303257 0.676005
-69.198097 -123.081345 0.837099 0.629602
-69.198097 -123.081352 0.368433 0.643137
-68.878296 -123.703613 0.000003 0.552895
-67.739555 -125.919373 0.000003 0.546212
-66.948090 -127.459404 0.000003 0.503182
-66.364975 -128.594025 0.000003 0.545617
-69.087173 -123.081337 5.539925 0.643961
-69.087173 -123.081337 5.052258 0.670161
-69.087173 -123.081337 4.571436 0.626169
-69.087173 -123.081337 4.096310 0.657801
-69.087173 -123.081345 3.625775 0.662913
-69.087173 -123.081345 3.158772 0.589120
-69.087173 -123.081345 2.694269 0.626612
-69.092255 -123.071274 2.231442 0.776471
-69.092255 -123.071274 1.768558 0.776471
-69.092262 -123.071274 1.305177 0.777996
-69.092255 -123.071274 0.840303 0.776471
-69.092255 -123.071274 0.372928 0.776501
-68.794426 -123.660881 0.000002 0.571008
-67.671181 -125.884537 0.000003 0.548119
-66.890488 -127.430054 0.000003 0.564584
-66.315308 -128.568726 0.000003 0.527550
-68.977028 -123.081345 5.527571 0.631891
-68.977028 -123.081337 5.041605 0.639078
-68.977028 -123.081337 4.562462 0.625818
-68.977028 -123.081337 4.088994 0.620325
-68.977028 -123.081337 3.620102 0.658351
-68.977028 -123.081345 3.154727 0.606394
-68.977020 -123.081345 2.691846 0.630625
-69.007584 -123.019775 2.231575 0.128466
-68.994171 -123.046799 1.768918 0.129412
-68.994171 -123.046799 1.306259 0.139559
-68.994171 -123.046799 0.842110 0.130159
-68.989204 -123.056801 0.376747 0.451347
-68.710266 -123.618736 0.000002 0.541344
-67.602570 -125.850174 0.000003 0.536538
-66.832687 -127.401108 0.000003 0.550393
-66.265465 -128.543762 0.000003 0.560464
-68.867638 -123.081345 5.515472 0.656321
-68.867638 -123.081345 5.031174 0.680568
-68.867638 -123.081337 4.553674 0.644907
-68.867638 -123.081337 4.081830 0.637827
-68.867638 -123.081345 3.614545 0.628565
-68.867638 -123.081345 3.150768 0.615259
-68.867638 -123.081345 2.689473 0.625406
-68.903999 -123.006798 2.231017 0.678431
-68.884491 -123.046799 1.769711 0.169436
-68.884491 -123.046799 1.308638 0.141817
-68.884491 -123.046799 0.846081 0.136446
-68.879608 -123.056801 0.382314 0.450980
-68.625809 -123.577179 0.000003 0.558404
-67.533722 -125.816292 0.000003 0.536751
-66.774673 -127.372566 0.000003 0.527901
-66.215454 -128.519150 0.000003 0.587610
-68.758995 -123.081345 5.503629 0.631189
-68.758995 -123.081345 5.020961 0.664500
-68.758995 -123.081345 4.545070 0.657038
-68.758995 -123.081345 4.074816 0.607065
-68.758995 -123.081345 3.609106 0.648829
-68.758995 -123.081345 3.146890 0.590219
-68.758987 -123.081352 2.687150 0.653895
-68.794708 -123.006798 2.230239 0.678431
-68.775543 -123.046799 1.770487 0.147036
-68.775543 -123.046799 1.310968 0.129412
-68.775543 -123.046799 0.849968 0.137072
-68.770752 -123.056801 0.387764 0.459754
-68.541061 -123.536209 0.000002 0.509194
-67.464630 -125.782898 0.000003 0.550011
-66.716476 -127.344429 0.000003 0.549157
-66.165268 -128.494904 0.000003 0.491905
-68.651077 -123.081345 5.492033 0.654383
-68.651077 -123.081345 5.010963 0.655756
-68.651077 -123.081337 4.536647 0.661830
-68.651077 -123.081345 4.067949 0.639261
-68.651077 -123.081345 3.603780 0.637797
-68.651077 -123.081345 3.143095 0.625834
-68.651070 -123.081345 2.684876 0.650446
-68.686150 -123.006798 2.229477 0.678431
-68.667328 -123.046799 1.771246 0.109758
-68.667328 -123.046799 1.313248 0.133196
-68.667328 -123.046799 0.853774 0.141512
-68.662621 -123.056801 0.393100 0.461875
-68.456032 -123.495827 0.000002 0.536934
-67.395317 -125.749985 0.000003 0.540276
