# This PCD file was generated using the MATLABÂ® pcwrite function
# from Computer Vision ToolboxÂ®.
# .PCD v.7 - Point Cloud Data file format
VERSION .7
FIELDS x y z intensity
SIZE 4 4 4 4
TYPE F F F F
COUNT 1 1 1 1
WIDTH 1183
HEIGHT 1
VIEWPOINT 0 0 0 1 0 0 0
POINTS 1183
DATA ascii
-28.290085 122.263298 2.390207 0.678431
-28.290085 122.263298 1.609793 0.678431
-28.290085 122.263298 0.828542 0.678431
-28.300331 122.168297 0.052609 0.510018
-28.982817 115.840340 -0.000025 0.528923
-29.401266 111.960510 -0.000019 0.536110
-29.668409 109.483582 -0.000016 0.514138
-29.854084 107.762032 -0.000013 0.543572
-29.990879 106.493668 -0.000011 0.510933
-28.133436 122.168297 7.953699 0.790097
-28.133436 122.168304 7.133504 0.636240
-28.133436 122.168304 6.324826 0.538445
-28.133436 122.168297 5.525723 0.688762
-28.133436 122.168304 4.734346 0.602121
-28.133436 122.168297 3.948905 0.687953
-28.123850 122.251724 3.171796 0.380331
-28.123850 122.251717 2.390319 0.368383
-28.123850 122.251717 1.609680 0.351934
-28.123850 122.251724 0.828203 0.328313
-28.133436 122.168304 0.051093 0.606928
-28.862192 115.826897 -0.000025 0.541634
-29.307716 111.950089 -0.000019 0.525719
-29.592146 109.475082 -0.000016 0.532952
-29.789833 107.754868 -0.000013 0.566323
-29.935480 106.487495 -0.000011 0.531136
-27.966272 122.168289 7.958623 0.321019
-27.966270 122.168304 7.137753 0.663264
-27.966270 122.168297 6.328403 0.410391
-27.966270 122.168297 5.528640 0.694728
-27.966270 122.168297 4.736607 0.458335
-27.966270 122.168297 3.950517 0.691188
-27.954681 122.263298 3.173339 0.678431
-27.954681 122.263298 2.390833 0.678431
-27.954681 122.263298 1.609166 0.678431
-27.954681 122.263298 0.826661 0.678431
-27.966272 122.168289 0.049482 0.462715
-28.741661 115.812622 -0.000025 0.528359
-29.214241 111.939011 -0.000019 0.554574
-29.515942 109.466057 -0.000015 0.540475
-29.725634 107.747269 -0.000014 0.552132
-29.880125 106.480942 -0.000011 0.561486
-27.798820 122.168297 7.963849 0.825956
-27.798820 122.168304 7.142257 0.639582
-27.798820 122.168304 6.332199 0.563470
-27.798820 122.168304 5.531735 0.844450
-27.798820 122.168297 4.739007 0.559228
-27.798820 122.168304 3.952229 0.895262
-27.786558 122.263290 3.174367 0.678431
-27.786558 122.263290 2.391177 0.678431
-27.786558 122.263290 1.608824 0.678431
-27.786558 122.263290 0.825632 0.678431
-27.798820 122.168297 0.047771 0.559899
-28.621235 115.797501 -0.000025 0.541604
-29.120844 111.927292 -0.000019 0.553628
-29.439802 109.456497 -0.000016 0.567452
-29.661488 107.739212 -0.000013 0.553368
-29.824816 106.473999 -0.000011 0.528161
-27.702217 121.645912 7.837316 0.485023
-27.693602 121.709167 7.046942 0.584222
-27.693602 121.709175 6.251900 0.491386
-27.693602 121.709183 5.466274 0.618524
-27.693600 121.709183 4.688240 0.524544
-27.702217 121.645912 3.910808 0.547662
-27.625963 122.205803 3.172606 0.075151
-27.625963 122.205811 2.390589 0.210895
-27.625963 122.205803 1.609411 0.211902
-27.625963 122.205803 0.827395 0.209705
-27.702171 121.646255 0.089163 0.489891
-28.500917 115.781548 -0.000025 0.542824
-29.027534 111.914909 -0.000019 0.555673
-29.363731 109.446411 -0.000015 0.574105
-29.597403 107.730713 -0.000013 0.545037
-29.769558 106.466667 -0.000011 0.555215
-27.702213 120.499138 7.552826 0.529091
-27.702213 120.499138 6.787857 0.705119
-27.702213 120.499130 6.033626 0.601236
-27.702213 120.499130 5.288330 0.464897
-27.702213 120.499138 4.550237 0.523140
-27.702213 120.499138 3.817682 0.555688
-27.617916 121.087334 3.118241 0.094118
-27.617916 121.087334 2.372481 0.217563
-27.617916 121.087334 1.627519 0.230045
-27.617916 121.087334 0.881758 0.240497
-27.650517 120.859863 0.152437 0.658152
-28.380713 115.764740 -0.000025 0.533562
-28.934311 111.901886 -0.000019 0.539300
-29.287733 109.435791 -0.000015 0.547433
-29.533375 107.721771 -0.000013 0.571847
-29.714354 106.458954 -0.000011 0.544427
-27.702188 119.459015 7.295054 0.459663
-27.638620 119.881554 6.657884 0.527642
-27.638618 119.881561 5.924129 0.462379
-27.638618 119.881561 5.199064 0.673991
-27.702188 119.459023 4.431851 0.453910
-27.632196 119.924248 3.771878 0.094118
-27.615078 120.038040 3.067260 0.322728
-27.615076 120.038048 2.355499 0.324132
-27.615076 120.038048 1.644501 0.387320
-27.615076 120.038048 0.932739 0.413230
-27.615076 120.038048 0.218685 0.300374
-28.260626 115.747108 -0.000025 0.534066
-28.841179 111.888206 -0.000019 0.518685
-29.211811 109.424637 -0.000015 0.522774
-29.469414 107.712364 -0.000012 0.522942
-29.659203 106.450851 -0.000011 0.550942
-27.702187 118.511032 7.060364 0.533272
-27.702187 118.511040 6.363237 0.634684
-27.702187 118.511032 5.675897 0.360754
-27.702187 118.511032 4.996698 0.526711
-27.702187 118.511040 4.324065 0.441642
-27.618481 119.042198 3.700569 0.082322
-27.618479 119.042198 3.018882 0.175799
-27.618479 119.042198 2.339385 0.177691
-27.618479 119.042198 1.660615 0.181491
-27.618479 119.042198 0.981117 0.163546
-27.618479 119.042198 0.299431 0.193194
-28.140671 115.728638 -0.000025 0.532189
-28.748148 111.873878 -0.000019 0.533135
-29.135971 109.412956 -0.000015 0.519707
-29.405519 107.702530 -0.000013 0.523812
-29.604111 106.442368 -0.000011 0.540780
-27.645535 117.987305 6.933105 0.602762
-27.645533 117.987305 6.253510 0.481132
-27.645533 117.987312 5.583457 0.701885
-27.645533 117.987305 4.921338 0.853635
-27.645533 117.987312 4.265620 0.427787
-27.632189 118.068306 3.621552 0.083619
-27.632189 118.068306 2.971539 0.079072
-27.632189 118.068306 2.323615 0.088319
-27.632189 118.068306 1.676385 0.102602
-27.632189 118.068306 1.028460 0.091249
-27.632189 118.068306 0.378448 0.094118
-28.020844 115.709320 -0.000025 0.542153
-28.655216 111.858902 -0.000019 0.530526
-29.060209 109.400742 -0.000015 0.541375
-29.341694 107.692245 -0.000013 0.561730
-29.549078 106.433495 -0.000011 0.523308
-27.506027 117.987305 6.938906 0.436484
-27.506025 117.987305 6.258512 0.549416
-27.506027 117.987305 5.587669 0.616922
-27.506025 117.987305 4.924774 0.642969
-27.506025 117.987305 4.268284 0.756252
-27.489693 118.082306 3.624623 0.678431
-27.489693 118.082306 2.973380 0.678431
-27.489693 118.082306 2.324228 0.678431
-27.489693 118.082306 1.675772 0.678431
-27.489693 118.082306 1.026619 0.678431
-27.489693 118.082306 0.375376 0.678431
-27.901154 115.689171 -0.000025 0.528817
-28.562393 111.843269 -0.000019 0.521035
-28.984537 109.388008 -0.000015 0.508385
-29.277943 107.681503 -0.000013 0.568368
-29.494108 106.424240 -0.000011 0.568734
-27.366186 117.987305 6.944962 0.414115
-27.366186 117.987305 6.263733 0.491737
-27.366186 117.987305 5.592069 0.509636
-27.366186 117.987305 4.928360 0.550958
-27.366186 117.987305 4.271066 0.604852
-27.348482 118.086136 3.626935 0.350912
-27.348482 118.086136 2.974765 0.346868
-27.348482 118.086136 2.324690 0.329656
-27.348482 118.086136 1.675310 0.327764
-27.348482 118.086136 1.025235 0.319570
-27.348482 118.086136 0.373065 0.231983
-27.781610 115.668190 -0.000025 0.533608
-28.469685 111.826996 -0.000019 0.556344
-28.908957 109.374741 -0.000015 0.560067
-29.214268 107.670334 -0.000013 0.565225
-29.439207 106.414604 -0.000011 0.531380
-27.225994 117.987305 6.951273 0.558770
-27.225994 117.987305 6.269176 0.633127
-27.225994 117.987305 5.596655 0.714488
-27.225994 117.987305 4.932097 0.564080
-27.225994 117.987305 4.273963 0.463478
-27.208290 118.082314 3.628693 0.678431
-27.208290 118.082314 2.975818 0.678431
-27.208290 118.082314 2.325040 0.678431
-27.208290 118.082314 1.674959 0.678431
-27.208290 118.082314 1.024181 0.678431
-27.208290 118.082314 0.371307 0.678431
-27.662214 115.646370 -0.000025 0.532280
-28.377087 111.810081 -0.000019 0.540520
-28.833469 109.360947 -0.000015 0.521294
-29.150673 107.658707 -0.000013 0.524392
-29.384373 106.404587 -0.000011 0.584573
-27.048655 118.177307 7.006321 0.678431
-27.048655 118.177307 6.316640 0.678431
-27.048656 118.177307 5.636641 0.678431
-27.048656 118.177307 4.964695 0.678431
-27.085434 117.987312 4.276982 0.470756
-27.067043 118.082314 3.630854 0.678431
-27.067045 118.082306 2.977113 0.678431
-27.067043 118.082314 2.325472 0.678431
-27.067043 118.082314 1.674528 0.678431
-27.067045 118.082306 1.022887 0.678431
-27.067043 118.082314 0.369146 0.678431
-27.542973 115.623718 -0.000025 0.540444
-28.284611 111.792511 -0.000019 0.538567
-28.758081 109.346626 -0.000015 0.539117
-29.087160 107.646652 -0.000013 0.512795
-29.329609 106.394188 -0.000011 0.568322
-26.906340 118.177315 7.013220 0.678431
-26.906342 118.177307 6.322587 0.678431
-26.906340 118.177307 5.641651 0.678431
-26.906340 118.177307 4.968781 0.678431
-26.944498 117.987312 4.280119 0.427451
-26.925419 118.082306 3.633101 0.678431
-26.925419 118.082314 2.978459 0.678431
-26.925419 118.082314 2.325920 0.678431
-26.925419 118.082314 1.674080 0.678431
-26.925419 118.082314 1.021541 0.678431
-26.925419 118.082314 0.366899 0.678431
-27.423897 115.600235 -0.000025 0.529061
-28.192263 111.774300 -0.000019 0.550942
-28.682796 109.331779 -0.000015 0.550317
-29.023733 107.634140 -0.000013 0.551583
-29.274921 106.383400 -0.000011 0.543572
-26.763624 118.177315 7.020382 0.678431
-26.763624 118.177307 6.328762 0.678431
-26.763624 118.177315 5.646854 0.678431
-26.763624 118.177307 4.973022 0.678431
-26.803164 117.987312 4.283377 0.626795
-26.783394 118.082306 3.635433 0.658900
-26.783394 118.082314 2.979857 0.638849
-26.783394 118.082314 2.326386 0.638849
-26.783394 118.082314 1.673614 0.652811
-26.783394 118.082314 1.020143 0.652811
-26.783394 118.082314 0.364566 0.652811
-27.304983 115.575920 -0.000025 0.563378
-28.100040 111.755447 -0.000019 0.530465
-28.607615 109.316406 -0.000015 0.550820
-28.960396 107.621193 -0.000013 0.563867
-29.220308 106.372231 -0.000011 0.561120
-26.661419 117.987305 6.979122 0.570642
-26.661419 117.987305 6.293188 0.794217
-26.661417 117.987312 5.616884 0.604044
-26.661417 117.987312 4.948590 0.759319
-26.661417 117.987312 4.286755 0.601923
-26.640955 118.082314 3.637853 0.585748
-26.640955 118.082306 2.981307 0.585748
-26.640953 118.082314 2.326868 0.585748
-26.640953 118.082314 1.673131 0.494926
-26.640955 118.082306 1.018693 0.504204
-26.640953 118.082314 0.362146 0.494926
-27.186243 115.550781 -0.000025 0.534066
-28.007952 111.735947 -0.000019 0.525032
-28.532541 109.300514 -0.000015 0.550820
-28.897148 107.607796 -0.000013 0.508919
-29.165775 106.360687 -0.000011 0.530846
-26.519247 117.987305 6.986742 0.595590
-26.519245 117.987312 6.299759 0.579019
-26.519245 117.987305 5.622419 0.657359
-26.519245 117.987312 4.953102 0.574472
-26.519245 117.987312 4.290255 0.700053
-26.498089 118.082306 3.640359 0.678431
-26.498087 118.082306 2.982809 0.678431
-26.498089 118.082306 2.327369 0.678431
-26.498089 118.082306 1.672631 0.678431
-26.498087 118.082314 1.017191 0.678431
-26.498089 118.082306 0.359640 0.678431
-27.067682 115.524811 -0.000025 0.537758
-27.916002 111.715805 -0.000019 0.551232
-28.457581 109.284088 -0.000015 0.540276
-28.833998 107.593964 -0.000013 0.545617
-29.111322 106.348755 -0.000011 0.527459
-26.376633 117.987305 6.994631 0.616342
-26.376633 117.987305 6.306560 0.487694
-26.376633 117.987305 5.628148 0.728008
-26.376631 117.987312 4.957773 0.292012
-26.376631 117.987312 4.293876 0.659754
-26.354778 118.082298 3.642953 0.678431
-26.354778 118.082306 2.984363 0.678431
-26.354778 118.082306 2.327887 0.678431
-26.354778 118.082306 1.672113 0.678431
-26.354776 118.082306 1.015637 0.678431
-26.354778 118.082306 0.357046 0.678431
-26.949306 115.498001 -0.000025 0.521798
-27.824198 111.695023 -0.000019 0.554376
-28.382740 109.267143 -0.000015 0.530739
-28.770945 107.579689 -0.000013 0.523827
-29.056957 106.336449 -0.000011 0.526390
-26.233562 117.987305 7.002785 0.758648
-26.233561 117.987305 6.313592 0.565057
-26.233561 117.987305 5.634073 0.723125
-26.233561 117.987305 4.962604 0.481880
-26.233561 117.987305 4.297622 0.486976
-26.211006 118.082298 3.645636 0.523140
-26.211006 118.082298 2.985970 0.530449
-26.211006 118.082298 2.328422 0.538903
-26.211006 118.082306 1.671578 0.538903
-26.211006 118.082306 1.014030 0.538903
-26.211006 118.082306 0.354363 0.669978
-26.831120 115.470383 -0.000025 0.534524
-27.732540 111.673592 -0.000019 0.527550
-28.308018 109.249680 -0.000015 0.549752
-28.707994 107.564980 -0.000013 0.524620
-29.002680 106.323761 -0.000011 0.557748
-26.043497 118.177307 7.060212 0.678431
-26.043495 118.177307 6.363107 0.678431
-26.043497 118.177307 5.675788 0.678431
-26.043495 118.177307 4.996610 0.678431
-26.090010 117.987305 4.301493 0.376822
-26.066751 118.082306 3.648409 0.678431
-26.066753 118.082306 2.987631 0.678431
-26.066753 118.082306 2.328975 0.678431
-26.066753 118.082306 1.671025 0.678431
-26.066753 118.082306 1.012369 0.678431
-26.066753 118.082306 0.351590 0.678431
-26.713127 115.441933 -0.000024 0.541405
-27.641031 111.651535 -0.000019 0.542336
-28.233418 109.231697 -0.000015 0.540475
-28.645145 107.549820 -0.000013 0.531075
-28.948488 106.310699 -0.000011 0.542077
-25.898048 118.177307 7.069000 0.678431
-25.898048 118.177315 6.370684 0.678431
-25.898048 118.177307 5.682171 0.678431
-25.898048 118.177307 5.001814 0.678431
-25.945971 117.987305 4.305489 0.394919
-27.590685 111.466263 3.091798 0.398840
-25.922010 118.082306 2.989346 0.678431
-25.922010 118.082306 2.329546 0.678431
-25.922010 118.082306 1.670454 0.678431
-25.922010 118.082306 1.010654 0.678431
-25.922012 118.082298 0.348729 0.678431
-26.595337 115.412666 -0.000025 0.531319
-27.549683 111.628830 -0.000019 0.534386
-28.158947 109.213188 -0.000015 0.549172
-28.582407 107.534233 -0.000013 0.560952
-28.894392 106.297256 -0.000011 0.577844
-25.752087 118.177307 7.078065 0.678431
-25.752087 118.177307 6.378500 0.678431
-25.752087 118.177307 5.688756 0.678431
-25.752085 118.177315 5.007183 0.678431
-27.494690 111.466080 3.534528 0.395789
-25.783432 118.056580 3.652045 0.175006
-25.783434 118.056580 2.989810 0.173983
-25.783434 118.056580 2.329701 0.161456
-25.783434 118.056580 1.670299 0.167529
-25.783434 118.056580 1.010190 0.094118
-25.783432 118.056580 0.347954 0.094118
-26.477755 115.382568 -0.000024 0.553719
-27.458490 111.605492 -0.000019 0.525597
-28.084604 109.194160 -0.000015 0.548135
-28.519775 107.518204 -0.000013 0.567712
-28.840389 106.283432 -0.000011 0.520729
-25.644621 118.031212 7.049533 0.610666
-25.644619 118.031212 6.353898 0.425269
-25.644619 118.031219 5.668031 0.473579
-25.644619 118.031219 4.990286 0.552102
-25.656351 117.987297 4.313862 0.799710
-25.630972 118.082306 3.657269 0.678431
-25.630970 118.082314 2.992940 0.666667
-25.630970 118.082306 2.330743 0.666667
-25.630970 118.082314 1.669256 0.666667
-25.630970 118.082314 1.007060 0.666667
-25.630970 118.082314 0.342730 0.666667
-26.360386 115.351654 -0.000024 0.544182
-27.367466 111.581520 -0.000019 0.553948
-28.010399 109.174622 -0.000015 0.544823
-28.457260 107.501740 -0.000013 0.572931
-28.786488 106.269234 -0.000011 0.519219
-25.510735 117.987297 7.047684 0.353170
-25.510735 117.987297 6.352304 0.601556
-27.373291 111.204857 4.386891 0.396078
-25.510735 117.987297 4.989190 0.582025
-27.229130 111.729813 3.571725 0.402716
-25.484644 118.082314 3.660406 0.678431
-25.484642 118.082314 2.994819 0.678431
-25.484642 118.082314 2.331370 0.678431
-25.484642 118.082314 1.668630 0.678431
-25.484642 118.082314 1.005180 0.678431
-25.484642 118.082314 0.339593 0.678431
-26.243235 115.319923 -0.000024 0.530388
-27.276613 111.556908 -0.000018 0.540215
-27.936333 109.154556 -0.000015 0.570840
-28.394861 107.484833 -0.000013 0.542672
-28.732683 106.254662 -0.000011 0.521889
-25.364561 117.987297 7.057502 0.639750
-25.364561 117.987297 6.360771 0.479194
-25.364559 117.987305 5.673820 0.537331
-25.364561 117.987297 4.995005 0.377997
-27.135902 111.708984 3.572293 0.394247
-25.337755 118.082314 3.663636 0.652811
-25.337753 118.082314 2.996755 0.678431
-25.337753 118.082321 2.332015 0.678431
-25.337753 118.082321 1.667986 0.678431
-25.337753 118.082314 1.003245 0.678431
-25.337753 118.082314 0.336363 0.678431
-26.126308 115.287376 -0.000024 0.538430
-27.185932 111.531662 -0.000019 0.557397
-27.862406 109.133972 -0.000015 0.564309
-28.332581 107.467499 -0.000013 0.522850
-28.678984 106.239716 -0.000011 0.555947
-25.217810 117.987297 7.067607 0.572519
-25.217810 117.987297 6.369483 0.537911
-27.249222 110.974899 4.352750 0.403235
-25.217808 117.987305 5.000989 0.466773
-27.201357 111.140121 3.507302 0.406973
-27.199369 111.146988 3.074916 0.395712
-25.190285 118.082314 2.998746 0.678431
-25.190285 118.082314 2.332678 0.678431
-25.190285 118.082314 1.667322 0.678431
-25.190285 118.082314 1.001253 0.678431
-25.190283 118.082321 0.333039 0.678431
-26.009611 115.254013 -0.000024 0.538140
-27.095428 111.505791 -0.000019 0.549050
-27.788626 109.112885 -0.000015 0.522728
-28.270424 107.449722 -0.000013 0.527810
-28.625389 106.224388 -0.000011 0.542031
-25.013977 118.177315 7.127656 0.678431
-27.301308 110.482895 4.687549 0.395560
-27.223293 110.745331 4.313997 0.400534
-27.195982 110.837196 3.900655 0.398337
-25.070465 117.987297 4.332166 0.796765
-27.089285 111.196121 3.081323 0.395392
-27.029766 111.396339 2.658128 0.395773
-25.049654 118.057304 2.332933 0.094118
-25.049656 118.057297 1.667067 0.094118
-25.049656 118.057297 1.000488 0.094118
-25.049654 118.057297 0.331760 0.094118
-25.893154 115.219826 -0.000024 0.542596
-27.005108 111.479286 -0.000019 0.529809
-27.714996 109.091270 -0.000015 0.555352
-28.208391 107.431519 -0.000013 0.558373
-28.571903 106.208694 -0.000011 0.536080
-24.864569 118.177315 7.138446 0.678431
-27.237736 110.393509 4.673022 0.396765
-27.207691 110.492058 4.270688 0.399985
-27.196451 110.528923 3.856849 0.395163
-27.006962 111.150436 3.514812 0.396109
-26.896948 111.511269 3.110614 0.396994
-24.893532 118.082314 3.002900 0.666667
-24.893534 118.082314 2.334061 0.666667
-24.893532 118.082314 1.665939 0.666667
-24.893532 118.082314 0.997100 0.666667
-24.893532 118.082314 0.326105 0.666667
-25.776932 115.184837 -0.000024 0.541558
-26.914974 111.452141 -0.000019 0.532097
-27.641516 109.069153 -0.000015 0.547112
-28.146486 107.412888 -0.000013 0.533608
-28.518526 106.192627 -0.000011 0.581659
-24.714529 118.177315 7.149530 0.678431
-24.714527 118.177307 6.440120 0.678431
-27.354885 109.729034 4.130128 0.369146
-27.232477 110.120697 3.797411 0.396811
-27.021847 110.794647 3.475197 0.401846
-26.896988 111.194153 3.085768 0.403937
-26.838867 111.380127 2.660101 0.402716
-24.744221 118.082306 2.334782 0.678431
-24.744221 118.082306 1.665218 0.673045
-24.744221 118.082306 0.994936 0.678431
-24.744221 118.082306 0.322495 0.678431
-25.660961 115.149040 -0.000024 0.551873
-26.825035 111.424377 -0.000019 0.552148
-27.568193 109.046516 -0.000015 0.550912
-28.084717 107.393814 -0.000013 0.505776
-28.465265 106.176178 -0.000010 0.548348
-24.615856 118.014832 7.118183 0.652140
-27.123911 110.182350 4.636826 0.405798
-27.302601 109.624321 4.114831 0.397406
-26.839066 111.071907 3.949541 0.399588
-27.275076 109.710274 3.347472 0.400916
-27.030338 110.474571 3.026215 0.400275
-26.909178 110.852951 2.634367 0.404639
-27.086447 110.299355 2.201792 0.410941
-27.073549 110.339630 1.797516 0.401755
-24.602257 118.057304 0.994004 0.094118
-24.602257 118.057304 0.320938 0.094118
-25.545242 115.112427 -0.000024 0.543648
-26.735291 111.395988 -0.000018 0.542351
-27.495031 109.023369 -0.000015 0.564340
-28.023079 107.374313 -0.000012 0.576883
-28.412119 106.159370 -0.000011 0.541909
-27.051531 110.129539 5.051123 0.397406
-27.066803 110.082962 4.620208 0.396414
-26.871382 110.678894 4.321561 0.397299
-27.093479 110.001610 3.786876 0.404532
-26.804935 110.881523 3.492326 0.402045
-26.875565 110.666138 3.045070 0.405112
-26.688923 111.235298 2.655571 0.395926
-24.443605 118.082306 2.336282 0.678431
-24.443605 118.082306 1.663718 0.678431
-24.443605 118.082306 0.990432 0.678431
-24.443605 118.082306 0.314978 0.678431
-25.429779 115.075005 -0.000024 0.532189
-26.645744 111.366966 -0.000019 0.538415
-27.422031 108.999710 -0.000015 0.545754
-27.961578 107.354385 -0.000013 0.550195
-28.359091 106.142181 -0.000010 0.516686
-24.324162 117.987305 7.134399 0.367468
-26.915426 110.267784 4.668389 0.401160
-27.004469 110.002518 4.197125 0.410132
-27.026642 109.936462 3.780826 0.407248
-27.092655 109.739799 3.357240 0.410147
-26.855556 110.446136 3.028465 0.385382
-24.292274 118.082306 3.011908 0.678431
-24.292273 118.082306 2.337062 0.678431
-24.292273 118.082306 1.662938 0.678431
-24.292274 118.082306 0.988091 0.678431
-24.292274 118.082306 0.311070 0.678431
-25.314583 115.036781 -0.000024 0.532753
-26.556404 111.337326 -0.000019 0.562905
-27.349199 108.975548 -0.000015 0.515892
-27.900219 107.334023 -0.000012 0.519173
-28.306185 106.124626 -0.000011 0.566812
-24.172853 117.987305 7.146585 0.452354
-26.581104 110.975639 4.836371 0.407630
-27.030651 109.666771 4.137746 0.396796
-26.911768 110.012901 3.797041 0.406668
-26.524990 111.139015 3.530658 0.396078
-26.465744 111.311508 3.105932 0.397818
-24.140228 118.082306 3.014310 0.569238
-26.812168 110.302887 2.203261 0.379477
-24.140228 118.082306 1.662138 0.569238
-24.140228 118.082306 0.985689 0.678431
-24.140228 118.082306 0.307062 0.678431
-25.199654 114.997757 -0.000024 0.542702
-26.467274 111.307060 -0.000019 0.561212
-27.276537 108.950874 -0.000015 0.552941
-27.839003 107.313240 -0.000012 0.555077
-28.253403 106.106705 -0.000011 0.529717
-23.962236 118.154083 7.203360 0.094118
-27.076654 109.288345 4.457006 0.399039
-26.804581 110.062851 4.219324 0.401129
-26.836145 109.972992 3.795130 0.405035
-26.962450 109.613449 3.348358 0.398825
-26.386160 111.253960 3.103615 0.413535
-26.787045 110.112770 2.601800 0.401389
-26.876986 109.856735 2.196016 0.386755
-23.987450 118.082314 1.661317 0.678431
-23.987450 118.082314 0.983226 0.678431
-23.987450 118.082321 0.302950 0.678431
-25.085003 114.957932 -0.000024 0.528450
-26.378357 111.276169 -0.000019 0.535454
-27.204048 108.925690 -0.000015 0.536492
-27.777935 107.292023 -0.000013 0.497581
-28.200747 106.088417 -0.000011 0.548531
-26.737949 109.996460 5.045112 0.388678
-26.596645 110.389900 4.715899 0.397894
-26.777407 109.886597 4.190758 0.401633
-26.813463 109.786201 3.770146 0.402335
-26.992373 109.288055 3.311931 0.396078
-26.887798 109.579224 2.960447 0.402136
-26.286749 111.252762 2.662801 0.388235
-26.818361 109.772568 2.195040 0.398947
-23.833921 118.082314 1.660477 0.678431
-23.833921 118.082314 0.980701 0.678431
-23.833921 118.082321 0.298736 0.678431
-24.970633 114.917305 -0.000024 0.544045
-26.289658 111.244667 -0.000019 0.541894
-27.131741 108.900002 -0.000015 0.519890
-27.717016 107.270386 -0.000013 0.559503
-28.148220 106.069756 -0.000011 0.521324
-23.659437 118.137314 7.225044 0.062745
-23.644756 118.177315 6.514432 0.375128
-26.732092 109.766113 4.172966 0.396567
-26.834435 109.487289 3.727407 0.399527
-26.919710 109.254967 3.311206 0.394522
-23.679626 118.082314 3.705581 0.675364
-26.220203 111.160713 2.659667 0.408698
-26.841534 109.467949 2.190224 0.395422
-26.822018 109.521118 1.808849 0.388235
-23.679626 118.082314 0.978114 0.678431
-23.679626 118.082314 0.294419 0.678431
-24.856548 114.875885 -0.000024 0.539971
-26.201181 111.212540 -0.000018 0.540734
-27.059612 108.873817 -0.000015 0.540429
-27.656250 107.248322 -0.000012 0.566583
-28.095825 106.050735 -0.000011 0.503532
-23.560162 117.987305 7.198465 0.639811
-26.896881 109.089218 4.429832 0.396689
-26.572525 109.954185 4.215149 0.402167
-26.642166 109.768471 3.776433 0.393637
-26.829092 109.269997 3.316453 0.398367
-26.802317 109.341400 2.944555 0.396216
-26.766335 109.437347 2.570957 0.404120
-26.777452 109.407700 2.189665 0.400839
-26.757603 109.460640 1.809410 0.396078
-23.524536 118.082306 0.975465 0.670497
-23.524534 118.082314 0.289995 0.673396
-24.742756 114.833664 -0.000024 0.540887
-26.112930 111.179794 -0.000018 0.534051
-26.987667 108.847122 -0.000015 0.514260
-27.595638 107.225830 -0.000013 0.522362
-28.043564 106.031342 -0.000011 0.515663
-26.142895 110.838364 5.294688 0.399374
-26.633465 109.557426 4.544554 0.396384
-26.489321 109.933807 4.217047 0.396399
-25.975506 111.275436 4.020509 0.388235
-26.647255 109.521423 3.350914 0.388235
-26.740246 109.278610 2.941545 0.394308
-26.526318 109.837204 2.593504 0.398856
-26.702211 109.377922 2.189645 0.396078
-23.368631 118.082306 1.657828 0.678431
-23.368631 118.082306 0.972750 0.678431
-23.368629 118.082306 0.285465 0.678431
-24.629261 114.790649 -0.000024 0.545007
-26.024910 111.146439 -0.000018 0.522515
-26.915909 108.819931 -0.000015 0.547127
-27.535187 107.202927 -0.000013 0.524849
-27.991440 106.011589 -0.000010 0.531945
-26.085611 110.732704 5.275185 0.398840
-26.732155 109.079163 4.440528 0.400427
-26.057941 110.803474 4.392952 0.400534
-26.411278 109.899811 3.806876 0.407553
-26.734901 109.072136 3.299072 0.394797
-26.636196 109.324577 2.948139 0.407645
-26.709448 109.137238 2.558187 0.396078
-25.877926 111.263870 2.223295 0.409354
-26.459923 109.775398 1.802858 0.390524
-23.211887 118.082306 0.969971 0.666667
-23.211887 118.082314 0.280827 0.678431
-24.516068 114.746841 -0.000023 0.529244
-25.937126 111.112465 -0.000018 0.545861
-26.844345 108.792236 -0.000015 0.544503
-27.474895 107.179588 -0.000013 0.543130
-27.939455 105.991470 -0.000011 0.554467
-26.316252 109.908501 5.061944 0.399863
-26.446663 109.581711 4.564132 0.396445
-25.966148 110.785782 4.396095 0.397040
-23.092205 117.987305 5.103535 0.695247
-26.637333 109.103935 3.306598 0.400793
-26.617376 109.153946 2.935693 0.397436
-26.631075 109.119614 2.558797 0.401587
-25.684692 111.491058 2.227915 0.399176
-23.064262 118.057320 1.656395 0.094118
-23.064262 118.057312 0.968449 0.094118
-23.064264 118.057312 0.278286 0.087495
-24.403185 114.702255 -0.000024 0.545998
-25.849581 111.077881 -0.000018 0.510475
-26.772976 108.764038 -0.000015 0.552407
-27.414768 107.155838 -0.000012 0.540963
-27.887611 105.970993 -0.000010 0.548455
-26.210003 109.943146 5.079943 0.403082
-26.460367 109.328285 4.512259 0.399985
-26.061649 110.307472 4.308877 0.374945
-26.307690 109.703232 3.785489 0.395544
-22.934492 117.987305 4.413704 0.395590
-25.464588 111.773773 3.170269 0.405417
-26.539804 109.133194 2.561093 0.424018
-22.895807 118.082306 2.345015 0.678431
-22.895807 118.082306 1.654985 0.678431
-22.895807 118.082314 0.964215 0.678431
-22.895807 118.082314 0.271220 0.678431
-24.290617 114.656868 -0.000023 0.538537
-25.762278 111.042686 -0.000018 0.529732
-26.701803 108.735352 -0.000015 0.557107
-27.354807 107.131668 -0.000013 0.514626
-27.835913 105.950150 -0.000010 0.479759
-26.010286 110.200195 5.158520 0.399390
-26.372858 109.327271 4.519245 0.396490
-25.779762 110.755203 4.403732 0.402228
-26.260532 109.597702 3.773671 0.405814
-26.376278 109.319038 3.340843 0.401450
-22.736427 118.082306 3.733750 0.474174
-25.315695 111.872482 2.708425 0.398077
-26.400053 109.261795 2.189713 0.381674
-22.736425 118.082314 1.653993 0.678431
-22.736427 118.082306 0.961237 0.678431
-22.736427 118.082306 0.266250 0.678431
-25.908470 110.445328 0.518856 0.354055
-25.921249 110.414558 0.095123 0.384512
-26.630836 108.706161 -0.000015 0.517250
-27.295021 107.107079 -0.000012 0.536278
-27.784361 105.928947 -0.000010 0.559487
-25.991344 110.019203 5.118548 0.406165
-25.789360 110.496071 4.800782 0.367559
-25.371075 111.483612 4.554719 0.405966
-26.161451 109.617592 3.782077 0.396536
-26.131912 109.687332 3.390788 0.397482
-25.803938 110.461655 3.060236 0.390295
-25.800060 110.470810 2.635720 0.381857
-26.160816 109.619087 2.196620 0.409476
-25.819088 110.425888 1.789043 0.370184
-25.829456 110.401413 1.367982 0.381445
-25.836964 110.383682 0.946707 0.392584
-25.853125 110.345528 0.526980 0.365896
-25.854805 110.341560 0.101296 0.381201
-26.560070 108.676483 -0.000015 0.562860
-27.235403 107.082069 -0.000012 0.503777
-27.732956 105.907387 -0.000011 0.553185
-22.455872 117.987320 7.301921 0.544305
-26.212673 109.287415 4.524813 0.396231
-25.477667 110.989517 4.464430 0.404837
-26.007296 109.763016 3.810904 0.412085
-25.840485 110.149315 3.452837 0.389288
-25.032011 112.021553 3.202727 0.396918
-25.721207 110.425537 2.635199 0.378790
-26.399538 108.854675 2.183582 0.413825
-25.731689 110.401260 1.788851 0.391211
-25.729856 110.405502 1.365873 0.385092
-25.747108 110.365555 0.945176 0.364767
-25.753391 110.351006 0.521889 0.403738
-25.753532 110.350677 0.094145 0.379919
-26.489517 108.646301 -0.000014 0.533974
-27.175962 107.056648 -0.000012 0.539132
-27.681704 105.885468 -0.000011 0.573510
-22.294426 117.987312 7.318080 0.738262
-25.913534 109.764481 4.645084 0.396078
-25.326061 111.099258 4.493758 0.376806
-26.022682 109.516487 3.776469 0.406073
-24.989790 111.863281 3.672695 0.394827
-26.172403 109.176315 2.951499 0.402487
-26.296925 108.893402 2.554898 0.391791
-26.062069 109.427002 2.194374 0.388235
-22.252615 118.082306 1.650880 0.678431
-22.252617 118.082306 0.951891 0.678431
-22.252615 118.082306 0.250649 0.678431
-23.843590 114.467522 -0.000023 0.524468
-25.415590 110.895844 -0.000018 0.554070
-26.419176 108.615631 -0.000014 0.510689
-27.116701 107.030815 -0.000012 0.585473
-27.630608 105.863190 -0.000011 0.538918
-22.131983 117.987312 7.334601 0.471977
-25.848473 109.700623 4.638185 0.397040
-25.788160 109.835091 4.249409 0.373007
-25.959036 109.454094 3.771844 0.401160
-26.029892 109.296104 3.354219 0.396078
-26.202106 108.912109 2.930713 0.396063
-26.092648 109.156174 2.570770 0.406165
-22.089375 118.082321 2.350205 0.535348
-22.089375 118.082321 1.649795 0.535348
-22.089375 118.082314 0.948634 0.535348
-22.089375 118.082314 0.245214 0.528145
-23.732670 114.418243 -0.000023 0.551049
-25.329567 110.857628 -0.000018 0.538048
-26.349049 108.584480 -0.000014 0.526299
-27.057621 107.004562 -0.000012 0.525505
-27.579666 105.840553 -0.000011 0.572793
-21.968521 117.987305 7.351487 0.371572
-25.768513 109.670425 4.639366 0.396597
-25.663321 109.900658 4.269645 0.396002
-25.855686 109.479630 3.781618 0.397299
-25.109291 111.113235 3.588337 0.396201
-25.123436 111.082275 3.129296 0.404303
-21.925114 118.082314 3.054693 0.678431
-24.864395 111.649231 2.235575 0.395789
-21.925114 118.082314 1.648686 0.678431
-21.925114 118.082306 0.945306 0.678431
-21.925114 118.082314 0.239660 0.525399
-23.622099 114.368187 -0.000023 0.542016
-25.243818 110.818802 -0.000018 0.532357
-26.279140 108.552834 -0.000014 0.506844
-26.998728 106.977905 -0.000012 0.501991
-27.528887 105.817566 -0.000010 0.534951
-21.804014 117.987305 7.368742 0.817594
-25.755100 109.497040 4.606573 0.396994
-25.744202 109.520462 4.200661 0.402258
-25.788952 109.424301 3.778310 0.397208
-25.050564 111.010979 3.580483 0.398047
-25.935120 109.110207 2.954586 0.399847
-21.759802 118.082314 3.058094 0.678431
-25.122566 110.856255 2.222023 0.399741
-21.759804 118.082306 1.647554 0.678431
-21.759802 118.082314 0.941905 0.678431
-21.759804 118.082306 0.233984 0.593637
-23.511885 114.317360 -0.000022 0.538155
-25.158339 110.779388 -0.000018 0.560174
-26.209457 108.520699 -0.000014 0.543130
-26.940022 106.950829 -0.000012 0.535271
-27.478268 105.794228 -0.000010 0.496559
-21.638432 117.987312 7.386374 0.761242
-25.699047 109.418579 4.596380 0.396170
-25.558949 109.714218 4.246901 0.396902
-25.596279 109.635437 3.818808 0.400534
-25.822969 109.157074 3.349664 0.399390
-24.821407 111.270576 3.153744 0.398566
-21.593412 118.082306 3.061568 0.678431
-25.191647 110.489296 2.216106 0.376440
-24.988789 110.917366 1.776142 0.397162
-21.593412 118.082306 0.938431 0.678431
-21.593412 118.082306 0.228184 0.526528
-23.402025 114.265762 -0.000022 0.551537
-25.073137 110.739372 -0.000018 0.537682
-26.139997 108.488083 -0.000015 0.546685
-26.881504 106.923347 -0.000012 0.546273
-27.427813 105.770531 -0.000010 0.532021
-25.251263 110.153557 5.225689 0.391180
-21.471748 117.987305 6.659863 0.798947
-21.471752 117.987305 5.925796 0.679683
-25.548676 109.537109 3.808695 0.398413
-25.201435 110.256828 3.494648 0.389731
-24.721863 111.250832 3.155805 0.408042
-24.626583 111.448318 2.703263 0.405219
-21.437973 118.057312 2.354331 0.080339
-24.912788 110.855103 1.776524 0.407034
-21.437975 118.057312 0.936245 0.094118
-21.437973 118.057312 0.224535 0.062745
-23.292522 114.213409 -0.000023 0.532540
-24.988218 110.698761 -0.000017 0.520790
-26.070768 108.454971 -0.000014 0.538170
-26.823181 106.895462 -0.000012 0.569711
-27.377523 105.746483 -0.000010 0.526329
-21.303944 117.987305 7.422781 0.274846
-25.602142 109.235138 4.569790 0.398581
-25.381027 109.685379 4.256242 0.397314
-25.393120 109.660751 3.835285 0.390692
-25.235760 109.981178 3.464407 0.396078
-25.604303 109.230736 2.975204 0.408835
-21.257286 118.082306 3.068745 0.678431
-24.433451 111.614876 2.238087 0.394400
-24.837805 110.791512 1.776923 0.409079
-21.257286 118.082306 0.931255 0.678431
-21.257286 118.082306 0.216208 0.376349
-23.183393 114.160286 -0.000023 0.545068
-24.903585 110.657562 -0.000017 0.551965
-26.001772 108.421387 -0.000014 0.533532
-26.765053 106.867165 -0.000012 0.552407
-27.327404 105.722084 -0.000010 0.537758
-21.134979 117.987305 7.441571 0.382223
-24.938965 110.376228 4.854214 0.398001
-25.296124 109.661621 4.259227 0.398291
-25.513140 109.227409 3.769783 0.391485
-25.196381 109.861191 3.454050 0.394476
-25.301790 109.650284 3.017041 0.393790
-21.099995 118.057312 3.071074 0.074510
-21.099993 118.057312 2.356770 0.094118
-24.763859 110.726585 1.777338 0.387472
-21.099995 118.057312 0.928925 0.062745
-21.099995 118.057304 0.212319 0.031373
-23.074638 114.106407 -0.000022 0.538476
-24.819241 110.615776 -0.000017 0.530022
-25.933014 108.387321 -0.000014 0.567178
-26.707125 106.838463 -0.000012 0.540413
-27.277454 105.697342 -0.000010 0.535470
-24.942497 110.165756 5.262765 0.399222
-19.835228 120.208527 7.246682 0.359655
-25.210796 109.638184 4.262409 0.393454
-25.040707 109.972641 3.900041 0.396246
-19.835228 120.208527 4.794629 0.503075
-25.142569 109.772346 3.031856 0.393988
-25.042469 109.969177 2.629077 0.390600
-19.786907 120.303543 2.399265 0.678431
-19.786907 120.303543 1.600735 0.678431
-19.786907 120.303543 0.801348 0.678431
-19.835230 120.208527 0.008127 0.455726
-22.966259 114.051765 -0.000022 0.538567
-24.735188 110.573402 -0.000017 0.519493
-25.864492 108.352776 -0.000014 0.511955
-26.649399 106.809357 -0.000012 0.555550
-27.227680 105.672249 -0.000010 0.513176
-19.644283 120.208527 8.106787 0.480934
-25.337620 109.204147 4.589534 0.396078
-25.553560 108.786766 4.096098 0.401679
-19.545975 120.398544 5.648117 0.678431
-25.107281 109.649361 3.436974 0.396857
-19.644281 120.208527 3.999018 0.377890
-24.971821 109.911179 2.628126 0.396262
-24.872992 110.102203 2.212745 0.397803
-19.595123 120.303535 1.599303 0.666667
-19.595127 120.303535 0.797049 0.666667
-19.644279 120.208527 0.000980 0.486534
-22.858267 113.996368 -0.000022 0.525704
-24.651436 110.530441 -0.000017 0.532372
-25.796215 108.317749 -0.000014 0.556374
-26.591877 106.779854 -0.000012 0.555306
-27.178083 105.646805 -0.000010 0.525109
-19.451954 120.208527 8.129075 0.515251
-25.291204 109.112610 4.576646 0.388479
-25.509911 108.697021 4.085296 0.396078
-25.313492 109.070267 3.762558 0.396078
-25.090225 109.494522 3.422090 0.394827
-24.954355 109.752708 3.037517 0.400656
-19.401955 120.303535 3.207341 0.678431
-19.401957 120.303535 2.402160 0.469703
-19.401957 120.303535 1.597840 0.491600
-19.401955 120.303535 0.792658 0.469703
-19.451954 120.208527 -0.006315 0.538857
-22.750666 113.940216 -0.000022 0.548486
-24.567986 110.486900 -0.000017 0.511833
-25.728184 108.282257 -0.000014 0.531136
-26.534563 106.749947 -0.000012 0.511421
-27.128666 105.621017 -0.000010 0.564416
-19.258205 120.208527 8.151827 0.806104
-19.258205 120.208527 7.304338 0.692134
-25.429482 108.677742 4.089059 0.378119
-25.169140 109.164185 3.784902 0.395315
-24.784107 109.883598 3.478136 0.400702
-25.396059 108.740189 2.947205 0.391241
-24.717892 110.007324 2.638115 0.396063
-24.656120 110.122734 2.214695 0.380575
-19.207354 120.303543 1.596347 0.678431
-19.207354 120.303543 0.788176 0.678431
-19.337227 120.060883 -0.000031 0.534188
-22.643456 113.883324 -0.000022 0.545907
-24.484840 110.442764 -0.000017 0.544472
-25.660402 108.246277 -0.000014 0.523049
-26.477459 106.719643 -0.000012 0.584848
-27.079428 105.594887 -0.000010 0.579156
-19.063007 120.208527 8.175049 0.612284
-19.063007 120.208527 7.324361 0.587198
-25.114931 109.088058 4.181943 0.398978
-24.973577 109.347794 3.822648 0.399298
-24.097841 110.956970 3.624299 0.403082
-25.322315 108.706985 2.947680 0.396414
-24.861620 109.553520 2.615142 0.395697
-19.011292 120.303551 2.405177 0.567895
-24.656477 109.930466 1.788076 0.404242
-19.011292 120.303551 0.783601 0.532723
-19.187374 119.979996 -0.000031 0.533379
-22.536652 113.825668 -0.000022 0.524758
-24.402006 110.398064 -0.000017 0.548745
-25.592873 108.209839 -0.000014 0.535348
-26.420567 106.688934 -0.000012 0.525368
-27.030375 105.568413 -0.000010 0.532891
-18.866306 120.208527 8.198753 0.687099
-18.866310 120.208527 7.344798 0.418433
-24.999889 109.123055 4.197595 0.396078
-24.870996 109.356003 3.831036 0.404456
-24.771372 109.536064 3.443718 0.399207
-24.211750 110.547493 3.123791 0.412070
-18.813740 120.303535 3.221066 0.678431
-24.471380 110.078247 2.215501 0.392706
-24.641939 109.769989 1.790264 0.389944
-18.813744 120.303535 0.778933 0.678431
-19.038080 119.898079 -0.000031 0.545647
-22.430241 113.767288 -0.000022 0.546822
-24.319485 110.352776 -0.000017 0.550774
-25.525597 108.172920 -0.000014 0.529595
-26.363890 106.657837 -0.000012 0.526650
-26.981504 105.541595 -0.000010 0.532280
-18.668091 120.208527 8.222942 0.606500
-18.668091 120.208534 7.365656 0.759289
-24.181982 110.405235 4.473843 0.398169
-24.618317 109.629463 3.884721 0.403769
-24.404060 110.010399 3.511959 0.400305
-18.668091 120.208527 4.037040 0.462135
-24.207342 110.360153 2.665379 0.397101
-18.614662 120.303528 2.408318 0.636667
-24.327263 110.146942 1.782369 0.402533
-18.614658 120.303528 0.774169 0.678431
-18.889368 119.815125 -0.000031 0.535164
-22.324249 113.708153 -0.000022 0.546273
-24.237282 110.306915 -0.000016 0.561990
-25.458584 108.135536 -0.000014 0.540795
-26.307434 106.626343 -0.000011 0.558282
-26.932825 105.514435 -0.000010 0.520653
-18.468313 120.208534 8.247627 0.460044
-18.468311 120.208534 7.386940 0.692744
-18.468315 120.208534 6.538337 0.510460
-18.468313 120.208534 5.699785 0.517037
-24.660286 109.377327 3.434066 0.399191
-24.658237 109.380913 3.022470 0.391791
-24.248299 110.097992 2.653183 0.400900
-18.414001 120.303543 2.409939 0.678431
-24.056280 110.433876 1.776097 0.407660
-18.414001 120.303535 0.769306 0.678431
-18.741243 119.731117 -0.000030 0.531594
-22.218668 113.648285 -0.000022 0.533501
-24.155401 110.260490 -0.000017 0.544091
-25.391832 108.097679 -0.000014 0.537087
-26.251198 106.594452 -0.000012 0.544305
-26.884336 105.486946 -0.000010 0.547417
-18.266933 120.208534 8.272816 0.540932
-18.266930 120.208534 7.408659 0.418448
-18.266930 120.208534 6.556634 0.642069
-24.879448 108.826859 3.762136 0.396475
-24.578806 109.344337 3.435458 0.383139
-24.404167 109.644928 3.051629 0.402792
-18.218704 120.291550 3.234975 0.221500
-18.218704 120.291550 2.411365 0.200061
-18.218704 120.291550 1.588636 0.203891
-18.218704 120.291542 0.765025 0.062745
-18.593700 119.646088 -0.000031 0.545403
-22.113512 113.587677 -0.000021 0.525643
-24.073849 110.213486 -0.000017 0.500481
-25.325348 108.059357 -0.000013 0.518700
-26.195187 106.562172 -0.000012 0.576501
-26.836042 105.459106 -0.000010 0.512352
-18.063915 120.208534 8.298515 0.537087
-18.063911 120.208542 7.430819 0.493065
-18.063911 120.208534 6.575304 0.746349
-18.063911 120.208542 5.729921 0.789609
-18.063913 120.208534 4.892709 0.565682
-24.309675 109.628860 3.054407 0.396490
-23.657211 110.734070 2.694790 0.396078
-18.007835 120.303528 2.413277 0.678431
-18.007835 120.303528 1.586723 0.672175
-18.007832 120.303528 0.759282 0.672175
-18.446762 119.560028 -0.000030 0.540505
-22.008781 113.526337 -0.000021 0.539162
-23.992622 110.165916 -0.000017 0.529030
-25.259132 108.020584 -0.000014 0.568765
-26.139400 106.529503 -0.000011 0.554528
-26.787941 105.430939 -0.000010 0.581369
-17.859211 120.208534 8.324736 0.683818
-17.859203 120.208542 7.453429 0.879683
-17.859203 120.208542 6.594352 0.862333
-17.859203 120.208542 5.745450 0.765698
-17.859207 120.208542 4.904752 0.489677
-24.239727 109.570953 3.053260 0.400076
-23.620119 110.603958 2.690229 0.406165
-17.802235 120.303528 2.414998 0.678431
-17.802235 120.303528 1.585002 0.678431
-17.802233 120.303528 0.754117 0.678431
-18.300425 119.472946 -0.000030 0.538674
-21.904480 113.464272 -0.000021 0.556329
-23.911732 110.117783 -0.000017 0.544320
-25.193188 107.981339 -0.000013 0.538567
-26.083843 106.496437 -0.000011 0.509422
-26.740040 105.402435 -0.000010 0.572274
-17.652788 120.208534 8.351488 0.763836
-17.652784 120.208542 7.476494 0.583032
-17.537014 120.398529 6.654266 0.678431
-17.537014 120.398529 5.794294 0.678431
-23.589931 110.464996 3.604432 0.415991
-17.652784 120.208542 4.079120 0.778500
-17.594891 120.303551 3.251154 0.691905
-17.594891 120.303551 2.416754 0.622827
-17.594891 120.303551 1.583247 0.636301
-17.594891 120.303551 0.748846 0.622827
-18.154697 119.384842 -0.000030 0.538766
-21.800611 113.401474 -0.000022 0.527489
-23.831181 110.069077 -0.000016 0.535821
-25.127520 107.941643 -0.000013 0.544854
-26.028522 106.462990 -0.000011 0.540322
-26.692339 105.373589 -0.000009 0.546548
-17.444601 120.208534 8.378778 0.621302
-17.444595 120.208542 7.500025 0.846342
-17.327003 120.398529 6.674263 0.678431
-17.327003 120.398529 5.810596 0.678431
-17.327000 120.398529 4.955276 0.678431
-24.130260 109.407028 3.046452 0.396078
-17.385792 120.303543 3.256529 0.678431
-17.385796 120.303543 2.418544 0.678431
-17.385792 120.303543 1.581456 0.678431
-17.385792 120.303543 0.743470 0.678431
-18.009590 119.295723 -0.000030 0.537072
-21.697187 113.337959 -0.000021 0.541161
-23.750969 110.019821 -0.000016 0.539483
-25.062130 107.901482 -0.000013 0.539528
-25.973433 106.429161 -0.000011 0.518685
-26.644836 105.344421 -0.000010 0.514885
-17.234608 120.208534 8.406618 0.419638
-17.234608 120.208542 7.524027 0.634699
-17.115173 120.398521 6.694663 0.678431
-17.115170 120.398529 5.827227 0.678431
-17.115170 120.398529 4.968174 0.678431
-17.234608 120.208534 4.097165 0.535302
-17.190609 120.278526 3.260561 0.104875
-17.190613 120.278519 2.419887 0.086275
-17.190609 120.278519 1.580113 0.133547
-17.190609 120.278526 0.739438 0.074510
-17.865108 119.205597 -0.000030 0.535485
-21.594210 113.273720 -0.000021 0.552926
-23.671106 109.970001 -0.000016 0.551553
-24.997023 107.860870 -0.000013 0.551354
-25.918581 106.394943 -0.000011 0.520073
-26.597544 105.314919 -0.000010 0.524697
-17.022762 120.208542 8.435019 0.746838
-17.022762 120.208534 7.548514 0.577020
-16.927002 120.358528 6.706840 0.155489
-16.926998 120.358536 5.837154 0.251575
-23.480976 110.092888 3.574744 0.400519
-23.680563 109.780266 3.091987 0.408072
-16.962109 120.303543 3.267607 0.678431
-16.962112 120.303535 2.422234 0.678431
-16.962112 120.303535 1.577766 0.678431
-16.962111 120.303543 0.732392 0.678431
-17.721264 119.114456 -0.000030 0.540352
-21.491684 113.208763 -0.000021 0.542107
-23.591593 109.919624 -0.000016 0.554284
-24.932201 107.819801 -0.000013 0.534234
-25.863972 106.360344 -0.000011 0.524208
-26.550457 105.285088 -0.000010 0.513527
-16.809021 120.208542 8.463985 0.552621
-16.809021 120.208542 7.573492 0.836408
-16.809021 120.208534 6.695502 0.821927
-16.809021 120.208534 5.827910 0.772610
-16.809025 120.208534 4.968704 0.620386
-16.809025 120.208534 4.115944 0.391287
-16.747427 120.303543 3.273314 0.628382
-16.747425 120.303543 2.424135 0.628382
-16.747425 120.303543 1.575865 0.628382
-16.747429 120.303543 0.726686 0.678431
-17.578053 119.022324 -0.000030 0.537728
-21.389610 113.143089 -0.000021 0.531975
-23.512430 109.868698 -0.000016 0.565270
-24.867664 107.778282 -0.000013 0.519371
-25.809603 106.325363 -0.000011 0.521477
-26.503578 105.254929 -0.000010 0.507698
-16.593330 120.208542 8.493534 0.583047
-16.593332 120.208542 7.598970 0.571160
-16.593330 120.208542 6.716967 0.714549
-16.593334 120.208542 5.845409 0.698253
-16.593334 120.208542 4.982275 0.523781
-16.593336 120.208534 4.125616 0.514565
-16.530804 120.303528 3.279133 0.678431
-16.530807 120.303528 2.426073 0.678431
-16.530807 120.303528 1.573927 0.678431
-16.530804 120.303528 0.720867 0.678431
-17.435493 118.929184 -0.000029 0.543816
-21.287998 113.076714 -0.000021 0.526726
-23.433628 109.817215 -0.000016 0.511772
-24.803421 107.736313 -0.000014 0.512734
-25.755480 106.290009 -0.000011 0.479652
-26.456911 105.224442 -0.000009 0.556359
-16.375660 120.208534 8.523672 0.507942
-16.375660 120.208534 7.624955 0.583963
-16.375656 120.208542 6.738861 0.456352
-16.375660 120.208534 5.863256 0.551598
-16.375660 120.208534 4.996117 0.720180
-16.375656 120.208542 4.135483 0.817731
-16.328880 120.278534 3.283593 0.094118
-16.328876 120.278534 2.427559 0.094118
-16.328878 120.278534 1.572441 0.089525
-16.328880 120.278534 0.716406 0.094118
-17.293583 118.835060 -0.000029 0.540688
-21.186855 113.009621 -0.000021 0.548974
-23.355188 109.765182 -0.000015 0.536812
-24.739475 107.693893 -0.000013 0.542229
-25.701607 106.254272 -0.000010 0.525734
-26.410460 105.193626 -0.000009 0.559228
-16.155937 120.208542 8.554415 0.594278
-16.155933 120.208542 7.651464 0.425223
-16.155935 120.208542 6.761191 0.481956
-16.155933 120.208542 5.881463 0.673350
-16.155935 120.208542 5.010235 0.677684
-16.155935 120.208542 4.145546 0.704524
-16.091480 120.303543 3.291127 0.678431
-16.091480 120.303543 2.430068 0.678431
-16.091484 120.303543 1.569932 0.678431
-16.091480 120.303543 0.708873 0.678431
-17.152336 118.739944 -0.000029 0.532540
-21.086182 112.941826 -0.000021 0.521508
-23.277107 109.712608 -0.000016 0.522271
-24.675823 107.651031 -0.000013 0.513359
-25.647982 106.218163 -0.000011 0.559167
-26.364222 105.162498 -0.000010 0.517388
-15.934129 120.208542 8.585770 0.489204
-15.934128 120.208542 7.678499 0.531899
-15.934126 120.208542 6.783967 0.845853
-15.934128 120.208542 5.900030 0.873396
-15.934127 120.208542 5.024635 0.592355
-15.934128 120.208542 4.155809 0.559915
-15.868700 120.303543 3.297303 0.678431
-15.868702 120.303543 2.432125 0.678431
-15.868702 120.303543 1.567874 0.678431
-15.868701 120.303543 0.702696 0.678431
-17.011755 118.643845 -0.000029 0.547478
-20.985981 112.873337 -0.000021 0.531533
-23.199400 109.659492 -0.000016 0.553445
-24.612474 107.607727 -0.000013 0.547234
-25.594612 106.181686 -0.000011 0.531685
-26.318207 105.131035 -0.000009 0.542428
-15.712303 120.205498 8.616817 0.264805
-15.712303 120.205498 7.705271 0.586221
-15.712304 120.205498 6.806522 0.611765
-15.712305 120.205490 5.918417 0.609613
-15.712303 120.205498 5.038896 0.795834
-15.712307 120.205490 4.165974 0.794507
-15.661242 120.278542 3.302104 0.077501
-15.661243 120.278542 2.433724 0.086275
-15.661243 120.278542 1.566275 0.086275
-15.661241 120.278542 0.697896 0.094118
-16.871847 118.546768 -0.000029 0.534463
-20.886261 112.804146 -0.000021 0.540169
-23.122066 109.605827 -0.000016 0.522225
-24.549429 107.563980 -0.000013 0.569818
-25.541496 106.144829 -0.000011 0.576532
-26.272408 105.099258 -0.000010 0.489387
-15.712315 119.886780 8.551545 0.810575
-15.712312 119.886787 7.648990 0.823941
-15.712313 119.886787 6.759108 0.813611
-15.712312 119.886787 5.879764 0.482231
-15.712315 119.886780 5.008918 0.652110
-15.712316 119.886780 4.144607 0.598672
-15.617285 120.020721 3.292992 0.678431
-15.617288 120.020714 2.430689 0.678431
-15.617288 120.020714 1.569311 0.678431
-15.617284 120.020721 0.707008 0.678431
-16.732626 118.448708 -0.000028 0.541863
-20.787033 112.734253 -0.000020 0.552270
-23.045107 109.551628 -0.000016 0.531792
-24.486691 107.519798 -0.000012 0.540597
-25.488642 106.107605 -0.000011 0.582773
-26.226833 105.067162 -0.000009 0.502068
-15.575510 119.764290 8.546509 0.599634
-15.712307 119.574303 7.594086 0.526528
-15.575506 119.764290 6.755450 0.608606
-15.575509 119.764290 5.876781 0.611948
-15.575505 119.764297 5.006605 0.785092
-15.712308 119.574303 4.123763 0.637675
