# This PCD file was generated using the MATLABÂ® pcwrite function
# from Computer Vision ToolboxÂ®.
# .PCD v.7 - Point Cloud Data file format
VERSION .7
FIELDS x y z intensity
SIZE 4 4 4 4
TYPE F F F F
COUNT 1 1 1 1
WIDTH 1270
HEIGHT 1
VIEWPOINT 0 0 0 1 0 0 0
POINTS 1270
DATA ascii
208.846481 61.484306 -0.000014 0.537408
205.541565 57.404152 0.200011 0.700633
204.130341 55.661903 0.200007 0.727687
203.334686 54.679619 0.136454 0.692821
202.929413 54.179264 -0.000001 0.330510
nan nan nan 0.000000
nan nan nan 0.000000
nan nan nan 0.000000
nan nan nan 0.000000
nan nan nan 0.000000
nan nan nan 0.000000
nan nan nan 0.000000
nan nan nan 0.000000
nan nan nan 0.000000
223.748642 79.430534 -0.000021 0.541222
213.388504 66.821213 -0.000016 0.543908
208.940521 61.407581 -0.000014 0.533425
205.607208 57.350605 0.200010 0.736522
204.183853 55.618248 0.200007 0.705043
203.335663 54.585911 0.152005 0.730999
202.972595 54.144028 -0.000001 0.344808
nan nan nan 0.000000
nan nan nan 0.000000
nan nan nan 0.000000
nan nan nan 0.000000
nan nan nan 0.000000
nan nan nan 0.000000
nan nan nan 0.000000
nan nan nan 0.000000
nan nan nan 0.000000
223.967621 79.249336 -0.000021 0.542107
213.519699 66.712654 -0.000017 0.543770
209.034027 61.330200 -0.000013 0.513863
205.672470 57.296600 0.200010 0.691783
204.237061 55.574219 0.200007 0.715053
203.336609 54.493744 0.167211 0.662791
202.989975 54.077812 0.010003 1.000000
nan nan nan 0.000000
nan nan nan 0.000000
nan nan nan 0.000000
nan nan nan 0.000000
nan nan nan 0.000000
nan nan nan 0.000000
nan nan nan 0.000000
nan nan nan 0.000000
nan nan nan 0.000000
224.185318 79.066612 -0.000021 0.545373
213.650131 66.603180 -0.000017 0.535760
209.126999 61.252178 -0.000014 0.588663
205.737366 57.242138 0.200009 0.720760
204.289963 55.529819 0.200007 0.688975
203.337540 54.403076 0.182080 0.692622
203.032440 54.042137 0.010009 1.000000
nan nan nan 0.000000
nan nan nan 0.000000
nan nan nan 0.000000
nan nan nan 0.000000
nan nan nan 0.000000
nan nan nan 0.000000
nan nan nan 0.000000
nan nan nan 0.000000
nan nan nan 0.000000
224.401733 78.882385 -0.000021 0.543893
213.779800 66.492790 -0.000017 0.540749
209.219421 61.173500 -0.000014 0.542916
205.801865 57.187229 0.200009 0.667842
204.342545 55.485054 0.200007 0.679820
203.338455 54.313866 0.196623 0.667887
203.074677 54.006187 0.010007 1.000000
nan nan nan 0.000000
nan nan nan 0.000000
nan nan nan 0.000000
nan nan nan 0.000000
nan nan nan 0.000000
nan nan nan 0.000000
nan nan nan 0.000000
nan nan nan 0.000000
nan nan nan 0.000000
224.616867 78.696632 -0.000021 0.541421
213.908676 66.381500 -0.000016 0.531823
209.311279 61.094177 -0.000014 0.533410
205.865997 57.131866 0.200009 0.754772
204.394821 55.439922 0.200007 0.736797
203.372330 54.263977 0.199999 0.727245
203.116669 53.969963 0.010001 1.000000
nan nan nan 0.000000
nan nan nan 0.000000
nan nan nan 0.000000
nan nan nan 0.000000
nan nan nan 0.000000
nan nan nan 0.000000
nan nan nan 0.000000
nan nan nan 0.000000
nan nan nan 0.000000
224.830673 78.509384 -0.000021 0.534295
214.036804 66.269325 -0.000016 0.536065
209.402588 61.014221 -0.000013 0.519265
205.929733 57.076057 0.200009 0.708064
204.446793 55.394428 0.200006 0.703548
203.416092 54.225647 0.199998 0.748730
203.158401 53.933418 0.010004 1.000000
nan nan nan 0.000000
nan nan nan 0.000000
nan nan nan 0.000000
nan nan nan 0.000000
nan nan nan 0.000000
nan nan nan 0.000000
nan nan nan 0.000000
nan nan nan 0.000000
nan nan nan 0.000000
225.043198 78.320663 -0.000021 0.532586
214.164124 66.156250 -0.000016 0.537514
209.493347 60.933628 -0.000013 0.535668
205.993073 57.019806 0.200008 0.747326
204.498428 55.348568 0.200006 0.728527
203.459595 54.187012 0.199999 0.685557
203.226486 53.926361 -0.000001 0.342351
nan nan nan 0.000000
nan nan nan 0.000000
nan nan nan 0.000000
nan nan nan 0.000000
nan nan nan 0.000000
nan nan nan 0.000000
nan nan nan 0.000000
nan nan nan 0.000000
nan nan nan 0.000000
225.254395 78.130463 -0.000021 0.540673
214.290665 66.042290 -0.000016 0.547890
209.583527 60.852406 -0.000014 0.554162
206.056015 56.963112 0.200008 0.757061
204.549744 55.302349 0.200006 0.672328
203.502838 54.148075 0.199999 0.740215
203.267914 53.889057 -0.000002 0.323247
nan nan nan 0.000000
nan nan nan 0.000000
nan nan nan 0.000000
nan nan nan 0.000000
nan nan nan 0.000000
nan nan nan 0.000000
nan nan nan 0.000000
nan nan nan 0.000000
nan nan nan 0.000000
225.464264 77.938782 -0.000021 0.538125
214.416397 65.927452 -0.000016 0.542046
209.673157 60.770550 -0.000014 0.531823
206.118576 56.905987 0.200008 0.689555
204.600739 55.255775 0.200006 0.736080
203.545792 54.108833 0.199999 0.664240
203.309067 53.851467 -0.000002 0.331762
nan nan nan 0.000000
nan nan nan 0.000000
nan nan nan 0.000000
nan nan nan 0.000000
nan nan nan 0.000000
nan nan nan 0.000000
nan nan nan 0.000000
nan nan nan 0.000000
nan nan nan 0.000000
225.672760 77.745644 -0.000021 0.541238
214.541321 65.811737 -0.000016 0.533608
209.762192 60.688072 -0.000013 0.544945
206.180725 56.848419 0.200008 0.763958
204.651398 55.208847 0.200005 0.668803
203.588486 54.069298 0.199999 0.730678
203.343689 53.806858 0.002303 0.684276
nan nan nan 0.000000
nan nan nan 0.000000
nan nan nan 0.000000
nan nan nan 0.000000
nan nan nan 0.000000
nan nan nan 0.000000
nan nan nan 0.000000
nan nan nan 0.000000
nan nan nan 0.000000
225.879913 77.551048 -0.000021 0.534676
214.665436 65.695145 -0.000016 0.526146
209.850647 60.604977 -0.000013 0.528191
206.242477 56.790421 0.200007 0.669810
204.701736 55.161564 0.200005 0.776181
203.630890 54.029461 0.199999 0.744915
203.344513 53.726707 0.016796 0.675547
nan nan nan 0.000000
nan nan nan 0.000000
nan nan nan 0.000000
nan nan nan 0.000000
nan nan nan 0.000000
nan nan nan 0.000000
nan nan nan 0.000000
nan nan nan 0.000000
nan nan nan 0.000000
226.085724 77.355026 -0.000021 0.536721
214.788742 65.577698 -0.000016 0.549172
209.938538 60.521263 -0.000014 0.542473
206.303818 56.731995 0.200007 0.756039
204.751755 55.113930 0.200005 0.691066
203.673019 53.989334 0.199999 0.709133
203.345322 53.647705 0.030984 0.695613
nan nan nan 0.000000
nan nan nan 0.000000
nan nan nan 0.000000
nan nan nan 0.000000
nan nan nan 0.000000
nan nan nan 0.000000
nan nan nan 0.000000
nan nan nan 0.000000
nan nan nan 0.000000
226.290131 77.157555 -0.000021 0.543832
214.911224 65.459389 -0.000016 0.537957
210.025833 60.436939 -0.000013 0.533318
207.304932 57.639706 -0.000011 0.529244
204.801422 55.065948 0.200005 0.733852
203.714874 53.948910 0.199999 0.766049
203.346130 53.569820 0.044877 0.703655
181.585251 31.431082 7.820745 0.678431
181.585251 31.431080 7.018866 0.678431
181.585251 31.431082 6.228246 0.678431
181.585251 31.431082 5.446990 0.678431
181.585251 31.431078 4.673285 0.678431
181.585251 31.431080 3.905384 0.678431
181.585251 31.431082 3.141595 0.678431
181.865250 31.714949 2.373736 0.603891
181.865250 31.714949 1.626265 0.581338
181.865250 31.714951 0.877992 0.646571
181.865250 31.714947 0.127309 0.639521
185.695190 35.597733 0.000000 0.538964
188.435516 38.375877 0.000000 0.519966
190.184982 40.149479 -0.000000 0.481331
191.400925 41.382206 0.000000 0.555383
192.296783 42.290421 -0.000000 0.543191
181.705261 31.780451 7.737472 0.160784
181.705261 31.780455 6.947064 0.160784
181.705261 31.780451 6.167756 0.160784
181.705261 31.780455 5.397676 0.160784
181.705261 31.780451 4.635039 0.160784
181.705261 31.780451 3.878125 0.160784
181.705261 31.780451 3.125264 0.160784
181.865250 31.940413 2.371118 0.349523
181.865250 31.940413 1.628882 0.385977
181.865250 31.940409 0.885851 0.604349
181.865250 31.940409 0.140425 0.539071
185.609085 35.683266 0.000000 0.563348
188.368744 38.442211 -0.000000 0.558984
190.130539 40.203560 -0.000000 0.532082
191.355072 41.427765 0.000000 0.503349
192.257233 42.329704 -0.000000 0.556146
181.585251 31.886688 7.740057 0.678431
181.585236 31.886686 6.949294 0.615244
181.585236 31.886686 6.169634 0.559716
181.585236 31.886686 5.399207 0.678431
181.585236 31.886686 4.636228 0.630640
181.585236 31.886684 3.878972 0.663294
181.585236 31.886686 3.125771 0.678431
181.865250 32.162743 2.368554 0.687404
181.865250 32.162743 1.631445 0.474403
181.865250 32.162743 0.893546 0.574487
181.865250 32.162743 0.153269 0.443748
185.523575 35.769402 0.000000 0.518212
188.302414 38.509010 0.000000 0.528161
190.076477 40.258018 0.000000 0.550805
191.309509 41.473644 0.000000 0.528038
192.217957 42.369263 -0.000000 0.545037
181.585251 32.109814 7.700957 0.678431
181.585251 32.109810 6.915581 0.678431
181.585251 32.109810 6.141231 0.678431
181.585236 32.109810 5.376053 0.678431
181.585251 32.109810 4.618270 0.678431
181.585251 32.109814 3.866172 0.678431
181.585236 32.109810 3.118103 0.678431
181.865250 32.382038 2.366044 0.456016
181.865250 32.382038 1.633956 0.448096
181.865250 32.382042 0.901083 0.501915
181.865250 32.382042 0.165849 0.517800
185.438660 35.856125 0.000000 0.542870
188.236572 38.576271 0.000000 0.559121
190.022797 40.312847 0.000000 0.577325
191.264297 41.519836 0.000000 0.541924
192.178970 42.409092 0.000000 0.530388
181.585251 32.329926 7.662661 0.678431
181.585251 32.329929 6.882561 0.678431
181.585251 32.329926 6.113413 0.678431
181.585236 32.329926 5.353374 0.678431
181.585251 32.329926 4.600681 0.678431
181.585236 32.329926 3.853637 0.678431
181.585236 32.329926 3.110592 0.678431
181.865250 32.598373 2.363585 0.707118
181.865250 32.598373 1.636415 0.508873
181.865250 32.598373 0.908465 0.649485
181.865250 32.598373 0.178169 0.868376
185.354355 35.943443 -0.000000 0.546059
188.171188 38.643990 0.000000 0.545876
189.969498 40.368057 0.000000 0.525811
191.219391 41.566345 -0.000000 0.541146
192.140259 42.449196 -0.000000 0.534035
181.585251 32.547115 7.625149 0.678431
181.585251 32.547115 6.850215 0.678431
181.585251 32.547115 6.086163 0.678431
181.585251 32.547115 5.331160 0.678431
181.585236 32.547115 4.583453 0.678431
181.585251 32.547115 3.841357 0.678431
181.585251 32.547115 3.103234 0.678431
181.865250 32.811836 2.361177 0.578012
181.865250 32.811836 1.638823 0.477058
181.865250 32.811836 0.915696 0.685389
181.865250 32.811836 0.190238 0.600656
185.270660 36.031342 -0.000001 0.543648
188.106293 38.712162 0.000000 0.547143
189.916580 40.423630 -0.000000 0.539406
191.174805 41.613167 0.000000 0.501106
192.101822 42.489567 -0.000000 0.570611
181.585251 32.761459 7.588400 0.678431
181.585251 32.761459 6.818530 0.678431
181.585251 32.761456 6.059469 0.678431
181.585251 32.761459 5.309398 0.678431
181.585251 32.761456 4.566576 0.678431
181.585251 32.761456 3.829327 0.678431
181.585251 32.761456 3.096027 0.678431
181.865250 33.022499 2.358817 0.380591
181.865250 33.022499 1.641183 0.647272
181.865250 33.022503 0.922779 0.411643
181.865250 33.022499 0.202061 0.469047
185.187592 36.119831 0.000000 0.542657
188.041870 38.780788 0.000000 0.547127
189.864059 40.479576 0.000000 0.520348
191.130569 41.660301 -0.000000 0.546090
192.063660 42.530205 -0.000000 0.574182
181.585251 32.973026 7.552398 0.678431
181.585251 32.973026 6.787488 0.678431
181.585251 32.973026 6.033316 0.678431
181.585251 32.973026 5.288077 0.678431
181.585251 32.973026 4.550041 0.678431
181.585251 32.973026 3.817543 0.678431
181.585251 32.973026 3.088966 0.678431
181.865250 33.230438 2.356505 0.445274
181.865250 33.230438 1.643494 0.532647
181.865250 33.230438 0.929719 0.465141
181.865250 33.230438 0.213644 0.440894
185.105148 36.208897 0.000000 0.573159
187.977921 38.849861 0.000000 0.539666
189.811935 40.535885 -0.000000 0.553643
191.086639 41.707741 -0.000000 0.551492
192.025803 42.571110 0.000000 0.543572
181.585251 33.181896 7.517123 0.678431
181.585251 33.181896 6.757073 0.678431
181.585251 33.181900 6.007692 0.678431
181.585251 33.181892 5.267188 0.678431
181.585251 33.181896 4.533841 0.678431
181.585251 33.181896 3.805995 0.678431
181.585251 33.181896 3.082048 0.678431
181.865250 33.435722 2.354241 0.729961
181.865250 33.435722 1.645760 0.616281
181.865250 33.435726 0.936519 0.592248
181.865250 33.435722 0.224992 0.527550
185.023315 36.298534 -0.000000 0.576715
187.914459 38.919376 -0.000000 0.535866
189.760193 40.592560 -0.000000 0.539254
191.043060 41.755486 -0.000000 0.538613
191.988220 42.612278 -0.000000 0.524392
181.585251 33.388138 7.482562 0.678431
181.585251 33.388138 6.727271 0.678431
181.585251 33.388138 5.982585 0.678431
181.585251 33.388138 5.246720 0.678431
181.585251 33.388138 4.517967 0.678431
181.585251 33.388138 3.794681 0.678431
181.585251 33.388138 3.075269 0.678431
181.865250 33.638428 2.352021 0.730968
181.865250 33.638428 1.647978 0.511971
181.865250 33.638428 0.943181 0.752239
181.865250 33.638428 0.236112 0.560388
184.942108 36.388741 -0.000001 0.537240
187.851471 38.989334 -0.000000 0.533608
189.708862 40.649593 0.000000 0.553872
190.999802 41.803535 0.000000 0.502846
191.950928 42.653706 -0.000000 0.587564
181.585251 33.591824 7.448691 0.678431
181.585251 33.591824 6.698067 0.678431
181.585251 33.591824 5.957982 0.678431
181.585251 33.591824 5.226664 0.678431
181.585251 33.591820 4.502412 0.678431
181.585251 33.591824 3.783595 0.678431
181.585251 33.591820 3.068627 0.678431
181.865250 33.838615 2.349846 0.804685
181.865250 33.838615 1.650153 0.424186
181.865250 33.838615 0.949709 0.602792
181.865250 33.838615 0.247009 0.578332
184.861542 36.479511 -0.000000 0.548974
187.788986 39.059731 -0.000000 0.533165
189.657913 40.706982 -0.000000 0.555154
190.956894 41.851883 0.000000 0.538476
191.913910 42.695396 -0.000000 0.561242
181.585251 33.793015 7.415501 0.678431
181.585251 33.793018 6.669450 0.678431
181.585251 33.793015 5.933873 0.678431
181.585251 33.793015 5.207008 0.678431
181.585251 33.793015 4.487168 0.678431
181.585251 33.793015 3.772730 0.678431
181.585251 33.793018 3.062117 0.678431
181.865250 34.036358 2.347715 0.519966
181.865250 34.036358 1.652284 0.716564
181.865250 34.036358 0.956107 0.616602
181.865250 34.036354 0.257687 0.563455
184.781616 36.570847 0.000000 0.537301
187.727005 39.130566 0.000000 0.557137
189.607376 40.764729 0.000000 0.529641
190.914322 41.900532 -0.000000 0.529290
191.877213 42.737339 -0.000000 0.511803
181.585251 33.991783 7.382973 0.678431
181.585251 33.991783 6.641402 0.678431
181.585251 33.991783 5.910244 0.678431
181.585251 33.991783 5.187745 0.678431
181.585251 33.991783 4.472229 0.678431
181.585251 33.991783 3.762082 0.678431
181.585251 33.991783 3.055737 0.678431
181.865250 34.231712 2.345627 0.268070
181.865250 34.231712 1.654373 0.471443
181.865250 34.231712 0.962377 0.786709
181.865250 34.231709 0.268152 0.523278
184.702316 36.662735 0.000000 0.539528
187.665497 39.201828 0.000000 0.551980
189.557251 40.822823 -0.000000 0.541283
190.872086 41.949474 -0.000000 0.465721
191.840790 42.779541 0.000000 0.485420
181.705246 34.289558 7.311745 0.160784
181.705246 34.289558 6.579987 0.160784
181.705246 34.289558 5.858503 0.160784
181.705246 34.289562 5.145564 0.160784
181.705246 34.289558 4.439517 0.160784
181.705246 34.289562 3.738766 0.160784
181.705246 34.289562 3.041768 0.160784
181.865250 34.424744 2.343580 0.499321
181.865250 34.424744 1.656420 0.609323
181.865250 34.424744 0.968522 0.555489
181.865250 34.424744 0.278409 0.590494
184.623657 36.755169 -0.000000 0.552041
187.604507 39.273518 -0.000000 0.530282
189.507523 40.881268 -0.000000 0.550225
190.830185 41.998711 -0.000000 0.555261
191.804672 42.821995 0.000000 0.567712
181.644974 34.432030 7.300375 0.160784
181.644974 34.432030 6.570184 0.160784
181.644974 34.432030 5.850245 0.160784
181.644974 34.432030 5.138832 0.160784
181.644974 34.432030 4.434295 0.160784
181.644974 34.432026 3.735044 0.160784
181.644974 34.432030 3.039538 0.160784
181.865250 34.615509 2.341574 0.374884
181.865250 34.615509 1.658426 0.774029
181.865250 34.615509 0.974546 0.658198
181.865250 34.615513 0.288462 0.489204
184.545654 36.848156 -0.000000 0.557580
187.544006 39.345634 0.000000 0.535729
189.458206 40.940056 0.000000 0.519387
190.788635 42.048241 0.000000 0.577356
191.768845 42.864700 0.000000 0.501579
181.585236 34.574127 7.289220 0.678431
181.585236 34.574131 6.560565 0.678431
181.585236 34.574131 5.842140 0.678431
181.585236 34.574127 5.132226 0.678431
181.585236 34.574131 4.429171 0.678431
181.585236 34.574127 3.731393 0.678431
181.585236 34.574127 3.037350 0.678431
181.865250 34.804073 2.339607 0.597848
181.865250 34.804073 1.660393 0.568978
181.865250 34.804077 0.980450 0.687877
181.865250 34.804073 0.298316 0.544564
184.468307 36.941681 -0.000000 0.519280
187.484024 39.418167 0.000000 0.561608
189.409302 40.999187 -0.000000 0.535637
190.747437 42.098057 -0.000000 0.534066
191.733322 42.907654 -0.000000 0.536645
181.585236 34.763798 7.259198 0.678431
181.585236 34.763794 6.534678 0.678431
181.585236 34.763798 5.820332 0.678431
181.585236 34.763794 5.114447 0.678431
181.585236 34.763798 4.415383 0.678431
181.585236 34.763798 3.721564 0.678431
181.585236 34.763798 3.031462 0.678431
181.865250 34.990486 2.337680 0.635859
181.865250 34.990486 1.662320 0.513283
181.865250 34.990486 0.986237 0.623880
181.865250 34.990486 0.307975 0.536339
184.391617 37.035751 -0.000000 0.541009
187.424545 39.491116 -0.000000 0.502617
189.360809 41.058662 -0.000000 0.543755
190.706589 42.148163 -0.000000 0.546609
191.698090 42.950859 -0.000000 0.559915
181.585236 34.951328 7.229769 0.678431
181.585236 34.951328 6.509304 0.678431
181.585236 34.951328 5.798954 0.678431
181.585236 34.951332 5.097018 0.678431
181.585236 34.951332 4.401866 0.678431
181.585236 34.951332 3.711931 0.678431
181.585236 34.951332 3.025691 0.678431
181.865250 35.174805 2.335790 0.416037
181.865250 35.174805 1.664210 0.807553
181.865250 35.174805 0.991910 0.579080
181.865250 35.174805 0.317443 0.429160
184.315567 37.130348 -0.000000 0.538506
187.365570 39.564484 0.000000 0.551736
189.312729 41.118469 -0.000000 0.556435
190.666077 42.198547 -0.000000 0.521477
191.663162 42.994301 -0.000000 0.531807
181.585236 35.136787 7.200917 0.678431
181.585236 35.136791 6.484426 0.678431
181.585236 35.136787 5.777996 0.678431
181.585236 35.136787 5.079933 0.678431
181.585236 35.136787 4.388617 0.678431
181.585236 35.136787 3.702487 0.678431
181.585236 35.136791 3.020031 0.678431
181.865265 35.357082 2.333938 0.277363
181.865265 35.357082 1.666063 0.449775
181.865265 35.357082 0.997471 0.579644
181.865250 35.357079 0.326725 0.826001
184.240204 37.225479 0.000000 0.550958
187.307114 39.638260 0.000000 0.514809
189.265076 41.178616 0.000000 0.509377
190.625931 42.249218 -0.000000 0.548684
191.628555 43.037994 0.000000 0.420462
181.705261 35.413288 7.134591 0.160784
181.705261 35.413292 6.427237 0.160784
181.705261 35.413284 5.729817 0.160784
181.705261 35.413288 5.040656 0.160784
181.705261 35.413288 4.358155 0.160784
181.705261 35.413288 3.680776 0.160784
181.705261 35.413292 3.007023 0.160784
181.865250 35.537365 2.332122 0.453635
181.865250 35.537365 1.667879 0.554009
181.865250 35.537365 1.002923 0.489967
181.865250 35.537361 0.335825 0.543542
184.165482 37.321129 0.000000 0.519158
187.249176 39.712440 0.000000 0.549920
189.217834 41.239090 -0.000000 0.547799
190.586136 42.300167 0.000000 0.490822
191.594238 43.081921 0.000000 0.599649
181.585236 35.501678 7.144905 0.588113
181.585236 35.501678 6.436131 0.639460
181.585236 35.501675 5.737309 0.611231
181.585236 35.501675 5.046764 0.556558
181.585236 35.501675 4.362892 0.577874
181.585236 35.501678 3.684152 0.596185
181.585236 35.501675 3.009047 0.661753
181.865250 35.715706 2.330341 0.572320
181.865250 35.715706 1.669659 0.571023
181.865250 35.715706 1.008268 0.393469
181.865250 35.715706 0.344746 0.763241
184.091446 37.417297 -0.000000 0.555200
187.191742 39.787025 -0.000000 0.549767
189.171021 41.299892 -0.000000 0.607355
190.546707 42.351391 0.000000 0.532097
191.560226 43.126091 -0.000000 0.548760
181.585236 35.681210 7.117720 0.678431
181.585236 35.681206 6.412692 0.678431
181.585236 35.681206 5.717563 0.678431
181.585236 35.681210 5.030665 0.678431
181.585236 35.681206 4.350408 0.676081
181.585236 35.681206 3.675254 0.678431
181.585236 35.681206 3.003715 0.678431
181.865250 35.892155 2.328596 0.612116
181.865250 35.892155 1.671404 0.745830
181.865250 35.892155 1.013508 0.421439
181.865250 35.892151 0.353492 0.791531
184.018066 37.513985 0.000000 0.533089
187.134842 39.862007 0.000000 0.541527
189.124634 41.361023 -0.000000 0.562402
190.507614 42.402893 -0.000000 0.563668
191.526535 43.170494 -0.000000 0.577173
181.585236 35.858856 7.091068 0.678431
181.585236 35.858860 6.389711 0.678431
181.585236 35.858856 5.698201 0.678431
181.585236 35.858856 5.014883 0.678431
181.585236 35.858856 4.338167 0.678431
181.585236 35.858856 3.666529 0.678431
181.585236 35.858856 2.998488 0.678431
181.865265 36.066757 2.326885 0.515908
181.865265 36.066757 1.673115 0.632792
181.865265 36.066757 1.018645 0.402090
181.865265 36.066757 0.362067 0.348226
183.945389 37.611179 0.000000 0.545830
187.078476 39.937386 -0.000000 0.537285
189.078674 41.422470 -0.000000 0.512901
190.468903 42.454662 0.000000 0.525887
191.493149 43.215134 0.000000 0.576043
181.585251 36.034683 7.064937 0.678431
181.585251 36.034679 6.367180 0.678431
181.585251 36.034683 5.679220 0.678431
181.585236 36.034676 4.999409 0.678431
181.585251 36.034679 4.326166 0.678431
181.585251 36.034679 3.657975 0.678431
181.585236 36.034676 2.993363 0.678431
181.865265 36.239559 2.325207 0.475517
181.865265 36.239559 1.674793 0.740230
181.865250 36.239559 1.023682 0.444877
181.865250 36.239559 0.370473 0.339925
183.873367 37.708881 0.000000 0.517815
187.022629 40.013157 -0.000000 0.549172
189.033157 41.484241 0.000000 0.543542
190.430542 42.506702 -0.000000 0.545800
191.460083 43.260002 0.000000 0.526360
181.585251 36.208710 7.039319 0.678431
181.585251 36.208710 6.345091 0.678431
181.585251 36.208706 5.660611 0.678431
181.585236 36.208710 4.984237 0.678431
181.585251 36.208710 4.314400 0.678431
181.585251 36.208710 3.649589 0.678431
181.585236 36.208710 2.988338 0.678431
181.865250 36.410603 2.323562 0.523919
181.865250 36.410603 1.676438 0.507317
181.865250 36.410603 1.028620 0.627787
181.865250 36.410603 0.378716 0.480674
183.802048 37.807076 -0.000000 0.538384
186.967316 40.089317 0.000000 0.518730
188.988052 41.546326 -0.000000 0.534920
190.392548 42.559006 -0.000000 0.544900
191.427322 43.305103 -0.000000 0.530236
181.585251 36.381001 7.014199 0.678431
181.585251 36.381001 6.323432 0.678431
181.585251 36.380997 5.642365 0.678431
181.585251 36.380997 4.969362 0.678431
181.585251 36.380997 4.302864 0.678431
181.585251 36.380997 3.641367 0.678431
181.585251 36.380997 2.983412 0.678431
181.865250 36.579933 2.321949 0.572473
181.865250 36.579933 1.678051 0.443626
181.865265 36.579933 1.033462 0.620905
181.865250 36.579933 0.386797 0.372824
183.731400 37.905773 -0.000000 0.539696
186.912521 40.165855 -0.000000 0.554894
188.943390 41.608727 -0.000000 0.520958
190.354919 42.611576 -0.000000 0.593439
191.394882 43.350430 -0.000000 0.575387
181.585251 36.551590 6.989573 0.678431
181.585251 36.551586 6.302199 0.678431
181.585251 36.551590 5.624475 0.678431
181.585251 36.551586 4.954778 0.678431
181.585251 36.551586 4.291553 0.678431
181.585251 36.551586 3.633306 0.678431
181.585251 36.551586 2.978582 0.678431
181.865250 36.747597 2.320368 0.746700
181.865250 36.747593 1.679632 0.563973
181.865250 36.747593 1.038209 0.886580
181.865250 36.747597 0.394720 0.592493
183.661453 38.004963 0.000000 0.545388
186.858276 40.242783 0.000000 0.578256
188.899170 41.671440 0.000000 0.539513
190.317673 42.664410 -0.000000 0.554803
191.362747 43.395985 -0.000000 0.534676
181.585251 36.720516 6.965428 0.678431
181.585251 36.720516 6.281379 0.678431
181.585251 36.720516 5.606936 0.678431
181.585251 36.720516 4.940479 0.678431
181.585251 36.720516 4.280464 0.678431
181.585251 36.720516 3.625401 0.678431
181.585251 36.720516 2.973846 0.678431
181.865250 36.913624 2.318818 0.696666
181.865250 36.913624 1.681182 0.769345
181.865265 36.913628 1.042863 0.697978
181.865250 36.913624 0.402488 0.770871
183.592194 38.104633 0.000000 0.541802
186.804565 40.320084 0.000000 0.541558
188.855377 41.734455 -0.000000 0.572091
190.280777 42.717499 -0.000000 0.584329
191.330948 43.441761 0.000000 0.543404
181.585251 36.887829 6.941754 0.678431
181.585251 36.887829 6.260968 0.678431
181.585251 36.887825 5.589739 0.678431
181.585251 36.887825 4.926461 0.678431
181.585251 36.887829 4.269591 0.678431
181.585251 36.887825 3.617652 0.678431
181.585251 36.887825 2.969204 0.678431
181.865250 37.078064 2.317297 0.505089
181.865250 37.078064 1.682702 0.520775
181.865265 37.078064 1.047427 0.553277
181.865250 37.078064 0.410104 0.543038
183.523636 38.204788 0.000000 0.531945
186.751389 40.397755 -0.000000 0.547356
188.812042 41.797775 -0.000000 0.545495
190.244263 42.770847 -0.000000 0.549172
191.299454 43.487759 -0.000000 0.520470
181.585251 37.053555 6.918546 0.678431
181.585251 37.053555 6.240956 0.678431
181.585251 37.053555 5.572880 0.678431
181.585251 37.053555 4.912716 0.678431
181.585251 37.053555 4.258933 0.678431
181.585251 37.053555 3.610055 0.678431
181.585251 37.053555 2.964652 0.678431
181.865250 37.240948 2.315808 0.757061
181.865250 37.240948 1.684192 0.601770
181.865250 37.240948 1.051900 0.788327
181.865250 37.240948 0.417571 0.664454
183.455780 38.305416 -0.000000 0.536782
186.698761 40.475800 -0.000000 0.530205
188.769135 41.861401 0.000000 0.526909
190.208115 42.824448 -0.000000 0.537316
191.268295 43.533974 -0.000000 0.498817
181.585251 37.217743 6.895790 0.678431
181.585266 37.217747 6.221334 0.678431
181.585251 37.217747 5.556349 0.678431
181.585251 37.217747 4.899240 0.678431
181.585251 37.217743 4.248482 0.678431
181.585251 37.217743 3.602606 0.678431
181.585251 37.217743 2.960189 0.678431
181.865250 37.402321 2.314347 0.462348
181.865250 37.402321 1.685654 0.728389
181.865250 37.402317 1.056286 0.459998
181.865265 37.402321 0.424892 0.748775
183.388626 38.406517 -0.000000 0.535973
186.646683 40.554207 0.000000 0.530648
188.726685 41.925320 0.000000 0.556771
190.172348 42.878296 -0.000000 0.592157
191.237457 43.580406 -0.000000 0.533745
181.585251 37.380428 6.873480 0.678431
181.585251 37.380428 6.202098 0.678431
181.585251 37.380428 5.540144 0.678431
181.585251 37.380428 4.886029 0.678431
181.585251 37.380428 4.238236 0.678431
181.585251 37.380428 3.595303 0.678431
181.585251 37.380428 2.955813 0.678431
181.865265 37.562210 2.312914 0.602533
181.865265 37.562210 1.687086 0.520958
181.865250 37.562210 1.060587 0.601083
181.865250 37.562210 0.432069 0.516411
183.322189 38.508087 0.000000 0.537118
186.595154 40.632977 -0.000000 0.543053
188.684662 41.989536 -0.000000 0.517784
190.136963 42.932396 -0.000000 0.538140
191.206940 43.627052 -0.000000 0.533104
181.585251 37.541641 6.851610 0.678431
181.585251 37.541641 6.183242 0.678431
181.585251 37.541645 5.524257 0.678431
181.585251 37.541645 4.873076 0.678431
181.585251 37.541645 4.228190 0.678431
181.585251 37.541645 3.588143 0.678431
181.585251 37.541641 2.951524 0.678431
181.865250 37.720661 2.311510 0.636957
181.865250 37.720661 1.688490 0.457313
181.865250 37.720661 1.064802 0.588739
181.865265 37.720661 0.439106 0.462486
183.256454 38.610115 -0.000000 0.555520
186.544174 40.712105 -0.000000 0.632090
188.643112 42.054047 0.000000 0.543618
190.101944 42.986740 -0.000000 0.555322
191.176743 43.673912 -0.000000 0.541955
181.585251 37.701427 6.830167 0.676219
181.585266 37.701427 6.164753 0.678431
181.585266 37.701427 5.508680 0.678431
181.585266 37.701431 4.860379 0.678431
181.585266 37.701431 4.218343 0.678431
181.585266 37.701431 3.581125 0.678431
181.585251 37.701427 2.947318 0.678431
181.865250 37.877701 2.310133 0.842466
181.865250 37.877701 1.689867 0.577569
181.865250 37.877701 1.068936 0.767605
181.865265 37.877705 0.446004 0.578012
183.191437 38.712601 -0.000000 0.554238
186.493744 40.791588 -0.000000 0.539391
188.602005 42.118839 -0.000000 0.534203
190.067307 43.041332 -0.000000 0.564157
191.146881 43.720982 0.000000 0.562890
181.585251 37.859814 6.809149 0.666575
181.585251 37.859814 6.146630 0.678431
181.585251 37.859814 5.493412 0.678431
181.585266 37.859818 4.847932 0.678431
181.585266 37.859814 4.208690 0.678431
181.585266 37.859818 3.574244 0.678431
181.585266 37.859814 2.943196 0.678431
181.865265 38.033371 2.308783 0.720470
181.865250 38.033371 1.691217 0.583230
181.865265 38.033371 1.072987 0.691783
181.865265 38.033371 0.452767 0.454109
183.127136 38.815536 -0.000000 0.550912
186.443878 40.871418 -0.000000 0.527947
188.561340 42.183922 0.000000 0.558618
190.033066 43.096161 -0.000000 0.558480
191.117355 43.768257 0.000000 0.518532
181.686310 38.078499 6.758890 0.160784
181.686310 38.078499 6.103294 0.160784
181.686310 38.078499 5.456903 0.160784
181.686310 38.078499 4.818170 0.160784
181.686310 38.078495 4.185608 0.160784
181.686310 38.078495 3.557792 0.160784
181.686310 38.078495 2.933339 0.160784
181.865250 38.187695 2.307460 0.647364
181.865250 38.187695 1.692539 0.776242
181.865250 38.187695 1.076959 0.631785
181.865250 38.187691 0.459396 0.562890
183.063553 38.918922 0.000000 0.538476
186.394562 40.951595 -0.000000 0.560311
188.521149 42.249283 -0.000000 0.538628
189.999191 43.151226 -0.000000 0.541253
191.088150 43.815735 0.000000 0.512901
181.585251 38.172516 6.768349 0.678431
181.585251 38.172516 6.111450 0.678431
181.585251 38.172516 5.463775 0.678431
181.585251 38.172516 4.823771 0.678431
181.585251 38.172516 4.189952 0.676509
181.585251 38.172516 3.560888 0.678431
181.585251 38.172516 2.935194 0.678431
181.865250 38.340710 2.306164 0.431617
181.865250 38.340710 1.693836 0.283848
181.865250 38.340710 1.080852 0.474327
181.865250 38.340714 0.465894 0.593912
183.000687 39.022743 -0.000000 0.531563
186.345810 41.032112 -0.000000 0.537163
188.481400 42.314926 0.000000 0.524453
189.965714 43.206528 0.000000 0.567269
191.059280 43.863422 -0.000000 0.527306
181.585251 38.326900 6.748552 0.678431
181.585251 38.326900 6.094380 0.678431
181.585251 38.326904 5.449394 0.678431
181.585251 38.326900 4.812047 0.678431
181.585251 38.326900 4.180859 0.678431
181.585251 38.326900 3.554408 0.678431
181.585251 38.326904 2.931311 0.678431
181.865250 38.492447 2.304893 0.456367
181.865250 38.492447 1.695108 0.690044
181.865265 38.492447 1.084669 0.546136
181.865250 38.492447 0.472263 0.418235
182.938538 39.127003 -0.000001 0.559182
186.297638 41.112972 -0.000000 0.530785
188.442123 42.380844 -0.000000 0.524269
189.932617 43.262062 -0.000000 0.524315
191.030746 43.911304 -0.000000 0.493507
181.585251 38.480019 6.729147 0.678431
181.585251 38.480019 6.077649 0.678431
181.585251 38.480019 5.435298 0.678431
181.585251 38.480019 4.800555 0.678431
181.585251 38.480022 4.171947 0.678431
181.585251 38.480019 3.548056 0.678431
181.585251 38.480022 2.927505 0.678431
181.865265 38.642941 2.303646 0.402136
181.865265 38.642941 1.696353 0.732982
181.865250 38.642937 1.088409 0.515267
181.865250 38.642937 0.478506 0.450401
182.877151 39.231697 -0.000000 0.558221
186.250015 41.194168 0.000000 0.537957
188.403290 42.447037 -0.000000 0.546181
189.899902 43.317825 0.000000 0.564767
191.002548 43.959385 -0.000000 0.558328
181.585251 38.631897 6.710130 0.678431
181.585251 38.631897 6.061251 0.678431
181.585251 38.631897 5.421483 0.678431
181.585251 38.631897 4.789293 0.678431
181.585251 38.631897 4.163213 0.678431
181.585251 38.631897 3.541830 0.678431
181.585251 38.631897 2.923775 0.678431
181.865250 38.792210 2.302426 0.823651
181.865250 38.792210 1.697574 0.489479
181.865265 38.792210 1.092075 0.274342
181.865250 38.792210 0.484624 0.908919
182.816467 39.336815 -0.000000 0.540200
186.202957 41.275688 -0.000000 0.550668
188.364929 42.513496 0.000000 0.547829
189.867584 43.373817 -0.000000 0.527382
190.974686 44.007664 -0.000000 0.504570
181.585251 38.782570 6.691491 0.678431
181.585251 38.782570 6.045180 0.678431
181.585251 38.782570 5.407946 0.678431
181.585251 38.782570 4.778256 0.678431
181.585251 38.782570 4.154654 0.678431
181.585251 38.782570 3.535729 0.678431
181.585251 38.782570 2.920120 0.678431
181.865265 38.940296 2.301229 0.533532
181.865265 38.940296 1.698771 0.536233
181.865250 38.940296 1.095668 0.513024
181.865250 38.940296 0.490621 0.929915
182.756531 39.442356 -0.000000 0.525032
186.156464 41.357540 -0.000000 0.547539
188.327042 42.580223 -0.000000 0.526238
189.835663 43.430031 0.000000 0.505562
190.947159 44.056133 -0.000000 0.492134
181.585251 38.932060 6.673226 0.678431
181.585251 38.932060 6.029433 0.678431
181.585251 38.932056 5.394677 0.678431
181.585251 38.932060 4.767440 0.678431
181.585251 38.932060 4.146265 0.678431
181.585251 38.932060 3.529751 0.678431
181.585251 38.932060 2.916538 0.678431
181.865265 39.087219 2.300056 0.824506
181.865265 39.087219 1.699944 0.477485
181.865265 39.087219 1.099188 0.570916
181.865265 39.087219 0.496497 0.631693
182.697342 39.548309 -0.000000 0.554879
186.110565 41.439716 0.000000 0.536324
188.289612 42.647213 0.000000 0.536980
189.804138 43.486469 -0.000000 0.551675
190.919968 44.104797 -0.000000 0.530816
181.585251 39.080395 6.655331 0.678431
181.585251 39.080395 6.014002 0.678431
181.585251 39.080395 5.381678 0.678431
181.585251 39.080399 4.756842 0.678431
181.585251 39.080399 4.138046 0.678431
181.585251 39.080399 3.523893 0.678431
181.585251 39.080399 2.913028 0.678431
181.865250 39.233009 2.298907 0.694911
181.865250 39.233009 1.701093 0.525154
181.865250 39.233009 1.102638 0.428183
181.865250 39.233009 0.502255 0.794369
182.638885 39.654678 0.000000 0.520180
186.065231 41.522205 0.000000 0.518654
188.252655 42.714462 0.000000 0.541955
189.772995 43.543125 -0.000000 0.515969
190.893112 44.153648 -0.000000 0.536171
181.585251 39.227608 6.637796 0.678431
181.585251 39.227608 5.998883 0.678431
181.585251 39.227608 5.368940 0.678431
181.585251 39.227608 4.746458 0.678431
181.585251 39.227608 4.129993 0.678431
181.585251 39.227608 3.518153 0.678431
181.585251 39.227608 2.909590 0.678431
181.865250 39.377697 2.297781 0.550988
181.865250 39.377697 1.702219 0.559884
181.865250 39.377697 1.106018 0.712108
181.865250 39.377697 0.507896 0.686564
182.581177 39.761452 0.000000 0.536187
186.020462 41.605011 -0.000000 0.528023
188.216156 42.781967 -0.000000 0.519036
189.742264 43.599995 -0.000000 0.486763
190.866608 44.202682 0.000000 0.548440
181.585251 39.373722 6.620618 0.678431
181.585251 39.373726 5.984071 0.678431
181.585251 39.373722 5.356462 0.678431
181.585251 39.373726 4.736285 0.678431
181.585251 39.373726 4.122103 0.678431
181.585251 39.373726 3.512530 0.678431
181.585251 39.373726 2.906220 0.678431
181.865250 39.521305 2.296678 0.635889
181.865250 39.521305 1.703322 0.432013
181.865265 39.521305 1.109329 0.625589
181.865265 39.521305 0.513423 0.663386
182.524200 39.868618 -0.000000 0.529656
185.976288 41.688126 -0.000000 0.549477
188.180145 42.849724 -0.000000 0.500282
189.711914 43.657082 0.000000 0.532143
190.840454 44.251904 -0.000000 0.582895
181.585251 39.518764 6.603790 0.678431
181.585251 39.518764 5.969562 0.678431
181.585251 39.518764 5.344237 0.678431
181.585251 39.518768 4.726319 0.678431
181.585251 39.518768 4.114374 0.678431
181.585251 39.518764 3.507021 0.678431
181.585251 39.518768 2.902920 0.678431
181.865250 39.663857 2.295598 0.436439
181.865250 39.663857 1.704402 0.550134
181.865250 39.663857 1.112572 0.543420
181.865250 39.663857 0.518836 0.621485
182.467987 39.976185 -0.000000 0.530221
185.932693 41.771545 -0.000000 0.561440
188.144608 42.917736 -0.000000 0.547478
189.681976 43.714375 -0.000000 0.560143
190.814636 44.301308 -0.000000 0.550484
181.585251 39.662766 6.587306 0.678431
181.585251 39.662762 5.955349 0.678431
181.585251 39.662762 5.332264 0.678431
181.585251 39.662762 4.716559 0.678431
181.585251 39.662766 4.106804 0.678431
181.585251 39.662766 3.501625 0.678431
181.585251 39.662762 2.899687 0.678431
181.865250 39.805386 2.294539 0.353231
181.865250 39.805386 1.705461 0.532479
181.865250 39.805382 1.115750 0.802640
181.865250 39.805386 0.524140 0.633936
182.412521 40.084145 -0.000000 0.553017
185.889679 41.855274 -0.000000 0.521309
188.109543 42.985989 -0.000000 0.562463
189.652420 43.771877 -0.000000 0.571328
190.789154 44.350887 -0.000000 0.545281
181.585251 39.805740 6.571161 0.678431
181.585251 39.805740 5.941428 0.678431
181.585251 39.805740 5.320537 0.678431
181.585251 39.805740 4.706998 0.678431
181.585251 39.805740 4.099390 0.678431
181.585251 39.805740 3.496341 0.678431
181.585251 39.805740 2.896520 0.678431
181.865250 39.945908 2.293503 0.815930
181.865250 39.945908 1.706497 0.497749
181.865250 39.945908 1.118862 0.349432
181.865250 39.945908 0.529334 0.795163
182.357819 40.192482 -0.000000 0.525383
185.847244 41.939297 0.000000 0.549767
188.074951 43.054485 -0.000000 0.558145
189.623291 43.829586 -0.000000 0.537835
190.764038 44.400646 0.000000 0.552224
181.585251 39.947723 6.555353 0.678431
181.585266 39.947723 5.927797 0.678431
181.585251 39.947723 5.309052 0.678431
181.585266 39.947723 4.697636 0.678431
181.585251 39.947723 4.092130 0.678431
181.585266 39.947723 3.491165 0.678431
181.585266 39.947723 2.893420 0.678431
181.865265 40.085453 2.292488 0.529671
181.865265 40.085453 1.707512 0.543786
181.865265 40.085453 1.121909 0.512688
181.865250 40.085453 0.534420 0.368872
182.303864 40.301205 0.000000 0.533898
185.805405 42.023613 -0.000000 0.548974
188.040833 43.123226 -0.000000 0.545312
189.594543 43.887497 -0.000000 0.525536
190.739258 44.450577 0.000000 0.509133
181.585251 40.088730 6.539873 0.678431
181.585251 40.088730 5.914451 0.678431
181.585251 40.088730 5.297808 0.678431
181.585251 40.088730 4.688470 0.678431
181.585251 40.088730 4.085020 0.678431
181.585266 40.088730 3.486098 0.678431
181.585251 40.088730 2.890384 0.678431
181.865250 40.224045 2.291494 0.843641
181.865250 40.224041 1.708506 0.570642
181.865250 40.224041 1.124893 0.563104
181.865250 40.224045 0.539400 0.418021
182.250671 40.410297 0.000000 0.550393
185.764145 42.108219 -0.000001 0.538552
188.007202 43.192200 -0.000000 0.568032
189.566223 43.945602 -0.000000 0.572168
190.714828 44.500679 0.000000 0.516609
181.585251 40.228790 6.524718 0.678431
181.585251 40.228790 5.901383 0.678431
181.585266 40.228790 5.286798 0.678431
181.585266 40.228794 4.679494 0.678431
181.585266 40.228794 4.078060 0.678431
181.585266 40.228794 3.481137 0.678431
181.585266 40.228794 2.887412 0.678431
181.865250 40.361698 2.290521 0.709895
181.865250 40.361698 1.709479 0.511788
181.865250 40.361702 1.127815 0.387991
181.865250 40.361702 0.544276 0.438773
182.198242 40.519764 0.000000 0.546136
185.723480 42.193115 -0.000000 0.519356
187.974060 43.261406 -0.000000 0.527855
189.538300 44.003910 -0.000000 0.544686
190.690750 44.550953 -0.000000 0.540627
181.585251 40.367928 6.509883 0.678431
181.585251 40.367928 5.888591 0.678431
181.585251 40.367928 5.276022 0.678431
181.585251 40.367928 4.670710 0.678431
181.585251 40.367928 4.071246 0.678431
181.585251 40.367928 3.476281 0.678431
181.585251 40.367928 2.884502 0.678431
181.865250 40.498451 2.289568 0.623529
181.865250 40.498451 1.710432 0.510918
181.865250 40.498451 1.130674 0.776471
181.865250 40.498451 0.549049 0.713970
182.146576 40.629589 -0.000000 0.538399
185.683426 42.278290 -0.000000 0.551110
187.941391 43.330845 -0.000000 0.573098
189.510773 44.062408 -0.000000 0.566918
190.667023 44.601395 -0.000000 0.528664
181.585266 40.506161 6.495362 0.678431
181.585266 40.506161 5.876070 0.678431
181.585266 40.506161 5.265474 0.678431
181.585266 40.506161 4.662110 0.678431
181.585266 40.506161 4.064577 0.678431
181.585266 40.506161 3.471528 0.678431
181.585266 40.506161 2.881655 0.678431
181.865250 40.634308 2.288636 0.461204
181.865250 40.634308 1.711364 0.376730
181.865250 40.634308 1.133473 0.761334
181.865250 40.634308 0.553720 0.405676
182.095688 40.739773 -0.000000 0.530556
185.643951 42.363743 -0.000000 0.554498
187.909210 43.400505 0.000000 0.538811
189.483658 44.121098 0.000000 0.549111
190.643646 44.651997 -0.000000 0.553460
181.392303 40.556828 6.534139 0.678431
181.392303 40.556828 5.909506 0.678431
181.392303 40.556828 5.293643 0.678431
181.392303 40.556828 4.685075 0.678431
181.392303 40.556828 4.082386 0.678431
181.392303 40.556824 3.484222 0.678431
181.392303 40.556828 2.889260 0.678431
181.865250 40.769306 2.287724 0.526253
181.865250 40.769306 1.712276 0.650599
181.865250 40.769306 1.136212 0.699702
181.865250 40.769306 0.558291 0.778149
182.045563 40.850307 -0.000000 0.540398
185.605072 42.449467 -0.000000 0.533349
187.877533 43.470394 0.000000 0.518120
189.456970 44.179974 -0.000000 0.564340
190.620621 44.702763 -0.000001 0.509071
181.079071 40.556828 6.605823 0.678431
181.079071 40.556828 5.971314 0.678431
181.079056 40.556828 5.345716 0.678431
181.079071 40.556828 4.727524 0.678431
181.079071 40.556828 4.115309 0.678431
181.079071 40.556828 3.507687 0.678431
181.079071 40.556828 2.903319 0.678431
181.788818 40.869759 2.288198 0.620752
181.788818 40.869759 1.711802 0.611658
181.788818 40.869759 1.134788 0.740993
181.788818 40.869755 0.555914 0.362295
181.996201 40.961193 -0.000000 0.543893
185.566803 42.535461 0.000000 0.520104
187.846329 43.540501 -0.000000 0.518486
189.430679 44.239037 0.000000 0.551537
190.597961 44.753689 -0.000001 0.520104
180.755753 40.556828 6.680040 0.678431
180.755753 40.556831 6.035307 0.678431
180.755753 40.556831 5.399627 0.678431
180.755753 40.556831 4.771475 0.678431
180.755753 40.556831 4.149394 0.678431
180.755753 40.556831 3.531981 0.678431
180.755753 40.556831 2.917874 0.678431
181.479141 40.869759 2.292842 0.437400
181.479141 40.869759 1.707158 0.519783
181.479141 40.869759 1.120846 0.592218
181.479141 40.869759 0.532645 0.564431
181.947632 41.072418 0.000000 0.541405
185.529129 42.621723 -0.000000 0.535210
187.815613 43.610821 0.000000 0.548196
189.404800 44.298283 0.000000 0.572854
190.575653 44.804771 -0.000000 0.543984
180.421829 40.556831 6.756924 0.678431
180.421829 40.556831 6.101600 0.678431
180.421829 40.556831 5.455475 0.678431
180.421829 40.556831 4.817005 0.678431
180.421829 40.556831 4.184705 0.678431
180.421829 40.556831 3.557149 0.678431
180.421829 40.556831 2.932953 0.678431
181.159302 40.869759 2.297653 0.800824
181.159302 40.869759 1.702347 0.412024
181.159302 40.869759 1.106403 0.531655
181.159302 40.869759 0.508538 0.635248
181.899841 41.183983 0.000000 0.545373
185.492065 42.708244 0.000000 0.525933
187.785385 43.681355 -0.000000 0.534020
189.379349 44.357704 -0.000001 0.545754
190.553696 44.856010 0.000000 0.560845
180.076721 40.556835 6.836617 0.678431
180.076721 40.556835 6.170313 0.678431
180.076736 40.556835 5.513365 0.678431
180.076721 40.556835 4.864199 0.678431
180.076736 40.556835 4.221305 0.678431
180.076721 40.556835 3.583236 0.678431
180.076736 40.556835 2.948583 0.678431
180.828751 40.869759 2.302639 0.751202
180.828751 40.869759 1.697360 0.524422
180.828766 40.869759 1.091432 0.453696
180.828751 40.869759 0.483552 0.901259
181.852814 41.295876 0.000000 0.539574
185.455597 42.795025 0.000000 0.535485
187.755661 43.752102 0.000000 0.536171
189.354294 44.417305 -0.000000 0.523308
190.532104 44.907398 0.000000 0.564187
179.719864 40.556839 6.919268 0.678431
179.719864 40.556839 6.241578 0.678431
179.719864 40.556839 5.573404 0.678431
179.719864 40.556839 4.913143 0.678431
179.719864 40.556839 4.259264 0.678431
179.719864 40.556839 3.610291 0.678431
179.719864 40.556835 2.964793 0.678431
180.486938 40.869759 2.307811 0.723781
180.486938 40.869759 1.692189 0.558251
180.486938 40.869759 1.075906 0.716060
180.486938 40.869759 0.457637 0.465476
181.806580 41.408096 0.000000 0.545205
185.419739 42.882053 0.000000 0.501183
187.726425 43.823051 -0.000000 0.534188
189.329666 44.477077 -0.000000 0.551553
190.510864 44.958935 -0.000000 0.577585
179.350571 40.556839 7.005039 0.497185
179.350571 40.556839 6.315534 0.461891
179.350571 40.556839 5.635710 0.440986
179.350555 40.556839 4.963937 0.488853
179.350555 40.556839 4.298656 0.470085
179.350555 40.556839 3.638369 0.438819
179.350571 40.556839 2.981615 0.422141
180.133209 40.869759 2.313178 0.551202
180.133209 40.869759 1.686821 0.510170
180.133209 40.869759 1.059792 0.548852
180.133209 40.869759 0.430744 0.514229
181.761124 41.520634 0.000000 0.531228
185.384491 42.969334 0.000000 0.511635
187.697693 43.894203 -0.000000 0.541085
189.305466 44.537022 -0.000000 0.509056
190.489990 45.010620 -0.000000 0.549187
179.310486 40.690956 7.002012 0.160784
179.310486 40.690956 6.312924 0.160784
179.310486 40.690956 5.633510 0.160784
179.310486 40.690956 4.962143 0.160784
179.310486 40.690956 4.297266 0.160784
179.310486 40.690956 3.637377 0.160784
179.310486 40.690956 2.981021 0.160784
179.766907 40.869759 2.318752 0.490288
179.766907 40.869759 1.681248 0.764111
179.766907 40.869759 1.043060 0.427207
179.766907 40.869759 0.402816 0.754345
181.716461 41.633488 -0.000000 0.519951
185.349854 43.056854 0.000000 0.528176
187.669464 43.965553 0.000000 0.542794
189.281677 44.597134 -0.000000 0.533516
190.469482 45.062454 -0.000000 0.509987
178.571899 40.556870 7.186648 0.678431
178.571899 40.556870 6.472125 0.678431
178.571899 40.556870 5.767632 0.678431
178.571884 40.556862 5.071487 0.678431
178.571869 40.556858 4.382068 0.678431
178.571869 40.556862 3.697819 0.678431
178.571869 40.556862 3.017235 0.678431
179.387314 40.869759 2.324543 0.655970
179.387314 40.869759 1.675456 0.679255
179.387314 40.869759 1.025673 0.754833
179.387314 40.869759 0.373796 0.429526
181.672577 41.746651 -0.000000 0.530251
185.315826 43.144615 -0.000000 0.523430
187.641724 44.037098 0.000000 0.570260
189.258301 44.657410 -0.000000 0.533059
190.449326 45.114426 0.000000 0.547967
178.160904 40.556870 7.282897 0.678431
178.160889 40.556862 6.555116 0.678431
178.160873 40.556858 5.837552 0.678431
178.160873 40.556858 5.128485 0.678431
178.160873 40.556858 4.426270 0.678431
178.160873 40.556858 3.729325 0.678431
178.160873 40.556858 3.036111 0.678431
178.993652 40.869759 2.330566 0.639567
178.993652 40.869759 1.669434 0.562432
178.993652 40.869759 1.007593 0.606699
178.993652 40.869759 0.343620 0.607477
181.629501 41.860119 0.000000 0.542107
185.282410 43.232616 -0.000000 0.526329
187.614471 44.108837 0.000000 0.543282
189.235352 44.717846 -0.000000 0.548821
190.429535 45.166534 -0.000000 0.501472
177.734299 40.556854 7.383058 0.678431
177.734299 40.556854 6.641476 0.678431
177.734299 40.556854 5.910306 0.678431
177.734299 40.556854 5.187796 0.678431
177.734299 40.556854 4.472268 0.678431
177.734299 40.556854 3.762110 0.678431
177.734299 40.556854 3.055754 0.678431
178.585083 40.869759 2.336833 0.412924
178.585083 40.869759 1.663167 0.780423
178.585083 40.869759 0.988779 0.580957
178.585083 40.869759 0.312219 0.556100
181.587204 41.973881 -0.000000 0.538613
185.249603 43.320847 -0.000000 0.545083
187.587738 44.180763 -0.000000 0.497292
189.212830 44.778442 -0.000000 0.547372
190.410110 45.218784 -0.000001 0.546242
177.291229 40.556850 7.487353 0.678431
177.291229 40.556850 6.731404 0.678431
177.291229 40.556850 5.986067 0.678431
177.291229 40.556854 5.249558 0.678431
177.291229 40.556850 4.520168 0.678431
177.291229 40.556850 3.796251 0.678431
177.291229 40.556850 3.076209 0.678431
178.160721 40.869759 2.343359 0.699855
178.160721 40.869759 1.656641 0.504143
178.160706 40.869759 0.969187 0.645838
178.160706 40.869759 0.279519 0.572885
181.545700 42.087936 -0.000000 0.547738
185.217422 43.409302 -0.000000 0.534829
187.561493 44.252876 -0.000000 0.529213
189.190720 44.839195 -0.000000 0.501915
190.391052 45.271168 -0.000000 0.555047
176.923447 40.589523 7.571401 0.260044
176.923447 40.589527 6.803872 0.196628
176.923447 40.589523 6.047120 0.221775
176.923447 40.589523 5.299331 0.108690
176.923447 40.589527 4.558768 0.194553
176.923447 40.589523 3.823763 0.219852
176.923447 40.589523 3.092692 0.167788
177.719543 40.869759 2.350160 0.575662
177.719543 40.869759 1.649840 0.532723
177.719543 40.869759 0.948769 0.474983
177.719543 40.869759 0.245439 0.550378
181.505005 42.202282 0.000000 0.541787
185.185867 43.497978 -0.000000 0.547341
187.535767 44.325169 -0.000000 0.529534
189.169052 44.900101 0.000000 0.517418
190.372375 45.323681 -0.000000 0.568872
176.351334 40.556831 7.709435 0.678431
