# This PCD file was generated using the MATLABÂ® pcwrite function
# from Computer Vision ToolboxÂ®.
# .PCD v.7 - Point Cloud Data file format
VERSION .7
FIELDS x y z intensity
SIZE 4 4 4 4
TYPE F F F F
COUNT 1 1 1 1
WIDTH 1314
HEIGHT 1
VIEWPOINT 0 0 0 1 0 0 0
POINTS 1314
DATA ascii
nan nan nan 0.000000
nan nan nan 0.000000
nan nan nan 0.000000
nan nan nan 0.000000
nan nan nan 0.000000
nan nan nan 0.000000
nan nan nan 0.000000
80.137169 -16.519527 -0.000007 0.338888
78.431328 -32.749367 -0.000016 0.338384
77.698929 -39.717674 0.000002 0.337957
77.291023 -43.598602 0.000011 0.334188
77.030617 -46.076191 0.000011 0.337774
76.849625 -47.798199 0.000009 0.335775
76.716278 -49.066898 0.000008 0.337285
nan nan nan 0.000000
nan nan nan 0.000000
nan nan nan 0.000000
nan nan nan 0.000000
nan nan nan 0.000000
nan nan nan 0.000000
nan nan nan 0.000000
nan nan nan 0.000000
nan nan nan 0.000000
80.419724 -16.550217 -0.000007 0.338201
78.600624 -32.767761 -0.000016 0.337819
77.819588 -39.730785 0.000001 0.338949
77.384598 -43.608765 0.000011 0.339437
77.106903 -46.084476 0.000011 0.337957
76.913895 -47.805180 0.000009 0.330022
76.771698 -49.072918 0.000008 0.334600
nan nan nan 0.000000
nan nan nan 0.000000
nan nan nan 0.000000
nan nan nan 0.000000
nan nan nan 0.000000
nan nan nan 0.000000
nan nan nan 0.000000
nan nan nan 0.000000
nan nan nan 0.000000
80.702049 -16.582893 -0.000007 0.339193
78.769775 -32.787338 -0.000016 0.336736
77.940155 -39.744736 0.000002 0.336324
77.478104 -43.619587 0.000011 0.337392
77.183128 -46.093300 0.000011 0.333288
76.978111 -47.812611 0.000009 0.337713
76.827065 -49.079323 0.000008 0.335760
nan nan nan 0.000000
nan nan nan 0.000000
nan nan nan 0.000000
nan nan nan 0.000000
nan nan nan 0.000000
nan nan nan 0.000000
nan nan nan 0.000000
nan nan nan 0.000000
nan nan nan 0.000000
80.984146 -16.617527 -0.000006 0.338933
78.938797 -32.808083 -0.000016 0.336736
78.060623 -39.759525 0.000002 0.341787
77.571533 -43.631058 0.000011 0.336690
77.259293 -46.102650 0.000012 0.341176
77.042282 -47.820488 0.000009 0.343099
76.882393 -49.086117 0.000008 0.335332
nan nan nan 0.000000
nan nan nan 0.000000
nan nan nan 0.000000
nan nan nan 0.000000
nan nan nan 0.000000
nan nan nan 0.000000
nan nan nan 0.000000
nan nan nan 0.000000
nan nan nan 0.000000
81.239075 -16.855919 0.009994 1.000000
79.107666 -32.830017 -0.000016 0.336782
78.180984 -39.775162 0.000002 0.339681
77.664871 -43.643181 0.000011 0.337789
77.335388 -46.112534 0.000011 0.335729
77.106392 -47.828815 0.000010 0.342962
76.937668 -49.093296 0.000008 0.335607
nan nan nan 0.000000
nan nan nan 0.000000
nan nan nan 0.000000
nan nan nan 0.000000
nan nan nan 0.000000
nan nan nan 0.000000
nan nan nan 0.000000
nan nan nan 0.000000
nan nan nan 0.000000
81.381729 -17.872810 0.058538 0.683589
79.276375 -32.853127 -0.000016 0.338506
78.301231 -39.791630 0.000001 0.339269
77.758133 -43.655960 0.000011 0.339086
77.411415 -46.122948 0.000011 0.337850
77.170441 -47.837589 0.000009 0.335470
76.992897 -49.100861 0.000008 0.326284
nan nan nan 0.000000
nan nan nan 0.000000
nan nan nan 0.000000
nan nan nan 0.000000
nan nan nan 0.000000
nan nan nan 0.000000
nan nan nan 0.000000
nan nan nan 0.000000
nan nan nan 0.000000
81.381721 -19.761459 0.150373 0.681208
79.444923 -32.877411 -0.000016 0.338155
78.421356 -39.808945 0.000002 0.335119
77.851295 -43.669380 0.000011 0.332372
77.487366 -46.133892 0.000011 0.344167
77.234421 -47.846809 0.000010 0.335286
77.048065 -49.108810 0.000008 0.338048
nan nan nan 0.000000
nan nan nan 0.000000
nan nan nan 0.000000
nan nan nan 0.000000
nan nan nan 0.000000
nan nan nan 0.000000
nan nan nan 0.000000
nan nan nan 0.000000
nan nan nan 0.000000
81.487106 -20.798824 0.199989 0.711330
79.613297 -32.902878 -0.000016 0.338247
78.541367 -39.827087 0.000001 0.334737
77.944366 -43.683456 0.000011 0.339025
77.563240 -46.145367 0.000011 0.340841
77.298347 -47.856480 0.000010 0.330358
77.103180 -49.117146 0.000008 0.328176
nan nan nan 0.000000
nan nan nan 0.000000
nan nan nan 0.000000
nan nan nan 0.000000
nan nan nan 0.000000
nan nan nan 0.000000
nan nan nan 0.000000
nan nan nan 0.000000
nan nan nan 0.000000
81.739754 -20.838837 0.199989 0.704463
79.781487 -32.929512 -0.000016 0.336416
78.661240 -39.846077 0.000002 0.337362
78.037331 -43.698181 0.000011 0.341756
77.639030 -46.157372 0.000011 0.337652
77.362198 -47.866592 0.000010 0.341573
77.158241 -49.125866 0.000008 0.334127
nan nan nan 0.000000
nan nan nan 0.000000
nan nan nan 0.000000
nan nan nan 0.000000
nan nan nan 0.000000
nan nan nan 0.000000
nan nan nan 0.000000
nan nan nan 0.000000
nan nan nan 0.000000
81.992119 -20.880619 0.199989 0.708003
79.949486 -32.957329 -0.000016 0.338155
78.780983 -39.865906 0.000001 0.335241
78.130196 -43.713558 0.000012 0.335195
77.714737 -46.169903 0.000011 0.339025
77.425980 -47.877148 0.000009 0.345083
77.213234 -49.134972 0.000008 0.338918
nan nan nan 0.000000
nan nan nan 0.000000
nan nan nan 0.000000
nan nan nan 0.000000
nan nan nan 0.000000
nan nan nan 0.000000
nan nan nan 0.000000
nan nan nan 0.000000
nan nan nan 0.000000
82.244179 -20.924160 0.199989 0.710918
80.117287 -32.986313 -0.000016 0.340398
78.900581 -39.886559 0.000001 0.333867
78.222954 -43.729580 0.000011 0.335119
77.790352 -46.182964 0.000011 0.336919
77.489685 -47.888153 0.000010 0.335515
77.268158 -49.144459 0.000008 0.341436
nan nan nan 0.000000
nan nan nan 0.000000
nan nan nan 0.000000
nan nan nan 0.000000
nan nan nan 0.000000
nan nan nan 0.000000
nan nan nan 0.000000
nan nan nan 0.000000
nan nan nan 0.000000
82.495926 -20.969452 0.199989 0.703410
80.284882 -33.016472 -0.000016 0.338262
79.020035 -39.908051 0.000001 0.340200
78.315590 -43.746246 0.000011 0.337209
77.865875 -46.196552 0.000011 0.330083
77.553307 -47.899597 0.000009 0.336416
77.323021 -49.154331 0.000008 0.340536
nan nan nan 0.000000
nan nan nan 0.000000
nan nan nan 0.000000
nan nan nan 0.000000
nan nan nan 0.000000
nan nan nan 0.000000
nan nan nan 0.000000
nan nan nan 0.000000
nan nan nan 0.000000
82.747353 -21.016541 0.199991 0.712352
80.452263 -33.047798 -0.000016 0.338155
79.139336 -39.930374 0.000001 0.340047
78.408112 -43.763561 0.000011 0.335958
77.941299 -46.210670 0.000011 0.331426
77.616852 -47.911495 0.000010 0.334554
77.377808 -49.164581 0.000008 0.337499
nan nan nan 0.000000
nan nan nan 0.000000
nan nan nan 0.000000
nan nan nan 0.000000
nan nan nan 0.000000
nan nan nan 0.000000
nan nan nan 0.000000
nan nan nan 0.000000
nan nan nan 0.000000
82.998436 -21.065407 0.199993 0.702663
80.619423 -33.080288 -0.000016 0.339406
79.258476 -39.953537 0.000002 0.338399
78.500511 -43.781521 0.000011 0.337285
78.016624 -46.225311 0.000011 0.329809
77.680313 -47.923828 0.000009 0.335500
77.432526 -49.175220 0.000008 0.342916
nan nan nan 0.000000
nan nan nan 0.000000
nan nan nan 0.000000
nan nan nan 0.000000
nan nan nan 0.000000
nan nan nan 0.000000
nan nan nan 0.000000
nan nan nan 0.000000
nan nan nan 0.000000
83.249184 -21.115959 0.199993 0.707179
80.786346 -33.113945 -0.000016 0.338430
79.377449 -39.977531 0.000002 0.337636
78.592781 -43.800129 0.000011 0.339544
78.091850 -46.240479 0.000011 0.333211
77.743683 -47.936607 0.000009 0.337057
77.487167 -49.186237 0.000008 0.343679
nan nan nan 0.000000
nan nan nan 0.000000
nan nan nan 0.000000
nan nan nan 0.000000
nan nan nan 0.000000
nan nan nan 0.000000
nan nan nan 0.000000
nan nan nan 0.000000
nan nan nan 0.000000
83.499565 -21.168324 0.199996 0.711864
80.953033 -33.148769 -0.000016 0.335210
79.496254 -40.002350 0.000002 0.335958
78.684921 -43.819374 0.000011 0.339590
78.166962 -46.256168 0.000011 0.336614
77.806961 -47.949825 0.000009 0.333761
77.541733 -49.197636 0.000008 0.338949
nan nan nan 0.000000
nan nan nan 0.000000
nan nan nan 0.000000
nan nan nan 0.000000
nan nan nan 0.000000
nan nan nan 0.000000
nan nan nan 0.000000
nan nan nan 0.000000
nan nan nan 0.000000
83.749588 -21.222378 0.199996 0.705211
81.093239 -33.304092 0.010003 1.000000
79.614891 -40.028000 0.000002 0.339788
78.776924 -43.839268 0.000011 0.331029
78.241966 -46.272385 0.000011 0.340383
77.870155 -47.963486 0.000009 0.325261
77.596214 -49.209415 0.000008 0.340108
nan nan nan 0.000000
nan nan nan 0.000000
nan nan nan 0.000000
nan nan nan 0.000000
nan nan nan 0.000000
nan nan nan 0.000000
nan nan nan 0.000000
nan nan nan 0.000000
nan nan nan 0.000000
83.999237 -21.278111 0.199993 0.710918
81.285667 -33.221901 -0.000016 0.335866
79.733337 -40.054474 0.000002 0.337377
78.868782 -43.859798 0.000011 0.338186
78.316856 -46.289124 0.000011 0.344671
77.933243 -47.977589 0.000009 0.339544
77.650620 -49.221573 0.000008 0.335103
nan nan nan 0.000000
nan nan nan 0.000000
nan nan nan 0.000000
nan nan nan 0.000000
nan nan nan 0.000000
nan nan nan 0.000000
nan nan nan 0.000000
nan nan nan 0.000000
nan nan nan 0.000000
84.248482 -21.335606 0.199990 0.707454
81.381676 -33.558266 0.025087 0.729366
79.851593 -40.081779 0.000002 0.336294
78.960503 -43.880974 0.000011 0.336614
78.391624 -46.306389 0.000011 0.341726
77.996231 -47.992134 0.000009 0.340520
77.704926 -49.234116 0.000008 0.331487
nan nan nan 0.000000
nan nan nan 0.000000
nan nan nan 0.000000
nan nan nan 0.000000
nan nan nan 0.000000
nan nan nan 0.000000
nan nan nan 0.000000
nan nan nan 0.000000
nan nan nan 0.000000
85.454849 -17.436909 -0.000062 0.540322
81.381676 -34.273338 0.082123 0.727871
79.969658 -40.109909 0.000002 0.329717
79.052063 -43.902794 0.000012 0.336385
78.466270 -46.324173 0.000011 0.332815
78.059120 -48.007114 0.000009 0.337285
77.759155 -49.247032 0.000008 0.340795
nan nan nan 0.000000
nan nan nan 0.000000
nan nan nan 0.000000
nan nan nan 0.000000
nan nan nan 0.000000
nan nan nan 0.000000
nan nan nan 0.000000
nan nan nan 0.000000
nan nan nan 0.000000
85.730873 -17.504696 -0.000062 0.539864
81.381676 -34.948326 0.135872 0.704799
80.087532 -40.138863 0.000003 0.335805
79.143478 -43.925243 0.000012 0.337697
78.540794 -46.342472 0.000011 0.339666
78.121902 -48.022533 0.000009 0.347295
77.813286 -49.260326 0.000008 0.338903
nan nan nan 0.000000
nan nan nan 0.000000
nan nan nan 0.000000
nan nan nan 0.000000
nan nan nan 0.000000
nan nan nan 0.000000
nan nan nan 0.000000
nan nan nan 0.000000
nan nan nan 0.000000
86.006409 -17.574440 -0.000062 0.540246
81.381676 -35.586525 0.186603 0.698619
80.205193 -40.168633 0.000002 0.337911
79.234726 -43.948334 0.000012 0.341573
78.615181 -46.361298 0.000011 0.339696
78.184578 -48.038391 0.000009 0.340032
77.867325 -49.274002 0.000008 0.330510
nan nan nan 0.000000
nan nan nan 0.000000
nan nan nan 0.000000
nan nan nan 0.000000
nan nan nan 0.000000
nan nan nan 0.000000
nan nan nan 0.000000
nan nan nan 0.000000
nan nan nan 0.000000
86.281464 -17.646065 -0.000062 0.542916
81.489410 -35.783218 0.199983 0.714336
80.322647 -40.199226 0.000002 0.338933
79.325813 -43.972061 0.000011 0.340871
78.689438 -46.380642 0.000011 0.339086
78.247139 -48.054688 0.000009 0.343435
77.921265 -49.288055 0.000008 0.339559
nan nan nan 0.000000
nan nan nan 0.000000
nan nan nan 0.000000
nan nan nan 0.000000
101.895348 38.738415 13.413992 0.583597
101.895348 38.738415 10.135326 0.622904
101.850410 38.573009 6.865796 0.586816
101.850403 38.573009 3.620772 0.546227
101.850403 38.573017 0.379226 0.615061
86.556000 -17.719624 -0.000062 0.540703
81.637444 -35.822884 0.199983 0.713573
80.439880 -40.230644 0.000003 0.336919
79.416733 -43.996422 0.000011 0.338842
78.763557 -46.400501 0.000011 0.339162
78.309578 -48.071419 0.000009 0.336721
77.975105 -49.302479 0.000008 0.328756
101.850433 36.001850 26.188700 0.575845
101.850494 36.002094 22.856470 0.629450
101.850502 36.002110 19.570957 0.593942
101.850426 36.001827 16.324314 0.661006
101.850494 36.002079 13.109134 0.573846
101.850494 36.002079 9.918036 0.603632
101.850426 36.001820 6.744015 0.536385
101.850418 36.001820 3.580209 0.547250
101.850426 36.001827 0.419790 0.543755
86.830017 -17.795109 -0.000062 0.540261
81.785194 -35.863586 0.199983 0.702144
80.556892 -40.262871 0.000002 0.339300
79.507484 -44.021423 0.000012 0.339849
78.837540 -46.420879 0.000011 0.343435
78.371902 -48.088589 0.000009 0.341558
78.028847 -49.317284 0.000008 0.340993
101.850449 33.556110 25.599216 0.562249
101.850418 33.555996 22.348116 0.536233
101.850418 33.555988 19.142681 0.629114
101.850449 33.556110 15.975229 0.473198
101.850449 33.556118 12.838375 0.554208
101.850418 33.555996 9.725044 0.471977
101.850449 33.556110 6.628405 0.605356
101.850449 33.556110 3.541701 0.518868
101.850449 33.556118 0.458301 0.586450
87.103500 -17.872513 -0.000061 0.534997
81.932663 -35.905312 0.199983 0.703075
80.673676 -40.295914 0.000002 0.336660
79.598053 -44.047050 0.000012 0.338552
78.911377 -46.441772 0.000011 0.338216
78.434113 -48.106190 0.000009 0.330694
78.082481 -49.332458 0.000008 0.343999
101.850464 31.226620 25.038877 0.698695
101.850471 31.226635 21.864994 0.567483
101.850395 31.226383 18.735622 0.590311
101.850471 31.226650 15.643407 0.538613
101.850464 31.226627 12.581028 0.570428
101.850395 31.226368 9.541609 0.534112
101.850464 31.226627 6.518508 0.545983
101.850464 31.226627 3.505095 0.490166
101.850464 31.226627 0.494905 0.490715
87.376434 -17.951828 -0.000061 0.541085
82.079842 -35.948067 0.199983 0.712489
80.790230 -40.329781 0.000002 0.336996
79.688446 -44.073307 0.000012 0.335897
78.985069 -46.463181 0.000011 0.334722
78.496193 -48.124226 0.000009 0.339239
78.136009 -49.348011 0.000008 0.329229
102.000366 29.501553 24.635504 0.154818
101.850487 29.005123 21.405190 0.633799
102.080353 29.766491 18.493010 0.664958
102.073105 29.742481 15.441862 0.572290
101.850487 29.005123 12.336117 0.578058
102.080360 29.766506 9.432281 0.665293
101.850487 29.005131 6.413921 0.624796
101.850487 29.005131 3.470258 0.601358
101.850487 29.005131 0.529744 0.571939
87.648811 -18.033009 -0.000061 0.540993
82.226707 -35.991844 0.199983 0.698070
80.906540 -40.364456 0.000002 0.335897
79.778648 -44.100201 0.000012 0.337087
79.058601 -46.485104 0.000011 0.340230
78.558144 -48.142693 0.000009 0.332113
78.189430 -49.363937 0.000008 0.339681
102.001335 27.371227 24.125271 0.686900
101.850510 26.883976 20.967081 0.549416
102.001328 27.371197 18.072006 0.657420
102.001335 27.371220 15.102374 0.636118
101.850502 26.883961 12.102757 0.658030
102.001328 27.371212 9.242565 0.685039
101.850510 26.883976 6.314268 0.593912
101.850502 26.883961 3.437062 0.556649
101.850510 26.883968 0.562938 0.708980
87.920616 -18.116116 -0.000061 0.536156
82.373268 -36.036659 0.199983 0.709545
81.022606 -40.399940 0.000003 0.339345
79.868668 -44.127724 0.000012 0.333669
79.131989 -46.507538 0.000011 0.332525
78.619972 -48.161594 0.000009 0.333959
78.242737 -49.380234 0.000008 0.340764
101.850372 24.855984 23.512753 0.545419
101.850525 24.856472 20.549221 0.648371
101.850372 24.856007 17.627079 0.536339
101.850380 24.856014 14.739655 0.520729
101.850533 24.856487 11.880188 0.642847
101.850372 24.855999 9.042065 0.580530
101.850525 24.856480 6.219223 0.630533
101.850525 24.856464 3.405404 0.505470
101.850525 24.856472 0.594598 0.659022
88.191826 -18.201118 -0.000061 0.541421
82.519516 -36.082493 0.199983 0.713069
81.112137 -40.519096 0.010003 1.000000
79.958481 -44.155872 0.000012 0.328893
79.205208 -46.530483 0.000010 0.337865
78.681656 -48.180931 0.000009 0.349813
78.295929 -49.396904 0.000008 0.339529
101.850563 22.916302 23.050163 0.593484
101.850540 22.916241 20.150230 0.583200
101.850548 22.916264 17.291035 0.479255
101.850571 22.916309 14.465703 0.703410
101.850548 22.916248 11.667666 0.581201
101.850563 22.916309 8.890636 0.667872
101.850563 22.916294 6.128470 0.534676
101.850548 22.916241 3.375171 0.587243
101.850548 22.916241 0.624827 0.545861
88.462448 -18.287994 -0.000061 0.538949
82.665436 -36.129341 0.199983 0.701396
81.227119 -40.556011 0.010003 1.000000
80.048103 -44.184647 0.000012 0.337499
79.278275 -46.553940 0.000011 0.335424
78.743210 -48.200691 0.000009 0.330037
78.348999 -49.413944 0.000008 0.328374
101.850555 21.057583 22.607864 0.576303
101.850563 21.057598 19.768885 0.635752
101.850563 21.057613 16.969757 0.607996
101.850563 21.057598 14.203784 0.641733
101.850555 21.057598 11.464542 0.603586
101.850563 21.057606 8.745854 0.592752
101.850563 21.057613 6.041728 0.648875
101.850563 21.057598 3.346281 0.610941
101.850563 21.057598 0.653721 0.582208
88.732460 -18.376778 -0.000061 0.544610
82.811028 -36.177212 0.199983 0.694820
81.369286 -40.511250 0.000003 0.341558
80.137527 -44.214050 0.000012 0.340002
79.351173 -46.577911 0.000011 0.337392
78.804626 -48.220882 0.000009 0.339574
78.401955 -49.431355 0.000008 0.336797
102.429863 20.977055 22.635033 0.607462
102.429871 20.977070 19.792307 0.682795
102.429878 20.977100 16.989496 0.463294
102.429871 20.977093 14.219873 0.667552
102.429871 20.977085 11.477020 0.487434
102.429871 20.977085 8.754750 0.698741
102.429871 20.977085 6.047052 0.576944
102.429878 20.977100 3.348056 0.549203
102.429878 20.977100 0.651946 0.606989
89.001831 -18.467449 -0.000060 0.541009
82.956284 -36.226097 0.199983 0.711208
81.381683 -40.851448 0.036640 0.671992
80.226738 -44.244068 0.000012 0.339742
79.423897 -46.602386 0.000010 0.335821
78.865898 -48.241501 0.000009 0.334508
78.454781 -49.449131 0.000008 0.331395
103.038864 20.977070 22.684694 0.684199
103.038864 20.977077 19.835129 0.613519
103.038872 20.977093 17.025568 0.679805
103.038872 20.977093 14.249285 0.643351
103.038872 20.977085 11.499831 0.481300
103.038864 20.977085 8.771007 0.591272
103.038872 20.977093 6.056793 0.625589
103.038872 20.977093 3.351300 0.479667
103.038872 20.977093 0.648701 0.534920
89.270576 -18.559982 -0.000061 0.542046
83.101189 -36.275993 0.199984 0.712871
81.381683 -41.213741 0.076049 0.717952
80.315735 -44.274715 0.000012 0.343069
79.496452 -46.627365 0.000010 0.337713
78.927025 -48.262550 0.000009 0.335943
78.507492 -49.467278 0.000008 0.336812
103.650810 20.977070 22.735611 0.430671
103.650818 20.977085 19.879036 0.660060
103.650833 20.977116 17.062561 0.588586
103.650826 20.977100 14.279438 0.668544
103.650818 20.977093 11.523215 0.461112
103.650818 20.977093 8.787675 0.559564
103.650826 20.977100 6.066781 0.716289
103.650818 20.977093 3.354626 0.577096
103.650818 20.977093 0.645374 0.690623
89.538658 -18.654381 -0.000061 0.537530
83.245743 -36.326904 0.199984 0.695064
81.381683 -41.561790 0.113815 0.740932
80.404518 -44.305977 0.000012 0.338521
79.568832 -46.652855 0.000010 0.334386
78.987999 -48.284019 0.000009 0.341863
78.560066 -49.485794 0.000007 0.341924
104.265823 20.977070 22.787800 0.643732
104.265823 20.977085 19.924028 0.714122
104.265831 20.977093 17.100464 0.587060
104.265831 20.977093 14.310338 0.514809
104.265823 20.977085 11.547181 0.560571
104.265831 20.977093 8.804756 0.568185
104.265839 20.977100 6.077014 0.537453
104.265831 20.977100 3.358036 0.538003
104.265831 20.977100 0.641966 0.580407
89.806076 -18.750668 -0.000061 0.539498
83.389946 -36.378815 0.199983 0.705272
81.381683 -41.896458 0.150040 0.677180
80.493080 -44.337864 0.000012 0.337118
79.641029 -46.678848 0.000011 0.331777
79.048828 -48.305920 0.000009 0.332204
78.612511 -49.504677 0.000008 0.327794
104.883957 20.977085 22.841265 0.673793
104.883965 20.977085 19.970127 0.467063
104.883965 20.977100 17.139301 0.586969
104.883972 20.977108 14.342001 0.583062
104.883965 20.977093 11.571734 0.744945
104.883965 20.977093 8.822258 0.488334
104.883972 20.977108 6.087502 0.548470
104.883965 20.977100 3.361527 0.579309
104.883965 20.977100 0.638473 0.692958
90.072815 -18.848812 -0.000060 0.540597
83.533775 -36.431740 0.199984 0.714397
81.381683 -42.218525 0.184812 0.729641
80.581421 -44.370369 0.000012 0.339193
79.713043 -46.705345 0.000010 0.336599
79.109497 -48.328243 0.000009 0.339345
78.664825 -49.523922 0.000008 0.332280
105.602997 21.234211 22.964926 0.678431
105.569031 21.144794 20.056093 0.375296
105.505325 20.977108 17.179081 0.666270
105.602997 21.234211 14.415228 0.678431
105.505318 20.977085 11.596884 0.568475
105.602997 21.234211 8.862733 0.678431
105.569031 21.144794 6.107055 0.138842
105.505325 20.977093 3.365106 0.606958
105.505325 20.977093 0.634896 0.623056
90.338875 -18.948803 -0.000060 0.543435
83.677231 -36.485664 0.199984 0.699275
81.437950 -42.380608 0.199988 0.691493
80.669525 -44.403488 0.000013 0.340108
79.784874 -46.732346 0.000010 0.334188
79.170006 -48.350990 0.000009 0.337545
78.717003 -49.543537 0.000008 0.340154
106.229706 21.234180 23.021170 0.678431
106.129974 20.977077 20.065691 0.501289
106.129990 20.977093 17.219810 0.621607
106.229706 21.234188 14.448538 0.628382
106.129982 20.977085 11.622635 0.613581
106.229706 21.234188 8.881149 0.618280
106.195038 21.144817 6.118074 0.171084
106.129982 20.977093 3.368766 0.601114
106.129982 20.977093 0.631232 0.675700
90.604218 -19.050667 -0.000060 0.539132
83.820313 -36.540585 0.199984 0.705043
81.539925 -42.419754 0.199988 0.716640
80.757401 -44.437218 0.000013 0.337560
79.856514 -46.759842 0.000010 0.335439
79.230362 -48.374157 0.000009 0.338628
78.769043 -49.563511 0.000008 0.332601
106.758057 20.977139 23.009520 0.608118
106.758041 20.977077 20.115189 0.679591
106.758041 20.977093 17.261509 0.600656
106.758072 20.977154 14.441639 0.593744
106.758041 20.977093 11.649000 0.701854
106.758072 20.977161 8.877336 0.672389
106.758049 20.977100 6.120496 0.576974
106.758049 20.977100 3.372518 0.716930
106.758049 20.977100 0.627482 0.619944
90.868828 -19.154411 -0.000059 0.538933
83.963005 -36.596504 0.199984 0.708156
81.641632 -42.459614 0.199988 0.681331
80.845039 -44.471565 0.000013 0.337911
79.927963 -46.787842 0.000010 0.334157
79.290550 -48.397743 0.000009 0.332952
78.820938 -49.583851 0.000008 0.340368
107.389587 20.977116 23.068260 0.482826
107.389572 20.977085 20.165842 0.495308
107.389572 20.977100 17.304188 0.400916
107.389595 20.977139 14.476428 0.479469
107.389572 20.977077 11.675981 0.646357
107.389595 20.977139 8.896564 0.597559
107.389572 20.977093 6.132019 0.666239
107.389580 20.977100 3.376354 0.504829
107.389580 20.977100 0.623644 0.615045
91.132729 -19.259953 -0.000058 0.541283
84.105301 -36.653419 0.199984 0.710170
81.743057 -42.500175 0.199988 0.722255
80.932434 -44.506523 0.000012 0.339879
79.999207 -46.816338 0.000010 0.338460
79.350578 -48.421753 0.000009 0.339162
78.872696 -49.604549 0.000008 0.337713
108.130661 21.234196 23.198021 0.678431
108.024689 20.977085 20.217672 0.606668
108.024704 20.977100 17.347851 0.574762
108.130661 21.234196 14.553266 0.678431
108.024689 20.977085 11.703588 0.652705
108.130661 21.234188 8.939035 0.678431
108.024689 20.977093 6.143809 0.582223
108.024689 20.977085 3.380282 0.549065
108.024689 20.977085 0.619718 0.570428
91.395882 -19.367352 -0.000058 0.545373
84.247200 -36.711327 0.199984 0.702037
81.844193 -42.541454 0.199989 0.685100
81.019585 -44.542084 0.000012 0.337194
80.070259 -46.845329 0.000010 0.339101
79.410431 -48.446178 0.000008 0.337224
78.924309 -49.625610 0.000008 0.330312
108.771530 21.234188 23.259710 0.587793
108.663452 20.977093 20.270691 0.509621
108.663460 20.977100 17.392519 0.649424
108.771530 21.234188 14.589795 0.610956
108.663452 20.977085 11.731828 0.552453
108.771523 21.234173 8.959230 0.555901
108.663452 20.977093 6.155868 0.659541
108.663460 20.977100 3.384298 0.675929
108.663460 20.977100 0.615700 0.651560
91.658279 -19.476574 -0.000058 0.538918
85.333992 -34.521439 -0.000035 0.552087
81.945038 -42.583427 0.199988 0.704555
81.080414 -44.640278 0.009992 1.000000
80.141098 -46.874821 0.000010 0.341650
79.470116 -48.471024 0.000009 0.339727
78.975769 -49.647034 0.000007 0.338399
109.306023 20.977139 23.252752 0.453788
109.306000 20.977085 20.324913 0.596246
109.306015 20.977100 17.438202 0.794369
109.306030 20.977161 14.585681 0.570382
109.306000 20.977077 11.760711 0.620432
109.306038 20.977169 8.956955 0.465293
109.306000 20.977093 6.168200 0.510414
109.306000 20.977085 3.388409 0.552071
109.306000 20.977085 0.611593 0.607858
91.919914 -19.587616 -0.000059 0.541024
85.490746 -34.587978 -0.000035 0.550240
82.045586 -42.626110 0.199988 0.692500
81.166603 -44.676937 0.010002 1.000000
80.211739 -46.904804 0.000010 0.335821
79.529625 -48.496284 0.000009 0.335973
79.027077 -49.668812 0.000007 0.337270
109.952415 20.977131 23.317059 0.701488
109.952393 20.977085 20.380360 0.617304
109.952408 20.977108 17.484911 0.562799
109.952423 20.977154 14.623762 0.452979
109.952393 20.977085 11.790243 0.618601
109.952423 20.977154 8.978006 0.464179
109.952400 20.977093 6.180813 0.597894
109.952408 20.977100 3.392609 0.484627
109.952408 20.977100 0.607391 0.533776
92.180763 -19.700504 -0.000059 0.541161
85.647026 -34.655609 -0.000035 0.548455
82.145844 -42.669491 0.199988 0.685496
81.279518 -44.652420 0.000012 0.336736
80.282158 -46.935280 0.000010 0.333959
79.588959 -48.521957 0.000008 0.342016
79.078232 -49.690948 0.000007 0.333089
110.717224 21.234226 23.453285 0.678431
110.602737 20.977077 20.437042 0.637827
110.602753 20.977100 17.532661 0.497124
110.717224 21.234219 14.704432 0.678431
110.602737 20.977077 11.820436 0.664469
110.717224 21.234226 9.022596 0.678431
110.602753 20.977108 6.193707 0.715267
110.602753 20.977100 3.396903 0.618784
110.602753 20.977100 0.603097 0.691859
92.440811 -19.815201 -0.000058 0.542550
85.802834 -34.724327 -0.000035 0.534768
82.245781 -42.713577 0.199988 0.714168
81.365646 -44.690399 0.000012 0.334768
80.352371 -46.966248 0.000010 0.337102
79.648109 -48.548042 0.000008 0.334737
79.129234 -49.713444 0.000007 0.338628
111.333252 21.144848 23.496120 0.170382
111.257149 20.977085 20.494978 0.812696
111.333260 21.144863 17.614992 0.207355
111.333252 21.144855 14.729797 0.163241
111.257149 20.977085 11.851295 0.617350
111.333252 21.144840 9.036617 0.152819
111.257156 20.977093 6.206885 0.761090
111.257156 20.977093 3.401292 0.543557
111.257156 20.977093 0.598706 0.563333
92.700066 -19.931709 -0.000058 0.536522
85.958160 -34.794136 -0.000035 0.533791
82.345421 -42.758354 0.199988 0.693080
81.381683 -44.882889 0.025081 0.735775
80.422363 -46.997700 0.000010 0.336507
79.707077 -48.574543 0.000008 0.339727
79.180077 -49.736294 0.000007 0.335882
111.915710 20.977093 23.518650 0.591333
111.915695 20.977077 20.554190 0.705165
111.915718 20.977116 17.631359 0.666072
111.915726 20.977123 14.743143 0.649287
111.915703 20.977077 11.882834 0.733471
111.915710 20.977108 9.043994 0.667048
111.915710 20.977085 6.220352 0.595117
111.915710 20.977093 3.405780 0.710048
111.915710 20.977093 0.594220 0.725856
92.958481 -20.050041 -0.000058 0.543618
86.112984 -34.865028 -0.000034 0.544869
82.444740 -42.803825 0.199988 0.707515
81.381683 -45.104481 0.054967 0.680964
80.492134 -47.029644 0.000010 0.337102
79.765854 -48.601456 0.000008 0.337163
79.230759 -49.759499 0.000007 0.343130
112.578522 20.977070 23.588812 0.393179
112.578522 20.977085 20.614693 0.579431
112.578537 20.977108 17.682333 0.439536
112.578537 20.977108 14.784697 0.364187
112.578522 20.977093 11.915063 0.546395
112.578529 20.977093 9.066961 0.639643
112.578537 20.977100 6.234113 0.794430
112.578529 20.977093 3.410363 0.493675
112.578529 20.977093 0.589637 0.399771
93.216072 -20.170158 -0.000058 0.544671
86.267319 -34.936996 -0.000034 0.536095
82.543739 -42.849991 0.199989 0.677317
81.381683 -45.319473 0.083870 0.743038
80.561676 -47.062073 0.000010 0.340688
79.824440 -48.628777 0.000008 0.338354
79.281281 -49.783058 0.000007 0.341619
113.368935 21.234249 23.731932 0.678431
113.245720 20.977077 20.676502 0.503548
113.368927 21.234241 17.786285 0.678431
113.368942 21.234257 14.869443 0.678431
113.245720 20.977085 11.947984 0.522148
113.368927 21.234249 9.113809 0.678431
113.245720 20.977077 6.248172 0.542473
113.245720 20.977085 3.415045 0.482383
113.245712 20.977077 0.584953 0.587839
93.472824 -20.292065 -0.000058 0.544656
86.421143 -35.010036 -0.000034 0.528038
82.642410 -42.896847 0.199989 0.710857
81.381683 -45.528183 0.111837 0.782162
80.630997 -47.094990 0.000010 0.336614
79.882843 -48.656506 0.000008 0.341207
79.331635 -49.806965 0.000007 0.340642
113.917404 20.977085 23.733728 0.549294
113.917397 20.977070 20.739637 0.625437
113.917419 20.977123 17.787598 0.415473
113.917427 20.977131 14.870515 0.630152
113.917404 20.977085 11.981615 0.682063
113.917419 20.977108 9.114401 0.544045
113.917404 20.977085 6.262534 0.540520
113.917404 20.977085 3.419829 0.672419
113.917397 20.977077 0.580169 0.623529
93.728714 -20.415791 -0.000057 0.538872
86.574455 -35.084160 -0.000034 0.543252
82.740761 -42.944386 0.199988 0.690562
81.381683 -45.730900 0.138909 0.666758
80.700089 -47.128387 0.000010 0.337469
79.941048 -48.684643 0.000008 0.340185
79.381821 -49.831226 0.000007 0.326925
114.593651 20.977070 23.808516 0.559380
114.593658 20.977085 20.804127 0.610620
114.593674 20.977116 17.841923 0.701839
114.593674 20.977116 14.914802 0.590249
114.593658 20.977077 12.015961 0.554070
114.593658 20.977100 9.138880 0.467124
114.593658 20.977085 6.277204 0.589288
114.593651 20.977077 3.424715 0.559533
114.593651 20.977077 0.575285 0.466667
93.983734 -20.541267 -0.000057 0.542245
86.727249 -35.159344 -0.000033 0.542550
82.838776 -42.992615 0.199988 0.699382
81.381683 -45.927891 0.165128 0.683284
80.768936 -47.162266 0.000010 0.335027
79.999054 -48.713184 0.000008 0.334356
79.431831 -49.855835 0.000007 0.343282
115.404495 21.234180 23.957043 0.678431
115.274620 20.977070 20.869978 0.657725
115.404480 21.234158 17.949808 0.678431
115.404495 21.234180 15.002750 0.678431
115.274620 20.977070 12.051037 0.653025
115.404488 21.234165 9.187496 0.678431
115.274628 20.977085 6.292182 0.444450
115.274628 20.977093 3.429707 0.647608
115.274628 20.977093 0.570295 0.617884
94.237869 -20.668549 -0.000057 0.539727
86.879517 -35.235588 -0.000034 0.538827
82.936447 -43.041523 0.199988 0.682277
81.381683 -46.119419 0.190532 0.776181
80.837547 -47.196625 0.000010 0.334478
80.056854 -48.742134 0.000008 0.339544
79.481674 -49.880795 0.000007 0.346517
116.092552 21.234203 24.035294 0.678431
115.960403 20.977070 20.937225 0.626612
116.092545 21.234188 18.006647 0.678431
116.092545 21.234188 15.049087 0.678431
115.960403 20.977085 12.086855 0.533715
116.092545 21.234196 9.213113 0.678431
115.960411 20.977085 6.307478 0.582696
115.960403 20.977070 3.434801 0.621057
115.960403 20.977070 0.565199 0.648783
94.491119 -20.797577 -0.000057 0.550683
87.031242 -35.312897 -0.000034 0.544671
83.033775 -43.091114 0.199988 0.699275
81.428413 -46.214798 0.199991 0.680644
80.905922 -47.231461 0.000009 0.341650
80.114456 -48.771481 0.000008 0.327428
79.531342 -49.906101 0.000007 0.345785
116.651154 20.977123 24.042513 0.505562
116.651138 20.977070 21.005875 0.546105
116.651169 20.977154 18.011900 0.630320
88.801651 -32.293983 6.136652 0.223529
116.651138 20.977085 12.123425 0.409583
116.651169 20.977146 9.215477 0.596429
116.651138 20.977093 6.323095 0.542092
116.651138 20.977085 3.440001 0.484413
116.651138 20.977085 0.559998 0.574212
94.743446 -20.928398 -0.000056 0.543206
87.182426 -35.391270 -0.000033 0.538155
83.130753 -43.141388 0.199989 0.706233
81.503632 -46.253784 0.199991 0.702449
80.974052 -47.266777 0.000010 0.335348
80.171852 -48.801231 0.000008 0.337255
79.580833 -49.931755 0.000007 0.337255
117.346939 20.977131 24.123800 0.444343
117.346901 20.977077 21.075964 0.620829
117.346939 20.977139 18.070946 0.613581
88.976250 -32.380287 6.137408 0.223529
88.969849 -32.392334 5.207163 0.223529
117.346939 20.977146 9.242087 0.614588
117.346909 20.977093 6.339036 0.761013
117.346909 20.977085 3.445313 0.605524
117.346909 20.977085 0.554687 0.673686
94.994850 -21.060963 -0.000056 0.536263
87.333054 -35.470688 -0.000033 0.534325
83.227379 -43.192333 0.199989 0.684688
81.578568 -46.293293 0.199991 0.747295
81.041931 -47.302563 0.000010 0.338460
80.229034 -48.831383 0.000008 0.335500
79.630135 -49.957748 0.000007 0.336095
118.186920 21.234226 24.279985 0.678431
118.047882 20.977077 21.147505 0.636378
89.157501 -32.454483 7.078834 0.223529
89.180176 -32.412544 6.147485 0.223529
89.144440 -32.478630 5.207904 0.223529
89.138008 -32.490532 4.285325 0.223529
118.047882 20.977093 6.355310 0.472297
118.047882 20.977093 3.450735 0.553552
118.047882 20.977093 0.549267 0.510567
95.245338 -21.195274 -0.000056 0.542672
87.483131 -35.551163 -0.000033 0.535134
83.323647 -43.243954 0.199989 0.685039
81.653229 -46.333328 0.199991 0.686122
81.083458 -47.387093 0.009994 1.000000
80.286011 -48.861931 0.000008 0.337057
79.679260 -49.984093 0.000007 0.342779
118.846382 21.144848 24.339403 0.487404
118.754150 20.977077 21.220528 0.660487
89.367516 -32.476952 7.093536 0.223529
89.354355 -32.500881 6.148348 0.223529
118.754150 20.977077 12.237758 0.484169
89.312599 -32.576839 4.285965 0.223529
89.306114 -32.588631 3.368956 0.223529
118.754158 20.977085 3.456265 0.711559
118.754150 20.977077 0.543735 0.724361
95.494881 -21.331322 -0.000056 0.541848
87.632637 -35.632679 -0.000033 0.530892
83.419548 -43.296249 0.199989 0.710369
81.727608 -46.373878 0.199991 0.671458
81.150467 -47.423683 0.010002 1.000000
80.342773 -48.892876 0.000008 0.344549
79.728203 -50.010773 0.000007 0.339757
119.465927 20.977131 24.377893 0.556374
119.465881 20.977062 21.295048 0.603906
119.465935 20.977154 18.255522 0.467292
89.528587 -32.589333 6.149402 0.223529
119.465889 20.977077 12.277452 0.398016
110.536400 4.999664 7.824464 0.484581
119.465897 20.977093 6.388869 0.446586
89.474197 -32.686646 2.455924 0.223529
89.581131 -32.495316 1.540490 0.223529
95.743469 -21.469135 -0.000055 0.540703
87.781578 -35.715240 -0.000033 0.540139
83.515091 -43.349205 0.199989 0.695445
81.801697 -46.414955 0.199992 0.717128
81.217247 -47.460701 0.010003 1.000000
80.399315 -48.924217 0.000008 0.334966
79.776955 -50.037796 0.000007 0.340352
120.329292 21.234264 24.540173 0.678431
120.183197 20.977085 21.371105 0.549752
120.329277 21.234241 18.373396 0.678431
89.702957 -32.677750 6.150673 0.223529
91.636528 -29.274061 5.669354 0.223529
91.628487 -29.288208 4.613998 0.223529
110.922256 4.674908 5.485088 0.485237
120.183189 20.977077 3.467672 0.522301
89.642242 -32.784634 1.544124 0.223529
89.635643 -32.796246 0.632049 0.223529
87.929932 -35.798828 -0.000033 0.528267
83.610260 -43.402828 0.199989 0.715801
81.875504 -46.456543 0.199992 0.714382
81.310898 -47.450424 0.000009 0.334936
80.455635 -48.955956 0.000008 0.343389
79.825523 -50.065163 0.000007 0.325093
121.066147 21.254124 24.636219 0.323796
120.906189 20.977070 21.448708 0.543603
121.054688 21.234272 18.439001 0.678431
89.877396 -32.766308 6.152133 0.223529
91.955597 -29.166761 5.698307 0.223529
91.770004 -29.488211 4.605535 0.223529
91.761978 -29.502121 3.560297 0.223529
120.906197 20.977085 3.473555 0.600412
89.855026 -32.805054 1.542683 0.223529
89.810249 -32.882607 0.631467 0.223529
88.077698 -35.883465 -0.000032 0.535836
83.705048 -43.457111 0.199989 0.687739
81.949020 -46.498642 0.199992 0.718471
81.377487 -47.488564 0.000009 0.342763
80.511734 -48.988083 0.000007 0.338384
79.873894 -50.092861 0.000007 0.339681
121.635071 20.977100 24.647936 0.527794
89.432297 -33.911125 7.783510 0.223529
89.283455 -34.164822 6.818915 0.955154
90.052025 -32.854836 6.153815 0.223529
111.110046 3.037647 10.008741 0.482277
102.055763 -12.394981 6.241122 0.454490
91.927734 -29.657757 3.557785 0.223529
91.894501 -29.714411 2.517816 0.223529
90.029045 -32.893997 1.542509 0.223529
96.483376 -21.892879 -0.000055 0.539651
88.224876 -35.969120 -0.000033 0.533318
83.799454 -43.512066 0.199990 0.724834
82.022232 -46.541256 0.199991 0.676387
81.381683 -47.633045 0.022346 0.684123
80.567612 -49.020599 0.000007 0.329137
79.922066 -50.120903 0.000007 0.340520
122.369904 20.977070 24.741623 0.652018
122.369919 20.977093 21.608692 0.458869
89.232086 -34.612076 6.744110 0.969451
90.226799 -32.943428 6.155700 0.223529
111.390427 2.558834 9.977749 0.475837
101.590813 -13.880150 6.116894 0.423148
101.750099 -13.612946 4.481887 0.414710
92.138870 -29.735901 2.519548 0.223529
90.203194 -32.983032 1.542312 0.223529
92.017998 -29.938669 0.451836 0.223529
88.371452 -36.055801 -0.000033 0.547463
83.893471 -43.567673 0.199990 0.744305
82.095154 -46.584381 0.199992 0.736385
81.381683 -47.781231 0.045554 0.644312
80.623253 -49.053509 0.000008 0.338689
79.970047 -50.149277 0.000007 0.331762
123.110931 20.977085 24.837221 0.414618
123.110931 20.977085 21.691118 0.683452
89.178818 -35.051414 6.670595 0.980392
90.401756 -33.032104 6.157792 0.223529
123.110931 20.977093 12.488417 0.704005
101.681351 -14.407299 6.083669 0.406378
102.014328 -13.857494 4.478274 0.406760
123.110939 20.977093 3.491920 0.722545
90.377502 -33.072151 1.542093 0.223529
92.156670 -30.134396 0.456570 0.223529
88.517410 -36.143517 -0.000032 0.541283
83.987106 -43.623932 0.199990 0.689540
82.167770 -46.628014 0.199992 0.722713
81.381683 -47.925987 0.068132 0.690822
80.678673 -49.086807 0.000007 0.342077
80.017822 -50.177986 0.000007 0.344732
123.858215 20.977085 24.934755 0.507683
123.858223 20.977093 21.775209 0.684443
89.120483 -35.488232 6.597222 0.977859
90.576897 -33.120865 6.160089 0.223529
113.163956 3.593819 10.185289 0.484962
123.858246 20.977131 9.507550 0.593210
101.375847 -15.567440 4.390230 0.409125
114.191719 5.264435 3.196411 0.491554
90.551979 -33.161366 1.541852 0.223529
97.214226 -22.332054 -0.000054 0.541039
88.662766 -36.232239 -0.000032 0.544717
84.080345 -43.680847 0.199990 0.700328
82.240074 -46.672150 0.199992 0.680537
81.381691 -48.067444 0.090101 0.754009
80.733849 -49.120487 0.000007 0.330236
80.065407 -50.207027 0.000007 0.334462
124.611977 20.977093 25.034248 0.600153
88.162926 -37.353493 7.005465 0.223529
88.099449 -37.455078 6.195160 0.223529
88.211426 -37.275879 5.451363 0.223529
102.229164 -14.842846 7.719796 0.392477
102.237892 -14.828880 6.078137 0.407843
102.672089 -14.134014 4.483636 0.406256
114.500778 4.795811 3.192558 0.487358
90.726639 -33.250698 1.541587 0.223529
97.455795 -22.481819 -0.000054 0.540108
88.807487 -36.321976 -0.000032 0.553948
84.173180 -43.738411 0.199990 0.704570
82.312080 -46.716793 0.199992 0.726497
81.381691 -48.205727 0.111486 0.674372
80.788795 -49.154552 0.000007 0.340719
80.112778 -50.236401 0.000006 0.330327
125.372307 20.977093 25.135733 0.578485
88.235413 -37.541222 6.979498 0.223529
88.219353 -37.566528 6.189627 0.223529
88.246292 -37.524078 5.422964 0.223529
88.358612 -37.347088 4.678767 0.223529
102.615356 -14.882084 6.090938 0.421851
102.971382 -14.321083 4.483694 0.428977
125.372307 20.977085 3.511422 0.518257
90.901505 -33.340141 1.541301 0.223529
97.696289 -22.633289 -0.000053 0.542672
88.951584 -36.412720 -0.000032 0.539605
84.265610 -43.796623 0.199991 0.736721
82.383766 -46.761932 0.199991 0.724239
81.381683 -48.340950 0.132307 0.702083
80.843498 -49.189003 0.000007 0.336187
80.159950 -50.266102 0.000007 0.336370
126.139435 20.977100 25.239265 0.569955
88.442810 -37.516537 7.008123 0.223529
88.450073 -37.505257 6.221639 0.223529
88.410179 -37.567169 5.430677 0.223529
88.394180 -37.591995 4.657236 0.223529
88.505157 -37.419788 3.910743 0.223529
105.359116 -11.267593 4.673270 0.401968
126.139420 20.977085 3.518185 0.544259
91.076591 -33.429710 1.540993 0.223529
97.935722 -22.786430 -0.000053 0.546715
89.095047 -36.504467 -0.000032 0.534096
84.357635 -43.855476 0.199991 0.704143
82.455132 -46.807579 0.199992 0.726009
81.381683 -48.473236 0.152585 0.673228
80.897957 -49.223835 0.000007 0.341161
80.206909 -50.296135 0.000006 0.336172
126.913483 20.977100 25.344864 0.599710
126.913467 20.977093 22.128819 0.532036
88.659882 -37.480453 6.246215 0.223529
91.279686 -33.476974 6.171348 0.223529
88.602875 -37.567558 4.672669 0.223529
88.586678 -37.592316 3.902520 0.223529
88.651291 -37.493572 3.145677 0.223529
88.766602 -37.317368 2.385066 0.223529
91.251923 -33.519409 1.540661 0.223529
98.174095 -22.941227 -0.000053 0.544930
89.237862 -36.597210 -0.000032 0.531624
85.401253 -42.460148 -0.000022 0.524407
82.526184 -46.853718 0.199992 0.668208
81.381691 -48.602684 0.172339 0.701167
80.952179 -49.259041 0.000007 0.335927
80.253654 -50.326496 0.000006 0.340185
89.174202 -37.000740 8.016718 0.223529
127.694633 20.977093 22.221695 0.598077
88.872162 -37.455349 6.271290 0.223529
91.456085 -33.566238 6.174698 0.223529
102.002289 -17.692944 7.430027 0.407843
88.797470 -37.567760 3.913714 0.223529
88.781029 -37.592514 3.145127 0.223529
88.797279 -37.568054 2.381917 0.223529
88.913879 -37.392555 1.614635 0.223529
98.411377 -23.097691 -0.000052 0.543908
89.380020 -36.690956 -0.000031 0.540871
85.502586 -42.526962 -0.000022 0.533837
82.596909 -46.900352 0.199992 0.739528
81.381691 -48.729401 0.191588 0.733989
81.006149 -49.294628 0.000007 0.342687
80.300194 -50.357182 0.000007 0.326528
89.206535 -37.252678 7.968783 0.223529
128.656509 21.234241 22.383415 0.678431
89.086967 -37.429939 6.296876 0.223529
91.653755 -33.624531 6.183824 0.223529
102.937042 -16.896397 7.565999 0.416587
103.850357 -15.542351 6.101086 0.414328
104.673691 -14.321712 4.529465 0.408301
88.977242 -37.592621 2.383221 0.223529
88.960609 -37.617283 1.617265 0.223529
89.061523 -37.467667 0.842110 0.223529
89.521523 -36.785690 -0.000031 0.541939
85.603439 -42.594482 -0.000022 0.557473
82.667305 -46.947479 0.199992 0.748516
81.413513 -48.806297 0.199993 0.695155
81.059868 -49.330593 0.000007 0.347005
80.346512 -50.388187 0.000007 0.342687
89.236549 -37.503296 7.921087 0.223529
129.279007 20.977146 22.413061 0.675776
89.304390 -37.404221 6.322983 0.223529
93.308121 -31.556932 6.575428 0.223529
103.451752 -16.742550 7.613917 0.404944
103.299088 -16.965508 5.979165 0.398749
90.196587 -36.101196 3.244755 0.223529
90.346916 -35.881649 2.418976 0.223529
89.175331 -37.592705 1.614958 0.223529
89.158348 -37.617508 0.845525 0.223529
89.209824 -37.542328 0.065648 0.223529
85.703827 -42.662704 -0.000021 0.523293
82.737373 -46.995094 0.199992 0.675929
81.470634 -48.845116 0.199993 0.736080
81.087219 -49.405079 0.009993 1.000000
80.392616 -50.419521 0.000006 0.341955
89.303696 -37.695839 7.890938 0.223529
130.082520 20.977131 22.511606 0.563882
89.524483 -37.378174 6.349625 0.223529
93.440414 -31.743885 6.563745 0.223529
104.135498 -16.355701 7.695216 0.400854
103.801369 -16.836449 6.011262 0.428779
90.151276 -36.476334 3.228321 0.223529
105.547211 -14.324509 2.850590 0.396689
89.416725 -37.533211 1.611913 0.223529
89.375305 -37.592812 0.838473 0.223529
89.357918 -37.617821 0.063848 0.223529
85.803734 -42.731621 -0.000022 0.546792
82.807106 -47.043201 0.199991 0.719402
81.527481 -48.884335 0.199993 0.655604
81.140152 -49.441631 0.009999 1.000000
80.438499 -50.451172 0.000006 0.332937
89.437408 -37.791122 7.890597 0.223529
131.075256 21.234203 22.680069 0.678431
89.747314 -37.351799 6.376813 0.223529
93.572044 -31.929909 6.552340 0.223529
104.565414 -16.345829 7.724516 0.408118
103.571930 -17.754189 5.938831 0.418357
90.106117 -36.843166 3.212286 0.223529
106.284576 -13.908764 2.863085 0.437217
89.637131 -37.507996 1.609507 0.223529
99.349403 -23.739994 -0.000052 0.538338
89.942032 -37.075775 -0.000031 0.533043
85.903152 -42.801239 -0.000022 0.551858
82.876495 -47.091789 0.199992 0.697887
81.584053 -48.923946 0.199993 0.770672
81.192833 -49.478539 0.010002 1.000000
80.484161 -50.483143 0.000006 0.336751
131.713303 20.977116 26.024273 0.744564
131.713287 20.977085 22.714626 0.509560
89.972977 -37.325081 6.404562 0.223529
93.699509 -32.119919 6.540318 0.223529
96.769440 -27.831898 6.127892 0.223529
104.409027 -17.161049 6.018234 0.397726
90.131516 -37.103638 3.202579 0.223529
107.281723 -13.148514 2.882678 0.408469
89.860298 -37.482468 1.607051 0.223529
99.581085 -23.904633 -0.000052 0.543694
90.080833 -37.174431 -0.000030 0.535515
86.002083 -42.871552 -0.000021 0.557229
82.945557 -47.140865 0.199991 0.696803
81.640350 -48.963955 0.199994 0.674861
81.272209 -49.478168 0.000007 0.339895
80.529594 -50.515434 0.000006 0.352056
132.540955 20.977116 26.145542 0.642893
132.540894 20.977055 22.819187 0.650095
90.201523 -37.298023 6.432881 0.223529
95.626968 -29.830542 6.983002 0.968505
96.871597 -28.117466 6.108122 0.223529
96.927582 -28.040401 4.935876 0.223529
90.162979 -37.351070 3.193624 0.223529
95.575165 -29.901848 2.548265 0.223529
90.086296 -37.456619 1.604544 0.223529
99.811600 -24.070900 -0.000051 0.539712
90.218948 -37.274036 -0.000030 0.543114
86.100525 -42.942551 -0.000021 0.556588
83.014259 -47.190422 0.199992 0.670161
81.696365 -49.004353 0.199993 0.737484
81.324638 -49.515984 0.000007 0.343236
80.574806 -50.548038 0.000006 0.340047
133.377045 20.977131 26.269238 0.522087
89.522232 -38.506001 6.964579 0.825025
90.433029 -37.270618 6.461782 0.223529
95.955460 -29.780188 7.017808 0.958083
133.566574 21.234219 13.182837 0.678431
105.446136 -16.907364 6.085049 0.407843
90.193237 -37.595871 3.184797 0.223529
97.015564 -28.342304 2.582781 0.223529
90.315208 -37.430431 1.601986 0.223529
100.040947 -24.238777 -0.000051 0.530785
90.356354 -37.374619 -0.000030 0.546639
86.198471 -43.014233 -0.000021 0.526345
83.082626 -47.240456 0.199992 0.759411
81.752090 -49.045143 0.199994 0.700450
81.376808 -49.554165 0.000007 0.335241
80.619789 -50.580959 0.000006 0.341329
nan nan nan 0.000000
89.590881 -38.682125 6.942880 0.966644
90.667595 -37.242847 6.491288 0.223529
96.336868 -29.664589 7.065307 0.968627
134.221741 20.977108 13.204027 0.558068
134.221756 20.977116 9.985678 0.571496
90.213379 -37.850014 3.175364 0.223529
97.243698 -28.452402 2.583560 0.223529
90.547112 -37.403904 1.599375 0.223529
97.213806 -28.492367 0.250521 0.223529
90.493065 -37.476147 -0.000030 0.546166
86.295906 -43.086601 -0.000021 0.550530
83.150635 -47.290966 0.199992 0.738659
81.807541 -49.086315 0.199993 0.762341
81.381683 -49.655567 0.016961 0.726238
80.664543 -50.614193 0.000005 0.335958
nan nan nan 0.000000
89.658676 -38.857071 6.921517 0.968627
90.905304 -37.214699 6.521409 0.223529
96.430862 -29.935047 7.041659 0.223529
135.075333 20.977085 13.263127 0.538231
135.075333 20.977085 10.027796 0.553094
90.364647 -37.926987 3.176816 0.223529
135.075333 20.977085 3.602119 0.550408
90.782089 -37.377029 1.596710 0.223529
97.277252 -28.819986 0.261499 0.223529
90.629066 -37.578632 -0.000030 0.536446
86.392838 -43.159653 -0.000021 0.531090
83.218292 -47.341949 0.199991 0.713497
81.862694 -49.127880 0.199993 0.731411
81.381683 -49.761585 0.035248 0.696345
80.709053 -50.647743 0.000006 0.335454
nan nan nan 0.000000
89.725914 -39.030487 6.900582 0.968627
91.146240 -37.186157 6.552161 0.223529
96.378662 -30.391722 6.983140 0.223529
136.136063 21.234257 13.360747 0.680888
136.136063 21.234264 10.097376 0.678431
135.938034 20.977116 6.835533 0.747082
136.067154 21.144787 3.614158 0.260029
91.020218 -37.349792 1.593989 0.223529
100.721893 -24.751926 -0.000050 0.540383
90.764336 -37.682060 -0.000030 0.529946
86.489250 -43.233368 -0.000020 0.543496
83.285591 -47.393406 0.199992 0.744121
81.917557 -49.169830 0.199994 0.673640
81.381683 -49.865669 0.053106 0.648753
80.753342 -50.681595 0.000005 0.346838
nan nan nan 0.000000
89.791214 -39.204197 6.879581 0.969909
91.734222 -36.717266 6.685150 0.978088
96.327629 -30.837976 6.926195 0.223529
136.810089 20.977139 13.384901 0.564797
136.810089 20.977146 10.114590 0.598657
136.810074 20.977123 6.861792 0.601053
96.111366 -31.114777 2.537693 0.301961
91.261604 -37.322182 1.591211 0.223529
100.946472 -24.926132 -0.000050 0.541024
90.898895 -37.786430 -0.000030 0.547280
86.585159 -43.307758 -0.000021 0.531289
83.352524 -47.445328 0.199992 0.696834
81.972130 -49.212158 0.199994 0.719966
81.381683 -49.967888 0.070550 0.654719
80.797386 -50.715763 0.000006 0.339223
nan nan nan 0.000000
89.855537 -39.376965 6.858849 0.977630
91.859642 -36.848419 6.680509 0.973861
96.317551 -31.223944 6.880277 0.223529
nan nan nan 0.000000
nan nan nan 0.000000
137.691650 20.977116 6.888572 0.780163
95.248779 -32.572407 2.510219 0.291752
91.506325 -37.294197 1.588374 0.223529
101.169823 -25.101913 -0.000049 0.539788
91.032715 -37.891739 -0.000029 0.545983
86.680542 -43.382813 -0.000021 0.525368
83.419106 -47.497715 0.199992 0.681453
82.026405 -49.254868 0.199994 0.661982
81.381691 -50.068291 0.087592 0.755108
80.841187 -50.750233 0.000005 0.335348
nan nan nan 0.000000
89.919449 -39.548126 6.838570 0.972305
91.966339 -37.002308 6.670738 0.952682
98.018860 -29.474512 7.240532 0.980392
