# This PCD file was generated using the MATLAB® pcwrite function
# from Computer Vision Toolbox®.
# .PCD v.7 - Point Cloud Data file format
VERSION .7
FIELDS x y z intensity
SIZE 4 4 4 4
TYPE F F F F
COUNT 1 1 1 1
WIDTH 1313
HEIGHT 1
VIEWPOINT 0 0 0 1 0 0 0
POINTS 1313
DATA ascii
-37.990318 -44.414608 0.800063 0.678431
-37.935135 -44.438259 0.323377 0.382452
-36.932018 -44.868187 0.000015 0.539712
-34.642254 -45.849571 0.000012 0.570809
-32.199680 -46.896446 0.200001 0.719539
-31.144379 -47.348743 0.200005 0.691829
-37.990311 -44.303120 5.676767 0.678431
-37.990311 -44.303120 5.170247 0.678431
-37.990311 -44.303123 4.670839 0.678431
-38.020138 -44.290089 4.182175 0.617182
-38.020145 -44.290085 3.692368 0.630243
-38.020161 -44.290077 3.206238 0.605203
-38.020172 -44.290077 2.722708 0.557137
-37.990318 -44.303116 2.240197 0.678431
-37.990318 -44.303116 1.759803 0.678431
-37.990318 -44.303116 1.278892 0.678431
-37.990318 -44.303116 0.796432 0.678431
-37.935135 -44.327225 0.318304 0.361166
-36.894634 -44.781803 0.000015 0.544457
-34.611778 -45.779144 0.000012 0.548592
-32.176575 -46.843048 0.200001 0.672496
-31.124454 -47.302700 0.200005 0.714015
-37.990307 -44.190948 5.688104 0.678431
-37.990307 -44.190952 5.180023 0.678431
-37.990307 -44.190952 4.679075 0.678431
-38.020126 -44.177673 4.188902 0.668040
-38.020138 -44.177670 3.697586 0.527581
-38.020149 -44.177666 3.209956 0.599863
-38.020164 -44.177658 2.724936 0.523507
-37.990318 -44.190945 2.240938 0.678431
-37.990318 -44.190945 1.759062 0.678431
-37.990318 -44.190945 1.276669 0.678431
-37.990318 -44.190948 0.792721 0.678431
-37.935135 -44.215515 0.313118 0.376516
-36.856651 -44.695679 0.000015 0.524422
-34.580811 -45.708935 0.000012 0.551247
-32.153091 -46.789814 0.200001 0.721187
-31.104210 -47.256798 0.200005 0.724636
-37.935131 -44.103107 5.684518 0.522194
-37.935135 -44.103107 5.176930 0.518059
-37.935131 -44.103107 4.676470 0.480262
-38.020119 -44.064556 4.195779 0.553292
-38.020126 -44.064552 3.702919 0.661738
-38.020138 -44.064548 3.213757 0.553796
-38.020161 -44.064537 2.727214 0.514931
-37.990318 -44.078075 2.241695 0.678431
-37.990318 -44.078072 1.758305 0.678431
-37.990318 -44.078072 1.274396 0.678431
-37.990318 -44.078072 0.788927 0.678431
-37.935135 -44.103104 0.307817 0.400259
-36.818069 -44.609821 0.000015 0.587549
-34.549355 -45.638943 0.000012 0.572351
-32.129242 -46.736740 0.200002 0.687816
-31.083645 -47.211040 0.200005 0.674113
-37.990318 -43.964485 5.711542 0.678431
-37.990318 -43.964485 5.200231 0.678431
-37.990318 -43.964485 4.696099 0.678431
-38.020107 -43.950722 4.202806 0.559258
-38.020115 -43.950718 3.708370 0.750500
-38.020126 -43.950714 3.217642 0.560815
-38.020161 -43.950695 2.729542 0.558343
-37.990318 -43.964485 2.242469 0.678431
-37.990318 -43.964485 1.757531 0.678431
-37.990318 -43.964485 1.272072 0.678431
-37.990318 -43.964485 0.785050 0.678431
-37.935135 -43.989983 0.302400 0.439445
-36.778885 -44.524239 0.000015 0.535103
-34.517414 -45.569172 0.000012 0.534890
-32.105019 -46.683842 0.200002 0.691096
-31.062759 -47.165424 0.200005 0.721202
-37.990318 -43.850163 5.723643 0.678431
-37.990318 -43.850163 5.210666 0.678431
-37.990318 -43.850163 4.704891 0.678431
-38.020096 -43.836151 4.209988 0.706401
-38.020107 -43.836147 3.713940 0.622324
-38.020123 -43.836136 3.221612 0.562997
-38.020164 -43.836121 2.731921 0.794064
-37.990314 -43.850163 2.243260 0.678431
-37.990314 -43.850163 1.756740 0.678431
-37.990318 -43.850163 1.269699 0.678431
-37.990318 -43.850163 0.781089 0.678431
-38.020195 -43.836105 0.286049 0.742016
-36.739109 -44.438931 0.000015 0.527214
-34.484985 -45.499626 0.000012 0.560311
-32.080429 -46.631111 0.200002 0.686671
-31.041559 -47.119957 0.200005 0.786404
-37.990314 -43.735088 5.736007 0.678431
-37.990314 -43.735088 5.221326 0.678431
-37.990314 -43.735088 4.713872 0.678431
-38.020088 -43.720825 4.217324 0.601297
-38.020096 -43.720821 3.719629 0.680034
-38.020126 -43.720806 3.225668 0.583291
-38.020161 -43.720787 2.734351 0.549020
-37.990318 -43.735088 2.244067 0.678431
-37.990318 -43.735088 1.755932 0.678431
-37.990314 -43.735088 1.267274 0.678431
-37.990314 -43.735088 0.777042 0.678431
-38.020195 -43.720772 0.280358 0.635584
-36.698734 -44.353901 0.000015 0.509728
-34.452072 -45.430309 0.000012 0.500038
-32.055473 -46.578552 0.200002 0.749737
-31.020042 -47.074642 0.200005 0.783536
-37.990314 -43.619236 5.748637 0.678431
-37.990314 -43.619236 5.232216 0.678431
-37.990311 -43.619236 4.723045 0.678431
-38.020073 -43.604721 4.224818 0.597910
-38.020088 -43.604717 3.725441 0.533410
-38.020123 -43.604698 3.229812 0.760967
-38.020161 -43.604679 2.736834 0.513237
-37.990314 -43.619236 2.244892 0.678431
-37.990314 -43.619236 1.755107 0.678431
-37.990314 -43.619236 1.264797 0.678431
-37.990314 -43.619236 0.772907 0.678431
-38.020195 -43.604664 0.274545 0.645472
-36.657764 -44.269157 0.000015 0.538857
-34.418671 -45.361221 0.000012 0.556802
-32.030148 -46.526169 0.200003 0.735424
-30.998209 -47.029472 0.200005 0.669856
-37.990311 -43.502598 5.761536 0.678431
-37.990311 -43.502598 5.243338 0.678431
-37.990311 -43.502598 4.732415 0.678431
-38.020061 -43.487827 4.232472 0.793164
-38.020084 -43.487820 3.731378 0.723201
-38.020123 -43.487801 3.234044 0.711833
-38.020161 -43.487782 2.739370 0.585107
-37.990311 -43.502598 2.245735 0.678431
-37.990311 -43.502598 1.754265 0.678431
-37.990318 -43.502594 1.262267 0.678431
-37.990314 -43.502594 0.768685 0.678431
-38.020195 -43.487762 0.268608 0.794217
-36.616207 -44.184700 0.000015 0.515465
-34.384796 -45.292370 0.000012 0.548928
-32.004459 -46.473965 0.200003 0.728084
-30.976059 -46.984459 0.200005 0.687144
-37.990311 -43.385143 5.774709 0.678431
-37.990311 -43.385143 5.254696 0.678431
-37.990311 -43.385143 4.741985 0.678431
-38.020054 -43.370121 4.240289 0.616495
-38.020084 -43.370106 3.737442 0.524117
-38.020123 -43.370087 3.238365 0.752850
-38.020157 -43.370068 2.741959 0.546090
-37.990314 -43.385143 2.246596 0.678431
-37.990314 -43.385143 1.753404 0.678431
-37.990314 -43.385143 1.259684 0.678431
-37.990314 -43.385143 0.764372 0.678431
-38.020195 -43.370049 0.262544 0.620371
-36.574062 -44.100533 0.000015 0.519554
-34.350433 -45.223755 0.000012 0.550423
-31.978407 -46.421940 0.200003 0.673930
-30.953598 -46.939602 0.200004 0.701610
-37.970345 -43.277122 5.782536 0.475456
-37.970341 -43.277122 5.261445 0.483925
-37.970341 -43.277122 4.747670 0.427512
-38.020042 -43.251579 4.248271 0.579324
-38.020084 -43.251560 3.743632 0.523659
-38.020123 -43.251541 3.242778 0.618051
-38.020161 -43.251518 2.744603 0.517647
-37.990311 -43.266861 2.247475 0.678431
-37.990311 -43.266861 1.752525 0.678431
-37.990314 -43.266861 1.257046 0.678431
-37.990314 -43.266861 0.759969 0.678431
-38.020195 -43.251503 0.256353 0.582650
-36.531330 -44.016666 0.000015 0.545968
-34.315601 -45.155384 0.000011 0.544305
-31.951992 -46.370098 0.200003 0.717922
-30.930822 -46.894901 0.200004 0.718105
-38.019810 -43.132301 5.810230 0.537316
-38.019886 -43.132263 5.285343 0.528008
-38.019958 -43.132225 4.767818 0.616205
-38.020031 -43.132187 4.256419 0.554421
-38.020084 -43.132160 3.749954 0.635737
-38.020123 -43.132141 3.247283 0.611139
-38.020161 -43.132118 2.747302 0.608362
-37.990311 -43.147724 2.248371 0.678431
-37.990311 -43.147724 1.751628 0.678431
-37.990314 -43.147724 1.254352 0.678431
-37.990314 -43.147720 0.755474 0.678431
-38.020195 -43.132099 0.250031 0.483909
-36.488014 -43.933098 0.000015 0.533822
-34.280289 -45.087254 0.000012 0.541939
-31.925215 -46.318443 0.200003 0.691768
-30.907736 -46.850361 0.200004 0.708370
-38.019798 -43.012039 5.824278 0.752468
-38.019875 -43.012001 5.297455 0.774746
-38.019943 -43.011963 4.778023 0.796414
-38.020016 -43.011925 4.264738 0.552941
-38.020077 -43.011890 3.756406 0.604547
-38.020123 -43.011868 3.251883 0.725628
-38.020161 -43.011848 2.750058 0.715099
-37.990311 -43.027718 2.249288 0.678431
-37.990311 -43.027718 1.750712 0.678431
-37.990311 -43.027718 1.251603 0.678431
-37.990314 -43.027718 0.750885 0.678431
-38.020195 -43.011826 0.243578 0.552392
-36.444115 -43.849834 0.000015 0.535225
-34.244499 -45.019379 0.000012 0.558755
-31.898079 -46.266975 0.200004 0.717128
-30.884338 -46.805984 0.200004 0.668696
-38.019779 -42.890881 5.838615 0.520790
-38.019855 -42.890839 5.309817 0.571130
-38.019928 -42.890800 4.788439 0.677836
-38.020004 -42.890762 4.273229 0.524636
-38.020061 -42.890728 3.762991 0.682124
-38.020119 -42.890697 3.256578 0.576486
-38.020157 -42.890675 2.752871 0.665293
-37.990311 -42.906815 2.250223 0.678431
-37.990311 -42.906815 1.749778 0.678431
-37.990311 -42.906815 1.248796 0.678431
-37.990311 -42.906815 0.746200 0.678431
-38.020195 -42.890656 0.236991 0.545861
-36.399635 -43.766880 0.000015 0.531929
-34.208237 -44.951752 0.000012 0.544686
-31.870583 -46.215698 0.200004 0.662348
-30.860632 -46.761772 0.200004 0.743847
-37.935135 -42.815331 5.829059 0.382223
-37.935135 -42.815331 5.301559 0.521782
-37.935135 -42.815331 4.781466 0.508202
-38.019989 -42.768681 4.281896 0.517647
-38.020046 -42.768650 3.769713 0.673823
-38.020107 -42.768616 3.261369 0.549020
-38.020161 -42.768589 2.755742 0.649332
-37.990311 -42.784996 2.251177 0.678431
-37.990311 -42.784996 1.748823 0.678431
-37.990311 -42.784996 1.245931 0.678431
-37.990311 -42.784996 0.741419 0.678431
-38.020195 -42.768570 0.230268 0.674067
-36.354580 -43.684235 0.000014 0.514992
-34.171505 -44.884377 0.000012 0.522042
-31.842731 -46.164616 0.200004 0.757748
-30.836618 -46.717724 0.200004 0.773648
-37.990322 -42.662231 5.859741 0.678431
-37.990318 -42.662231 5.328013 0.678431
-37.990318 -42.662231 4.803752 0.678431
-37.963089 -42.677448 4.281075 0.380392
-38.020042 -42.645618 3.776574 0.678019
-38.020096 -42.645592 3.266258 0.521630
-38.020149 -42.645561 2.758672 0.690349
-37.990307 -42.662239 2.252151 0.678431
-37.990311 -42.662235 1.747849 0.678431
-37.990311 -42.662235 1.243007 0.678431
-37.990311 -42.662235 0.736539 0.678431
-38.020195 -42.645535 0.223406 0.652110
-36.308945 -43.601910 0.000014 0.547173
-34.134304 -44.817261 0.000012 0.513481
-31.814524 -46.113728 0.200004 0.709133
-30.812298 -46.673847 0.200004 0.730449
-37.990322 -42.538509 5.874954 0.678431
-37.990322 -42.538509 5.341132 0.678431
-37.990318 -42.538513 4.814804 0.678431
-37.935135 -42.569859 4.285296 0.478325
-38.020054 -42.521622 3.783577 0.518730
-38.020103 -42.521591 3.271250 0.520470
-38.020149 -42.521564 2.761662 0.712932
-37.990311 -42.538517 2.253144 0.684062
-37.990311 -42.538517 1.746856 0.678431
-37.990311 -42.538517 1.240024 0.678431
-37.990311 -42.538517 0.731559 0.678431
-38.020195 -42.521538 0.216404 0.641199
-36.262737 -43.519905 0.000015 0.549050
-34.096634 -44.750408 0.000012 0.546609
-31.785959 -46.063038 0.200004 0.701534
-30.787670 -46.630138 0.200003 0.652811
-37.990318 -42.413807 5.890477 0.678431
-37.990318 -42.413807 5.354516 0.678431
-37.990318 -42.413807 4.826080 0.678431
-37.935139 -42.445667 4.294452 0.483711
-38.020058 -42.396641 3.790723 0.575616
-38.020107 -42.396610 3.276343 0.610422
-38.020157 -42.396580 2.764714 0.752071
-37.935127 -42.445675 2.253116 0.450797
-37.935127 -42.445675 1.746884 0.629038
-37.935127 -42.445675 1.240110 0.644419
-37.935127 -42.445675 0.731702 0.595193
-38.020199 -42.396557 0.209258 0.676341
-36.215961 -43.438221 0.000014 0.539910
-34.058498 -44.683819 0.000012 0.533928
-31.757046 -46.012550 0.200004 0.751522
-30.762741 -46.586605 0.200003 0.728969
-37.990322 -42.288094 5.906319 0.678431
-37.990318 -42.288094 5.368175 0.678431
-37.990318 -42.288094 4.837586 0.678431
-37.935139 -42.320469 4.303794 0.484749
-38.020054 -42.270649 3.798014 0.556298
-38.020119 -42.270611 3.281541 0.588800
-38.020168 -42.270580 2.767828 0.805219
-38.020199 -42.270565 2.255761 0.615030
-38.020199 -42.270565 1.744240 0.768078
-38.020195 -42.270565 1.232170 0.567864
-38.020199 -42.270565 0.718451 0.519478
-38.020199 -42.270565 0.201967 0.551019
-36.168610 -43.356873 0.000014 0.540368
-34.019897 -44.617500 0.000012 0.526940
-31.727776 -45.962265 0.200005 0.729595
-30.737505 -46.543247 0.200003 0.696803
-37.990318 -42.161346 5.922479 0.678431
-37.990318 -42.161346 5.382109 0.678431
-37.990318 -42.161346 4.849326 0.678431
-37.935143 -42.194241 4.313325 0.500664
-38.020050 -42.143623 3.805452 0.550576
-38.020123 -42.143578 3.286843 0.616648
-38.020172 -42.143551 2.771005 0.671305
-38.020199 -42.143536 2.256818 0.588891
-38.020199 -42.143536 1.743181 0.690318
-38.020199 -42.143536 1.228994 0.737957
-38.020203 -42.143532 0.713149 0.510887
-38.020199 -42.143536 0.194528 0.521508
-36.120697 -43.275852 0.000014 0.536324
-33.036762 -45.114227 0.199998 0.757534
-31.698158 -45.912186 0.200005 0.668132
-30.711969 -46.500065 0.200003 0.703410
-37.990318 -42.033539 5.938967 0.678431
-37.990322 -42.033535 5.396326 0.678431
-37.990318 -42.033539 4.861304 0.678431
-37.935143 -42.066952 4.323050 0.507561
-38.020050 -42.015530 3.813042 0.517357
-38.020119 -42.015491 3.292253 0.697597
-38.020180 -42.015453 2.774246 0.613077
-38.020199 -42.015442 2.257898 0.549508
-38.020199 -42.015442 1.742102 0.614328
-38.020199 -42.015442 1.225752 0.721569
-38.020199 -42.015442 0.707740 0.559014
-38.020203 -42.015442 0.186938 0.552819
-36.072220 -43.195168 0.000014 0.547143
-33.001190 -45.055027 0.199998 0.673777
-31.668190 -45.862312 0.200005 0.720623
-30.686131 -46.457062 0.200003 0.671443
-37.935135 -41.938591 5.939560 0.490059
-37.935135 -41.938591 5.396837 0.654322
-37.935139 -41.938591 4.861734 0.601862
-37.935139 -41.938591 4.332970 0.512261
-38.020050 -41.886353 3.820784 0.688182
-38.020119 -41.886311 3.297771 0.665187
-38.020187 -41.886269 2.777553 0.540871
-38.020203 -41.886261 2.259000 0.554650
-38.020203 -41.886261 1.741001 0.610361
-38.020203 -41.886261 1.222446 0.683314
-38.020203 -41.886261 0.702221 0.592859
-38.020203 -41.886261 0.179195 0.642924
-36.023178 -43.114826 0.000014 0.537270
-32.965206 -44.996078 0.199999 0.708537
-31.637877 -45.812649 0.200006 0.684535
-30.659992 -46.414242 0.200003 0.678599
-37.990303 -41.774647 5.972944 0.678431
-37.990307 -41.774647 5.425622 0.678431
-37.990303 -41.774651 4.885984 0.678431
-37.935131 -41.809124 4.343089 0.550164
-38.020042 -41.756065 3.828681 0.673259
-38.020119 -41.756020 3.303401 0.527947
-38.020187 -41.755974 2.780926 0.573007
-39.141380 -41.055382 2.281757 0.670604
-39.141380 -41.055382 1.718243 0.618997
-39.141380 -41.055382 1.154124 0.611704
-39.141380 -41.055382 0.588188 0.723964
-39.141380 -41.055382 0.019206 0.761334
-35.973579 -43.034824 0.000014 0.547433
-32.928810 -44.937386 0.199999 0.675517
-31.607218 -45.763199 0.200005 0.718196
-30.633560 -46.371601 0.200002 0.750851
-37.990311 -41.643501 5.990450 0.678431
-37.990307 -41.643505 5.440715 0.678431
-37.990311 -41.643501 4.898702 0.678431
-37.935131 -41.678520 4.353413 0.531640
-38.020027 -41.624645 3.836737 0.676570
-38.020119 -41.624584 3.309143 0.515526
-38.020187 -41.624542 2.784367 0.524071
-39.055313 -40.967640 2.281331 0.616983
-39.107536 -40.934494 1.717657 0.094118
-39.107540 -40.934494 1.152366 0.390265
-39.107536 -40.934494 0.585254 0.031373
-39.055313 -40.967636 0.022205 0.345937
-35.923424 -42.955173 0.000014 0.532860
-32.892014 -44.878944 0.199999 0.681788
-31.576216 -45.713966 0.200005 0.669871
-30.606827 -46.329151 0.200003 0.720684
-37.990314 -41.511189 6.008308 0.678431
-37.990311 -41.511192 5.456113 0.678431
-37.990311 -41.511192 4.911673 0.678431
-37.990311 -41.511192 4.373681 0.678431
-38.020012 -41.492050 3.844954 0.508812
-38.020115 -41.491982 3.315001 0.523400
-38.020187 -41.491936 2.787877 0.541192
-39.055313 -40.824852 2.282590 0.584070
-39.147900 -40.765182 1.715608 0.398611
-39.147903 -40.765182 1.146214 0.253788
-39.107544 -40.791191 0.578923 0.131441
-39.055309 -40.824852 0.013355 0.153857
-35.872707 -42.875877 0.000014 0.539956
-32.854797 -44.820763 0.199999 0.670146
-31.544868 -45.664948 0.200005 0.742168
-30.579796 -46.286888 0.200003 0.684504
-37.990318 -41.377678 6.026522 0.678431
-37.990314 -41.377678 5.471819 0.678431
-37.990314 -41.377682 4.924904 0.678431
-37.990311 -41.377682 4.384467 0.678431
-38.019997 -41.358257 3.853335 0.549020
-38.020111 -41.358181 3.320976 0.526772
-38.020187 -41.358131 2.791457 0.520455
-39.055313 -40.680771 2.283874 0.584070
-39.147907 -40.620178 1.714316 0.460487
-39.147911 -40.620178 1.142334 0.273396
-39.107540 -40.646599 0.572466 0.127947
-39.086658 -40.660259 0.000018 0.552453
-35.821445 -42.796936 0.000014 0.522240
-32.817184 -44.762844 0.199999 0.751598
-31.513182 -45.616150 0.200005 0.712993
-30.552475 -46.244812 0.200002 0.734127
-37.990318 -41.242947 6.045100 0.707591
-37.990318 -41.242943 5.487838 0.678431
-37.990314 -41.242947 4.938399 0.678431
-37.990311 -41.242950 4.395469 0.678431
-38.019981 -41.223236 3.861884 0.517647
-38.020111 -41.223148 3.327071 0.548302
-38.020184 -41.223103 2.795108 0.605432
-39.141041 -40.478416 2.286867 0.690501
-39.107540 -40.500671 1.713791 0.201831
-39.107544 -40.500671 1.140758 0.069917
-39.107540 -40.500671 0.565879 0.084627
-39.019844 -40.558937 0.000018 0.525460
-35.769627 -42.718353 0.000014 0.535943
-32.779167 -44.705185 0.200000 0.682292
-31.481152 -45.567577 0.200005 0.675303
-30.524860 -46.202930 0.200002 0.735866
-37.990318 -41.106956 6.064050 0.711833
-37.990318 -41.106956 5.504176 0.678431
-37.990318 -41.106956 4.952166 0.678431
-37.990318 -41.106956 4.406691 0.678431
-38.019970 -41.086960 3.870604 0.632349
-38.020111 -41.086861 3.333287 0.552026
-38.020184 -41.086811 2.798833 0.581903
-39.140953 -40.330853 2.288210 0.690562
-39.147911 -40.326157 1.711653 0.568627
-39.147911 -40.326160 1.134341 0.277348
-39.107544 -40.353386 0.559161 0.094118
-38.952328 -40.458080 0.000018 0.548257
-35.717266 -42.640133 0.000014 0.531319
-32.740749 -44.647797 0.200000 0.747967
-31.448786 -45.519230 0.200005 0.769299
-30.496952 -46.161243 0.200002 0.672160
-38.019501 -40.949699 6.092237 0.709651
-38.019600 -40.949631 5.528507 0.581552
-38.019699 -40.949562 4.972684 0.562005
-38.019794 -40.949497 4.423437 0.605966
-38.019951 -40.949387 3.879498 0.677653
-38.020111 -40.949280 3.339628 0.648478
-38.020184 -40.949230 2.802632 0.568765
-39.140865 -40.181892 2.289579 0.702770
-39.147911 -40.177071 1.710282 0.498833
-39.147911 -40.177071 1.130224 0.240757
-39.107548 -40.204704 0.552308 0.084794
-38.884109 -40.357693 0.000018 0.553536
-35.664360 -42.562279 0.000014 0.562493
-32.701927 -44.590679 0.200000 0.684474
-31.416084 -45.471104 0.200005 0.723735
-30.468754 -46.119747 0.200002 0.711376
-38.019485 -40.810814 6.111988 0.581048
-38.019581 -40.810749 5.545537 0.591073
-38.019680 -40.810680 4.987031 0.751278
-38.019791 -40.810600 4.435136 0.523537
-38.019936 -40.810501 3.888569 0.604852
-38.020111 -40.810383 3.346095 0.644800
-38.020184 -40.810329 2.806507 0.694560
-39.140778 -40.031506 2.290975 0.667979
-39.107552 -40.054600 1.709687 0.108141
-39.107548 -40.054600 1.128439 0.069749
-39.107552 -40.054600 0.545319 0.075334
-38.815197 -40.257786 0.000017 0.530800
-35.610912 -42.484798 0.000013 0.538018
-32.662708 -44.533833 0.200001 0.727657
-31.383045 -45.423210 0.200004 0.690608
-30.440268 -46.078453 0.200002 0.765423
-38.019466 -40.670578 6.132132 0.538201
-38.019562 -40.670509 5.562906 0.672694
-38.019661 -40.670441 5.001665 0.641657
-38.019791 -40.670349 4.447068 0.584848
-38.019920 -40.670258 3.897822 0.602350
-38.020096 -40.670135 3.352690 0.693980
-38.020180 -40.670074 2.810459 0.743893
-39.140686 -39.879654 2.292399 0.632822
-39.055305 -39.939880 1.709311 0.992157
-39.055305 -39.939880 1.127309 0.956863
-39.055305 -39.939880 0.543433 0.932357
-38.745583 -40.158367 0.000018 0.559655
-35.556923 -42.407696 0.000014 0.537087
-32.623096 -44.477261 0.200001 0.760159
-31.349672 -45.375549 0.200004 0.755688
-30.411493 -46.037357 0.200002 0.682261
-38.019444 -40.528957 6.152677 0.654215
-38.019543 -40.528885 5.580621 0.550851
-38.019650 -40.528809 5.016592 0.589639
-38.019787 -40.528713 4.459238 0.724254
-38.019917 -40.528618 3.907260 0.549020
-38.020081 -40.528503 3.359416 0.516411
-38.020184 -40.528427 2.814490 0.791028
-39.140541 -39.726337 2.293850 0.676066
-39.140388 -39.726448 1.706153 0.753246
-39.140240 -39.726555 1.117837 0.657145
-39.140114 -39.726646 0.527636 0.576715
-38.675270 -40.059437 0.000018 0.539895
-35.502396 -42.330967 0.000013 0.551766
-32.583084 -44.420967 0.200002 0.701564
-31.315971 -45.328125 0.200004 0.683848
-30.382431 -45.996464 0.200002 0.678141
-38.019424 -40.385914 6.173632 0.512840
-38.019524 -40.385841 5.598691 0.520104
-38.019642 -40.385754 5.031817 0.612924
-38.019779 -40.385654 4.471651 0.578744
-38.019913 -40.385559 3.916887 0.550790
-38.020065 -40.385448 3.366277 0.565515
-38.020180 -40.385361 2.818601 0.617487
-39.140404 -39.571480 2.295331 0.662226
-39.140247 -39.571594 1.704672 0.711421
-39.140091 -39.571709 1.113394 0.712459
-39.139935 -39.571823 0.520222 0.597803
-38.604279 -39.960999 0.000018 0.569619
-35.447334 -42.254623 0.000014 0.558831
-32.542686 -44.364952 0.200002 0.749004
-31.281937 -45.280933 0.200004 0.660548
-30.353086 -45.955772 0.200001 0.722225
-38.019402 -40.241409 6.195006 0.711955
-38.019505 -40.241333 5.617121 0.677287
-38.019642 -40.241234 5.047347 0.739147
-38.019775 -40.241135 4.484311 0.540627
-38.019905 -40.241039 3.926705 0.755703
-38.020046 -40.240936 3.373274 0.529290
-38.020180 -40.240837 2.822794 0.551675
-41.019447 -38.029610 2.335046 0.584680
-41.019447 -38.029610 1.664954 0.692683
-41.019409 -38.029636 0.994147 0.665431
-41.019310 -38.029709 0.321188 0.616983
-38.532600 -39.863052 0.000018 0.542763
-35.391743 -42.178665 0.000014 0.551995
-32.501896 -44.309223 0.200002 0.691875
-31.247574 -45.233982 0.200004 0.705547
-30.323460 -45.915291 0.200001 0.657237
-38.019379 -40.095413 6.216805 0.514565
-38.019501 -40.095322 5.635921 0.735119
-38.019638 -40.095222 5.063187 0.457237
-38.019772 -40.095123 4.497224 0.664012
-38.019905 -40.095024 3.936720 0.693080
-38.020039 -40.094921 3.380412 0.500237
-38.020180 -40.094814 2.827072 0.604074
-41.019436 -37.851109 2.336787 0.569055
-41.019432 -37.851109 1.663213 0.694484
-41.019424 -37.851116 0.988918 0.662989
-41.019325 -37.851192 0.312460 0.616983
-38.460239 -39.765614 0.000017 0.548684
-35.335625 -42.103096 0.000013 0.543328
-32.460724 -44.253777 0.200002 0.748852
-31.212883 -45.187271 0.200004 0.722316
-30.293549 -45.875015 0.200001 0.664576
-38.019360 -39.947884 6.239041 0.653605
-38.019493 -39.947781 5.655098 0.704555
-38.019630 -39.947678 5.079343 0.645518
-38.019768 -39.947575 4.510396 0.634012
-38.019901 -39.947472 3.946936 0.755199
-38.020035 -39.947372 3.387692 0.611978
-37.929226 -40.016296 2.825824 0.646510
-41.019424 -37.670731 2.338563 0.403250
-41.019424 -37.670731 1.661437 0.670283
-41.019424 -37.670731 0.983585 0.657557
-41.019333 -37.670803 0.303558 0.668009
-38.387192 -39.668686 0.000017 0.535531
-35.278976 -42.027924 0.000013 0.515206
-32.419155 -44.198624 0.200003 0.697185
-31.177870 -45.140804 0.200003 0.684627
-30.263357 -45.834949 0.200001 0.687022
-38.019348 -39.798775 6.261724 0.579004
-38.019489 -39.798668 5.674657 0.608591
-38.019627 -39.798561 5.095822 0.687129
-38.019760 -39.798454 4.523830 0.520714
-38.019897 -39.798351 3.957355 0.549020
-38.020031 -39.798248 3.395119 0.662715
-37.931847 -39.866161 2.830406 0.662120
-41.019413 -37.488438 2.340375 0.430838
-41.019417 -37.488438 1.659625 0.667521
-41.019417 -37.488434 0.978146 0.647059
-41.019341 -37.488495 0.294478 0.678431
-38.313477 -39.572266 0.000017 0.506493
-35.221809 -41.953148 0.000013 0.518776
-32.377209 -44.143761 0.200003 0.669551
-31.142532 -45.094582 0.200003 0.697658
-30.232887 -45.795097 0.200001 0.684932
-38.019344 -39.648048 6.284864 0.546532
-38.019485 -39.647938 5.694610 0.525933
-38.019623 -39.647827 5.112632 0.522301
-38.019756 -39.647724 4.537533 0.582528
-38.019894 -39.647614 3.967983 0.582101
-38.020027 -39.647514 3.402694 0.612787
-37.934521 -39.714317 2.835083 0.635752
-41.019409 -37.304165 2.342223 0.454261
-41.019409 -37.304165 1.657777 0.668132
-41.019409 -37.304165 0.972597 0.630930
-41.019352 -37.304207 0.285216 0.678431
-38.239090 -39.476364 0.000017 0.541054
-35.164120 -41.878769 0.000013 0.530816
-32.334877 -44.089191 0.200003 0.721462
-31.106873 -45.048607 0.200003 0.718685
-30.202139 -45.755455 0.200001 0.721004
-38.019337 -39.495667 6.308466 0.703212
-38.019478 -39.495560 5.714961 0.704204
-38.019615 -39.495449 5.129776 0.545205
-38.019753 -39.495338 4.551511 0.698329
-38.019890 -39.495232 3.978823 0.670481
-38.020027 -39.495121 3.410421 0.524346
-38.020157 -39.495018 2.845051 0.571298
-41.019394 -37.117874 2.344108 0.507530
-41.019394 -37.117878 1.655892 0.647623
-41.019394 -37.117878 0.966938 0.681132
-41.019363 -37.117901 0.275769 0.662226
-38.164036 -39.380981 0.000017 0.536538
-35.105911 -41.804798 0.000013 0.530556
-32.292168 -44.034920 0.200004 0.674662
-31.070892 -45.002884 0.200003 0.662150
-30.171116 -45.716030 0.200001 0.679164
-41.198906 -36.785172 7.354486 0.925444
-40.568115 -37.292336 6.442029 0.949142
-40.636322 -37.237499 5.758203 0.655314
-41.575302 -36.482544 5.242517 0.522530
-41.575302 -36.482544 4.514707 0.671580
-41.575310 -36.482544 3.792358 0.555856
-41.019485 -36.929432 3.038840 0.668284
-41.019386 -36.929512 2.346031 0.514397
-41.019386 -36.929512 1.653969 0.647059
-41.019386 -36.929512 0.961166 0.696574
-41.019371 -36.929523 0.266131 0.632425
-38.088318 -39.286125 0.000017 0.540169
-35.047184 -41.731236 0.000013 0.565423
-32.249081 -43.980946 0.200004 0.727794
-31.034594 -44.957409 0.200003 0.725612
-30.139816 -45.676823 0.200001 0.758358
-40.922623 -36.817932 7.295538 0.955459
-40.308868 -37.318497 6.394959 0.943389
-40.496315 -37.165619 5.746635 0.650080
-41.333855 -36.482544 5.214684 0.702251
-41.333855 -36.482544 4.493121 0.596384
-41.333855 -36.482544 3.776972 0.631739
-41.019478 -36.738945 3.044729 0.622431
-41.019371 -36.739029 2.347992 0.552392
-41.019375 -36.739029 1.652008 0.624903
-41.019371 -36.739029 0.955277 0.660288
-41.019371 -36.739029 0.256302 0.623529
-38.011940 -39.191807 0.000017 0.530785
-34.987949 -41.658089 0.000013 0.537514
-32.205620 -43.927277 0.200004 0.717098
-30.997978 -44.912193 0.200003 0.670008
-30.108246 -45.637833 0.200001 0.694850
-40.652542 -36.849812 7.238194 0.938750
-40.055202 -37.343967 6.349131 0.922042
-40.409088 -37.051212 5.747583 0.648951
-41.096497 -36.482548 5.187475 0.644343
-41.096497 -36.482544 4.472020 0.643656
-41.096497 -36.482544 3.761933 0.653132
-41.019470 -36.546265 3.050737 0.663874
-41.019363 -36.546356 2.349993 0.535790
-41.019363 -36.546356 1.650007 0.574716
-41.019363 -36.546356 0.949269 0.529107
-41.019360 -36.546356 0.246275 0.529107
-37.934898 -39.098019 0.000017 0.529625
-34.928207 -41.585350 0.000013 0.542718
-32.161781 -43.873909 0.200004 0.724224
-30.961050 -44.867229 0.200002 0.714168
-30.076405 -45.599068 0.200001 0.685695
-40.388466 -36.880817 7.182401 0.569528
-39.806942 -37.368771 6.304507 0.891325
-40.334167 -36.926384 5.751649 0.642878
-40.863117 -36.482544 5.160879 0.697215
-40.863113 -36.482544 4.451393 0.744152
-40.863117 -36.482544 3.747231 0.517647
-40.863113 -36.482544 3.046840 0.634928
-40.863113 -36.482548 2.348697 0.699626
-40.863113 -36.482548 1.651303 0.806500
-40.863113 -36.482544 0.953160 0.670680
-40.863121 -36.482544 0.252768 0.517647
-37.857212 -39.004772 0.000017 0.527611
-34.867954 -41.513031 0.000013 0.560159
-32.117573 -43.820854 0.200005 0.732433
-30.923807 -44.822533 0.200002 0.765637
-30.044292 -45.560524 0.200001 0.757702
-40.130142 -36.911003 7.128098 0.858549
-39.563873 -37.392929 6.261042 0.701228
-40.246090 -36.812321 5.752804 0.646799
-40.633583 -36.482544 5.134872 0.543938
-40.633583 -36.482544 4.431224 0.517647
-40.633583 -36.482544 3.732856 0.658915
-40.633583 -36.482544 3.038227 0.586480
-40.633579 -36.482548 2.345828 0.615976
-40.633583 -36.482548 1.654172 0.618585
-40.633583 -36.482544 0.961773 0.648524
-40.633583 -36.482544 0.267144 0.670100
-37.778873 -38.912067 0.000016 0.532204
-34.807198 -41.441139 0.000013 0.543954
-32.072994 -43.768105 0.200005 0.727810
-30.886253 -44.778088 0.200002 0.658640
-30.039461 -45.498756 0.190938 0.767483
-39.877365 -36.940384 7.075232 0.921904
-39.325809 -37.416470 6.218692 0.570397
-40.158974 -36.697311 5.754387 0.642466
-40.407787 -36.482544 5.109441 0.602197
-40.407787 -36.482544 4.411501 0.722347
-40.407784 -36.482544 3.718798 0.554452
-40.407784 -36.482544 3.029804 0.677256
-40.407787 -36.482544 2.343023 0.664271
-40.407784 -36.482544 1.656977 0.707973
-40.407784 -36.482544 0.970195 0.720562
-40.407784 -36.482544 0.281201 0.699626
-37.699890 -38.819912 0.000016 0.557946
-34.745949 -41.369663 0.000012 0.532525
-32.028053 -43.715664 0.200005 0.722133
-30.848389 -44.733910 0.200002 0.779706
-30.039461 -45.432152 0.180081 0.711940
-39.629944 -36.968994 7.023758 0.795987
-39.092590 -37.439404 6.177428 0.757931
-40.078335 -36.576462 5.757740 0.643702
-40.185616 -36.482544 5.084569 0.718349
-40.185616 -36.482544 4.392213 0.517647
-40.185616 -36.482544 3.705050 0.700893
-40.185612 -36.482544 3.021566 0.645411
-40.185616 -36.482544 2.340279 0.749538
-40.185616 -36.482544 1.659721 0.783749
-40.185612 -36.482544 0.978433 0.688548
-40.185616 -36.482544 0.294950 0.627298
-37.620266 -38.728313 0.000016 0.553048
-34.684193 -41.298630 0.000012 0.553384
-31.982742 -43.663544 0.200005 0.671183
-30.810219 -44.690002 0.200002 0.737011
-30.039461 -45.364742 0.169003 0.708263
-39.387657 -36.996864 6.973616 0.928679
-38.864025 -37.461761 6.137205 0.923186
-39.966957 -36.482544 5.753839 0.549081
-39.966957 -36.482544 5.060239 0.590448
-39.966953 -36.482544 4.373343 0.639185
-39.966957 -36.482544 3.691601 0.517647
-39.966957 -36.482544 3.013509 0.593942
-39.966957 -36.482540 2.337595 0.645258
-39.966957 -36.482544 1.662405 0.650599
-39.966953 -36.482544 0.986491 0.548058
-39.966957 -36.482544 0.308398 0.517647
-37.540001 -38.637276 0.000017 0.550210
-34.621941 -41.228020 0.000013 0.534081
-31.937073 -43.611736 0.200005 0.773144
-30.771740 -44.646355 0.200002 0.669841
-30.039459 -45.296501 0.157699 0.666560
-39.150341 -37.024014 6.924768 0.878141
-38.639965 -37.483555 6.097991 0.899046
-39.751713 -36.482544 5.724642 0.751095
-39.751713 -36.482544 5.036437 0.689891
-39.751713 -36.482544 4.354883 0.608515
-39.751713 -36.482544 3.678444 0.620874
-39.751713 -36.482544 3.005626 0.549020
-39.751709 -36.482544 2.334969 0.586740
-39.751709 -36.482544 1.665031 0.611505
-39.751709 -36.482544 0.994373 0.497383
-39.751713 -36.482544 0.321556 0.620401
-37.459106 -38.546791 0.000016 0.538003
-34.559204 -41.157852 0.000012 0.548913
-31.891045 -43.560249 0.200004 0.672557
-30.732964 -44.602982 0.200001 0.745434
-30.039463 -45.227406 0.146163 0.657755
-38.917809 -37.050472 6.877166 0.407919
-38.420242 -37.504807 6.059752 0.913619
-39.539776 -36.482544 5.696074 0.585336
-39.539776 -36.482544 5.013147 0.532296
-39.539780 -36.482544 4.336821 0.592447
-39.539780 -36.482540 3.665570 0.638605
-39.539776 -36.482544 2.997913 0.587167
-39.539776 -36.482544 2.332400 0.517647
-39.539780 -36.482544 1.667600 0.538598
-39.539776 -36.482544 1.002087 0.580453
-39.539780 -36.482540 0.334429 0.634592
-37.377583 -38.456879 0.000016 0.559716
-34.495979 -41.088120 0.000012 0.529137
-31.844652 -43.509087 0.200004 0.762097
-30.693880 -44.559875 0.200001 0.689967
-30.039461 -45.157440 0.134391 0.666026
-38.689899 -37.076260 6.830771 0.906050
-38.204716 -37.525539 6.022456 0.909102
-39.331062 -36.482544 5.668118 0.630304
-39.331062 -36.482544 4.990357 0.676600
-39.331062 -36.482540 4.319147 0.530663
-39.331062 -36.482544 3.652972 0.549020
-39.331062 -36.482544 2.990365 0.607813
-39.331062 -36.482544 2.329886 0.592493
-39.331062 -36.482544 1.670114 0.634409
-39.331062 -36.482544 1.009634 0.581872
-39.331062 -36.482544 0.347027 0.565606
-37.295433 -38.367538 0.000016 0.512398
-34.432266 -41.018829 0.000013 0.525475
-31.797909 -43.458252 0.200004 0.689189
-30.654497 -44.517048 0.200001 0.780896
-30.039459 -45.086575 0.122376 0.756100
-38.466450 -37.101395 6.785542 0.881987
-37.993240 -37.545765 5.986073 0.915511
-39.125465 -36.482544 5.640759 0.553552
-39.125465 -36.482544 4.968053 0.551125
-39.125469 -36.482540 4.301849 0.674372
-39.125465 -36.482544 3.640643 0.578988
-39.125465 -36.482544 2.982978 0.646494
-39.125465 -36.482544 2.327426 0.549020
-39.125465 -36.482544 1.672575 0.615579
-39.125465 -36.482544 1.017021 0.644282
-39.125465 -36.482544 0.359356 0.578241
-37.212658 -38.278770 0.000016 0.535790
-34.368073 -40.949989 0.000012 0.540383
-31.750807 -43.407742 0.200004 0.738430
-30.614819 -44.474495 0.200001 0.712673
-30.039459 -45.014786 0.110113 0.692439
-38.247303 -37.125908 6.741438 0.934920
-37.785690 -37.565491 5.950576 0.518242
-38.922913 -36.482544 5.613981 0.644175
-38.922913 -36.482540 4.946222 0.602960
-38.922913 -36.482540 4.284918 0.520485
-38.922913 -36.482544 3.628576 0.607217
-38.922913 -36.482540 2.975749 0.589502
-38.922913 -36.482544 2.325017 0.518502
-38.922913 -36.482544 1.674983 0.524880
-38.922913 -36.482544 1.024251 0.687953
-38.922913 -36.482544 0.371423 0.549020
-37.129265 -38.190590 0.000016 0.540963
-34.303398 -40.881599 0.000012 0.530877
-31.703360 -43.357559 0.200003 0.694530
-30.574842 -44.432220 0.200001 0.699596
-30.039461 -44.942055 0.097594 0.772824
-38.032303 -37.149818 6.698423 0.910597
-37.595184 -37.571938 5.919915 0.598138
-38.723297 -36.482540 5.587765 0.573098
-38.723301 -36.482540 4.924851 0.587198
-38.723301 -36.482540 4.268344 0.602182
-38.723301 -36.482540 3.616763 0.638376
-38.723301 -36.482540 2.968671 0.549020
-38.723297 -36.482540 2.322659 0.527886
-38.723297 -36.482540 1.677340 0.493935
-38.723301 -36.482540 1.031329 0.587549
-38.723301 -36.482540 0.383237 0.645121
-37.045261 -38.102989 0.000016 0.541268
-34.238251 -40.813660 0.000012 0.531106
-31.655560 -43.307713 0.200003 0.752529
-30.534571 -44.390228 0.200001 0.756970
-30.039459 -44.868347 0.084815 0.719219
-37.821331 -37.173141 6.656464 0.953933
-37.450157 -37.536617 5.902776 0.631785
-38.526554 -36.482540 5.562100 0.719478
-38.526554 -36.482544 4.903929 0.544228
-38.526554 -36.482544 4.252117 0.628504
-38.526554 -36.482544 3.605197 0.598215
-38.526554 -36.482544 2.961741 0.528679
-38.526558 -36.482540 2.320352 0.570321
-38.526558 -36.482540 1.679649 0.487373
-38.526554 -36.482544 1.038259 0.562997
-38.526554 -36.482544 0.394802 0.680919
-36.960651 -38.015972 0.000015 0.548486
-34.172630 -40.746178 0.000012 0.543832
-31.607412 -43.258202 0.200003 0.705272
-30.494009 -44.348515 0.200001 0.670680
-30.039461 -44.793636 0.071769 0.644770
-37.614235 -37.195896 6.615525 0.871962
-37.305367 -37.502613 5.885667 0.633066
-38.332596 -36.482540 5.536972 0.600076
-38.332596 -36.482540 4.883443 0.742321
-38.332596 -36.482540 4.236230 0.584390
-38.332596 -36.482540 3.593873 0.524269
-38.332596 -36.482540 2.954956 0.574258
-38.332596 -36.482540 2.318092 0.635691
-38.332596 -36.482540 1.681909 0.522789
-38.332596 -36.482540 1.045043 0.532723
-38.332596 -36.482540 0.406126 0.557870
-36.875427 -37.929558 0.000016 0.537057
-34.106537 -40.679157 0.000012 0.544213
-31.558918 -43.209026 0.200003 0.725856
-30.453157 -44.307083 0.200000 0.727535
-30.039459 -44.717899 0.058448 0.662120
nan nan nan 0.000000
nan nan nan 0.000000
nan nan nan 0.000000
nan nan nan 0.000000
nan nan nan 0.000000
nan nan nan 0.000000
nan nan nan 0.000000
nan nan nan 0.000000
10.288847 -85.251541 1.191176 0.278141
4.146511 -79.066238 0.000033 0.337987
-7.352264 -67.487015 0.000007 0.532021
-12.814819 -61.986244 0.085807 0.688029
-15.038934 -59.746571 0.000005 0.551003
-16.794352 -57.978874 0.000005 0.544213
-18.014439 -56.750248 0.000005 0.541421
-19.475927 -55.278538 0.199994 0.698283
nan nan nan 0.000000
nan nan nan 0.000000
nan nan nan 0.000000
nan nan nan 0.000000
nan nan nan 0.000000
nan nan nan 0.000000
nan nan nan 0.000000
nan nan nan 0.000000
nan nan nan 0.000000
3.944145 -79.265793 0.000033 0.337804
-9.180156 -65.863831 0.200011 0.721019
-13.512572 -61.439758 0.186933 0.726436
-15.105955 -59.812664 0.000005 0.537408
-16.848991 -58.032753 0.000004 0.523690
-18.060469 -56.795643 0.000005 0.562295
-19.511650 -55.313759 0.199995 0.666758
nan nan nan 0.000000
nan nan nan 0.000000
nan nan nan 0.000000
nan nan nan 0.000000
nan nan nan 0.000000
nan nan nan 0.000000
nan nan nan 0.000000
nan nan nan 0.000000
nan nan nan 0.000000
3.740376 -79.463921 0.000035 0.337423
-9.290019 -65.970680 0.200011 0.717586
-13.670466 -61.434643 0.200019 0.725856
-15.173436 -59.878288 0.000005 0.531075
-16.904003 -58.086250 0.000005 0.581598
-18.106815 -56.840714 0.000005 0.530159
-19.547619 -55.348736 0.199996 0.732601
nan nan nan 0.000000
nan nan nan 0.000000
nan nan nan 0.000000
nan nan nan 0.000000
nan nan nan 0.000000
nan nan nan 0.000000
nan nan nan 0.000000
nan nan nan 0.000000
nan nan nan 0.000000
3.535246 -79.660629 0.000035 0.337896
-9.400632 -66.076759 0.200011 0.716869
-13.749303 -61.510250 0.200018 0.690227
-15.241374 -59.943436 0.000005 0.545373
-16.959389 -58.139362 0.000005 0.530724
-18.153475 -56.885460 0.000005 0.601328
-19.583826 -55.383457 0.199996 0.665751
nan nan nan 0.000000
nan nan nan 0.000000
nan nan nan 0.000000
nan nan nan 0.000000
nan nan nan 0.000000
nan nan nan 0.000000
nan nan nan 0.000000
nan nan nan 0.000000
nan nan nan 0.000000
3.328722 -79.855881 0.000036 0.338903
-9.511982 -66.182060 0.200010 0.710918
-13.828664 -61.585308 0.200018 0.722484
-15.309764 -60.008110 0.000005 0.527565
-17.015144 -58.192085 0.000005 0.532418
-18.200447 -56.929878 0.000004 0.532570
-19.620277 -55.417927 0.199996 0.659953
nan nan nan 0.000000
nan nan nan 0.000000
nan nan nan 0.000000
nan nan nan 0.000000
nan nan nan 0.000000
nan nan nan 0.000000
nan nan nan 0.000000
nan nan nan 0.000000
nan nan nan 0.000000
3.120869 -80.049721 0.000036 0.338064
-9.624093 -66.286552 0.200014 0.715480
-13.908547 -61.659809 0.200017 0.703395
-15.378605 -60.072308 0.000005 0.549599
-17.071262 -58.244419 0.000005 0.566934
-18.247726 -56.973969 0.000004 0.537713
-19.656971 -55.452141 0.199997 0.738003
nan nan nan 0.000000
nan nan nan 0.000000
nan nan nan 0.000000
nan nan nan 0.000000
nan nan nan 0.000000
nan nan nan 0.000000
nan nan nan 0.000000
nan nan nan 0.000000
nan nan nan 0.000000
2.911646 -80.242081 0.000037 0.337743
-9.736897 -66.390297 0.200013 0.703090
-13.988952 -61.733749 0.200017 0.698543
-15.429258 -60.156425 -0.004094 0.737774
-17.127750 -58.296360 0.000005 0.545846
-18.295313 -57.017727 0.000004 0.550546
-19.693899 -55.486095 0.199997 0.651789
nan nan nan 0.000000
nan nan nan 0.000000
nan nan nan 0.000000
nan nan nan 0.000000
nan nan nan 0.000000
nan nan nan 0.000000
nan nan nan 0.000000
nan nan nan 0.000000
nan nan nan 0.000000
2.701103 -80.432991 0.000037 0.337758
-9.850430 -66.493240 0.200013 0.693004
-14.069869 -61.807125 0.200016 0.729839
-15.702737 -59.993660 0.041042 0.743389
-17.184593 -58.347908 0.000005 0.540505
-18.962831 -56.372993 0.200004 0.713024
-19.731066 -55.519794 0.199998 0.657450
nan nan nan 0.000000
nan nan nan 0.000000
nan nan nan 0.000000
nan nan nan 0.000000
nan nan nan 0.000000
nan nan nan 0.000000
nan nan nan 0.000000
nan nan nan 0.000000
nan nan nan 0.000000
2.489220 -80.622414 0.000038 0.338323
-9.964676 -66.595390 0.200013 0.686976
-14.151297 -61.879936 0.200016 0.697704
-15.975867 -59.824894 0.086710 0.687190
-17.241798 -58.399055 0.000005 0.506661
-19.006205 -56.411777 0.200004 0.656641
-19.768465 -55.553230 0.199998 0.690547
nan nan nan 0.000000
nan nan nan 0.000000
nan nan nan 0.000000
nan nan nan 0.000000
nan nan nan 0.000000
nan nan nan 0.000000
nan nan nan 0.000000
nan nan nan 0.000000
nan nan nan 0.000000
2.276022 -80.810356 0.000039 0.338552
-10.079626 -66.696754 0.200012 0.698604
-14.233222 -61.952187 0.200014 0.702602
-16.236921 -59.663403 0.130287 0.686427
-17.299360 -58.449799 0.000005 0.535424
-19.049847 -56.450256 0.200003 0.761990
-19.806097 -55.586407 0.199998 0.717983
nan nan nan 0.000000
nan nan nan 0.000000
nan nan nan 0.000000
nan nan nan 0.000000
nan nan nan 0.000000
nan nan nan 0.000000
nan nan nan 0.000000
nan nan nan 0.000000
nan nan nan 0.000000
2.061506 -80.996788 0.000040 0.339101
-10.195269 -66.797325 0.200009 0.702235
-14.315650 -62.023861 0.200012 0.680369
-16.547762 -59.437962 0.185776 0.756664
-17.357273 -58.500145 0.000005 0.543526
-19.093758 -56.488430 0.200003 0.654810
-19.843960 -55.619320 0.199999 0.659525
nan nan nan 0.000000
nan nan nan 0.000000
nan nan nan 0.000000
nan nan nan 0.000000
nan nan nan 0.000000
nan nan nan 0.000000
nan nan nan 0.000000
nan nan nan 0.000000
nan nan nan 0.000000
1.845716 -81.181755 0.000040 0.338354
-10.311595 -66.897102 0.200004 0.704143
-14.398582 -62.094955 0.200011 0.705043
-16.674740 -59.420509 0.200000 0.691386
-17.415537 -58.550079 0.000005 0.542657
-19.137932 -56.526295 0.200003 0.680339
-19.882051 -55.651966 0.199999 0.680491
nan nan nan 0.000000
nan nan nan 0.000000
nan nan nan 0.000000
nan nan nan 0.000000
nan nan nan 0.000000
nan nan nan 0.000000
nan nan nan 0.000000
nan nan nan 0.000000
nan nan nan 0.000000
1.628635 -81.365189 0.000041 0.338109
-10.428655 -66.996017 0.200005 0.703059
-14.482004 -62.165470 0.200009 0.735698
-16.739445 -59.475185 0.200000 0.744244
-18.180658 -57.757633 0.199998 0.696727
-19.182369 -56.563850 0.200002 0.687480
-19.920370 -55.684345 0.199999 0.738354
nan nan nan 0.000000
nan nan nan 0.000000
nan nan nan 0.000000
nan nan nan 0.000000
nan nan nan 0.000000
nan nan nan 0.000000
nan nan nan 0.000000
nan nan nan 0.000000
nan nan nan 0.000000
1.410278 -81.547112 0.000041 0.338247
-10.546367 -67.094154 0.200001 0.722652
-14.565916 -62.235405 0.200007 0.708293
-16.804531 -59.529411 0.200000 0.675975
-18.233715 -57.801846 0.199997 0.738643
-19.227068 -56.601097 0.200001 0.687175
-19.958914 -55.716457 0.200000 0.669810
nan nan nan 0.000000
nan nan nan 0.000000
nan nan nan 0.000000
nan nan nan 0.000000
nan nan nan 0.000000
nan nan nan 0.000000
nan nan nan 0.000000
nan nan nan 0.000000
nan nan nan 0.000000
1.190666 -81.727509 0.000041 0.338552
-10.664802 -67.191422 0.200002 0.721752
-14.650312 -62.304752 0.200006 0.689189
-16.869987 -59.583191 0.199999 0.706538
-18.287069 -57.845695 0.199994 0.683558
-19.272030 -56.638027 0.200001 0.677882
-19.997681 -55.748299 0.200001 0.701625
nan nan nan 0.000000
nan nan nan 0.000000
nan nan nan 0.000000
nan nan nan 0.000000
nan nan nan 0.000000
nan nan nan 0.000000
nan nan nan 0.000000
nan nan nan 0.000000
nan nan nan 0.000000
0.843296 -81.749039 0.009959 1.000000
-10.783892 -67.287888 0.200001 0.726864
-14.735192 -62.373508 0.200004 0.720333
-16.935825 -59.636501 0.199999 0.724559
-18.340736 -57.889164 0.199993 0.772717
-19.317244 -56.674644 0.200001 0.733608
-20.036671 -55.779869 0.200001 0.752270
nan nan nan 0.000000
nan nan nan 0.000000
nan nan nan 0.000000
nan nan nan 0.000000
nan nan nan 0.000000
nan nan nan 0.000000
nan nan nan 0.000000
nan nan nan 0.000000
nan nan nan 0.000000
0.622272 -81.925461 0.009959 1.000000
-10.903657 -67.383514 0.200000 0.705531
-14.820551 -62.441673 0.200002 0.723476
-17.002029 -59.689354 0.199999 0.740475
-18.394701 -57.932262 0.199990 0.664363
-19.362713 -56.710949 0.200000 0.698680
-20.075878 -55.811165 0.200001 0.661173
nan nan nan 0.000000
nan nan nan 0.000000
nan nan nan 0.000000
nan nan nan 0.000000
nan nan nan 0.000000
nan nan nan 0.000000
nan nan nan 0.000000
nan nan nan 0.000000
nan nan nan 0.000000
0.454535 -82.170105 0.005610 0.743404
-11.024048 -67.478348 0.199993 0.722286
-14.906378 -62.509239 0.199999 0.706935
-17.068607 -59.741745 0.199999 0.694881
-18.448969 -57.974976 0.199989 0.743496
-19.408432 -56.746933 0.199999 0.708812
-20.115303 -55.842190 0.200002 0.672602
nan nan nan 0.000000
nan nan nan 0.000000
nan nan nan 0.000000
nan nan nan 0.000000
nan nan nan 0.000000
nan nan nan 0.000000
nan nan nan 0.000000
nan nan nan 0.000000
nan nan nan 0.000000
0.096817 -82.170105 0.016381 0.726329
-11.145134 -67.572296 0.199992 0.717128
-14.992682 -62.576202 0.199998 0.690028
-17.135548 -59.793663 0.200000 0.738170
-18.503540 -58.017307 0.199989 0.673838
-19.454405 -56.782597 0.199999 0.748104
-20.154943 -55.872936 0.200002 0.770718
nan nan nan 0.000000
nan nan nan 0.000000
nan nan nan 0.000000
nan nan nan 0.000000
nan nan nan 0.000000
nan nan nan 0.000000
nan nan nan 0.000000
nan nan nan 0.000000
nan nan nan 0.000000
-0.257082 -82.170105 0.026941 0.725597
-11.266840 -67.665436 0.199986 0.699351
-15.079470 -62.642532 0.200000 0.696544
-17.202843 -59.845119 0.199999 0.687587
-18.558405 -58.059250 0.199989 0.730846
-19.500624 -56.817940 0.199998 0.679805
-20.194798 -55.903404 0.200002 0.723949
nan nan nan 0.000000
nan nan nan 0.000000
nan nan nan 0.000000
nan nan nan 0.000000
nan nan nan 0.000000
nan nan nan 0.000000
nan nan nan 0.000000
nan nan nan 0.000000
nan nan nan 0.000000
-0.607243 -82.170105 0.037294 0.661326
-11.389190 -67.757729 0.199980 0.690578
-15.166694 -62.708290 0.199997 0.726146
-17.270496 -59.896111 0.199998 0.671504
-18.613560 -58.100819 0.199988 0.749340
-19.547089 -56.852959 0.199996 0.740826
-20.234865 -55.933598 0.200003 0.676768
nan nan nan 0.000000
nan nan nan 0.000000
nan nan nan 0.000000
nan nan nan 0.000000
nan nan nan 0.000000
nan nan nan 0.000000
nan nan nan 0.000000
nan nan nan 0.000000
nan nan nan 0.000000
-0.953768 -82.170113 0.047444 0.671473
-10.638430 -69.034286 0.079244 0.711849
-15.254378 -62.773434 0.199995 0.727230
-17.338507 -59.946621 0.199998 0.729168
-18.669010 -58.141991 0.199990 0.719341
-19.593798 -56.887650 0.199996 0.755673
-20.275141 -55.963509 0.200003 0.748012
nan nan nan 0.000000
nan nan nan 0.000000
nan nan nan 0.000000
nan nan nan 0.000000
nan nan nan 0.000000
nan nan nan 0.000000
nan nan nan 0.000000
nan nan nan 0.000000
nan nan nan 0.000000
-1.296574 -82.170334 0.057382 0.673503
-10.202271 -69.912827 -0.000008 0.337392
-15.342512 -62.837967 0.199993 0.698039
-17.406868 -59.996651 0.199998 0.679149
-18.724739 -58.182777 0.199990 0.748791
-19.640745 -56.922020 0.199995 0.662486
-20.315624 -55.993137 0.200003 0.710643
nan nan nan 0.000000
nan nan nan 0.000000
nan nan nan 0.000000
nan nan nan 0.000000
nan nan nan 0.000000
nan nan nan 0.000000
nan nan nan 0.000000
nan nan nan 0.000000
nan nan nan 0.000000
-1.628494 -82.180954 0.066497 0.686046
-10.411260 -69.913437 0.009974 1.000000
-15.431097 -62.901878 0.199990 0.692378
-17.475576 -60.046211 0.199998 0.705257
-18.780758 -58.223175 0.199991 0.665156
-19.687933 -56.956059 0.199994 0.713954
-20.356312 -56.022484 0.200003 0.667643
nan nan nan 0.000000
nan nan nan 0.000000
nan nan nan 0.000000
nan nan nan 0.000000
nan nan nan 0.000000
nan nan nan 0.000000
nan nan nan 0.000000
nan nan nan 0.000000
nan nan nan 0.000000
-1.957294 -82.191513 0.075431 0.663142
-10.479101 -70.111206 -0.000021 0.338460
-15.520139 -62.965157 0.199991 0.706249
-17.544632 -60.095284 0.199998 0.720974
-18.837055 -58.263176 0.199992 0.754757
-19.735355 -56.989765 0.199993 0.701167
-20.397203 -56.051544 0.200003 0.773404
nan nan nan 0.000000
nan nan nan 0.000000
nan nan nan 0.000000
nan nan nan 0.000000
nan nan nan 0.000000
nan nan nan 0.000000
nan nan nan 0.000000
nan nan nan 0.000000
nan nan nan 0.000000
-2.270338 -82.220314 0.083093 0.683253
-10.618671 -70.208763 -0.000010 0.337240
-15.609612 -63.027817 0.199990 0.713298
-17.614025 -60.143875 0.199998 0.686000
-18.893627 -58.302788 0.199992 0.675822
-19.783016 -57.023140 0.199992 0.663035
-20.438299 -56.080322 0.200003 0.776623
nan nan nan 0.000000
nan nan nan 0.000000
nan nan nan 0.000000
nan nan nan 0.000000
nan nan nan 0.000000
nan nan nan 0.000000
nan nan nan 0.000000
nan nan nan 0.000000
nan nan nan 0.000000
-2.579308 -82.251236 0.090462 0.748653
-10.758973 -70.305267 0.000010 0.338262
-15.699533 -63.089836 0.199991 0.697398
-17.683758 -60.191978 0.199998 0.715450
-18.950478 -58.342003 0.199993 0.696071
-19.830908 -57.056183 0.199992 0.734249
-20.479595 -56.108810 0.200003 0.670939
nan nan nan 0.000000
nan nan nan 0.000000
nan nan nan 0.000000
nan nan nan 0.000000
nan nan nan 0.000000
nan nan nan 0.000000
nan nan nan 0.000000
nan nan nan 0.000000
nan nan nan 0.000000
-2.877827 -82.293930 0.096971 0.669261
-10.899775 -70.401031 0.000005 0.338598
