# This PCD file was generated using the MATLABÂ® pcwrite function
# from Computer Vision ToolboxÂ®.
# .PCD v.7 - Point Cloud Data file format
VERSION .7
FIELDS x y z intensity
SIZE 4 4 4 4
TYPE F F F F
COUNT 1 1 1 1
WIDTH 1275
HEIGHT 1
VIEWPOINT 0 0 0 1 0 0 0
POINTS 1275
DATA ascii
-22.263767 117.987320 8.445097 0.594034
-22.263767 117.987312 7.254231 0.695888
-22.263771 117.987312 6.074875 0.651240
-22.263769 117.987312 4.904369 0.399100
-22.157772 118.057327 3.746370 0.083207
-22.157774 118.057320 2.581707 0.094118
-22.157774 118.057320 1.418292 0.094118
-22.157776 118.057320 0.253630 0.065690
-31.467337 111.908463 0.000029 0.534829
-37.313553 108.047096 0.000021 0.533867
-40.569611 105.896507 0.000016 0.537850
-42.648327 104.523537 0.000012 0.523384
-44.865776 103.058937 0.200002 0.684474
-45.823814 102.426163 0.200006 0.708888
-21.570921 118.143021 11.039065 0.094118
-21.570925 118.143021 9.793821 0.094118
-21.570921 118.143021 8.566065 0.082139
-21.810305 117.987297 7.310487 0.803906
-21.570919 118.143021 6.151357 0.132540
-21.570919 118.143021 4.958880 0.074510
-21.702673 118.057312 3.765068 0.079301
-21.664223 118.082321 2.588687 0.678431
-21.664219 118.082329 1.411314 0.678431
-21.664221 118.082329 0.232677 0.596155
-31.373989 111.766045 0.000029 0.536614
-37.247017 107.945595 0.000020 0.546792
-40.518009 105.817787 0.000016 0.547829
-42.606262 104.459358 0.000013 0.523659
-44.833885 103.010277 0.200003 0.669917
-45.796310 102.384209 0.200006 0.738079
-21.346996 117.987274 11.065031 0.634531
-21.347008 117.987274 9.816208 0.700511
-21.347008 117.987274 8.584926 0.623529
-21.347004 117.987274 7.368224 0.414450
-21.347010 117.987274 6.163281 0.614710
-21.347006 117.987274 4.967379 0.721202
-21.237675 118.057312 3.784260 0.403449
-21.198673 118.082298 2.595087 0.678431
-21.198675 118.082298 1.404913 0.678431
-21.195457 118.084358 0.213276 0.193637
-31.281635 111.622978 0.000029 0.547738
-37.181194 107.843620 0.000021 0.552972
-40.466957 105.738701 0.000016 0.534127
-42.564644 104.394890 0.000013 0.547433
-44.802330 102.961388 0.200004 0.739208
-45.769104 102.342056 0.200006 0.662531
-17.352234 120.208519 12.207981 0.578637
-17.051044 120.398514 10.878619 0.678431
-17.051052 120.398506 9.479971 0.678431
-17.352226 120.208519 8.045070 0.807843
-17.051044 120.398514 6.729170 0.678431
-17.051044 120.398514 5.370716 0.678431
-17.352222 120.208527 4.002045 0.435874
-17.201630 120.303520 2.669786 0.605631
-17.201630 120.303520 1.330215 0.605631
-17.352161 120.208565 -0.002049 0.400229
-31.190279 111.479279 0.000029 0.548592
-37.116081 107.741196 0.000021 0.557961
-40.416458 105.659271 0.000016 0.535500
-42.523479 104.330132 0.000013 0.533928
-44.771122 102.912285 0.200005 0.717083
-45.742188 102.299721 0.200006 0.666102
-16.812988 120.208527 12.322476 0.656367
-16.812984 120.208527 10.900431 0.817502
-16.812981 120.208534 9.498349 0.689845
-16.812981 120.208534 8.112873 0.535042
-16.812984 120.208527 6.740787 0.695674
-16.812977 120.208534 5.378999 0.457389
-16.812988 120.208527 4.024499 0.620554
-16.700222 120.278564 2.676524 0.133761
-16.700222 120.278564 1.323477 0.133761
-17.237488 119.944870 0.000049 0.539376
-31.099939 111.334930 0.000030 0.528450
-37.051685 107.638321 0.000021 0.536355
-40.366520 105.579483 0.000016 0.523751
-42.482765 104.265091 0.000013 0.540917
-44.740253 102.862968 0.200005 0.668437
-45.715572 102.257195 0.200006 0.707500
-16.261509 120.208519 12.440077 0.477882
-16.261497 120.208527 11.001832 0.629740
-16.261513 120.208519 9.583773 0.457206
-16.261509 120.208519 8.182514 0.738674
-16.261505 120.208519 6.794798 0.717342
-16.261513 120.208519 5.417492 0.713161
-16.261513 120.208519 4.047563 0.731807
-16.106117 120.303528 2.685014 0.678431
-16.106117 120.303528 1.314986 0.678431
-17.088379 119.702911 0.000049 0.546181
-31.010603 111.189964 0.000030 0.541329
-36.988014 107.534988 0.000021 0.513848
-40.317135 105.499352 0.000016 0.532769
-42.442509 104.199760 0.000013 0.542397
-44.709732 102.813431 0.200006 0.735363
-45.689251 102.214485 0.200007 0.753185
-15.697323 120.208496 12.560898 0.759426
-15.697319 120.208496 11.106007 0.331014
-15.697319 120.208496 9.671541 0.629496
-15.697311 120.208504 8.254066 0.849470
-15.697323 120.208496 6.850288 0.365637
-15.697319 120.208496 5.457044 0.575128
-15.697315 120.208504 4.071260 0.587167
-15.642296 120.241615 2.690977 0.094118
-15.642296 120.241615 1.309022 0.094118
-16.940956 119.459938 0.000049 0.539269
-30.922279 111.044380 0.000030 0.538994
-36.925064 107.431221 0.000021 0.529809
-40.268311 105.418877 0.000016 0.530098
-42.402702 104.134155 0.000013 0.538262
-44.679554 102.763687 0.200007 0.683268
-45.663231 102.171600 0.200006 0.680003
-15.712284 119.857513 12.512606 0.566079
-15.712296 119.857506 11.064363 0.710338
-15.712292 119.857506 9.636457 0.677455
-15.712296 119.857506 8.225463 0.605356
-15.712288 119.857506 6.828107 0.677882
-15.712292 119.857506 5.441234 0.759197
-15.712284 119.857513 4.061788 0.755093
-15.617306 119.913780 2.688579 0.678431
-15.617306 119.913780 1.311422 0.678431
-16.795261 119.215912 0.000050 0.545388
-30.834974 110.898178 0.000030 0.550958
-36.862831 107.327019 0.000021 0.535271
-40.220055 105.338058 0.000016 0.549172
-42.363361 104.068268 0.000013 0.544335
-44.649727 102.713730 0.200007 0.730449
-45.637508 102.128525 0.200007 0.712016
-15.712280 119.518356 12.469561 0.570809
-15.522312 119.629120 11.074743 0.678431
-15.522316 119.629120 9.645204 0.678431
-15.712288 119.518356 8.199973 0.631647
-15.522305 119.629120 6.833636 0.678431
-15.522312 119.629120 5.445175 0.678431
-15.712288 119.518356 4.053347 0.638514
-15.642319 119.559151 2.685286 0.094118
-15.642319 119.559151 1.314715 0.074510
-16.651249 118.970894 0.000050 0.542046
-30.748695 110.751373 0.000030 0.543297
-36.801331 107.222389 0.000021 0.536339
-40.172363 105.256912 0.000016 0.552728
-43.273964 103.448517 0.199999 0.682307
-44.620243 102.663567 0.200007 0.679332
-45.612087 102.085274 0.200006 0.735821
-15.712273 119.181953 12.427373 0.579065
-15.712280 119.181946 10.990872 0.544884
-15.712276 119.181953 9.574545 0.594690
-15.712280 119.181946 8.174990 0.592218
-15.712276 119.181946 6.788962 0.766033
-15.712280 119.181946 5.413333 0.577646
-15.712280 119.181946 4.045073 0.491035
-15.617279 119.236450 2.682995 0.678431
-15.617279 119.236450 1.317004 0.678431
-16.508949 118.724876 0.000050 0.535409
-30.663443 110.603973 0.000031 0.533288
-36.740570 107.117325 0.000021 0.524773
-40.125233 105.175430 0.000017 0.537758
-43.239391 103.388733 0.200000 0.694789
-44.591114 102.613205 0.200008 0.719890
-45.586971 102.041847 0.200006 0.662669
-15.712273 118.848228 12.386026 0.647318
-15.663464 118.875778 10.967329 0.738201
-15.663456 118.875786 9.554708 0.603250
-15.712273 118.848228 8.150505 0.859144
-15.663456 118.875786 6.776422 0.663828
-15.663456 118.875786 5.404395 0.562112
-15.712280 118.848228 4.036963 0.722850
-15.617298 118.901840 2.680288 0.678431
-15.617298 118.901840 1.319712 0.678431
-16.368385 118.477859 0.000050 0.541268
-30.579216 110.455978 0.000030 0.539498
-36.680542 107.011841 0.000021 0.532799
-40.078674 105.093620 0.000016 0.545098
-43.205238 103.328705 0.200001 0.717006
-44.562336 102.562637 0.200007 0.696330
-45.562157 101.998245 0.200006 0.788144
-15.712292 118.517113 12.345502 0.807935
-15.522305 118.622620 10.967219 0.678431
-15.522285 118.622627 9.554621 0.678431
-15.712292 118.517113 8.126507 0.519799
-15.522297 118.622620 6.776364 0.678431
-15.522289 118.622620 5.404355 0.678431
-15.712292 118.517113 4.029015 0.427268
-15.617321 118.569855 2.677633 0.624659
-15.617321 118.569855 1.322367 0.541939
-16.229549 118.229866 0.000051 0.539590
-30.496029 110.307396 0.000030 0.538338
-36.621246 106.905937 0.000021 0.554330
-40.032692 105.011490 0.000016 0.544030
-43.171501 103.268440 0.200002 0.677119
-44.533913 102.511871 0.200008 0.677516
-45.537651 101.954475 0.200006 0.674617
-15.712292 118.188568 12.305799 0.588846
-15.712299 118.188560 10.886047 0.630640
-15.712299 118.188560 9.486231 0.458518
-15.712292 118.188568 8.102997 0.488273
-15.712292 118.188568 6.733128 0.616495
-15.712299 118.188560 5.373538 0.522484
-15.712296 118.188560 4.021228 0.482841
-15.617313 118.240448 2.675034 0.678431
-15.617313 118.240448 1.324967 0.678431
-16.092445 117.980919 0.000051 0.540093
-30.413877 110.158241 0.000031 0.548043
-36.562698 106.799622 0.000022 0.577005
-39.987286 104.929039 0.000017 0.560052
-43.138191 103.207947 0.200003 0.771359
-44.505844 102.460907 0.200008 0.674342
-45.513447 101.910530 0.200007 0.700389
-15.480030 117.987289 12.332941 0.607263
-15.480030 117.987282 10.909451 0.822431
-15.480030 117.987282 9.505950 0.319020
-15.480026 117.987289 8.119069 0.557137
-15.480026 117.987289 6.745594 0.716686
-15.480022 117.987289 5.382423 0.663340
-15.480022 117.987289 4.026552 0.690547
-15.303154 118.082298 2.678321 0.678431
-15.303154 118.082298 1.321679 0.678431
-15.957062 117.731026 0.000051 0.535286
-30.332771 110.008514 0.000031 0.530755
-36.504887 106.692902 0.000022 0.546181
-39.942451 104.846275 0.000017 0.541115
-43.105301 103.147217 0.200004 0.670466
-44.478130 102.409744 0.200008 0.705089
-45.489552 101.866417 0.200006 0.713527
-14.863426 117.987297 12.469258 0.613199
-14.683517 118.082329 11.070934 0.348959
-14.683517 118.082329 9.641993 0.625849
-14.863422 117.987297 8.199795 0.534676
-14.683517 118.082329 6.831607 0.599512
-14.683514 118.082336 5.443728 0.611826
-27.216127 111.462242 3.366977 0.398123
-14.716530 118.064896 2.686658 0.313664
-14.716534 118.064896 1.313341 0.311147
-15.823456 117.480179 0.000051 0.543053
-30.252712 109.858231 0.000031 0.531762
-36.447826 106.585785 0.000022 0.543679
-39.898193 104.763199 0.000017 0.514351
-43.072838 103.086266 0.200005 0.761318
-44.450775 102.358398 0.200008 0.677531
-45.465965 101.822144 0.200006 0.693065
-14.230328 117.987297 12.609741 0.389822
-14.230335 117.987289 11.148119 0.558984
-14.230324 117.987297 9.707020 0.866499
-14.230331 117.987289 8.282986 0.680720
-14.230339 117.987289 6.872716 0.476112
-14.230335 117.987289 5.473031 0.509697
-27.123732 111.291328 3.367102 0.393439
-14.047337 118.082329 2.696492 0.678431
-14.047337 118.082329 1.303508 0.678431
-15.691589 117.228416 0.000051 0.548531
-30.173706 109.707382 0.000031 0.536553
-36.391510 106.478271 0.000022 0.540551
-39.854523 104.679817 0.000017 0.536294
-43.040798 103.025085 0.200006 0.699458
-44.423782 102.306854 0.200008 0.762127
-45.442684 101.777702 0.200005 0.664439
-13.579929 117.987320 12.754586 0.759197
-13.579922 117.987320 11.273013 0.717723
-13.579926 117.987320 9.812237 0.560174
-13.579926 117.987320 8.368763 0.707073
-13.579926 117.987320 6.939241 0.540337
-26.527031 111.377823 4.328512 0.401282
-27.364166 110.950470 3.348935 0.402838
-25.198099 112.056244 2.489121 0.400626
-13.393864 118.082306 1.294002 0.617517
-15.561493 116.975731 0.000051 0.539513
-30.095760 109.555984 0.000031 0.530144
-36.335949 106.370369 0.000022 0.558297
-39.811432 104.596130 0.000017 0.549187
-43.009190 102.963676 0.200007 0.673793
-44.397144 102.255127 0.200008 0.684627
-45.419720 101.733101 0.200006 0.673426
-12.625912 118.130630 12.984015 0.619120
-12.911526 117.987328 11.401817 0.610742
-12.625896 118.130638 9.978898 0.596017
-12.911522 117.987335 8.457230 0.483421
-12.625904 118.130630 7.044611 0.558495
-27.385984 110.725052 4.241501 0.395697
-27.330677 110.752800 3.346018 0.409308
-26.363483 111.238068 2.466059 0.396521
-12.702801 118.092056 1.283840 0.257130
-15.433140 116.722160 0.000051 0.549416
-30.018869 109.404053 0.000031 0.533471
-36.281147 106.262077 0.000022 0.542458
-39.768929 104.512146 0.000017 0.558724
-42.978004 102.902054 0.200008 0.741985
-44.370872 102.203217 0.200008 0.761318
-45.397064 101.688339 0.200005 0.756634
-12.224270 117.987335 13.058109 0.672053
-12.224258 117.987335 11.534722 0.566079
-12.224262 117.987335 10.032720 0.560876
-12.224262 117.987335 8.548508 0.787320
-12.224270 117.987335 7.078639 0.843732
-27.368809 110.520737 4.235302 0.408423
-25.477057 111.453415 3.442880 0.406424
-26.159904 111.116753 2.468158 0.410147
-12.031628 118.082306 1.274076 0.678431
-15.306576 116.467682 0.000051 0.538582
-29.943029 109.251587 0.000031 0.542260
-36.227093 106.153404 0.000022 0.534218
-39.727013 104.427872 0.000017 0.533822
-42.947258 102.840218 0.200009 0.686458
-44.344963 102.151115 0.200008 0.671489
-45.374722 101.643425 0.200005 0.686091
-11.517300 117.987320 13.217215 0.555169
-11.517300 117.987320 11.671905 0.773617
-11.517307 117.987312 10.148292 0.786831
-11.517307 117.987320 8.642725 0.583764
-11.517311 117.987312 7.151711 0.551598
-27.117149 110.431168 4.250616 0.400137
-27.263855 110.360107 3.340430 0.397040
-25.954519 110.994316 2.470298 0.398657
-11.321266 118.082275 1.263633 0.678431
-15.181808 116.212326 0.000052 0.542336
-29.868271 109.098595 0.000031 0.538308
-36.173813 106.044357 0.000022 0.538949
-39.685684 104.343300 0.000017 0.522667
-42.916935 102.778168 0.200009 0.752209
-44.319416 102.098846 0.200008 0.680095
-45.352695 101.598351 0.200005 0.738155
-10.568298 118.092628 13.442928 0.736996
-10.789726 117.987274 11.813563 0.572091
-10.568302 118.092621 10.312253 0.674388
-10.568295 118.092628 8.776395 0.639460
-10.630074 118.063232 7.247505 0.593484
-26.767866 110.385147 4.274802 0.405463
-10.789715 117.987282 4.232202 0.569833
-25.386797 111.042236 2.479012 0.397894
-10.589909 118.082344 1.252843 0.678431
-15.058815 115.956116 0.000052 0.537469
-29.794580 108.945084 0.000031 0.536553
-36.121281 105.934944 0.000022 0.539391
-39.644947 104.258446 0.000017 0.532601
-42.887047 102.715912 0.200009 0.746548
-44.294235 102.046394 0.200008 0.676921
-45.330982 101.553123 0.200005 0.696391
-9.633644 118.177322 13.663737 0.589807
-10.040352 117.987289 11.959960 0.787274
-9.633648 118.177322 10.472651 0.671321
-9.633640 118.177322 8.907154 0.631159
-27.053497 110.037903 5.144826 0.404715
-27.263029 109.939995 4.222511 0.409125
-24.579374 111.193939 3.477122 0.405921
-26.413799 110.336800 2.458889 0.397360
-9.837116 118.082253 1.241701 0.678431
-14.937595 115.699051 0.000052 0.536736
-29.721952 108.791061 0.000031 0.535271
-36.069523 105.825165 0.000022 0.554482
-39.604805 104.173309 0.000017 0.531167
-42.857594 102.653442 0.200010 0.659602
-44.269421 101.993767 0.200008 0.746105
-45.309586 101.507751 0.200004 0.740169
-9.268192 117.987328 13.726812 0.681178
-9.268200 117.987320 12.111297 0.564752
-9.268208 117.987320 10.518465 0.626429
-9.268215 117.987320 8.944502 0.622095
-27.001381 109.851837 5.141273 0.399542
-27.076563 109.817352 4.232161 0.404654
-24.637384 110.936371 3.469219 0.405158
10.857071 127.220230 3.128425 0.823819
10.857079 127.220230 0.871574 0.824231
-25.848625 110.380692 0.596248 0.368948
-29.650414 108.636536 0.000032 0.546517
-36.018532 105.715027 0.000022 0.548562
-39.565254 104.087891 0.000017 0.540612
-42.828575 102.590767 0.200010 0.702098
-44.244972 101.940964 0.200007 0.687907
-45.288506 101.462227 0.200004 0.697139
nan nan nan 0.000000
nan nan nan 0.000000
nan nan nan 0.000000
nan nan nan 0.000000
nan nan nan 0.000000
-26.948141 109.666748 4.236637 0.399710
-26.855366 109.708534 3.345062 0.402716
-26.518379 109.860291 2.454081 0.392462
10.857071 126.692253 0.875150 0.822766
-14.700577 115.182419 0.000052 0.537850
-29.579948 108.481522 0.000032 0.553109
-35.968304 105.604538 0.000022 0.531380
-40.755600 103.448593 0.200004 0.674617
-42.799995 102.527901 0.200010 0.694896
-44.220898 101.888000 0.200007 0.759915
-45.267746 101.416557 0.200003 0.713405
nan nan nan 0.000000
nan nan nan 0.000000
nan nan nan 0.000000
nan nan nan 0.000000
-26.292355 109.748390 5.210760 0.435019
nan nan nan 0.000000
-26.842285 109.505333 3.341581 0.406210
-27.042219 109.416969 2.443297 0.398932
10.857082 126.167587 0.878648 0.834958
-14.584793 114.922867 0.000053 0.540703
-29.510565 108.326012 0.000032 0.539055
-35.918850 105.493698 0.000022 0.534005
-40.721092 103.371223 0.200005 0.663951
-42.771858 102.464828 0.200010 0.664103
-44.197189 101.834869 0.200007 0.686397
-45.247303 101.370743 0.200003 0.658549
nan nan nan 0.000000
nan nan nan 0.000000
nan nan nan 0.000000
nan nan nan 0.000000
nan nan nan 0.000000
nan nan nan 0.000000
-26.847849 109.295120 3.337189 0.399802
-24.156374 110.462296 2.493418 0.397940
10.857082 125.646133 0.882070 0.850980
-14.470814 114.662506 0.000054 0.539773
-29.442280 108.170021 0.000032 0.538674
-35.870178 105.382515 0.000022 0.543740
-40.687122 103.293617 0.200006 0.737346
-42.744160 102.401566 0.200010 0.746136
-44.173855 101.781570 0.200006 0.767895
-45.227180 101.324783 0.200003 0.682780
nan nan nan 0.000000
nan nan nan 0.000000
nan nan nan 0.000000
nan nan nan 0.000000
nan nan nan 0.000000
nan nan nan 0.000000
-24.926023 109.906136 3.435786 0.403082
10.857071 125.127838 3.114582 0.820813
10.857071 125.127838 0.885417 0.851301
-14.358658 114.401367 0.000054 0.538201
-29.375076 108.013565 0.000032 0.532387
-35.822285 105.270996 0.000023 0.530770
-40.653698 103.215775 0.200008 0.725917
-42.716908 102.338104 0.200010 0.677821
-44.150887 101.728111 0.200006 0.687373
-45.207382 101.278687 0.200003 0.732113
nan nan nan 0.000000
nan nan nan 0.000000
nan nan nan 0.000000
nan nan nan 0.000000
nan nan nan 0.000000
nan nan nan 0.000000
-26.017632 109.229675 3.373462 0.400168
-24.756052 109.755966 2.479863 0.400885
10.857059 124.612610 0.888691 0.846113
-14.248325 114.139450 0.000054 0.539757
-29.308971 107.856636 0.000032 0.534874
-35.775169 105.159149 0.000023 0.545617
-40.620815 103.137703 0.200009 0.723629
-42.690094 102.274460 0.200010 0.691508
-44.128296 101.674492 0.200006 0.669490
-45.187904 101.232460 0.200002 0.706157
nan nan nan 0.000000
nan nan nan 0.000000
nan nan nan 0.000000
nan nan nan 0.000000
nan nan nan 0.000000
-25.230671 109.340668 4.355497 0.428214
-25.261787 109.327942 3.409626 0.396063
-26.320076 108.895103 2.450829 0.412329
10.157566 123.814278 0.904258 0.297337
-14.139809 113.876778 0.000054 0.536843
-29.243961 107.699249 0.000032 0.546304
-35.728825 105.046974 0.000023 0.542947
-40.588482 103.059395 0.200010 0.667094
-42.663727 102.210632 0.200010 0.701808
-44.106083 101.620712 0.200005 0.728786
-45.168751 101.186089 0.200002 0.765988
nan nan nan 0.000000
nan nan nan 0.000000
nan nan nan 0.000000
nan nan nan 0.000000
nan nan nan 0.000000
nan nan nan 0.000000
7.285168 122.159195 5.128262 0.937255
10.917313 123.615211 3.106043 0.937255
10.108253 123.290878 0.908220 0.397467
-14.033146 113.613342 0.000054 0.539834
-29.180048 107.541420 0.000032 0.536446
-35.683273 104.934479 0.000023 0.552728
-40.556694 102.980873 0.200012 0.691005
-42.637806 102.146622 0.200010 0.679301
-44.084244 101.566788 0.200005 0.711513
-45.149921 101.139587 0.200001 0.668681
nan nan nan 0.000000
nan nan nan 0.000000
nan nan nan 0.000000
nan nan nan 0.000000
nan nan nan 0.000000
nan nan nan 0.000000
7.285168 121.681580 5.119606 0.937255
10.992638 123.137833 3.104306 0.937255
10.340172 122.881554 0.907163 0.137743
-13.928333 113.349167 0.000054 0.536995
-29.117239 107.383141 0.000032 0.541436
-35.638508 104.821663 0.000023 0.538659
-40.525459 102.902130 0.200013 0.732769
-42.612331 102.082428 0.200009 0.701381
-44.062782 101.512711 0.200005 0.757656
-45.131416 101.092964 0.200001 0.664042
nan nan nan 0.000000
nan nan nan 0.000000
nan nan nan 0.000000
nan nan nan 0.000000
nan nan nan 0.000000
nan nan nan 0.000000
7.285183 121.206589 5.111154 0.937255
12.304623 123.137833 3.124319 0.937255
12.715725 123.296005 0.868474 0.352941
-13.825340 113.084274 0.000054 0.544945
-29.055542 107.224426 0.000032 0.539544
-35.594528 104.708542 0.000023 0.539452
-40.494759 102.823174 0.200013 0.763500
-42.587307 102.018059 0.200009 0.750652
-44.041698 101.458481 0.200004 0.674876
-45.113239 101.046204 0.200001 0.681804
nan nan nan 0.000000
nan nan nan 0.000000
nan nan nan 0.000000
nan nan nan 0.000000
nan nan nan 0.000000
nan nan nan 0.000000
7.285191 120.734138 5.102895 0.937255
13.665127 123.137833 3.145124 0.929656
14.005299 123.265991 0.848928 0.352941
-13.724205 112.818672 0.000054 0.539879
-28.994955 107.065292 0.000033 0.536156
-35.551346 104.595116 0.000023 0.541283
-40.464611 102.744003 0.200012 0.663890
-42.562729 101.953522 0.200009 0.671962
-44.020996 101.404106 0.200004 0.713771
-45.095387 100.999321 0.200001 0.765820
nan nan nan 0.000000
nan nan nan 0.000000
nan nan nan 0.000000
nan nan nan 0.000000
nan nan nan 0.000000
nan nan nan 0.000000
7.285194 120.264168 5.094830 0.937255
15.076969 123.137817 3.166774 0.916060
15.240276 123.198051 0.830380 0.352941
-13.624935 112.552368 0.000054 0.543496
-28.935472 106.905731 0.000033 0.543435
-35.508949 104.481392 0.000023 0.537179
-40.435020 102.664619 0.200012 0.654871
-42.538605 101.888809 0.200009 0.684016
-44.000671 101.349586 0.200004 0.673701
-45.077858 100.952309 0.200000 0.668956
nan nan nan 0.000000
nan nan nan 0.000000
nan nan nan 0.000000
nan nan nan 0.000000
nan nan nan 0.000000
nan nan nan 0.000000
7.285198 119.796600 5.086957 0.937255
16.268650 123.038696 3.184536 0.905882
16.710094 123.198013 0.807784 0.352941
-13.527534 112.285370 0.000054 0.538872
-28.877108 106.745766 0.000033 0.538598
-35.467346 104.367371 0.000023 0.534218
-40.405987 102.585037 0.200012 0.673686
-42.514931 101.823929 0.200008 0.710796
-43.980724 101.294930 0.200003 0.743755
-45.060661 100.905182 0.200000 0.762509
nan nan nan 0.000000
nan nan nan 0.000000
nan nan nan 0.000000
nan nan nan 0.000000
nan nan nan 0.000000
nan nan nan 0.000000
7.285210 119.331398 5.079274 0.937255
17.786716 123.038696 3.207933 0.905882
18.238110 123.198051 0.784235 0.352941
-13.431995 112.017700 0.000054 0.540444
-28.819870 106.585396 0.000033 0.535027
-35.426544 104.253067 0.000023 0.537285
-40.377506 102.505257 0.200012 0.723812
-42.491711 101.758888 0.200007 0.672908
-43.961166 101.240135 0.200003 0.667826
-45.043797 100.857933 0.200000 0.681086
nan nan nan 0.000000
nan nan nan 0.000000
nan nan nan 0.000000
nan nan nan 0.000000
nan nan nan 0.000000
nan nan nan 0.000000
7.285210 118.868477 5.071777 0.937255
19.366062 123.038704 3.232333 0.905882
19.827480 123.197983 0.759681 0.352941
-13.338322 111.749374 0.000054 0.540124
-28.763744 106.424629 0.000033 0.542977
-35.386551 104.138481 0.000024 0.524315
-40.349586 102.425270 0.200012 0.766659
-42.468948 101.693687 0.200007 0.756634
-43.941986 101.185204 0.200003 0.755673
-45.027260 100.810570 0.199999 0.699077
nan nan nan 0.000000
nan nan nan 0.000000
nan nan nan 0.000000
nan nan nan 0.000000
nan nan nan 0.000000
nan nan nan 0.000000
7.285210 118.407776 5.064467 0.945953
21.010586 123.038696 3.257802 0.905882
21.010593 123.038704 0.742200 0.905882
-13.246552 111.480392 0.000056 0.538048
-28.708742 106.263474 0.000033 0.534081
-36.994518 103.467865 0.200011 0.680735
-40.322227 102.345100 0.200013 0.682383
-42.446636 101.628326 0.200006 0.689860
-43.923191 101.130135 0.200002 0.683330
-45.011055 100.763092 0.199999 0.692012
nan nan nan 0.000000
nan nan nan 0.000000
nan nan nan 0.000000
nan nan nan 0.000000
nan nan nan 0.000000
nan nan nan 0.000000
7.285213 117.949249 5.057343 0.968627
nan nan nan 0.000000
nan nan nan 0.000000
-13.156620 111.210793 0.000055 0.544594
-28.654861 106.101936 0.000033 0.556329
-36.959976 103.364235 0.200012 0.707424
-40.295418 102.264740 0.200013 0.668833
-42.424782 101.562813 0.200006 0.684443
-43.904785 101.074944 0.200002 0.734752
-44.995182 100.715508 0.199999 0.724071
nan nan nan 0.000000
nan nan nan 0.000000
nan nan nan 0.000000
nan nan nan 0.000000
nan nan nan 0.000000
nan nan nan 0.000000
7.285210 117.492821 5.050397 0.937255
nan nan nan 0.000000
nan nan nan 0.000000
-13.068592 110.940559 0.000056 0.535317
-28.602129 105.940025 0.000033 0.540322
-36.926151 103.260368 0.200014 0.687739
-40.269180 102.184189 0.200012 0.676478
-42.403389 101.497147 0.200006 0.745449
-43.886757 101.019623 0.200001 0.740627
-44.979641 100.667801 0.199998 0.697383
nan nan nan 0.000000
nan nan nan 0.000000
nan nan nan 0.000000
nan nan nan 0.000000
nan nan nan 0.000000
nan nan nan 0.000000
7.285221 117.038437 5.043631 0.937255
nan nan nan 0.000000
11.115532 118.242043 0.920481 0.364111
-12.982441 110.669724 0.000055 0.538766
-28.550516 105.777756 0.000033 0.542077
-36.893059 103.156273 0.200016 0.694224
-40.243492 102.103462 0.200011 0.742168
-42.382454 101.431335 0.200005 0.719203
-43.869122 100.964180 0.200001 0.694835
-44.964432 100.619995 0.199998 0.725002
nan nan nan 0.000000
nan nan nan 0.000000
nan nan nan 0.000000
nan nan nan 0.000000
nan nan nan 0.000000
nan nan nan 0.000000
7.285206 116.586052 5.037042 0.937255
nan nan nan 0.000000
12.474667 118.177017 0.899555 0.635782
-12.898182 110.398293 0.000055 0.541253
-28.500032 105.615128 0.000033 0.549554
-36.860683 103.051949 0.200017 0.730037
-40.218376 102.022552 0.200010 0.700236
-42.361977 101.365379 0.200005 0.665370
-43.851871 100.908607 0.200001 0.736782
-44.949562 100.572083 0.199998 0.707927
nan nan nan 0.000000
nan nan nan 0.000000
nan nan nan 0.000000
nan nan nan 0.000000
nan nan nan 0.000000
nan nan nan 0.000000
7.285210 116.135590 5.030629 0.937255
nan nan nan 0.000000
13.413189 117.967583 0.885848 0.491814
-12.815826 110.126274 0.000056 0.539727
-28.450691 105.452148 0.000034 0.551766
-36.829029 102.947395 0.200017 0.726452
-40.193825 101.941475 0.200010 0.684047
-42.341965 101.299278 0.200004 0.702602
-43.835011 100.852921 0.200000 0.669703
-44.935024 100.524071 0.199998 0.663752
nan nan nan 0.000000
nan nan nan 0.000000
nan nan nan 0.000000
nan nan nan 0.000000
nan nan nan 0.000000
nan nan nan 0.000000
7.285217 115.687012 5.024391 0.937255
44.046368 126.397949 3.633983 0.677546
44.046368 126.397949 0.366020 0.678431
-12.735390 109.853691 0.000056 0.539147
-28.402489 105.288834 0.000033 0.535653
-36.798111 102.842636 0.200017 0.725872
-40.169842 101.860222 0.200010 0.674037
-42.322411 101.233040 0.200004 0.722744
-43.818535 100.797119 0.200000 0.684153
-44.853657 100.495522 0.182474 0.757733
nan nan nan 0.000000
nan nan nan 0.000000
nan nan nan 0.000000
nan nan nan 0.000000
nan nan nan 0.000000
nan nan nan 0.000000
7.184921 115.211784 5.013203 0.937255
44.365292 125.763840 3.636129 0.214542
17.897175 118.251999 0.814098 0.933822
-12.656849 109.580551 0.000057 0.540749
-28.355421 105.125183 0.000033 0.542260
-36.767921 102.737656 0.200017 0.729488
-40.146423 101.778809 0.200009 0.668437
-42.303318 101.166672 0.200003 0.661524
-43.802456 100.741203 0.200000 0.683070
-44.665295 100.496323 0.137074 0.682048
nan nan nan 0.000000
nan nan nan 0.000000
nan nan nan 0.000000
nan nan nan 0.000000
nan nan nan 0.000000
43.951351 124.925308 10.146989 0.681804
7.184986 114.767563 5.007321 0.937255
44.046391 124.951569 3.627518 0.678431
18.968784 118.023170 0.798222 0.653223
-12.580204 109.306870 0.000057 0.545571
-28.309513 104.961205 0.000034 0.535775
-36.738464 102.632469 0.200017 0.738933
-40.123573 101.697235 0.200008 0.721843
-42.284695 101.100166 0.200003 0.754772
-43.786762 100.685181 0.199999 0.750286
-44.467266 100.497169 0.089251 0.744808
nan nan nan 0.000000
nan nan nan 0.000000
nan nan nan 0.000000
nan nan nan 0.000000
43.951359 124.207054 13.408630 0.655131
43.951351 124.207047 10.131500 0.598047
7.185036 114.325058 5.001608 0.937255
21.987461 118.303627 3.250644 0.937255
21.996471 118.306053 0.749203 0.937255
-12.505493 109.032661 0.000057 0.542397
-28.264732 104.796921 0.000034 0.522499
-36.709743 102.527084 0.200017 0.767208
-40.101295 101.615501 0.200008 0.776471
-42.266533 101.033539 0.200002 0.734356
-43.771465 100.629044 0.199999 0.719051
-44.258797 100.498055 0.038811 0.680812
nan nan nan 0.000000
nan nan nan 0.000000
nan nan nan 0.000000
nan nan nan 0.000000
44.141407 123.541122 13.410135 0.666209
44.141384 123.541122 10.132578 0.678431
7.185093 113.884193 4.996061 0.937255
44.046398 123.516296 3.621422 0.678431
44.046398 123.516296 0.378578 0.678431
-12.432697 108.757935 0.000058 0.537301
-28.221111 104.632317 0.000034 0.537270
-36.681747 102.421494 0.200016 0.713863
-40.079590 101.533615 0.200007 0.707744
-42.248840 100.966774 0.200002 0.681025
-43.756561 100.572800 0.199999 0.719615
-44.094856 100.484398 -0.000008 0.336797
nan nan nan 0.000000
nan nan nan 0.000000
nan nan nan 0.000000
43.951382 122.778503 16.656960 0.642939
43.951420 122.778511 13.367087 0.603922
43.951405 122.778503 10.101893 0.610300
7.185154 113.444946 4.990681 0.937255
44.001377 122.791191 3.617750 0.104891
44.001369 122.791191 0.382250 0.275410
-12.361794 108.482719 0.000057 0.538476
-28.178638 104.467415 0.000034 0.537224
-36.654495 102.315720 0.200015 0.735363
-40.058456 101.451584 0.200007 0.683848
-42.231609 100.899902 0.200002 0.760678
-43.742043 100.516457 0.199999 0.672038
-44.080948 100.430420 -0.000008 0.339620
nan nan nan 0.000000
nan nan nan 0.000000
nan nan nan 0.000000
43.951397 122.068054 16.631384 0.694606
43.951405 122.068054 13.347248 0.466117
43.951412 122.068054 10.087758 0.706706
7.185219 113.007248 4.985467 0.937255
44.046360 122.091461 3.615684 0.678431
44.046360 122.091461 0.384314 0.678431
-12.292831 108.207001 0.000057 0.539117
-28.137316 104.302223 0.000034 0.543801
-36.627983 102.209747 0.200014 0.695872
-40.037891 101.369400 0.200006 0.673503
-42.214851 100.832901 0.200002 0.672923
-43.561489 100.501030 0.162977 0.673609
-44.067425 100.376343 -0.000008 0.345037
nan nan nan 0.000000
nan nan nan 0.000000
nan nan nan 0.000000
44.141399 121.405457 16.635590 0.230854
44.141392 121.405449 13.350507 0.402701
44.141407 121.405457 10.090078 0.516197
7.185287 112.571053 4.980416 0.937255
44.046391 121.382736 3.612950 0.678431
44.046391 121.382736 0.387050 0.678431
-12.225792 107.930809 0.000058 0.540322
-30.469326 103.569672 0.200022 0.713085
-36.602207 102.103600 0.200013 0.703716
-40.017906 101.287071 0.200005 0.677852
-42.198559 100.765785 0.200001 0.680400
-43.301456 100.502136 0.108343 0.733013
-44.093178 100.312874 0.010012 1.000000
nan nan nan 0.000000
nan nan nan 0.000000
43.951382 120.654381 19.887764 0.507469
43.951359 120.654373 16.582623 0.591318
43.951382 120.654381 13.309438 0.564355
43.951359 120.654373 10.060802 0.632364
7.185360 112.136314 4.975527 0.937255
44.046352 120.676384 3.610302 0.674769
44.046360 120.676384 0.389700 0.675059
-12.160675 107.654167 0.000058 0.539071
-30.434229 103.420494 0.200024 0.711742
-36.577179 101.997276 0.200013 0.731670
-39.998497 101.204613 0.200005 0.766857
-42.182735 100.698563 0.200001 0.745159
-43.025467 100.503319 0.050262 0.648737
-44.080471 100.258888 0.010012 1.000000
nan nan nan 0.000000
nan nan nan 0.000000
43.951366 119.951004 19.859310 0.675593
43.951366 119.951004 16.559433 0.528862
44.141407 119.993637 13.313853 0.676905
44.141407 119.993637 10.063950 0.676280
7.185421 111.702972 4.970797 0.937255
10.284031 112.398117 3.041523 0.937255
10.298599 112.401382 0.958232 0.937255
-12.097496 107.377068 0.000058 0.540719
-30.400169 103.271072 0.200024 0.708019
-36.552883 101.890778 0.200012 0.678889
-39.979664 101.122017 0.200005 0.716945
-42.167381 100.631226 0.200001 0.731426
-42.784344 100.492821 -0.000009 0.341497
-44.068119 100.204819 0.010005 1.000000
nan nan nan 0.000000
nan nan nan 0.000000
43.951389 119.249832 19.831823 0.530541
43.951374 119.249832 16.537020 0.650187
43.951397 119.249832 13.274069 0.720607
43.951405 119.249832 10.035594 0.584253
7.185486 111.270988 4.966226 0.937255
44.046368 119.270447 3.605265 0.647456
12.743587 112.477196 0.918895 0.927047
-12.036255 107.099541 0.000058 0.538598
-30.367144 103.121414 0.200024 0.699687
-36.529343 101.784111 0.200011 0.674311
-39.961407 101.039291 0.200005 0.744686
-42.152500 100.563789 0.200002 0.681743
-42.770412 100.429688 -0.000009 0.337133
-44.017097 100.159134 -0.000008 0.339620
nan nan nan 0.000000
nan nan nan 0.000000
43.951374 118.550781 19.805277 0.668437
43.951366 118.550781 16.515383 0.617578
43.951366 118.550781 13.257281 0.604349
43.951382 118.550781 10.023629 0.491951
7.185555 110.840317 4.961815 0.937255
44.046383 118.570709 3.602874 0.466514
13.479702 112.160316 0.908195 0.819715
-11.976948 106.821587 0.000058 0.539269
-30.335150 102.971542 0.200023 0.713848
-36.506546 101.677284 0.200011 0.676493
-39.943733 100.956444 0.200005 0.689448
-42.085270 100.507324 0.190182 0.738155
-42.756920 100.366463 -0.000009 0.333700
-44.005466 100.104622 -0.000008 0.331579
39.960354 117.045837 25.456121 0.678431
39.960369 117.045837 22.224760 0.678431
39.960377 117.045837 19.038761 0.678431
39.770382 117.007370 15.861739 0.584741
39.960384 117.045837 12.772659 0.678431
39.960369 117.045837 9.678215 0.678431
7.180325 110.409828 4.957294 0.937255
39.865360 117.026604 3.530765 0.678431
17.415760 112.481895 0.844050 0.389303
-11.919579 106.543236 0.000058 0.546639
-30.304203 102.821442 0.200022 0.686671
-36.484501 101.570297 0.200011 0.676860
-39.926632 100.873474 0.200005 0.677577
-41.727776 100.508850 0.126416 0.690837
-42.789356 100.293938 0.010013 1.000000
-43.994217 100.050026 -0.000008 0.336492
39.770359 116.342667 25.375099 0.552972
39.770382 116.342674 22.154903 0.489860
39.770359 116.342667 18.979900 0.453056
39.770374 116.342667 15.842511 0.459037
39.770390 116.342674 12.735446 0.464164
39.770374 116.342674 9.651690 0.520394
7.181221 109.981819 4.953236 0.937255
39.865391 116.361214 3.528642 0.678431
18.326435 112.157173 0.830469 0.839384
-11.864174 106.264481 0.000058 0.540978
-30.274313 102.671127 0.200022 0.717052
-36.463203 101.463158 0.200011 0.683558
-39.910114 100.790382 0.200006 0.721492
-41.344151 100.510483 0.057894 0.680018
-42.776798 100.230850 0.010010 1.000000
-43.983349 99.995354 -0.000008 0.337301
39.960354 115.715492 25.392286 0.678431
39.960361 115.715492 22.169710 0.602441
39.960369 115.715500 18.992388 0.678431
39.770382 115.679787 15.824015 0.539055
39.960369 115.715500 12.743341 0.672358
39.960369 115.715500 9.657317 0.678431
7.821377 109.675110 4.981290 0.937255
39.840374 115.692947 3.526184 0.080491
39.840374 115.692947 0.473816 0.094118
-11.810707 105.985344 0.000058 0.540566
-30.245481 102.520607 0.200021 0.690730
-36.442654 101.355881 0.200011 0.708461
-39.894176 100.707184 0.200005 0.730816
-41.017376 100.496078 -0.000010 0.332418
-42.764656 100.167686 0.010002 1.000000
-43.972862 99.940605 -0.000008 0.342229
39.920414 115.045746 25.352037 0.208270
39.920391 115.045746 22.135002 0.170336
39.920376 115.045746 18.963139 0.244480
39.770397 115.018639 15.806240 0.589319
39.920414 115.045753 12.724851 0.089342
39.920406 115.045746 9.644138 0.149020
10.766018 109.776764 5.124460 0.937255
39.865368 115.035797 3.524634 0.484627
39.865368 115.035797 0.475363 0.641917
-11.759190 105.705849 0.000058 0.540185
-30.217714 102.369888 0.200022 0.694682
-36.422848 101.248459 0.200011 0.706233
-39.878819 100.623871 0.200005 0.762402
-41.003468 100.420616 -0.000010 0.332891
-42.707390 100.112671 -0.000009 0.331624
-43.962757 99.885788 -0.000008 0.330098
39.770397 114.359154 25.285032 0.565957
39.770412 114.359154 22.077240 0.631022
39.770397 114.359154 18.914478 0.620706
39.770374 114.359154 15.789172 0.610208
39.770397 114.359154 12.694079 0.600702
39.770367 114.359146 9.622207 0.590448
39.770390 114.359154 6.566785 0.579446
39.865398 114.375641 3.522752 0.678431
39.865398 114.375641 0.477248 0.678431
-11.709621 105.425995 0.000058 0.539178
-30.190983 102.218987 0.200022 0.701656
-36.403801 101.140900 0.200011 0.758663
-39.864044 100.540451 0.200006 0.721325
-41.044373 100.335632 0.010016 1.000000
-42.696110 100.049011 -0.000009 0.335500
-43.953033 99.830902 -0.000008 0.335271
39.960361 113.732864 25.305666 0.678431
39.960369 113.732864 22.095028 0.678431
39.960392 113.732872 18.929466 0.678431
39.770374 113.701263 15.772823 0.638560
39.960384 113.732872 12.703558 0.678431
39.960384 113.732872 9.628965 0.678431
39.960377 113.732872 6.570832 0.678431
39.865398 113.717072 3.520948 0.678431
39.865398 113.717072 0.479052 0.678431
-11.662003 105.145805 0.000058 0.541833
-30.165302 102.067902 0.200022 0.721508
-36.385498 101.033211 0.200011 0.723796
-39.480171 100.518425 0.144416 0.662242
-41.031578 100.260361 0.010015 1.000000
-42.685280 99.985275 -0.000009 0.340902
-43.943695 99.775948 -0.000008 0.335988
39.770390 113.044907 25.231010 0.597726
39.770374 113.044899 22.030659 0.696834
39.770374 113.044907 18.875237 0.660807
39.770390 113.044907 15.757184 0.681865
39.770367 113.044899 12.669268 0.702083
39.770382 113.044907 9.604523 0.635035
39.770367 113.044899 6.556187 0.633692
39.840366 113.056046 3.518804 0.081132
39.840366 113.056046 0.481196 0.081132
-11.616344 104.865295 0.000058 0.541909
-30.140684 101.916634 0.200022 0.700526
-36.367950 100.925392 0.200011 0.722438
-38.909340 100.520859 0.060782 0.679622
-41.019257 100.185013 0.010006 1.000000
-42.674896 99.921471 -0.000009 0.342397
-43.934738 99.720932 -0.000008 0.337209
39.770382 112.389999 25.205793 0.584482
39.770374 112.389999 22.008909 0.555886
39.770420 112.390007 18.856918 0.567422
39.770405 112.390007 15.742250 0.578454
39.770390 112.389999 12.657684 0.588708
39.770390 112.389999 9.596268 0.510658
39.770397 112.389999 6.551244 0.680735
39.865353 112.404442 3.517568 0.474159
39.865360 112.404442 0.482430 0.482353
-11.572643 104.584465 0.000058 0.542748
-30.117121 101.765198 0.200022 0.712108
-36.351158 100.817459 0.200012 0.743069
-38.490131 100.492279 -0.000011 0.336400
-40.953102 100.117836 -0.000010 0.335393
-42.664951 99.857590 -0.000009 0.338827
-43.926170 99.665848 -0.000008 0.335439
39.960415 111.764015 25.229853 0.678431
39.960407 111.764015 22.029655 0.678431
39.960384 111.764015 18.874384 0.678431
39.770390 111.736481 15.728014 0.545342
39.960400 111.764015 12.668736 0.678431
39.960392 111.764015 9.604142 0.678431
39.960384 111.764015 6.555962 0.678431
39.865376 111.750244 3.515997 0.678431
39.865376 111.750244 0.484003 0.678431
-11.530910 104.303337 0.000058 0.540887
-30.094620 101.613609 0.200022 0.696147
-36.335117 100.709412 0.200011 0.720851
-38.476311 100.399170 -0.000011 0.338079
-40.941833 100.041931 -0.000010 0.340429
-42.655460 99.793640 -0.000009 0.340597
-43.917984 99.610710 -0.000008 0.328252
39.770405 111.084282 25.158897 0.563272
39.770397 111.084282 21.968473 0.570535
39.770412 111.084282 18.822849 0.570153
39.770412 111.084282 15.714478 0.575143
39.770405 111.084282 12.636150 0.577050
39.770405 111.084282 9.580918 0.512123
39.770390 111.084282 6.542045 0.591440
39.840389 111.093925 3.514092 0.076478
39.840397 111.093925 0.485910 0.094118
-11.491146 104.021927 0.000058 0.537820
-30.073179 101.461861 0.200022 0.725689
-36.319832 100.601250 0.200012 0.695964
-38.530125 100.296738 0.010020 1.000000
-40.931095 99.965950 -0.000010 0.341009
-42.646416 99.729630 -0.000009 0.342672
-43.910183 99.555519 -0.000008 0.337026
41.991573 110.723572 25.698313 0.462745
41.991627 110.723572 22.433594 0.529351
41.991634 110.723572 19.214695 0.498787
41.991611 110.723572 16.033916 0.674510
41.991611 110.723572 12.883887 0.632273
41.991604 110.723572 9.757492 0.591684
41.991611 110.723572 6.647842 0.548012
42.086628 110.735985 3.549741 0.678431
42.086628 110.735985 0.450257 0.678431
-15.489380 103.212875 0.200022 0.706340
-30.052784 101.309967 0.200022 0.692546
-35.996971 100.533272 0.164240 0.679927
-38.517609 100.203918 0.010011 1.000000
-40.920887 99.889900 -0.000010 0.340169
-42.637814 99.665558 -0.000009 0.332860
-43.902767 99.500275 -0.000008 0.334157
41.991573 110.058060 25.677290 0.569009
41.991611 110.058060 22.415462 0.598230
41.991619 110.058060 19.199425 0.464652
41.991589 110.058060 16.021469 0.539620
41.991619 110.058060 12.874236 0.520729
41.991604 110.058060 9.750613 0.503227
41.991596 110.058060 6.643716 0.483955
42.086651 110.069801 3.548366 0.635142
42.086651 110.069801 0.451632 0.644236
-15.456974 102.959152 0.200014 0.711650
-30.033461 101.157936 0.200022 0.722438
-35.056091 100.537292 0.056805 0.662287
-38.438744 100.119293 -0.000011 0.332769
-40.911209 99.813774 -0.000010 0.335500
-42.629662 99.601425 -0.000009 0.344533
-43.895741 99.444977 -0.000008 0.340200
42.181614 109.415825 25.705383 0.678431
42.181637 109.415825 22.439678 0.678431
42.181637 109.415825 19.219824 0.666667
41.991604 109.393692 16.009724 0.701640
42.181614 109.415825 12.887132 0.678431
42.181614 109.415825 9.759808 0.678431
42.181622 109.415825 6.649226 0.678431
42.061596 109.401840 3.546659 0.086763
42.061596 109.401840 0.453341 0.094118
-15.426014 102.705231 0.199991 0.705364
-30.015196 101.005768 0.200022 0.697276
-34.551460 100.477348 -0.000012 0.338262
-38.427528 100.025841 -0.000011 0.338491
-40.902061 99.737587 -0.000010 0.342519
-42.621956 99.537239 -0.000009 0.333639
-43.889095 99.389633 -0.000008 0.339010
41.991604 108.730408 25.638817 0.478126
41.991619 108.730408 22.382280 0.679072
41.991619 108.730408 19.171469 0.709331
41.991604 108.730408 15.998685 0.707713
41.991581 108.730408 12.856557 0.708339
41.991611 108.730408 9.738016 0.708339
41.991611 108.730408 6.636169 0.708949
42.086628 108.740807 3.545849 0.678431
42.086628 108.740807 0.454149 0.678431
-15.396843 102.451111 0.199968 0.711177
-29.997990 100.853485 0.200022 0.720150
-34.624580 100.347260 0.010026 1.000000
-38.416965 99.932304 -0.000011 0.335561
-40.893456 99.661331 -0.000010 0.336980
-42.614700 99.473000 -0.000009 0.335775
-43.882839 99.334244 -0.000008 0.347890
41.991627 108.068138 25.621355 0.539483
41.991619 108.068138 22.367218 0.554223
41.991604 108.068138 19.158777 0.601648
41.991619 108.068138 15.988338 0.587945
41.991604 108.068130 12.848538 0.591043
41.991627 108.068138 9.732299 0.576852
41.991611 108.068138 6.632744 0.597299
42.086620 108.077866 3.544707 0.617777
42.086620 108.077866 0.455291 0.565560
-15.369682 102.196754 0.199957 0.704738
-29.981861 100.701080 0.200022 0.690288
-34.611813 100.227173 0.010020 1.000000
-38.407051 99.838699 -0.000011 0.339925
-40.885372 99.585022 -0.000010 0.338949
-42.607895 99.408707 -0.000009 0.339559
-43.876972 99.278809 -0.000008 0.341741
42.181622 107.424911 25.652868 0.678431
42.181606 107.424911 22.394392 0.678431
42.181606 107.424911 19.181673 0.678431
41.991619 107.406799 15.978691 0.539803
42.181637 107.424911 12.863017 0.678431
42.181622 107.424911 9.742617 0.678431
42.181614 107.424911 6.638925 0.678431
42.086613 107.415855 3.543642 0.678431
42.086613 107.415855 0.456358 0.678431
-15.344452 101.942200 0.199953 0.713512
-29.966787 100.548569 0.200022 0.723232
-34.513123 100.115265 -0.000012 0.335088
-38.397797 99.745026 -0.000011 0.338537
-40.877823 99.508659 -0.000010 0.338354
-42.601536 99.344376 -0.000009 0.337484
-43.871490 99.223335 -0.000008 0.337270
41.991589 106.746353 25.589928 0.698253
41.991596 106.746353 22.340134 0.696101
41.991589 106.746353 19.135956 0.664134
41.991589 106.746353 15.969732 0.659831
41.991596 106.746353 12.834113 0.646891
41.991589 106.746353 9.722014 0.652903
41.991604 106.746353 6.626585 0.648005
42.086628 106.754745 3.542654 0.666880
42.086628 106.754745 0.457346 0.678431
-15.320984 101.687477 0.199949 0.704219
-28.011421 100.567314 0.040221 0.682399
-34.502026 99.994400 -0.000013 0.336889
-38.389191 99.651291 -0.000011 0.336751
-40.870811 99.432243 -0.000010 0.335653
-42.595627 99.279999 -0.000009 0.336004
-43.866394 99.167831 -0.000008 0.338735
41.991589 106.086723 25.575977 0.553506
41.991619 106.086723 22.328106 0.603464
41.991611 106.086723 19.125822 0.794079
41.991619 106.086723 15.961473 0.746410
41.991596 106.086723 12.827700 0.658564
41.991611 106.086723 9.717447 0.714580
41.991611 106.086723 6.623849 0.766720
42.086613 106.094444 3.541742 0.678431
42.086613 106.094444 0.458258 0.678431
-15.299614 101.432571 0.199961 0.707225
-27.508226 100.440788 -0.000015 0.339635
-34.491783 99.873466 -0.000013 0.336965
-38.381245 99.557495 -0.000011 0.336690
-40.864330 99.355782 -0.000010 0.336858
-42.590168 99.215576 -0.000009 0.338155
-43.861687 99.112282 -0.000008 0.311147
39.770390 105.262993 25.005278 0.646357
39.770412 105.262993 21.836023 0.728832
39.770390 105.262993 18.711256 0.733104
39.770382 105.262993 15.623503 0.586969
39.770397 105.262993 12.565597 0.569696
39.770397 105.262993 9.530631 0.665141
39.770405 105.262993 6.511920 0.555611
39.865376 105.270042 3.504458 0.678431
39.865376 105.270042 0.495544 0.678431
-15.280231 101.177513 0.199982 0.708125
-27.617256 100.261940 0.010035 1.000000
-34.482372 99.752457 -0.000013 0.336400
-38.373943 99.463654 -0.000011 0.340322
-40.858383 99.279274 -0.000010 0.337774
-42.585159 99.151123 -0.000009 0.338277
-43.857365 99.056709 -0.000009 0.324315
39.920376 104.630447 25.031576 0.218418
39.920345 104.630447 21.858692 0.062745
39.920368 104.630447 18.730360 0.140536
39.770390 104.620369 15.616782 0.466072
39.920376 104.630447 12.577678 0.357885
39.920376 104.630447 9.539238 0.282109
39.920376 104.630447 6.517075 0.161089
39.840382 104.625076 3.503303 0.091661
39.840382 104.625076 0.496695 0.091661
-15.262695 100.922318 0.200007 0.711162
-27.483015 100.101151 -0.000015 0.338308
-34.473812 99.631386 -0.000013 0.334096
-38.367310 99.369759 -0.000011 0.338293
-40.852970 99.202728 -0.000010 0.336767
-42.580601 99.086639 -0.000009 0.335454
-43.853432 99.001106 -0.000009 0.348699
39.960369 103.989792 25.031370 0.678431
39.960377 103.989792 21.858526 0.652140
39.960392 103.989792 18.730219 0.634958
39.770367 103.978355 15.610726 0.578408
39.920368 103.987381 12.572975 0.131182
39.960384 103.989792 9.539174 0.678431
39.960377 103.989792 6.517034 0.678431
39.865383 103.984077 3.503047 0.678431
39.865383 103.984077 0.496953 0.678431
-15.246967 100.667007 0.200033 0.705013
-27.472195 99.931206 -0.000015 0.337346
-34.466099 99.510262 -0.000013 0.339025
-38.361328 99.275818 -0.000011 0.334783
-40.848095 99.126152 -0.000010 0.326131
-42.576492 99.022118 -0.000009 0.335317
-43.849892 98.945480 -0.000008 0.337682
39.770374 103.336876 24.974609 0.582864
39.770382 103.336876 21.809576 0.658900
39.770374 103.336876 18.688974 0.670390
39.770351 103.336868 15.605340 0.681498
39.770382 103.336876 12.551508 0.492164
39.770382 103.336876 9.520590 0.623285
39.770390 103.336876 6.505903 0.565805
39.865391 103.341927 3.502451 0.678431
39.865391 103.341927 0.497549 0.678431
-15.232746 100.411613 0.200045 0.710338
-27.462561 99.761192 -0.000015 0.340108
-34.459232 99.389084 -0.000012 0.341314
-38.356003 99.181839 -0.000011 0.338003
-40.843750 99.049538 -0.000010 0.339849
-42.572830 98.957573 -0.000009 0.335637
-43.846737 98.889824 -0.000009 0.329839
39.960377 102.704643 25.014278 0.678431
39.960377 102.704643 21.843781 0.678431
39.960369 102.704643 18.717796 0.678431
39.770367 102.695869 15.600618 0.560662
39.920406 102.702805 12.565126 0.249775
39.960392 102.704651 9.533579 0.678431
39.960384 102.704651 6.513684 0.678431
39.865376 102.700256 3.501930 0.678431
39.865376 102.700256 0.498070 0.678431
-14.286713 100.199249 0.154145 0.706981
-27.454109 99.591118 -0.000015 0.337667
-34.453205 99.267860 -0.000012 0.335225
-38.351326 99.087830 -0.000011 0.336065
-40.839943 98.972893 -0.000010 0.341756
-42.569626 98.893005 -0.000009 0.337194
-43.843971 98.834152 -0.000009 0.336110
39.770405 102.055283 24.959801 0.666621
39.770367 102.055283 21.796799 0.668696
39.770359 102.055275 18.678213 0.671199
39.770374 102.055283 15.596568 0.673716
39.770374 102.055283 12.544707 0.526390
39.770374 102.055283 9.515741 0.694316
39.770390 102.055283 6.502998 0.633906
39.865383 102.059006 3.501483 0.565530
39.865383 102.059006 0.498517 0.588113
-12.583920 100.003471 0.070978 0.707668
-27.446850 99.420982 -0.000015 0.340368
-34.448032 99.146599 -0.000013 0.337636
-38.347313 98.993782 -0.000011 0.339223
-40.836670 98.896225 -0.000010 0.338415
-42.566868 98.828415 -0.000009 0.333165
-43.841595 98.778458 -0.000008 0.332937
39.770405 101.415047 24.954082 0.421820
39.770397 101.415047 21.791876 0.421424
39.770390 101.415039 18.674065 0.422309
39.770382 101.415039 15.593183 0.422507
39.770374 101.415039 12.542081 0.484367
39.770382 101.415039 9.513872 0.581353
39.770405 101.415047 6.501875 0.495583
39.840397 101.417297 3.500698 0.080888
39.840397 101.417297 0.499300 0.121538
-11.068443 99.778000 -0.003031 0.706981
-27.440763 99.250809 -0.000015 0.335531
-34.443703 99.025307 -0.000012 0.337362
-38.343960 98.899719 -0.000010 0.335454
