# This PCD file was generated using the MATLABÂ® pcwrite function
# from Computer Vision ToolboxÂ®.
# .PCD v.7 - Point Cloud Data file format
VERSION .7
FIELDS x y z intensity
SIZE 4 4 4 4
TYPE F F F F
COUNT 1 1 1 1
WIDTH 1276
HEIGHT 1
VIEWPOINT 0 0 0 1 0 0 0
POINTS 1276
DATA ascii
-26.184023 -8.664375 0.000031 0.334997
-25.327209 -1.710773 0.000009 0.337179
-24.849998 2.162115 0.000003 0.341161
-24.545338 4.634635 -0.000002 0.339010
-24.333580 6.353176 0.000004 0.342855
-24.177572 7.619285 0.000001 0.336568
nan nan nan 0.000000
nan nan nan 0.000000
nan nan nan 0.000000
nan nan nan 0.000000
nan nan nan 0.000000
nan nan nan 0.000000
nan nan nan 0.000000
nan nan nan 0.000000
nan nan nan 0.000000
-28.461725 -24.825445 0.000018 0.337987
-26.352953 -8.642969 0.000031 0.338704
-25.447615 -1.695511 0.000009 0.337102
-24.943377 2.173951 0.000003 0.337636
-24.621464 4.644283 -0.000002 0.340017
-24.397715 6.361305 0.000004 0.340154
-24.232870 7.626295 0.000001 0.338277
nan nan nan 0.000000
nan nan nan 0.000000
nan nan nan 0.000000
nan nan nan 0.000000
nan nan nan 0.000000
nan nan nan 0.000000
nan nan nan 0.000000
nan nan nan 0.000000
nan nan nan 0.000000
-28.715689 -24.585875 0.010029 1.000000
-26.521730 -8.620367 0.000030 0.339193
-25.567913 -1.679411 0.000009 0.335088
-25.036674 2.186436 0.000002 0.338933
-24.697521 4.654465 -0.000002 0.332265
-24.461790 6.369885 0.000004 0.341772
-24.288120 7.633692 0.000001 0.339071
nan nan nan 0.000000
nan nan nan 0.000000
nan nan nan 0.000000
nan nan nan 0.000000
nan nan nan 0.000000
nan nan nan 0.000000
nan nan nan 0.000000
nan nan nan 0.000000
nan nan nan 0.000000
-29.024864 -24.748114 0.000016 0.338125
-26.690346 -8.596596 0.000030 0.337057
-25.688097 -1.662474 0.000008 0.335607
-25.129881 2.199574 0.000002 0.333181
-24.773506 4.665174 -0.000002 0.339879
-24.525805 6.378911 0.000004 0.334340
-24.343317 7.641471 0.000001 0.342229
nan nan nan 0.000000
nan nan nan 0.000000
nan nan nan 0.000000
nan nan nan 0.000000
nan nan nan 0.000000
nan nan nan 0.000000
nan nan nan 0.000000
nan nan nan 0.000000
nan nan nan 0.000000
-29.117290 -23.462206 0.061842 0.716350
-26.858793 -8.571651 0.000030 0.336858
-25.808157 -1.644688 0.000009 0.336996
-25.222994 2.213366 0.000002 0.342275
-24.849415 4.676416 -0.000003 0.342962
-24.589756 6.388380 0.000004 0.335988
-24.398457 7.649640 0.000001 0.328893
nan nan nan 0.000000
nan nan nan 0.000000
nan nan nan 0.000000
nan nan nan 0.000000
nan nan nan 0.000000
nan nan nan 0.000000
nan nan nan 0.000000
nan nan nan 0.000000
nan nan nan 0.000000
-29.117290 -21.706320 0.147082 0.692012
-27.027058 -8.545530 0.000030 0.338643
-25.928091 -1.626072 0.000008 0.340108
-25.316008 2.227803 0.000001 0.330831
-24.925241 4.688190 -0.000003 0.342168
-24.653637 6.398299 0.000004 0.340475
-24.453539 7.658191 0.000001 0.339284
nan nan nan 0.000000
nan nan nan 0.000000
nan nan nan 0.000000
nan nan nan 0.000000
nan nan nan 0.000000
nan nan nan 0.000000
nan nan nan 0.000000
nan nan nan 0.000000
nan nan nan 0.000000
-29.200701 -20.600775 0.200035 0.704250
-27.195141 -8.518238 0.000030 0.336263
-26.047892 -1.606615 0.000008 0.337682
-25.408920 2.242888 0.000001 0.341665
-25.000988 4.700486 -0.000003 0.338994
-24.717449 6.408661 0.000004 0.335897
-24.508560 7.667125 0.000001 0.336782
nan nan nan 0.000000
nan nan nan 0.000000
nan nan nan 0.000000
nan nan nan 0.000000
nan nan nan 0.000000
nan nan nan 0.000000
nan nan nan 0.000000
nan nan nan 0.000000
nan nan nan 0.000000
-29.452869 -20.557905 0.200041 0.711788
-27.363026 -8.489767 0.000030 0.338354
-26.167555 -1.586327 0.000008 0.335622
-25.501724 2.258623 0.000000 0.336675
-25.076643 4.713315 -0.000003 0.337362
-24.781187 6.419471 0.000004 0.344671
-24.563517 7.676446 0.000001 0.337285
nan nan nan 0.000000
nan nan nan 0.000000
nan nan nan 0.000000
nan nan nan 0.000000
nan nan nan 0.000000
nan nan nan 0.000000
nan nan nan 0.000000
nan nan nan 0.000000
nan nan nan 0.000000
-29.704762 -20.513422 0.200039 0.703761
-27.530712 -8.460129 0.000030 0.337987
-26.287073 -1.565197 0.000008 0.337179
-25.594416 2.275009 0.000000 0.334554
-25.152208 4.726673 -0.000003 0.334005
-24.844849 6.430721 0.000004 0.332036
-24.618408 7.686148 0.000001 0.331502
nan nan nan 0.000000
nan nan nan 0.000000
nan nan nan 0.000000
nan nan nan 0.000000
nan nan nan 0.000000
nan nan nan 0.000000
nan nan nan 0.000000
nan nan nan 0.000000
nan nan nan 0.000000
-29.956333 -20.467161 0.200037 0.703487
-27.698183 -8.429316 0.000030 0.338735
-26.406441 -1.543236 0.000008 0.339666
-25.686991 2.292038 0.000000 0.337148
-25.227678 4.740557 -0.000004 0.336080
-24.908430 6.442420 0.000004 0.338598
-24.673229 7.696235 0.000001 0.342824
nan nan nan 0.000000
nan nan nan 0.000000
nan nan nan 0.000000
nan nan nan 0.000000
nan nan nan 0.000000
-37.113132 -55.864220 7.965209 0.627222
nan nan nan 0.000000
nan nan nan 0.000000
nan nan nan 0.000000
-30.207596 -20.419245 0.200031 0.711833
-27.865437 -8.397343 0.000029 0.336355
-26.525650 -1.520445 0.000008 0.341100
-25.779444 2.309711 -0.000000 0.335134
-25.292542 4.808898 0.009994 1.000000
-24.971928 6.454561 0.000004 0.338003
-24.727980 7.706704 0.000001 0.340642
nan nan nan 0.000000
nan nan nan 0.000000
nan nan nan 0.000000
-37.142006 -53.442993 12.440078 0.614450
-37.381554 -54.628410 10.235844 0.653071
-37.630608 -55.860847 7.973195 0.648341
nan nan nan 0.000000
nan nan nan 0.000000
nan nan nan 0.000000
-30.458530 -20.369650 0.200022 0.706340
-28.032463 -8.364199 0.000029 0.337972
-26.644699 -1.496820 0.000008 0.337438
-25.871773 2.328032 -0.000000 0.336019
-25.367432 4.823776 0.009997 1.000000
-25.035337 6.467146 0.000004 0.327840
-24.782656 7.717555 0.000001 0.329580
nan nan nan 0.000000
nan nan nan 0.000000
nan nan nan 0.000000
-37.297207 -51.786491 12.204038 0.740307
-37.891087 -54.623169 10.247063 0.644877
-38.020092 -55.239372 7.929717 0.619104
-37.947838 -54.894226 5.535418 0.607095
-38.020252 -55.240128 3.183413 0.621530
-38.020237 -55.240059 0.816587 0.629297
-30.709110 -20.318277 0.200013 0.709697
-28.199257 -8.329905 0.000028 0.337118
-26.763580 -1.472366 0.000008 0.335882
-25.963970 2.346999 -0.000001 0.340978
-25.442219 4.839158 0.009996 1.000000
-25.098660 6.480171 0.000004 0.338842
-24.837254 7.728786 0.000001 0.347936
nan nan nan 0.000000
nan nan nan 0.000000
nan nan nan 0.000000
-37.790596 -51.795738 12.220624 0.748898
-37.493073 -50.422478 9.764874 0.879408
-37.209541 -49.113808 7.424623 0.728222
-37.982742 -52.682625 5.429511 0.648554
-38.020149 -52.855278 3.145245 0.633082
-37.990311 -52.717552 0.857061 0.678431
-30.959328 -20.265169 0.200004 0.705043
-28.365803 -8.294426 0.000028 0.337011
-26.882290 -1.447086 0.000007 0.337148
-26.056034 2.366607 -0.000001 0.339666
-25.528534 4.801348 -0.000004 0.329717
-25.161890 6.493638 0.000004 0.331106
-24.891773 7.740398 0.000001 0.330190
nan nan nan 0.000000
nan nan nan 0.000000
nan nan nan 0.000000
-38.285675 -51.805321 12.237814 0.757885
-37.977551 -50.429619 9.777669 0.917937
-37.118748 -46.595253 7.221346 0.656703
-38.019569 -50.617226 5.330808 0.611826
-38.020180 -50.619942 3.109521 0.632044
-38.282612 -51.791649 0.870829 0.616098
-31.209166 -20.210302 0.199995 0.710613
-28.532095 -8.257788 0.000028 0.337163
-27.000816 -1.420967 0.000008 0.336538
-26.147957 2.386857 -0.000001 0.336980
-25.603472 4.817858 -0.000005 0.337865
-25.225021 6.507549 0.000004 0.336950
-24.946209 7.752392 0.000001 0.325734
nan nan nan 0.000000
nan nan nan 0.000000
nan nan nan 0.000000
-38.782532 -51.815262 12.255609 0.757580
-37.269859 -45.275925 9.181497 0.635416
-37.515396 -46.337395 7.207947 0.668132
-38.216648 -49.368935 5.273164 0.607446
-38.216648 -49.368927 3.090274 0.639704
-38.777065 -51.791634 0.869033 0.604974
-31.458622 -20.153704 0.199987 0.704540
-28.698132 -8.219994 0.000028 0.337209
-27.119160 -1.394033 0.000008 0.337438
-26.239737 2.407748 -0.000001 0.337652
-25.678295 4.834888 -0.000005 0.333776
-25.288059 6.521896 0.000004 0.341009
-25.000559 7.764765 0.000001 0.342458
nan nan nan 0.000000
nan nan nan 0.000000
-37.227303 -43.220451 12.992879 0.623529
-37.468414 -44.230629 11.115770 0.647745
-37.716751 -45.271057 9.192715 0.630610
-37.970501 -46.334160 7.216228 0.640925
-38.694855 -49.368935 5.278537 0.607294
-38.694859 -49.368942 3.092067 0.617899
-39.141575 -51.240509 0.876448 0.612924
-31.707676 -20.095362 0.199978 0.710719
-28.835611 -8.062517 0.010019 1.000000
-27.237312 -1.366266 0.000007 0.338598
-26.331371 2.429278 -0.000002 0.332830
-25.752996 4.852444 -0.000005 0.340444
-25.350992 6.536686 0.000004 0.336736
-25.054823 7.777517 0.000001 0.340200
nan nan nan 0.000000
nan nan nan 0.000000
-37.412262 -42.206978 12.821586 0.860502
-37.111420 -40.984444 10.635319 0.758755
-38.020058 -44.676918 9.134506 0.605676
-38.019978 -44.676598 7.085094 0.599252
-37.990311 -44.556046 5.040595 0.678431
-38.020248 -44.677696 3.014857 0.605585
-37.964249 -44.450127 0.988978 0.674632
-31.956322 -20.035303 0.199968 0.708095
-29.029390 -8.140928 0.000028 0.336416
-27.355267 -1.337679 0.000007 0.335149
-26.422850 2.451450 -0.000002 0.335378
-25.827574 4.870515 -0.000005 0.335164
-25.413818 6.551916 0.000004 0.341482
-25.108995 7.790647 0.000001 0.333425
nan nan nan 0.000000
nan nan nan 0.000000
-37.843582 -42.218773 12.842687 0.962371
-37.533024 -40.993645 10.651797 0.631617
-37.238182 -39.830536 8.571791 0.756146
-38.019772 -42.913811 6.944857 0.621851
-37.990372 -42.797836 4.956794 0.639002
-38.020138 -42.915253 2.986875 0.598276
-37.990311 -42.797585 1.015110 0.678431
-33.204670 -23.918867 0.000005 0.543893
-29.117300 -7.794737 0.025821 0.700435
-27.473021 -1.308266 0.000007 0.336629
-26.514174 2.474257 -0.000002 0.336049
-25.902023 4.889112 -0.000005 0.345098
-25.476542 6.567580 0.000004 0.334920
-25.163076 7.804156 0.000001 0.334417
nan nan nan 0.000000
nan nan nan 0.000000
-38.276711 -42.230965 12.864470 0.808881
-37.956329 -41.003151 10.668804 0.585321
-37.652191 -39.837601 8.584444 0.718395
-38.019520 -41.245323 6.812355 0.606470
-37.960266 -41.018234 4.871753 0.692653
-38.020218 -41.248001 2.960453 0.611841
-38.181690 -41.866821 1.029082 0.605722
-33.479927 -23.848063 0.000005 0.540200
-29.117300 -7.128994 0.078689 0.740276
-27.590567 -1.278032 0.000007 0.336355
-26.605335 2.497704 -0.000002 0.335332
-25.976341 4.908227 -0.000005 0.338323
-25.539150 6.583690 0.000004 0.345052
-25.217062 7.818040 0.000001 0.339315
nan nan nan 0.000000
nan nan nan 0.000000
-38.711670 -42.243507 12.886924 0.937255
-38.381378 -41.012939 10.686340 0.619181
-38.067856 -39.844872 8.597487 0.904845
-37.172413 -36.508728 6.419131 0.671122
-38.019688 -39.665405 4.808253 0.619516
-38.020191 -39.667282 2.935448 0.611963
-38.610565 -41.866821 1.027285 0.606134
-33.754677 -23.775339 0.000005 0.539849
-29.117302 -6.497978 0.128707 0.686336
-27.707897 -1.246986 0.000006 0.339376
-26.696329 2.521788 -0.000002 0.338628
-26.050522 4.927861 -0.000006 0.339055
-25.601645 6.600229 0.000004 0.340856
-25.260597 7.870863 0.010002 1.000000
nan nan nan 0.000000
nan nan nan 0.000000
-39.148567 -42.256462 12.910076 0.968627
-37.153160 -35.024269 9.781334 0.628794
-37.397747 -35.910751 8.140542 0.646097
-37.559151 -36.495750 6.426431 0.655756
-38.372601 -39.444023 4.802312 0.606897
-38.372601 -39.444031 2.933437 0.602457
-39.041065 -41.866829 1.025435 0.581277
-34.028923 -23.700705 0.000005 0.540185
-29.117302 -5.898928 0.176103 0.755978
-27.825008 -1.215109 0.000006 0.335637
-26.787157 2.546504 -0.000003 0.339666
-26.124567 4.948009 -0.000006 0.334371
-25.664026 6.617205 0.000004 0.337224
-25.314116 7.885427 0.010001 1.000000
nan nan nan 0.000000
-37.118717 -33.559769 13.023113 0.611963
-37.287342 -34.154701 11.399162 0.659464
-37.532135 -35.018372 9.795633 0.639429
-37.783936 -35.906769 8.152065 0.635294
-37.950844 -36.495644 6.435072 0.665019
-38.786518 -39.444046 4.807790 0.624460
-38.786514 -39.444031 2.935260 0.622278
-39.107529 -40.576614 1.045475 0.111742
-34.302635 -23.624155 0.000005 0.540063
-29.187382 -5.576704 0.200000 0.711040
-27.941896 -1.182426 0.000006 0.337240
-26.877808 2.571856 -0.000003 0.335485
-26.198467 4.968675 -0.000006 0.338811
-25.726284 6.634620 0.000004 0.338628
-25.367531 7.900361 0.010000 1.000000
nan nan nan 0.000000
-37.118603 -32.284134 12.758300 0.780301
-37.660492 -34.146362 11.416448 0.623529
-37.912384 -35.011986 9.810293 0.647059
-38.020115 -35.382210 8.101566 0.613413
-38.020050 -35.381989 6.348873 0.631037
-37.935158 -35.090256 4.590666 0.509957
-38.020164 -35.382385 2.867918 0.622919
-38.020161 -35.382370 1.132082 0.598062
-34.575802 -23.545706 0.000004 0.540276
-29.334682 -5.534399 0.200000 0.715648
-28.058548 -1.148922 0.000006 0.335714
-26.968277 2.597836 -0.000004 0.333898
-26.272223 4.989857 -0.000006 0.333379
-25.788420 6.652459 0.000004 0.330617
-25.420839 7.915666 0.009999 1.000000
nan nan nan 0.000000
-37.472992 -32.255554 12.774024 0.650111
-37.155933 -31.193678 10.875151 0.715129
-38.020008 -34.087631 9.683285 0.600961
-37.975338 -33.938026 7.940746 0.605844
-38.019920 -34.087334 6.247046 0.599741
-37.990337 -33.988258 4.539505 0.678431
-38.020138 -34.088066 2.847600 0.593698
-37.990311 -33.988174 1.154104 0.678431
-34.848419 -23.465342 0.000004 0.539315
-29.481686 -5.491066 0.200000 0.707652
-28.174967 -1.114607 0.000006 0.337575
-27.058565 2.624450 -0.000004 0.335775
-26.345827 5.011554 -0.000007 0.341482
-25.850430 6.670743 0.000004 0.334356
-25.485458 7.893104 0.000002 0.333974
nan nan nan 0.000000
-37.841679 -32.270157 12.800091 0.668406
-37.515656 -31.205408 10.896138 0.667872
-37.207462 -30.198893 9.096247 0.661738
-37.990280 -32.755455 7.811023 0.678431
-38.019760 -32.851738 6.150064 0.587304
-37.990257 -32.755386 4.481527 0.642573
-38.020157 -32.853035 2.828256 0.613367
-37.990288 -32.755486 1.173413 0.678431
-35.120468 -23.383078 0.000004 0.541527
-29.628382 -5.446703 0.200000 0.719829
-28.291145 -1.079477 0.000006 0.336797
-27.148666 2.651691 -0.000004 0.339284
-26.419279 5.033764 -0.000007 0.343236
-25.912312 6.689452 0.000004 0.334798
-25.538815 7.909237 0.000001 0.332464
nan nan nan 0.000000
-38.212250 -32.285095 12.826872 0.885054
-37.877182 -31.217482 10.917715 0.646967
-37.560444 -30.208281 9.113083 0.915145
-37.259991 -29.250967 7.401064 0.952041
-37.990265 -31.577795 6.049576 0.704616
-37.990273 -31.577810 4.426272 0.678431
-38.020218 -31.673227 2.809815 0.615610
-38.104580 -31.942026 1.185573 0.608255
-35.391937 -23.298922 0.000005 0.540688
-29.774765 -5.401323 0.200000 0.696284
-28.407070 -1.043539 0.000006 0.333761
-27.238571 2.679566 -0.000004 0.335225
-26.492575 5.056485 -0.000007 0.334920
-25.974058 6.708596 0.000004 0.335729
-25.592056 7.925744 0.000001 0.342000
nan nan nan 0.000000
-38.584812 -32.300476 12.854400 0.899931
-38.240582 -31.229902 10.939891 0.677958
-37.915215 -30.217981 9.130386 0.825483
-37.606781 -29.258738 7.413997 0.919509
-38.019497 -30.542311 5.969380 0.629786
-38.019852 -30.543421 4.378280 0.623178
-38.020233 -30.544603 2.792214 0.581003
-38.469551 -31.942011 1.183766 0.647700
-35.662811 -23.212858 0.000005 0.544579
-29.920826 -5.354916 0.200000 0.708247
-28.522745 -1.006790 0.000005 0.337087
-27.328285 2.708060 -0.000005 0.340566
-26.565710 5.079717 -0.000007 0.332265
-26.035671 6.728169 0.000004 0.334813
-25.645182 7.942621 0.000001 0.336828
nan nan nan 0.000000
-38.959404 -32.316292 12.882681 0.968627
-38.605896 -31.242643 10.962663 0.943755
-38.271801 -30.227942 9.148161 0.843473
-37.118652 -26.725664 7.119514 0.641886
-38.019440 -29.461481 5.885104 0.636240
-38.019840 -29.462698 4.327793 0.603037
-38.020245 -29.463930 2.775397 0.612802
-38.836174 -31.942015 1.181909 0.620584
-35.933079 -23.124914 0.000005 0.537469
-30.066551 -5.307457 0.200003 0.701213
-28.638161 -0.969238 0.000005 0.337636
-27.417793 2.737185 -0.000005 0.330312
-26.638681 5.103458 -0.000008 0.335256
-26.097147 6.748174 0.000004 0.336767
-25.698189 7.959869 0.000002 0.333242
nan nan nan 0.000000
-39.336086 -32.332527 12.911721 0.834623
-38.973186 -31.255724 10.986042 0.901701
-37.138729 -25.812445 8.473629 0.662791
-37.386524 -26.547712 7.109830 0.654902
-38.387970 -29.519232 5.899149 0.641794
-38.387966 -29.519228 4.336144 0.615686
-38.387962 -29.519220 2.778159 0.613977
-39.141739 -31.755857 1.183218 0.637842
-36.202724 -23.035089 0.000005 0.542077
-30.211937 -5.258974 0.200007 0.704479
-28.753311 -0.930878 0.000005 0.336629
-27.507099 2.766931 -0.000005 0.337636
-26.711485 5.127713 -0.000008 0.326040
-26.158482 6.768604 0.000004 0.338216
-25.751072 7.977487 0.000002 0.337804
nan nan nan 0.000000
-39.714920 -32.349205 12.941532 0.968627
-37.209938 -25.084303 9.819649 0.631525
-37.456394 -25.799074 8.486958 0.634653
-37.713097 -26.543554 7.121499 0.656550
-38.739128 -29.519228 5.908438 0.642191
-38.739128 -29.519228 4.341711 0.604288
-38.739124 -29.519220 2.780012 0.630045
-39.147896 -30.704733 1.199467 0.299809
-36.471737 -22.943384 0.000005 0.543740
-30.356987 -5.209501 0.200009 0.717952
-28.839823 -0.809448 0.010016 1.000000
-27.596193 2.797302 -0.000006 0.336904
-26.784117 5.152473 -0.000008 0.341238
-26.219671 6.789467 0.000004 0.338003
-25.803833 7.995474 0.000002 0.334630
-37.118690 -23.923399 12.482685 0.626169
-37.275890 -24.369188 11.140661 0.650111
-37.523621 -25.071699 9.836276 0.644022
-37.778198 -25.793623 8.501913 0.652491
-38.020226 -26.479963 7.126226 0.566049
-38.020191 -26.479860 5.653711 0.613062
-38.020187 -26.479856 4.189091 0.630976
-38.020195 -26.479876 2.729176 0.645121
-38.020195 -26.479872 1.270823 0.615564
-36.740101 -22.849802 0.000004 0.541176
-30.501680 -5.158997 0.200013 0.698436
-28.953846 -0.769676 0.010017 1.000000
-27.685072 2.828296 -0.000006 0.338506
-26.856573 5.177740 -0.000008 0.339818
-26.280714 6.810751 0.000004 0.319768
-25.856464 8.013828 0.000002 0.343297
-37.337311 -23.668337 12.440899 0.628672
-37.586494 -24.359552 11.161230 0.637598
-37.840450 -25.063990 9.854318 0.653056
-38.020187 -25.562567 8.481686 0.626368
-38.020092 -25.562300 7.026785 0.634272
-38.020103 -25.562326 5.582844 0.593469
-38.020176 -25.562529 4.146642 0.590051
-38.020176 -25.562525 2.715037 0.649195
-38.020168 -25.562510 1.284964 0.581903
-37.007816 -22.754362 0.000004 0.539696
-30.646023 -5.107483 0.200016 0.708537
-29.097113 -0.810989 0.000005 0.338796
-27.773735 2.859908 -0.000006 0.340932
-26.928854 5.203509 -0.000008 0.341268
-26.341608 6.832463 0.000004 0.338079
-25.908970 8.032548 0.000002 0.331334
-37.118675 -22.233141 12.084380 0.604532
-37.897346 -24.346720 11.181616 0.647639
-38.020149 -24.680048 9.799874 0.602090
-38.020039 -24.679743 8.358639 0.617151
-38.019978 -24.679579 6.931368 0.597620
-37.990345 -24.599146 5.507807 0.678431
-38.020157 -24.680063 4.105910 0.647822
-38.020149 -24.680044 2.701468 0.639673
-37.990273 -24.598944 1.299946 0.671366
-37.274841 -22.657022 0.000005 0.542107
-30.789995 -5.054964 0.200021 0.709682
-29.117310 -0.514732 0.031231 0.679637
-27.862173 2.892138 -0.000006 0.337972
-27.000950 5.229786 -0.000008 0.339437
-26.402346 6.854600 0.000004 0.340429
-25.961342 8.051636 0.000002 0.339620
-37.297989 -21.911657 12.024590 0.884153
-37.118683 -21.435236 10.533637 0.626215
-38.020012 -23.830069 9.654930 0.583169
-37.990356 -23.751284 8.228037 0.678431
-38.019825 -23.829576 6.839725 0.632502
-37.990276 -23.751062 5.442637 0.678431
-38.020061 -23.830206 4.066783 0.564599
-38.020123 -23.830370 2.688439 0.655543
-37.990273 -23.751055 1.312948 0.678431
-37.541199 -22.557859 0.000004 0.541802
-30.933601 -5.001442 0.200024 0.699214
-29.117311 -0.175547 0.067798 0.683452
-27.950384 2.924984 -0.000007 0.334051
-27.072865 5.256563 -0.000009 0.337240
-26.462929 6.877161 0.000004 0.332464
-26.013578 8.071090 0.000002 0.342855
-37.604042 -21.929178 12.055945 0.946807
-37.262039 -21.039366 10.464727 0.968246
-37.118671 -20.666365 9.058573 0.643275
-37.990318 -22.934179 8.114744 0.678431
-38.019749 -23.010744 6.751676 0.665812
-37.980324 -22.908178 5.377748 0.643809
-38.019993 -23.011389 4.029183 0.593774
-38.020130 -23.011744 2.675917 0.635569
-37.990276 -22.934072 1.325444 0.678431
-37.806843 -22.456823 0.000004 0.540490
-31.076832 -4.946928 0.200026 0.711070
-29.117311 0.151280 0.102941 0.766400
-28.038363 2.958449 -0.000006 0.335134
-27.144588 5.283841 -0.000009 0.336675
-26.523354 6.900143 0.000004 0.341726
-26.065680 8.090904 0.000002 0.339117
-37.912163 -21.947142 12.088080 0.963272
-37.561756 -21.054140 10.491139 0.909377
-37.232235 -20.214361 8.989386 0.843595
-38.019638 -22.221052 8.017712 0.668437
-38.019646 -22.221067 6.666989 0.660777
-37.935173 -22.005785 5.307434 0.635477
-38.020004 -22.221975 3.993032 0.609552
-38.020203 -22.222483 2.663879 0.599985
-38.020210 -22.222502 1.336121 0.574289
-38.020233 -22.222559 0.006937 0.669566
-31.219696 -4.891459 0.200025 0.701152
-29.117313 0.466448 0.136739 0.676677
-28.126106 2.992525 -0.000006 0.337469
-27.216120 5.311620 -0.000009 0.334279
-26.583616 6.923548 0.000004 0.340749
-26.117640 8.111086 0.000002 0.336583
-38.222393 -21.965532 12.120999 0.953872
-37.863457 -21.069239 10.518184 0.923796
-37.525974 -20.226515 9.011139 0.912245
-37.207405 -19.431021 7.588573 0.787442
-38.019566 -21.459051 6.585491 0.598489
-37.990280 -21.385920 5.261850 0.678431
-38.019966 -21.460054 3.958235 0.611185
-38.577293 -22.851748 2.676811 0.615473
-38.243073 -22.017172 1.337901 0.625650
-38.335991 -22.249197 0.000004 0.536599
-31.362167 -4.834991 0.200024 0.697719
-29.117313 0.770596 0.169266 0.702922
-28.213612 3.027213 -0.000006 0.336950
-27.287457 5.339897 -0.000010 0.343557
-26.643715 6.947370 0.000003 0.341436
-26.169458 8.131628 0.000002 0.330373
-38.534813 -21.984381 12.154725 0.818204
-38.167221 -21.084719 10.545884 0.910765
-37.821651 -20.238962 9.033415 0.943755
-37.495430 -19.440554 7.605906 0.960250
-38.019451 -20.723070 6.506996 0.589487
-38.019646 -20.723539 5.212404 0.620432
-38.019939 -20.724260 3.924725 0.645777
-38.844917 -22.743338 2.676809 0.614649
-38.548210 -22.017164 1.336028 0.647761
-38.599461 -22.142599 0.000004 0.540291
-31.504246 -4.777538 0.200023 0.705226
-29.117311 1.064323 0.200591 0.777173
-28.300871 3.062510 -0.000007 0.333135
-27.358593 5.368673 -0.000010 0.335958
-26.703644 6.971616 0.000004 0.339849
-26.221132 8.152532 0.000002 0.341558
-38.849487 -22.003717 12.189269 0.817456
-38.473091 -21.100573 10.574250 0.942184
-38.119312 -20.251703 9.056218 0.770703
-37.786125 -19.452238 7.623959 0.957443
-38.019363 -20.011881 6.431364 0.651270
-38.019653 -20.012579 5.158517 0.630579
-38.019951 -20.013296 3.892439 0.618021
-37.952183 -19.850687 2.627481 0.660441
-38.855087 -22.017168 1.334113 0.661952
-38.862186 -22.034197 0.000004 0.542855
-31.645916 -4.719090 0.200022 0.704173
-29.220196 1.101314 0.200009 0.710048
-28.387882 3.098414 -0.000007 0.337392
-27.429527 5.397943 -0.000010 0.341375
-26.763403 6.996275 0.000004 0.333669
-26.272659 8.173796 0.000002 0.338689
-39.166462 -22.023504 12.224637 0.651896
-38.781132 -21.116800 10.603290 0.916915
-38.419029 -20.264746 9.079559 0.573663
-38.077541 -19.461210 7.641954 0.952438
-37.118668 -17.204927 6.093538 0.671214
-38.134167 -19.594454 5.130559 0.632349
-38.134171 -19.594461 3.875650 0.655909
-38.243053 -19.850672 2.629326 0.673289
-39.141800 -21.965471 1.333072 0.633433
-39.124153 -21.923941 0.000003 0.545235
-31.787178 -4.659651 0.200021 0.713008
-29.320877 1.143688 0.200009 0.737789
-28.474642 3.134930 -0.000007 0.331533
-27.500256 5.427710 -0.000010 0.337285
-26.822990 7.021352 0.000003 0.339040
-26.324036 8.195417 0.000002 0.320089
-39.485794 -22.043749 12.260839 0.712398
-39.091389 -21.133402 10.633009 0.626612
-38.721081 -20.278681 9.103562 0.783658
-37.118637 -16.579981 7.193104 0.655055
-37.153568 -16.660616 6.037578 0.676539
-38.424648 -19.594461 5.139953 0.601968
-38.424644 -19.594465 3.881278 0.623423
-38.535648 -19.850664 2.631215 0.660792
-39.084488 -21.117483 1.346194 0.734829
-39.055321 -21.050150 0.040785 0.521614
-31.928017 -4.599226 0.200020 0.703380
-29.421259 1.186759 0.200009 0.709102
-28.561140 3.172048 -0.000007 0.338643
-27.570774 5.457968 -0.000010 0.342306
-26.882397 7.046847 0.000004 0.337682
-26.375259 8.217400 0.000003 0.340734
-39.807564 -22.064482 12.297899 0.823789
-39.403938 -21.150396 10.663424 0.624186
-37.127388 -15.994743 8.273190 0.665721
-37.379784 -16.566336 7.206772 0.654902
-37.417934 -16.652735 6.048934 0.653452
-38.716896 -19.594469 5.149556 0.554971
-38.716896 -19.594465 3.887032 0.576806
-38.830025 -19.850668 2.633144 0.673243
-39.139915 -20.552473 1.354301 0.435859
-39.107529 -20.479120 0.065459 0.199069
-32.068436 -4.537825 0.200019 0.706584
-29.521338 1.230536 0.200009 0.704280
-28.647381 3.209765 -0.000007 0.341650
-27.641079 5.488718 -0.000011 0.336873
-26.941628 7.072754 0.000004 0.335912
-26.426331 8.239737 0.000002 0.339025
-40.131836 -22.085691 12.335821 0.849226
-37.132835 -15.420235 9.333330 0.632609
-37.385715 -15.982273 8.290253 0.635706
-37.646294 -16.561430 7.222204 0.650904
-37.683353 -16.643793 6.060426 0.635294
-39.010956 -19.594469 5.159372 0.525719
-39.010956 -19.594473 3.892914 0.573007
-39.126228 -19.850668 2.635118 0.678431
-39.140293 -19.881926 1.364322 0.530434
-39.140057 -19.881403 0.091629 0.646448
-33.209320 -6.699995 0.000003 0.530266
-29.621109 1.275011 0.200009 0.725139
-28.733356 3.248091 -0.000007 0.339986
-27.711170 5.519961 -0.000011 0.332311
-27.000677 7.099072 0.000003 0.337057
-26.477243 8.262432 0.000002 0.334844
-37.136120 -14.858513 10.377225 0.667369
-37.387695 -15.407381 9.353561 0.632670
-37.648163 -15.975655 8.308903 0.658701
-37.910912 -16.548895 7.236740 0.651576
-37.952591 -16.639830 6.072819 0.648966
-39.306854 -19.594461 5.169406 0.579629
-39.306862 -19.594473 3.898923 0.645167
-39.306862 -19.594481 2.632523 0.583337
-39.306862 -19.594473 1.367478 0.582727
-39.306854 -19.594461 0.101076 0.611917
-33.364361 -6.629581 0.000002 0.537408
-29.720564 1.320179 0.200010 0.718395
-28.790920 3.348404 0.010011 1.000000
-27.781038 5.551691 -0.000010 0.343465
-27.059538 7.125804 0.000004 0.339422
-26.527998 8.285480 0.000002 0.338231
-37.387451 -14.844933 10.400567 0.630976
-37.646027 -15.398832 9.375311 0.645777
-37.909367 -15.962934 8.326756 0.647059
-38.020176 -16.200300 7.196615 0.609476
-38.020126 -16.200195 6.030178 0.636149
-38.020111 -16.200169 4.872508 0.626856
-38.020119 -16.200180 3.721040 0.618250
-38.020176 -16.200304 2.573273 0.599222
-38.020180 -16.200308 1.426727 0.547539
-38.020176 -16.200304 0.278952 0.612604
-33.518913 -6.558084 0.000003 0.542245
-29.819706 1.366040 0.200010 0.732326
-28.875912 3.387753 0.010015 1.000000
-27.850683 5.583913 -0.000010 0.330358
-27.118214 7.152946 0.000004 0.335836
-26.578590 8.308880 0.000002 0.335409
-37.640133 -14.831156 10.424418 0.624033
-37.903717 -15.385645 9.396454 0.636942
-38.020161 -15.630604 8.280644 0.668544
-38.020081 -15.630440 7.120137 0.574258
-38.020039 -15.630352 5.970869 0.656764
-38.020077 -15.630428 4.830245 0.583169
-38.020195 -15.630674 3.695732 0.638926
-38.020184 -15.630651 2.564840 0.660655
-38.020184 -15.630655 1.435160 0.613886
-38.020187 -15.630659 0.304268 0.625330
-33.672958 -6.485516 0.000003 0.535958
-29.918522 1.412591 0.200010 0.710582
-28.960629 3.427689 0.010019 1.000000
-27.920101 5.616612 -0.000010 0.336934
-27.176697 7.180494 0.000003 0.337835
-26.629015 8.332636 0.000002 0.339651
-37.894218 -14.817181 10.448790 0.654475
-38.020161 -15.077421 9.347307 0.642084
-38.020054 -15.077198 8.189842 0.619547
-38.019989 -15.077070 7.046120 0.667643
-37.990288 -15.015688 5.905632 0.678431
-37.990288 -15.015692 4.783740 0.678431
-38.020206 -15.077513 3.671229 0.548318
-38.020195 -15.077488 2.556679 0.631327
-38.020195 -15.077492 1.443322 0.625330
-38.020195 -15.077492 0.328771 0.624170
-33.826500 -6.411873 0.000003 0.533059
-30.017010 1.459835 0.200010 0.724712
-29.074520 3.407345 -0.000008 0.342229
-27.989290 5.649803 -0.000010 0.335424
-27.234987 7.208452 0.000003 0.336141
-26.679276 8.356745 0.000002 0.332158
-38.020157 -14.539974 10.400232 0.616068
-38.020042 -14.539736 9.242941 0.632792
-38.019958 -14.539568 8.101929 0.623423
-38.019901 -14.539454 6.974452 0.635981
-37.935127 -14.367350 5.835824 0.556619
-37.935123 -14.367350 4.733985 0.535271
-38.020164 -14.539982 3.647499 0.657160
-38.020184 -14.540030 2.548775 0.683482
-37.990314 -14.479387 1.452331 0.678431
-37.931156 -14.359295 0.362395 0.543694
-33.979511 -6.337156 0.000003 0.546212
-30.115168 1.507762 0.200010 0.731106
-29.117317 3.533476 0.014019 0.710109
-28.058245 5.683474 -0.000009 0.341299
-27.293079 7.236817 0.000003 0.330083
-26.729364 8.381203 0.000003 0.337667
-38.020042 -14.017315 10.282979 0.646036
-37.990334 -13.958046 9.127578 0.678431
-37.990330 -13.958046 8.004772 0.678431
-38.019836 -14.016903 6.905032 0.665278
-37.990318 -13.958021 5.796479 0.678431
-37.990314 -13.958015 4.705940 0.678431
-38.020119 -14.017473 3.624511 0.676539
-38.020195 -14.017618 2.541120 0.636179
-37.990307 -13.957994 1.459972 0.678431
-37.990307 -13.957994 0.378758 0.701778
-34.132008 -6.261379 0.000003 0.545647
-30.212988 1.556373 0.200010 0.708385
-29.117317 3.742044 0.041725 0.671824
-28.126965 5.717622 -0.000009 0.328725
-27.350973 7.265588 0.000003 0.335286
-26.779282 8.406010 0.000002 0.333349
-38.019966 -13.509090 10.169362 0.641703
-37.990318 -13.450972 9.029842 0.678431
-37.990322 -13.450975 7.922434 0.678431
-38.019768 -13.508709 6.837755 0.638468
-37.992622 -13.455488 5.745007 0.807843
-37.992622 -13.455492 4.669256 0.678431
-38.020119 -13.509399 3.602235 0.615732
-38.020203 -13.509563 2.533700 0.612467
-37.990299 -13.450933 1.467377 0.678431
-37.990303 -13.450939 0.400987 0.678431
-34.283974 -6.184538 0.000003 0.529458
-30.310467 1.605665 0.200010 0.714992
-29.117317 3.944881 0.068576 0.707652
-28.195444 5.752249 -0.000009 0.335134
-27.408665 7.294759 0.000003 0.334417
-26.829025 8.431162 0.000003 0.340551
-38.019890 -13.014601 10.059213 0.626627
-37.990299 -12.957573 8.935081 0.678431
-37.990295 -12.957563 7.842598 0.678431
-38.019699 -13.014233 6.772527 0.630045
-37.990276 -12.957527 5.693944 0.669764
-37.990280 -12.957531 4.632860 0.659831
-38.020081 -13.014965 3.580636 0.618494
-38.020210 -13.015217 2.526507 0.549386
-37.990292 -12.957556 1.474556 0.678431
-37.990292 -12.957556 0.422540 0.678431
-34.435394 -6.106634 0.000003 0.547692
-30.407598 1.655641 0.200010 0.730587
-29.117317 4.142244 0.094609 0.762798
-28.263680 5.787354 -0.000009 0.336095
-27.466150 7.324335 0.000003 0.339437
-26.878592 8.456665 0.000003 0.341802
-37.118641 -10.825785 9.468763 0.635294
-37.922523 -12.348902 8.811818 0.739544
-37.922516 -12.348892 7.738753 0.567208
-38.019650 -12.532930 6.709269 0.653544
-37.990314 -12.477345 5.645002 0.678431
-37.990314 -12.477345 4.597977 0.678431
-38.020077 -12.533737 3.559690 0.651743
-38.020222 -12.534010 2.519530 0.537362
-38.020233 -12.534031 1.480469 0.594827
-38.020233 -12.534029 0.440294 0.661234
-34.586262 -6.027674 0.000003 0.546334
-30.504381 1.706285 0.200010 0.733593
-29.117317 4.334360 0.119858 0.716213
-28.331665 5.822938 -0.000009 0.336828
-27.523428 7.354309 0.000003 0.340764
-26.927979 8.482510 0.000003 0.342626
-37.193699 -10.525465 9.411192 0.758328
-37.118649 -10.385639 8.355935 0.661662
-38.019600 -12.064184 7.701322 0.619867
-38.019611 -12.064205 6.647888 0.574884
-37.990280 -12.009554 5.597496 0.678431
-37.990280 -12.009556 4.564116 0.678431
-38.020081 -12.065077 3.539366 0.575601
-38.034729 -12.092371 2.513262 0.579034
-38.034729 -12.092369 1.486738 0.635370
-38.034729 -12.092373 0.459112 0.580377
-34.736584 -5.947666 0.000003 0.537102
-30.600803 1.757615 0.200011 0.698497
-29.117317 4.521464 0.144358 0.672068
-28.399406 5.858994 -0.000008 0.341222
-27.580498 7.384683 0.000003 0.334005
-26.977184 8.508701 0.000003 0.332570
-37.439198 -10.544127 9.444574 0.951049
-37.118641 -9.956785 8.274476 0.654902
-38.019520 -11.607437 7.628227 0.664485
-38.019566 -11.607519 6.588307 0.594980
-37.990295 -11.553888 5.551395 0.678431
-37.990295 -11.553890 4.531259 0.678431
-38.020084 -11.608467 3.519638 0.627420
-38.284187 -12.092379 2.515205 0.611963
-38.284187 -12.092379 1.484794 0.599008
-38.284187 -12.092379 0.453279 0.594949
-34.886337 -5.866615 0.000003 0.545052
-30.696867 1.809607 0.200011 0.709026
-29.117317 4.703761 0.168139 0.691432
-28.466888 5.895520 -0.000008 0.333837
-27.637350 7.415457 0.000003 0.331838
-27.026207 8.535233 0.000003 0.342199
-37.687077 -10.563215 9.478699 0.936339
-37.316174 -9.894764 8.283309 0.513161
-37.118645 -9.538771 7.219424 0.653178
-38.019485 -11.162294 6.530442 0.567864
-38.019623 -11.162537 5.513579 0.682277
-38.019794 -11.162849 4.504333 0.622873
-38.020073 -11.163349 3.500479 0.613581
-38.535564 -12.092381 2.517189 0.561349
-38.535564 -12.092381 1.482811 0.596674
-38.535561 -12.092377 0.447325 0.577310
-35.035538 -5.784529 0.000001 0.553521
-30.792566 1.862276 0.200011 0.697826
-29.117317 4.881459 0.191233 0.743160
-28.534119 5.932517 -0.000008 0.339513
-27.693989 7.446625 0.000003 0.331685
-27.075043 8.562107 0.000002 0.338552
-37.937386 -10.582718 9.513575 0.887037
-37.558357 -9.910725 8.311855 0.916640
-37.244915 -9.355007 7.201459 0.647059
-38.019409 -10.728144 6.474234 0.649897
-38.019573 -10.728436 5.469993 0.614847
-38.019798 -10.728828 4.473276 0.612207
-38.020050 -10.729280 3.481869 0.563485
-38.788891 -12.092390 2.519212 0.606271
-38.788891 -12.092388 1.480788 0.627085
-38.788891 -12.092392 0.441248 0.608682
-35.184151 -5.701395 0.000001 0.540169
-30.887897 1.915604 0.200011 0.694835
-29.162523 4.974590 0.200015 0.678157
-28.601086 5.969986 -0.000008 0.338827
-27.750408 7.478188 0.000003 0.343297
-27.123690 8.589321 0.000002 0.345495
-38.190178 -10.602633 9.549211 0.882673
-37.802868 -9.927017 8.341020 0.917098
-37.459103 -9.327368 7.216352 0.677668
-38.019363 -10.304663 6.419624 0.651133
-38.019562 -10.305016 5.427649 0.640299
-38.019802 -10.305429 4.443096 0.605539
-38.020035 -10.305840 3.463785 0.534340
-37.952095 -10.187323 2.485344 0.669749
-39.044220 -12.092396 1.478722 0.669703
-39.044220 -12.092398 0.435048 0.642786
-35.332172 -5.617216 0.000001 0.542977
-30.982849 1.969604 0.200011 0.705165
-29.236166 5.016465 0.200015 0.709606
-28.667793 6.007916 -0.000008 0.337835
-27.806604 7.510144 0.000003 0.335515
-27.172146 8.616877 0.000003 0.329732
-38.445557 -10.623007 9.585638 0.788464
-38.049881 -9.943840 8.370859 0.934432
-37.679211 -9.307589 7.233276 0.623789
-38.019333 -9.891401 6.366545 0.647456
-38.019569 -9.891808 5.386492 0.662730
-38.019806 -9.892210 4.413761 0.639841
-38.020035 -9.892607 3.446208 0.675212
-38.039425 -9.925888 2.482355 0.667399
-39.141624 -11.817801 1.481815 0.586648
-39.141624 -11.817797 0.444333 0.678676
-35.479610 -5.532011 0.000001 0.543374
-31.077427 2.024260 0.200011 0.691646
-29.309513 5.058852 0.200015 0.718105
-28.734230 6.046316 -0.000007 0.336507
-27.862579 7.542491 0.000003 0.336843
-27.220407 8.644769 0.000003 0.326284
-38.703556 -10.643812 9.622859 0.553597
-38.299728 -9.961647 8.401503 0.892409
-37.920639 -9.321264 7.257668 0.849134
-38.126896 -9.669687 6.346266 0.662226
-38.126892 -9.669682 5.370710 0.650263
-38.126892 -9.669680 4.402473 0.650263
-38.126892 -9.669676 3.439423 0.608927
-38.278564 -9.925894 2.484338 0.664836
-39.141403 -11.383450 1.487945 0.656657
-39.141399 -11.383444 0.462738 0.524346
-35.626442 -5.445774 0.000001 0.542626
-31.171616 2.079578 0.200011 0.712978
-29.382561 5.101754 0.200015 0.713863
-28.772356 6.132547 0.010010 1.000000
-27.918324 7.575231 0.000003 0.332067
-27.268471 8.672997 0.000003 0.348424
-38.964165 -10.664915 9.660849 0.919249
-38.552357 -9.980211 8.432904 0.896208
-38.164536 -9.335396 7.282618 0.902083
-37.118671 -7.596470 6.005539 0.669886
-38.365589 -9.669680 5.384781 0.592813
-38.365589 -9.669678 4.412502 0.537911
-38.365585 -9.669678 3.445431 0.624430
-38.519684 -9.925892 2.486359 0.665248
-39.147896 -10.970400 1.493695 0.451377
-39.107529 -10.903282 0.483848 0.127184
-35.772671 -5.358519 0.000002 0.543618
-31.265415 2.135554 0.200012 0.696437
-29.455309 5.145163 0.200015 0.681682
-28.837940 6.171643 0.010003 1.000000
-27.973839 7.608357 0.000003 0.337469
-27.316339 8.701560 0.000003 0.338674
-39.227287 -10.686041 9.699541 0.939376
-38.807751 -9.999392 8.465042 0.838239
-37.118668 -7.234890 6.857128 0.613993
-37.118675 -7.234905 5.959675 0.663890
-38.606300 -9.669683 5.399136 0.647395
-38.606300 -9.669680 4.422734 0.563073
-38.606297 -9.669676 3.451561 0.703426
-38.762844 -9.925894 2.488421 0.654902
-39.147892 -10.556097 1.499493 0.513893
-39.107529 -10.490034 0.501209 0.094118
-35.918293 -5.270248 0.000001 0.540459
-31.358826 2.192181 0.200012 0.676875
-29.527752 5.189079 0.200015 0.701610
-28.903263 6.211173 0.009993 1.000000
-28.029121 7.641869 0.000003 0.333181
-27.364006 8.730457 0.000003 0.338109
-39.495739 -10.711645 9.740261 0.948043
-39.065720 -10.018757 8.497818 0.882094
-37.118668 -6.881479 6.802371 0.623529
-37.118671 -6.881485 5.915034 0.654902
-38.849079 -9.669685 5.413781 0.565270
-38.849079 -9.669683 4.433173 0.653605
-38.849072 -9.669674 3.457815 0.561883
-39.008087 -9.925896 2.490526 0.662715
-39.144855 -10.146267 1.505229 0.893492
-39.144852 -10.146265 0.514628 0.450980
-36.063293 -5.180958 0.000001 0.550393
-31.451841 2.249454 0.200011 0.722972
-29.599886 5.233502 0.200015 0.757763
-28.997255 6.204516 -0.000006 0.329747
-28.084169 7.675769 0.000003 0.340429
-27.411472 8.759685 0.000003 0.330297
-39.765392 -10.734884 9.781014 0.820966
-37.118671 -6.535944 7.637073 0.647059
-37.243240 -6.733568 6.791573 0.634302
-37.243042 -6.733257 5.906176 0.652094
-39.093964 -9.669683 5.428720 0.522957
-39.093960 -9.669680 4.443820 0.640314
-39.093960 -9.669678 3.464195 0.631891
-39.140404 -9.743362 2.489141 0.619272
-39.140152 -9.742962 1.510866 0.579049
-39.139908 -9.742567 0.531572 0.624384
-36.207661 -5.090654 0.000002 0.537133
-31.544441 2.307393 0.200014 0.699443
-29.671707 5.278426 0.200016 0.677943
-29.062313 6.245210 -0.000006 0.337346
-28.138979 7.710050 0.000003 0.339010
-27.458731 8.789243 0.000003 0.346075
-37.118675 -6.197975 8.466267 0.663844
-37.258202 -6.415945 7.631355 0.654902
-37.461243 -6.733133 6.812777 0.645075
-37.456963 -6.726444 5.922338 0.654902
-39.341019 -9.669689 5.443959 0.654475
-39.341015 -9.669682 4.454682 0.616373
-39.341011 -9.669678 3.470703 0.575341
-39.341011 -9.669674 2.489885 0.639445
-39.341011 -9.669672 1.510116 0.564874
-39.341003 -9.669664 0.529297 0.640620
-36.351398 -4.999350 0.000001 0.547250
-31.636639 2.365973 0.200015 0.730007
-29.743214 5.323850 0.200016 0.741100
-29.113276 6.307930 0.004655 0.737804
-28.193548 7.744714 0.000003 0.332113
-27.505783 8.819130 0.000003 0.333639
-37.193153 -5.981880 8.430893 0.666667
-37.467430 -6.403833 7.653653 0.654185
-37.682278 -6.734360 6.834764 0.656229
-37.672504 -6.719324 5.938781 0.635294
-39.590286 -9.669683 5.459503 0.630732
-39.590286 -9.669683 4.465762 0.643580
-39.590286 -9.669678 3.477342 0.580713
-39.590279 -9.669672 2.492095 0.637354
-39.590279 -9.669670 1.507905 0.627008
-39.590275 -9.669666 0.522659 0.617029
-36.494499 -4.907051 0.000001 0.543374
-31.728418 2.425203 0.200018 0.694652
-29.814404 5.369769 0.200016 0.722271
-29.112541 6.449531 0.026379 0.758404
-28.247875 7.779757 0.000003 0.337652
-27.552624 8.849346 0.000003 0.330938
-37.399380 -5.968958 8.456488 0.623529
-37.678429 -6.391766 7.676441 0.647059
-37.902683 -6.731552 6.856310 0.665446
-37.890404 -6.712946 5.955701 0.646326
-39.841827 -9.669682 5.475358 0.552697
-39.841835 -9.669687 4.477062 0.602762
-39.841827 -9.669682 3.484113 0.644266
-39.841820 -9.669670 2.494350 0.556878
-39.841820 -9.669668 1.505649 0.599878
-39.841820 -9.669666 0.515888 0.567636
-36.636944 -4.813742 0.000001 0.535500
-31.819786 2.485068 0.200019 0.711940
-29.885269 5.416189 0.200016 0.677455
-29.111853 6.588045 0.047531 0.703059
-28.301952 7.815180 0.000004 0.329244
-27.599255 8.879889 0.000003 0.328161
-37.607109 -5.955711 8.482538 0.638392
-37.890976 -6.379360 7.699632 0.639735
-38.020161 -6.572153 6.843997 0.684245
-38.020157 -6.572147 5.948968 0.573098
-38.020157 -6.572147 5.062589 0.625193
-38.020157 -6.572147 4.182861 0.524300
-38.020161 -6.572151 3.307844 0.626917
-38.020180 -6.572180 2.435637 0.619471
-38.020180 -6.572180 1.564363 0.613977
-38.020180 -6.572184 0.692154 0.622370
-36.778736 -4.719450 0.000001 0.536233
-31.910744 2.545548 0.200019 0.721462
-29.955811 5.463097 0.200016 0.703197
-29.111147 6.723673 0.068152 0.669841
-28.355783 7.850978 0.000004 0.340124
-27.645668 8.910756 0.000003 0.346029
-37.813965 -5.938581 8.507977 0.648173
-38.020168 -6.241718 7.690606 0.517617
-38.020119 -6.241648 6.794152 0.651759
-38.020115 -6.241638 5.908330 0.533410
-38.020119 -6.241646 5.031074 0.606561
-38.020119 -6.241644 4.160398 0.591394
-38.020176 -6.241730 3.294391 0.677760
-38.020187 -6.241745 2.431156 0.574929
-38.020187 -6.241743 1.568844 0.523964
-38.020184 -6.241739 0.705608 0.565011
-36.919868 -4.624163 0.000002 0.534112
-32.001282 2.606666 0.200018 0.724651
-30.026020 5.510503 0.200016 0.718151
-29.110451 6.856483 0.088251 0.753689
-28.409363 7.887152 0.000003 0.340459
-27.691868 8.941946 0.000003 0.335348
-38.020191 -5.918026 8.532932 0.695933
-38.020119 -5.917923 7.632914 0.645258
-38.020081 -5.917864 6.745550 0.659083
-38.020073 -5.917854 5.868709 0.586603
-38.020073 -5.917856 5.000346 0.563684
-38.020134 -5.917942 4.138505 0.694713
-38.020195 -5.918034 3.281274 0.623011
-38.020191 -5.918026 2.426786 0.585321
-38.020191 -5.918028 1.573214 0.609674
-38.020187 -5.918024 0.718727 0.599924
-37.060329 -4.527897 0.000002 0.542840
-32.091385 2.668414 0.200018 0.699687
-30.095898 5.558393 0.200016 0.775723
-29.109806 6.986506 0.107833 0.743130
-28.462688 7.923698 0.000004 0.344289
-27.737846 8.973457 0.000003 0.336583
-38.020142 -5.600698 8.467672 0.652064
-38.020069 -5.600595 7.576644 0.659434
-38.020042 -5.600557 6.698149 0.523766
-38.020035 -5.600548 5.830067 0.666697
-38.020081 -5.600611 4.970386 0.584619
-38.020187 -5.600761 4.117158 0.705364
-38.020206 -5.600788 3.268480 0.667826
-38.020195 -5.600777 2.422525 0.615000
-38.020195 -5.600777 1.577475 0.678569
-38.020195 -5.600777 0.731520 0.624308
-37.200127 -4.430656 0.000001 0.530098
-33.178921 1.306990 0.000001 0.543694
-30.165442 5.606771 0.200016 0.709606
-29.109129 7.113968 0.126942 0.694316
-28.515760 7.960617 0.000004 0.321248
-27.783607 9.005289 0.000003 0.315160
-38.020096 -5.289642 8.404016 0.614801
-38.020020 -5.289536 7.521757 0.692653
-38.019993 -5.289503 6.651908 0.548379
-37.990318 -5.247782 5.784778 0.678431
-37.990318 -5.247782 4.935253 0.709804
-38.020218 -5.289820 4.096332 0.538231
-38.020206 -5.289801 3.256000 0.553201
-38.020199 -5.289791 2.418367 0.555550
-38.020199 -5.289787 1.581633 0.563195
-38.020199 -5.289789 0.744001 0.655299
-37.339233 -4.332443 0.000001 0.531899
-33.278069 1.376995 0.000001 0.547707
-30.234646 5.655630 0.200016 0.700359
-29.108505 7.238830 0.145567 0.670207
-28.568569 7.997905 0.000004 0.338018
-27.829142 9.037439 0.000002 0.342336
-38.020042 -4.984631 8.341906 0.581949
-38.019974 -4.984535 7.468205 0.718654
-38.019958 -4.984514 6.606797 0.617075
-37.990318 -4.943449 5.748082 0.678431
-37.990314 -4.943449 4.906794 0.678431
-38.020195 -4.984837 4.076004 0.577615
-38.020206 -4.984859 3.243823 0.581415
-38.020203 -4.984852 2.414312 0.547524
-38.020203 -4.984848 1.585689 0.605020
-38.020203 -4.984848 0.756178 0.682673
-37.477646 -4.233253 0.000001 0.535698
-33.376728 1.447684 0.000000 0.545007
-30.303509 5.704971 0.200015 0.692302
-29.107845 7.361306 0.163752 0.812589
-28.621120 8.035559 0.000003 0.327352
-27.874453 9.069906 0.000002 0.344274
-38.019997 -4.685463 8.281293 0.606699
-38.019920 -4.685366 7.415941 0.718334
-38.019920 -4.685366 6.562769 0.689143
-37.990311 -4.644945 5.712271 0.678431
-37.990311 -4.644941 4.879020 0.678431
-38.020157 -4.685686 4.056164 0.594766
-38.020180 -4.685715 3.231936 0.622522
-38.020195 -4.685741 2.410353 0.638514
-37.990288 -4.644911 1.590476 0.678431
-37.990288 -4.644913 0.770549 0.678431
-37.615368 -4.133106 0.000001 0.544640
-33.474884 1.519073 0.000001 0.536645
-30.372021 5.754796 0.200015 0.712062
-29.106184 7.482794 0.181808 0.686809
-28.673405 8.073580 0.000003 0.333898
-27.919533 9.102691 0.000002 0.350561
-38.019947 -4.391953 8.222127 0.680934
-38.019886 -4.391867 7.364930 0.592004
-38.019890 -4.391872 6.519795 0.652552
-37.990307 -4.352074 5.677314 0.678431
-37.990303 -4.352072 4.851910 0.679896
-38.020126 -4.392189 4.036798 0.582238
-38.020149 -4.392218 3.220333 0.653452
-38.020199 -4.392288 2.406488 0.584756
-37.990288 -4.352047 1.594332 0.678431
-37.990288 -4.352053 0.782125 0.678431
-37.752384 -4.031998 0.000001 0.546929
-33.572544 1.591138 0.000001 0.548379
-30.440189 5.805092 0.200015 0.757122
-29.104155 7.602458 0.199547 0.673671
-28.725422 8.111965 0.000004 0.325780
-27.964386 9.135788 0.000003 0.329229
-37.990292 -4.064636 8.152043 0.678431
-38.019848 -4.103823 7.315126 0.591363
-38.019855 -4.103832 6.477838 0.588281
-37.990311 -4.064661 5.643187 0.678431
-37.990311 -4.064661 4.825443 0.678431
-38.020096 -4.104155 4.017891 0.732219
-38.020130 -4.104198 3.209006 0.551095
-38.020199 -4.104288 2.402716 0.551522
-37.990288 -4.064631 1.598097 0.678431
-37.990288 -4.064632 0.793428 0.678431
-37.888691 -3.929930 0.000002 0.541955
-33.669701 1.663883 0.000001 0.523857
-30.508001 5.855868 0.200015 0.741833
-29.157944 7.645863 0.200003 0.751064
-28.777172 8.150714 0.000004 0.344152
-28.009007 9.169199 0.000003 0.334661
-37.990295 -3.782501 8.095772 0.678431
-38.019810 -3.821072 7.266493 0.642741
-38.019825 -3.821087 6.436868 0.538903
-37.990314 -3.782526 5.609862 0.678431
-37.990318 -3.782528 4.799599 0.678431
-38.020065 -3.821404 3.999429 0.534371
-38.020126 -3.821484 3.197947 0.592584
-38.020199 -3.821577 2.399033 0.630808
-37.990292 -3.782494 1.601773 0.678431
-37.990292 -3.782492 0.804465 0.678431
-38.020187 -3.821562 0.000555 0.750576
-33.766346 1.737302 0.000000 0.537453
-30.575459 5.907114 0.200014 0.728405
-29.212934 7.687642 0.200003 0.712291
-28.800508 8.226595 0.010004 1.000000
-28.053391 9.202919 0.000003 0.332143
-37.990299 -3.505461 8.040810 0.678431
-38.019779 -3.543432 7.218995 0.633051
-38.019787 -3.543446 6.396851 0.639887
-38.009853 -3.530651 5.582040 0.666239
-38.009850 -3.530645 4.778019 0.673045
-38.020061 -3.543797 3.981400 0.604318
-38.020134 -3.543890 3.187146 0.696986
-38.020203 -3.543974 2.395435 0.711467
-37.990292 -3.505449 1.605363 0.678431
-37.990295 -3.505455 0.815244 0.678431
-38.020187 -3.543959 0.018583 0.680629
-33.862473 1.811402 0.000001 0.555001
-30.642557 5.958829 0.200014 0.685649
-29.267632 7.729806 0.200004 0.681514
-28.851463 8.265855 0.010002 1.000000
-28.097542 9.236948 0.000002 0.333593
-37.990303 -3.233370 7.987119 0.678431
-38.019737 -3.270741 7.172594 0.516274
-38.019749 -3.270754 6.357760 0.632395
-38.019844 -3.270872 5.552596 0.568261
-38.019958 -3.271019 4.755208 0.518807
-38.020050 -3.271137 3.963787 0.582269
-38.020138 -3.271248 3.176594 0.708446
-38.020203 -3.271328 2.391920 0.683879
-37.990295 -3.233358 1.608871 0.678431
-37.990295 -3.233362 0.825774 0.678431
-38.020191 -3.271315 0.036193 0.548363
-33.958084 1.886165 0.000001 0.542290
-30.709290 6.011012 0.200014 0.670710
-29.322037 7.772346 0.200004 0.756817
-28.902149 8.305458 0.009997 1.000000
-28.141451 9.271284 0.000003 0.332921
-37.990303 -2.966045 7.934660 0.678431
-38.019707 -3.002848 7.127261 0.559411
-38.019714 -3.002857 6.319569 0.521187
-37.990314 -2.966061 5.514452 0.678431
-37.990311 -2.966057 4.725604 0.678431
-38.020046 -3.003273 3.946580 0.553063
-38.020126 -3.003374 3.166285 0.517647
-38.020203 -3.003469 2.388486 0.632609
-37.990295 -2.966036 1.612298 0.678431
-37.990295 -2.966038 0.836063 0.678431
-38.020195 -3.003456 0.053400 0.646799
-34.053169 1.961596 0.000000 0.518059
-30.775660 6.063660 0.200014 0.680659
-29.376141 7.815269 0.200004 0.723552
-28.981422 8.309291 0.000004 0.334142
-28.185120 9.305929 0.000003 0.345174
-37.990299 -2.703354 7.883396 0.678431
-38.019672 -2.739594 7.082961 0.694881
-38.019680 -2.739599 6.282246 0.536110
-37.990311 -2.703367 5.484094 0.678431
-37.990311 -2.703367 4.702059 0.678431
-38.020050 -2.740057 3.929766 0.647364
