# This PCD file was generated using the MATLABÂ® pcwrite function
# from Computer Vision ToolboxÂ®.
# .PCD v.7 - Point Cloud Data file format
VERSION .7
FIELDS x y z intensity
SIZE 4 4 4 4
TYPE F F F F
COUNT 1 1 1 1
WIDTH 1183
HEIGHT 1
VIEWPOINT 0 0 0 1 0 0 0
POINTS 1183
DATA ascii
164.324417 133.423538 5.516641 0.398840
164.324417 133.423538 4.727302 0.398337
164.336075 133.333878 3.951299 0.678431
164.324417 133.423538 3.164663 0.448035
164.324417 133.423538 2.387944 0.391608
164.324417 133.423538 1.612056 0.393072
164.324417 133.423538 0.835336 0.406485
164.324417 133.423538 0.056114 0.407935
163.509491 139.692719 -0.000022 0.533394
163.006454 143.562485 -0.000017 0.529030
162.685318 146.032990 -0.000014 0.493431
162.462112 147.750076 -0.000011 0.570291
162.297668 149.015152 -0.000009 0.544457
164.157669 133.423538 7.933119 0.450980
164.157669 133.423538 7.115761 0.401389
164.168839 133.332657 6.326539 0.678431
164.157669 133.423538 5.513539 0.323049
164.157669 133.423538 4.724896 0.340673
164.168839 133.332642 3.949678 0.678431
164.157669 133.423538 3.163636 0.418189
164.157669 133.423538 2.387601 0.408850
164.157669 133.423538 1.612399 0.380362
164.157669 133.423538 0.836364 0.419608
164.157669 133.423538 0.057829 0.393622
163.389069 139.677490 -0.000022 0.545632
162.913071 143.550674 -0.000017 0.562539
162.609177 146.023361 -0.000014 0.575784
162.397980 147.741959 -0.000011 0.541421
162.242355 149.008148 -0.000010 0.525582
163.991196 133.423538 7.928178 0.415427
163.991196 133.423538 7.111500 0.388693
164.001877 133.331421 6.323160 0.678431
163.991211 133.423538 5.510612 0.394995
163.991211 133.423538 4.722625 0.437659
164.001877 133.331421 3.948155 0.678431
163.991196 133.423538 3.162666 0.406363
163.991196 133.423538 2.387279 0.414099
163.991196 133.423538 1.612721 0.424155
163.991196 133.423538 0.837334 0.392630
163.991196 133.423538 0.059448 0.423835
163.268555 139.663116 -0.000022 0.553170
162.819611 143.539520 -0.000017 0.533684
162.532990 146.014267 -0.000014 0.530312
162.333786 147.734299 -0.000011 0.558129
162.187012 149.001541 -0.000010 0.556817
163.825012 133.423553 7.923533 0.421775
163.825012 133.423538 7.107494 0.401770
163.835159 133.330215 6.319995 0.678431
163.825012 133.423538 5.507861 0.415381
163.825012 133.423538 4.720492 0.432105
163.835159 133.330215 3.946729 0.678431
163.825012 133.423538 3.161756 0.428702
163.825012 133.423538 2.386976 0.411597
163.825012 133.423538 1.613025 0.430518
163.825012 133.423538 0.838244 0.450309
163.825012 133.423538 0.060969 0.405447
163.147949 139.649567 -0.000022 0.539513
162.726059 143.529022 -0.000017 0.543832
162.456726 146.005707 -0.000014 0.526268
162.269531 147.727097 -0.000011 0.540749
162.131622 148.995331 -0.000010 0.540017
163.659058 133.423538 7.919184 0.423087
163.659058 133.423538 7.103744 0.405295
163.662766 133.387131 6.306412 0.482963
163.659058 133.423538 5.505285 0.419547
163.659058 133.423538 4.718495 0.397314
163.662766 133.387131 3.940608 0.498863
163.659058 133.423538 3.160902 0.445167
163.659058 133.423538 2.386691 0.438087
163.659058 133.423538 1.613309 0.407065
163.659058 133.423538 0.839098 0.395773
163.659058 133.423538 0.062392 0.412253
163.027237 139.636871 -0.000023 0.544656
162.632446 143.519165 -0.000017 0.521431
162.380417 145.997681 -0.000014 0.537041
162.205246 147.720322 -0.000011 0.555352
162.076187 148.989487 -0.000010 0.539605
163.493347 133.423553 7.915127 0.429160
163.493347 133.423553 7.100248 0.428931
163.502411 133.327774 6.314311 0.678431
163.493347 133.423538 5.502884 0.419333
163.493347 133.423538 4.716633 0.414893
163.502411 133.327774 3.944167 0.678431
163.493347 133.423538 3.160106 0.434470
163.493347 133.423538 2.386426 0.403922
163.493347 133.423538 1.613574 0.406928
163.493347 133.423538 0.839893 0.409873
163.493347 133.423538 0.063719 0.446082
162.906448 139.625015 -0.000022 0.545800
162.538773 143.509979 -0.000017 0.543511
162.304047 145.990173 -0.000014 0.524376
162.140900 147.714005 -0.000011 0.543328
162.020706 148.984039 -0.000010 0.562448
163.327866 133.423538 7.911369 0.398642
163.327866 133.423538 7.097005 0.417624
163.336349 133.326553 6.311789 0.678431
163.327866 133.423538 5.500656 0.436286
163.327866 133.423538 4.714905 0.409003
163.336349 133.326553 3.943031 0.678431
163.327866 133.423538 3.159369 0.450980
163.327866 133.423538 2.386180 0.407477
163.327866 133.423538 1.613820 0.362112
163.327866 133.423538 0.840630 0.311254
163.327866 133.423538 0.064951 0.309056
162.785568 139.613998 -0.000022 0.543038
162.445038 143.501434 -0.000017 0.531395
162.227631 145.983215 -0.000014 0.522606
162.076523 147.708145 -0.000012 0.565362
161.965195 148.978989 -0.000010 0.544167
163.162567 133.423538 7.907899 0.417334
163.162567 133.423538 7.094013 0.380529
163.170486 133.325348 6.309481 0.678431
163.162567 133.423538 5.498601 0.396262
163.162567 133.423538 4.713311 0.395453
163.170486 133.325348 3.941991 0.678431
163.162567 133.423538 3.158689 0.388647
163.162567 133.423538 2.385954 0.434211
163.162567 133.423538 1.614046 0.405341
163.162567 133.423538 0.841311 0.429160
163.162567 133.423538 0.066086 0.417273
162.664627 139.603821 -0.000022 0.569467
162.351227 143.493546 -0.000017 0.534142
162.151154 145.976776 -0.000014 0.568887
162.012100 147.702728 -0.000011 0.558526
161.909653 148.974319 -0.000010 0.503304
162.997467 133.423538 7.904722 0.405341
162.997467 133.423538 7.091274 0.429541
163.004776 133.324127 6.307384 0.678431
162.997467 133.423523 5.496720 0.414008
162.997467 133.423538 4.711853 0.416938
163.004776 133.324127 3.941046 0.678431
162.997467 133.423538 3.158066 0.377050
162.997467 133.423538 2.385746 0.400336
162.997467 133.423538 1.614254 0.397848
162.997467 133.423538 0.841934 0.416342
162.997467 133.423538 0.067126 0.388052
162.543610 139.594498 -0.000023 0.520729
162.257385 143.486313 -0.000017 0.543053
162.074646 145.970886 -0.000014 0.516182
161.947647 147.697754 -0.000011 0.545190
161.854065 148.970032 -0.000010 0.560555
162.832535 133.423538 7.901836 0.413214
162.832535 133.423538 7.088786 0.416480
162.839233 133.322922 6.305500 0.678431
162.832535 133.423538 5.495011 0.429984
162.832535 133.423538 4.710526 0.402213
162.839233 133.322922 3.940197 0.678431
162.832535 133.423538 3.157499 0.432715
162.832535 133.423538 2.385557 0.388174
162.832535 133.423538 1.614442 0.386114
162.832535 133.423538 0.842500 0.403296
162.832535 133.423538 0.068071 0.377142
162.422531 139.586029 -0.000022 0.540612
162.163483 143.479736 -0.000017 0.528145
161.998108 145.965530 -0.000014 0.514336
161.883148 147.693237 -0.000011 0.543084
161.798462 148.966141 -0.000010 0.531502
162.667755 133.423538 7.899239 0.413230
162.667755 133.423538 7.086547 0.418418
162.669922 133.387131 6.291900 0.480354
162.667755 133.423538 5.493474 0.433433
162.667755 133.423538 4.709334 0.449744
162.669922 133.387146 3.934068 0.496040
162.667755 133.423538 3.156991 0.401434
162.667755 133.423538 2.385389 0.392325
162.667755 133.423538 1.614612 0.415106
162.667755 133.423538 0.843009 0.395178
162.667755 133.423538 0.068921 0.391974
162.301407 139.578384 -0.000023 0.545068
162.069534 143.473816 -0.000018 0.537148
161.921509 145.960693 -0.000014 0.536736
161.818634 147.689178 -0.000012 0.554574
161.742828 148.962631 -0.000010 0.542626
162.503113 133.423538 7.896932 0.378012
162.503113 133.423538 7.084558 0.444907
162.508530 133.320496 6.302364 0.678431
162.503113 133.423538 5.492107 0.445869
162.503113 133.423538 4.708275 0.431098
162.508530 133.320496 3.938784 0.678431
162.503113 133.423538 3.156538 0.380102
162.503113 133.423538 2.385237 0.427375
162.503113 133.423538 1.614763 0.434104
162.503113 133.423538 0.843462 0.426368
162.503113 133.423538 0.069676 0.370916
162.180222 139.571594 -0.000023 0.540154
161.975555 143.468552 -0.000017 0.591134
161.844894 145.956406 -0.000014 0.559564
161.754089 147.685562 -0.000012 0.545251
161.687180 148.959518 -0.000010 0.539437
162.338593 133.423538 7.894915 0.405798
162.338593 133.423538 7.082817 0.420020
162.343338 133.319290 6.301112 0.678431
162.338593 133.423538 5.490913 0.432105
162.338593 133.423538 4.707347 0.401053
162.343338 133.319290 3.938220 0.678431
162.338593 133.423538 3.156142 0.400900
162.338593 133.423538 2.385106 0.406058
162.338593 133.423538 1.614894 0.441794
162.338593 133.423538 0.843858 0.374548
162.338593 133.423538 0.070337 0.384222
162.058990 139.565659 -0.000023 0.552163
161.881546 143.463943 -0.000018 0.552590
161.768250 145.952652 -0.000014 0.538277
161.689514 147.682388 -0.000011 0.524071
161.631500 148.956787 -0.000010 0.568414
162.174179 133.423538 7.893186 0.373205
162.174179 133.423538 7.081326 0.388663
162.178238 133.318039 6.300078 0.678431
162.174179 133.423538 5.489889 0.416022
162.174179 133.423538 4.706554 0.411383
162.178238 133.318039 3.937754 0.678431
162.174179 133.423538 3.155803 0.363287
162.174179 133.423538 2.384992 0.396078
162.174179 133.423538 1.615008 0.398947
162.174179 133.423538 0.844196 0.364279
162.174179 133.423538 0.070902 0.446845
161.937729 139.560562 -0.000023 0.539727
161.787491 143.459991 -0.000018 0.554116
161.691589 145.949432 -0.000014 0.464042
161.624924 147.679688 -0.000011 0.565484
161.575806 148.954437 -0.000010 0.545785
162.009842 133.423538 7.891745 0.384741
162.009842 133.423538 7.080084 0.400824
162.013214 133.316833 6.299246 0.678431
162.009842 133.423538 5.489037 0.377142
162.009842 133.423538 4.705892 0.397070
162.013214 133.316833 3.937379 0.678431
162.009842 133.423538 3.155520 0.419608
162.009842 133.423538 2.384898 0.405402
162.009842 133.423538 1.615102 0.412619
162.009842 133.423538 0.844479 0.379110
162.009842 133.423538 0.071374 0.376379
161.816437 139.556305 -0.000023 0.548592
161.693420 143.456696 -0.000018 0.533593
161.614899 145.946747 -0.000014 0.543908
161.560318 147.677414 -0.000011 0.511025
161.520096 148.952484 -0.000010 0.518853
161.845596 133.423538 7.890591 0.400732
161.845596 133.423538 7.079090 0.382971
161.848236 133.315628 6.298625 0.678431
161.845596 133.423538 5.488352 0.384848
161.845596 133.423538 4.705363 0.335897
161.848236 133.315628 3.937099 0.678431
161.845596 133.423538 3.155294 0.306035
161.845596 133.423538 2.384823 0.402274
161.845596 133.423538 1.615177 0.352575
161.845596 133.423538 0.844705 0.404883
161.845596 133.423538 0.071752 0.409476
161.695114 139.552902 -0.000023 0.525124
161.599335 143.454056 -0.000017 0.546365
161.538193 145.944595 -0.000014 0.525200
161.495697 147.675598 -0.000012 0.564523
161.464386 148.950928 -0.000010 0.522484
161.681381 133.423538 7.889726 0.427100
161.681381 133.423538 7.078344 0.404929
161.682022 133.387131 6.284979 0.481895
161.681381 133.423538 5.487840 0.447242
161.681381 133.423538 4.704965 0.443854
161.682022 133.387131 3.930949 0.504845
161.681381 133.423538 3.155125 0.428702
161.681381 133.423538 2.384767 0.415702
161.681381 133.423523 1.615234 0.405280
161.681381 133.423538 0.844875 0.403632
161.681381 133.423538 0.072035 0.365667
161.573761 139.550354 -0.000023 0.544732
161.505219 143.452072 -0.000018 0.546136
161.461472 145.942978 -0.000014 0.530068
161.431061 147.674240 -0.000012 0.557626
161.408646 148.949753 -0.000010 0.522042
161.517227 133.423538 7.889147 0.431281
161.517227 133.423538 7.077845 0.407843
161.518402 133.313202 6.298011 0.678431
161.517227 133.423538 5.487497 0.406607
161.517227 133.423538 4.704700 0.430594
161.518402 133.313202 3.936822 0.678431
161.517227 133.423538 3.155011 0.419608
161.517227 133.423523 2.384728 0.443824
161.517227 133.423538 1.615271 0.422690
161.517227 133.423538 0.844989 0.413031
161.517227 133.423538 0.072225 0.330480
161.452408 139.548645 -0.000023 0.534356
161.411102 143.450745 -0.000017 0.544198
161.384735 145.941895 -0.000014 0.562493
161.366425 147.673340 -0.000012 0.538216
161.352921 148.948975 -0.000010 0.505913
161.353088 133.423538 7.888855 0.416938
161.353088 133.423538 7.077593 0.418387
161.353500 133.311996 6.298017 0.678431
161.353088 133.423538 5.487324 0.407843
161.353088 133.423538 4.704566 0.401114
161.353500 133.311996 3.936825 0.678431
161.353088 133.423538 3.154954 0.431205
161.353088 133.423538 2.384710 0.407294
161.353088 133.423538 1.615290 0.358221
161.353088 133.423538 0.845046 0.405539
161.353088 133.423538 0.072320 0.328496
161.331039 139.547775 -0.000023 0.528069
161.316986 143.450073 -0.000018 0.545647
161.308014 145.941345 -0.000014 0.534401
161.301773 147.672882 -0.000011 0.564782
161.297180 148.948578 -0.000010 0.521096
161.188965 133.423538 7.888850 0.400854
161.188965 133.423538 7.077588 0.388724
161.188583 133.310791 6.298234 0.678431
161.188965 133.423538 5.487321 0.407843
161.188965 133.423523 4.704563 0.390677
161.188583 133.310791 3.936923 0.678431
161.188965 133.423538 3.154953 0.419608
161.188965 133.423538 2.384709 0.422126
161.188965 133.423538 1.615291 0.336568
161.188965 133.423538 0.845047 0.443091
161.188965 133.423538 0.072321 0.318624
161.209656 139.547760 -0.000023 0.532860
161.222855 143.450073 -0.000018 0.535210
161.231277 145.941345 -0.000014 0.550546
161.237122 147.672867 -0.000012 0.540703
161.241440 148.948563 -0.000010 0.537530
161.024826 133.423538 7.889134 0.396078
161.024826 133.423538 7.077834 0.400198
161.023651 133.309570 6.298660 0.678431
161.024826 133.423538 5.487489 0.416831
161.024826 133.423538 4.704693 0.426184
161.023651 133.309570 3.937115 0.678431
161.024826 133.423523 3.155009 0.393301
161.024826 133.423538 2.384728 0.420249
161.024826 133.423538 1.615272 0.418418
161.024826 133.423538 0.844991 0.379934
161.024826 133.423538 0.072229 0.341024
161.088287 139.548599 -0.000023 0.526085
161.128723 143.450714 -0.000018 0.524590
161.154541 145.941864 -0.000014 0.559518
161.172470 147.673309 -0.000012 0.525048
161.185699 148.948959 -0.000010 0.571115
160.860672 133.423538 7.889702 0.401663
160.860672 133.423538 7.078325 0.396262
160.858673 133.308365 6.299296 0.678431
160.860672 133.423538 5.487827 0.385412
160.860672 133.423523 4.704956 0.379095
160.858673 133.308365 3.937401 0.678431
160.860672 133.423538 3.155119 0.394629
160.860672 133.423523 2.384765 0.393362
160.860672 133.423538 1.615235 0.402853
160.860672 133.423538 0.844879 0.413733
160.860672 133.423538 0.072043 0.367742
160.966934 139.550278 -0.000023 0.543252
161.034607 143.452011 -0.000018 0.521309
161.077805 145.942932 -0.000014 0.569406
161.107834 147.674210 -0.000012 0.536767
161.129959 148.949722 -0.000010 0.534432
160.696472 133.423538 7.890558 0.320775
160.696472 133.423538 7.079062 0.346395
160.695587 133.387131 6.285585 0.483238
160.696472 133.423538 5.488334 0.362768
160.696472 133.423538 4.705348 0.403754
160.695587 133.387131 3.931222 0.487434
160.696472 133.423538 3.155288 0.389685
160.696472 133.423538 2.384821 0.415381
160.696472 133.423523 1.615179 0.411292
160.696472 133.423538 0.844712 0.426139
160.696472 133.423538 0.071762 0.369482
160.845581 139.552811 -0.000023 0.533730
160.940491 143.453979 -0.000018 0.537484
161.001083 145.944534 -0.000014 0.545266
161.043198 147.675552 -0.000012 0.534218
161.074219 148.950882 -0.000010 0.525567
160.532211 133.423538 7.891705 0.414038
160.532211 133.423538 7.080049 0.404791
160.528534 133.305954 6.301198 0.678431
160.532211 133.423523 5.489012 0.389639
160.532211 133.423523 4.705874 0.403098
160.528534 133.305954 3.938258 0.678431
160.532211 133.423523 3.155513 0.377478
160.532211 133.423538 2.384896 0.425254
160.532211 133.423523 1.615104 0.396216
160.532211 133.423523 0.844487 0.398291
160.532211 133.423538 0.071387 0.449485
160.724258 139.556183 -0.000023 0.546090
160.846405 143.456604 -0.000018 0.531212
160.924377 145.946655 -0.000014 0.510689
160.978577 147.677353 -0.000012 0.517769
161.018509 148.952438 -0.000010 0.508751
160.367889 133.423538 7.893136 0.401083
160.367889 133.423538 7.081284 0.417563
160.363342 133.304749 6.302462 0.678431
160.367889 133.423538 5.489859 0.403159
160.367889 133.423538 4.706531 0.408026
160.363342 133.304749 3.938828 0.678431
160.367889 133.423538 3.155794 0.414221
160.367889 133.423538 2.384989 0.421790
160.367889 133.423538 1.615011 0.408576
160.367889 133.423538 0.844207 0.399710
160.367889 133.423538 0.070919 0.422797
160.602966 139.560410 -0.000023 0.534447
160.752335 143.459869 -0.000018 0.540337
160.847687 145.949341 -0.000014 0.519188
160.913971 147.679596 -0.000012 0.521294
160.962799 148.954376 -0.000010 0.521370
160.203476 133.423538 7.894855 0.393729
160.203476 133.423538 7.082767 0.354391
160.198044 133.303528 6.303938 0.678431
160.203476 133.423538 5.490878 0.414557
160.203476 133.423538 4.707322 0.404211
160.198044 133.303528 3.939494 0.678431
160.203476 133.423538 3.156131 0.402823
160.203476 133.423538 2.385102 0.438102
160.203476 133.423538 1.614898 0.401694
160.203476 133.423538 0.843869 0.411872
160.203476 133.423538 0.070355 0.388235
160.481689 139.565475 -0.000023 0.542870
160.658279 143.463806 -0.000018 0.553521
160.771011 145.952545 -0.000014 0.541512
160.849380 147.682297 -0.000012 0.558068
160.907104 148.956711 -0.000010 0.543114
160.038956 133.423538 7.896863 0.387839
160.038956 133.423538 7.084498 0.407843
160.032623 133.302322 6.305626 0.678431
160.038956 133.423538 5.492067 0.403769
160.038956 133.423523 4.708244 0.391623
160.032623 133.302322 3.940254 0.678431
160.038956 133.423538 3.156524 0.395087
160.038956 133.423538 2.385233 0.406027
160.038956 133.423538 1.614767 0.400549
160.038956 133.423538 0.843475 0.407172
160.038956 133.423523 0.069698 0.388739
160.360474 139.571396 -0.000023 0.521706
160.564270 143.468384 -0.000018 0.539925
160.694366 145.956284 -0.000014 0.548531
160.784805 147.685440 -0.000012 0.572610
160.851425 148.959427 -0.000010 0.541009
159.874313 133.423538 7.899162 0.450980
159.874313 133.423538 7.086479 0.419608
159.867050 133.301117 6.307523 0.678431
159.874313 133.423538 5.493428 0.413596
159.874313 133.423538 4.709299 0.368704
159.867050 133.301117 3.941109 0.678431
159.874313 133.423538 3.156975 0.370016
159.874313 133.423538 2.385383 0.354681
159.874313 133.423538 1.614617 0.350545
159.874313 133.423538 0.843024 0.333333
159.874313 133.423523 0.068946 0.348104
160.239288 139.578156 -0.000022 0.532021
160.470276 143.473633 -0.000018 0.541924
160.617752 145.960556 -0.000014 0.542779
160.720261 147.689056 -0.000012 0.532433
160.795776 148.962524 -0.000010 0.552743
159.709549 133.423538 7.901749 0.438132
159.709549 133.423538 7.088709 0.427878
159.704819 133.352386 6.300062 0.410727
159.709534 133.423538 5.494961 0.401709
159.709534 133.423538 4.710486 0.373068
159.704819 133.352386 3.937746 0.410269
159.709534 133.423538 3.157482 0.386786
159.709534 133.423538 2.385551 0.391974
159.709534 133.423538 1.614448 0.428794
159.709534 133.423523 0.842517 0.395148
159.709534 133.423538 0.068099 0.333196
160.118149 139.585770 -0.000022 0.539391
160.376343 143.479538 -0.000018 0.524330
160.541168 145.965363 -0.000014 0.538109
160.655731 147.693100 -0.000012 0.567620
160.740143 148.966019 -0.000010 0.524025
159.544617 133.423538 7.904625 0.400656
159.544617 133.423538 7.091191 0.415381
159.535461 133.298691 6.311955 0.678431
159.544617 133.423523 5.496664 0.405890
159.544617 133.423538 4.711808 0.412940
159.535461 133.298691 3.943106 0.678431
159.544617 133.423538 3.158047 0.405264
159.544617 133.423538 2.385740 0.396399
159.544617 133.423538 1.614260 0.402640
159.544617 133.423538 0.841953 0.405356
159.544617 133.423538 0.067158 0.350439
159.997070 139.594208 -0.000023 0.547478
160.282440 143.486084 -0.000018 0.527169
160.464615 145.970703 -0.000014 0.507591
160.591248 147.697601 -0.000012 0.522194
160.684525 148.969894 -0.000011 0.536202
159.379517 133.423538 7.907795 0.478065
159.379517 133.423538 7.093924 0.411475
159.369385 133.297485 6.314490 0.678431
159.379517 133.423538 5.498540 0.396796
159.379517 133.423523 4.713264 0.406561
159.369385 133.297485 3.944248 0.678431
159.379517 133.423538 3.158668 0.411109
159.379517 133.423523 2.385947 0.401038
159.379517 133.423523 1.614053 0.390082
159.379517 133.423523 0.841331 0.398749
159.379517 133.423538 0.066120 0.377234
159.876053 139.603516 -0.000023 0.535531
160.188583 143.493301 -0.000018 0.521614
160.388107 145.976593 -0.000014 0.530358
160.526779 147.702560 -0.000012 0.524727
160.628952 148.974167 -0.000010 0.488975
159.214233 133.423538 7.911253 0.445472
159.214233 133.423538 7.096908 0.413626
159.203110 133.296280 6.317236 0.678431
159.214233 133.423538 5.500588 0.408286
159.214233 133.423523 4.714852 0.400336
159.203110 133.296280 3.945486 0.678431
159.214233 133.423538 3.159347 0.415564
159.214233 133.423538 2.386173 0.409720
159.214233 133.423538 1.613827 0.393088
159.214233 133.423538 0.840653 0.425818
159.214233 133.423538 0.064988 0.359854
159.755112 139.613647 -0.000023 0.541833
160.094788 143.501160 -0.000018 0.548623
160.311646 145.983002 -0.000014 0.515465
160.462357 147.707962 -0.000012 0.565011
160.573410 148.978836 -0.000010 0.547036
159.048752 133.423538 7.915006 0.445884
159.048752 133.423538 7.100142 0.427680
159.036621 133.295059 6.320199 0.678431
159.048752 133.423538 5.502811 0.411826
159.048752 133.423523 4.716577 0.386664
159.036621 133.295074 3.946820 0.678431
159.048752 133.423538 3.160083 0.388754
159.048752 133.423538 2.386419 0.390723
159.048752 133.423538 1.613582 0.394003
159.048752 133.423538 0.839917 0.401450
159.048752 133.423538 0.063759 0.355917
159.634232 139.624649 -0.000023 0.537652
160.001038 143.509689 -0.000018 0.531106
160.235214 145.989944 -0.000014 0.516136
160.397980 147.713806 -0.000012 0.552819
160.517899 148.983871 -0.000010 0.559426
158.883057 133.423538 7.919052 0.438941
158.883057 133.423538 7.103631 0.397879
158.869888 133.293777 6.323388 0.678431
158.883057 133.423523 5.505207 0.432135
158.883057 133.423538 4.718434 0.408865
158.869888 133.293793 3.948257 0.678431
158.883057 133.423538 3.160877 0.408118
158.883057 133.423538 2.386682 0.396078
158.883057 133.423538 1.613318 0.400122
158.883057 133.423538 0.839123 0.441810
158.883057 133.423538 0.062435 0.376486
159.513443 139.636475 -0.000023 0.547005
159.907364 143.518860 -0.000018 0.522133
160.158844 145.997421 -0.000015 0.537438
160.333633 147.720108 -0.000012 0.544076
160.462418 148.989304 -0.000010 0.534325
158.717117 133.423538 7.923392 0.439780
158.717117 133.423538 7.107373 0.443503
158.698364 133.250839 6.334417 0.338888
158.717117 133.423538 5.507777 0.431373
158.717117 133.423523 4.720427 0.434104
158.698380 133.250839 3.953228 0.337438
158.717117 133.423538 3.161727 0.431373
158.717117 133.423538 2.386966 0.383429
158.717117 133.423538 1.613034 0.376776
158.717117 133.423538 0.838272 0.378897
158.717117 133.423538 0.061015 0.403815
159.392731 139.649139 -0.000023 0.547753
159.813751 143.528687 -0.000018 0.555795
160.082535 146.005432 -0.000015 0.534264
160.269348 147.726868 -0.000012 0.537545
160.406982 148.995132 -0.000010 0.524056
158.550919 133.423538 7.928025 0.440650
158.550919 133.423538 7.111370 0.406561
158.535645 133.291351 6.330388 0.678431
158.550919 133.423523 5.510522 0.432502
158.550919 133.423538 4.722556 0.426810
158.535645 133.291367 3.951411 0.678431
158.550919 133.423538 3.162636 0.443626
158.550919 133.423538 2.387269 0.410391
158.550919 133.423538 1.612731 0.426566
158.550919 133.423538 0.837363 0.419104
158.550919 133.423538 0.059497 0.400076
159.272110 139.662659 -0.000023 0.541527
159.720200 143.539169 -0.000018 0.529030
160.006271 146.013977 -0.000014 0.524697
160.205093 147.734070 -0.000012 0.553521
160.351578 149.001343 -0.000010 0.546166
158.384476 133.423538 7.932959 0.437415
158.384476 133.423538 7.115622 0.392798
158.368103 133.290146 6.334213 0.678431
158.384460 133.423523 5.513443 0.449454
158.384460 133.423523 4.724822 0.437827
158.368103 133.290146 3.953136 0.678431
158.384476 133.423538 3.163604 0.429664
158.384460 133.423538 2.387591 0.395911
158.384460 133.423538 1.612409 0.407843
158.384476 133.423538 0.836396 0.392615
158.384460 133.423538 0.057883 0.389517
159.151596 139.677017 -0.000023 0.531136
159.626740 143.550308 -0.000018 0.553429
159.930069 146.023056 -0.000014 0.535210
160.140900 147.741714 -0.000012 0.541100
160.296234 149.007935 -0.000011 0.540154
158.217728 133.423538 7.938191 0.416480
158.217728 133.423538 7.120132 0.404379
158.200256 133.288940 6.338257 0.678431
158.217728 133.423523 5.516541 0.397543
158.217728 133.423523 4.727224 0.403754
158.200256 133.288940 3.954958 0.678431
158.217728 133.423523 3.164630 0.384833
158.217728 133.423538 2.387933 0.416709
158.217728 133.423538 1.612067 0.412009
158.217728 133.423538 0.835370 0.413626
158.217728 133.423538 0.056170 0.358755
159.031174 139.692230 -0.000023 0.539910
159.533340 143.562088 -0.000018 0.543557
159.853943 146.032669 -0.000014 0.554620
160.076767 147.749802 -0.000012 0.525963
160.240936 149.014908 -0.000010 0.506569
158.050674 133.423538 7.943721 0.397910
158.050674 133.423538 7.124900 0.428336
158.032074 133.287643 6.342534 0.678431
158.050674 133.423523 5.519816 0.363485
158.050674 133.423523 4.729763 0.438727
158.032074 133.287643 3.956885 0.678431
158.050674 133.423538 3.165714 0.401663
158.050674 133.423538 2.388294 0.401083
158.050674 133.423538 1.611706 0.447684
158.050674 133.423538 0.834285 0.423087
158.050674 133.423523 0.054360 0.390997
158.910873 139.708252 -0.000023 0.526406
159.440048 143.574539 -0.000018 0.525658
159.777878 146.042816 -0.000015 0.491371
160.012680 147.758347 -0.000012 0.513832
160.185669 149.022278 -0.000010 0.562966
157.883316 133.423538 7.949550 0.390600
157.883316 133.423538 7.129926 0.431739
157.863571 133.286423 6.347017 0.678431
157.883316 133.423523 5.523268 0.429419
157.883316 133.423523 4.732442 0.406149
157.863571 133.286438 3.958905 0.678431
157.883316 133.423523 3.166858 0.406104
157.883316 133.423538 2.388675 0.415625
157.883316 133.423538 1.611325 0.434104
157.883316 133.423523 0.833142 0.408209
157.883316 133.423538 0.052452 0.372839
158.790680 139.725128 -0.000023 0.547082
159.346832 143.587616 -0.000018 0.545892
159.701889 146.053482 -0.000014 0.542214
159.948669 147.767334 -0.000012 0.577447
160.130478 149.030029 -0.000011 0.558099
157.715622 133.423538 7.955681 0.389654
157.715607 133.423538 7.135214 0.435248
157.694717 133.285217 6.351721 0.678431
157.715607 133.423523 5.526898 0.384207
157.715607 133.423523 4.735257 0.372839
157.694717 133.285217 3.961025 0.678431
157.715607 133.423538 3.168061 0.402701
157.715607 133.423538 2.389075 0.407843
157.715607 133.423523 1.610924 0.394568
157.715607 133.423538 0.831939 0.395132
157.715607 133.423523 0.050444 0.387778
158.670609 139.742859 -0.000023 0.548928
159.253708 143.601364 -0.000018 0.529076
159.625977 146.064682 -0.000014 0.548760
159.884705 147.776779 -0.000012 0.556909
160.075333 149.038162 -0.000010 0.559167
157.547562 133.423538 7.962116 0.407843
157.547562 133.423538 7.140763 0.391485
157.525467 133.283997 6.356647 0.678431
157.547562 133.423523 5.530710 0.421530
157.547562 133.423538 4.738212 0.402991
157.525467 133.283997 3.963245 0.678431
157.547562 133.423538 3.169322 0.436377
157.547562 133.423523 2.389496 0.439078
157.547562 133.423523 1.610504 0.431678
157.547562 133.423523 0.830677 0.407401
157.547562 133.423538 0.048338 0.390005
158.550659 139.761414 -0.000023 0.529931
159.160690 143.615753 -0.000018 0.538445
159.550140 146.076416 -0.000015 0.542153
159.820816 147.786652 -0.000012 0.544594
160.020248 149.046692 -0.000011 0.553887
157.379135 133.423538 7.968858 0.449271
157.379135 133.423538 7.146574 0.406470
157.355835 133.282700 6.361811 0.678431
157.379135 133.423523 5.534703 0.373953
157.379135 133.423523 4.741308 0.388235
157.355835 133.282700 3.965573 0.678431
157.379135 133.423523 3.170645 0.401221
157.379135 133.423538 2.389936 0.396811
157.379135 133.423523 1.610064 0.416373
157.379135 133.423538 0.829355 0.407416
157.379135 133.423523 0.046131 0.385748
158.430847 139.780792 -0.000023 0.537316
159.067764 143.630798 -0.000018 0.540810
159.474380 146.088669 -0.000014 0.563943
159.757004 147.796997 -0.000012 0.529702
159.965225 149.055588 -0.000011 0.564080
157.210312 133.423538 7.975906 0.358724
157.210312 133.423538 7.152652 0.402747
157.185791 133.281479 6.367187 0.678431
157.210312 133.423523 5.538876 0.393744
157.210312 133.423523 4.744545 0.402121
157.185791 133.281479 3.967994 0.678431
157.210312 133.423523 3.172027 0.397864
157.210312 133.423538 2.390397 0.407492
157.210312 133.423538 1.609604 0.411658
157.210312 133.423538 0.827973 0.421347
157.210312 133.423538 0.043824 0.352941
158.311172 139.801025 -0.000023 0.536995
158.974960 143.646484 -0.000018 0.526833
159.398727 146.101456 -0.000014 0.534249
159.693253 147.807770 -0.000012 0.552209
159.910248 149.064880 -0.000011 0.545754
157.041092 133.423538 7.983261 0.385199
157.041092 133.423538 7.158994 0.402884
157.015320 133.280258 6.372787 0.678431
157.041092 133.423523 5.543233 0.382467
157.041092 133.423523 4.747924 0.415915
157.015320 133.280273 3.970518 0.678431
157.041092 133.423523 3.173470 0.427283
157.041092 133.423523 2.390877 0.418509
157.041092 133.423538 1.609123 0.428916
157.041092 133.423523 0.826530 0.428656
157.041092 133.423523 0.041416 0.443397
158.191635 139.822083 -0.000023 0.544350
158.882248 143.662811 -0.000018 0.531884
159.323151 146.114777 -0.000015 0.555886
159.629593 147.818985 -0.000012 0.545220
159.855362 149.074554 -0.000011 0.550362
156.871445 133.423538 7.990928 0.399649
156.871445 133.423538 7.165605 0.399588
156.844391 133.278961 6.378631 0.678431
156.871445 133.423523 5.547771 0.408118
156.871445 133.423523 4.751445 0.445930
156.844406 133.278961 3.973152 0.678431
156.871445 133.423523 3.174973 0.404120
156.871445 133.423523 2.391378 0.427604
156.871429 133.423523 1.608622 0.431342
156.871429 133.423523 0.825026 0.411200
156.871445 133.423538 0.038907 0.405707
158.072250 139.843994 -0.000023 0.539727
158.789673 143.679794 -0.000018 0.545678
159.247665 146.128616 -0.000014 0.545953
159.565994 147.830643 -0.000012 0.530602
159.800537 149.084610 -0.000011 0.573617
156.701340 133.423538 7.998908 0.450980
156.701340 133.423538 7.172484 0.396323
156.685425 133.341553 6.372859 0.332540
156.701340 133.423523 5.552497 0.391699
156.701340 133.423523 4.755109 0.404593
156.685425 133.341553 3.970552 0.330983
156.701340 133.423538 3.176538 0.395392
156.701340 133.423523 2.391899 0.403403
156.701340 133.423523 1.608101 0.411673
156.701340 133.423523 0.823462 0.380209
156.701340 133.423538 0.036295 0.406744
157.953033 139.866714 -0.000023 0.551827
158.697205 143.697418 -0.000018 0.532265
159.172287 146.142990 -0.000015 0.530037
159.502502 147.842758 -0.000012 0.521172
159.745773 149.095047 -0.000010 0.512642
156.530792 133.423538 8.007200 0.397314
156.530792 133.423523 7.179637 0.368505
156.501144 133.276428 6.390994 0.678431
156.530792 133.423523 5.557408 0.400626
156.530792 133.423523 4.758918 0.432822
156.501144 133.276428 3.978723 0.678431
156.530792 133.423523 3.178164 0.415259
156.530792 133.423523 2.392441 0.412802
156.530792 133.423523 1.607559 0.435599
156.530792 133.423523 0.821835 0.420706
156.530792 133.423523 0.033580 0.403616
157.833969 139.890274 -0.000023 0.543923
158.604874 143.715698 -0.000018 0.530449
159.097015 146.157898 -0.000014 0.549493
159.439072 147.855301 -0.000012 0.557351
159.691101 149.105865 -0.000010 0.533257
156.359756 133.423538 8.015811 0.428901
156.359756 133.423538 7.187060 0.389578
156.328781 133.275208 6.397514 0.678431
156.359756 133.423523 5.562507 0.386618
156.359756 133.423523 4.762873 0.385931
156.328781 133.275223 3.981661 0.678431
156.359756 133.423523 3.179853 0.406378
156.359756 133.423523 2.393003 0.395621
156.359756 133.423523 1.606996 0.379324
156.359756 133.423523 0.820147 0.414328
156.359756 133.423538 0.030762 0.407843
157.715073 139.914673 -0.000023 0.537041
158.512650 143.734619 -0.000018 0.535210
159.021851 146.173309 -0.000014 0.539681
159.375748 147.868286 -0.000012 0.538979
159.636490 149.117081 -0.000011 0.557794
156.188217 133.423538 8.024740 0.409537
156.188217 133.423538 7.194758 0.386191
156.155884 133.273895 6.404284 0.678431
156.188217 133.423523 5.567795 0.426596
156.188217 133.423523 4.766973 0.413703
156.155884 133.273911 3.984713 0.678431
156.188217 133.423523 3.181604 0.431312
156.188217 133.423523 2.393587 0.406790
156.188217 133.423523 1.606413 0.405753
156.188217 133.423538 0.818395 0.405310
156.188217 133.423523 0.027839 0.393011
157.596344 139.939896 -0.000023 0.531197
158.420578 143.754181 -0.000018 0.528801
158.946777 146.189255 -0.000014 0.525170
159.312515 147.881729 -0.000012 0.540002
159.581970 149.128662 -0.000010 0.526207
156.016159 133.423538 8.033990 0.397116
156.016159 133.423538 7.202734 0.419883
155.982468 133.272690 6.411274 0.678431
156.016159 133.423523 5.573273 0.425177
156.016159 133.423523 4.771221 0.391943
155.982468 133.272675 3.987863 0.678431
156.016159 133.423523 3.183419 0.409705
156.016159 133.423523 2.394191 0.400519
156.016159 133.423538 1.605809 0.409033
156.016159 133.423538 0.816581 0.394690
156.016159 133.423523 0.024811 0.407477
157.477798 139.965942 -0.000023 0.544915
158.328644 143.774368 -0.000018 0.529107
158.871841 146.205734 -0.000014 0.535866
159.249374 147.895599 -0.000012 0.524330
159.527527 149.140625 -0.000011 0.488579
155.843582 133.423538 8.043564 0.401709
155.843582 133.423538 7.210987 0.383856
155.808456 133.271362 6.418520 0.678431
155.843582 133.423523 5.578941 0.405509
155.843582 133.423523 4.775618 0.390234
155.808456 133.271362 3.991127 0.678431
155.843567 133.423523 3.185296 0.410330
155.843582 133.423523 2.394816 0.401343
155.843582 133.423523 1.605183 0.362036
155.843567 133.423523 0.814704 0.390417
155.843582 133.423538 0.021677 0.377615
157.359451 139.992828 -0.000022 0.538216
158.236862 143.795212 -0.000018 0.542611
158.796997 146.222717 -0.000015 0.541100
159.186325 147.909912 -0.000012 0.522591
159.473160 149.152969 -0.000010 0.539864
155.670425 133.423538 8.053462 0.366186
155.670425 133.423538 7.219524 0.406928
155.661758 133.387131 6.404104 0.514946
155.670425 133.423523 5.584804 0.394949
155.670425 133.423523 4.780165 0.356558
155.661758 133.387131 3.984631 0.527779
155.670425 133.423538 3.187237 0.412467
155.670425 133.423523 2.395463 0.401892
155.670425 133.423523 1.604537 0.411383
155.670425 133.423523 0.812762 0.396216
155.670425 133.423538 0.018437 0.445716
157.241272 140.020523 -0.000023 0.537194
158.145218 143.816711 -0.000017 0.557885
158.722290 146.240234 -0.000014 0.527443
159.123383 147.924683 -0.000012 0.502373
159.418884 149.165695 -0.000010 0.548882
155.496704 133.423538 8.063689 0.395575
155.496704 133.423538 7.228343 0.402029
155.458725 133.268829 6.433710 0.678431
155.496704 133.423523 5.590859 0.405997
155.496704 133.423523 4.784862 0.445197
155.458725 133.268829 3.997972 0.678431
155.496704 133.423523 3.189244 0.428061
155.496704 133.423523 2.396132 0.398108
155.496704 133.423523 1.603869 0.391714
155.496704 133.423523 0.810756 0.417212
155.496704 133.423538 0.015088 0.403067
157.123306 140.049042 -0.000023 0.538827
158.053726 143.838837 -0.000018 0.540444
158.647705 146.258270 -0.000015 0.552438
159.060547 147.939865 -0.000013 0.548974
159.364716 149.178787 -0.000011 0.572152
155.322388 133.423538 8.074249 0.406378
155.322388 133.423538 7.237447 0.396597
155.282913 133.267502 6.441678 0.678431
155.322388 133.423523 5.597113 0.407401
155.322388 133.423523 4.789711 0.404257
155.282928 133.267517 4.001563 0.678431
155.322388 133.423523 3.191314 0.399481
155.322388 133.423538 2.396821 0.413565
155.322388 133.423523 1.603179 0.379492
155.322388 133.423538 0.808685 0.391302
155.322388 133.423523 0.011632 0.432471
157.005539 140.078400 -0.000023 0.542870
157.962387 143.861588 -0.000018 0.557671
158.573242 146.276825 -0.000015 0.517937
158.997818 147.955505 -0.000012 0.551369
159.310623 149.192276 -0.000010 0.521447
155.147446 133.423538 8.085141 0.416815
155.147446 133.423538 7.246839 0.426291
155.106506 133.266281 6.449872 0.678431
155.147446 133.423523 5.603564 0.407355
155.147446 133.423523 4.794714 0.431006
155.106506 133.266296 4.005256 0.678431
155.147446 133.423523 3.193451 0.429557
155.147446 133.423523 2.397533 0.405783
155.147446 133.423523 1.602467 0.425498
155.147446 133.423523 0.806549 0.394965
155.147446 133.423523 0.008067 0.428519
156.887970 140.108566 -0.000023 0.553216
157.871216 143.884979 -0.000018 0.529549
158.498917 146.295898 -0.000014 0.534997
158.935196 147.971573 -0.000012 0.510414
159.256638 149.206131 -0.000011 0.551324
154.971863 133.423538 8.096373 0.381018
154.971863 133.423538 7.256522 0.426963
154.929398 133.264954 6.458334 0.678431
154.971863 133.423523 5.610215 0.413565
154.971863 133.423523 4.799871 0.413535
154.929398 133.264969 4.009068 0.678431
154.971863 133.423523 3.195653 0.441123
154.971863 133.423523 2.398266 0.405936
154.971863 133.423523 1.601734 0.430335
154.971863 133.423523 0.804346 0.450706
154.971863 133.423523 0.004390 0.428656
156.770630 140.139557 -0.000023 0.536217
157.780197 143.909027 -0.000018 0.531304
158.424728 146.315491 -0.000015 0.546029
158.872696 147.988083 -0.000012 0.515999
159.202728 149.220352 -0.000011 0.531212
154.795639 133.423538 8.107939 0.417624
154.795639 133.423538 7.266497 0.438712
154.751617 133.263641 6.467045 0.633524
154.795639 133.423538 5.617065 0.391241
154.795639 133.423523 4.805185 0.407843
154.751617 133.263641 4.012994 0.637659
154.795639 133.423538 3.197922 0.444694
154.795639 133.423538 2.399023 0.438911
154.795639 133.423538 1.600978 0.412619
154.795639 133.423538 0.802078 0.347402
154.793579 133.416061 -0.000032 0.532219
156.653488 140.171371 -0.000023 0.536660
157.689362 143.933701 -0.000018 0.536965
158.350677 146.335602 -0.000014 0.512978
158.810303 148.005020 -0.000012 0.545556
159.148941 149.234970 -0.000010 0.566857
154.618729 133.423538 8.119854 0.417014
154.618729 133.423538 7.276769 0.422980
154.608429 133.387131 6.452405 0.491127
154.618729 133.423523 5.624119 0.389944
154.618729 133.423523 4.810656 0.409491
154.608429 133.387131 4.006397 0.492531
154.618729 133.423523 3.200259 0.435737
154.618729 133.423523 2.399800 0.420966
154.618729 133.423523 1.600199 0.398383
154.618729 133.423523 0.799741 0.384543
154.629562 133.461838 -0.000032 0.552804
156.536591 140.203995 -0.000023 0.542000
157.598694 143.959000 -0.000017 0.536599
158.276764 146.356232 -0.000014 0.534600
158.748032 148.022400 -0.000012 0.562387
159.095245 149.249954 -0.000011 0.494057
154.441116 133.423538 8.132113 0.446937
154.441116 133.423538 7.287339 0.374578
154.393036 133.257965 6.485796 0.463569
154.441101 133.423523 5.631380 0.439612
154.441116 133.423523 4.816286 0.410925
154.395020 133.264847 4.020857 0.678431
154.441116 133.423538 3.202663 0.450980
154.441116 133.423523 2.400602 0.412711
154.441116 133.423523 1.599399 0.434256
154.441116 133.423523 0.797337 0.358541
154.465866 133.508759 -0.000032 0.542931
156.419907 140.237442 -0.000023 0.536797
157.508209 143.984940 -0.000018 0.538827
158.202988 146.377380 -0.000014 0.517540
158.685883 148.040207 -0.000012 0.535058
159.041672 149.265320 -0.000010 0.530892
154.262772 133.423523 8.144720 0.398993
154.262772 133.423523 7.298210 0.427024
154.215698 133.265518 6.493586 0.522576
154.262772 133.423523 5.638845 0.381811
154.262772 133.423523 4.822076 0.419059
154.215698 133.265518 4.024955 0.678431
154.262772 133.423523 3.205135 0.384222
154.262772 133.423523 2.401425 0.397940
154.262772 133.423523 1.598575 0.409873
154.262772 133.423523 0.794864 0.399161
154.302490 133.556824 -0.000032 0.529000
156.303482 140.271698 -0.000023 0.539590
157.417908 144.011505 -0.000018 0.559197
158.129379 146.399033 -0.000014 0.547005
158.623871 148.058456 -0.000012 0.571664
158.988190 149.281036 -0.000011 0.559106
154.083694 133.423538 8.157679 0.391928
154.083694 133.423538 7.309383 0.395941
154.063080 133.356064 6.485835 0.514183
154.083694 133.423523 5.646521 0.399069
154.083694 133.423523 4.828029 0.402838
154.035614 133.266205 4.029166 0.627543
154.083694 133.423523 3.207677 0.402533
154.083694 133.423523 2.402272 0.385901
154.083694 133.423538 1.597729 0.384512
154.083694 133.423523 0.792322 0.403235
154.139465 133.606018 -0.000031 0.542931
156.187286 140.306763 -0.000023 0.537972
157.327789 144.038696 -0.000018 0.547326
158.055908 146.421204 -0.000014 0.550195
158.561981 148.077133 -0.000012 0.522240
158.934830 149.297150 -0.000011 0.537331
153.854782 133.266876 8.212114 0.678431
153.903854 133.423538 7.320866 0.396612
153.898666 133.406952 6.485833 0.480659
153.903854 133.423523 5.654406 0.432776
153.903854 133.423523 4.834145 0.408026
153.854782 133.266891 4.033496 0.635126
153.903854 133.423538 3.210289 0.437125
153.903854 133.423538 2.403141 0.410010
153.903854 133.423538 1.596859 0.434897
153.903854 133.423523 0.789711 0.418463
153.976791 133.656357 -0.000031 0.540063
156.071335 140.342636 -0.000022 0.538064
157.237869 144.066513 -0.000018 0.564355
157.982605 146.443893 -0.000015 0.550103
158.500214 148.096252 -0.000012 0.550027
158.881577 149.313629 -0.000011 0.523400
153.666046 133.245361 8.231546 0.322087
153.723221 133.423523 7.332659 0.396124
153.723221 133.423538 6.492606 0.403952
153.723221 133.423523 5.662505 0.409873
153.723221 133.423523 4.840425 0.449348
153.666046 133.245346 4.039858 0.320668
153.723221 133.423523 3.212971 0.411521
153.723221 133.423523 2.404036 0.388937
153.723221 133.423523 1.595965 0.416571
153.723221 133.423523 0.787028 0.423407
153.814468 133.707825 -0.000032 0.533822
155.955643 140.379333 -0.000022 0.551446
157.148148 144.094971 -0.000018 0.548943
157.909454 146.467087 -0.000014 0.521614
158.438599 148.115784 -0.000012 0.547021
158.828445 149.330475 -0.000010 0.534829
153.490753 133.268234 8.239658 0.678431
153.541794 133.423538 7.344763 0.389258
153.541794 133.423538 6.502805 0.405188
153.541779 133.423523 5.670819 0.413733
153.541779 133.423523 4.846873 0.428367
153.490753 133.268250 4.042512 0.650462
153.541779 133.423523 3.215725 0.444587
153.541779 133.423523 2.404952 0.422370
153.541779 133.423523 1.595048 0.429618
153.541779 133.423523 0.784275 0.360555
153.652512 133.760437 -0.000031 0.540536
155.840195 140.416824 -0.000023 0.533837
157.058624 144.124054 -0.000018 0.540612
157.836472 146.490799 -0.000014 0.555154
158.377106 148.135757 -0.000012 0.548959
158.775421 149.347687 -0.000010 0.562676
153.307495 133.268921 8.253983 0.678431
153.359512 133.423538 7.357186 0.434852
153.359512 133.423538 6.513269 0.415991
153.359512 133.423538 5.679350 0.424750
153.359512 133.423523 4.853489 0.441215
153.321289 133.309937 4.043652 0.340139
153.359512 133.423538 3.218550 0.435645
153.359512 133.423538 2.405894 0.444694
153.359512 133.423538 1.594107 0.364050
153.359512 133.423538 0.781450 0.322469
153.490921 133.814178 -0.000031 0.543069
155.725037 140.455124 -0.000022 0.538521
156.969299 144.153748 -0.000017 0.529976
157.763657 146.514999 -0.000014 0.524086
158.315765 148.156158 -0.000012 0.530846
158.722534 149.365280 -0.000010 0.557641
153.123383 133.269592 8.268677 0.678431
153.176376 133.423538 7.369928 0.405402
153.176376 133.423538 6.524004 0.397147
153.176376 133.423523 5.688102 0.407614
153.176376 133.423523 4.860276 0.419608
153.156570 133.365982 4.043653 0.380133
153.176376 133.423538 3.221448 0.392691
153.176376 133.423523 2.406858 0.383734
153.176376 133.423523 1.593141 0.412863
153.176376 133.423538 0.778551 0.377890
153.329712 133.869034 -0.000031 0.545098
155.610123 140.494217 -0.000022 0.541268
156.880188 144.184082 -0.000017 0.533089
157.691010 146.539719 -0.000014 0.557671
158.254562 148.176987 -0.000012 0.545983
158.669754 149.383240 -0.000010 0.538659
152.938400 133.270264 8.283754 0.678431
152.992355 133.423538 7.382995 0.347433
152.992355 133.423538 6.535013 0.401572
152.992355 133.423523 5.697077 0.405707
152.992355 133.423523 4.867236 0.394476
152.992233 133.423172 4.043654 0.365637
152.992355 133.423523 3.224421 0.389258
152.992355 133.423523 2.407849 0.387182
152.992355 133.423523 1.592151 0.368277
152.992355 133.423523 0.775579 0.410925
153.168884 133.925018 -0.000031 0.539406
155.495499 140.534134 -0.000022 0.546914
156.791290 144.215027 -0.000017 0.542550
157.618546 146.564957 -0.000014 0.527550
158.193512 148.198242 -0.000012 0.534890
158.617111 149.401566 -0.000011 0.574609
152.752548 133.271042 8.299183 0.678431
152.807434 133.423538 7.396389 0.389425
152.807434 133.423538 6.546298 0.430869
152.807434 133.423523 5.706276 0.418708
152.807434 133.423523 4.874371 0.436957
152.828293 133.481506 4.043656 0.386603
152.807434 133.423523 3.227468 0.434699
152.807434 133.423523 2.408863 0.386740
152.807434 133.423523 1.591136 0.391455
152.807434 133.423523 0.772532 0.404700
153.008469 133.982117 -0.000031 0.544625
155.381165 140.574829 -0.000022 0.538750
156.702621 144.246582 -0.000017 0.517632
157.546249 146.590683 -0.000014 0.524697
158.132599 148.219925 -0.000012 0.547601
158.564606 149.420258 -0.000010 0.527398
152.608185 133.387131 8.284218 0.496651
152.621582 133.423538 7.410113 0.407843
152.621582 133.423538 6.557860 0.396033
152.621567 133.423523 5.715702 0.405966
152.621567 133.423523 4.881681 0.438209
152.621567 133.423523 4.053919 0.375326
152.621582 133.423538 3.230589 0.443214
152.621582 133.423538 2.409903 0.418997
152.621582 133.423523 1.590097 0.400717
152.621567 133.423523 0.769410 0.379461
152.848450 134.040344 -0.000031 0.531594
155.267105 140.616333 -0.000022 0.545739
156.614151 144.278778 -0.000017 0.564462
157.474136 146.616928 -0.000014 0.530297
158.071854 148.242020 -0.000012 0.548821
158.512222 149.439316 -0.000010 0.508385
152.377960 133.272369 8.331259 0.678431
152.434769 133.423538 7.424174 0.394736
152.434769 133.423538 6.569705 0.400931
152.377960 133.272369 5.749310 0.678431
152.434769 133.423523 4.889170 0.430549
152.434769 133.423523 4.059257 0.376135
152.434769 133.423523 3.233788 0.400946
152.434769 133.423523 2.410968 0.417121
152.434769 133.423523 1.589031 0.400244
152.434769 133.423538 0.766213 0.438651
152.688828 134.099686 -0.000031 0.533120
155.153336 140.658615 -0.000022 0.547036
156.525925 144.311569 -0.000018 0.542168
157.402206 146.643661 -0.000014 0.510185
158.011261 148.264557 -0.000012 0.554345
158.459976 149.458740 -0.000010 0.544823
152.189255 133.273132 8.347860 0.678431
152.246964 133.423538 7.438572 0.409033
152.246964 133.423523 6.581837 0.407065
152.189255 133.273132 5.759143 0.678431
152.246964 133.423523 4.896841 0.428931
152.246964 133.423523 4.064723 0.419608
152.246964 133.423523 3.237062 0.406836
152.246964 133.423523 2.412060 0.418509
152.246964 133.423523 1.587940 0.429770
152.246964 133.423523 0.762937 0.397269
152.529633 134.160141 -0.000031 0.545205
155.039871 140.701706 -0.000022 0.534264
156.437927 144.344986 -0.000018 0.550698
157.330475 146.670898 -0.000015 0.548211
157.950821 148.287506 -0.000012 0.555718
158.407852 149.478531 -0.000011 0.541634
151.999496 133.273804 8.364891 0.678431
152.058167 133.423523 7.453316 0.390997
152.058167 133.423523 6.594256 0.402945
151.999496 133.273804 5.769227 0.678431
152.058167 133.423523 4.904693 0.403479
152.058167 133.423523 4.070321 0.410239
152.058167 133.423523 3.240416 0.396078
152.058167 133.423523 2.413177 0.378302
152.058167 133.423523 1.586823 0.397543
152.058167 133.423523 0.759583 0.413687
152.370865 134.221710 -0.000031 0.546777
154.926712 140.745590 -0.000023 0.534081
156.350174 144.379028 -0.000017 0.543648
157.258926 146.698654 -0.000014 0.548074
157.890533 148.310867 -0.000012 0.527474
158.355881 149.498688 -0.000011 0.531289
151.808762 133.274567 8.382294 0.678431
151.868317 133.423538 7.468405 0.418189
151.868317 133.423523 6.606968 0.395636
151.808762 133.274551 5.779535 0.678431
151.868317 133.423523 4.912730 0.418433
151.868317 133.423523 4.076048 0.404608
151.868317 133.423523 3.243848 0.395132
151.868317 133.423523 2.414320 0.403571
151.868317 133.423523 1.585680 0.416541
151.868317 133.423523 0.756152 0.418326
152.212524 134.284378 -0.000031 0.549294
154.813858 140.790253 -0.000022 0.542748
156.262650 144.413666 -0.000017 0.545388
157.187576 146.726898 -0.000014 0.550011
157.830429 148.334671 -0.000012 0.550210
158.304062 149.519196 -0.000011 0.550729
151.653107 133.363953 8.376134 0.258381
151.677414 133.423523 7.483846 0.428153
