# This PCD file was generated using the MATLABÂ® pcwrite function
# from Computer Vision ToolboxÂ®.
# .PCD v.7 - Point Cloud Data file format
VERSION .7
FIELDS x y z intensity
SIZE 4 4 4 4
TYPE F F F F
COUNT 1 1 1 1
WIDTH 1260
HEIGHT 1
VIEWPOINT 0 0 0 1 0 0 0
POINTS 1260
DATA ascii
137.495514 -62.168869 4.553399 0.968627
137.502151 -62.116341 3.986358 0.968627
137.508774 -62.063889 3.420112 0.968627
137.515411 -62.011391 2.853449 0.968627
137.522064 -61.958744 2.285148 0.968627
137.528748 -61.905834 1.713979 0.968627
137.535477 -61.852539 1.138685 0.968627
137.399017 -62.932739 0.651695 0.968627
137.393066 -62.979836 0.113768 0.965759
137.027939 -65.870110 -0.000009 0.547509
136.715698 -68.341736 -0.000007 0.551751
136.382629 -70.978325 0.199996 0.681071
136.238724 -72.117401 0.199997 0.674525
137.601715 -62.281563 6.287220 0.968627
137.609924 -62.220005 5.710016 0.968627
137.564026 -62.564026 5.062427 0.980392
137.616730 -62.169064 4.555686 0.968627
137.623749 -62.116486 3.988143 0.968627
137.630753 -62.063988 3.421393 0.968627
137.637756 -62.011444 2.854220 0.968627
137.644791 -61.958748 2.285407 0.968627
137.651855 -61.905792 1.713719 0.968627
137.658966 -61.852448 1.137899 0.968627
137.514587 -62.934570 0.650623 0.967529
137.508545 -62.979836 0.112057 0.974563
137.121292 -65.882233 -0.000009 0.547494
136.791809 -68.351616 -0.000007 0.563470
136.440323 -70.985817 0.199996 0.681361
136.288483 -72.123863 0.199997 0.678798
137.722321 -62.281967 6.291221 0.968627
137.730972 -62.220352 5.713490 0.968627
137.682678 -62.564026 5.065356 0.968170
137.738159 -62.169266 4.558102 0.968627
137.745560 -62.116646 3.990027 0.968627
137.752945 -62.064095 3.422744 0.968627
137.760330 -62.011505 2.855035 0.968627
137.767746 -61.958755 2.285679 0.968627
137.775192 -61.905746 1.713445 0.968627
137.782700 -61.852352 1.137070 0.968627
137.630341 -62.936405 0.649484 0.980392
137.624237 -62.979820 0.110249 0.980392
137.214539 -65.895004 -0.000009 0.536355
136.867828 -68.362030 -0.000007 0.538170
136.497971 -70.993713 0.199996 0.682597
136.338181 -72.130676 0.199997 0.750240
137.843155 -62.282394 6.295431 0.968627
137.852264 -62.220722 5.717148 0.968627
137.801559 -62.564026 5.068441 0.979751
137.859833 -62.169487 4.560643 0.968627
137.867599 -62.116806 3.992011 0.968627
137.875366 -62.064201 3.424167 0.968627
137.883148 -62.011559 2.855892 0.968627
137.890945 -61.958767 2.285967 0.968627
137.898773 -61.905697 1.713155 0.968627
137.906677 -61.852253 1.136196 0.968627
137.746307 -62.938244 0.648277 0.968627
137.740173 -62.979824 0.108347 0.968627
137.307709 -65.908432 -0.000009 0.554589
136.943787 -68.372978 -0.000007 0.553643
136.555557 -71.002014 0.199996 0.678935
136.387833 -72.137833 0.199997 0.738430
137.964233 -62.282845 6.299854 0.968627
137.973785 -62.221111 5.720989 0.968627
137.920700 -62.564030 5.071684 0.968627
137.981735 -62.169708 4.563314 0.968627
137.989899 -62.116982 3.994096 0.968627
137.998062 -62.064323 3.425661 0.968627
138.006210 -62.011627 2.856793 0.968627
138.014404 -61.958771 2.286269 0.968627
138.022614 -61.905655 1.712852 0.968627
138.030899 -61.852146 1.135278 0.968627
137.862488 -62.940086 0.647003 0.965545
137.856339 -62.979824 0.106349 0.968627
137.400787 -65.922508 -0.000009 0.539864
137.019653 -68.384453 -0.000007 0.541436
136.613083 -71.010719 0.199997 0.720775
136.437439 -72.145332 0.199997 0.738308
138.085556 -62.283310 6.304493 0.968627
138.095566 -62.221519 5.725017 0.968627
138.040085 -62.564030 5.075081 0.975616
138.103912 -62.169952 4.566113 0.968627
138.112457 -62.117161 3.996281 0.968627
138.121002 -62.064445 3.427228 0.968627
138.129547 -62.011688 2.857738 0.968627
138.138123 -61.958778 2.286586 0.968627
138.146729 -61.905602 1.712533 0.968627
138.155411 -61.852036 1.134316 0.968627
137.978882 -62.941933 0.645659 0.968582
137.972748 -62.979828 0.104255 0.980392
137.493744 -65.937233 -0.000008 0.566339
137.095444 -68.396454 -0.000007 0.494621
136.670563 -71.019821 0.199997 0.724910
136.486984 -72.153183 0.199997 0.698451
138.207138 -62.283810 6.309345 0.968627
138.217606 -62.221943 5.729231 0.968627
138.159744 -62.564030 5.078638 0.978469
138.226364 -62.170204 4.569044 0.968627
138.235291 -62.117355 3.998567 0.968627
138.244217 -62.064583 3.428867 0.968627
138.253159 -62.011765 2.858726 0.968627
138.262115 -61.958790 2.286917 0.968627
138.271118 -61.905548 1.712200 0.968627
138.280197 -61.851925 1.133310 0.968627
138.095520 -62.943779 0.644246 0.976349
138.089417 -62.979836 0.102062 0.980392
137.586609 -65.952606 -0.000009 0.530205
137.171158 -68.408989 -0.000007 0.541161
136.727951 -71.029320 0.199997 0.727871
136.536484 -72.161377 0.199997 0.744823
138.329010 -62.284325 6.314413 0.968627
138.339935 -62.222389 5.733633 0.968627
138.279694 -62.564034 5.082353 0.980392
138.349091 -62.170464 4.572105 0.968627
138.358414 -62.117554 4.000955 0.968627
138.367737 -62.064713 3.430580 0.968627
138.377060 -62.011841 2.859759 0.968627
138.386414 -61.958805 2.287262 0.968627
138.395813 -61.905499 1.711851 0.968627
138.405273 -61.851807 1.132258 0.968627
138.212402 -62.945629 0.642764 0.977676
138.206375 -62.979820 0.099771 0.968627
137.679367 -65.968628 -0.000009 0.529824
137.246765 -68.422050 -0.000007 0.523720
136.785294 -71.039223 0.199997 0.673106
136.585922 -72.169914 0.199998 0.692012
138.451172 -62.284866 6.319698 0.968627
138.462540 -62.222855 5.738223 0.968627
138.399933 -62.564034 5.086226 0.980392
138.472107 -62.170742 4.575295 0.968627
138.481827 -62.117767 4.003446 0.968627
138.491547 -62.064865 3.432366 0.968627
138.501266 -62.011917 2.860835 0.968627
138.511002 -61.958817 2.287624 0.968627
138.520798 -61.905441 1.711488 0.968627
138.530670 -61.851685 1.131161 0.968627
138.329544 -62.947491 0.641213 0.968627
138.323608 -62.979828 0.097383 0.968627
137.772018 -65.985298 -0.000009 0.516640
137.322296 -68.435638 -0.000007 0.540032
136.842560 -71.049530 0.199997 0.754803
136.635300 -72.178802 0.199997 0.707698
138.573624 -62.285431 6.325202 0.968627
138.585464 -62.223343 5.743004 0.968627
138.520477 -62.564034 5.090261 0.980392
138.595444 -62.171032 4.578618 0.968627
138.605560 -62.117989 4.006038 0.968627
138.615662 -62.065018 3.434227 0.968627
138.625778 -62.012001 2.861957 0.968627
138.635925 -61.958832 2.287999 0.968627
138.646118 -61.905388 1.711110 0.968627
138.656387 -61.851555 1.130019 0.968627
138.446976 -62.949348 0.639592 0.968627
138.441162 -62.979832 0.094897 0.968627
137.864532 -66.002609 -0.000009 0.535439
137.397720 -68.449753 -0.000007 0.559243
136.899750 -71.060234 0.199997 0.735485
136.684601 -72.188026 0.199998 0.680781
138.696396 -62.286018 6.330925 0.968627
138.708710 -62.223854 5.747975 0.968627
138.641342 -62.564034 5.094458 0.980392
138.719101 -62.171329 4.582075 0.968627
138.729614 -62.118217 4.008736 0.968627
138.740128 -62.065174 3.436161 0.968627
138.750626 -62.012093 2.863123 0.968627
138.761169 -61.958847 2.288390 0.968627
138.771774 -61.905331 1.710717 0.968627
138.782440 -61.851429 1.128831 0.968627
138.564682 -62.951218 0.637901 0.968627
138.559021 -62.979836 0.092310 0.978271
137.956940 -66.020569 -0.000009 0.537575
137.473053 -68.464394 -0.000007 0.538750
136.956863 -71.071335 0.199997 0.697032
136.733856 -72.197601 0.199997 0.687877
138.819489 -62.286629 6.336869 0.968627
138.832260 -62.224380 5.753139 0.968627
138.762543 -62.564030 5.098817 0.977722
138.843094 -62.171638 4.585666 0.968627
138.854004 -62.118458 4.011537 0.968627
138.864914 -62.065342 3.438170 0.968627
138.875824 -62.012180 2.864334 0.968627
138.886765 -61.958862 2.288796 0.968627
138.897766 -61.905273 1.710308 0.968627
138.908844 -61.851292 1.127597 0.968627
138.682678 -62.953087 0.636139 0.962936
138.677200 -62.979824 0.089621 0.962371
138.049210 -66.039185 -0.000009 0.538094
137.548264 -68.479561 -0.000007 0.532280
137.013901 -71.082832 0.199997 0.680491
136.783035 -72.207512 0.199997 0.668421
138.942932 -62.287262 6.343038 0.968627
138.956177 -62.224922 5.758495 0.968627
138.884094 -62.564030 5.103340 0.961364
138.967438 -62.171963 4.589390 0.968627
138.978760 -62.118706 4.014444 0.968627
138.990067 -62.065514 3.440254 0.968627
139.001373 -62.012276 2.865591 0.968627
139.012726 -61.958885 2.289217 0.968627
139.024139 -61.905216 1.709885 0.968627
139.035629 -61.851158 1.126317 0.968627
138.801010 -62.954956 0.634305 0.980392
138.795715 -62.979828 0.086834 0.980392
138.141342 -66.058426 -0.000009 0.536110
137.623383 -68.495255 -0.000007 0.572641
137.070847 -71.094734 0.199997 0.679973
136.832138 -72.217773 0.199997 0.747616
139.066711 -62.287922 6.349428 0.968627
139.080444 -62.225494 5.764046 0.968627
139.006012 -62.564034 5.108027 0.980392
139.092133 -62.172302 4.593251 0.968627
139.103867 -62.118961 4.017457 0.968627
139.115570 -62.065697 3.442414 0.968627
139.127304 -62.012379 2.866893 0.968627
139.139053 -61.958904 2.289654 0.968627
139.150879 -61.905151 1.709445 0.968627
139.162781 -61.851006 1.124990 0.968627
138.919647 -62.956841 0.632400 0.965087
138.914597 -62.979836 0.083945 0.978363
138.233353 -66.078316 -0.000009 0.529839
137.698380 -68.511467 -0.000007 0.553994
137.127716 -71.107025 0.199997 0.704036
136.881180 -72.228378 0.199997 0.732174
139.190872 -62.288605 6.356045 0.968627
139.205078 -62.226082 5.769794 0.968627
139.128296 -62.564030 5.112881 0.959808
139.217224 -62.172653 4.597246 0.968627
139.229355 -62.119232 4.020576 0.968627
139.241470 -62.065880 3.444652 0.968627
139.253601 -62.012482 2.868242 0.968627
139.265778 -61.958927 2.290106 0.968627
139.278000 -61.905090 1.708990 0.968627
139.290329 -61.850861 1.123616 0.968627
139.038620 -62.958729 0.630423 0.971298
139.033829 -62.979828 0.080951 0.968627
138.325211 -66.098846 -0.000009 0.538705
137.773270 -68.528214 -0.000007 0.543404
137.184494 -71.119720 0.199997 0.719326
136.930130 -72.239319 0.199997 0.755978
139.315414 -62.289307 6.362891 0.968627
139.330093 -62.226696 5.775740 0.968627
139.250977 -62.564026 5.117903 0.977905
139.342682 -62.173016 4.601381 0.968627
139.355240 -62.119511 4.023801 0.968627
139.367767 -62.066074 3.446965 0.968627
139.380310 -62.012589 2.869637 0.968627
139.392899 -61.958946 2.290574 0.968627
139.405548 -61.905029 1.708520 0.968627
139.418274 -61.850708 1.122195 0.968627
139.157959 -62.960617 0.628373 0.969497
139.153442 -62.979836 0.077856 0.978988
138.416931 -66.120026 -0.000009 0.532723
137.848038 -68.545471 -0.000007 0.554299
137.241196 -71.132813 0.199997 0.702129
136.979019 -72.250603 0.199997 0.656367
139.440338 -62.290047 6.369964 0.968627
139.455505 -62.227325 5.781885 0.968627
139.374054 -62.564026 5.123093 0.980392
139.468552 -62.173393 4.605654 0.968627
139.481522 -62.119797 4.027137 0.968627
139.494476 -62.066277 3.449358 0.968627
139.507431 -62.012703 2.871078 0.968627
139.520432 -61.958973 2.291057 0.968627
139.533493 -61.904961 1.708034 0.968627
139.546661 -61.850555 1.120725 0.968627
139.277649 -62.962521 0.626250 0.958114
139.273453 -62.979828 0.074656 0.979843
138.508484 -66.141838 -0.000009 0.538277
137.922684 -68.563255 -0.000007 0.546105
137.297791 -71.146294 0.199997 0.738918
137.027817 -72.262230 0.199998 0.745922
139.565674 -62.290794 6.377270 0.968627
139.581329 -62.227982 5.788229 0.968627
139.497543 -62.564026 5.128453 0.980392
139.594849 -62.173782 4.610066 0.968627
139.608231 -62.120094 4.030581 0.968627
139.621597 -62.066483 3.451827 0.968627
139.634979 -62.012821 2.872567 0.968627
139.648392 -61.959000 2.291556 0.968627
139.661896 -61.904892 1.707532 0.968627
139.675476 -61.850391 1.119208 0.968627
139.397720 -62.964417 0.624053 0.968353
139.393875 -62.979832 0.071352 0.963760
138.599899 -66.164291 -0.000009 0.532982
137.997208 -68.581558 -0.000007 0.591119
137.354294 -71.160172 0.199997 0.754879
137.076538 -72.274200 0.199998 0.699992
139.691422 -62.291580 6.384807 0.968627
139.707581 -62.228653 5.794777 0.968627
139.621475 -62.564030 5.133984 0.980392
139.721573 -62.174183 4.614620 0.968627
139.735367 -62.120407 4.034133 0.968627
139.749161 -62.066696 3.454376 0.968627
139.762970 -62.012947 2.874104 0.968627
139.776810 -61.959023 2.292071 0.968627
139.790726 -61.904823 1.707013 0.968627
145.462585 -39.814335 -0.000025 0.539086
139.518173 -62.966331 0.621782 0.964675
139.514709 -62.979832 0.067942 0.974395
138.691162 -66.187386 -0.000009 0.543694
138.071609 -68.600388 -0.000007 0.561517
137.410706 -71.174446 0.199997 0.685069
137.125168 -72.286507 0.199998 0.682017
139.817612 -62.292381 6.392580 0.968627
139.834274 -62.229351 5.801530 0.968627
139.745850 -62.564030 5.139689 0.977081
139.848740 -62.174599 4.619315 0.968627
139.862976 -62.120728 4.037798 0.968627
139.877182 -62.066925 3.457004 0.968627
139.891418 -62.013069 2.875689 0.968627
139.905685 -61.959053 2.292602 0.968627
150.823822 -20.635468 1.007977 0.752163
139.825958 -62.260803 1.136899 0.223529
139.639053 -62.968239 0.619435 0.980392
139.635986 -62.979836 0.064426 0.979156
138.782242 -66.211113 -0.000009 0.534905
138.145859 -68.619728 -0.000007 0.516045
137.467010 -71.189110 0.199997 0.672938
137.173721 -72.299149 0.199998 0.660136
139.944244 -62.293213 6.400589 0.968627
139.961411 -62.230072 5.808486 0.968627
139.870667 -62.564030 5.145568 0.980392
139.976364 -62.175022 4.624154 0.968627
139.991028 -62.121056 4.041574 0.968627
140.005676 -62.067154 3.459713 0.968627
140.020325 -62.013199 2.877322 0.968627
151.262405 -20.635345 2.993881 0.710765
139.907700 -62.427757 1.714798 0.223529
139.892776 -62.482666 1.146578 0.223529
139.760330 -62.970169 0.617014 0.977081
139.757706 -62.979832 0.060801 0.973404
138.873169 -66.235474 -0.000009 0.537041
138.219986 -68.639587 -0.000007 0.515831
137.523209 -71.204170 0.199997 0.716762
137.222183 -72.312134 0.199998 0.714122
140.071350 -62.294071 6.408836 0.968627
140.089020 -62.230808 5.815652 0.968627
139.995972 -62.564030 5.151622 0.980392
140.097916 -62.198898 4.625528 0.967224
140.119568 -62.121395 4.045464 0.968627
151.702652 -20.635303 6.989669 0.771191
140.067490 -62.307922 2.863978 0.223529
139.987656 -62.593826 2.282930 0.223529
140.003922 -62.535561 1.716080 0.223529
140.018936 -62.481804 1.144891 0.223529
139.882050 -62.972092 0.614516 0.980392
139.879883 -62.979836 0.057069 0.971710
138.963913 -66.260468 -0.000008 0.539620
138.293961 -68.659966 -0.000007 0.517678
137.579300 -71.219620 0.199997 0.663554
137.270538 -72.325462 0.199998 0.670298
140.198929 -62.294952 6.417325 0.968627
140.217102 -62.231571 5.823026 0.968627
140.121765 -62.564026 5.157855 0.968627
140.217209 -62.231186 4.625737 0.966232
nan nan nan 0.000000
140.147629 -62.473854 3.430723 0.223529
140.099579 -62.641434 2.848642 0.223529
140.114822 -62.588257 2.283584 0.223529
140.130157 -62.534782 1.715506 0.223529
140.145599 -62.480919 1.143155 0.223529
140.004211 -62.974033 0.611941 0.980392
140.002548 -62.979832 0.053227 0.936034
139.054489 -66.286102 -0.000009 0.529366
138.367798 -68.680862 -0.000007 0.546975
137.635284 -71.235458 0.199997 0.740856
137.318817 -72.339119 0.199998 0.723140
140.326996 -62.295856 6.426057 0.968627
140.345688 -62.232353 5.830610 0.968627
140.248062 -62.564026 5.164267 0.968627
140.336273 -62.264324 4.625944 0.979995
140.226868 -62.636070 3.991950 0.223529
140.209808 -62.694004 3.414811 0.223529
140.225449 -62.640881 2.850393 0.223529
140.241135 -62.587585 2.284171 0.223529
140.256912 -62.534004 1.714915 0.223529
146.832581 -40.191696 -0.000025 0.545281
140.126831 -62.975983 0.609290 0.971115
140.246643 -62.568848 -0.000011 0.522530
139.144882 -66.312355 -0.000009 0.532891
138.441498 -68.702271 -0.000007 0.585107
137.691162 -71.251694 0.199997 0.771603
137.366989 -72.353111 0.199998 0.743938
140.455566 -62.296791 6.435034 0.968627
nan nan nan 0.000000
140.374893 -62.564030 5.170858 0.980392
140.304947 -62.795692 4.549081 0.223529
140.319717 -62.746765 3.982798 0.223529
140.335770 -62.693584 3.417794 0.223529
140.351837 -62.640358 2.852192 0.223529
140.367966 -62.586952 2.284774 0.223529
152.988235 -20.786457 1.000710 0.738750
147.104965 -40.272881 -0.000025 0.539315
140.249924 -62.977917 0.606558 0.980392
140.362961 -62.603523 -0.000011 0.551705
139.235077 -66.339249 -0.000009 0.541100
138.515030 -68.724190 -0.000007 0.565469
137.746918 -71.268318 0.199997 0.700053
137.415070 -72.367447 0.199998 0.741421
nan nan nan 0.000000
140.472702 -62.659477 5.750225 0.223529
140.412689 -62.853325 5.122530 0.223529
140.429260 -62.799801 4.553889 0.223529
140.445770 -62.746452 3.987072 0.223529
140.462265 -62.693153 3.420861 0.223529
140.478683 -62.640114 2.854025 0.223529
153.003922 -22.177521 2.977596 0.752132
153.003922 -22.177521 1.022404 0.775280
147.376770 -40.355980 -0.000025 0.541604
142.550934 -55.945778 -0.000015 0.547021
140.479034 -62.639008 -0.000011 0.542977
139.325104 -66.366776 -0.000009 0.515221
138.588409 -68.746628 -0.000007 0.498680
137.802551 -71.285332 0.199998 0.698268
137.463043 -72.382111 0.199998 0.669612
140.552826 -62.807774 6.319964 0.223529
140.521286 -62.907188 5.702312 0.223529
140.538391 -62.853256 5.129382 0.223529
140.555420 -62.799614 4.559512 0.223529
140.572311 -62.746346 3.991437 0.223529
153.329758 -22.529682 6.878912 0.740627
153.329742 -22.529686 4.923162 0.757382
153.329742 -22.529690 2.973692 0.732158
153.329742 -22.529690 1.026309 0.745190
147.647964 -40.440979 -0.000025 0.538460
142.713425 -55.996704 -0.000015 0.533608
140.594849 -62.675301 -0.000011 0.542428
139.414917 -66.394920 -0.000009 0.513069
138.661636 -68.769569 -0.000007 0.523873
137.858078 -71.302727 0.199998 0.691920
137.510910 -72.397118 0.199998 0.675517
140.629410 -62.961708 6.289116 0.223529
140.647095 -62.907249 5.710606 0.223529
140.664642 -62.853279 5.136400 0.223529
140.681976 -62.799927 4.565207 0.223529
nan nan nan 0.000000
153.653015 -22.879066 6.859737 0.724300
153.653015 -22.879066 4.911674 0.715053
153.653015 -22.879074 2.969864 0.733883
153.653015 -22.879074 1.030135 0.715129
147.918579 -40.527855 -0.000025 0.539254
142.875549 -56.048756 -0.000016 0.548928
140.710419 -62.712402 -0.000011 0.541588
139.504547 -66.423691 -0.000008 0.558190
138.734695 -68.793030 -0.000007 0.509621
137.913467 -71.320518 0.199998 0.686854
137.558685 -72.412453 0.199998 0.660029
140.755325 -62.961914 6.298919 0.223529
140.773361 -62.907684 5.719034 0.223529
140.791245 -62.853924 5.143484 0.223529
nan nan nan 0.000000
nan nan nan 0.000000
153.973755 -23.225739 6.840948 0.763897
153.973755 -23.225742 4.900416 0.766629
153.973755 -23.225735 2.966115 0.771145
153.973755 -23.225735 1.033886 0.772610
148.188583 -40.616638 -0.000025 0.540795
143.037323 -56.101940 -0.000015 0.531563
140.825714 -62.750317 -0.000011 0.530434
139.593964 -66.453094 -0.000008 0.540612
138.807602 -68.817001 -0.000007 0.551324
137.968750 -71.338684 0.199997 0.742855
137.606339 -72.428123 0.199998 0.746258
140.881607 -62.962757 6.308807 0.223529
140.900085 -62.908463 5.727603 0.223529
nan nan nan 0.000000
nan nan nan 0.000000
nan nan nan 0.000000
154.292038 -23.569756 6.822539 0.748257
154.292038 -23.569748 4.889384 0.740093
154.292038 -23.569756 2.962441 0.739818
154.292038 -23.569756 1.037560 0.741283
148.457962 -40.707294 -0.000025 0.543206
143.198715 -56.156258 -0.000016 0.546242
140.940750 -62.789028 -0.000011 0.548760
139.683182 -66.483116 -0.000009 0.507774
138.880325 -68.841476 -0.000007 0.547494
138.023895 -71.357246 0.199997 0.717556
137.653885 -72.444122 0.199998 0.761593
nan nan nan 0.000000
nan nan nan 0.000000
nan nan nan 0.000000
nan nan nan 0.000000
nan nan nan 0.000000
154.651688 -23.785549 6.815410 0.722118
154.651688 -23.785538 4.885113 0.722347
154.651688 -23.785538 2.961019 0.720104
154.651688 -23.785538 1.038982 0.723537
148.726700 -40.799828 -0.000025 0.541482
143.359726 -56.211700 -0.000015 0.534081
141.055511 -62.828537 -0.000011 0.540352
139.772171 -66.513763 -0.000009 0.539483
138.952881 -68.866455 -0.000007 0.549172
138.078903 -71.376190 0.199998 0.684367
137.701324 -72.460457 0.199998 0.757900
nan nan nan 0.000000
nan nan nan 0.000000
nan nan nan 0.000000
nan nan nan 0.000000
157.911789 -15.852276 9.741509 0.209964
155.086899 -23.785538 6.827264 0.763516
155.086899 -23.785542 4.892216 0.773709
155.086899 -23.785538 2.963384 0.760845
155.086899 -23.785542 1.036616 0.773526
148.994781 -40.894226 -0.000025 0.539803
143.520340 -56.268265 -0.000015 0.543084
141.169983 -62.868855 -0.000011 0.543145
139.860962 -66.545029 -0.000009 0.517693
139.025269 -68.891945 -0.000007 0.561913
138.133789 -71.395515 0.199997 0.675929
137.748642 -72.477119 0.199998 0.698161
nan nan nan 0.000000
nan nan nan 0.000000
nan nan nan 0.000000
nan nan nan 0.000000
157.541229 -18.243977 9.468191 0.237156
155.524277 -23.785530 6.839412 0.715297
155.524277 -23.785530 4.899494 0.709804
155.524277 -23.785534 2.965809 0.705074
155.524277 -23.785534 1.034192 0.709422
149.262192 -40.990505 -0.000026 0.544411
143.680573 -56.325943 -0.000015 0.528695
141.284180 -62.909973 -0.000011 0.537041
139.949524 -66.576912 -0.000009 0.526848
139.097458 -68.917938 -0.000006 0.533669
138.188522 -71.415222 0.199998 0.695583
137.795837 -72.494110 0.199998 0.666835
nan nan nan 0.000000
nan nan nan 0.000000
nan nan nan 0.000000
nan nan nan 0.000000
157.196899 -20.470032 9.214174 0.228992
155.950165 -23.822414 6.848632 0.762142
155.950165 -23.822418 4.905019 0.760723
155.950165 -23.822411 2.967648 0.761501
155.950165 -23.822411 1.032352 0.754528
149.528931 -41.088654 -0.000025 0.538430
143.840378 -56.384743 -0.000015 0.530175
141.398087 -62.951881 -0.000011 0.534127
140.037857 -66.609413 -0.000009 0.532113
139.169479 -68.944435 -0.000007 0.513237
138.243134 -71.435310 0.199998 0.733471
137.842926 -72.511436 0.199998 0.670939
nan nan nan 0.000000
nan nan nan 0.000000
nan nan nan 0.000000
nan nan nan 0.000000
156.876083 -22.547451 8.977480 0.228672
155.930237 -25.037426 6.754799 0.611765
155.950180 -24.984921 4.851561 0.751019
155.950180 -24.984917 2.949842 0.767803
155.950180 -24.984917 1.050159 0.760006
149.794983 -41.188641 -0.000025 0.542092
143.999771 -56.444656 -0.000015 0.527535
141.511703 -62.994583 -0.000011 0.535943
140.125977 -66.642540 -0.000008 0.525322
139.241302 -68.971436 -0.000007 0.545754
138.297592 -71.455788 0.199998 0.770092
137.889893 -72.529091 0.199998 0.673457
nan nan nan 0.000000
nan nan nan 0.000000
nan nan nan 0.000000
nan nan nan 0.000000
156.576370 -24.491077 8.756375 0.237781
155.930252 -26.156853 6.669110 0.611765
155.950195 -26.105457 4.800166 0.764080
155.950195 -26.105461 2.932722 0.759335
155.950195 -26.105461 1.067277 0.756893
150.060318 -41.290501 -0.000025 0.542855
144.158752 -56.505680 -0.000015 0.541772
141.625000 -63.038078 -0.000011 0.550561
140.213852 -66.676270 -0.000008 0.533394
139.312943 -68.998932 -0.000007 0.554849
138.351913 -71.476639 0.199998 0.666316
137.936722 -72.547066 0.199998 0.789822
nan nan nan 0.000000
nan nan nan 0.000000
nan nan nan 0.000000
nan nan nan 0.000000
156.295807 -26.313488 8.549401 0.244755
155.930267 -27.236721 6.586670 0.611765
155.950195 -27.186398 4.750725 0.711788
155.950195 -27.186405 2.916254 0.718563
155.950195 -27.186405 1.083746 0.732021
150.324936 -41.394234 -0.000024 0.541772
144.317291 -56.567814 -0.000015 0.528481
141.738007 -63.082367 -0.000011 0.547112
140.301483 -66.710617 -0.000008 0.551583
139.384399 -69.026932 -0.000007 0.550790
138.406082 -71.497864 0.199998 0.675517
137.983429 -72.565369 0.199998 0.744488
nan nan nan 0.000000
nan nan nan 0.000000
nan nan nan 0.000000
nan nan nan 0.000000
155.650238 -28.972324 8.237820 0.489250
155.950211 -28.229862 6.511668 0.726543
155.950211 -28.229855 4.703130 0.697032
155.950211 -28.229862 2.900399 0.721920
155.950211 -28.229858 1.099600 0.699397
150.588821 -41.499771 -0.000024 0.540261
144.475403 -56.631058 -0.000015 0.534951
141.850708 -63.127434 -0.000011 0.525338
140.388885 -66.745567 -0.000008 0.546273
139.455643 -69.055435 -0.000007 0.516213
138.460114 -71.519470 0.199998 0.682704
138.030014 -72.584000 0.199998 0.664378
nan nan nan 0.000000
nan nan nan 0.000000
nan nan nan 0.000000
nan nan nan 0.000000
155.650223 -29.965714 8.132011 0.494469
155.827850 -29.534775 6.408810 0.609827
155.827850 -29.534775 4.641505 0.619898
155.827850 -29.534775 2.879872 0.588251
155.827850 -29.534775 1.120128 0.622431
150.851974 -41.607166 -0.000024 0.540841
144.633072 -56.695400 -0.000015 0.546304
141.963074 -63.173302 -0.000010 0.539498
140.476044 -66.781136 -0.000008 0.523201
139.526688 -69.084427 -0.000007 0.538903
138.513977 -71.541458 0.199998 0.747585
138.076462 -72.602959 0.199998 0.690257
nan nan nan 0.000000
nan nan nan 0.000000
nan nan nan 0.000000
nan nan nan 0.000000
155.650223 -30.925987 8.030022 0.497673
155.930237 -30.259838 6.357151 0.611765
155.950226 -30.212311 4.613085 0.747417
155.950226 -30.212315 2.870405 0.735103
155.950226 -30.212315 1.129594 0.743145
151.114365 -41.716381 -0.000024 0.538430
144.790283 -56.760838 -0.000015 0.534279
142.075119 -63.219940 -0.000010 0.543160
140.562943 -66.817307 -0.000009 0.520897
139.597534 -69.113914 -0.000007 0.547082
138.567688 -71.563812 0.199998 0.707195
138.122772 -72.622238 0.199998 0.741863
nan nan nan 0.000000
nan nan nan 0.000000
nan nan nan 0.000000
nan nan nan 0.000000
155.884247 -31.308872 7.999996 0.521401
155.930267 -31.201523 6.286073 0.611765
155.950226 -31.154926 4.570458 0.731243
155.950226 -31.154934 2.856208 0.741512
155.950226 -31.154934 1.143793 0.739651
151.376007 -41.827423 -0.000024 0.544259
144.947021 -56.827377 -0.000015 0.546380
142.186844 -63.267365 -0.000010 0.543282
140.649582 -66.854088 -0.000008 0.507591
139.668167 -69.143898 -0.000007 0.565545
138.621246 -71.586548 0.199998 0.708568
138.168961 -72.641838 0.199998 0.661692
nan nan nan 0.000000
nan nan nan 0.000000
nan nan nan 0.000000
nan nan nan 0.000000
155.950241 -32.067322 7.922932 0.756573
155.930267 -32.113026 6.217483 0.611765
155.950241 -32.067318 4.529321 0.755154
155.950241 -32.067326 2.842505 0.744244
155.950241 -32.067322 1.157495 0.734890
151.636841 -41.940311 -0.000024 0.539483
145.103317 -56.895004 -0.000015 0.540337
142.298248 -63.315563 -0.000011 0.534218
140.735977 -66.891472 -0.000008 0.527138
139.738602 -69.174377 -0.000006 0.527901
138.674652 -71.609657 0.199998 0.672541
138.214996 -72.661758 0.199998 0.757168
nan nan nan 0.000000
nan nan nan 0.000000
nan nan nan 0.000000
nan nan nan 0.000000
155.950241 -32.951004 7.829919 0.736187
155.922821 -33.012604 6.149746 0.952300
155.950241 -32.951000 4.489601 0.764065
155.950241 -32.951012 2.829273 0.765316
155.950241 -32.951012 1.170727 0.765255
151.896896 -42.054996 -0.000024 0.536660
145.259109 -56.963722 -0.000015 0.536568
142.409286 -63.364548 -0.000010 0.537102
140.822098 -66.929459 -0.000008 0.535058
139.808807 -69.205345 -0.000006 0.539132
138.727890 -71.633141 0.199998 0.742016
138.260895 -72.682007 0.199998 0.725155
nan nan nan 0.000000
nan nan nan 0.000000
nan nan nan 0.000000
nan nan nan 0.000000
155.950256 -33.807415 7.740054 0.755901
155.950256 -33.807423 6.091224 0.746151
155.950256 -33.807419 4.451225 0.743130
155.950256 -33.807419 2.816491 0.758373
155.950256 -33.807419 1.183508 0.744701
152.156143 -42.171509 -0.000024 0.541314
145.414444 -57.033524 -0.000015 0.541070
142.520004 -63.414299 -0.000011 0.539178
140.907959 -66.968040 -0.000009 0.541405
139.878799 -69.236801 -0.000007 0.555535
138.780960 -71.656990 0.199998 0.684382
138.306656 -72.702576 0.199998 0.683513
nan nan nan 0.000000
nan nan nan 0.000000
nan nan nan 0.000000
nan nan nan 0.000000
155.950256 -34.637852 7.653191 0.758953
155.930283 -34.681087 6.025407 0.611765
155.950256 -34.637859 4.414131 0.765728
155.950256 -34.637852 2.804136 0.766094
155.950256 -34.637852 1.195864 0.758556
152.414551 -42.289833 -0.000024 0.541802
145.569275 -57.104416 -0.000015 0.530861
142.630356 -63.464825 -0.000011 0.529793
140.993530 -67.007225 -0.000008 0.519509
139.948578 -69.268738 -0.000006 0.552270
138.833862 -71.681206 0.199998 0.683680
138.352264 -72.723457 0.199998 0.700694
nan nan nan 0.000000
nan nan nan 0.000000
nan nan nan 0.000000
nan nan nan 0.000000
155.950256 -35.443569 7.569186 0.749798
155.930252 -35.486103 5.965583 0.611765
155.950256 -35.443565 4.378257 0.737377
155.950256 -35.443573 2.792186 0.744915
155.950256 -35.443573 1.207814 0.717311
152.672150 -42.409946 -0.000024 0.546715
145.723602 -57.176384 -0.000014 0.534920
142.740356 -63.516121 -0.000010 0.534081
141.078842 -67.047005 -0.000009 0.541909
140.018112 -69.301170 -0.000007 0.558236
138.886581 -71.705803 0.199998 0.677791
138.397736 -72.744659 0.199998 0.746151
nan nan nan 0.000000
nan nan nan 0.000000
nan nan nan 0.000000
157.932144 -32.089222 9.756602 0.222217
155.950272 -36.225735 7.487902 0.726925
155.930222 -36.267578 5.907699 0.611765
155.950272 -36.225735 4.343545 0.720470
155.950272 -36.225739 2.780623 0.731212
155.950272 -36.225739 1.219376 0.711040
152.928894 -42.531853 -0.000024 0.540032
145.877426 -57.249420 -0.000015 0.538186
142.849991 -63.568184 -0.000010 0.550790
141.163879 -67.087379 -0.000008 0.542489
140.087433 -69.334084 -0.000007 0.550668
138.939148 -71.730759 0.199998 0.746349
138.443054 -72.766174 0.199998 0.721874
nan nan nan 0.000000
nan nan nan 0.000000
nan nan nan 0.000000
157.653656 -33.492992 9.551149 0.241993
155.950287 -36.985428 7.409218 0.764401
155.930206 -37.026600 5.851665 0.611765
155.950272 -36.985435 4.309944 0.764340
155.950272 -36.985435 2.769431 0.760296
155.950272 -36.985435 1.230568 0.755993
153.184784 -42.655563 -0.000024 0.536858
146.030731 -57.323540 -0.000015 0.546441
142.959259 -63.621002 -0.000010 0.537667
141.248627 -67.128349 -0.000008 0.574166
140.156525 -69.367485 -0.000006 0.550439
138.991531 -71.756081 0.199998 0.719707
138.488220 -72.788010 0.199998 0.665919
nan nan nan 0.000000
nan nan nan 0.000000
nan nan nan 0.000000
157.390411 -34.822563 9.356947 0.221424
155.802841 -38.020718 7.294865 0.588159
155.802841 -38.020718 5.773915 0.615137
155.802841 -38.020714 4.261112 0.596826
155.802826 -38.020721 2.753165 0.595163
155.802826 -38.020721 1.246835 0.636896
153.439789 -42.781040 -0.000024 0.542535
146.183533 -57.398720 -0.000014 0.553628
143.068161 -63.674591 -0.000010 0.542092
141.333084 -67.169907 -0.000008 0.569436
140.225372 -69.401367 -0.000006 0.524697
139.043732 -71.781769 0.199998 0.709041
138.533234 -72.810158 0.199998 0.733944
nan nan nan 0.000000
nan nan nan 0.000000
nan nan nan 0.000000
157.141220 -36.083805 9.173110 0.213184
156.044876 -38.254219 7.283312 0.776471
156.044876 -38.254219 5.765681 0.742687
156.044876 -38.254223 4.256178 0.776471
156.044861 -38.254230 2.751523 0.766445
156.044861 -38.254230 1.248478 0.776471
153.693924 -42.908314 -0.000024 0.542367
146.335785 -57.474968 -0.000015 0.553017
143.176697 -63.728935 -0.000010 0.559319
141.417236 -67.212059 -0.000008 0.548669
140.293991 -69.435722 -0.000006 0.538125
139.095764 -71.807816 0.199998 0.666194
138.578094 -72.832626 0.199998 0.654765
nan nan nan 0.000000
nan nan nan 0.000000
nan nan nan 0.000000
156.905014 -37.281982 8.998839 0.223011
156.405350 -38.254219 7.302139 0.758495
156.405350 -38.254223 5.779101 0.764065
156.269608 -38.518360 4.249629 0.682643
156.405350 -38.254227 2.754200 0.761532
156.405350 -38.254227 1.245799 0.761624
153.947174 -43.037338 -0.000024 0.543297
146.487518 -57.552273 -0.000015 0.544793
143.284836 -63.784035 -0.000010 0.545739
141.501114 -67.254791 -0.000008 0.524117
140.362366 -69.470558 -0.000007 0.544457
139.147598 -71.834236 0.199998 0.696696
138.622787 -72.855400 0.199998 0.779034
nan nan nan 0.000000
nan nan nan 0.000000
nan nan nan 0.000000
156.663879 -38.454197 8.828006 0.231891
156.768433 -38.254219 7.321362 0.693019
156.768433 -38.254215 5.792801 0.711269
156.174500 -39.390305 4.209448 0.670924
156.768433 -38.254223 2.756934 0.711543
156.768433 -38.254223 1.243065 0.711269
154.199493 -43.168152 -0.000023 0.539330
146.638702 -57.630646 -0.000015 0.543603
143.392593 -63.839893 -0.000010 0.543389
141.584686 -67.298111 -0.000008 0.553368
140.430496 -69.505875 -0.000006 0.545632
139.199265 -71.861008 0.199998 0.729900
138.667328 -72.878487 0.199998 0.720867
nan nan nan 0.000000
nan nan nan 0.000000
nan nan nan 0.000000
157.134171 -38.254215 8.886782 0.717769
157.134171 -38.254219 7.340985 0.731548
157.134171 -38.254219 5.806789 0.733196
156.205124 -40.001488 4.183589 0.697673
157.134155 -38.254227 2.759726 0.738430
157.134155 -38.254227 1.240274 0.716182
154.450897 -43.300713 -0.000023 0.541161
146.789337 -57.710060 -0.000015 0.542992
143.499954 -63.896500 -0.000010 0.560678
141.667938 -67.342003 -0.000008 0.542702
140.498367 -69.541664 -0.000006 0.567788
139.250717 -71.888145 0.199998 0.701457
138.711716 -72.901886 0.199998 0.676921
nan nan nan 0.000000
nan nan nan 0.000000
nan nan nan 0.000000
157.502625 -38.254215 8.912609 0.757397
157.502625 -38.254215 7.361016 0.764706
157.502625 -38.254219 5.821066 0.749767
156.205109 -40.653931 4.155342 0.586404
157.502625 -38.254219 2.762576 0.759472
157.502625 -38.254219 1.237425 0.752941
154.701385 -43.435020 -0.000023 0.539071
146.939407 -57.790539 -0.000014 0.559594
143.606918 -63.953854 -0.000010 0.545754
141.750900 -67.386490 -0.000008 0.549203
140.565994 -69.577927 -0.000006 0.515175
139.302002 -71.915642 0.199998 0.702861
138.755920 -72.925591 0.199998 0.746303
nan nan nan 0.000000
nan nan nan 0.000000
nan nan nan 0.000000
157.873886 -38.254215 8.938971 0.734142
157.847702 -38.301838 7.375210 0.606043
157.847702 -38.301830 5.831182 0.607584
156.219452 -41.263626 4.129380 0.395377
157.847702 -38.301834 2.764594 0.619745
157.847702 -38.301834 1.235406 0.623529
154.950928 -43.571068 -0.000023 0.539757
147.088913 -57.872055 -0.000014 0.546670
143.713470 -64.011955 -0.000010 0.526009
141.833542 -67.431549 -0.000008 0.526436
140.633362 -69.614655 -0.000007 0.534463
139.353088 -71.943497 0.199998 0.775387
138.799973 -72.949608 0.199998 0.755108
nan nan nan 0.000000
nan nan nan 0.000000
nan nan nan 0.000000
158.248001 -38.254219 8.965875 0.750484
158.119278 -38.484547 7.371972 0.626474
158.119293 -38.484539 5.828875 0.618845
156.484100 -41.410351 4.129379 0.459510
156.566406 -41.263096 2.712047 0.647135
156.566406 -41.263096 1.287953 0.641840
155.199509 -43.708870 -0.000023 0.543236
147.237854 -57.954605 -0.000014 0.541527
143.819626 -64.070793 -0.000010 0.556085
141.915878 -67.477180 -0.000008 0.540139
140.700485 -69.651863 -0.000006 0.543969
139.403976 -71.971703 0.199998 0.697810
138.843857 -72.973930 0.199998 0.688945
nan nan nan 0.000000
nan nan nan 0.000000
nan nan nan 0.000000
158.625061 -38.254211 8.993332 0.733333
158.625061 -38.254215 7.423621 0.764706
158.625061 -38.254211 5.865686 0.762081
156.747742 -41.558907 4.129379 0.450095
156.871216 -41.341534 2.713376 0.596994
156.871216 -41.341534 1.286623 0.636927
155.447128 -43.848389 -0.000023 0.541970
147.386200 -58.038197 -0.000014 0.545205
143.925369 -64.130379 -0.000010 0.542168
141.997879 -67.523392 -0.000007 0.566232
140.767334 -69.689529 -0.000006 0.557076
139.454666 -72.000267 0.199999 0.669215
138.887558 -72.998558 0.199998 0.663310
nan nan nan 0.000000
nan nan nan 0.000000
nan nan nan 0.000000
159.005112 -38.254208 9.021350 0.776471
159.005112 -38.254208 7.445349 0.740932
158.964691 -38.324196 5.874548 0.949096
157.010315 -41.709293 4.129379 0.475196
159.005096 -38.254219 2.774572 0.776196
159.005096 -38.254219 1.225429 0.776196
155.693756 -43.989635 -0.000023 0.540185
147.533966 -58.122833 -0.000014 0.546471
144.030701 -64.190689 -0.000011 0.542565
142.079559 -67.570168 -0.000008 0.547433
140.833923 -69.727669 -0.000006 0.543389
139.505157 -72.029175 0.199998 0.727077
138.931091 -73.023483 0.199998 0.742687
nan nan nan 0.000000
nan nan nan 0.000000
nan nan nan 0.000000
159.388229 -38.254219 9.049937 0.706172
159.388229 -38.254219 7.467519 0.704204
159.376511 -38.274197 5.895078 0.611765
157.271851 -41.861507 4.129379 0.471946
159.388229 -38.254215 2.777725 0.729458
159.388229 -38.254215 1.222275 0.741176
155.939407 -44.132603 -0.000023 0.539315
147.681152 -58.208485 -0.000014 0.533806
144.135590 -64.251747 -0.000010 0.527367
142.160919 -67.617516 -0.000008 0.544900
140.900253 -69.766273 -0.000006 0.544198
139.555435 -72.058449 0.199998 0.699550
138.974442 -73.048721 0.199998 0.640604
nan nan nan 0.000000
nan nan nan 0.000000
nan nan nan 0.000000
159.774506 -38.254215 9.079103 0.774960
159.774506 -38.254219 7.490140 0.766690
159.750656 -38.294216 5.909280 0.293187
157.645721 -41.825279 4.140260 0.629908
159.774506 -38.254219 2.780942 0.772061
159.774506 -38.254219 1.219057 0.761761
156.184036 -44.277279 -0.000023 0.542199
147.827713 -58.295170 -0.000014 0.545892
144.240067 -64.313538 -0.000010 0.530724
142.241928 -67.665428 -0.000008 0.546365
140.403473 -70.749489 0.199998 0.738796
139.605515 -72.088058 0.199998 0.692271
139.017624 -73.074257 0.199998 0.734874
nan nan nan 0.000000
nan nan nan 0.000000
nan nan nan 0.000000
160.164017 -38.254215 9.108862 0.742351
160.164017 -38.254215 7.513219 0.717037
160.151901 -38.274212 5.927632 0.611765
158.001297 -41.825287 4.149257 0.629908
160.164017 -38.254215 2.784225 0.724910
160.164017 -38.254215 1.215775 0.724910
156.427673 -44.423668 -0.000023 0.532067
147.973679 -58.382874 -0.000013 0.547799
144.344101 -64.376045 -0.000010 0.547799
142.322617 -67.713913 -0.000008 0.524987
140.462662 -70.785065 0.199999 0.670085
139.655396 -72.118027 0.199998 0.691798
139.060638 -73.100098 0.199998 0.666224
nan nan nan 0.000000
nan nan nan 0.000000
nan nan nan 0.000000
160.556824 -38.254211 9.139221 0.691981
160.556824 -38.254211 7.536763 0.702892
160.544525 -38.274220 5.944404 0.611765
158.359894 -41.825291 4.158435 0.633082
160.556824 -38.254211 2.787575 0.720012
160.556824 -38.254211 1.212426 0.705211
156.670258 -44.571751 -0.000023 0.546151
148.119034 -58.471596 -0.000014 0.538628
144.447693 -64.439278 -0.000010 0.522286
142.402954 -67.762955 -0.000008 0.527535
140.521606 -70.821045 0.199998 0.734569
139.705048 -72.148346 0.199999 0.731853
139.103455 -73.126236 0.199999 0.705623
nan nan nan 0.000000
nan nan nan 0.000000
nan nan nan 0.000000
160.953033 -38.254219 9.170191 0.765301
160.953033 -38.254215 7.560780 0.764340
160.940536 -38.274212 5.961515 0.611765
158.721588 -41.825287 4.167799 0.649516
160.953033 -38.254215 2.790991 0.776471
160.953033 -38.254215 1.209009 0.776471
156.911819 -44.721519 -0.000023 0.539956
148.263763 -58.561333 -0.000014 0.526375
144.550842 -64.503242 -0.000010 0.537163
142.482956 -67.812553 -0.000008 0.535348
140.580307 -70.857437 0.199999 0.686931
139.754501 -72.179001 0.199999 0.699855
139.146088 -73.152672 0.199998 0.726299
nan nan nan 0.000000
nan nan nan 0.000000
nan nan nan 0.000000
161.352692 -38.254219 9.201781 0.709834
161.352707 -38.254215 7.585283 0.729885
161.340012 -38.274200 5.978970 0.611765
159.086441 -41.825283 4.177350 0.709728
161.352707 -38.254215 2.794476 0.726589
161.352707 -38.254215 1.205524 0.726589
157.152313 -44.872974 -0.000022 0.540703
148.407852 -58.652069 -0.000014 0.541009
144.653549 -64.567917 -0.000010 0.556298
142.562607 -67.862717 -0.000008 0.537957
140.638748 -70.894241 0.199999 0.681315
139.803741 -72.210007 0.199999 0.671916
139.188538 -73.179405 0.199999 0.684977
nan nan nan 0.000000
nan nan nan 0.000000
nan nan nan 0.000000
161.755936 -38.254219 9.234009 0.756893
161.755936 -38.254211 7.610276 0.760204
161.724365 -38.303192 5.993947 0.278431
159.454544 -41.825283 4.187094 0.692332
161.755936 -38.254208 2.798032 0.776471
161.755936 -38.254208 1.201969 0.774914
157.391754 -45.026115 -0.000022 0.538735
148.551315 -58.743820 -0.000014 0.543221
144.755798 -64.633308 -0.000010 0.536034
142.641907 -67.913429 -0.000007 0.559701
140.696930 -70.931450 0.199998 0.683497
139.852753 -72.241356 0.199999 0.751431
139.230804 -73.206436 0.199999 0.710430
nan nan nan 0.000000
nan nan nan 0.000000
171.814728 -23.504532 14.121258 0.769406
162.162811 -38.254219 9.266879 0.741176
162.162811 -38.254219 7.635768 0.776471
162.162811 -38.254204 6.016897 0.768261
159.825974 -41.825287 4.197031 0.709270
162.162811 -38.254215 2.801657 0.755611
162.162811 -38.254215 1.198343 0.767468
157.630112 -45.180908 -0.000022 0.543496
148.694122 -58.836563 -0.000014 0.541100
144.857590 -64.699409 -0.000010 0.522332
142.720856 -67.964691 -0.000008 0.523751
140.754852 -70.969063 0.199998 0.729320
139.901550 -72.273048 0.199999 0.739696
139.272873 -73.233757 0.199998 0.741970
nan nan nan 0.000000
nan nan nan 0.000000
169.404144 -27.973137 13.200994 0.594812
162.573425 -38.254223 9.300408 0.694438
162.573425 -38.254219 7.661770 0.721843
162.573425 -38.254208 6.035429 0.725719
160.200821 -41.825291 4.207169 0.679118
162.573425 -38.254215 2.805355 0.711604
162.573425 -38.254219 1.194644 0.722271
157.867401 -45.337364 -0.000022 0.538064
148.836288 -58.930305 -0.000013 0.536583
144.958923 -64.766220 -0.000010 0.545525
142.799438 -68.016510 -0.000007 0.529549
140.812515 -71.007080 0.199998 0.672557
139.950119 -72.305077 0.199999 0.673747
139.314758 -73.261375 0.199999 0.743801
nan nan nan 0.000000
nan nan nan 0.000000
167.908127 -30.959606 12.598001 0.653727
162.987854 -38.254219 9.334608 0.758923
162.987854 -38.254219 7.688295 0.741176
162.987869 -38.254200 6.054334 0.776471
160.579147 -41.825291 4.217507 0.644892
162.987869 -38.254208 2.809129 0.776471
162.987854 -38.254215 1.190871 0.776471
158.103561 -45.495495 -0.000021 0.542397
148.977783 -59.025032 -0.000013 0.524834
145.059769 -64.833748 -0.000009 0.556512
142.877655 -68.068878 -0.000007 0.550851
140.869904 -71.045502 0.199999 0.757595
139.998474 -72.337440 0.199999 0.783032
139.356445 -73.289284 0.199999 0.675746
nan nan nan 0.000000
nan nan nan 0.000000
168.188751 -31.269493 12.580065 0.945144
163.406219 -38.254219 9.369491 0.694942
163.406219 -38.254219 7.715345 0.712688
163.406235 -38.254208 6.073616 0.726238
160.961060 -41.825287 4.228054 0.678340
163.406235 -38.254204 2.812977 0.721569
163.406219 -38.254215 1.187023 0.715541
158.338654 -45.655235 -0.000022 0.545541
149.118637 -59.120750 -0.000013 0.544808
145.160156 -64.901962 -0.000009 0.531868
142.955505 -68.121780 -0.000007 0.555642
140.927017 -71.084320 0.199999 0.695247
140.046600 -72.370148 0.199999 0.693935
139.397949 -73.317482 0.199999 0.726650
nan nan nan 0.000000
nan nan nan 0.000000
168.195709 -31.970760 12.475750 0.746990
163.828598 -38.254215 9.405068 0.765988
163.828598 -38.254211 7.742939 0.776471
163.828613 -38.254204 6.093281 0.752941
161.366470 -41.796768 4.240517 0.685023
163.828613 -38.254200 2.816901 0.748486
163.828598 -38.254215 1.183098 0.752941
158.572601 -45.816628 -0.000022 0.546929
149.258804 -59.217445 -0.000013 0.532860
145.260071 -64.970879 -0.000010 0.538216
143.032990 -68.175232 -0.000008 0.519966
140.983871 -71.123535 0.199999 0.719783
140.094482 -72.403183 0.199999 0.698909
139.439240 -73.345970 0.199999 0.743923
nan nan nan 0.000000
nan nan nan 0.000000
168.195709 -32.668030 12.371823 0.721523
164.255096 -38.254223 9.441355 0.744213
164.255096 -38.254219 7.771081 0.705638
164.240982 -38.274223 6.111333 0.611765
161.788834 -41.750381 4.254284 0.688167
164.255112 -38.254200 2.820905 0.728008
164.255096 -38.254215 1.179096 0.738506
158.805420 -45.979645 -0.000022 0.542687
149.398285 -59.315117 -0.000013 0.545968
145.359482 -65.040497 -0.000010 0.534310
143.110092 -68.229225 -0.000007 0.543694
141.040436 -71.163147 0.199999 0.715236
140.142151 -72.436554 0.199999 0.712444
139.480331 -73.374748 0.199999 0.693248
nan nan nan 0.000000
nan nan nan 0.000000
168.195724 -33.351627 12.270435 0.696208
164.685822 -38.254219 9.478367 0.762036
164.685822 -38.254223 7.799784 0.753582
164.657196 -38.294189 6.129767 0.290242
162.215805 -41.704304 4.268281 0.692638
164.685837 -38.254204 2.824988 0.754177
164.685822 -38.254215 1.175012 0.764523
159.037094 -46.144283 -0.000022 0.533898
149.537094 -59.413765 -0.000013 0.529580
145.458420 -65.110809 -0.000009 0.536629
143.186813 -68.283752 -0.000007 0.526497
141.096741 -71.203156 0.199999 0.702022
140.189575 -72.470261 0.199999 0.690547
139.521225 -73.403809 0.199999 0.663600
nan nan nan 0.000000
nan nan nan 0.000000
168.195709 -34.022041 12.171494 0.737270
165.120865 -38.254227 9.516113 0.695094
165.120865 -38.254215 7.829061 0.717433
165.106339 -38.274212 6.152638 0.611765
162.606537 -41.714901 4.279087 0.664820
165.120880 -38.254192 2.829153 0.722347
165.120880 -38.254208 1.170848 0.699870
159.267609 -46.310543 -0.000022 0.533913
149.675217 -59.513371 -0.000013 0.529168
145.556854 -65.181801 -0.000009 0.547311
143.263168 -68.338814 -0.000007 0.518044
141.152756 -71.243553 0.199999 0.711620
140.236771 -72.504295 0.199999 0.655940
139.561920 -73.433151 0.199999 0.678340
nan nan nan 0.000000
nan nan nan 0.000000
168.195709 -34.679695 12.074926 0.750332
165.560349 -38.254219 9.554618 0.755978
165.560349 -38.254215 7.858920 0.753613
165.545609 -38.274204 6.173911 0.611765
163.008911 -41.714905 4.290762 0.695903
165.560364 -38.254192 2.833400 0.752941
165.560364 -38.254208 1.166600 0.763149
159.496964 -46.478416 -0.000021 0.545220
149.812622 -59.613953 -0.000013 0.543465
145.654800 -65.253487 -0.000009 0.531563
143.339127 -68.394409 -0.000007 0.531395
141.208481 -71.284340 0.199999 0.715465
140.283722 -72.538658 0.199999 0.676020
139.602402 -73.462784 0.199999 0.692180
nan nan nan 0.000000
nan nan nan 0.000000
168.195694 -35.325016 11.980659 0.772015
166.004379 -38.254219 9.593887 0.682261
166.004379 -38.254215 7.889376 0.728557
165.989426 -38.274200 6.195609 0.611765
163.415466 -41.714901 4.302670 0.667903
166.004395 -38.254196 2.837732 0.744289
166.004379 -38.254211 1.162268 0.706767
159.725128 -46.647869 -0.000021 0.536660
149.949326 -59.715481 -0.000013 0.540002
145.752243 -65.325851 -0.000009 0.547204
143.414688 -68.450531 -0.000007 0.554849
141.263931 -71.325516 0.199999 0.697124
140.330429 -72.573349 0.199999 0.728847
139.642670 -73.492691 0.199999 0.669718
nan nan nan 0.000000
nan nan nan 0.000000
168.232422 -35.910023 11.899668 0.711269
166.453079 -38.254215 9.633945 0.763012
166.453079 -38.254219 7.920443 0.775967
166.437912 -38.274200 6.217740 0.611765
163.826279 -41.714901 4.314816 0.666346
166.453094 -38.254192 2.842152 0.763821
166.453079 -38.254208 1.157849 0.763989
159.952118 -46.818932 -0.000021 0.543145
150.085327 -59.817963 -0.000013 0.540520
145.849167 -65.398903 -0.000009 0.546929
143.489868 -68.507179 -0.000007 0.542641
141.319077 -71.367081 0.199999 0.716838
140.376892 -72.608360 0.199999 0.674449
139.682739 -73.522888 0.199999 0.670878
nan nan nan 0.000000
nan nan nan 0.000000
168.711823 -35.910023 11.952650 0.771618
166.906540 -38.254223 9.674800 0.734279
166.906540 -38.254223 7.952128 0.773800
166.852615 -38.324234 6.235135 0.940078
164.241455 -41.714901 4.327205 0.673198
166.906555 -38.254192 2.846659 0.748623
166.906555 -38.254208 1.153342 0.774075
160.177902 -46.991550 -0.000021 0.539117
150.220596 -59.921387 -0.000013 0.530922
145.945587 -65.472618 -0.000009 0.532509
143.564636 -68.564346 -0.000007 0.528572
141.373947 -71.409027 0.199999 0.659892
140.423111 -72.643700 0.199999 0.755322
139.722595 -73.553360 0.199999 0.747402
nan nan nan 0.000000
nan nan nan 0.000000
169.196411 -35.910015 12.006698 0.771054
167.364914 -38.254219 9.716475 0.711574
167.364929 -38.254215 7.984449 0.732280
167.364929 -38.254208 6.265418 0.726955
164.661148 -41.714901 4.339843 0.653132
165.219238 -41.000561 2.794224 0.598993
165.219238 -41.000561 1.205775 0.628901
160.402481 -47.165756 -0.000021 0.538293
150.355164 -60.025757 -0.000013 0.536660
146.041489 -65.547005 -0.000010 0.524147
143.639008 -68.622040 -0.000007 0.540459
141.428513 -71.451355 0.199999 0.755642
140.469086 -72.679367 0.199999 0.730785
139.762238 -73.584106 0.200000 0.675883
nan nan nan 0.000000
nan nan nan 0.000000
169.686325 -35.910007 12.061821 0.731350
167.828339 -38.254208 9.758986 0.776471
167.697693 -38.419037 7.993221 0.612772
167.697693 -38.419029 6.271670 0.620569
165.085419 -41.714897 4.352731 0.698558
165.373627 -41.351284 2.791277 0.622370
165.373627 -41.351284 1.208723 0.606485
160.625824 -47.341522 -0.000021 0.539940
150.488983 -60.131058 -0.000013 0.536004
146.136871 -65.622063 -0.000009 0.546517
143.712982 -68.680252 -0.000007 0.516228
141.482788 -71.494064 0.199999 0.672541
140.514816 -72.715347 0.199999 0.684535
