# This PCD file was generated using the MATLABÂ® pcwrite function
# from Computer Vision ToolboxÂ®.
# .PCD v.7 - Point Cloud Data file format
VERSION .7
FIELDS x y z intensity
SIZE 4 4 4 4
TYPE F F F F
COUNT 1 1 1 1
WIDTH 1272
HEIGHT 1
VIEWPOINT 0 0 0 1 0 0 0
POINTS 1272
DATA ascii
-27.615053 78.240044 -0.000003 0.543755
-16.822878 65.998703 -0.000000 0.540200
-12.189409 60.743053 -0.000000 0.546654
-9.608814 57.815937 -0.000000 0.524376
-7.961329 55.947227 -0.000001 0.525139
-6.203884 53.953796 0.199996 0.787533
-5.444616 53.092575 0.199994 0.680766
nan nan nan 0.000000
nan nan nan 0.000000
nan nan nan 0.000000
nan nan nan 0.000000
nan nan nan 0.000000
nan nan nan 0.000000
nan nan nan 0.000000
nan nan nan 0.000000
nan nan nan 0.000000
-27.401199 78.427246 -0.000003 0.541634
-16.694748 66.110863 -0.000000 0.540383
-12.098091 60.823002 -0.000000 0.525490
-9.537990 57.877937 -0.000000 0.559945
-7.903591 55.997772 -0.000001 0.548882
-6.160107 53.992119 0.199996 0.668956
-5.406868 53.125618 0.199995 0.737514
nan nan nan 0.000000
nan nan nan 0.000000
nan nan nan 0.000000
nan nan nan 0.000000
nan nan nan 0.000000
nan nan nan 0.000000
nan nan nan 0.000000
nan nan nan 0.000000
nan nan nan 0.000000
-27.186054 78.612968 -0.000003 0.544427
-16.565844 66.222130 0.000000 0.541985
-12.006211 60.902306 -0.000000 0.559808
-9.466733 57.939442 0.000000 0.550484
-7.845500 56.047913 -0.000001 0.516609
-6.116063 54.030140 0.199996 0.746502
-5.368892 53.158398 0.199995 0.742123
nan nan nan 0.000000
nan nan nan 0.000000
nan nan nan 0.000000
nan nan nan 0.000000
nan nan nan 0.000000
nan nan nan 0.000000
nan nan nan 0.000000
nan nan nan 0.000000
nan nan nan 0.000000
-26.969604 78.797165 -0.000003 0.537942
-16.436161 66.332497 -0.000000 0.531746
-11.913782 60.980968 -0.000000 0.528725
-9.395052 58.000450 0.000000 0.536889
-7.787062 56.097649 -0.000001 0.544610
-6.071753 54.067848 0.199996 0.740795
-5.330687 53.190914 0.199995 0.679316
nan nan nan 0.000000
nan nan nan 0.000000
nan nan nan 0.000000
nan nan nan 0.000000
nan nan nan 0.000000
nan nan nan 0.000000
nan nan nan 0.000000
nan nan nan 0.000000
nan nan nan 0.000000
-26.751879 78.979851 -0.000003 0.540475
-16.305721 66.441956 -0.000000 0.525216
-11.820805 61.058983 0.000000 0.540627
-9.322946 58.060951 0.000000 0.539925
-7.728280 56.146973 -0.000001 0.566445
-6.027182 54.105247 0.199996 0.678492
-5.292255 53.223160 0.199995 0.723507
nan nan nan 0.000000
nan nan nan 0.000000
nan nan nan 0.000000
nan nan nan 0.000000
nan nan nan 0.000000
nan nan nan 0.000000
nan nan nan 0.000000
nan nan nan 0.000000
nan nan nan 0.000000
-26.532900 79.161026 -0.000003 0.539483
-16.174511 66.550499 -0.000000 0.537346
-11.727286 61.136345 0.000000 0.531548
-9.250420 58.120953 0.000000 0.519860
-7.669154 56.195885 -0.000001 0.504982
-5.982350 54.142334 0.199996 0.738216
-5.253601 53.255138 0.199995 0.771359
nan nan nan 0.000000
nan nan nan 0.000000
nan nan nan 0.000000
nan nan nan 0.000000
nan nan nan 0.000000
nan nan nan 0.000000
nan nan nan 0.000000
nan nan nan 0.000000
nan nan nan 0.000000
-26.312647 79.340660 -0.000003 0.543526
-16.042555 66.658127 -0.000000 0.549325
-11.633231 61.213058 0.000000 0.554589
-9.177474 58.180443 -0.000000 0.532021
-7.609686 56.244385 -0.000001 0.559853
-5.937262 54.179108 0.199996 0.700389
-5.214724 53.286846 0.199995 0.695079
nan nan nan 0.000000
nan nan nan 0.000000
nan nan nan 0.000000
nan nan nan 0.000000
nan nan nan 0.000000
nan nan nan 0.000000
nan nan nan 0.000000
nan nan nan 0.000000
nan nan nan 0.000000
-26.091152 79.518761 -0.000003 0.545403
-15.909843 66.764832 -0.000000 0.532525
-11.538643 61.289108 0.000000 0.549371
-9.104116 58.239426 0.000000 0.547524
-7.549883 56.292469 -0.000001 0.515221
-5.891918 54.215565 0.199996 0.700008
-5.175626 53.318283 0.199994 0.689540
nan nan nan 0.000000
nan nan nan 0.000000
nan nan nan 0.000000
nan nan nan 0.000000
nan nan nan 0.000000
nan nan nan 0.000000
nan nan nan 0.000000
nan nan nan 0.000000
nan nan nan 0.000000
-25.868416 79.695297 -0.000004 0.537072
-15.776389 66.870590 -0.000000 0.528740
-11.443525 61.364494 0.000000 0.533547
-9.030349 58.297890 0.000000 0.526390
-7.489746 56.340130 -0.000001 0.575601
-5.846320 54.251705 0.199996 0.754498
-5.136310 53.349442 0.199995 0.752682
nan nan nan 0.000000
nan nan nan 0.000000
nan nan nan 0.000000
nan nan nan 0.000000
nan nan nan 0.000000
nan nan nan 0.000000
nan nan nan 0.000000
nan nan nan 0.000000
nan nan nan 0.000000
-25.644453 79.870285 -0.000004 0.538766
-15.642204 66.975433 -0.000000 0.544747
-11.347884 61.439224 0.000000 0.549950
-8.956176 58.355843 0.000000 0.538476
-7.429277 56.387375 -0.000001 0.532586
-5.800471 54.287529 0.199996 0.684031
-5.096777 53.380329 0.199994 0.694331
nan nan nan 0.000000
nan nan nan 0.000000
nan nan nan 0.000000
nan nan nan 0.000000
nan nan nan 0.000000
nan nan nan 0.000000
nan nan nan 0.000000
nan nan nan 0.000000
nan nan nan 0.000000
-25.419270 80.043694 -0.000004 0.541619
-15.507286 67.079330 -0.000000 0.543832
-11.251721 61.513275 0.000000 0.539178
-8.881598 58.413277 0.000000 0.525307
-7.368479 56.434196 -0.000001 0.556252
-5.754373 54.323029 0.199996 0.697414
-5.057030 53.410938 0.199994 0.657237
nan nan nan 0.000000
nan nan nan 0.000000
nan nan nan 0.000000
nan nan nan 0.000000
nan nan nan 0.000000
nan nan nan 0.000000
nan nan nan 0.000000
nan nan nan 0.000000
nan nan nan 0.000000
-25.192888 80.215530 -0.000004 0.541054
-15.371652 67.182289 -0.000000 0.528817
-11.155047 61.586655 0.000000 0.550256
-8.806623 58.470184 0.000000 0.533394
-7.307358 56.480591 -0.000001 0.501945
-5.708027 54.358204 0.199996 0.734646
-5.017071 53.441269 0.199994 0.743191
nan nan nan 0.000000
nan nan nan 0.000000
nan nan nan 0.000000
nan nan nan 0.000000
nan nan nan 0.000000
nan nan nan 0.000000
nan nan nan 0.000000
nan nan nan 0.000000
nan nan nan 0.000000
-24.965311 80.385788 -0.000004 0.545403
-15.235301 67.284294 -0.000000 0.536385
-11.057860 61.659359 0.000000 0.548241
-8.731251 58.526569 0.000000 0.542107
-7.245912 56.526558 -0.000001 0.539849
-5.661439 54.393059 0.199996 0.671733
-4.976900 53.471321 0.199994 0.687022
nan nan nan 0.000000
nan nan nan 0.000000
nan nan nan 0.000000
nan nan nan 0.000000
nan nan nan 0.000000
nan nan nan 0.000000
nan nan nan 0.000000
nan nan nan 0.000000
nan nan nan 0.000000
-24.736544 80.554451 -0.000004 0.541878
-15.098236 67.385345 0.000000 0.545769
-10.960172 61.731384 0.000000 0.516945
-8.655487 58.582428 0.000000 0.539803
-7.184146 56.572094 -0.000001 0.539101
-5.614605 54.427582 0.199997 0.690196
-4.936520 53.501095 0.199994 0.671778
nan nan nan 0.000000
nan nan nan 0.000000
nan nan nan 0.000000
nan nan nan 0.000000
nan nan nan 0.000000
nan nan nan 0.000000
nan nan nan 0.000000
nan nan nan 0.000000
nan nan nan 0.000000
-24.506613 80.721504 -0.000005 0.538064
-14.960478 67.485443 -0.000000 0.532784
-10.861979 61.802723 0.000000 0.530053
-8.579335 58.637753 0.000000 0.534279
-7.122066 56.617195 -0.000001 0.552697
-5.567535 54.461781 0.199996 0.676814
-4.895935 53.530582 0.199994 0.698405
nan nan nan 0.000000
nan nan nan 0.000000
nan nan nan 0.000000
nan nan nan 0.000000
nan nan nan 0.000000
nan nan nan 0.000000
nan nan nan 0.000000
nan nan nan 0.000000
nan nan nan 0.000000
-24.275513 80.886963 -0.000004 0.538094
-14.822011 67.584564 -0.000000 0.540948
-10.763289 61.873375 0.000000 0.550988
-8.502798 58.692547 0.000000 0.554955
-7.059672 56.661869 -0.000001 0.536995
-5.520226 54.495651 0.199997 0.676646
-4.855141 53.559784 0.199994 0.680476
-52.833988 122.168289 24.770815 0.742031
-52.833977 122.168274 21.633848 0.652079
-52.833992 122.168289 18.540941 0.727337
-52.833988 122.168289 15.484658 0.674922
-52.833992 122.168289 12.457913 0.726085
-52.833988 122.168289 9.453879 0.559213
-52.833981 122.168274 6.465933 0.663645
-52.900455 122.263214 3.489476 0.678431
-52.900467 122.263229 0.510522 0.678431
-24.043268 81.050789 -0.000005 0.545586
-14.682863 67.682724 -0.000000 0.537835
-10.664115 61.943340 0.000000 0.535546
-8.425882 58.746807 0.000000 0.554574
-6.996967 56.706100 -0.000001 0.493919
-5.472681 54.529190 0.199996 0.703136
-4.814147 53.588703 0.199994 0.710201
-52.062981 122.168259 24.660587 0.668894
-52.062984 122.168274 21.538815 0.699153
-52.062996 122.168289 18.460875 0.675471
-52.062988 122.168274 15.419384 0.560662
-52.062988 122.168274 12.407294 0.488182
-52.062977 122.168259 9.417799 0.535454
-52.062992 122.168274 6.444316 0.644419
-52.128502 122.263245 3.482269 0.678431
-52.128502 122.263245 0.517731 0.678431
-23.809893 81.212997 -0.000005 0.538582
-14.543037 67.779907 -0.000000 0.538140
-10.564452 62.012608 0.000000 0.538445
-8.348590 58.800526 0.000000 0.544427
-6.933956 56.749893 -0.000001 0.551034
-5.424906 54.562397 0.199996 0.738628
-4.772953 53.617336 0.199993 0.657755
-51.299404 122.168320 24.552536 0.579522
-51.428524 122.358307 21.495266 0.678431
-51.428535 122.358322 18.424187 0.678431
-51.345848 122.236649 15.367651 0.603494
-51.299412 122.168320 12.357666 0.700648
-51.428524 122.358307 9.401267 0.678431
-51.428528 122.358322 6.434412 0.678431
-51.363945 122.263290 3.475199 0.666667
-51.363945 122.263290 0.524798 0.671763
-23.575382 81.373581 -0.000005 0.539025
-14.402531 67.876114 -0.000000 0.535729
-10.464307 62.081177 -0.000000 0.563363
-8.270924 58.853706 0.000000 0.559701
-6.870639 56.793247 -0.000001 0.549630
-5.376897 54.595268 0.199996 0.675624
-4.731559 53.645679 0.199994 0.737285
-50.543022 122.168350 24.446594 0.549416
-50.543015 122.168335 21.354305 0.534585
-50.543022 122.168350 18.305428 0.522911
-50.543015 122.168335 15.292656 0.685267
-50.543026 122.168350 12.309011 0.550393
-50.543018 122.168335 9.347750 0.458640
-50.543011 122.168335 6.402346 0.590295
-50.624172 122.289566 3.468787 0.062257
-50.624172 122.289566 0.531213 0.182605
-23.339754 81.532509 -0.000005 0.541772
-14.261358 67.971336 -0.000000 0.538064
-10.363686 62.149048 0.000000 0.519585
-8.192888 58.906342 0.000000 0.546502
-6.807022 56.836159 -0.000001 0.515938
-5.328660 54.627804 0.199996 0.718624
-4.689968 53.673733 0.199994 0.744564
-49.793655 122.168320 24.342718 0.703059
-49.793671 122.168350 21.264742 0.627665
-49.793674 122.168350 18.229973 0.529366
-49.793655 122.168320 15.231146 0.613550
-49.793663 122.168335 12.261304 0.597543
-49.793663 122.168335 9.313749 0.662715
-49.793655 122.168335 6.381974 0.485451
-49.856327 122.263367 3.461476 0.479942
-49.856327 122.263367 0.538522 0.667308
-23.103020 81.689774 -0.000004 0.538872
-14.119526 68.065567 -0.000000 0.537682
-10.262592 62.216209 0.000000 0.530098
-8.114486 58.958431 0.000000 0.526345
-6.743107 56.878620 -0.000001 0.570596
-5.280199 54.660000 0.199996 0.752422
-4.648182 53.701496 0.199993 0.672724
-49.051144 122.168304 24.240873 0.549371
-49.174526 122.358292 21.225845 0.678431
-49.174522 122.358292 18.197206 0.678431
-49.174526 122.358292 15.204434 0.678431
-49.051151 122.168320 12.214531 0.594415
-49.174522 122.358292 9.298983 0.678431
-49.174511 122.358276 6.373126 0.678431
-49.112850 122.263321 3.454815 0.678431
-49.112846 122.263321 0.545185 0.678431
-22.865194 81.845398 -0.000004 0.541054
-13.977034 68.158806 -0.000000 0.543343
-10.161034 62.282669 0.000000 0.540063
-8.035724 59.009972 0.000000 0.534142
-6.678897 56.920639 -0.000001 0.547814
-5.231514 54.691864 0.199996 0.681041
-4.606204 53.728966 0.199993 0.715877
-48.315357 122.168320 24.141033 0.605081
-48.315361 122.168335 21.090836 0.584710
-48.315346 122.168304 18.083458 0.622431
-48.315361 122.168335 15.111714 0.657908
-48.315350 122.168304 12.168676 0.680018
-48.315353 122.168320 9.247725 0.735882
-48.315357 122.168320 6.342419 0.492485
-48.376076 122.263260 3.448281 0.678431
-48.376076 122.263260 0.551717 0.678431
-22.626293 81.999374 -0.000004 0.538796
-13.833898 68.251053 -0.000000 0.542382
-10.059012 62.348419 0.000000 0.537591
-7.956602 59.060966 0.000000 0.540658
-6.614395 56.962212 -0.000001 0.531701
-5.182607 54.723381 0.199996 0.675669
-4.564034 53.756142 0.199993 0.771969
-47.586113 122.168335 24.043159 0.513970
-47.586136 122.168365 21.006453 0.604105
-47.586117 122.168335 18.012367 0.549554
-47.586121 122.168350 15.053749 0.646265
-47.586128 122.168365 12.123730 0.613626
-47.586124 122.168350 9.215691 0.563928
-47.586121 122.168350 6.323224 0.600168
-47.624329 122.229019 3.441219 0.081987
-47.624329 122.229019 0.558781 0.200839
-22.386322 82.151665 -0.000005 0.536843
-13.690122 68.342300 -0.000000 0.541711
-9.956534 62.413452 0.000000 0.547707
-7.877128 59.111404 0.000000 0.545327
-6.549603 57.003326 -0.000000 0.538964
-5.133482 54.754559 0.199996 0.759640
-4.521676 53.783024 0.199993 0.758511
-46.863258 122.168350 23.947212 0.681453
-46.981064 122.358353 20.971998 0.678431
-46.981075 122.358368 17.983349 0.678431
-46.981071 122.358368 15.030092 0.678431
-46.863255 122.168335 12.079657 0.621012
-46.981068 122.358353 9.202610 0.678431
-46.981071 122.358368 6.315389 0.678431
-46.922134 122.263306 3.435605 0.678431
-46.922131 122.263306 0.564395 0.678431
-22.145292 82.302277 -0.000005 0.537377
-13.545708 68.432533 0.000000 0.540124
-9.853606 62.477768 0.000000 0.562387
-7.797302 59.161282 0.000000 0.537499
-6.484528 57.043987 -0.000000 0.544106
-5.084140 54.785389 0.199996 0.686122
-4.479131 53.809608 0.199993 0.680705
-46.146614 122.168320 23.853144 0.589761
-46.146633 122.168350 20.842617 0.552270
-46.146629 122.168350 17.874344 0.602640
-46.146626 122.168335 14.941229 0.487007
-46.146629 122.168350 12.036462 0.578210
-46.146637 122.168350 9.153492 0.615412
-46.146629 122.168350 6.285957 0.534569
-46.204578 122.263290 3.429451 0.678431
-46.204578 122.263290 0.570547 0.678431
-21.903229 82.451202 -0.000005 0.542092
-13.400673 68.521759 0.000000 0.541314
-9.750231 62.541359 0.000000 0.547539
-7.717130 59.210602 0.000000 0.555383
-6.419169 57.084198 -0.000000 0.501640
-5.034585 54.815880 0.199996 0.685420
-4.436402 53.835896 0.199994 0.722484
-45.436077 122.168365 23.760956 0.757061
-45.436077 122.168365 20.763117 0.654490
-45.436062 122.168350 17.807369 0.462516
-45.436066 122.168350 14.886628 0.562417
-45.436069 122.168350 11.994118 0.474632
-45.436077 122.168365 9.123311 0.542580
-45.436073 122.168365 6.267874 0.546441
-45.493141 122.263336 3.423422 0.678431
-45.493141 122.263336 0.576578 0.678431
-21.660120 82.598450 -0.000005 0.540352
-13.255014 68.609970 0.000000 0.525261
-9.646414 62.604237 0.000000 0.549874
-7.636615 59.259361 0.000000 0.569863
-6.353532 57.123947 -0.000000 0.575708
-4.984816 54.846020 0.199996 0.705638
-4.393490 53.861885 0.199994 0.735195
-44.731434 122.168320 23.670568 0.585992
-44.843792 122.358307 20.732855 0.661021
-44.843788 122.358292 17.781870 0.678431
-44.843792 122.358307 14.865846 0.678431
-44.731445 122.168335 11.952607 0.523934
-44.843803 122.358322 9.111824 0.678431
-44.843796 122.358307 6.260991 0.678431
-44.787640 122.263351 3.417511 0.678431
-44.787643 122.263367 0.582489 0.678431
-21.415983 82.743958 -0.000005 0.541222
-13.108749 68.697166 0.000000 0.530022
-9.542164 62.666386 0.000000 0.544060
-7.555763 59.307560 0.000000 0.564416
-6.287619 57.163239 -0.000000 0.531655
-4.934839 54.875809 0.199995 0.722255
-4.350398 53.887573 0.199993 0.699504
-44.032581 122.168274 23.581976 0.706630
-44.032585 122.168289 20.608799 0.613855
-44.032593 122.168289 17.677361 0.596475
-44.032589 122.168289 14.780643 0.541863
-44.032593 122.168289 11.911921 0.509087
-44.032597 122.168304 9.064726 0.820722
-44.032585 122.168289 6.232773 0.594675
-44.073322 122.238281 3.411242 0.062745
-44.073322 122.238281 0.588758 0.052949
-21.170856 82.887817 -0.000006 0.537957
-12.961875 68.783340 -0.000000 0.538033
-9.437475 62.727798 0.000000 0.563302
-7.474576 59.355194 0.000000 0.551995
-6.221432 57.202072 -0.000000 0.552819
-4.884655 54.905254 0.199995 0.678614
-4.307127 53.912960 0.199993 0.682200
-43.339432 122.168304 23.495169 0.526436
-43.339432 122.168304 20.533943 0.690761
-43.339432 122.168289 17.614300 0.686702
-43.339432 122.168289 14.729231 0.592477
-43.339428 122.168289 11.872048 0.621134
-43.339428 122.168289 9.036306 0.512749
-43.339439 122.168304 6.215747 0.561975
-43.393860 122.263336 3.406036 0.678431
-43.393860 122.263336 0.593962 0.678431
-20.924719 83.029922 -0.000005 0.543206
-12.814402 68.868477 0.000000 0.536583
-9.332366 62.788486 0.000001 0.539971
-7.393059 59.402256 0.000000 0.554131
-6.154978 57.240440 -0.000001 0.544640
-4.834268 54.934345 0.199995 0.701259
-4.263680 53.938042 0.199993 0.678782
-42.730495 122.307983 23.450249 0.147417
-42.651798 122.168320 20.460594 0.662303
-42.778099 122.392456 17.599312 0.186877
-42.778095 122.392456 14.717015 0.062745
-42.651787 122.168289 11.832976 0.571832
-42.778088 122.392441 9.029551 0.247395
-42.778099 122.392456 6.211700 0.155459
-42.691216 122.238266 3.400002 0.065873
-42.691219 122.238281 0.599998 0.094118
-20.677595 83.170303 -0.000006 0.536934
-12.666339 68.952583 0.000000 0.550637
-9.226836 62.848438 0.000000 0.539940
-7.311213 59.448746 0.000000 0.567544
-6.088256 57.278343 -0.000000 0.510491
-4.783679 54.963085 0.199995 0.725124
-4.220059 53.962822 0.199994 0.762707
-41.969540 122.168304 23.326712 0.736110
-41.969559 122.168335 20.388710 0.494728
-41.969543 122.168304 17.491936 0.507042
-41.969536 122.168304 14.629474 0.646769
-41.969543 122.168304 11.794686 0.731716
-41.969536 122.168289 8.981164 0.639796
-41.969543 122.168320 6.182710 0.655833
-42.022224 122.263351 3.395020 0.678431
-42.022224 122.263351 0.604982 0.678431
-20.429497 83.308960 -0.000005 0.538857
-12.517693 69.035660 -0.000000 0.539467
-9.120889 62.907650 0.000000 0.524269
-7.229048 59.494671 0.000000 0.528832
-6.021272 57.315781 -0.000001 0.547524
-4.732891 54.991474 0.199994 0.703517
-4.176268 53.987297 0.199993 0.721706
-41.292545 122.168320 23.245024 0.518334
-41.292545 122.168320 20.318260 0.490929
-41.292561 122.168335 17.432596 0.541665
-41.292557 122.168320 14.581100 0.608301
-41.292549 122.168320 11.757167 0.548043
-41.292545 122.168320 8.954424 0.541100
-41.292553 122.168335 6.166688 0.485908
-41.332680 122.241928 3.389277 0.162875
-41.332680 122.241928 0.610723 0.233310
-20.180428 83.445862 -0.000005 0.541253
-12.368472 69.117699 0.000000 0.542641
-9.014533 62.966125 0.000000 0.536355
-7.146564 59.540016 0.000000 0.534401
-5.954027 57.352745 -0.000000 0.534981
-4.681903 55.019501 0.199995 0.706355
-4.132305 54.011467 0.199993 0.694072
-40.620712 122.168350 23.164989 0.516289
-40.620701 122.168335 20.249249 0.573983
-40.620716 122.168365 17.374458 0.650248
-40.620705 122.168335 14.533704 0.669535
-40.620705 122.168335 11.720408 0.597528
-40.620708 122.168350 8.928225 0.574639
-40.620705 122.168335 6.150990 0.603098
-40.683552 122.285553 3.384853 0.155398
-40.683556 122.285553 0.615148 0.388235
-19.930428 83.581062 -0.000005 0.540993
-12.218681 69.198685 0.000000 0.540047
-8.907768 63.023846 0.000000 0.542397
-7.063765 59.584789 -0.000000 0.534783
-5.886527 57.389244 -0.000001 0.528542
-4.630723 55.047176 0.199995 0.751247
-4.088176 54.035328 0.199993 0.750057
-40.053997 122.358307 23.140358 0.678431
-39.953800 122.168259 20.181614 0.539223
-40.053986 122.358292 17.356558 0.678431
-40.053989 122.358292 14.519116 0.678431
-39.953796 122.168259 11.684381 0.761257
-40.053986 122.358276 8.920158 0.678431
-40.053997 122.358307 6.146159 0.678431
-40.003918 122.263321 3.379309 0.531777
-40.003918 122.263321 0.620691 0.519509
-19.679474 83.714493 -0.000006 0.537896
-12.068326 69.278633 0.000000 0.535225
-8.800602 63.080826 0.000000 0.544274
-6.980652 59.628979 0.000000 0.527260
-5.818772 57.425270 -0.000000 0.538720
-4.579350 55.074493 0.199995 0.675181
-4.043880 54.058880 0.199993 0.752819
-39.291859 122.168274 23.009726 0.604822
-39.291862 122.168274 20.115383 0.586923
-39.291855 122.168274 17.261669 0.540581
-39.291859 122.168274 14.441761 0.651011
-39.291862 122.168274 11.649104 0.481209
-39.291859 122.168274 8.877401 0.552544
-39.291851 122.168243 6.120540 0.593515
-39.331051 122.243881 3.373928 0.062745
-39.331051 122.243881 0.626074 0.251011
-19.427603 83.846161 -0.000006 0.543923
-11.917421 69.357521 0.000000 0.542168
-8.693047 63.137062 -0.000000 0.527749
-6.897235 59.672585 0.000000 0.550866
-5.750769 57.460819 -0.000000 0.528847
-4.527787 55.101448 0.199995 0.677348
-3.999420 54.082119 0.199994 0.674098
-38.634693 122.168320 22.934496 0.583276
-38.634682 122.168304 20.050508 0.526467
-38.634693 122.168304 17.207020 0.542779
-38.634682 122.168304 14.397202 0.678294
-38.634689 122.168320 11.614549 0.619516
-38.634682 122.168289 8.852771 0.565850
-38.634682 122.168304 6.105784 0.616846
-38.683067 122.263260 3.369360 0.670924
-38.683067 122.263260 0.630639 0.673121
-19.174822 83.976089 -0.000006 0.541329
-11.765968 69.435364 -0.000000 0.528923
-8.585096 63.192535 0.000000 0.544213
-6.813517 59.715611 0.000001 0.525689
-5.682516 57.495892 0.000000 0.535592
-4.476038 55.128040 0.199995 0.677577
-3.954800 54.105053 0.199994 0.674418
-38.077278 122.358276 22.914015 0.678431
-37.982151 122.168320 19.986969 0.715648
-38.077286 122.358292 17.192142 0.678431
-38.077274 122.358276 14.385078 0.678431
-37.982155 122.168320 11.580705 0.485069
-38.077286 122.358292 8.846068 0.678431
-38.077282 122.358292 6.101769 0.678431
-38.029713 122.263290 3.364542 0.590478
-38.029713 122.263290 0.635460 0.538933
-18.921125 84.104233 -0.000006 0.539757
-11.613971 69.512146 0.000000 0.522606
-8.476757 63.247261 0.000000 0.534447
-6.729496 59.758049 0.000000 0.547860
-5.614021 57.530491 0.000000 0.519997
-4.424104 55.154278 0.199994 0.745556
-3.910020 54.127670 0.199994 0.694133
-37.334175 122.168320 22.788630 0.694896
-37.334183 122.168320 19.924742 0.620340
-37.334179 122.168320 17.101063 0.781125
-37.334183 122.168320 14.310827 0.449805
-37.334179 122.168320 11.547559 0.613535
-37.334179 122.168320 8.805027 0.633112
-37.334183 122.168320 6.077175 0.757534
-37.380890 122.263260 3.359821 0.500465
-37.380890 122.263260 0.640181 0.543587
-18.666552 84.230606 -0.000006 0.545403
-11.461446 69.587860 -0.000000 0.527977
-8.368046 63.301224 0.000000 0.552987
-6.645187 59.799904 0.000000 0.546654
-5.545289 57.564613 0.000000 0.523278
-4.371989 55.180145 0.199995 0.723781
-3.865083 54.149975 0.199994 0.653071
-36.764290 122.320694 22.760353 0.520455
-36.690632 122.168335 19.863811 0.651209
-36.690636 122.168335 17.049730 0.601389
-36.690632 122.168335 14.268982 0.550469
-36.690636 122.168335 11.515108 0.482567
-36.690628 122.168320 8.781895 0.696513
-36.690632 122.168335 6.063316 0.583658
-36.736553 122.263321 3.355200 0.678431
-36.736557 122.263336 0.644802 0.678431
-18.411097 84.355194 -0.000006 0.535348
-11.308391 69.662506 0.000000 0.547005
-8.258959 63.354431 0.000000 0.551522
-6.560584 59.841171 0.000000 0.542657
-5.476317 57.598251 0.000000 0.534722
-4.319694 55.205650 0.199995 0.702663
-3.819991 54.171967 0.199996 0.739254
-36.846706 123.843201 23.113203 0.518837
-36.051418 122.168320 19.804157 0.477546
-36.080784 122.230164 17.011932 0.573861
-36.080780 122.230148 14.238163 0.599481
-36.051418 122.168320 11.483332 0.642405
-36.080772 122.230133 8.764858 0.545342
-36.080780 122.230148 6.053111 0.587884
-36.096493 122.263245 3.350672 0.678431
-36.096497 122.263260 0.649328 0.678431
-18.154789 84.478012 -0.000006 0.538811
-11.154823 69.736084 0.000000 0.542382
-8.149504 63.406876 0.000000 0.521538
-6.475697 59.881840 0.000000 0.544564
-5.407116 57.631409 0.000000 0.490639
-4.267223 55.230793 0.199995 0.719905
-3.774746 54.193638 0.199997 0.692973
-36.946049 125.448608 23.487669 0.683314
-35.416405 122.168259 19.745749 0.554025
-35.505005 122.358276 16.988417 0.678431
-35.505020 122.358307 14.219000 0.678431
-35.416397 122.168259 11.452221 0.556954
-35.505013 122.358292 8.754267 0.673762
-35.505009 122.358292 6.046762 0.678431
-35.460709 122.263290 3.346244 0.678431
-35.460705 122.263275 0.653758 0.678431
-17.897621 84.599030 -0.000007 0.539483
-11.000745 69.808586 0.000000 0.533455
-8.039680 63.458549 0.000000 0.545251
-6.390528 59.921921 0.000000 0.546456
-5.337681 57.664078 0.000001 0.545693
-4.214577 55.255566 0.199995 0.756100
-3.729350 54.214993 0.199998 0.673671
-36.764362 126.490402 23.705469 0.512901
-34.785542 122.168274 19.688599 0.525612
-34.785534 122.168259 16.902117 0.527565
-34.785538 122.168259 14.148642 0.510857
-34.785530 122.168243 11.421777 0.631510
-34.785538 122.168259 8.715376 0.546044
-34.785538 122.168259 6.023464 0.515801
-34.829052 122.263306 3.341907 0.678431
-34.829056 122.263321 0.658093 0.678431
-17.639616 84.718231 -0.000007 0.541863
-10.846163 69.880005 0.000000 0.537957
-7.929504 63.509460 0.000000 0.547692
-6.305079 59.961399 0.000000 0.516960
-5.268023 57.696266 0.000000 0.559213
-4.161760 55.279972 0.199995 0.668009
-3.683807 54.236031 0.200000 0.782635
-36.764256 127.965927 24.042049 0.531273
-34.158688 122.168259 19.632669 0.697063
-34.158684 122.168259 16.854996 0.592630
-34.158688 122.168259 14.110229 0.537163
-34.158680 122.168259 11.391987 0.441428
-34.158695 122.168274 8.694141 0.617060
-34.158684 122.168259 6.010742 0.518395
-34.201401 122.263306 3.337666 0.670344
-34.201401 122.263306 0.662336 0.678431
-17.380789 84.835655 -0.000007 0.545235
-10.691087 69.950356 0.000000 0.532708
-7.818974 63.559601 0.000000 0.544411
-6.219357 60.000282 0.000001 0.535225
-5.198140 57.727966 0.000001 0.546593
-4.108773 55.304008 0.199995 0.673732
-3.638118 54.256748 0.200001 0.752285
-36.764355 129.488480 24.390463 0.577081
-33.535797 122.168335 19.577965 0.509270
-33.619560 122.358261 16.846680 0.678431
-33.619560 122.358261 14.103449 0.666667
-33.535793 122.168335 11.362847 0.603586
-33.619564 122.358276 8.690395 0.678431
-33.619564 122.358276 6.008495 0.678431
-33.577698 122.263336 3.333512 0.678431
-33.577690 122.263336 0.666487 0.678431
-17.121145 84.951256 -0.000007 0.540841
-10.535525 70.019623 0.000000 0.544640
-7.708096 63.608963 0.000000 0.536004
-6.133368 60.038567 0.000001 0.536782
-5.128039 57.759178 0.000000 0.550210
-4.055620 55.327671 0.199995 0.672862
-3.592286 54.277149 0.200002 0.684443
-36.764374 131.059845 24.751158 0.481971
-32.916698 122.168365 19.524437 0.567010
-32.916691 122.168350 16.763817 0.468833
-32.916698 122.168365 14.035896 0.649561
-32.916687 122.168350 11.334335 0.712581
-32.916683 122.168335 8.653051 0.629068
-32.916695 122.168350 5.986121 0.541466
-27.159233 108.863617 3.090530 0.403494
-32.957779 122.263306 0.670548 0.678431
-16.860687 85.065018 -0.000006 0.543633
-10.379479 70.087791 0.000000 0.541100
-7.596875 63.657555 0.000000 0.550454
-6.047111 60.076252 0.000001 0.552804
-5.057721 57.789902 0.000000 0.539696
-4.002301 55.350964 0.199995 0.741314
-3.546311 54.297230 0.200003 0.666300
nan nan nan 0.000000
-32.301315 122.168335 19.472073 0.566094
-32.301323 122.168350 16.719707 0.515618
-32.301319 122.168335 13.999934 0.642054
-32.301323 122.168350 11.306448 0.661540
-32.301323 122.168350 8.633175 0.596719
-32.301315 122.168335 5.974213 0.380011
-32.315708 122.202240 3.324393 0.095598
-32.315708 122.202240 0.675606 0.207538
-16.599463 85.177002 -0.000006 0.542107
-10.222965 70.154869 0.000000 0.538445
-7.485322 63.705368 0.000000 0.536858
-5.960596 60.113331 0.000000 0.553002
-4.987191 57.820129 0.000000 0.522972
-3.948820 55.373875 0.199997 0.708354
-3.500200 54.316990 0.200004 0.681407
nan nan nan 0.000000
-31.689554 122.168289 19.420862 0.505608
-31.768654 122.358322 16.714012 0.678431
-31.768650 122.358307 13.995291 0.678431
-31.784369 122.396072 11.307554 0.611551
-31.768650 122.358307 8.630606 0.678431
-31.768648 122.358307 5.972676 0.678431
-26.176706 108.924484 3.085165 0.395636
-31.718700 122.238312 0.678848 0.094118
-16.337448 85.287125 -0.000006 0.543755
-10.065986 70.220863 -0.000000 0.529198
-7.373430 63.752396 0.000001 0.556680
-5.873822 60.149811 0.000000 0.519219
-4.916450 57.849865 0.000000 0.509407
-3.895181 55.396420 0.199998 0.671290
-3.453952 54.336430 0.200004 0.675029
nan nan nan 0.000000
-31.081360 122.168259 19.370798 0.693049
-31.081371 122.168289 16.634388 0.523369
-31.081371 122.168289 13.930378 0.736294
-31.081369 122.168274 11.252505 0.591608
-31.081371 122.168289 8.594727 0.597070
-31.081366 122.168274 5.951178 0.639139
-25.849535 109.348038 3.089531 0.413931
-31.109930 122.238266 0.682644 0.094118
-16.074686 85.395439 -0.000006 0.536629
-9.908551 70.285751 -0.000000 0.545205
-7.261221 63.798653 0.000000 0.548394
-5.786798 60.185680 0.000000 0.547494
-4.845504 57.879105 0.000001 0.541222
-3.841387 55.418583 0.200000 0.679805
-3.407570 54.355545 0.200005 0.746502
nan nan nan 0.000000
-30.476627 122.168289 19.321877 0.571237
-30.476643 122.168335 16.593178 0.580453
-30.476643 122.168335 13.896782 0.600702
-30.476631 122.168304 11.226449 0.671550
-30.476635 122.168320 8.576153 0.620905
-30.476633 122.168304 5.940050 0.621027
-25.790096 110.451096 3.105906 0.372778
-25.769079 110.398560 0.895022 0.370291
-15.811169 85.501930 -0.000007 0.536660
-9.750663 70.349548 0.000000 0.541741
-7.148685 63.844116 0.000000 0.549432
-5.699522 60.220940 0.000000 0.553338
-4.774355 57.907852 0.000000 0.524773
-3.787439 55.440380 0.200000 0.719280
-3.361055 54.374340 0.200004 0.703471
nan nan nan 0.000000
-29.949720 122.358307 19.318142 0.678431
-29.875275 122.168335 16.552893 0.638224
-29.949717 122.358292 13.894211 0.678431
-29.949711 122.358276 11.224452 0.520043
-29.949717 122.358292 8.574734 0.659678
-25.083832 109.941986 5.284057 0.401923
-24.716326 109.004219 3.077422 0.407462
-29.912479 122.263275 0.689542 0.678431
-15.546905 85.606544 -0.000007 0.544930
-9.592336 70.412231 -0.000000 0.532372
-7.035838 63.888802 0.000000 0.547677
-5.612004 60.255592 0.000000 0.552270
-4.703007 57.936100 0.000001 0.543496
-3.733341 55.461800 0.200000 0.713130
-3.314410 54.392807 0.200005 0.664714
-27.672243 117.987305 20.858021 0.691112
-27.672241 117.987289 18.260099 0.606989
-27.672245 117.987305 15.698651 0.485451
-27.672237 117.987289 13.167540 0.653574
-27.672251 117.987320 10.660896 0.507393
-27.672243 117.987305 8.173054 0.741985
-27.672249 117.987305 5.698537 0.518593
-24.466785 109.636772 3.085595 0.408484
-29.313633 122.263275 0.693086 0.678431
-15.281927 85.709328 -0.000006 0.544060
-9.433574 70.473808 0.000000 0.530510
-6.922678 63.932686 0.000001 0.540108
-5.524245 60.289631 0.000000 0.548531
-4.631464 57.963848 0.000001 0.554040
-3.679096 55.482838 0.200000 0.700023
-3.267637 54.410950 0.200005 0.688869
-27.167130 118.137299 20.848217 0.149050
-27.167116 118.137268 18.251635 0.091737
-27.110756 117.987320 15.662372 0.528923
-27.167126 118.137283 13.161730 0.320684
-27.167120 118.137268 10.656387 0.192584
-27.110756 117.987320 8.156706 0.839582
-27.167122 118.137283 5.696612 0.246296
-24.565928 111.216888 3.110343 0.409476
-27.146461 118.082306 0.769637 0.678431
-15.016232 85.810257 -0.000007 0.530968
-9.274385 70.534279 0.000000 0.540932
-6.809218 63.975788 0.000000 0.544594
-5.436252 60.323059 0.000000 0.559747
-4.559729 57.991100 0.000000 0.544442
-3.624703 55.503498 0.200001 0.669505
-3.220739 54.428764 0.200005 0.728985
-26.552206 117.987305 20.759314 0.690272
-26.552206 117.987305 18.174990 0.542809
-26.552216 117.987320 15.626948 0.435798
-26.552204 117.987305 13.109084 0.596094
-26.552204 117.987305 10.615559 0.727367
-26.552212 117.987320 8.140741 0.669993
-26.552206 117.987320 5.679177 0.552041
-23.560900 109.857147 3.083756 0.398291
-26.587152 118.082291 0.772827 0.678431
-14.749841 85.909317 -0.000007 0.541115
-9.114780 70.593628 0.000000 0.533944
-6.695460 64.018089 0.000000 0.544640
-5.348028 60.355865 0.000000 0.547677
-4.487806 58.017845 0.000000 0.540978
-3.570170 55.523777 0.200001 0.702480
-3.173717 54.446247 0.200005 0.695903
-26.064932 118.177322 20.762293 0.529732
-26.064932 118.177322 18.177557 0.678431
-25.996513 117.987289 15.592363 0.593027
-26.064938 118.177338 13.110854 0.637995
-26.064934 118.177338 10.616931 0.618906
-25.996510 117.987274 8.125154 0.616022
-26.064936 118.177322 5.679760 0.678431
-26.030729 118.082321 3.224059 0.678431
-26.030729 118.082321 0.775941 0.678431
-14.482768 86.006531 -0.000007 0.545968
-8.954764 70.651871 0.000000 0.538750
-6.581409 64.059601 0.000000 0.544060
-5.259577 60.388062 0.000000 0.539162
-4.415698 58.044090 0.000000 0.541817
-3.515495 55.543674 0.200001 0.727749
-3.126575 54.463406 0.200005 0.751888
-25.443623 117.987289 20.665245 0.658747
-25.443623 117.987305 18.093882 0.639612
-25.443619 117.987305 15.558617 0.470436
-25.443623 117.987305 13.053381 0.652216
-25.443619 117.987305 10.572357 0.605737
-25.443619 117.987305 8.109949 0.579385
-25.443617 117.987289 5.660726 0.673823
-25.477083 118.082321 3.221019 0.669337
-25.477083 118.082321 0.778980 0.669337
-14.215022 86.101883 -0.000007 0.536889
-8.794349 70.709000 0.000000 0.550225
-6.467071 64.100311 0.000001 0.544167
-5.170902 60.419636 0.000000 0.553201
-4.343409 58.069832 0.000000 0.546899
-3.460683 55.563190 0.200001 0.687800
-3.079315 54.480236 0.200005 0.701915
-24.893433 117.987320 20.619928 0.677882
-24.958857 118.177338 18.098206 0.678431
-24.893433 117.987320 15.525695 0.722240
-24.958857 118.177338 13.056354 0.678431
-24.958857 118.177338 10.574663 0.678431
-24.893433 117.987320 8.095117 0.658289
-24.958855 118.177322 5.661711 0.678431
-24.926146 118.082321 3.218054 0.666667
-24.926147 118.082336 0.781945 0.666667
-13.946609 86.195343 -0.000007 0.537835
-8.633532 70.764999 0.000000 0.533730
-6.352451 64.140236 0.000000 0.539574
-5.082007 60.450588 0.000001 0.560845
-4.270940 58.095070 0.000001 0.539483
-3.405735 55.582325 0.200001 0.738949
-3.031937 54.496735 0.200005 0.700526
-24.345873 117.987274 20.575718 0.602777
-24.345871 117.987289 18.016685 0.413275
-24.345875 117.987305 15.493585 0.526772
-24.345873 117.987289 13.000364 0.548623
-24.345879 117.987305 10.531241 0.674220
-24.345875 117.987305 8.080644 0.591287
-24.345879 117.987305 5.643170 0.518410
-24.377848 118.082291 3.215162 0.678431
-24.377848 118.082291 0.784838 0.678431
-13.677562 86.286942 -0.000007 0.540963
-8.472330 70.819870 0.000000 0.535729
-6.237555 64.179352 0.000000 0.533211
-4.992902 60.480923 0.000001 0.524208
-4.198298 58.119797 0.000001 0.528481
-3.350657 55.601074 0.200001 0.667613
-2.984447 54.512901 0.200005 0.661707
-23.800886 117.987289 20.532627 0.580804
-23.863363 118.177307 18.022734 0.678431
-23.800880 117.987274 15.462283 0.620478
-23.863371 118.177338 13.004520 0.678431
-23.863359 118.177307 10.534461 0.678431
-23.800886 117.987289 8.066537 0.590631
-23.863359 118.177307 5.644545 0.678431
-23.832127 118.082306 3.212345 0.678431
-23.832127 118.082306 0.787656 0.678431
-13.407868 86.376648 -0.000007 0.537591
-8.310751 70.873619 0.000000 0.549844
-6.122388 64.217659 0.000000 0.534768
-4.903585 60.510635 0.000001 0.520760
-4.125484 58.144020 0.000001 0.511360
-3.295448 55.619438 0.200001 0.736324
-2.936844 54.528736 0.200005 0.697063
-23.258404 117.987305 20.490643 0.400946
-23.258406 117.987305 17.943333 0.570596
-23.258410 117.987320 15.431784 0.713848
-23.258400 117.987289 12.949978 0.609339
-23.258406 117.987305 10.492167 0.652598
-23.258410 117.987320 8.052795 0.558511
-23.258406 117.987305 5.626484 0.714504
-23.288902 118.082306 3.209598 0.678431
-23.288902 118.082306 0.790402 0.678431
-13.137566 86.464478 -0.000007 0.541207
-8.148803 70.926247 0.000000 0.542321
-6.006958 64.255165 0.000000 0.535515
-4.814065 60.539722 0.000000 0.536782
-4.052505 58.167732 0.000000 0.553124
-3.240113 55.637421 0.200002 0.740139
-2.889132 54.544239 0.200005 0.720256
-22.718330 117.987259 20.449724 0.577081
-22.777874 118.177277 17.951057 0.678431
-22.718334 117.987274 15.402060 0.641337
-22.777878 118.177292 12.955294 0.678431
-22.777880 118.177292 10.496286 0.678431
-22.718334 117.987289 8.039400 0.515480
-22.777880 118.177292 5.628243 0.678431
-22.748116 118.082321 3.206921 0.678431
-22.748116 118.082321 0.793078 0.678431
-12.866650 86.550407 -0.000006 0.540887
-7.986485 70.977737 0.000000 0.544579
-5.891267 64.291855 0.000001 0.532937
-4.724341 60.568184 0.000000 0.526604
-3.979360 58.190933 0.000001 0.530434
-3.184652 55.655014 0.200001 0.693996
-2.841312 54.559406 0.200005 0.731884
-22.180635 117.987259 20.409897 0.564752
-22.180645 117.987289 17.873718 0.429221
-22.180639 117.987274 15.373132 0.643442
-22.180645 117.987289 12.902171 0.293141
-22.180641 117.987289 10.455088 0.457923
-22.180645 117.987289 8.026367 0.697230
-22.180645 117.987289 5.610649 0.483497
-22.209677 118.082260 3.204316 0.454582
-22.209681 118.082260 0.795684 0.473426
-12.595146 86.634445 -0.000007 0.533196
-7.823821 71.028091 0.000000 0.538918
-5.775326 64.327744 0.000001 0.540505
-4.634426 60.596016 0.000001 0.510826
-3.906057 58.213627 0.000001 0.503044
-3.129073 55.672218 0.200001 0.689418
-2.793389 54.574242 0.200005 0.711559
-21.645227 117.987274 20.371140 0.516808
-21.701874 118.177307 17.883116 0.678431
-21.689945 118.137283 15.373459 0.303243
-21.701870 118.177292 12.908627 0.678431
-21.701874 118.177292 10.460093 0.678431
-21.645227 117.987289 8.013678 0.473945
-21.701870 118.177292 5.612788 0.678431
-21.673548 118.082291 3.201781 0.678431
-21.673544 118.082275 0.798220 0.678431
-12.323060 86.716599 -0.000007 0.544228
-7.660799 71.077301 0.000000 0.538933
-5.659136 64.362831 0.000000 0.526619
-4.544313 60.623222 0.000001 0.561471
-3.832594 58.235802 0.000001 0.554437
-3.073373 55.689034 0.200001 0.729534
-2.745363 54.588741 0.200005 0.706477
-21.112043 117.987289 20.333435 0.596292
-21.112047 117.987289 17.807781 0.475273
-21.112047 117.987305 15.317590 0.598871
-21.112045 117.987289 12.856886 0.641138
-21.112047 117.987305 10.419969 0.758083
-21.112047 117.987305 8.001333 0.591623
-21.112051 117.987289 5.595651 0.483116
-21.132391 118.057312 3.198888 0.085176
-21.132391 118.057312 0.801112 0.060288
-12.050414 86.796852 -0.000007 0.545602
-7.497444 71.125381 0.000000 0.539345
-5.542702 64.397095 0.000001 0.535668
-4.454016 60.649799 0.000000 0.490867
-3.758982 58.257469 0.000000 0.494804
-3.017558 55.705460 0.200001 0.674922
-2.697237 54.602905 0.200005 0.659037
-21.083845 119.764313 20.759367 0.590723
-21.083845 119.764297 18.175032 0.696574
-21.015064 119.521240 15.581020 0.576425
-21.083855 119.764313 13.109118 0.477668
-21.083851 119.764297 10.615583 0.603754
-21.015070 119.521240 8.120046 0.671504
-21.083851 119.764313 5.679187 0.748989
-21.110107 119.857101 3.227098 0.678431
-21.110102 119.857086 0.772902 0.678431
-11.777198 86.875183 -0.000007 0.538903
-7.333753 71.172318 0.000000 0.529488
-5.426033 64.430550 0.000001 0.528176
-4.363533 60.675747 0.000000 0.555673
-3.685218 58.278622 0.000001 0.547295
-2.961628 55.721504 0.200001 0.695048
-2.649012 54.616737 0.200004 0.689174
-20.663895 120.208527 20.838251 0.583871
-20.663893 120.208511 18.243046 0.630137
-20.663895 120.208511 15.684285 0.529870
-20.663893 120.208511 13.155830 0.491463
-20.663895 120.208511 10.651812 0.641611
-20.663895 120.208511 8.166578 0.584222
-20.663893 120.208511 5.694658 0.630137
-20.690069 120.303543 3.232285 0.678431
-20.690069 120.303543 0.767714 0.678431
-11.503455 86.951630 -0.000007 0.542443
-7.169743 71.218117 0.000000 0.530205
-5.309132 64.463196 0.000000 0.538399
-4.272871 60.701057 0.000001 0.540963
-3.611309 58.299259 0.000000 0.541451
-2.905588 55.737148 0.200001 0.723980
-2.600693 54.630230 0.200004 0.718700
-20.120340 120.208527 20.802553 0.655650
-20.120342 120.208527 18.212271 0.455528
-20.120344 120.208527 15.658359 0.500923
-20.120348 120.208542 13.134693 0.574685
-20.120344 120.208527 10.635416 0.666850
-20.120344 120.208527 8.154896 0.643534
-20.120344 120.208527 5.687657 0.442741
-20.139101 120.278534 3.229528 0.061646
-20.139101 120.278534 0.770473 0.085786
-11.229181 87.026138 -0.000007 0.540444
-7.005414 71.262756 0.000000 0.549615
-5.192010 64.495026 -0.000000 0.526162
-4.182037 60.725739 0.000000 0.553124
-3.537257 58.319378 0.000000 0.564279
-2.849441 55.752407 0.200000 0.695003
-2.552281 54.643383 0.200004 0.675334
-19.628317 120.398575 20.817101 0.678431
-19.628313 120.398560 18.224808 0.678431
-19.578810 120.208527 15.633185 0.520043
-19.628307 120.398529 13.143301 0.678431
-19.628313 120.398544 10.642094 0.678431
-19.578814 120.208527 8.143555 0.654444
-19.628309 120.398544 5.690510 0.678431
-19.603563 120.303528 3.227685 0.673289
-19.603561 120.303528 0.772317 0.673289
-10.954396 87.098747 -0.000007 0.542321
-6.840778 71.306259 0.000000 0.547051
-5.074662 64.526016 0.000001 0.526848
-4.091031 60.749779 0.000000 0.558663
-3.463066 58.338978 0.000001 0.537560
-2.793189 55.767265 0.200000 0.736812
-2.503778 54.656197 0.200004 0.800198
-19.039263 120.208542 20.734299 0.487404
-19.039263 120.208542 18.153418 0.486107
-19.039265 120.208527 15.608773 0.570596
-19.039261 120.208527 13.094270 0.552392
-19.039259 120.208527 10.604069 0.822675
-19.039261 120.208542 8.132551 0.628641
-19.039263 120.208542 5.674270 0.352941
-19.056971 120.278519 3.225062 0.083558
-19.056974 120.278519 0.774936 0.087617
-10.679110 87.169418 -0.000007 0.535576
-6.675843 71.348602 0.000000 0.547539
-4.957105 64.556198 0.000001 0.512840
-3.999862 60.773193 0.000000 0.560250
-3.119117 57.292511 0.199995 0.708782
-2.736835 55.781738 0.200000 0.678264
-2.455187 54.668674 0.200004 0.730770
-18.501602 120.208557 20.701715 0.516533
-18.501595 120.208542 18.125324 0.637034
-18.501600 120.208557 15.585112 0.625803
-18.501598 120.208542 13.074977 0.662684
-18.501596 120.208542 10.589106 0.507073
-18.501598 120.208542 8.121889 0.586709
-18.501595 120.208527 5.667879 0.550500
-18.524929 120.303543 3.223354 0.672145
-18.524929 120.303543 0.776646 0.461982
-10.403332 87.238174 -0.000007 0.538293
-6.510613 71.389801 0.000001 0.546609
-4.839339 64.585564 0.000001 0.543847
-3.908527 60.795963 0.000001 0.545510
-3.052104 57.309219 0.199995 0.676890
-2.680378 55.795815 0.200000 0.666560
-2.406509 54.680813 0.200003 0.696834
-17.965786 120.208557 20.670162 0.666606
-17.965780 120.208527 18.098108 0.493812
-17.965782 120.208557 15.562185 0.589242
-17.965784 120.208542 13.056290 0.555917
-17.965780 120.208542 10.574612 0.606363
-17.965778 120.208542 8.111557 0.599893
-17.965780 120.208542 5.661690 0.584192
-17.988415 120.303543 3.221291 0.678431
-17.988415 120.303543 0.778711 0.672831
-10.127089 87.305016 -0.000007 0.536614
-6.345103 71.429840 0.000000 0.544884
-4.721372 64.614105 0.000000 0.532387
-3.817039 60.818092 0.000000 0.502861
-2.984979 57.325462 0.199994 0.723125
-2.623827 55.809494 0.200000 0.695415
-2.357750 54.692616 0.200002 0.669093
-17.431736 120.208542 20.639610 0.572686
-17.475603 120.398544 18.113888 0.678431
-17.431744 120.208557 15.539993 0.507881
-17.475597 120.398514 13.067121 0.678431
-17.475597 120.398529 10.583012 0.678431
-17.431730 120.208527 8.101555 0.600717
-17.475597 120.398544 5.665278 0.678431
-17.453671 120.303543 3.219293 0.678431
-17.453671 120.303558 0.780707 0.678431
-9.850377 87.369919 -0.000007 0.539467
-6.179315 71.468727 0.000000 0.534493
-4.603205 64.641815 0.000001 0.515435
-3.725397 60.839592 0.000000 0.534691
-2.917741 57.341232 0.199995 0.746334
-2.567181 55.822784 0.200000 0.661204
-2.308909 54.704079 0.200000 0.680079
-16.899435 120.208557 20.610069 0.512230
-16.899422 120.208527 18.046295 0.750637
-16.899426 120.208542 15.518532 0.795544
-16.899422 120.208527 13.020701 0.650233
-16.899422 120.208527 10.547014 0.722881
-16.899420 120.208511 8.091885 0.482353
-16.899424 120.208527 5.649904 0.550027
-16.920654 120.303528 3.217360 0.678431
-16.920654 120.303528 0.782641 0.678431
-9.573226 87.432877 -0.000007 0.539910
-6.013266 71.506454 0.000000 0.530251
-4.484853 64.668709 0.000001 0.538415
-3.633610 60.860443 0.000000 0.550134
-2.850396 57.356533 0.199994 0.689738
-2.510445 55.835674 0.199999 0.765713
-2.259990 54.715199 0.199999 0.680476
-16.368759 120.208527 20.581520 0.610361
-16.368752 120.208511 18.021681 0.492515
-16.368763 120.208542 15.497801 0.615549
-16.368761 120.208527 13.003800 0.606378
-16.368755 120.208511 10.533905 0.585534
-16.368759 120.208542 8.082542 0.604929
-16.368759 120.208527 5.644307 0.558297
-16.389307 120.303558 3.215493 0.383154
-16.389307 120.303558 0.784508 0.428885
-9.295637 87.493896 -0.000007 0.551232
-5.846951 71.543015 0.000000 0.531121
-4.366313 64.694763 0.000000 0.536904
-3.541676 60.880653 0.000001 0.507042
-2.782944 57.371365 0.199994 0.705959
-2.453619 55.848167 0.199999 0.772824
-2.210993 54.725975 0.199998 0.706523
-15.375668 117.987305 19.985567 0.610376
-15.375664 117.987305 17.507832 0.570016
-15.375665 117.987320 15.064893 0.564965
-15.375670 117.987320 12.650885 0.466346
-15.375661 117.987289 10.260201 0.626261
-15.375664 117.987289 7.887461 0.525490
-15.375668 117.987320 5.527426 0.726650
-15.395512 118.082306 3.176557 0.678431
-15.395512 118.082306 0.823443 0.678431
-9.017635 87.552994 -0.000007 0.534569
-5.680387 71.578423 0.000000 0.543465
-4.247595 64.720001 0.000001 0.542718
-3.449605 60.900227 0.000000 0.567452
-2.715391 57.385727 0.199994 0.683467
-2.396708 55.860268 0.199999 0.756542
-2.161923 54.736412 0.199997 0.744533
-14.864297 117.987289 19.959805 0.539727
-14.902616 118.177338 17.527496 0.678431
-14.902613 118.177307 15.081448 0.678431
-14.902608 118.177307 12.664380 0.665293
-14.902608 118.177307 10.270670 0.678431
-14.864297 117.987289 7.879027 0.531563
-14.902610 118.177322 5.531897 0.678431
-14.883454 118.082306 3.174870 0.678431
-14.883456 118.082306 0.825128 0.678431
-8.739220 87.610146 -0.000006 0.543801
-5.513579 71.612663 0.000001 0.542367
-4.128702 64.744408 0.000000 0.542153
-3.357398 60.919151 0.000001 0.533791
-2.647739 57.399616 0.199993 0.697383
-2.339713 55.871964 0.199999 0.692180
-2.112781 54.746502 0.199995 0.751293
-14.354386 117.987305 19.935003 0.693782
-14.354383 117.987305 17.464233 0.598581
-14.354385 117.987320 15.028164 0.546929
-14.354387 117.987320 12.620938 0.697368
-14.354381 117.987289 10.236979 0.529839
-14.354380 117.987305 7.870908 0.501228
-14.354377 117.987289 5.517508 0.530938
-14.372848 118.082306 3.173250 0.678431
-14.372848 118.082306 0.826750 0.678431
-8.460417 87.665337 -0.000007 0.539666
-5.346537 71.645737 0.000001 0.544991
-4.009643 64.767975 0.000001 0.557336
-3.265064 60.937431 0.000001 0.562463
-2.579992 57.413029 0.199993 0.684794
-2.282638 55.883266 0.199999 0.723140
-2.063570 54.756252 0.199994 0.659648
-13.845840 117.987305 19.911135 0.741527
-13.881399 118.177322 17.485407 0.678431
-13.881393 118.177292 15.045991 0.678431
-13.881392 118.177307 12.635476 0.645380
-13.881397 118.177307 10.248254 0.678431
-13.845839 117.987305 7.863095 0.523903
-13.881397 118.177307 5.522324 0.678431
-13.863616 118.082306 3.171688 0.678431
-13.863620 118.082306 0.828312 0.678431
-8.181236 87.718613 -0.000007 0.534997
-5.179266 71.677643 0.000000 0.534020
-3.890421 64.790726 0.000001 0.539956
-3.172602 60.955074 0.000001 0.516152
-2.512152 57.425968 0.199993 0.702571
-2.225487 55.894176 0.199998 0.662547
-2.014291 54.765659 0.199993 0.733837
-13.338633 117.987320 19.888201 0.619593
-13.338634 117.987320 17.423883 0.538750
-13.338631 117.987305 14.994162 0.545678
-13.338637 117.987335 12.593226 0.505150
-13.338631 117.987305 10.215484 0.412665
-13.338633 117.987320 7.855587 0.488945
-13.338632 117.987320 5.508329 0.390143
-13.355728 118.082321 3.170187 0.626047
-13.355728 118.082321 0.829812 0.601526
-7.901692 87.769913 -0.000007 0.539300
-5.011781 71.708389 0.000001 0.536721
-3.771046 64.812637 0.000000 0.542657
-3.080022 60.972069 0.000000 0.547799
-2.444224 57.438438 0.199993 0.756481
-2.168261 55.904690 0.199996 0.643168
-1.964945 54.774696 0.199997 0.744244
-12.832687 117.987305 19.866188 0.635172
-12.865503 118.177292 17.446545 0.678431
-12.865509 118.177307 15.013261 0.678431
-12.865502 118.177307 12.608790 0.374853
-12.865506 118.177307 10.227558 0.678431
-12.832687 117.987305 7.848385 0.503456
-12.865506 118.177307 5.513485 0.678431
-12.849097 118.082306 3.168747 0.678431
-12.849097 118.082306 0.831253 0.678431
-7.630130 87.867554 -0.002414 0.691722
-4.844081 71.737961 0.000001 0.534951
-3.651518 64.833710 0.000000 0.512093
-2.987322 60.988411 0.000001 0.539895
-2.376211 57.450432 0.199993 0.673503
-2.110962 55.914799 0.199994 0.705165
-1.915538 54.783405 0.199998 0.682612
-12.327964 117.987305 19.845106 0.595895
