# This PCD file was generated using the MATLABÂ® pcwrite function
# from Computer Vision ToolboxÂ®.
# .PCD v.7 - Point Cloud Data file format
VERSION .7
FIELDS x y z intensity
SIZE 4 4 4 4
TYPE F F F F
COUNT 1 1 1 1
WIDTH 1210
HEIGHT 1
VIEWPOINT 0 0 0 1 0 0 0
POINTS 1210
DATA ascii
163.982803 -43.642036 -0.000019 0.542931
177.351761 -53.001450 -0.000013 0.532860
183.091522 -57.019775 -0.000009 0.526482
186.288269 -59.257767 -0.000006 0.542565
188.329102 -60.686531 -0.000005 0.583642
190.506134 -62.210636 0.199990 0.712703
191.446716 -62.869129 0.200002 0.706310
nan nan nan 0.000000
nan nan nan 0.000000
nan nan nan 0.000000
nan nan nan 0.000000
156.890839 -38.254250 7.707426 0.761593
156.890854 -38.254265 6.067968 0.758968
161.916641 -41.825294 4.134409 0.627924
156.890839 -38.254257 2.811851 0.762798
156.890839 -38.254257 1.188149 0.762951
164.146606 -43.409775 -0.000020 0.544625
177.449905 -52.862289 -0.000013 0.541054
183.161484 -56.920593 -0.000008 0.539132
186.342514 -59.180843 -0.000006 0.522286
188.373337 -60.623821 -0.000005 0.522789
190.539673 -62.163090 0.199991 0.733593
191.475632 -62.828133 0.200003 0.681788
nan nan nan 0.000000
nan nan nan 0.000000
nan nan nan 0.000000
157.536926 -38.293133 9.277987 0.223163
157.483002 -38.254250 7.652030 0.750683
157.483002 -38.254257 6.028485 0.742687
162.176849 -41.638981 4.129342 0.471229
157.483002 -38.254257 2.803970 0.749020
157.483002 -38.254257 1.196030 0.754818
164.312057 -43.178669 -0.000019 0.537133
177.549026 -52.723827 -0.000012 0.540002
183.232132 -56.821899 -0.000008 0.540642
186.397308 -59.104305 -0.000006 0.552193
188.417999 -60.561424 -0.000005 0.558816
190.573532 -62.115780 0.199992 0.680583
191.504837 -62.787342 0.200004 0.693385
nan nan nan 0.000000
nan nan nan 0.000000
nan nan nan 0.000000
158.063721 -38.254181 9.218163 0.740688
158.220703 -38.369057 7.575607 0.634806
158.220703 -38.369057 5.974016 0.592416
162.354614 -41.394104 4.129347 0.406699
158.220703 -38.369057 2.793099 0.602274
158.220703 -38.369061 1.206900 0.632898
164.479095 -42.948719 -0.000019 0.544732
177.649109 -52.586056 -0.000012 0.539818
183.303467 -56.723709 -0.000008 0.553521
186.452621 -59.028152 -0.000006 0.527779
188.463104 -60.499340 -0.000005 0.541558
190.607742 -62.068710 0.199993 0.707988
191.534332 -62.746758 0.200005 0.731411
nan nan nan 0.000000
nan nan nan 0.000000
nan nan nan 0.000000
158.633575 -38.254189 9.150120 0.752026
158.633652 -38.254250 7.545204 0.762798
158.633652 -38.254250 5.952345 0.766125
162.534088 -41.150471 4.129351 0.396841
158.633652 -38.254250 2.788775 0.753811
158.633652 -38.254250 1.211225 0.754070
164.647720 -42.719933 -0.000019 0.539712
177.750153 -52.448986 -0.000012 0.534676
183.375473 -56.626007 -0.000008 0.542794
186.508484 -58.952381 -0.000006 0.530755
188.508636 -60.437572 -0.000005 0.512825
190.642258 -62.021877 0.199994 0.710018
191.564102 -62.706375 0.200005 0.675776
nan nan nan 0.000000
nan nan nan 0.000000
nan nan nan 0.000000
159.192780 -38.254189 9.083693 0.765515
159.192871 -38.254246 7.493687 0.743938
159.219330 -38.274193 5.912910 0.611765
162.715271 -40.908123 4.129354 0.402823
159.192871 -38.254246 2.781447 0.750546
159.192871 -38.254246 1.218553 0.769329
164.817978 -42.492348 -0.000019 0.539010
177.852142 -52.312622 -0.000011 0.542351
183.448166 -56.528816 -0.000008 0.528145
186.564850 -58.877007 -0.000006 0.539956
188.554596 -60.376122 -0.000005 0.530678
190.677124 -61.975288 0.199995 0.699641
191.594147 -62.666199 0.200004 0.715953
nan nan nan 0.000000
nan nan nan 0.000000
nan nan nan 0.000000
159.741730 -38.254181 9.018827 0.728298
159.741821 -38.254242 7.443382 0.727855
159.794128 -38.294228 5.874374 0.291676
162.898163 -40.667038 4.129358 0.410910
159.741806 -38.254234 2.774292 0.736507
159.741821 -38.254234 1.225708 0.738415
164.989777 -42.265934 -0.000019 0.539574
177.955093 -52.176979 -0.000012 0.537240
183.521545 -56.432137 -0.000008 0.543862
186.621765 -58.802025 -0.000006 0.538354
188.600983 -60.314995 -0.000005 0.542458
190.712296 -61.928944 0.199996 0.734051
191.624466 -62.626236 0.200004 0.733883
nan nan nan 0.000000
nan nan nan 0.000000
nan nan nan 0.000000
160.280762 -38.254185 8.955475 0.730037
160.280823 -38.254242 7.394249 0.716121
160.306641 -38.274258 5.842075 0.611765
163.082687 -40.427219 4.129362 0.402945
160.280823 -38.254230 2.767302 0.723476
160.280823 -38.254234 1.232697 0.718639
165.163177 -42.040733 -0.000019 0.542062
178.058975 -52.042053 -0.000012 0.522972
183.595596 -56.335968 -0.000008 0.533013
186.679184 -58.727444 -0.000006 0.533745
188.647797 -60.254196 -0.000005 0.589700
190.747803 -61.882847 0.199997 0.682582
191.655075 -62.586487 0.200003 0.663462
nan nan nan 0.000000
nan nan nan 0.000000
nan nan nan 0.000000
160.810165 -38.254196 8.893587 0.726360
160.810226 -38.254234 7.346256 0.703212
160.835602 -38.274216 5.807896 0.611765
163.268906 -40.188705 4.129366 0.405020
160.810211 -38.254227 2.760476 0.723659
160.810211 -38.254230 1.239524 0.724575
165.338150 -41.816765 -0.000019 0.542977
178.163803 -51.907860 -0.000011 0.538216
183.670303 -56.240318 -0.000008 0.544015
186.737137 -58.653267 -0.000005 0.533593
188.695038 -60.193722 -0.000005 0.558129
190.783615 -61.836998 0.199998 0.761959
191.685959 -62.546951 0.200003 0.752956
nan nan nan 0.000000
nan nan nan 0.000000
nan nan nan 0.000000
161.330261 -38.254196 8.833120 0.738598
161.330307 -38.254234 7.299363 0.731807
161.355255 -38.274158 5.774504 0.611765
163.456879 -39.951569 4.129364 0.407584
161.330292 -38.254234 2.753806 0.737133
161.330307 -38.254234 1.246195 0.744854
165.514664 -41.594002 -0.000019 0.537011
178.269562 -51.774399 -0.000012 0.534478
183.745697 -56.145195 -0.000008 0.537804
186.795593 -58.579494 -0.000006 0.534707
188.742691 -60.133579 -0.000005 0.529900
190.819748 -61.791397 0.199998 0.683146
191.717117 -62.507629 0.200002 0.684169
nan nan nan 0.000000
nan nan nan 0.000000
162.088348 -38.454201 10.251531 0.219318
161.841324 -38.254196 8.774035 0.765759
161.841385 -38.254242 7.253538 0.776471
161.927780 -38.324200 5.735345 0.933837
165.613281 -41.308151 4.005041 0.607523
165.613281 -41.308155 2.667870 0.603693
165.613281 -41.308151 1.332130 0.634104
165.692749 -41.372501 -0.000019 0.542657
178.376251 -51.641678 -0.000012 0.533639
183.821732 -56.050598 -0.000008 0.536294
186.854568 -58.506130 -0.000006 0.544991
188.790771 -60.073772 -0.000005 0.551431
190.856216 -61.746056 0.200000 0.758968
191.748535 -62.468529 0.200002 0.773968
nan nan nan 0.000000
nan nan nan 0.000000
162.381348 -38.285149 10.229653 0.227848
162.343658 -38.254196 8.716289 0.755291
162.343689 -38.254234 7.208754 0.762173
162.343689 -38.254219 5.712543 0.756848
165.725327 -41.031471 4.009366 0.627070
165.725327 -41.031471 2.669311 0.623240
165.725327 -41.031471 1.330690 0.623835
165.872360 -41.152229 -0.000019 0.541421
178.483871 -51.509708 -0.000011 0.548669
183.898438 -55.956543 -0.000008 0.542229
186.914047 -58.433182 -0.000006 0.540734
188.839264 -60.014305 -0.000005 0.528771
190.892990 -61.700966 0.200001 0.700908
191.780243 -62.429646 0.200001 0.744091
nan nan nan 0.000000
nan nan nan 0.000000
162.837540 -38.254211 10.169277 0.720653
162.837524 -38.254204 8.659836 0.718746
162.837570 -38.254238 7.164974 0.721401
162.837555 -38.254219 5.681338 0.735286
164.030380 -39.247887 4.129375 0.404669
162.837555 -38.254223 2.734690 0.718044
162.837555 -38.254227 1.265310 0.714672
166.053513 -40.933220 -0.000019 0.542580
178.592407 -51.378494 -0.000011 0.541238
183.975800 -55.863014 -0.000008 0.533898
186.974045 -58.360649 -0.000006 0.540551
188.888168 -59.955170 -0.000005 0.512627
190.930069 -61.656136 0.200002 0.748608
191.812225 -62.390987 0.200001 0.656352
nan nan nan 0.000000
nan nan nan 0.000000
163.323181 -38.254204 10.101583 0.742672
163.323166 -38.254196 8.604650 0.743587
163.323196 -38.254227 7.122175 0.729397
163.323181 -38.254215 5.650833 0.732570
164.224869 -39.016075 4.129376 0.405417
163.323181 -38.254211 2.728603 0.727138
163.323196 -38.254227 1.271399 0.732418
166.236191 -40.715488 -0.000018 0.541283
178.701859 -51.248039 -0.000011 0.530358
184.053802 -55.770035 -0.000008 0.534386
187.034546 -58.288540 -0.000006 0.529107
188.937500 -59.896385 -0.000004 0.522499
190.967468 -61.611565 0.200003 0.697551
191.844467 -62.352554 0.200001 0.751659
nan nan nan 0.000000
nan nan nan 0.000000
163.800873 -38.254211 10.035384 0.776471
163.800873 -38.254204 8.550679 0.767697
163.800903 -38.254230 7.080321 0.766796
163.882568 -38.324219 5.612181 0.956863
164.420990 -38.785622 4.129375 0.400046
163.800873 -38.254215 2.722648 0.773205
163.800888 -38.254227 1.277352 0.775006
166.420380 -40.499023 -0.000018 0.535958
178.812210 -51.118347 -0.000011 0.540963
184.132462 -55.677597 -0.000008 0.546990
187.095551 -58.216850 -0.000005 0.532982
188.987228 -59.837944 -0.000004 0.518486
191.005188 -61.567257 0.200004 0.698940
191.876968 -62.314346 0.200001 0.700359
nan nan nan 0.000000
nan nan nan 0.000000
164.270859 -38.254211 9.970642 0.725750
164.270844 -38.254204 8.497903 0.718791
164.270874 -38.254227 7.039390 0.727947
164.293915 -38.274258 5.589323 0.611765
164.618713 -38.556549 4.129375 0.426902
164.270859 -38.254211 2.716827 0.698741
164.270874 -38.254219 1.283175 0.701778
166.606079 -40.283859 -0.000018 0.541039
178.923462 -50.989429 -0.000011 0.542931
184.211761 -55.585712 -0.000008 0.541619
187.157059 -58.145592 -0.000005 0.519982
189.037369 -59.779854 -0.000004 0.558953
191.043198 -61.523212 0.200005 0.717815
191.909760 -62.276367 0.200001 0.683040
nan nan nan 0.000000
nan nan nan 0.000000
164.733337 -38.254215 9.907321 0.739361
164.733322 -38.254204 8.446281 0.750530
164.812759 -38.324223 6.987178 0.912993
164.756073 -38.274250 5.560810 0.611765
164.818024 -38.328857 4.129373 0.405127
164.733337 -38.254211 2.711132 0.745342
164.733337 -38.254219 1.288869 0.748913
166.793274 -40.070000 -0.000018 0.536736
179.035629 -50.861298 -0.000012 0.545113
184.291702 -55.494385 -0.000008 0.551507
187.219040 -58.074760 -0.000005 0.530755
189.087906 -59.722111 -0.000004 0.541405
191.081528 -61.479435 0.200006 0.659739
191.942795 -62.238621 0.200001 0.740032
nan nan nan 0.000000
nan nan nan 0.000000
165.188553 -38.254215 9.845375 0.768750
165.188553 -38.254211 8.395781 0.771054
165.266861 -38.324211 6.948112 0.914839
165.210968 -38.274250 5.532915 0.611765
165.018921 -38.102570 4.129371 0.458289
165.188553 -38.254211 2.705561 0.768826
165.188568 -38.254227 1.294440 0.768704
166.981964 -39.857445 -0.000018 0.537972
179.148682 -50.733948 -0.000010 0.527321
184.372269 -55.403614 -0.000008 0.544686
187.281540 -58.004364 -0.000006 0.542214
189.138840 -59.664722 -0.000004 0.539117
191.120163 -61.435925 0.200008 0.731014
191.976105 -62.201099 0.200001 0.659815
nan nan nan 0.000000
nan nan nan 0.000000
165.636703 -38.254215 9.784773 0.726757
165.967636 -38.554234 8.280114 0.517143
165.712921 -38.323311 6.910043 0.814313
165.658798 -38.274239 5.505626 0.611765
165.636703 -38.254211 4.101832 0.731914
165.636703 -38.254211 2.700110 0.729839
165.636719 -38.254227 1.299890 0.705089
167.172119 -39.646214 -0.000018 0.547967
179.262604 -50.607399 -0.000011 0.546456
184.453476 -55.313412 -0.000008 0.536217
187.344513 -57.934410 -0.000005 0.548333
189.190186 -59.607689 -0.000005 0.513420
191.159088 -61.392681 0.200007 0.656107
192.009659 -62.163815 0.200001 0.749142
nan nan nan 0.000000
nan nan nan 0.000000
166.078033 -38.254219 9.725468 0.776471
166.404327 -38.554226 8.232275 0.505394
166.121506 -38.294197 6.877588 0.264073
166.121506 -38.294197 5.476502 0.287800
166.078003 -38.254204 4.085821 0.749371
166.078003 -38.254204 2.694778 0.776242
166.078018 -38.254219 1.305223 0.769985
167.363754 -39.436317 -0.000018 0.535912
179.377426 -50.481636 -0.000011 0.532433
184.535324 -55.223782 -0.000007 0.557671
187.407974 -57.864899 -0.000005 0.559350
189.241928 -59.551022 -0.000004 0.503227
191.198303 -61.349712 0.200006 0.742061
192.043488 -62.126766 0.200001 0.723735
nan nan nan 0.000000
nan nan nan 0.000000
166.512680 -38.254219 9.667434 0.709804
166.834457 -38.554230 8.185457 0.513695
166.534149 -38.274239 6.844315 0.611765
166.534149 -38.274235 5.452787 0.611765
166.512650 -38.254196 4.070153 0.692287
166.512665 -38.254204 2.689558 0.737408
166.512665 -38.254215 1.310442 0.734600
167.556854 -39.227772 -0.000018 0.538277
179.493118 -50.356689 -0.000010 0.560708
184.617767 -55.134720 -0.000007 0.541344
187.471924 -57.795830 -0.000005 0.503914
189.294067 -59.494717 -0.000004 0.526024
191.237839 -61.307014 0.200006 0.672770
192.077576 -62.089954 0.200001 0.677028
nan nan nan 0.000000
167.152405 -38.454231 10.970836 0.235203
166.940872 -38.254219 9.610634 0.769574
167.258179 -38.554234 8.139635 0.491951
166.940872 -38.254219 6.811779 0.751934
166.940857 -38.254204 5.429598 0.751934
166.940842 -38.254196 4.054818 0.737194
166.940857 -38.254200 2.684450 0.776471
166.940872 -38.254211 1.315551 0.765850
167.751389 -39.020561 -0.000018 0.538643
179.609680 -50.232540 -0.000011 0.537331
184.700851 -55.046238 -0.000007 0.544656
187.536362 -57.727207 -0.000005 0.541787
189.346588 -59.438774 -0.000004 0.532525
191.277664 -61.264599 0.200005 0.673686
192.111908 -62.053383 0.200002 0.727184
nan nan nan 0.000000
167.395004 -38.285110 10.958075 0.213855
167.362793 -38.254219 9.555033 0.693660
167.675690 -38.554230 8.094782 0.493172
167.362793 -38.254219 6.776626 0.715846
167.362762 -38.254196 5.404545 0.719783
167.362762 -38.254196 4.039804 0.709895
167.362762 -38.254196 2.679449 0.717693
167.362778 -38.254211 1.320551 0.701350
167.947388 -38.814732 -0.000018 0.542992
179.727097 -50.109215 -0.000011 0.540246
184.784546 -54.958336 -0.000007 0.539666
187.601273 -57.659039 -0.000005 0.533883
189.399506 -59.383198 -0.000004 0.527138
191.317780 -61.222462 0.200005 0.728389
192.146500 -62.017052 0.200002 0.690349
nan nan nan 0.000000
167.778610 -38.254219 10.903107 0.764263
167.778610 -38.254215 9.500604 0.770520
168.087173 -38.554230 8.050872 0.498741
167.984253 -38.454155 6.709218 0.611872
167.984253 -38.454159 5.356497 0.628901
167.984253 -38.454163 4.011017 0.643885
167.984253 -38.454155 2.669861 0.627192
167.984253 -38.454155 1.330139 0.610880
168.144821 -38.610275 -0.000017 0.545373
179.845367 -49.986710 -0.000011 0.533822
184.868851 -54.871025 -0.000007 0.545464
187.666656 -57.591320 -0.000005 0.529397
189.452805 -59.327991 -0.000004 0.551873
191.358200 -61.180603 0.200005 0.695521
192.181351 -61.980961 0.200002 0.672724
nan nan nan 0.000000
168.188492 -38.254211 10.839852 0.713985
168.188492 -38.254219 9.447313 0.719173
168.530792 -38.591705 7.999964 0.497627
168.188492 -38.254215 6.708520 0.709804
168.188477 -38.254196 5.356001 0.710262
168.188477 -38.254192 4.010722 0.730388
168.188477 -38.254196 2.669761 0.718349
168.188492 -38.254211 1.330238 0.714351
168.343643 -38.407188 -0.000017 0.534127
179.964508 -49.865036 -0.000011 0.539452
184.953766 -54.784302 -0.000007 0.542153
187.732498 -57.524063 -0.000005 0.559075
189.506485 -59.273163 -0.000004 0.555230
191.398895 -61.139030 0.200005 0.715053
192.216446 -61.945114 0.200002 0.775570
nan nan nan 0.000000
168.592621 -38.254219 10.777912 0.746029
168.592636 -38.254219 9.395128 0.731807
168.729767 -38.391327 7.999962 0.509941
168.612625 -38.274216 6.672275 0.611765
168.612625 -38.274208 5.330165 0.611765
168.592606 -38.254189 3.996634 0.771359
168.592606 -38.254200 2.665069 0.756832
168.592621 -38.254211 1.334932 0.749218
168.592636 -38.254223 0.003368 0.771221
180.084488 -49.744202 -0.000010 0.545464
185.039276 -54.698174 -0.000007 0.543130
187.798828 -57.457268 -0.000005 0.534844
189.560547 -59.218708 -0.000004 0.529000
191.439896 -61.097740 0.200005 0.681270
192.251801 -61.909515 0.200002 0.703349
nan nan nan 0.000000
168.991135 -38.254211 10.717259 0.776471
168.991135 -38.254211 9.344033 0.776471
168.930161 -38.192387 7.999950 0.533181
169.010864 -38.274216 6.639990 0.611765
169.010864 -38.274208 5.307155 0.611765
169.018265 -38.281715 3.980938 0.896269
168.968964 -38.231728 2.660989 0.611765
168.968964 -38.231728 1.339010 0.611765
169.062622 -38.326691 0.022166 0.406241
180.205307 -49.624199 -0.000010 0.546136
185.125397 -54.612644 -0.000007 0.538964
187.865601 -57.390938 -0.000005 0.525475
189.615005 -59.164635 -0.000004 0.534508
191.481171 -61.056740 0.200005 0.685557
192.287399 -61.874165 0.200003 0.693355
169.578751 -38.454220 11.971258 0.215549
169.384216 -38.254211 10.657855 0.721569
169.384216 -38.254219 9.293985 0.729427
169.384232 -38.254227 7.946268 0.729641
169.403671 -38.274216 6.608370 0.611765
169.403656 -38.274208 5.284617 0.611765
169.410965 -38.281715 3.967438 0.910399
169.362350 -38.231735 2.656486 0.611765
169.362350 -38.231735 1.343515 0.611765
169.362350 -38.231735 0.029137 0.569940
180.326965 -49.505047 -0.000010 0.541726
185.212097 -54.527718 -0.000007 0.542657
187.932861 -57.325069 -0.000005 0.558251
189.669815 -59.110939 -0.000004 0.545190
191.522736 -61.016029 0.200006 0.671717
192.323242 -61.839058 0.200002 0.739467
169.852524 -38.338188 11.944523 0.247074
169.771988 -38.254211 10.599672 0.771313
169.771988 -38.254219 9.244967 0.771908
169.772003 -38.254223 7.906308 0.771160
169.791183 -38.274223 6.577400 0.611765
169.791168 -38.274208 5.262545 0.611765
169.798355 -38.281708 3.954217 0.913512
169.750427 -38.231735 2.652073 0.611765
169.750427 -38.231735 1.347927 0.611765
169.750427 -38.231735 0.042380 0.611765
180.449448 -49.386742 -0.000010 0.545159
185.299393 -54.443394 -0.000007 0.539574
188.000565 -57.259682 -0.000005 0.616632
189.725021 -59.057632 -0.000004 0.569253
191.564590 -60.975609 0.200005 0.686839
192.359314 -61.804207 0.200003 0.657923
170.154602 -38.254211 11.907567 0.770397
170.154602 -38.254215 10.542680 0.767620
170.154602 -38.254211 9.196953 0.737072
170.154602 -38.254223 7.867166 0.761501
170.173523 -38.274220 6.547065 0.611765
170.173508 -38.274208 5.240922 0.611765
170.180603 -38.281715 3.941266 0.927810
170.133347 -38.231743 2.647751 0.611765
170.133347 -38.231743 1.352249 0.611765
170.133347 -38.231743 0.055355 0.611765
180.572754 -49.269302 -0.000010 0.548379
185.387299 -54.359695 -0.000007 0.533822
188.068726 -57.194763 -0.000005 0.528847
189.780579 -59.004707 -0.000004 0.537423
191.606720 -60.935482 0.200005 0.726558
192.395645 -61.769608 0.200003 0.694270
170.532196 -38.254211 11.842817 0.699260
170.532196 -38.254211 10.486847 0.727275
170.532196 -38.254219 9.149915 0.709255
170.532196 -38.254219 7.828819 0.730602
170.550842 -38.274216 6.517347 0.611765
170.550842 -38.274216 5.219740 0.611765
170.557831 -38.281715 3.928578 0.914366
170.511230 -38.231743 2.643518 0.611765
170.511230 -38.231743 1.356481 0.611765
170.511230 -38.231743 0.068065 0.611765
180.696884 -49.152725 -0.000010 0.536202
185.475754 -54.276596 -0.000007 0.541131
188.137329 -57.130318 -0.000005 0.557000
189.836517 -58.952171 -0.000004 0.528191
191.649139 -60.895649 0.200005 0.674617
192.432220 -61.735264 0.200003 0.744549
170.904877 -38.254204 11.779383 0.753246
170.904892 -38.254211 10.432151 0.762829
170.904892 -38.254211 9.103836 0.733669
170.904907 -38.254227 7.791253 0.745861
170.923294 -38.274223 6.488232 0.611765
170.923294 -38.274216 5.198989 0.611765
170.930191 -38.281715 3.916149 0.951385
170.920975 -38.271698 2.638483 0.406622
170.920975 -38.271698 1.361517 0.406104
170.920975 -38.271702 0.083183 0.407706
180.821823 -49.037022 -0.000010 0.525399
185.564804 -54.194130 -0.000007 0.558328
188.206390 -57.066360 -0.000005 0.566629
189.892822 -58.900032 -0.000004 0.564721
191.691818 -60.856113 0.200005 0.719676
192.469025 -61.701176 0.200004 0.657588
171.272842 -38.254215 11.717226 0.755428
171.272842 -38.254208 10.378560 0.764569
171.272842 -38.254211 9.058689 0.753628
171.272842 -38.254219 7.754448 0.766491
171.290985 -38.274223 6.459708 0.611765
171.290985 -38.274216 5.178658 0.611765
171.297775 -38.281708 3.903970 0.933639
171.252441 -38.231716 2.635308 0.611765
171.252441 -38.231716 1.364692 0.611765
171.252441 -38.231712 0.092713 0.611765
180.947556 -48.922188 -0.000010 0.548775
185.654434 -54.112286 -0.000006 0.548287
188.275894 -57.002884 -0.000005 0.527245
190.687927 -59.662548 0.200011 0.697292
191.734787 -60.816879 0.200005 0.703151
192.506073 -61.667347 0.200004 0.727001
171.636154 -38.254211 11.656326 0.692210
171.636154 -38.254208 10.326050 0.734539
171.636154 -38.254211 9.014448 0.723125
171.636169 -38.254219 7.718382 0.727077
171.636154 -38.254211 6.434845 0.732021
171.636154 -38.254200 5.160937 0.701961
171.616043 -38.231720 3.895332 0.611765
171.616043 -38.231716 2.631326 0.611765
171.616043 -38.231716 1.368673 0.611765
171.616043 -38.231720 0.104668 0.611765
181.074097 -48.808231 -0.000010 0.551583
185.744614 -54.031067 -0.000006 0.541451
188.345840 -56.939896 -0.000005 0.536599
190.739258 -59.616333 0.200011 0.683635
191.778015 -60.777943 0.200005 0.673060
192.543350 -61.633774 0.200004 0.727535
171.994965 -38.254204 11.596649 0.732799
171.994965 -38.254204 10.274592 0.729702
171.994980 -38.254211 8.971096 0.690181
171.994980 -38.254211 7.683042 0.728099
171.994965 -38.254204 6.407437 0.728237
171.994965 -38.254196 5.141403 0.680934
172.019226 -38.281708 3.880344 0.944671
171.975143 -38.231712 2.627424 0.611765
171.975143 -38.231716 1.372575 0.611765
171.975143 -38.231724 0.116381 0.611765
181.201431 -48.695164 -0.000010 0.547936
185.835373 -53.950470 -0.000007 0.533578
188.416229 -56.877396 -0.000005 0.557870
190.790894 -59.570477 0.200011 0.676432
191.821533 -60.739311 0.200006 0.747784
192.580856 -61.600464 0.200004 0.703471
172.349396 -38.254211 11.538165 0.763806
172.349396 -38.254208 10.224166 0.770916
172.349396 -38.254211 8.928616 0.768978
172.349396 -38.254219 7.648409 0.760800
172.349396 -38.254204 6.380578 0.769116
172.349380 -38.254196 5.122258 0.761669
172.329834 -38.231720 3.872140 0.611765
172.329849 -38.231728 2.623600 0.611765
172.329849 -38.231728 1.376400 0.611765
172.329849 -38.231728 0.127860 0.611765
181.329544 -48.582993 -0.000009 0.543267
185.926682 -53.870522 -0.000006 0.535760
188.487045 -56.815388 -0.000004 0.538796
190.842850 -59.524982 0.200011 0.754162
191.865295 -60.700985 0.200006 0.667247
192.618607 -61.567417 0.200004 0.699306
172.699524 -38.254204 11.480852 0.755795
172.699524 -38.254204 10.174748 0.759899
172.699539 -38.254204 8.886984 0.760525
172.699539 -38.254215 7.614467 0.763699
172.731415 -38.291405 6.348618 0.934661
172.759521 -38.324188 5.095938 0.960220
172.680267 -38.231728 3.860890 0.611765
172.680267 -38.231728 2.619854 0.611765
172.680267 -38.231728 1.380147 0.611765
172.680267 -38.231728 0.139110 0.611765
181.458450 -48.471710 -0.000010 0.543160
186.018555 -53.791206 -0.000006 0.531487
188.558304 -56.753876 -0.000004 0.521599
190.895126 -59.479855 0.200011 0.668498
191.909348 -60.662964 0.200006 0.725307
192.656586 -61.534634 0.200004 0.758190
173.045502 -38.254204 11.424678 0.752209
173.045502 -38.254204 10.126313 0.752209
173.045517 -38.254211 8.846176 0.719615
173.045517 -38.254211 7.581201 0.774945
173.062408 -38.274193 6.325445 0.611765
173.104675 -38.324196 5.077594 0.920775
173.060303 -38.271702 3.847293 0.407355
173.060303 -38.271702 2.615324 0.390265
173.060303 -38.271702 1.384675 0.393683
173.060303 -38.271702 0.152707 0.392203
181.588104 -48.361328 -0.000010 0.543877
186.110977 -53.712532 -0.000006 0.529580
188.629974 -56.692863 -0.000004 0.562173
190.947723 -59.435089 0.200011 0.737819
191.953644 -60.625252 0.200007 0.697978
192.694778 -61.502113 0.200004 0.664164
173.387436 -38.254204 11.369617 0.717418
173.387436 -38.254211 10.078836 0.729381
173.387436 -38.254215 8.806177 0.733333
173.387436 -38.254211 7.548598 0.735271
173.420776 -38.294220 6.297177 0.283192
173.445755 -38.324203 5.059613 0.956893
173.402023 -38.271713 3.836500 0.407492
173.402023 -38.271706 2.611729 0.405478
173.402008 -38.271706 1.388270 0.412528
173.402023 -38.271706 0.163499 0.401526
181.718552 -48.251865 -0.000010 0.539483
186.203949 -53.634514 -0.000006 0.544701
188.702072 -56.632355 -0.000004 0.545144
191.000610 -59.390690 0.200011 0.677363
191.998215 -60.587849 0.200007 0.681422
192.733215 -61.469864 0.200004 0.727855
173.725388 -38.254204 11.315653 0.715755
173.725388 -38.254204 10.032308 0.735042
173.725403 -38.254215 8.766979 0.722591
173.725403 -38.254211 7.516641 0.725658
173.741821 -38.274200 6.275408 0.611765
173.782898 -38.324211 5.041991 0.958984
173.706894 -38.231697 3.828467 0.611765
173.734177 -38.264908 2.608351 0.273121
173.706894 -38.231697 1.390946 0.611765
173.706894 -38.231697 0.171533 0.611765
181.849747 -48.143311 -0.000010 0.540520
186.297470 -53.557144 -0.000006 0.546029
188.774597 -56.572350 -0.000004 0.524880
191.053833 -59.346664 0.200011 0.743267
192.043045 -60.550758 0.200007 0.744671
192.771866 -61.437881 0.200003 0.730907
174.059494 -38.254204 11.262753 0.769467
174.059494 -38.254204 9.986694 0.741176
174.059509 -38.254215 8.728552 0.776471
174.059509 -38.254211 7.485312 0.776471
174.075699 -38.274200 6.251129 0.611765
174.116196 -38.324203 5.024717 0.937072
174.041275 -38.231697 3.818084 0.611765
174.068161 -38.264900 2.604897 0.278431
174.041275 -38.231701 1.394405 0.611765
174.041275 -38.231705 0.181916 0.611765
181.981720 -48.035683 -0.000009 0.544366
186.391510 -53.480423 -0.000006 0.537423
188.847534 -56.512856 -0.000004 0.556909
191.107346 -59.303017 0.200012 0.683619
192.088135 -60.513981 0.200007 0.743114
192.810730 -61.406170 0.200003 0.703182
174.389847 -38.254211 11.210896 0.761975
174.389847 -38.254211 9.941982 0.752300
174.389862 -38.254215 8.690884 0.764706
174.389847 -38.254211 7.454604 0.763394
174.405823 -38.274200 6.227330 0.611765
177.152954 -41.714905 4.652016 0.665049
174.371887 -38.231705 3.807904 0.611765
174.398376 -38.264893 2.601510 0.295613
174.371887 -38.231705 1.397795 0.611765
174.371887 -38.231705 0.192095 0.611765
182.114410 -47.928970 -0.000009 0.535439
186.486099 -53.404373 -0.000005 0.527474
188.920883 -56.453865 -0.000004 0.549935
191.161163 -59.259735 0.200011 0.758984
192.133469 -60.477524 0.200007 0.693721
192.849823 -61.374733 0.200003 0.699550
174.716537 -38.254204 11.160061 0.756313
174.716537 -38.254204 9.898149 0.775250
174.716553 -38.254215 8.653954 0.759838
174.716553 -38.254211 7.424499 0.774075
174.732285 -38.274208 6.203998 0.611765
177.440308 -41.714909 4.637378 0.658442
174.698837 -38.231705 3.797926 0.611765
174.724960 -38.264896 2.598190 0.292546
174.698837 -38.231705 1.401119 0.611765
174.698837 -38.231705 0.202073 0.611765
182.247864 -47.823181 -0.000009 0.552239
186.581207 -53.328968 -0.000005 0.575830
188.994659 -56.395390 -0.000004 0.535973
191.215286 -59.216831 0.200011 0.699718
192.179062 -60.441376 0.200007 0.770718
192.889145 -61.343567 0.200003 0.726955
175.039658 -38.254204 11.110224 0.728466
175.039673 -38.254211 9.855179 0.708217
175.039673 -38.254215 8.617753 0.734035
175.039673 -38.254211 7.394987 0.703670
175.055191 -38.274208 6.181125 0.611765
177.724518 -41.714905 4.623030 0.664485
175.022217 -38.231709 3.788145 0.611765
175.047958 -38.264900 2.594934 0.285237
175.022217 -38.231712 1.404378 0.611765
175.022217 -38.231712 0.211855 0.611765
182.382034 -47.718330 -0.000009 0.521065
186.676849 -53.254234 -0.000006 0.545525
189.068832 -56.337433 -0.000004 0.550591
191.269699 -59.174305 0.200011 0.727474
192.224915 -60.405552 0.200007 0.669306
192.928665 -61.312679 0.200003 0.676722
175.359299 -38.254204 11.061369 0.703288
175.359299 -38.254204 9.813053 0.702998
175.359314 -38.254219 8.582264 0.688273
175.359299 -38.254204 7.366056 0.693141
175.374603 -38.274208 6.158702 0.611765
178.005661 -41.714905 4.608964 0.701991
175.342102 -38.231712 3.778555 0.611765
175.367477 -38.264896 2.591745 0.288029
175.342102 -38.231712 1.407572 0.611765
175.342102 -38.231716 0.221445 0.611765
182.516937 -47.614426 -0.000009 0.542840
186.772995 -53.180168 -0.000006 0.532189
189.143402 -56.279995 -0.000004 0.528374
191.324417 -59.132164 0.200011 0.736477
192.271011 -60.370045 0.200006 0.717876
192.968414 -61.282066 0.200003 0.663005
175.675537 -38.254208 11.013471 0.732433
175.675552 -38.254211 9.771753 0.731121
175.675552 -38.254215 8.547469 0.712154
175.675552 -38.254211 7.337691 0.704723
175.714752 -38.306236 6.132106 0.949233
178.283813 -41.714912 4.595173 0.691341
175.675522 -38.254185 3.767772 0.733333
175.675537 -38.254196 2.588836 0.733333
175.675537 -38.254204 1.411165 0.733333
175.675552 -38.254219 0.232230 0.724086
182.652573 -47.511452 -0.000009 0.540200
186.869675 -53.106789 -0.000005 0.530312
189.218369 -56.223083 -0.000004 0.535851
191.379425 -59.090408 0.200011 0.685725
192.317352 -60.334862 0.200006 0.731182
193.008377 -61.251732 0.200003 0.785000
175.988464 -38.254204 10.966511 0.713985
175.988480 -38.254211 9.731262 0.655009
175.988480 -38.254223 8.513357 0.682628
175.988464 -38.254204 7.309882 0.730968
175.988464 -38.254204 6.118035 0.731777
178.559052 -41.714912 4.581651 0.671458
175.988449 -38.254181 3.758561 0.718471
175.988464 -38.254204 2.585768 0.688365
175.988464 -38.254211 1.414232 0.651270
175.988480 -38.254211 0.241440 0.679774
182.788910 -47.409439 -0.000009 0.543511
186.966858 -53.034077 -0.000005 0.539178
189.293732 -56.166691 -0.000004 0.560159
191.434723 -59.049034 0.200012 0.736843
192.363922 -60.300003 0.200005 0.680034
193.048538 -61.221680 0.200004 0.685725
176.298187 -38.254208 10.920466 0.754635
176.298187 -38.254211 9.691563 0.755474
176.298187 -38.254219 8.479912 0.751446
176.430206 -38.434555 7.249463 0.604501
176.430206 -38.434559 6.071176 0.594598
178.831467 -41.714912 4.568395 0.679805
178.565094 -41.351025 3.560987 0.603326
178.565094 -41.351028 2.519958 0.593805
178.565094 -41.351028 1.480043 0.635019
178.565094 -41.351025 0.439012 0.630701
182.925964 -47.308380 -0.000008 0.547753
187.064545 -52.962044 -0.000005 0.548012
189.369492 -56.110825 -0.000004 0.520912
191.490311 -59.008045 0.200012 0.673121
192.410751 -60.265472 0.200005 0.706172
193.088913 -61.191902 0.200004 0.676585
176.604736 -38.254211 10.875329 0.763287
176.604736 -38.254219 9.652639 0.760174
176.604752 -38.254227 8.447121 0.758984
176.604736 -38.254211 7.255885 0.766155
176.604736 -38.254196 6.076159 0.769070
179.101105 -41.714912 4.555398 0.690730
178.799484 -41.296783 3.556374 0.606165
178.799484 -41.296776 2.518421 0.610773
178.799484 -41.296783 1.481579 0.604944
178.799484 -41.296783 0.443625 0.580987
183.063721 -47.208279 -0.000008 0.531212
187.162720 -52.890694 -0.000006 0.546349
189.445648 -56.055496 -0.000004 0.542565
191.546173 -58.967445 0.200011 0.714733
192.457825 -60.231266 0.200004 0.690745
193.129501 -61.162415 0.200004 0.758083
176.908218 -38.254211 10.831070 0.771435
176.908218 -38.254211 9.614479 0.773617
176.908234 -38.254227 8.414970 0.774075
176.908218 -38.254208 7.229676 0.772702
176.908218 -38.254196 6.055831 0.773602
179.368042 -41.714912 4.542655 0.690196
178.894028 -41.048031 3.563606 0.626245
178.894043 -41.048035 2.520830 0.621302
178.894028 -41.048035 1.479170 0.609430
178.894028 -41.048027 0.436393 0.629068
183.202179 -47.109138 -0.000008 0.548714
187.261414 -52.820034 -0.000005 0.516182
189.522171 -56.000690 -0.000004 0.523049
191.602325 -58.927235 0.200011 0.708202
192.505127 -60.197392 0.200004 0.670970
193.170288 -61.133205 0.200003 0.659083
177.208694 -38.254204 10.787679 0.756436
177.208710 -38.254219 9.577065 0.769345
177.208710 -38.254223 8.383451 0.773861
177.208694 -38.254204 7.203979 0.758450
177.257736 -38.324226 6.026070 0.948196
179.632339 -41.714916 4.530161 0.703792
177.208679 -38.254189 3.723487 0.753704
177.208694 -38.254204 2.574085 0.775845
177.208710 -38.254211 1.425915 0.769848
177.208710 -38.254219 0.276514 0.756024
183.341324 -47.010971 -0.000008 0.537820
187.360580 -52.750069 -0.000005 0.539254
189.599091 -55.946426 -0.000004 0.532235
191.658752 -58.887421 0.200010 0.681331
192.552673 -60.163849 0.200004 0.725948
193.211288 -61.104282 0.200004 0.667765
177.506256 -38.254204 10.745136 0.766873
177.506256 -38.254211 9.540382 0.755947
177.713257 -38.554222 8.286229 0.494987
177.506256 -38.254211 7.178785 0.767147
177.540070 -38.303215 6.009515 0.289326
179.894058 -41.714916 4.517912 0.689113
177.506256 -38.254189 3.715144 0.763302
177.506256 -38.254204 2.571306 0.757397
177.506256 -38.254211 1.428694 0.749340
177.506271 -38.254219 0.284857 0.764019
183.481140 -46.913780 -0.000008 0.537057
187.460236 -52.680790 -0.000005 0.553292
189.676376 -55.892704 -0.000003 0.529778
191.715454 -58.848000 0.200009 0.740215
192.600449 -60.130642 0.200004 0.746700
193.252472 -61.075649 0.200004 0.681987
177.800964 -38.254211 10.703423 0.768200
177.800964 -38.254215 9.504417 0.769436
178.004898 -38.554230 8.256245 0.517647
177.800964 -38.254196 7.154086 0.770306
177.834274 -38.303219 5.990390 0.278431
180.153275 -41.714912 4.505903 0.693111
177.800949 -38.254189 3.706963 0.773800
177.800964 -38.254200 2.568581 0.774777
177.800980 -38.254211 1.431419 0.774838
177.800964 -38.254211 0.293038 0.774731
183.621643 -46.817558 -0.000008 0.543008
187.560379 -52.612209 -0.000005 0.537896
189.754044 -55.839516 -0.000004 0.561975
191.772430 -58.808968 0.200009 0.681422
192.648453 -60.097763 0.200004 0.665568
193.293869 -61.047302 0.200004 0.676112
178.092896 -38.254204 10.662528 0.769741
178.092896 -38.254211 9.469158 0.767193
178.293762 -38.554214 8.226849 0.494118
178.092896 -38.254200 7.129868 0.766827
178.106308 -38.274235 5.975652 0.611765
180.410049 -41.714920 4.494127 0.699916
178.092880 -38.254189 3.698943 0.773846
178.092896 -38.254208 2.565909 0.759289
178.092896 -38.254215 1.434091 0.774823
178.092896 -38.254211 0.301059 0.774075
183.762817 -46.722328 -0.000007 0.544961
187.660995 -52.544334 -0.000005 0.567895
189.832077 -55.786877 -0.000003 0.540551
191.829681 -58.770344 0.200008 0.740276
192.696686 -60.065228 0.200004 0.699718
193.335464 -61.019249 0.200004 0.696040
178.382095 -38.254211 10.622433 0.757168
178.382111 -38.254219 9.434584 0.755123
178.579956 -38.554222 8.198029 0.497200
178.382095 -38.254204 7.106124 0.760266
178.395309 -38.274235 5.957253 0.611765
180.664429 -41.714912 4.482584 0.663752
178.382095 -38.254196 3.691078 0.763607
178.382095 -38.254200 2.563290 0.764569
178.382095 -38.254211 1.436710 0.758251
178.382111 -38.254219 0.308922 0.764523
183.904633 -46.628082 -0.000008 0.540871
187.762085 -52.477165 -0.000005 0.531334
189.910461 -55.734779 -0.000003 0.540520
191.887207 -58.732117 0.200007 0.784710
192.745148 -60.033028 0.200005 0.775586
193.377243 -60.991482 0.200004 0.658320
178.668655 -38.254211 10.583125 0.752026
178.668671 -38.254219 9.400692 0.761746
178.863525 -38.554222 8.169771 0.500481
178.668655 -38.254208 7.082846 0.764446
178.681671 -38.274231 5.939211 0.611765
180.916473 -41.714912 4.471267 0.680903
178.668655 -38.254196 3.683369 0.752361
178.668655 -38.254204 2.560722 0.764706
178.668671 -38.254219 1.439278 0.764630
178.668671 -38.254219 0.316632 0.764019
184.047119 -46.534828 -0.000008 0.529290
187.863632 -52.410698 -0.000005 0.526909
189.989227 -55.683228 -0.000003 0.526253
191.944992 -58.694298 0.200007 0.687175
192.793823 -60.001163 0.200005 0.670832
193.419220 -60.964008 0.200004 0.740139
178.952621 -38.254208 10.544589 0.770382
178.952637 -38.254215 9.367465 0.766781
179.144531 -38.554230 8.142070 0.496040
178.952621 -38.254204 7.060025 0.772152
178.965424 -38.274231 5.921525 0.611765
181.166245 -41.714916 4.460170 0.666667
178.952606 -38.254192 3.675811 0.740017
178.952621 -38.254208 2.558204 0.773068
178.952621 -38.254211 1.441796 0.751705
178.952621 -38.254211 0.324189 0.773068
184.190247 -46.442574 -0.000008 0.544961
187.965652 -52.344936 -0.000005 0.545937
190.068344 -55.632233 -0.000004 0.560601
192.003036 -58.656876 0.200006 0.755703
192.842728 -59.969643 0.200005 0.706432
193.461380 -60.936829 0.200004 0.778653
179.234070 -38.254204 10.506807 0.747265
179.234070 -38.254211 9.334890 0.763943
179.423035 -38.554226 8.114913 0.505974
179.234070 -38.254204 7.037651 0.768490
179.246674 -38.274231 5.904186 0.611765
181.413788 -41.714920 4.449293 0.669703
179.234070 -38.254196 3.668401 0.763897
179.234070 -38.254204 2.555736 0.763516
179.234070 -38.254211 1.444264 0.764492
179.234070 -38.254219 0.331599 0.760662
184.334015 -46.351318 -0.000007 0.533654
188.068115 -52.279896 -0.000005 0.516152
190.147812 -55.581795 -0.000003 0.560082
192.061340 -58.619865 0.200006 0.671778
192.891861 -59.938461 0.200005 0.741894
193.484161 -60.878857 0.190801 0.670802
179.513046 -38.254204 10.469772 0.758343
179.513062 -38.254211 9.302956 0.752941
179.699097 -38.554222 8.088291 0.509789
179.556473 -38.324226 7.003497 0.932448
179.525467 -38.274231 5.887188 0.611765
181.659180 -41.714912 4.438630 0.706081
179.513046 -38.254196 3.661138 0.760922
179.513046 -38.254204 2.553317 0.758801
179.513062 -38.254211 1.446683 0.762982
179.513062 -38.254215 0.338863 0.762982
184.478424 -46.261070 -0.000008 0.524880
188.171051 -52.215572 -0.000005 0.530983
190.227631 -55.531906 -0.000003 0.558618
192.119904 -58.583263 0.200006 0.673167
192.941193 -59.907623 0.200005 0.662715
193.502411 -60.812607 0.179151 0.661906
179.789627 -38.254211 10.433464 0.758618
179.789627 -38.254211 9.271652 0.764675
179.972794 -38.554226 8.062193 0.505882
179.832382 -38.324230 6.982049 0.925856
179.801849 -38.274231 5.870525 0.611765
181.902435 -41.714916 4.428177 0.657755
179.789612 -38.254196 3.654017 0.752453
179.789627 -38.254204 2.550945 0.755169
179.789627 -38.254211 1.449055 0.771603
179.789627 -38.254211 0.345984 0.771237
184.623444 -46.171825 -0.000007 0.539498
188.274414 -52.151966 -0.000004 0.530648
190.307800 -55.482578 -0.000003 0.561532
192.178726 -58.547070 0.200006 0.666789
192.990753 -59.877136 0.200005 0.676387
193.520889 -60.745483 0.167257 0.721767
180.063843 -38.254204 10.397879 0.767468
180.063858 -38.254215 9.240965 0.763439
180.244156 -38.554222 8.036610 0.497307
180.105927 -38.324219 6.961027 0.966827
180.075882 -38.274231 5.854191 0.611765
182.143646 -41.714912 4.417930 0.693141
180.063843 -38.254196 3.647037 0.765698
180.063858 -38.254204 2.548620 0.766873
180.063858 -38.254211 1.451380 0.770596
180.063858 -38.254211 0.352963 0.763149
184.769104 -46.083611 -0.000007 0.537408
188.378235 -52.089085 -0.000004 0.551354
190.388321 -55.433811 -0.000003 0.572641
192.237793 -58.511292 0.200006 0.685557
193.040512 -59.846992 0.200005 0.742931
193.539597 -60.677460 0.155112 0.736751
180.335785 -38.254208 10.362993 0.766018
180.335785 -38.254211 9.210888 0.768078
180.513260 -38.554226 8.011535 0.515190
180.335785 -38.254200 6.952487 0.762448
180.335785 -38.254196 5.840859 0.767742
182.382828 -41.714912 4.407887 0.685283
180.335785 -38.254196 3.640196 0.764248
180.335785 -38.254208 2.546341 0.752224
180.335800 -38.254215 1.453659 0.758679
180.335785 -38.254211 0.359805 0.769802
184.915375 -45.996407 -0.000007 0.533959
188.482468 -52.026924 -0.000005 0.541146
190.469162 -55.385605 -0.000003 0.555169
192.297119 -58.475922 0.200006 0.670390
193.090485 -59.817196 0.200005 0.679759
193.558609 -60.608608 0.142738 0.708797
180.605484 -38.254211 10.328803 0.748333
180.605499 -38.254219 9.181406 0.750378
180.744095 -38.492310 7.999995 0.510109
180.605484 -38.254200 6.932240 0.748470
180.605484 -38.254192 5.825158 0.753643
182.620056 -41.714912 4.398042 0.689738
180.605484 -38.254196 3.633490 0.750988
180.605484 -38.254204 2.544108 0.753613
180.605499 -38.254215 1.455893 0.740536
180.605499 -38.254215 0.366510 0.750591
185.062241 -45.910225 -0.000007 0.539040
188.587158 -51.965508 -0.000004 0.539864
190.550354 -55.337971 -0.000003 0.552590
192.356674 -58.440971 0.200006 0.742947
193.140671 -59.787750 0.200005 0.664668
193.576431 -60.536331 0.129382 0.692409
180.873001 -38.254204 10.295295 0.714794
180.873001 -38.254215 9.152514 0.710246
180.943497 -38.377281 7.999975 0.511650
180.873001 -38.254204 6.912395 0.718120
180.872986 -38.254192 5.809769 0.715999
182.855347 -41.714912 4.388394 0.680644
180.872986 -38.254196 3.626918 0.703929
180.873001 -38.254204 2.541919 0.727886
180.873001 -38.254211 1.458082 0.713298
180.873001 -38.254211 0.373082 0.702510
185.209702 -45.825073 -0.000007 0.551583
188.692261 -51.904816 -0.000004 0.546410
190.631866 -55.290901 -0.000002 0.524666
192.416489 -58.406433 0.200007 0.680095
193.191055 -59.758652 0.200005 0.677119
193.593704 -60.461586 0.115331 0.771817
181.138397 -38.254211 10.262453 0.702419
181.138397 -38.254219 9.124197 0.707698
181.143677 -38.263596 7.999968 0.494835
181.138382 -38.254200 6.892948 0.721019
181.138382 -38.254200 5.794686 0.701839
183.088776 -41.714912 4.378939 0.675486
181.138382 -38.254200 3.620478 0.713008
181.138382 -38.254204 2.539773 0.720104
181.138397 -38.254211 1.460227 0.695293
181.138397 -38.254211 0.379523 0.669261
185.357758 -45.740940 -0.000008 0.542473
188.797791 -51.844852 -0.000005 0.544335
190.713699 -55.244396 -0.000003 0.539284
192.476532 -58.372318 0.200007 0.699306
193.241638 -59.729908 0.200005 0.739742
193.611252 -60.385735 0.100983 0.675135
181.401688 -38.254211 10.230272 0.717037
181.401703 -38.254215 9.096450 0.748074
181.401688 -38.254208 7.978550 0.740169
181.401688 -38.254196 6.873890 0.721691
181.401688 -38.254196 5.779905 0.730709
183.320358 -41.714912 4.369672 0.672038
181.401688 -38.254200 3.614165 0.745937
181.401703 -38.254211 2.537671 0.717601
181.401703 -38.254219 1.462329 0.735317
181.401703 -38.254215 0.385834 0.743481
185.506393 -45.657852 -0.000007 0.525780
188.903732 -51.785629 -0.000004 0.535927
191.449661 -56.377720 0.200008 0.723918
192.536819 -58.338615 0.200006 0.722469
193.292419 -59.701519 0.200005 0.678050
193.629089 -60.308743 0.086328 0.697917
181.662964 -38.254211 10.198737 0.721569
181.662979 -38.254219 9.069260 0.729152
181.662964 -38.254208 7.955644 0.732525
181.662964 -38.254204 6.855216 0.734997
181.662964 -38.254192 5.765423 0.729335
183.550171 -41.714920 4.360593 0.704509
181.662964 -38.254196 3.607981 0.738628
181.662964 -38.254204 2.535611 0.728985
181.662964 -38.254211 1.464390 0.734569
181.662964 -38.254211 0.392020 0.733150
185.655609 -45.575809 -0.000007 0.537758
189.010086 -51.727146 -0.000004 0.535164
191.523895 -56.336903 0.200008 0.712993
192.597336 -58.305340 0.200006 0.703471
193.343414 -59.673481 0.200004 0.717144
193.647202 -60.230564 0.071356 0.741436
181.922256 -38.254211 10.167842 0.623713
181.922256 -38.254211 9.042622 0.694438
181.922256 -38.254211 7.933200 0.672419
181.922256 -38.254196 6.836921 0.694255
181.922241 -38.254192 5.751234 0.721828
183.778244 -41.714916 4.351697 0.662486
181.922256 -38.254196 3.601922 0.693812
181.922256 -38.254208 2.533592 0.698070
181.922256 -38.254215 1.466408 0.679103
181.922256 -38.254208 0.398079 0.702281
185.805389 -45.494812 -0.000007 0.544564
189.116852 -51.669418 -0.000004 0.560052
191.598404 -56.296608 0.200009 0.708492
192.658081 -58.272488 0.200006 0.699519
193.394592 -59.645805 0.200004 0.780362
193.665619 -60.151165 0.056055 0.663569
182.179626 -38.254211 10.137572 0.719768
182.179626 -38.254211 9.016521 0.747524
182.179611 -38.254204 7.911213 0.736828
182.202057 -38.296745 6.811860 0.923217
182.202042 -38.296741 5.731798 0.951446
184.004608 -41.714916 4.342982 0.668376
182.179611 -38.254200 3.595984 0.774441
182.179611 -38.254208 2.531615 0.742809
182.179626 -38.254211 1.468385 0.744701
182.179626 -38.254211 0.404015 0.727962
185.955750 -45.414848 -0.000007 0.541329
189.223999 -51.612427 -0.000004 0.564080
191.673203 -56.256821 0.200008 0.669810
192.719055 -58.240055 0.200005 0.748852
193.445953 -59.618477 0.200002 0.675593
193.684280 -60.070412 0.040391 0.765087
182.435089 -38.254204 10.107923 0.765438
182.435089 -38.254215 8.990954 0.764706
182.435074 -38.254204 7.889675 0.770825
182.445450 -38.274200 6.798093 0.611765
182.445450 -38.274208 5.721120 0.611765
184.229309 -41.714916 4.334445 0.689570
182.435089 -38.254204 3.590169 0.763165
182.435089 -38.254211 2.529677 0.759625
182.435089 -38.254215 1.470323 0.764706
182.435089 -38.254215 0.409831 0.757885
186.106644 -45.335949 -0.000006 0.539635
189.331558 -51.556190 -0.000004 0.536446
191.748276 -56.217567 0.200008 0.701030
192.780258 -58.208054 0.200005 0.676432
193.497513 -59.591515 0.200002 0.687816
193.703293 -59.988438 0.024403 0.758663
182.688721 -38.254211 10.078876 0.758083
182.688721 -38.254211 8.965912 0.750988
182.688721 -38.254211 7.868575 0.719234
182.698898 -38.274204 6.780905 0.611765
182.698898 -38.274204 5.707791 0.611765
184.452393 -41.714916 4.326082 0.659831
182.688721 -38.254208 3.584472 0.762448
182.688721 -38.254204 2.527780 0.754620
182.688721 -38.254211 1.472220 0.752941
182.688721 -38.254211 0.415527 0.765072
186.258102 -45.258099 -0.000006 0.539101
189.439514 -51.500702 -0.000004 0.507195
191.823608 -56.178833 0.200007 0.730053
192.841675 -58.176483 0.200005 0.718746
193.549255 -59.564911 0.200001 0.726696
193.722610 -59.905052 0.008037 0.664485
182.940552 -38.254215 10.050429 0.763699
182.940552 -38.254219 8.941382 0.754971
182.940536 -38.254204 7.847912 0.771649
182.950562 -38.274200 6.764071 0.611765
182.950562 -38.274200 5.694735 0.611765
184.673889 -41.714912 4.317893 0.680720
182.940536 -38.254200 3.578894 0.763516
182.940552 -38.254208 2.525922 0.757763
182.940552 -38.254208 1.474078 0.758633
182.940552 -38.254208 0.421106 0.765881
186.410080 -45.181305 -0.000007 0.543725
189.547836 -51.445965 -0.000004 0.549554
191.899231 -56.140629 0.200006 0.748760
192.903320 -58.145332 0.200004 0.761059
193.601181 -59.538670 0.200000 0.732616
193.757797 -59.851341 0.000004 0.341588
183.190613 -38.254211 10.022575 0.776471
183.190613 -38.254219 8.917366 0.758358
183.190613 -38.254208 7.827677 0.776471
183.200455 -38.274200 6.747587 0.611765
183.200455 -38.274204 5.681952 0.611765
184.893845 -41.714916 4.309872 0.685954
183.190613 -38.254200 3.573430 0.765072
183.190613 -38.254211 2.524102 0.776471
183.190613 -38.254211 1.475898 0.776471
183.190613 -38.254211 0.426570 0.768292
186.562607 -45.105591 -0.000006 0.549462
189.656540 -51.391998 -0.000004 0.548394
191.975098 -56.102955 0.200006 0.677028
192.965164 -58.114620 0.200004 0.665110
193.653305 -59.512794 0.200000 0.677699
193.807724 -59.826553 0.000004 0.336645
183.438980 -38.254211 9.995297 0.692821
183.438980 -38.254215 8.893847 0.679225
183.438980 -38.254208 7.807863 0.691066
183.448639 -38.274204 6.731445 0.611765
183.448654 -38.274204 5.669432 0.611765
185.112305 -41.714920 4.302018 0.656321
183.438980 -38.254200 3.568081 0.690440
183.438980 -38.254208 2.522321 0.678508
183.438980 -38.254208 1.477679 0.678553
183.438980 -38.254204 0.431919 0.686519
186.715652 -45.030930 -0.000006 0.545388
189.765625 -51.338783 -0.000004 0.543938
192.051239 -56.065811 0.200006 0.729488
193.027237 -58.084332 0.200002 0.682704
193.705597 -59.487282 0.199999 0.664485
193.857819 -59.802116 0.000004 0.339101
183.685669 -38.254211 9.968594 0.733516
183.685669 -38.254211 8.870821 0.737377
183.685669 -38.254204 7.788464 0.736507
183.695160 -38.274204 6.715641 0.611765
183.695160 -38.274208 5.657176 0.611765
185.329285 -41.714916 4.294330 0.688731
183.685669 -38.254204 3.562843 0.722103
183.685669 -38.254211 2.520576 0.733333
183.685669 -38.254211 1.479424 0.734600
183.685669 -38.254211 0.437156 0.725200
186.869217 -44.957336 -0.000006 0.546029
189.875076 -51.286331 -0.000003 0.521431
192.127640 -56.029198 0.200006 0.730861
193.089508 -58.054482 0.200001 0.673823
193.758057 -59.462132 0.199998 0.746853
193.925217 -59.814091 0.010005 1.000000
183.929367 -38.251274 9.943262 0.211643
183.930740 -38.254219 8.848280 0.694377
183.930725 -38.254204 7.769476 0.695216
183.940063 -38.274208 6.700172 0.611765
183.940063 -38.274208 5.645178 0.611765
185.544830 -41.714920 4.286803 0.671901
183.930725 -38.254204 3.557717 0.701473
183.930725 -38.254204 2.518868 0.688151
183.930725 -38.254204 1.481132 0.700099
183.930725 -38.254211 0.442283 0.699825
187.023300 -44.884819 -0.000006 0.552972
189.984894 -51.234646 -0.000003 0.593347
192.204285 -55.993118 0.200005 0.680110
193.152008 -58.025066 0.200001 0.738933
193.810699 -59.437351 0.199997 0.718517
193.975403 -59.790466 0.010004 1.000000
184.174194 -38.254211 9.916866 0.733974
184.174194 -38.254219 8.826219 0.770687
184.174194 -38.254204 7.750890 0.771099
