# This PCD file was generated using the MATLABÂ® pcwrite function
# from Computer Vision ToolboxÂ®.
# .PCD v.7 - Point Cloud Data file format
VERSION .7
FIELDS x y z intensity
SIZE 4 4 4 4
TYPE F F F F
COUNT 1 1 1 1
WIDTH 1285
HEIGHT 1
VIEWPOINT 0 0 0 1 0 0 0
POINTS 1285
DATA ascii
nan nan nan 0.000000
nan nan nan 0.000000
45.083305 68.974579 6.339788 0.761349
45.083305 68.974579 5.537923 0.788571
45.083302 68.974579 4.743807 0.809964
44.927498 69.133728 3.973911 0.713726
44.927498 69.133728 3.182653 0.713726
44.927498 69.133728 2.393936 0.713726
44.927498 69.133728 1.606064 0.713726
44.927498 69.133728 0.817347 0.713726
44.987514 69.072418 0.033123 0.951080
49.606434 64.354469 0.000002 0.552911
53.279572 60.602573 0.200011 0.677134
54.443039 59.414162 0.094660 0.683848
55.290379 58.548653 -0.000008 0.337453
56.182873 57.637024 0.000010 0.335424
nan nan nan 0.000000
nan nan nan 0.000000
45.314747 68.974579 6.310434 0.697795
45.314747 68.974579 5.513992 0.790936
45.314751 68.974579 4.725246 0.780896
45.161102 69.133728 3.960558 0.713726
45.161102 69.133728 3.174653 0.713726
45.161102 69.133728 2.391271 0.713726
45.161102 69.133728 1.608729 0.713726
45.161102 69.133728 0.825347 0.713726
45.220284 69.072426 0.046428 0.937636
49.693459 64.439072 0.000002 0.522683
53.340309 60.661633 0.200009 0.726009
54.530247 59.429081 0.103775 0.761898
55.336735 58.593716 -0.000008 0.338491
56.222839 57.675880 0.000010 0.341817
nan nan nan 0.000000
nan nan nan 0.000000
45.543091 68.974579 6.281679 0.729793
45.543091 68.974579 5.490550 0.776562
45.543091 68.974579 4.707067 0.784802
45.391575 69.133728 3.947481 0.713726
45.391571 69.133736 3.166818 0.713726
45.391579 69.133728 2.388661 0.713726
45.391579 69.133728 1.611338 0.713726
45.391575 69.133728 0.833182 0.713726
45.449940 69.072418 0.059459 0.947036
49.781067 64.523064 0.000002 0.535561
53.401455 60.720264 0.200009 0.723995
54.616688 59.443798 0.112728 0.653712
55.383400 58.638458 -0.000008 0.342702
56.263069 57.714462 0.000008 0.335851
nan nan nan 0.000000
nan nan nan 0.000000
45.768425 68.974579 6.253512 0.732616
45.768421 68.974579 5.467587 0.870588
45.768417 68.974579 4.689259 0.869078
45.619011 69.133728 3.934669 0.713726
45.619007 69.133728 3.159142 0.713726
45.619007 69.133728 2.386105 0.713726
45.619007 69.133728 1.613896 0.713726
45.619007 69.133728 0.840858 0.713726
45.676559 69.072426 0.072224 0.964096
49.869263 64.606445 0.000002 0.522560
53.463013 60.778465 0.200008 0.687892
54.702244 59.458462 0.121483 0.710292
55.430378 58.682869 -0.000008 0.335897
56.303574 57.752758 0.000007 0.334447
nan nan nan 0.000000
nan nan nan 0.000000
45.990822 68.974571 6.225918 0.863111
45.990818 68.974579 5.445092 0.861097
45.990814 68.974579 4.671813 0.858091
45.843483 69.133728 3.922118 0.713726
45.843479 69.133728 3.151622 0.713726
45.843483 69.133728 2.383600 0.713726
45.843483 69.133728 1.616400 0.713726
45.843483 69.133728 0.848378 0.713726
45.900234 69.072426 0.084731 0.953902
49.958046 64.689209 0.000002 0.519585
53.524971 60.836235 0.200007 0.741405
54.784050 59.476189 0.129274 0.656016
55.477665 58.726952 -0.000008 0.341955
56.344341 57.790775 0.000006 0.330343
nan nan nan 0.000000
nan nan nan 0.000000
46.210358 68.974579 6.198883 0.866423
46.210358 68.974579 5.423052 0.857664
46.210354 68.974579 4.654720 0.858625
46.065067 69.133728 3.909821 0.713726
46.065067 69.133728 3.144255 0.713726
46.065071 69.133728 2.381146 0.713726
46.065071 69.133728 1.618854 0.713726
46.065067 69.133728 0.855745 0.713726
46.121033 69.072426 0.096984 0.951400
50.047394 64.771347 0.000002 0.528344
53.587330 60.893578 0.200005 0.710307
54.864132 59.494923 0.136626 0.715892
55.525261 58.770699 -0.000006 0.334386
56.385372 57.828503 0.000004 0.338613
nan nan nan 0.000000
nan nan nan 0.000000
46.427116 68.974571 6.172393 0.865873
46.427116 68.974579 5.401458 0.863172
46.427113 68.974579 4.637972 0.862074
46.283852 69.133728 3.897774 0.713726
46.283848 69.133728 3.137036 0.713726
46.283848 69.133736 2.378742 0.713726
46.283848 69.133736 1.621259 0.713726
46.283852 69.133728 0.862964 0.713726
46.339035 69.072426 0.108989 0.954101
50.137318 64.852867 0.000003 0.538277
53.650093 60.950478 0.200005 0.731029
54.943565 59.513538 0.143824 0.778119
55.573166 58.814110 -0.000004 0.334981
56.426670 57.865944 0.000003 0.336965
nan nan nan 0.000000
nan nan nan 0.000000
46.641171 68.974571 6.146437 0.863645
46.641167 68.974579 5.380298 0.852628
46.641163 68.974579 4.621562 0.864195
46.499901 69.133728 3.885967 0.713726
46.499901 69.133728 3.129962 0.713726
46.499901 69.133728 2.376385 0.713726
46.499901 69.133728 1.623615 0.713726
46.499901 69.133728 0.870037 0.713726
46.554314 69.072426 0.120753 0.941024
50.227814 64.933746 0.000003 0.539071
53.713253 61.006939 0.200004 0.667567
55.022385 59.532028 0.150873 0.695521
55.621372 58.857189 -0.000002 0.340948
56.468224 57.903095 0.000002 0.340658
nan nan nan 0.000000
nan nan nan 0.000000
46.852585 68.974571 6.121001 0.865156
46.852581 68.974579 5.359561 0.872312
46.852577 68.974579 4.605480 0.849302
46.713284 69.133736 3.874399 0.713726
46.713284 69.133736 3.123031 0.713726
46.713291 69.133728 2.374076 0.713726
46.713291 69.133728 1.625924 0.713726
46.713287 69.133728 0.876969 0.713726
46.766933 69.072433 0.132280 0.955077
50.318863 65.013992 0.000003 0.554406
53.776798 61.062958 0.200003 0.741100
55.100609 59.550369 0.157781 0.649744
55.669872 58.899929 -0.000001 0.340826
56.510036 57.939957 0.000000 0.339010
nan nan nan 0.000000
nan nan nan 0.000000
47.061432 68.974571 6.096073 0.837903
47.061424 68.974579 5.339240 0.846815
47.061428 68.974579 4.589720 0.846815
46.924084 69.133736 3.863060 0.713726
46.924084 69.133736 3.116238 0.713726
46.924080 69.133736 2.371814 0.713726
46.924080 69.133736 1.628186 0.713726
46.924084 69.133736 0.883761 0.713726
46.976986 69.072433 0.143578 0.955383
50.410477 65.093613 0.000003 0.548623
53.840736 61.118538 0.200001 0.718456
55.178265 59.568573 0.164550 0.679820
55.718674 58.942329 0.000001 0.334646
56.552109 57.976528 -0.000002 0.327672
nan nan nan 0.000000
nan nan nan 0.000000
47.267776 68.974571 6.071645 0.718990
47.267769 68.974579 5.319324 0.753231
47.267769 68.974579 4.574274 0.730449
47.132355 69.133736 3.851949 0.713726
47.132355 69.133736 3.109581 0.713726
47.132355 69.133736 2.369596 0.713726
47.132355 69.133736 1.630404 0.713726
47.132355 69.133736 0.890419 0.713726
47.184509 69.072433 0.154650 0.963851
50.502632 65.172592 0.000002 0.551049
53.905060 61.173660 0.200001 0.696376
55.255375 59.586617 0.171186 0.746105
55.767773 58.984390 0.000002 0.339391
56.594429 58.012802 -0.000004 0.339529
nan nan nan 0.000000
nan nan nan 0.000000
47.471680 68.974571 6.047700 0.820508
47.471680 68.974571 5.299803 0.820508
47.471680 68.974571 4.559135 0.824552
47.338165 69.133736 3.841058 0.713726
47.338165 69.133736 3.103056 0.713726
47.338165 69.133736 2.367422 0.713726
47.338165 69.133736 1.632577 0.713726
47.338165 69.133736 0.896944 0.713726
47.389587 69.072433 0.165502 0.955993
50.595352 65.250916 0.000003 0.524559
53.969761 61.228348 0.199998 0.692149
55.331871 59.604607 0.177668 0.685222
55.817162 59.026104 0.000004 0.330877
56.637009 58.048779 -0.000005 0.330358
nan nan nan 0.000000
nan nan nan 0.000000
47.673218 68.974571 6.024230 0.869520
47.673214 68.974571 5.280671 0.865599
47.673210 68.974571 4.544297 0.858106
47.541580 69.133736 3.830383 0.713726
47.541576 69.133736 3.096660 0.713726
47.541580 69.133736 2.365292 0.713726
47.541580 69.133736 1.634708 0.713726
47.541580 69.133736 0.903340 0.713726
47.592278 69.072433 0.176138 0.957153
50.688606 65.328590 0.000003 0.549645
54.034847 61.282570 0.199997 0.676020
55.407391 59.622997 0.183891 0.676219
55.866840 59.067471 0.000006 0.331609
56.679832 58.084457 -0.000006 0.338109
nan nan nan 0.000000
nan nan nan 0.000000
47.872437 68.974571 6.001226 0.856260
47.872433 68.974579 5.261917 0.870588
47.872437 68.974571 4.529753 0.845151
47.742661 69.133736 3.819920 0.713726
47.742661 69.133736 3.090390 0.713726
47.742661 69.133736 2.363204 0.713726
47.742661 69.133736 1.636796 0.713726
47.742661 69.133736 0.909609 0.713726
47.792641 69.072433 0.186565 0.946975
50.782410 65.405617 0.000003 0.540444
54.100315 61.336342 0.199996 0.728511
55.479389 59.644962 0.189116 0.705760
55.916805 59.108494 0.000008 0.327733
56.722912 58.119835 -0.000007 0.333913
nan nan nan 0.000000
nan nan nan 0.000000
48.069405 68.974564 5.978674 0.862440
48.069405 68.974571 5.243532 0.854307
48.069397 68.974571 4.515494 0.875349
48.037258 69.014557 3.797126 0.468208
48.037258 69.014557 3.076733 0.482353
48.037254 69.014557 2.358655 0.454154
48.037254 69.014557 1.641345 0.481636
48.037258 69.014557 0.923266 0.453742
48.037258 69.014557 0.202874 0.474037
50.876740 65.481979 0.000003 0.548791
54.166161 61.389641 0.199996 0.685908
55.550793 59.667034 0.194170 0.765011
55.967056 59.149162 0.000010 0.332128
56.766235 58.154911 -0.000007 0.326528
nan nan nan 0.000000
nan nan nan 0.000000
48.264168 68.974564 5.956569 0.853925
48.264168 68.974571 5.225511 0.847669
48.264164 68.974571 4.501518 0.856870
48.264164 68.974571 3.782958 0.706111
48.264164 68.974571 3.068245 0.732067
48.264168 68.974571 2.355828 0.690745
48.264168 68.974571 1.644173 0.732052
48.264164 68.974571 0.931755 0.733303
48.264164 68.974571 0.217042 0.731792
50.971607 65.557686 0.000003 0.541039
54.232380 61.442478 0.199997 0.674372
55.624870 59.685108 0.200007 0.671687
56.017590 59.189484 0.000011 0.341741
56.809807 58.189678 -0.000006 0.338354
nan nan nan 0.000000
nan nan nan 0.000000
48.456787 68.974571 5.934897 0.792996
48.456787 68.974571 5.207844 0.776867
48.456787 68.974571 4.487817 0.802350
48.456783 68.974579 3.773192 0.718807
48.456783 68.974579 3.062395 0.719463
48.456783 68.974579 2.353878 0.720363
48.456783 68.974579 1.646121 0.722118
48.456783 68.974579 0.937605 0.744427
48.456783 68.974579 0.226807 0.711986
51.066998 65.632729 0.000004 0.530144
54.298962 61.494858 0.199998 0.697673
55.679142 59.727818 0.200005 0.742977
56.068401 59.229450 0.000013 0.337560
56.853615 58.224144 -0.000006 0.341192
nan nan nan 0.000000
nan nan nan 0.000000
48.647320 68.974571 5.913654 0.873075
48.647320 68.974571 5.190525 0.844175
48.647320 68.974579 4.474385 0.839628
48.647316 68.974579 3.763619 0.732235
48.647316 68.974579 3.056659 0.711650
48.647316 68.974579 2.351968 0.733394
48.647316 68.974579 1.648032 0.737499
48.647316 68.974579 0.943341 0.731380
48.647320 68.974579 0.236381 0.717037
51.162910 65.707108 0.000003 0.535317
54.365910 61.546768 0.199998 0.711528
55.733707 59.770153 0.200002 0.708919
56.119488 59.269066 0.000012 0.335439
56.897667 58.258301 -0.000006 0.343801
nan nan nan 0.000000
nan nan nan 0.000000
48.835815 68.974571 5.892825 0.859968
48.835815 68.974579 5.173545 0.882353
48.835815 68.974579 4.461216 0.859892
48.835812 68.974579 3.754233 0.725780
48.835808 68.974586 3.051035 0.695659
48.835812 68.974579 2.350095 0.731716
48.835812 68.974579 1.649905 0.730632
48.835808 68.974586 0.948964 0.766705
48.835812 68.974579 0.245766 0.736858
51.259338 65.780815 0.000003 0.534646
54.433220 61.598206 0.200000 0.701060
55.788570 59.812099 0.200001 0.678309
56.170845 59.308331 0.000010 0.334905
56.941956 58.292149 -0.000005 0.335561
nan nan nan 0.000000
nan nan nan 0.000000
49.022324 68.974579 5.872406 0.865141
49.022324 68.974579 5.156899 0.865141
49.022324 68.974579 4.448307 0.842802
49.022320 68.974586 3.745031 0.704799
49.022316 68.974586 3.045522 0.697032
49.022320 68.974586 2.348258 0.724788
49.022320 68.974579 1.651742 0.726848
49.022316 68.974586 0.954478 0.733593
49.022320 68.974586 0.254968 0.719249
51.356277 65.853844 0.000003 0.535515
54.500889 61.649174 0.200001 0.757946
55.843727 59.853664 0.199999 0.700618
56.222473 59.347237 0.000008 0.334478
56.986477 58.325687 -0.000004 0.335042
nan nan nan 0.000000
nan nan nan 0.000000
49.206894 68.974579 5.852386 0.831434
49.206894 68.974579 5.140577 0.832715
49.206894 68.974579 4.435648 0.832715
49.206886 68.974586 3.736011 0.714549
49.206886 68.974586 3.040117 0.739361
50.082626 67.786430 2.322304 0.808011
50.082626 67.786430 1.677695 0.814954
49.206890 68.974586 0.959883 0.727535
49.206886 68.974586 0.263989 0.737682
51.453728 65.926193 0.000004 0.545449
54.568909 61.699669 0.200001 0.677974
55.899170 59.894840 0.199997 0.675380
56.274376 59.385784 0.000006 0.336538
57.031235 58.358913 -0.000003 0.328084
nan nan nan 0.000000
nan nan nan 0.000000
49.389580 68.974579 5.832758 0.796841
49.389580 68.974579 5.124576 0.793957
49.389580 68.974579 4.423239 0.808911
49.389572 68.974586 3.727165 0.687587
49.389572 68.974586 3.034817 0.713527
49.389568 68.974594 2.344692 0.724575
49.389568 68.974594 1.655307 0.731548
49.389572 68.974586 0.965183 0.729290
49.389568 68.974594 0.272834 0.695796
51.551682 65.997856 0.000004 0.546883
54.637283 61.749687 0.200003 0.716609
55.954903 59.935631 0.199995 0.686839
56.326542 59.423965 0.000004 0.330358
57.076221 58.391827 -0.000003 0.340383
nan nan nan 0.000000
nan nan nan 0.000000
49.570419 68.974579 5.813512 0.867170
49.570419 68.974579 5.108888 0.860517
49.570419 68.974579 4.411072 0.870680
49.570408 68.974586 3.718493 0.698390
49.570404 68.974594 3.029621 0.719738
49.570408 68.974594 2.342962 0.723705
49.570408 68.974594 1.657038 0.726452
49.570404 68.974594 0.970378 0.734127
49.570408 68.974594 0.281506 0.724575
51.650131 66.068840 0.000004 0.555871
54.706001 61.799229 0.200003 0.685527
56.010914 59.976032 0.199993 0.757580
56.378975 59.461781 0.000002 0.339788
57.121437 58.424427 -0.000002 0.325429
nan nan nan 0.000000
nan nan nan 0.000000
49.749458 68.974579 5.794644 0.868727
49.749458 68.974579 5.093505 0.864881
49.749458 68.974579 4.399143 0.869856
49.749447 68.974594 3.709991 0.160784
49.749447 68.974594 3.024528 0.160784
49.749443 68.974594 2.341265 0.160784
49.638657 69.131691 1.655589 0.822370
50.295666 68.200058 1.022033 0.768093
50.295666 68.200058 0.367721 0.712337
51.749073 66.139130 0.000004 0.537499
54.775070 61.848289 0.200005 0.736110
56.067211 60.016033 0.199992 0.676097
56.431671 59.499229 0.000000 0.332998
57.166882 58.456707 -0.000002 0.339117
nan nan nan 0.000000
nan nan nan 0.000000
49.926743 68.974579 5.776145 0.835981
49.926743 68.974579 5.078424 0.851377
49.926743 68.974579 4.387447 0.837888
49.808369 69.144943 3.718663 0.724529
49.808372 69.144943 3.029724 0.739071
50.750076 67.789619 2.315989 0.806271
50.750076 67.789619 1.684010 0.810010
50.446354 68.226746 1.025205 0.732540
50.446354 68.226746 0.373014 0.728511
51.848503 66.208733 0.000004 0.550423
54.844471 61.896866 0.200005 0.695766
56.123791 60.055641 0.199992 0.750912
56.484627 59.536312 -0.000002 0.330922
57.212547 58.488670 -0.000001 0.327962
nan nan nan 0.000000
nan nan nan 0.000000
50.102314 68.974586 5.758009 0.830152
50.102318 68.974579 5.063639 0.830152
50.102318 68.974579 4.375979 0.830152
49.817654 69.390442 3.734802 0.176532
49.817654 69.390442 3.039393 0.157519
49.817654 69.390442 2.346217 0.173404
49.880318 69.298889 1.655599 0.725567
49.817650 69.390442 0.960607 0.718471
50.102306 68.974594 0.306518 0.163088
51.948418 66.277641 0.000004 0.544915
54.914211 61.944958 0.200006 0.726482
56.180641 60.094852 0.199992 0.676905
56.537842 59.573021 -0.000003 0.336797
57.258438 58.520317 -0.000000 0.334157
nan nan nan 0.000000
50.257435 69.002441 6.446851 0.714458
50.276222 68.974579 5.740226 0.870588
50.276222 68.974579 5.049142 0.865446
50.276222 68.974579 4.364737 0.878065
49.969097 69.430046 3.730510 0.713726
49.969097 69.430038 3.036821 0.713726
51.086346 67.773178 2.312659 0.964309
49.995800 69.390442 1.655421 0.173724
51.094925 67.760452 1.062106 0.797543
50.276211 68.974594 0.314531 0.166918
52.048805 66.345856 0.000004 0.538552
54.984276 61.992580 0.200003 0.737926
56.237766 60.133663 0.199991 0.707118
56.591312 59.609356 -0.000005 0.340108
57.304543 58.551640 0.000000 0.335088
nan nan nan 0.000000
50.448498 68.974579 6.418899 0.733242
50.448498 68.974579 5.722793 0.871321
50.448498 68.974579 5.034928 0.869291
50.448498 68.974579 4.353714 0.868254
50.145981 69.430038 3.722442 0.713726
50.145981 69.430038 3.031988 0.713726
50.145981 69.430038 2.343750 0.713726
50.172283 69.390442 1.657028 0.172869
51.254929 67.760445 1.066478 0.779950
50.448490 68.974594 0.322388 0.161532
52.149673 66.413353 0.000004 0.550698
55.054672 62.039707 0.200001 0.683452
56.295162 60.172077 0.199991 0.724407
56.645035 59.645317 -0.000006 0.330053
57.350872 58.582642 0.000000 0.337118
nan nan nan 0.000000
50.619183 68.974579 6.398611 0.728618
50.619183 68.974579 5.705699 0.785672
50.619183 68.974579 5.020993 0.754650
50.619183 68.974579 4.342907 0.758099
50.321224 69.430038 3.714534 0.713726
50.321224 69.430038 3.027250 0.713726
50.321224 69.430038 2.342172 0.713726
51.396767 67.785957 1.689977 0.801495
51.408531 67.767975 1.070323 0.789441
50.619171 68.974594 0.330091 0.178058
52.251015 66.480148 0.000005 0.544671
55.125389 62.086353 0.199997 0.742489
56.352821 60.210087 0.199991 0.698299
56.699005 59.680908 -0.000008 0.327810
57.397411 58.613319 0.000001 0.344045
nan nan nan 0.000000
50.788315 68.974579 6.378720 0.699779
50.788311 68.974586 5.688942 0.865354
50.788315 68.974579 5.007333 0.860380
50.788315 68.974579 4.332312 0.860670
50.494877 69.430038 3.706781 0.713726
50.494877 69.430038 3.022604 0.713726
50.494881 69.430038 2.340624 0.713726
51.554295 67.785660 1.691385 0.958556
50.520386 69.390442 0.979709 0.732967
51.570534 67.760452 0.456069 0.775250
52.352814 66.546234 0.000005 0.538781
55.196434 62.132492 0.199995 0.725460
56.410748 60.247696 0.199991 0.704540
56.753227 59.716110 -0.000008 0.341802
57.444164 58.643673 0.000001 0.341024
nan nan nan 0.000000
50.955933 68.974579 6.359219 0.722881
50.955929 68.974586 5.672514 0.853346
50.955933 68.974579 4.993940 0.864881
50.955929 68.974586 4.321925 0.862470
50.666977 69.430038 3.699180 0.713726
50.666977 69.430038 3.018050 0.713726
50.666977 69.430038 2.339107 0.713726
50.692093 69.390450 1.661660 0.154116
50.692093 69.390450 0.984253 0.727596
51.726215 67.760452 0.462945 0.763714
52.455070 66.611618 0.000005 0.545327
55.267803 62.178139 0.199994 0.681453
56.468933 60.284897 0.199990 0.695079
56.807701 59.750931 -0.000007 0.344457
57.491131 58.673698 0.000001 0.326375
nan nan nan 0.000000
51.122070 68.974579 6.340102 0.711238
51.122070 68.974586 5.656407 0.786633
51.122070 68.974579 4.980810 0.783169
51.122070 68.974586 4.311743 0.800473
50.852421 69.406242 3.689428 0.175586
50.852421 69.406242 3.012207 0.151873
50.852421 69.406242 2.337161 0.156558
50.862289 69.390450 1.663143 0.170443
51.269810 68.738083 1.026496 0.766934
51.862198 67.789780 0.466850 0.783871
52.557781 66.676277 0.000005 0.553307
55.339485 62.223289 0.199990 0.697215
56.527378 60.321693 0.199990 0.687953
56.862411 59.785366 -0.000006 0.338018
57.538300 58.703392 0.000001 0.332769
nan nan nan 0.000000
51.286770 68.974579 6.321361 0.714763
51.286766 68.974586 5.640619 0.865202
51.286766 68.974579 4.967939 0.856352
51.286766 68.974586 4.301760 0.851682
51.006649 69.430046 3.684424 0.713726
51.006649 69.430046 3.009209 0.713726
51.387177 68.811317 2.324276 0.808576
51.387177 68.811317 1.675724 0.815824
52.010193 67.798317 1.084899 0.961852
52.017498 67.786438 0.473792 0.829572
52.660942 66.740219 0.000005 0.553506
55.411488 62.267921 0.199990 0.683558
56.586079 60.358078 0.199990 0.746548
56.917362 59.819424 -0.000005 0.335348
57.585678 58.732761 0.000001 0.337636
nan nan nan 0.000000
51.450054 68.974586 6.302992 0.713344
51.450054 68.974586 5.625142 0.859205
51.450058 68.974579 4.955322 0.847288
51.450054 68.974586 4.291975 0.942351
51.174301 69.430046 3.677263 0.713726
51.174301 69.430046 3.004919 0.713726
51.174301 69.430046 2.334734 0.713726
51.198277 69.390450 1.666024 0.173953
51.198273 69.390450 0.997355 0.721218
51.277981 69.258797 0.339151 0.727977
52.764545 66.803444 0.000005 0.536751
55.483807 62.312042 0.199991 0.693889
56.645035 60.394051 0.199990 0.675898
56.972549 59.853092 -0.000005 0.332967
57.633263 58.761795 0.000001 0.342138
nan nan nan 0.000000
51.611969 68.974586 6.284985 0.702831
51.611969 68.974586 5.609973 0.786404
51.611969 68.974586 4.942955 0.750271
51.611969 68.974586 4.282385 0.943343
51.340546 69.430046 3.670244 0.713726
51.340542 69.430046 3.000714 0.713726
51.340542 69.430054 2.333333 0.713726
51.364140 69.390450 1.667421 0.173556
51.364136 69.390457 1.001551 0.941939
51.752914 68.738075 0.395805 0.764736
52.868591 66.865936 0.000005 0.549844
55.556427 62.355671 0.199991 0.670024
56.704239 60.429611 0.199991 0.686503
57.051674 59.846603 0.009997 1.000000
57.681046 58.790501 0.000001 0.340291
nan nan nan 0.000000
51.772541 68.974586 6.267335 0.702205
51.772541 68.974586 5.595104 0.870588
51.772541 68.974586 4.930833 0.870588
51.772541 68.974586 4.272983 0.951034
51.505405 69.430046 3.663365 0.713726
51.505405 69.430046 2.996592 0.713726
51.505405 69.430046 2.331960 0.713726
51.528629 69.390450 1.668791 0.173465
51.528625 69.390457 1.005663 0.953445
51.908146 68.743378 0.401908 0.766125
52.973068 66.927704 0.000005 0.540978
55.629356 62.398777 0.199992 0.687633
56.763695 60.464752 0.199993 0.739361
57.083622 59.919277 -0.000003 0.333730
57.729031 58.818867 0.000001 0.332189
nan nan nan 0.000000
51.931805 68.974586 6.250037 0.691402
51.931801 68.974586 5.580530 0.854353
51.931805 68.974586 4.918952 0.865995
51.931805 68.974586 4.263769 0.956069
51.668926 69.430046 3.656622 0.713726
51.668926 69.430046 2.992551 0.713726
51.668926 69.430046 2.330614 0.713726
51.691780 69.390450 1.670134 0.150759
51.691776 69.390457 1.009694 0.952636
51.691776 69.390457 0.347126 0.953765
53.077972 66.988747 0.000005 0.520165
55.702583 62.441376 0.199993 0.691539
56.823395 60.499474 0.199995 0.695338
57.162647 59.911686 0.009998 1.000000
57.777210 58.846901 0.000001 0.337697
nan nan nan 0.000000
52.089787 68.974586 6.233084 0.777539
52.089787 68.974586 5.566247 0.788281
52.089787 68.974586 4.907309 0.771984
52.089787 68.974586 4.254739 0.979248
52.089783 68.974594 3.607067 0.208240
52.089783 68.974594 2.962861 0.160204
52.089783 68.974594 2.320725 0.150637
52.089783 68.974594 1.679276 0.160571
52.089783 68.974594 1.037138 0.159457
52.089783 68.974594 0.392933 0.159792
53.183304 67.049049 0.000005 0.537926
55.776100 62.483467 0.199993 0.693019
56.883335 60.533775 0.199998 0.707546
57.218475 59.943638 0.010000 1.000000
57.825584 58.874596 0.000002 0.337606
nan nan nan 0.000000
52.246521 68.974594 6.216470 0.854307
52.246521 68.974586 5.552251 0.842161
52.246521 68.974586 4.895898 0.866255
52.246521 68.974594 4.245890 0.930495
52.246521 68.974594 3.600759 0.685740
52.246521 68.974594 2.959081 0.726711
52.246521 68.974594 2.319466 0.713741
52.246521 68.974594 1.680534 0.737575
52.246521 68.974594 1.040918 0.722423
52.246521 68.974594 0.399240 0.735973
53.289055 67.108604 0.000006 0.526574
55.849911 62.525047 0.199992 0.688655
56.943512 60.567657 0.200000 0.658457
57.274521 59.975204 0.010000 1.000000
57.874153 58.901951 0.000002 0.340337
nan nan nan 0.000000
52.402042 68.974594 6.200190 0.861173
52.402042 68.974586 5.538534 0.863111
52.402042 68.974586 4.884717 0.874098
52.402039 68.974594 4.237219 0.957870
52.402042 68.974586 3.594578 0.740932
52.402039 68.974594 2.955378 0.745434
52.402039 68.974594 2.318232 0.728695
52.402039 68.974594 1.681768 0.741176
52.402039 68.974594 1.044621 0.741131
52.402042 68.974586 0.405422 0.758968
53.395214 67.167442 0.000005 0.542870
55.924007 62.566116 0.199991 0.680095
57.003929 60.601120 0.200002 0.681132
57.330788 60.006378 0.010001 1.000000
57.922909 58.928967 0.000002 0.339178
nan nan nan 0.000000
52.497059 69.084320 6.211175 0.838148
52.497055 69.084328 5.547793 0.840238
52.497059 69.084320 4.892263 0.833036
52.497059 69.084320 4.243071 0.844739
52.497059 69.084320 3.598749 0.844755
52.497059 69.084320 2.957878 0.864775
52.497059 69.084320 2.319064 0.857191
52.497059 69.084320 1.680935 0.849546
52.497059 69.084320 1.042122 0.840375
52.497059 69.084320 0.401250 0.839216
53.501781 67.225525 0.000005 0.541863
55.998390 62.606655 0.199992 0.686076
57.064575 60.634163 0.200005 0.728298
57.387268 60.037155 0.010003 1.000000
57.971851 58.955647 0.000002 0.340200
nan nan nan 0.000000
52.497055 69.374344 6.266387 0.860182
52.497055 69.374352 5.594305 0.856291
52.497055 69.374344 4.930182 0.876463
52.497055 69.374344 4.272478 0.861570
52.497055 69.374344 3.619709 0.873457
52.497059 69.374344 2.970436 0.864652
52.497055 69.374344 2.323248 0.876844
52.497055 69.374344 1.676752 0.867460
52.497059 69.374344 1.029564 0.857954
52.497055 69.374344 0.380291 0.864576
53.608757 67.282860 0.000005 0.533242
56.073063 62.646671 0.199993 0.705577
57.125450 60.666775 0.200007 0.734737
57.443962 60.067543 0.010003 1.000000
58.020981 58.981979 0.000002 0.337606
nan nan nan 0.000000
52.497055 69.672081 6.323273 0.750301
52.497055 69.672089 5.642231 0.863951
52.497055 69.672081 4.969253 0.865278
52.497059 69.672081 4.302778 0.859754
52.497055 69.672089 3.641306 0.862333
52.497055 69.672089 2.983376 0.870542
52.497055 69.672081 2.327558 0.845441
52.497055 69.672081 1.672442 0.869871
52.497055 69.672089 1.016624 0.843458
52.497055 69.672081 0.358693 0.867826
53.716125 67.339455 0.000005 0.537652
56.148010 62.686165 0.199994 0.690822
57.186554 60.698963 0.200010 0.689647
57.500858 60.097553 0.009999 1.000000
58.070293 59.007965 0.000003 0.343343
nan nan nan 0.000000
52.497059 69.977875 6.381914 0.723934
52.497055 69.977890 5.691635 0.773724
52.497055 69.977890 5.009528 0.766583
52.497055 69.977882 4.334014 0.758923
52.497055 69.977882 3.663569 0.779522
52.497055 69.977882 2.996714 0.780529
52.497055 69.977882 2.332001 0.763424
52.497055 69.977882 1.667999 0.757900
52.497055 69.977882 1.003286 0.766888
52.497055 69.977882 0.336431 0.760555
53.823891 67.395294 0.000006 0.536828
56.223228 62.725132 0.199995 0.692180
57.247879 60.730724 0.200012 0.723415
57.557980 60.127136 0.010002 1.000000
58.119789 59.033607 0.000004 0.333257
nan nan nan 0.000000
52.497055 70.292107 6.442389 0.697597
52.497055 70.292114 5.742583 0.802457
52.497051 70.292114 5.051063 0.814404
52.497055 70.292114 4.366226 0.807660
52.497055 70.292114 3.686528 0.801999
52.497055 70.292114 3.010470 0.809735
52.497055 70.292114 2.336583 0.826139
52.497055 70.292114 1.663417 0.808377
52.497055 70.292114 0.989530 0.814939
52.497055 70.292114 0.313471 0.812680
53.932037 67.450378 0.000005 0.541695
56.298721 62.763580 0.199996 0.715679
57.309418 60.762070 0.200013 0.705516
57.615295 60.156330 0.010002 1.000000
58.169460 59.058907 0.000005 0.340749
nan nan nan 0.000000
52.497055 70.615150 6.504779 0.726574
52.497051 70.615158 5.795145 0.862913
52.497055 70.615158 5.093912 0.855207
52.497055 70.615150 4.399457 0.860868
52.497055 70.615150 3.710214 0.861418
52.497055 70.615150 3.024661 0.866987
52.497051 70.615158 2.341310 0.856062
52.497051 70.615158 1.658690 0.857588
52.497055 70.615150 0.975339 0.857862
52.497055 70.615150 0.289785 0.858701
54.040569 67.504707 0.000006 0.537667
56.374474 62.801498 0.199996 0.695827
57.371174 60.792984 0.200012 0.686702
57.672817 60.185123 0.010002 1.000000
58.219307 59.083855 0.000005 0.337407
nan nan nan 0.000000
52.497055 70.947403 6.569170 0.722652
52.497051 70.947418 5.849393 0.793713
52.497055 70.947411 5.138137 0.795407
52.497055 70.947403 4.433756 0.786786
52.497055 70.947411 3.734660 0.790936
52.497055 70.947403 3.039308 0.796323
52.497055 70.947403 2.346189 0.797421
52.497055 70.947403 1.653811 0.790814
52.497055 70.947403 0.960692 0.764935
52.497055 70.947411 0.265339 0.795270
54.149479 67.558273 0.000006 0.530541
56.450497 62.838882 0.199998 0.697337
57.433140 60.823475 0.200011 0.671443
57.730537 60.213512 0.010003 1.000000
58.269325 59.108456 0.000006 0.342687
nan nan nan 0.000000
52.497055 71.289322 6.635661 0.725200
52.497051 71.289322 5.905409 0.855909
52.497051 71.289322 5.183803 0.860258
52.497055 71.289322 4.469171 0.853529
52.497055 71.289322 3.759902 0.854810
52.497051 71.289322 3.054432 0.861692
52.497051 71.289322 2.351226 0.862394
52.497051 71.289322 1.648774 0.862593
52.497051 71.289322 0.945568 0.856153
52.497055 71.289322 0.240097 0.857404
54.258759 67.611092 0.000006 0.540169
56.526772 62.875740 0.199998 0.705104
57.495323 60.853523 0.200011 0.733425
57.788456 60.241501 0.010004 1.000000
58.319515 59.132706 0.000007 0.340322
nan nan nan 0.000000
51.657047 73.427071 7.130567 0.830396
52.497051 71.641342 5.963274 0.875166
52.497047 71.641350 5.230977 0.857389
52.497051 71.641342 4.505756 0.858122
52.497047 71.641350 3.785978 0.850721
52.497047 71.641350 3.070055 0.857481
52.497051 71.641342 2.356431 0.844144
52.497051 71.641342 1.643570 0.855802
52.497051 71.641342 0.929945 0.839399
52.497051 71.641342 0.214021 0.850889
54.368404 67.663132 0.000006 0.530343
56.603310 62.912056 0.200000 0.690639
57.557709 60.883144 0.200010 0.725826
57.846565 60.269081 0.010004 1.000000
58.369873 59.156605 0.000008 0.340352
40.030563 98.993469 14.985168 0.640925
51.657043 73.822563 7.207988 0.782650
52.497047 72.003983 6.023079 0.836149
52.497047 72.003983 5.279732 0.834119
52.497051 72.003983 4.543568 0.823911
52.497047 72.003983 3.812930 0.824811
52.497047 72.003983 3.086202 0.836027
52.497047 72.003983 2.361809 0.824659
52.497047 72.003983 1.638191 0.824659
52.497051 72.003983 0.913797 0.818112
52.497051 72.003983 0.187070 0.834165
54.478409 67.714409 0.000006 0.541299
56.680096 62.947842 0.200001 0.705684
57.620304 60.912323 0.200009 0.710552
57.904869 60.296257 0.010004 1.000000
58.420399 59.180153 0.000009 0.336126
40.341766 99.183487 14.996007 0.496880
40.341759 99.183502 13.205650 0.568292
52.497047 72.377747 6.084919 0.852216
52.497047 72.377747 5.330145 0.851942
52.497051 72.377739 4.582666 0.854795
52.497047 72.377747 3.840796 0.852415
52.497047 72.377747 3.102898 0.856428
52.497047 72.377739 2.367370 0.857694
52.497047 72.377739 1.632630 0.854688
52.497047 72.377739 0.897102 0.856764
52.497047 72.377739 0.159203 0.854170
54.588772 67.764915 0.000006 0.539818
56.757130 62.983089 0.200002 0.686168
57.683098 60.941071 0.200009 0.739025
57.963356 60.323029 0.010004 1.000000
58.471085 59.203346 0.000010 0.342901
40.822792 98.993484 14.903214 0.492638
40.822792 98.993484 13.125639 0.564309
52.497047 72.763199 6.148896 0.862562
52.497047 72.763199 5.382300 0.857969
52.497047 72.763199 4.623115 0.858396
52.497047 72.763199 3.869626 0.850202
52.497047 72.763199 3.120172 0.855238
52.497047 72.763199 2.373124 0.870588
52.497047 72.763199 1.626876 0.875837
52.497047 72.763199 0.879828 0.856352
52.497047 72.763199 0.130373 0.847868
54.699482 67.814659 0.000006 0.548287
56.834412 63.017792 0.200005 0.672923
57.746094 60.969376 0.200008 0.695842
58.022034 60.349388 0.010004 1.000000
58.521931 59.226189 0.000010 0.341924
41.215229 98.993469 14.863557 0.600855
41.215229 98.993469 13.091443 0.614206
52.497047 73.160942 6.215117 0.787060
52.497047 73.160942 5.436287 0.795834
52.497047 73.160934 4.664983 0.788785
52.497047 73.160934 3.899467 0.786191
52.497047 73.160934 3.138051 0.794980
52.497047 73.160934 2.379079 0.785641
52.497047 73.160934 1.620921 0.785580
52.497047 73.160934 0.861949 0.788708
52.497047 73.160934 0.100532 0.758938
54.810539 67.863617 0.000006 0.558526
56.911934 63.051956 0.200006 0.734218
57.809284 60.997242 0.200007 0.684398
58.080891 60.375336 0.010005 1.000000
58.572937 59.248676 0.000010 0.333272
41.523857 99.183479 14.876545 0.678431
41.523857 99.183479 13.102644 0.678431
52.497044 73.571609 6.283699 0.858152
52.497044 73.571602 5.492196 0.868482
52.497047 73.571594 4.708343 0.867720
52.497047 73.571594 3.930372 0.859541
52.497044 73.571594 3.156568 0.869383
52.497044 73.571602 2.385247 0.869810
52.497047 73.571594 1.614753 0.859678
52.497044 73.571594 0.843432 0.870588
52.497047 73.571594 0.069628 0.864851
54.921932 67.911804 0.000006 0.527474
56.989685 63.085587 0.200007 0.694011
57.872669 61.024666 0.200006 0.709987
58.139931 60.400871 0.010005 1.000000
58.624092 59.270809 0.000009 0.335775
41.992966 98.993500 14.786839 0.648722
41.992966 98.993500 13.025294 0.537255
52.497044 73.995865 6.354763 0.871794
52.497040 73.995865 5.550132 0.863020
52.497044 73.995865 4.753274 0.875410
52.497044 73.995865 3.962397 0.873503
52.497044 73.995865 3.175755 0.859174
52.497044 73.995865 2.391638 0.867414
52.497044 73.995865 1.608362 0.874372
52.497044 73.995865 0.824245 0.856489
52.497044 73.995865 0.037602 0.866682
55.033661 67.959213 0.000006 0.541115
57.067677 63.118668 0.200009 0.713542
57.936245 61.051643 0.200006 0.743069
58.181213 60.468674 0.000007 0.332189
58.675407 59.292587 0.000008 0.335210
42.365993 99.023621 14.757909 0.677012
42.365993 99.023621 13.000352 0.685939
52.497044 74.434471 6.428447 0.858091
52.497040 74.434479 5.610200 0.842893
52.497047 74.434464 4.799859 0.852506
52.497044 74.434471 3.995601 0.852659
52.497044 74.434471 3.195648 0.857542
52.497044 74.434471 2.398265 0.856062
52.497044 74.434471 1.601735 0.858305
52.497044 74.434471 0.804351 0.861036
52.497044 74.434471 0.004398 0.856352
55.145721 68.005844 0.000006 0.541711
57.145893 63.151203 0.200010 0.691966
58.000008 61.078178 0.200005 0.676738
58.240898 60.493507 0.000008 0.331121
58.726868 59.314007 0.000007 0.337636
42.684914 99.183472 14.764809 0.678431
42.684910 99.183472 13.006302 0.678431
52.497040 74.888191 6.504889 0.772198
52.497040 74.888199 5.672519 0.763226
52.497040 74.888184 4.848189 0.786984
52.497040 74.888184 4.030047 0.779171
52.497040 74.888191 3.216288 0.786252
52.497040 74.888199 2.405139 0.788800
52.497040 74.888199 1.594860 0.759289
52.497040 74.888191 0.783713 0.763897
52.634293 74.548347 0.000003 0.535897
55.258099 68.051689 0.000006 0.551217
57.224331 63.183201 0.200010 0.750546
58.063950 61.104275 0.200003 0.688762
58.300758 60.517918 0.000009 0.336507
58.778481 59.335064 0.000006 0.333654
43.142712 98.993492 14.678050 0.545342
43.142715 98.993484 12.931493 0.557519
52.497040 75.357872 6.584244 0.788876
52.497040 75.357880 5.737210 0.798581
52.497040 75.357872 4.898361 0.794675
52.497040 75.357872 4.065808 0.783185
52.497040 75.357872 3.237712 0.794369
52.497040 75.357872 2.412276 0.792020
52.497040 75.357872 1.587724 0.787182
52.497040 75.357872 0.762288 0.786236
52.792408 74.611565 0.000004 0.538323
55.370796 68.096741 0.000006 0.557412
57.302990 63.214657 0.200009 0.739956
58.128075 61.129917 0.200002 0.663005
58.360786 60.541916 0.000010 0.335576
58.830235 59.355766 0.000004 0.341405
43.451771 99.173828 14.691874 0.086275
43.451767 99.173836 12.943416 0.406592
52.497040 75.844437 6.666677 0.777676
52.497036 75.844437 5.804411 0.796216
52.497040 75.844429 4.950479 0.796933
52.497040 75.844429 4.102954 0.778332
52.497036 75.844437 3.259968 0.785992
52.497036 75.844437 2.419689 0.803067
52.497036 75.844437 1.580310 0.799969
52.497040 75.844437 0.740031 0.795651
52.950966 74.673676 0.000004 0.538781
55.483803 68.141014 0.000006 0.539376
57.381870 63.245556 0.200009 0.747799
58.192375 61.155113 0.200001 0.744121
58.420986 60.565491 0.000011 0.337041
58.882133 59.376099 0.000003 0.334615
43.826477 99.183487 14.660509 0.674250
43.826477 99.183487 12.916366 0.673884
52.497036 76.348831 6.752364 0.781109
52.497032 76.348831 5.874267 0.793149
52.497036 76.348831 5.004656 0.765866
52.497036 76.348831 4.141569 0.780468
52.497036 76.348824 3.283104 0.766217
52.497036 76.348831 2.427396 0.782223
52.497036 76.348831 1.572604 0.782162
52.497036 76.348831 0.716896 0.761212
53.109951 74.734665 0.000005 0.539788
55.597122 68.184486 0.000007 0.521324
57.460960 63.275902 0.200009 0.721477
58.256851 61.179859 0.200000 0.713848
58.481342 60.588650 0.000012 0.332601
58.934174 59.396072 0.000002 0.334020
44.273563 98.993477 14.576567 0.672465
44.273567 98.993469 12.843988 0.756161
52.497036 76.872116 6.841497 0.810071
52.497032 76.872124 5.946932 0.792416
52.497036 76.872116 5.061008 0.809415
52.497036 76.872116 4.181735 0.809232
52.497036 76.872116 3.307169 0.809049
52.497036 76.872116 2.435411 0.793667
52.497036 76.872116 1.564588 0.809339
52.497036 76.872116 0.692830 0.810971
53.269356 74.794556 0.000005 0.543023
55.710739 68.227180 0.000007 0.535973
57.540268 63.305698 0.200009 0.703334
58.321503 61.204155 0.199999 0.671992
58.541859 60.611382 0.000012 0.341772
58.986355 59.415680 0.000001 0.326619
44.577431 99.183487 14.594959 0.666667
44.577423 99.183502 12.859857 0.666667
44.577423 99.183495 11.149106 0.677928
44.577423 99.183495 9.458618 0.678431
44.646553 98.993484 7.761208 0.598489
44.577423 99.183495 6.122882 0.678431
44.591988 99.143463 4.468099 0.123964
44.611992 99.088493 2.821155 0.678431
44.611992 99.088493 1.178845 0.678431
47.849434 90.189964 -0.000036 0.541756
53.429176 74.853325 0.000005 0.526574
55.824650 68.269073 0.000007 0.541543
57.619774 63.334938 0.200010 0.685252
58.386314 61.228004 0.199997 0.697688
58.602531 60.633705 0.000010 0.337896
59.038666 59.434929 -0.000000 0.339727
45.017654 98.993500 14.512845 0.626261
45.017654 98.993492 12.789045 0.599283
45.017654 98.993492 11.089451 0.603754
45.017654 98.993500 9.409986 0.494255
45.017654 98.993500 7.746753 0.687816
45.017654 98.993500 6.096001 0.631708
45.017654 98.993500 4.454085 0.573419
44.983845 99.088486 2.819095 0.678431
44.983845 99.088486 1.180905 0.672480
48.116867 90.286194 -0.000036 0.540658
53.589401 74.910988 0.000006 0.535668
55.938850 68.310165 0.000007 0.547143
57.699482 63.363632 0.200009 0.702312
58.451294 61.251392 0.199996 0.695216
58.663357 60.655602 0.000009 0.337026
59.091118 59.453804 -0.000000 0.344778
45.386917 98.993507 14.482133 0.539773
45.386921 98.993500 12.762568 0.547066
45.386917 98.993507 11.067145 0.617487
45.386921 98.993500 9.391799 0.520897
45.386917 98.993500 7.732649 0.489570
45.386917 98.993500 6.085946 0.445274
45.386921 98.993500 4.448061 0.582788
45.357513 99.077980 2.816901 0.206775
45.357513 99.077980 1.183099 0.239185
48.384968 90.380547 -0.000035 0.542473
53.750031 74.967522 0.000006 0.542214
56.053333 68.350464 0.000007 0.537957
57.779385 63.391781 0.200005 0.700481
58.516441 61.274323 0.199996 0.727520
58.724335 60.677071 0.000008 0.338277
59.143696 59.472313 -0.000000 0.346334
45.689743 99.183502 14.502450 0.678431
45.689743 99.183487 12.780083 0.678431
45.689743 99.183487 11.081897 0.670695
45.689743 99.183502 9.403831 0.670710
45.754395 98.993492 7.718888 0.571847
45.689743 99.183502 6.092597 0.678431
45.703358 99.143478 4.449970 0.100191
45.722076 99.088470 2.815122 0.678431
45.722076 99.088470 1.184877 0.678431
48.653717 90.473038 -0.000034 0.544442
53.911045 75.022934 0.000007 0.539498
56.168098 68.389961 0.000008 0.556222
57.859474 63.419384 0.200000 0.689342
58.581745 61.296791 0.199999 0.697139
58.785461 60.698120 0.000006 0.338979
59.196404 59.490452 -0.000000 0.338323
46.120132 98.993484 14.422965 0.602686
46.120132 98.993484 12.711550 0.522179
46.120132 98.993484 11.024161 0.406165
46.120132 98.993484 9.356761 0.554406
46.120132 98.993484 7.705474 0.797726
46.120132 98.993484 6.066578 0.670253
46.120132 98.993484 4.436459 0.525490
46.088547 99.088478 2.813210 0.678431
46.088547 99.088478 1.186790 0.678431
48.923111 90.563637 -0.000033 0.538018
54.072445 75.077217 0.000007 0.548226
56.283134 68.428658 0.000007 0.551919
57.939758 63.446430 0.199994 0.719799
58.647209 61.318798 0.200001 0.690120
58.846733 60.718735 0.000004 0.334997
59.249237 59.508224 0.000000 0.337697
46.484184 98.993469 14.394490 0.680995
46.484180 98.993477 12.686999 0.716152
46.484180 98.993484 11.003480 0.464958
46.484184 98.993469 9.339898 0.481254
46.484188 98.993454 7.692396 0.754253
46.484184 98.993469 6.057258 0.539864
46.484184 98.993462 4.430873 0.374136
46.462063 99.061584 2.810885 0.348760
46.462063 99.061584 1.189116 0.331319
49.193134 90.652359 -0.000033 0.543496
54.234226 75.130371 0.000008 0.548699
56.398438 68.466553 0.000007 0.549065
58.020226 63.472923 0.199987 0.667887
58.712826 61.340343 0.200003 0.702083
58.908150 60.738926 0.000003 0.332250
59.302193 59.525627 0.000000 0.336187
46.786327 99.183479 14.416683 0.678431
46.786327 99.183487 12.706136 0.678431
46.786331 99.183472 11.019598 0.678431
46.786327 99.183487 9.353040 0.678431
46.846577 98.993462 7.679656 0.615503
46.786331 99.183472 6.064520 0.677241
46.799007 99.143494 4.433166 0.171145
46.816448 99.088486 2.809531 0.678431
46.816448 99.088486 1.190468 0.592874
49.463768 90.739182 -0.000031 0.539300
54.396366 75.182404 0.000008 0.546838
56.514004 68.503639 0.000007 0.556786
58.100883 63.498829 0.199985 0.712383
58.778587 61.361439 0.200006 0.723278
58.969700 60.758690 0.000001 0.336370
59.355270 59.542656 0.000000 0.336751
47.207359 98.993484 14.339743 0.572732
47.207359 98.993484 12.639793 0.721630
47.207363 98.993477 10.963709 0.524773
47.207359 98.993484 9.307478 0.677760
47.207359 98.993484 7.667253 0.555062
47.207363 98.993477 6.039336 0.611734
47.207359 98.993484 4.420135 0.603922
47.177971 99.088470 2.807762 0.667857
47.177971 99.088470 1.192237 0.667857
49.734993 90.824127 -0.000031 0.539528
54.558865 75.233292 0.000009 0.545373
56.629826 68.539917 0.000008 0.534173
58.181732 63.524132 0.199988 0.734539
58.844498 61.382065 0.200008 0.692363
59.031391 60.778019 0.000000 0.338476
59.408463 59.559319 0.000001 0.335622
47.557140 99.024826 14.321646 0.546166
47.557137 99.024834 12.624188 0.596826
47.557137 99.024826 10.950563 0.571801
47.557137 99.024826 9.296761 0.673884
47.566589 98.993515 7.655179 0.665965
47.557137 99.024826 6.033413 0.702327
47.557137 99.024841 4.416587 0.681804
47.537933 99.088478 2.806042 0.678431
47.537933 99.088470 1.193958 0.678431
50.006809 90.907181 -0.000031 0.541436
54.721718 75.283051 0.000009 0.537560
56.745899 68.575386 0.000007 0.533349
58.262756 63.548862 0.199992 0.753307
58.910545 61.402241 0.200010 0.682017
59.093216 60.796913 -0.000000 0.336095
59.461773 59.575607 0.000001 0.342794
47.868435 99.183464 14.337461 0.678431
47.868431 99.183472 12.637824 0.674632
47.868431 99.183472 10.962051 0.678431
47.868431 99.183472 9.306129 0.678431
47.924324 98.993477 7.643422 0.647196
47.868431 99.183479 6.038590 0.678431
47.924320 98.993484 4.409959 0.705867
47.896374 99.088493 2.804366 0.670344
47.896374 99.088493 1.195633 0.670344
50.279198 90.988319 -0.000030 0.541848
54.884911 75.331680 0.000010 0.536339
56.862213 68.610046 0.000008 0.543404
58.343960 63.572998 0.200000 0.680919
58.976738 61.421944 0.200013 0.688746
59.155174 60.815372 -0.000000 0.338964
59.515194 59.591522 0.000002 0.337987
48.280582 98.993469 14.262969 0.514778
48.280582 98.993469 12.573593 0.486381
48.280579 98.993484 10.907943 0.599817
48.280582 98.993469 9.262013 0.583841
48.280586 98.993469 7.631994 0.510887
48.280586 98.993469 6.014205 0.630884
48.280586 98.993469 4.405078 0.630884
48.253361 99.088455 2.802737 0.678431
48.253361 99.088455 1.197262 0.678431
50.552147 91.067566 -0.000029 0.540932
55.048443 75.379158 0.000010 0.527840
56.978771 68.643890 0.000008 0.535576
58.425331 63.596573 0.200008 0.694057
59.047436 61.425941 0.202902 0.668421
59.217255 60.833401 0.000000 0.340124
59.568722 59.607067 0.000002 0.332799
48.595337 99.137131 14.276137 0.557824
48.595333 99.137138 12.584950 0.478264
48.595329 99.137146 10.917510 0.670665
48.595329 99.137146 9.269814 0.745876
48.635418 98.993492 7.620887 0.596368
48.595329 99.137146 6.018517 0.583490
48.635418 98.993492 4.400334 0.605158
48.608917 99.088463 2.801154 0.678431
48.608917 99.088463 1.198846 0.678431
50.825649 91.144882 -0.000028 0.538369
55.212303 75.425507 0.000010 0.542397
57.095562 68.676918 0.000008 0.535866
58.506863 63.619576 0.200016 0.688853
59.109516 61.459991 0.200014 0.699458
59.279465 60.850994 0.000000 0.332326
59.622360 59.622234 0.000002 0.332219
48.937290 99.183456 14.264589 0.678431
49.154137 98.384903 12.396278 0.331075
48.937283 99.183487 10.909123 0.678431
48.937283 99.183479 9.262978 0.678431
48.988873 98.993500 7.610096 0.644312
48.937283 99.183479 6.014738 0.669993
48.988873 98.993500 4.395728 0.450446
48.969872 99.063477 2.799192 0.092119
48.969872 99.063477 1.200808 0.087739
51.099674 91.220322 -0.000027 0.542611
55.376480 75.470688 0.000011 0.533394
57.212578 68.709137 0.000007 0.553948
58.588543 63.642056 0.200017 0.700298
59.164654 61.520485 0.192065 0.676295
59.341793 60.868149 0.000001 0.338399
59.676102 59.637032 0.000002 0.340719
49.340992 98.993492 14.192468 0.458076
49.340992 98.993484 12.512805 0.629206
49.340988 98.993500 10.856728 0.711879
49.340988 98.993500 9.220263 0.747509
49.340988 98.993500 7.599614 0.514092
49.340988 98.993500 5.991127 0.506783
49.340996 98.993484 4.391252 0.691768
49.322510 99.063477 2.797699 0.091661
49.322510 99.063477 1.202301 0.091661
51.374214 91.293869 -0.000028 0.540307
55.540970 75.514732 0.000011 0.544396
57.329815 68.740532 0.000008 0.521752
58.670368 63.663986 0.200014 0.718227
59.223557 61.569115 0.186290 0.813993
59.404240 60.884872 0.000001 0.336599
59.729946 59.651455 0.000000 0.338827
49.653328 99.143463 14.209112 0.278538
49.691814 98.993484 12.493716 0.575067
49.653328 99.143471 10.868818 0.300694
49.653328 99.143478 9.230120 0.094118
49.691814 98.993492 7.589447 0.491951
49.653328 99.143463 5.996575 0.176654
49.691811 98.993500 4.386910 0.575204
49.667442 99.088470 2.796673 0.675303
49.667442 99.088470 1.203328 0.675303
51.649269 91.365448 -0.000027 0.541863
55.705761 75.557640 0.000012 0.532509
57.447273 68.771111 0.000008 0.535775
58.752342 63.685349 0.200011 0.735012
59.282837 61.618069 0.180387 0.651225
59.466805 60.901157 0.000002 0.331548
59.783890 59.665504 -0.000001 0.337636
49.994045 99.183464 14.197899 0.678431
50.041386 98.993484 12.475205 0.456703
49.994041 99.183487 10.860678 0.678431
49.994041 99.183487 9.223483 0.678431
50.041389 98.993484 7.579587 0.521523
49.994041 99.183472 5.992905 0.678431
50.041389 98.993484 4.382698 0.819455
50.017715 99.088486 2.795267 0.678431
50.017715 99.088478 1.204732 0.678431
51.924816 91.435127 -0.000026 0.535882
55.870850 75.599380 0.000012 0.540398
57.564938 68.800865 0.000008 0.537743
58.834469 63.706139 0.200008 0.725170
59.342503 61.667358 0.174355 0.749325
59.529480 60.917007 0.000002 0.331228
59.837929 59.679180 -0.000003 0.330999
50.389740 98.993484 14.128053 0.572000
50.389732 98.993500 12.457273 0.655238
50.389740 98.993484 10.809937 0.526101
50.389736 98.993484 9.182119 0.607217
50.389736 98.993484 7.570034 0.603922
50.389740 98.993484 5.970041 0.705028
50.389740 98.993484 4.378617 0.839216
50.360966 99.112488 2.794311 0.251164
50.360966 99.112488 1.205690 0.303136
52.200848 91.502853 -0.000026 0.536263
56.036224 75.639969 0.000013 0.531304
57.682808 68.829803 0.000008 0.548119
58.916737 63.726357 0.200005 0.707073
59.402569 61.716976 0.168192 0.703746
59.592262 60.932419 0.000002 0.333379
59.892059 59.692474 -0.000004 0.337285
50.701759 99.143478 14.146506 0.294179
50.736916 98.993500 12.439904 0.564355
50.701763 99.143471 10.823335 0.280644
50.701763 99.143463 9.193041 0.237324
50.736916 98.993500 7.560781 0.418799
50.701767 99.143463 5.976078 0.194980
50.736916 98.993500 4.374669 0.766476
50.714649 99.088486 2.792587 0.678431
50.714649 99.088486 1.207413 0.678431
52.477341 91.568680 -0.000025 0.542550
56.201881 75.679398 0.000013 0.532387
57.800880 68.857910 0.000008 0.536782
58.999142 63.745998 0.200002 0.731121
59.463047 61.766945 0.161896 0.713802
59.655151 60.947395 0.000002 0.333196
59.946285 59.705391 -0.000006 0.337072
51.039825 99.183495 14.137230 0.678431
51.082966 98.993484 12.423096 0.675853
51.039825 99.183487 10.816601 0.678431
51.039825 99.183487 9.187550 0.678431
51.082966 98.993492 7.551831 0.653849
51.039825 99.183487 5.973044 0.678431
51.082962 98.993492 4.370847 0.568658
51.061394 99.088486 2.791312 0.678431
51.061394 99.088486 1.208688 0.678431
52.754284 91.632568 -0.000024 0.541726
56.367809 75.717674 0.000014 0.546548
57.919144 68.885201 0.000008 0.531380
59.081688 63.765045 0.200002 0.725307
59.523941 61.817261 0.155466 0.755276
59.718143 60.961933 0.000000 0.338003
60.000599 59.717930 -0.000008 0.325093
51.427917 98.993484 14.069587 0.568948
51.427921 98.993469 12.406852 0.584222
51.427917 98.993484 10.767467 0.500359
51.427917 98.993484 9.147493 0.642008
51.427917 98.993477 7.543179 0.636271
