# This PCD file was generated using the MATLABÂ® pcwrite function
# from Computer Vision ToolboxÂ®.
# .PCD v.7 - Point Cloud Data file format
VERSION .7
FIELDS x y z intensity
SIZE 4 4 4 4
TYPE F F F F
COUNT 1 1 1 1
WIDTH 1180
HEIGHT 1
VIEWPOINT 0 0 0 1 0 0 0
POINTS 1180
DATA ascii
-68.117226 119.327171 -0.000009 0.602975
-53.229286 128.822372 8.423071 0.373434
-53.229286 128.822372 7.538213 0.444938
-53.039299 128.944382 6.706864 0.678431
-53.039303 128.944382 5.837173 0.678431
-53.039303 128.944382 4.975887 0.678431
-53.229286 128.822372 4.102551 0.455497
-53.134308 128.883362 3.265272 0.678431
-53.134308 128.883377 2.421457 0.678431
-53.134308 128.883362 1.578544 0.678431
-53.134308 128.883362 0.734727 0.678431
-54.281342 128.146713 -0.000031 0.540383
-60.176884 124.360428 -0.000021 0.533471
-63.460369 122.251678 -0.000016 0.522850
-65.556587 120.905434 -0.000013 0.517372
-67.013535 119.969742 -0.000010 0.521630
-68.086937 119.280373 -0.000009 0.532311
-53.229286 128.610565 8.394554 0.593927
-53.229286 128.610565 7.513625 0.770779
-53.039299 128.730713 6.685970 0.678431
-53.039295 128.730713 5.820140 0.678431
-53.039299 128.730713 4.962678 0.678431
-53.229290 128.610565 4.093216 0.483421
-53.159294 128.654831 3.258203 0.094118
-53.159294 128.654831 2.419102 0.062745
-53.159294 128.654831 1.580898 0.094118
-53.159294 128.654831 0.741797 0.094118
-54.189812 128.003113 -0.000031 0.534020
-60.111656 124.258072 -0.000021 0.549355
-63.409779 122.172302 -0.000016 0.514473
-65.515343 120.840721 -0.000013 0.555825
-66.978783 119.915222 -0.000011 0.529976
-68.056976 119.233360 -0.000009 0.545434
-53.229298 128.400604 8.366598 0.667094
-53.229290 128.400604 7.489523 0.706508
-53.039295 128.518921 6.665486 0.678431
-53.039299 128.518921 5.803440 0.678431
-53.039295 128.518921 4.949726 0.678431
-53.229294 128.400604 4.084065 0.657877
-53.134315 128.459747 3.254148 0.551568
-53.134315 128.459747 2.417751 0.551568
-53.134315 128.459747 1.582249 0.576318
-53.134315 128.459747 0.745851 0.576318
-54.099297 127.858871 -0.000031 0.539406
-60.047142 124.155266 -0.000021 0.522942
-63.359745 122.092575 -0.000016 0.538659
-65.474556 120.775726 -0.000013 0.535729
-66.944420 119.860466 -0.000011 0.530007
-68.027351 119.186150 -0.000009 0.566781
-53.229301 128.192474 8.339194 0.588113
-53.229290 128.192474 7.465896 0.877958
-53.229294 128.192474 6.604854 0.664683
-53.229286 128.192474 5.754013 0.665919
-53.229294 128.192474 4.911392 0.511223
-53.229294 128.192474 4.075096 0.734661
-53.134293 128.250717 3.248752 0.678431
-53.134285 128.250717 2.415954 0.678431
-53.134285 128.250717 1.584047 0.678431
-53.134289 128.250717 0.751248 0.678431
-54.009789 127.714005 -0.000031 0.531792
-59.983341 124.052017 -0.000022 0.538582
-63.310272 122.012497 -0.000016 0.503273
-65.434219 120.710442 -0.000013 0.647578
-66.910439 119.805466 -0.000011 0.502632
-67.998055 119.138725 -0.000009 0.574090
-53.229294 127.986115 8.312334 0.475181
-53.229290 127.986122 7.442735 0.476478
-53.229290 127.986122 6.585343 0.771908
-53.229290 127.986122 5.738106 0.752560
-53.229286 127.986122 4.899057 0.506111
-53.229294 127.986122 4.066302 0.667964
-53.134285 128.043457 3.243460 0.678431
-53.134285 128.043457 2.414191 0.678431
-53.134285 128.043457 1.585809 0.678431
-53.134285 128.043457 0.756539 0.678431
-53.921299 127.568512 -0.000031 0.538903
-59.920269 123.948318 -0.000022 0.527199
-63.261353 121.932076 -0.000017 0.546777
-65.394348 120.644882 -0.000013 0.554955
-66.876846 119.750237 -0.000011 0.534508
-67.969086 119.091103 -0.000009 0.565850
-53.229294 127.781494 8.286005 0.711788
-53.229294 127.781494 7.420032 0.413626
-53.229286 127.781502 6.566217 0.694881
-53.229290 127.781494 5.722513 0.626856
-53.229294 127.781494 4.886964 0.531991
-53.229286 127.781502 4.057684 0.682994
-53.134285 127.837929 3.238274 0.678431
-53.134285 127.837929 2.412463 0.678431
-53.134285 127.837929 1.587537 0.678431
-53.134285 127.837929 0.761726 0.678431
-53.833817 127.422417 -0.000031 0.537972
-59.857925 123.844185 -0.000022 0.527825
-63.212997 121.851318 -0.000017 0.555200
-65.354927 120.579041 -0.000013 0.550271
-66.843636 119.694771 -0.000011 0.529961
-67.940453 119.043274 -0.000009 0.537911
-53.229286 127.578560 8.260201 0.421622
-53.229286 127.578560 7.397781 0.640528
-53.229290 127.578560 6.547470 0.498848
-53.229290 127.578560 5.707231 0.612116
-53.229286 127.578560 4.875113 0.479759
-53.229286 127.578560 4.049236 0.633814
-53.159298 127.619476 3.231766 0.094118
-53.159302 127.619476 2.410296 0.062745
-53.159302 127.619476 1.589705 0.094118
-53.159294 127.619476 0.768233 0.062745
-53.747368 127.275703 -0.000031 0.554726
-59.796299 123.739616 -0.000022 0.535729
-63.165211 121.770218 -0.000017 0.538567
-65.315964 120.512932 -0.000013 0.561639
-66.810814 119.639069 -0.000011 0.537530
-67.912155 118.995255 -0.000009 0.547265
-53.229286 127.377281 8.234907 0.726467
-53.229286 127.377281 7.375972 0.810666
-53.229286 127.377281 6.529098 0.575967
-53.229286 127.377281 5.692253 0.648432
-53.229282 127.377281 4.863496 0.698314
-53.229286 127.377281 4.040958 0.675196
-53.134293 127.431923 3.228208 0.678431
-53.134293 127.431923 2.409111 0.678431
-53.134293 127.431923 1.590890 0.678431
-53.134293 127.431923 0.771793 0.678431
-53.661942 127.128395 -0.000031 0.555001
-59.735409 123.634628 -0.000022 0.531853
-63.117992 121.688789 -0.000017 0.557458
-65.277466 120.446548 -0.000014 0.512337
-66.778381 119.583145 -0.000011 0.559533
-67.884186 118.947029 -0.000010 0.493584
-53.229290 127.177605 8.210119 0.636301
-53.229290 127.177605 7.354598 0.491402
-53.039295 127.285141 6.550815 0.648600
-53.039299 127.285141 5.709956 0.648600
-53.039299 127.285133 4.877226 0.648600
-53.229290 127.177605 4.032843 0.612879
-53.134293 127.231369 3.223324 0.678431
-53.134293 127.231369 2.407483 0.678431
-53.134293 127.231369 1.592516 0.678431
-53.134289 127.231369 0.776675 0.678431
-53.577545 126.980492 -0.000031 0.545846
-59.675259 123.529205 -0.000022 0.551110
-63.071342 121.607033 -0.000017 0.537957
-65.239433 120.379898 -0.000014 0.550118
-66.746346 119.526993 -0.000011 0.529824
-67.856560 118.898621 -0.000010 0.528161
-53.229290 126.979500 8.185827 0.634928
-53.229294 126.979500 7.333653 0.636332
-53.039303 127.085289 6.533011 0.678431
-53.039307 127.085289 5.695443 0.678431
-53.039303 127.085289 4.865971 0.678431
-53.229286 126.979500 4.024891 0.494987
-53.134285 127.032402 3.218539 0.622324
-53.134289 127.032394 2.405890 0.622324
-53.134289 127.032394 1.594110 0.622324
-53.134285 127.032402 0.781460 0.622324
-53.494183 126.832001 -0.000032 0.543496
-59.615845 123.423370 -0.000022 0.533165
-63.025261 121.524956 -0.000017 0.544762
-65.201874 120.312988 -0.000013 0.537911
-66.714699 119.470627 -0.000011 0.520562
-67.829269 118.850014 -0.000010 0.503517
-53.229286 126.782936 8.162025 0.677333
-53.229286 126.782928 7.313130 0.570321
-53.039307 126.886986 6.515568 0.678431
-53.039307 126.886986 5.681223 0.678431
-53.039310 126.886978 4.854941 0.678431
-53.229286 126.782928 4.017099 0.444450
-53.134304 126.834953 3.213849 0.678431
-53.134308 126.834953 2.404327 0.669123
-53.134308 126.834953 1.595673 0.678431
-53.134304 126.834953 0.786150 0.678431
-53.411854 126.682938 -0.000032 0.542031
-59.557167 123.317123 -0.000022 0.539315
-62.979755 121.442558 -0.000017 0.533104
-65.164772 120.245811 -0.000014 0.542611
-66.683441 119.414032 -0.000011 0.552789
-67.802322 118.801216 -0.000010 0.509880
-53.229286 126.587860 8.138700 0.828916
-53.229286 126.587860 7.293021 0.854841
-53.229286 126.587860 6.459213 0.460075
-53.229279 126.587860 5.635282 0.542473
-53.229279 126.587868 4.819313 0.567651
-53.229286 126.587860 4.009465 0.408042
-53.134308 126.639023 3.209255 0.678431
-53.134308 126.639023 2.402798 0.678431
-53.134308 126.639023 1.597203 0.678431
-53.134304 126.639023 0.790744 0.678431
-53.330574 126.533302 -0.000032 0.530846
-59.499237 123.210472 -0.000022 0.538140
-62.934830 121.359840 -0.000017 0.530037
-65.128151 120.178383 -0.000013 0.546273
-66.652588 119.357224 -0.000011 0.540444
-67.775719 118.752235 -0.000009 0.546487
-53.229290 126.394249 8.115850 0.452262
-53.229286 126.394249 7.273318 0.466300
-53.229286 126.394249 6.442615 0.622705
-53.229286 126.394249 5.621748 0.605707
-53.229282 126.394257 4.808818 0.559655
-53.229286 126.394249 4.001986 0.438132
-53.134293 126.444565 3.204754 0.678431
-53.134296 126.444565 2.401298 0.678431
-53.134296 126.444565 1.598702 0.678431
-53.134293 126.444565 0.795246 0.678431
-53.229298 126.394241 -0.001984 0.457496
-59.442047 123.103416 -0.000022 0.526864
-62.890476 121.276817 -0.000017 0.557488
-65.091995 120.110695 -0.000014 0.533532
-66.622124 119.300201 -0.000011 0.548638
-67.749458 118.703064 -0.000009 0.567468
-53.229294 126.202065 8.093465 0.699199
-53.229294 126.202065 7.254015 0.391058
-53.229290 126.202065 6.426353 0.724208
-53.229286 126.202065 5.608492 0.677150
-53.229286 126.202072 4.798537 0.535378
-53.229286 126.202072 3.994658 0.739483
-53.134293 126.251541 3.200346 0.678431
-53.134285 126.251541 2.399829 0.678431
-53.134285 126.251541 1.600170 0.678431
-53.134289 126.251541 0.799654 0.678431
-53.229298 126.202065 0.005343 0.454414
-59.385612 122.995964 -0.000023 0.539818
-62.846706 121.193481 -0.000017 0.536171
-65.056313 120.042763 -0.000014 0.509957
-66.592064 119.242966 -0.000011 0.547097
-67.723534 118.653717 -0.000010 0.499809
-53.229294 126.011276 8.071539 0.499260
-53.229294 126.011276 7.235111 0.458274
-53.229294 126.011276 6.410425 0.390402
-53.229294 126.011276 5.595507 0.513954
-53.229286 126.011276 4.788466 0.510109
-53.229286 126.011276 3.987480 0.754345
-53.134315 126.059898 3.196025 0.678431
-53.134308 126.059898 2.398390 0.678431
-53.134308 126.059898 1.601610 0.678431
-53.134315 126.059898 0.803975 0.678431
-53.229298 126.011269 0.012520 0.454826
-59.329918 122.888123 -0.000023 0.550835
-62.803520 121.109848 -0.000017 0.557595
-65.021103 119.974579 -0.000014 0.534264
-66.562408 119.185524 -0.000011 0.565255
-67.697960 118.604187 -0.000010 0.494163
-53.229301 125.821838 8.050062 0.530602
-53.229298 125.821838 7.216593 0.617365
-53.229294 125.821838 6.394825 0.736400
-53.229294 125.821846 5.582789 0.592645
-53.229294 125.821846 4.778603 0.468879
-53.229286 125.821846 3.980450 0.677577
-53.134304 125.869637 3.191795 0.678431
-53.134308 125.869637 2.396981 0.678431
-53.134308 125.869637 1.603019 0.678431
-53.134304 125.869637 0.808205 0.678431
-53.229294 125.821838 0.019550 0.465248
-59.274990 122.779892 -0.000023 0.533349
-62.760918 121.025909 -0.000017 0.531090
-64.986374 119.906151 -0.000014 0.534874
-66.533142 119.127876 -0.000011 0.523583
-67.672729 118.554482 -0.000010 0.499840
-53.229301 125.633728 8.029030 0.736599
-53.229298 125.633736 7.198458 0.629221
-53.229294 125.633736 6.379547 0.408057
-53.229294 125.633736 5.570336 0.563455
-53.229294 125.633736 4.768944 0.574304
-53.229294 125.633736 3.973565 0.738323
-53.151291 125.672302 3.186721 0.107515
-53.151295 125.672302 2.395291 0.185107
-53.151295 125.672302 1.604709 0.248157
-53.151295 125.672302 0.813279 0.340627
-53.229301 125.633736 0.026435 0.547112
-59.220818 122.671280 -0.000023 0.531136
-62.718903 120.941681 -0.000017 0.546319
-64.952118 119.837479 -0.000014 0.567681
-66.504288 119.070023 -0.000012 0.568994
-67.647850 118.504601 -0.000010 0.518410
-53.229301 125.446922 8.008436 0.456214
-53.079308 125.519783 7.216716 0.047303
-53.039291 125.539223 6.403023 0.678431
-53.039291 125.539223 5.589474 0.678431
-53.039295 125.539223 4.783785 0.678431
-53.229290 125.446930 3.966825 0.560739
-53.134293 125.493073 3.183595 0.678431
-53.134296 125.493073 2.394250 0.678431
-53.134296 125.493073 1.605750 0.678431
-53.134293 125.493073 0.816404 0.678431
-53.229301 125.446922 0.033176 0.552361
-59.167397 122.562294 -0.000023 0.518318
-62.677479 120.857155 -0.000017 0.549569
-64.918350 119.768578 -0.000014 0.537591
-66.475838 119.011971 -0.000012 0.530495
-67.623322 118.454544 -0.000010 0.535012
-53.229298 125.261375 7.988275 0.844602
-53.062275 125.341072 7.203287 0.113237
-53.039291 125.352043 6.388248 0.678431
-53.039299 125.352036 5.577427 0.678431
-53.039299 125.352036 4.774444 0.678431
-53.229294 125.261375 3.960224 0.469352
-53.159302 125.294777 3.178262 0.094118
-53.159302 125.294777 2.392473 0.062745
-53.159302 125.294777 1.607526 0.094118
-53.159302 125.294777 0.821738 0.062745
-53.229301 125.261375 0.039776 0.619272
-59.114754 122.452934 -0.000023 0.536004
-62.636642 120.772346 -0.000018 0.546975
-64.885063 119.699432 -0.000014 0.555718
-66.447792 118.953728 -0.000011 0.531029
-67.599144 118.404320 -0.000010 0.587350
-53.229298 125.077057 7.968537 0.581170
-53.039295 125.166107 7.191617 0.366415
-53.039299 125.166100 6.373783 0.678431
-53.039299 125.166100 5.565637 0.678431
-53.039303 125.166100 4.765298 0.678431
-53.229294 125.077057 3.953763 0.607019
-53.134293 125.121582 3.175735 0.678431
-53.134293 125.121582 2.391632 0.678431
-53.134293 125.121582 1.608368 0.678431
-53.134293 125.121582 0.824264 0.678431
-53.229301 125.077057 0.046237 0.643503
-59.062859 122.343216 -0.000023 0.550561
-62.596397 120.687256 -0.000018 0.529839
-64.852257 119.630066 -0.000014 0.537743
-66.420151 118.895287 -0.000012 0.539513
-67.575310 118.353928 -0.000010 0.544930
-53.229301 124.893944 7.949217 0.687251
-53.039299 124.981377 7.174813 0.564691
-53.039299 124.981377 6.359625 0.678431
-53.039299 124.981369 5.554093 0.678431
-53.039299 124.981369 4.756349 0.678431
-53.229294 124.893944 3.947439 0.335897
-53.134308 124.937653 3.171929 0.672053
-53.134304 124.937660 2.390364 0.678431
-53.134304 124.937660 1.609636 0.678431
-53.134308 124.937653 0.828071 0.678431
-53.229301 124.893944 0.052561 0.449378
-59.011742 122.233131 -0.000023 0.527108
-62.556755 120.601875 -0.000018 0.530037
-64.819939 119.560471 -0.000014 0.519692
-66.392921 118.836647 -0.000012 0.541756
-67.551834 118.303375 -0.000010 0.503502
-53.229294 124.712006 7.930313 0.519509
-53.229298 124.712006 7.113338 0.671275
-53.229298 124.712006 6.307835 0.453208
-53.229294 124.712006 5.511874 0.730770
-53.229294 124.712006 4.723605 0.448585
-53.229298 124.712006 3.941250 0.674723
-53.134300 124.754913 3.168205 0.597940
-53.134300 124.754913 2.389123 0.489372
-53.134300 124.754913 1.610876 0.503685
-53.134293 124.754913 0.831794 0.477989
-53.229305 124.711998 0.058750 0.452995
-58.961388 122.122696 -0.000023 0.541283
-62.517708 120.516228 -0.000018 0.526146
-64.788101 119.490646 -0.000014 0.559167
-66.366104 118.777824 -0.000012 0.535073
-67.528709 118.252655 -0.000010 0.523262
-53.229294 124.531204 7.911812 0.564309
-53.229294 124.531212 7.097388 0.788281
-53.229294 124.531204 6.294397 0.562997
-53.229294 124.531204 5.500919 0.739559
-53.229294 124.531212 4.715108 0.550668
-53.229294 124.531204 3.935194 0.783795
-53.134293 124.573326 3.164562 0.678431
-53.134293 124.573326 2.387910 0.678431
-53.134293 124.573326 1.612090 0.678431
-53.134293 124.573326 0.835438 0.678431
-53.229301 124.531204 0.064806 0.549645
-58.911808 122.011909 -0.000023 0.531350
-62.479256 120.430313 -0.000018 0.544762
-64.756752 119.420601 -0.000014 0.523308
-66.339699 118.718819 -0.000012 0.518410
-67.505936 118.201775 -0.000010 0.535698
-53.229294 124.351532 7.893715 0.410086
-53.229294 124.351524 7.081784 0.623453
-53.229294 124.351524 6.281251 0.462898
-53.229294 124.351524 5.490202 0.536004
-53.229294 124.351524 4.706797 0.414679
-53.229294 124.351524 3.929271 0.552682
-53.134293 124.392853 3.160996 0.650004
-53.134293 124.392853 2.386722 0.654169
-53.134293 124.392853 1.613278 0.654169
-53.134293 124.392853 0.839003 0.678431
-53.229301 124.351524 0.070730 0.436103
-58.862999 121.900787 -0.000024 0.551904
-62.441406 120.344131 -0.000018 0.531823
-64.725899 119.350342 -0.000014 0.547295
-66.313705 118.659630 -0.000012 0.542260
-67.483521 118.150742 -0.000010 0.525765
-53.229290 124.172935 7.876014 0.632746
-53.229290 124.172935 7.066522 0.679118
-53.229290 124.172935 6.268394 0.449775
-53.229294 124.172928 5.479718 0.519051
-53.229294 124.172935 4.698667 0.475776
-53.229294 124.172935 3.923475 0.543389
-53.134308 124.213470 3.157508 0.678431
-53.134312 124.213463 2.385561 0.678431
-53.134312 124.213463 1.614439 0.678431
-53.134308 124.213470 0.842491 0.678431
-53.229301 124.172928 0.076525 0.498268
-58.814976 121.789322 -0.000024 0.518364
-62.404156 120.257683 -0.000018 0.515312
-64.695534 119.279869 -0.000015 0.559258
-66.288124 118.600258 -0.000012 0.534600
-67.461464 118.099548 -0.000010 0.522530
-53.229290 123.995399 7.858703 0.567071
-53.229286 123.995399 7.051595 0.468269
-53.229290 123.995399 6.255819 0.484810
-53.229294 123.995399 5.469467 0.366415
-53.229294 123.995399 4.690716 0.460304
-53.229294 123.995399 3.917809 0.371527
-53.134308 124.035156 3.154099 0.678431
-53.134308 124.035156 2.384424 0.678431
-53.134308 124.035156 1.615575 0.678431
-53.134308 124.035156 0.845901 0.678431
-53.229301 123.995399 0.082191 0.560128
-58.767727 121.677521 -0.000023 0.538582
-62.367512 120.170982 -0.000018 0.528084
-64.665657 119.209190 -0.000014 0.562249
-66.262955 118.540703 -0.000012 0.529900
-67.439766 118.048203 -0.000010 0.557458
-53.229286 123.818909 7.841778 0.540566
-53.170166 123.843163 7.050805 0.657908
-53.170166 123.843163 6.255152 0.423209
-53.170166 123.843163 5.468925 0.528679
-53.170170 123.843163 4.690295 0.424048
-53.229290 123.818901 3.912269 0.439612
-53.134300 123.857880 3.150764 0.678431
-53.134304 123.857880 2.383314 0.678431
-53.134304 123.857880 1.616686 0.678431
-53.134300 123.857880 0.849235 0.678431
-53.229301 123.818901 0.087731 0.556222
-58.721264 121.565392 -0.000023 0.542657
-62.331478 120.084023 -0.000018 0.554971
-64.636284 119.138298 -0.000014 0.541131
-66.238205 118.480988 -0.000012 0.516548
-67.418427 117.996704 -0.000010 0.525948
-53.229286 123.643417 7.825233 0.570657
-53.039284 123.719833 7.066967 0.678431
-53.039284 123.719833 6.268770 0.678431
-53.039291 123.719833 5.480025 0.678431
-53.039291 123.719833 4.698904 0.678431
-53.229294 123.643410 3.906852 0.514000
-53.159294 123.671570 3.146182 0.094118
-53.159290 123.671570 2.381788 0.094118
-53.159294 123.671570 1.618212 0.094118
-53.159294 123.671570 0.853818 0.062745
-53.229305 123.643410 0.093148 0.521538
-58.675575 121.452950 -0.000024 0.546838
-62.296047 119.996819 -0.000018 0.534218
-64.607399 119.067200 -0.000014 0.523857
-66.213867 118.421089 -0.000012 0.552956
-67.397446 117.945061 -0.000010 0.557015
-53.229290 123.468910 7.809063 0.521126
-53.039284 123.543793 7.052903 0.678431
-53.039284 123.543793 6.256920 0.678431
-53.039288 123.543785 5.470366 0.678431
-53.039288 123.543785 4.691413 0.678431
-53.229294 123.468903 3.901560 0.567910
-53.134293 123.506348 3.144320 0.678431
-53.134293 123.506348 2.381168 0.678431
-53.134293 123.506348 1.618832 0.678431
-53.134293 123.506348 0.855679 0.678431
-53.229301 123.468903 0.098441 0.555352
-58.630676 121.340187 -0.000024 0.549737
-62.261227 119.909363 -0.000018 0.527993
-64.579010 118.995911 -0.000014 0.505440
-66.189957 118.361023 -0.000012 0.512322
-67.376823 117.893272 -0.000010 0.608133
-53.229294 123.295357 7.793262 0.820005
-53.039288 123.368713 7.039160 0.678431
-53.039284 123.368713 6.245344 0.678431
-53.039291 123.368713 5.460927 0.678431
-53.039291 123.368713 4.684093 0.678431
-53.229298 123.295357 3.896388 0.624079
-53.159298 123.322380 3.139891 0.094118
-53.159294 123.322380 2.379692 0.086091
-53.159294 123.322380 1.620307 0.080537
-53.159298 123.322380 0.860108 0.086275
-53.229301 123.295349 0.103612 0.542535
-58.586567 121.227112 -0.000024 0.526421
-62.227020 119.821671 -0.000018 0.518624
-64.551125 118.924423 -0.000015 0.525292
-66.166458 118.300797 -0.000012 0.527276
-67.356567 117.841347 -0.000010 0.529244
-53.229294 123.122742 7.777833 0.505638
-53.039288 123.194572 7.025738 0.678431
-53.039291 123.194572 6.234034 0.678431
-53.039291 123.194572 5.451708 0.678431
-53.039288 123.194572 4.676944 0.678431
-53.229301 123.122734 3.891335 0.575418
-53.134300 123.158653 3.138169 0.678431
-53.134300 123.158653 2.379119 0.678431
-53.134300 123.158653 1.620882 0.678431
-53.134300 123.158653 0.861831 0.678431
-53.229301 123.122734 0.108664 0.471595
-58.543247 121.113731 -0.000024 0.529107
-62.193428 119.733742 -0.000018 0.542855
-64.523743 118.852737 -0.000014 0.536614
-66.143387 118.240410 -0.000012 0.547066
-67.336678 117.789276 -0.000010 0.535897
-53.229298 122.951035 7.762761 0.864042
-53.229301 122.951027 6.968870 0.791791
-53.229301 122.951027 6.186125 0.870588
-53.229301 122.951027 5.412651 0.798520
-53.229305 122.951027 4.646653 0.862501
-53.229301 122.951027 3.886403 0.788205
-53.134300 122.986191 3.135200 0.678431
-53.134300 122.986191 2.378130 0.678431
-53.134300 122.986191 1.621870 0.678431
-53.134300 122.986191 0.864800 0.678431
-53.229301 122.951027 0.113596 0.749142
-58.500725 121.000053 -0.000024 0.540139
-62.160446 119.645576 -0.000018 0.538003
-64.496849 118.780861 -0.000015 0.516609
-66.120743 118.179855 -0.000012 0.524132
-67.317146 117.737061 -0.000010 0.541772
-53.229301 122.780205 7.748050 0.892058
-53.229301 122.780205 6.956185 0.612039
-53.229301 122.780205 6.175439 0.739910
-53.229301 122.780205 5.403939 0.618296
-53.229301 122.780205 4.639896 0.878264
-53.229301 122.780205 3.881588 0.619699
-53.134296 122.814613 3.132302 0.678431
-53.134300 122.814613 2.377165 0.678431
-53.134300 122.814613 1.622836 0.678431
-53.134296 122.814613 0.867698 0.678431
-53.229301 122.780205 0.118412 0.365148
-58.458996 120.886078 -0.000024 0.541207
-62.128082 119.557190 -0.000019 0.529870
-64.470474 118.708801 -0.000015 0.561242
-66.098511 118.119148 -0.000012 0.496727
-67.297981 117.684723 -0.000010 0.532616
-53.229298 122.610245 7.733692 0.561868
-53.229301 122.610245 6.943806 0.540002
-53.229298 122.610245 6.165009 0.560250
-53.229301 122.610245 5.395437 0.570016
-53.229301 122.610245 4.633302 0.610956
-53.229301 122.610245 3.876887 0.577340
-53.134304 122.643906 3.129473 0.678431
-53.134308 122.643906 2.376222 0.497963
-53.134308 122.643906 1.623778 0.497963
-53.134304 122.643906 0.870526 0.497963
-53.229301 122.610245 0.123113 0.669322
-58.418060 120.771820 -0.000024 0.536889
-62.096336 119.468575 -0.000019 0.539193
-64.444588 118.636566 -0.000015 0.537346
-66.076706 118.058289 -0.000012 0.540444
-67.279175 117.632240 -0.000011 0.549599
-53.229301 122.441124 7.719681 0.550317
-53.229305 122.441124 6.931725 0.495247
-53.229309 122.441124 6.154831 0.517906
-53.229305 122.441124 5.387141 0.421469
-53.229305 122.441124 4.626868 0.608743
-53.229301 122.441124 3.872302 0.556130
-53.134296 122.474037 3.126714 0.678431
-53.134300 122.474037 2.375304 0.678431
-53.134300 122.474037 1.624697 0.678431
-53.134296 122.474037 0.873285 0.678431
-53.229301 122.441124 0.127698 0.413474
-58.377922 120.657280 -0.000025 0.544350
-62.065208 119.379738 -0.000019 0.508553
-64.419212 118.564148 -0.000015 0.517617
-66.055328 117.997276 -0.000012 0.538964
-67.260742 117.579636 -0.000010 0.576043
-53.229301 122.272820 7.706020 0.580179
-53.229309 122.272820 6.919944 0.557168
-53.229309 122.272820 6.144907 0.573449
-53.229309 122.272820 5.379049 0.429557
-53.229305 122.272820 4.620594 0.691691
-53.229305 122.272820 3.867829 0.542947
-53.134285 122.304993 3.124023 0.462593
-53.134285 122.305000 2.374407 0.449729
-53.134289 122.304993 1.625593 0.480232
-53.134289 122.304993 0.875976 0.482475
-53.229305 122.272820 0.132170 0.761517
-58.338593 120.542450 -0.000025 0.535576
-62.034706 119.290688 -0.000019 0.550057
-64.394348 118.491547 -0.000015 0.543175
-66.034378 117.936119 -0.000012 0.544884
-67.242683 117.526901 -0.000010 0.529397
-53.038864 122.168320 7.742946 0.608652
-53.038864 122.168320 6.951784 0.516121
-53.038864 122.168320 6.171731 0.559152
-53.038864 122.168320 5.400918 0.558206
-53.038864 122.168320 4.637553 0.599573
-53.038864 122.168320 3.879916 0.583825
-52.751785 122.263321 3.141192 0.518654
-52.751781 122.263321 2.380126 0.520806
-52.751785 122.263321 1.619874 0.529809
-52.751785 122.263321 0.858807 0.527794
-53.038872 122.168320 0.120084 0.550790
-58.300056 120.427361 -0.000025 0.528267
-62.004822 119.201431 -0.000019 0.543465
-64.369987 118.418785 -0.000015 0.550469
-66.013855 117.874817 -0.000013 0.540932
-67.224983 117.474045 -0.000010 0.492058
-52.518383 122.168320 7.866860 0.446372
-52.518379 122.168320 7.058629 0.394095
-52.518379 122.168320 6.261746 0.512825
-52.518383 122.168320 5.474298 0.430838
-52.518379 122.168320 4.694464 0.440543
-52.518379 122.168320 3.920480 0.396109
-52.278252 122.245926 3.163038 0.223026
-52.278252 122.245926 2.387402 0.122606
-52.278252 122.245926 1.612597 0.222385
-52.278255 122.245926 0.836962 0.074510
-52.518433 122.168304 0.079524 0.452293
-58.262329 120.312004 -0.000025 0.535332
-61.975563 119.111961 -0.000018 0.544076
-64.346130 118.345848 -0.000015 0.569604
-65.993759 117.813370 -0.000012 0.512078
-67.207657 117.421066 -0.000011 0.505257
-51.974899 122.168320 7.996544 0.694224
-51.974899 122.168320 7.170448 0.634577
-51.974899 122.168320 6.355949 0.515923
-51.974907 122.168320 5.551097 0.588739
-51.974899 122.168320 4.754024 0.571099
-51.974903 122.168320 3.962931 0.663264
-51.673851 122.263298 3.191583 0.678431
-51.673851 122.263298 2.396911 0.678431
-51.673851 122.263298 1.603090 0.678431
-51.673847 122.263298 0.808417 0.678431
-51.974907 122.168320 0.037068 0.541802
-58.225407 120.196381 -0.000025 0.539254
-61.946930 119.022293 -0.000019 0.530999
-64.322784 118.272751 -0.000015 0.537987
-65.974098 117.751785 -0.000013 0.527535
-67.190697 117.367966 -0.000010 0.542153
-51.406910 122.168297 8.132376 0.716228
-51.406914 122.168297 7.287564 0.473640
-51.031693 122.283798 6.526052 0.634424
-51.031693 122.283798 5.689770 0.725109
-51.031693 122.283798 4.861570 0.655726
-51.406906 122.168297 4.007394 0.536171
-51.098351 122.263283 3.218575 0.678431
-51.098358 122.263275 2.405901 0.678431
-51.098354 122.263275 1.594099 0.678431
-51.098351 122.263283 0.781425 0.678431
-51.492699 122.141891 -0.000035 0.532921
-58.189297 120.080505 -0.000025 0.522347
-61.918922 118.932426 -0.000019 0.517357
-64.299957 118.199486 -0.000015 0.545235
-65.954865 117.690063 -0.000012 0.543847
-67.174118 117.314743 -0.000011 0.538720
-50.812527 122.168282 8.274823 0.554971
-50.812538 122.168282 7.410387 0.561227
-50.812531 122.168282 6.558092 0.750027
-50.812527 122.168282 5.715891 0.878920
-50.812531 122.168282 4.881827 0.516152
-50.812531 122.168282 4.054023 0.528222
-50.496025 122.263290 3.246886 0.678431
-50.496021 122.263298 2.415332 0.678431
-50.496021 122.263298 1.584668 0.678431
-50.496029 122.263290 0.753114 0.678431
-51.443165 121.978966 -0.000035 0.527489
-58.153996 119.964378 -0.000024 0.547539
-61.891541 118.842369 -0.000019 0.550546
-64.277634 118.126068 -0.000015 0.533898
-65.936058 117.628212 -0.000012 0.535760
-67.157898 117.261414 -0.000011 0.547936
-50.189720 122.168297 8.424397 0.340566
-50.189728 122.168297 7.539357 0.465080
-50.189728 122.168297 6.666745 0.433875
-50.189716 122.168304 5.804467 0.571420
-50.189720 122.168297 4.950522 0.741009
-50.189720 122.168297 4.102986 0.528145
-49.865028 122.263306 3.276607 0.669551
-49.865036 122.263306 2.425232 0.664561
-49.865036 122.263306 1.574768 0.664561
-49.865028 122.263306 0.723393 0.678431
-51.394775 121.815697 -0.000035 0.535454
-58.119507 119.848007 -0.000025 0.515389
-61.864792 118.752121 -0.000019 0.533257
-64.255829 118.052498 -0.000015 0.504524
-65.917686 117.566231 -0.000013 0.547951
-67.142059 117.207970 -0.000010 0.572106
-48.869965 122.358299 8.755205 0.502571
-49.536461 122.168320 7.674911 0.736797
-48.869980 122.358292 6.907046 0.591333
-48.869980 122.358292 6.000365 0.496986
-48.869972 122.358299 5.102451 0.507912
-49.536453 122.168320 4.154449 0.610513
-49.290882 122.238319 3.303365 0.073243
-49.290886 122.238319 2.434145 0.074189
-49.290886 122.238319 1.565855 0.085237
-49.290886 122.238319 0.696635 0.102968
-51.347527 121.652092 -0.000035 0.529915
-58.085823 119.731400 -0.000025 0.522560
-61.838676 118.661690 -0.000019 0.526497
-64.234535 117.978767 -0.000015 0.541894
-65.899742 117.504120 -0.000013 0.571694
-67.126595 117.154419 -0.000011 0.546288
-48.797905 122.182907 8.760687 0.807843
-48.850571 122.168297 7.817514 0.516823
-48.797894 122.182915 6.911031 0.564218
-48.797897 122.182907 6.003615 0.563973
-48.797897 122.182907 5.104971 0.406775
-48.850571 122.168297 4.208586 0.450248
-48.508190 122.263306 3.340713 0.678431
-48.508190 122.263306 2.446585 0.678431
-48.508190 122.263306 1.553415 0.678431
-48.508186 122.263306 0.659287 0.678431
-51.301414 121.488167 -0.000035 0.547646
-58.052959 119.614563 -0.000025 0.545998
-61.813187 118.571075 -0.000019 0.543725
-64.213760 117.904900 -0.000015 0.529915
-65.882240 117.441887 -0.000012 0.556283
-67.111504 117.100754 -0.000010 0.621790
-48.129211 122.168289 8.921276 0.713024
-48.129211 122.168282 7.967784 0.704860
-48.129211 122.168282 7.027682 0.656550
-48.129211 122.168282 6.098713 0.696712
-48.129211 122.168282 5.178722 0.639323
-48.129219 122.168282 4.265635 0.742763
-47.777367 122.263283 3.375341 0.678431
-47.777367 122.263283 2.458119 0.677028
-47.777367 122.263283 1.541880 0.677028
-47.777367 122.263283 0.624658 0.676966
-51.256451 121.323921 -0.000035 0.540383
-58.020912 119.497498 -0.000025 0.528267
-61.788334 118.480286 -0.000019 0.556664
-64.193497 117.830887 -0.000015 0.493111
-65.865173 117.379532 -0.000013 0.529213
-67.096786 117.046989 -0.000010 0.581064
-47.369568 122.168274 9.105149 0.504845
-47.369576 122.168274 8.126328 0.723262
-47.369591 122.168274 7.161247 0.749081
-47.369576 122.168274 6.207602 0.432242
-47.369579 122.168274 5.263170 0.640269
-47.369576 122.168274 4.325825 0.657893
-47.102947 122.238274 3.407042 0.087510
-47.102943 122.238274 2.468679 0.089174
-47.102947 122.238274 1.531321 0.085939
-47.102951 122.238266 0.592958 0.074220
-51.212631 121.159370 -0.000036 0.539940
-57.989685 119.380219 -0.000025 0.534127
-61.764114 118.389328 -0.000019 0.535393
-64.173752 117.756737 -0.000015 0.531807
-65.848541 117.317062 -0.000013 0.536980
-67.082443 116.993126 -0.000011 0.527474
-46.564194 122.169342 9.300520 0.424750
-46.568390 122.168266 8.293848 0.639765
-46.568394 122.168266 7.302379 0.524742
-46.564190 122.169342 6.323299 0.535210
-46.564186 122.169342 5.352898 0.544366
-46.568386 122.168274 4.389424 0.678920
-46.311947 122.233681 3.444606 0.150729
-46.311947 122.233681 2.481191 0.154528
-46.311943 122.233681 1.518809 0.178393
-46.311943 122.233681 0.555393 0.088304
-51.169968 120.994507 -0.000035 0.543816
-57.959274 119.262711 -0.000025 0.542763
-61.740532 118.298203 -0.000019 0.514122
-64.154526 117.682442 -0.000015 0.536660
-65.832344 117.254471 -0.000013 0.492287
-67.068474 116.939163 -0.000011 0.509834
-45.722160 122.168259 9.505011 0.713741
-45.722160 122.168259 8.471104 0.489021
-45.722153 122.168259 7.451715 0.850614
-45.722157 122.168259 6.444396 0.561837
-45.722153 122.168259 5.446815 0.560510
-45.722153 122.168259 4.456718 0.573297
-45.338570 122.263260 3.491336 0.657710
-45.338562 122.263260 2.496757 0.662257
-45.338562 122.263260 1.503243 0.662257
-45.338570 122.263260 0.508663 0.678431
-51.128456 120.829361 -0.000035 0.542473
-57.929688 119.145004 -0.000025 0.545602
-61.717583 118.206909 -0.000019 0.546715
-64.135818 117.608025 -0.000015 0.521767
-65.816582 117.191772 -0.000013 0.548074
-67.054886 116.885101 -0.000011 0.571664
-44.330406 122.287514 9.850775 0.649607
-44.330399 122.287514 8.769236 0.513802
-44.826691 122.168282 7.610008 0.472480
-44.330402 122.287514 6.649154 0.471763
-44.330406 122.287514 5.605612 0.515312
-44.330406 122.287514 4.569902 0.503029
-44.431084 122.263329 3.534649 0.678431
-44.431084 122.263329 2.511184 0.678431
-44.431084 122.263329 1.488815 0.678431
-44.431084 122.263329 0.465350 0.678431
-51.088097 120.663925 -0.000035 0.533639
-57.900921 119.027092 -0.000025 0.534539
-61.695274 118.115463 -0.000019 0.545495
-64.117630 117.533470 -0.000015 0.517617
-65.801254 117.128967 -0.000013 0.531075
-67.041672 116.830948 -0.000010 0.552880
-43.877556 122.168312 9.954289 0.505867
-43.877563 122.168312 8.858486 0.448310
-43.877556 122.168312 7.778073 0.580575
-43.877548 122.168312 6.710455 0.759686
-43.877548 122.168312 5.653153 0.584146
-43.877548 122.168312 4.603786 0.522377
-43.469582 122.263321 3.580617 0.678431
-43.469582 122.263321 2.526496 0.678431
-43.469582 122.263321 1.473504 0.678431
-43.469582 122.263321 0.419383 0.678431
-51.048897 120.498207 -0.000035 0.536263
-57.872978 118.908974 -0.000025 0.531563
-61.673603 118.023865 -0.000019 0.549523
-64.099968 117.458801 -0.000015 0.526879
-65.786377 117.066055 -0.000013 0.556085
-67.028839 116.776703 -0.000011 0.564446
-42.870171 122.168259 10.200246 0.631540
-42.870171 122.168259 9.070562 0.745388
-42.870167 122.168259 7.956739 0.585321
-42.870163 122.168259 6.856108 0.403784
-42.870163 122.168259 5.766115 0.693538
-42.870174 122.168259 4.684299 0.518791
-42.448826 122.263283 3.629496 0.678431
-42.448830 122.263283 2.542778 0.678431
-42.448830 122.263283 1.457223 0.678431
-42.448826 122.263283 0.370504 0.678431
-51.010834 120.332230 -0.000036 0.545495
-57.845863 118.790672 -0.000026 0.538674
-61.652573 117.932114 -0.000019 0.552514
-64.082825 117.384003 -0.000016 0.520424
-65.771927 117.003044 -0.000013 0.522148
-67.016388 116.722374 -0.000011 0.536522
-41.797890 122.168312 10.462466 0.438544
-41.797886 122.168320 9.296658 0.525856
-41.797897 122.168312 8.147217 0.736706
-41.797909 122.168312 7.011390 0.640101
-41.797901 122.168312 5.886542 0.457282
-41.797905 122.168312 4.770133 0.520684
-41.400852 122.254951 3.679669 0.185657
-41.400856 122.254951 2.559489 0.149050
-41.400856 122.254951 1.440511 0.202640
-41.400852 122.254951 0.320331 0.094118
-50.973953 120.165985 -0.000036 0.545876
-57.819569 118.672180 -0.000025 0.541894
-61.632183 117.840218 -0.000019 0.527123
-64.066200 117.309082 -0.000015 0.561212
-65.757927 116.939926 -0.000013 0.531258
-67.004318 116.667953 -0.000011 0.528618
-40.654869 122.168343 10.742410 0.553124
-40.654858 122.168350 9.538039 0.676356
-40.654854 122.168350 8.350575 0.741039
-40.654854 122.168350 7.177174 0.623178
-40.654854 122.168350 6.015115 0.526421
-40.654861 122.168350 4.861773 0.670512
-40.180649 122.268364 3.738417 0.090120
-40.204483 122.263336 2.578660 0.673869
-40.204483 122.263336 1.421340 0.674830
-40.204487 122.263336 0.262779 0.688182
-50.938232 119.999481 -0.000036 0.526482
-57.794113 118.553505 -0.000025 0.548714
-61.612438 117.748184 -0.000019 0.539178
-64.050102 117.234055 -0.000015 0.513817
-65.744370 116.876717 -0.000013 0.559472
-66.992622 116.613449 -0.000011 0.574044
-39.434017 122.168289 11.041851 0.570932
-39.434021 122.168289 9.796226 0.471183
-39.434021 122.168289 8.568089 0.653895
-39.434021 122.168289 7.354499 0.406897
-39.434021 122.168289 6.152636 0.500725
-39.434013 122.168289 4.959792 0.543694
-38.892319 122.278595 3.800495 0.559792
-38.967434 122.263298 2.598481 0.678431
-38.967434 122.263298 1.401518 0.678431
-39.090214 122.238297 0.209427 0.092409
-50.903664 119.832741 -0.000036 0.539300
-57.769474 118.434662 -0.000025 0.546334
-61.593338 117.656013 -0.000019 0.547219
-64.034523 117.158920 -0.000015 0.529946
-65.731247 116.813416 -0.000013 0.517922
-66.981308 116.558868 -0.000011 0.496773
-38.126083 122.168312 11.363113 0.573007
-37.629181 122.265884 10.182600 0.483314
-37.629189 122.265884 8.893597 0.325948
-38.126095 122.168312 7.544744 0.503166
-37.629189 122.265884 6.358436 0.572137
-37.629192 122.265884 5.106477 0.597330
-38.126087 122.168312 3.836344 0.599603
-37.642277 122.263313 2.619745 0.678431
-37.642277 122.263313 1.380255 0.678431
-37.769478 122.238342 0.145802 0.391058
-50.870270 119.665756 -0.000036 0.539895
-57.745667 118.315651 -0.000026 0.535927
-61.574871 117.563713 -0.000019 0.528115
-64.019478 117.083672 -0.000015 0.560067
-65.718567 116.750023 -0.000013 0.539055
-66.970375 116.504211 -0.000011 0.520699
-36.722126 122.168251 11.708429 0.601495
-36.722134 122.168251 10.370974 0.684886
-36.722141 122.168251 9.052296 0.690288
-36.722130 122.168251 7.749238 0.589609
-36.722145 122.168251 6.458772 0.509361
-36.722134 122.168251 5.177991 0.506600
-36.722141 122.168251 3.904068 0.594476
-36.249008 122.257736 2.642115 0.151110
-36.249004 122.257736 1.357884 0.086275
-36.721741 122.168327 0.095911 0.573999
-50.838039 119.498550 -0.000036 0.539467
-57.722702 118.196465 -0.000026 0.554330
-61.557060 117.471283 -0.000019 0.540948
-64.004959 117.008324 -0.000015 0.529076
-65.706329 116.686546 -0.000013 0.547448
-66.959824 116.449471 -0.000011 0.561837
-35.209728 122.168350 12.080918 0.661662
-35.209728 122.168350 10.692146 0.656718
-35.209740 122.168343 9.322875 0.665171
-35.209743 122.168343 7.969821 0.631754
-35.209740 122.168343 6.629847 0.673777
-35.209732 122.168350 5.299924 0.541131
-35.209736 122.168343 3.977123 0.415641
-34.745434 122.252808 2.666293 0.258030
-34.745430 122.252808 1.333707 0.256489
-35.209869 122.168320 0.022883 0.463539
-50.806980 119.331116 -0.000036 0.543557
-57.700562 118.077133 -0.000026 0.544518
-61.539890 117.378738 -0.000019 0.556237
-63.990959 116.932869 -0.000015 0.545419
-65.694534 116.622978 -0.000013 0.550637
-66.949661 116.394669 -0.000011 0.576364
-33.577370 122.168304 12.483455 0.682017
-33.350945 122.207863 11.088874 0.743343
-33.350960 122.207863 9.657104 0.567620
-33.577366 122.168304 8.208202 0.608011
-33.350956 122.207863 6.841160 0.493874
-33.350948 122.207863 5.450538 0.665751
-33.577366 122.168304 4.056071 0.564355
-33.176731 122.238297 2.691522 0.092882
-33.176731 122.238297 1.308477 0.161990
-34.700466 121.972099 -0.000062 0.541115
-50.777092 119.163467 -0.000036 0.532128
-57.679253 117.957642 -0.000026 0.535225
-61.523369 117.286064 -0.000020 0.548196
-63.977489 116.857323 -0.000016 0.549325
-65.683197 116.559334 -0.000013 0.543297
-66.939873 116.339790 -0.000011 0.532143
-31.361065 122.243324 13.033827 0.618570
-31.808990 122.168289 11.415693 0.574624
-31.361065 122.243324 10.015082 0.459281
-31.361069 122.243324 8.534128 0.625727
-31.361057 122.243324 7.067489 0.586725
-31.361069 122.243324 5.611854 0.569482
-31.808979 122.168289 4.141702 0.682948
-31.241592 122.263336 2.722805 0.363149
-31.241592 122.263336 1.277195 0.583215
-34.652531 121.691948 -0.000062 0.542031
-50.748367 118.995621 -0.000036 0.543404
-57.658783 117.838013 -0.000026 0.536507
-61.507492 117.193291 -0.000019 0.540124
-63.964546 116.781693 -0.000015 0.542794
-65.672287 116.495613 -0.000013 0.537469
-66.930473 116.284843 -0.000011 0.548394
-29.371170 122.250946 13.526018 0.731472
-29.886486 122.168320 11.825449 0.562341
-29.371185 122.250946 10.372609 0.594491
-29.371189 122.250946 8.825595 0.657313
-29.886478 122.168320 7.233497 0.429526
-29.371185 122.250946 5.772968 0.585718
-29.886486 122.168320 4.234905 0.553582
-29.294399 122.263260 2.754250 0.569909
-29.294399 122.263260 1.245750 0.515999
-34.606548 121.411469 -0.000062 0.544213
-50.720818 118.827576 -0.000036 0.531792
-57.639153 117.718239 -0.000026 0.533639
-61.492264 117.100395 -0.000019 0.529091
-63.952133 116.705963 -0.000015 0.532677
-65.661835 116.431816 -0.000013 0.543008
-66.921455 116.229836 -0.000011 0.483391
-27.789139 122.168320 13.914310 0.689403
-27.789150 122.168320 12.272969 0.639719
-27.789135 122.168320 10.654674 0.620615
-27.789131 122.168320 9.055542 0.599329
-27.789143 122.168320 7.471866 0.529503
-27.789139 122.168320 5.900073 0.517388
-27.789139 122.168320 4.336697 0.534096
-27.603424 122.196770 2.781417 0.069337
-27.603424 122.196770 1.218583 0.322606
-34.562527 121.130669 -0.000062 0.537957
-50.694443 118.659348 -0.000037 0.538842
-57.620350 117.598328 -0.000026 0.533104
-61.477680 117.007408 -0.000020 0.549249
-63.940247 116.630150 -0.000016 0.546654
-65.651817 116.367950 -0.000012 0.512413
-66.912819 116.174767 -0.000011 0.495598
-27.702202 121.845436 13.923882 0.591379
-27.702198 121.845436 12.281221 0.717494
-27.702183 121.845436 10.661625 0.696880
-27.702198 121.845436 9.061209 0.606073
-27.702194 121.845436 7.476261 0.596750
-27.702198 121.845436 5.903206 0.596750
-27.702198 121.845436 4.338575 0.596841
-27.607212 121.859314 2.780539 0.678431
-27.607212 121.859314 1.219460 0.678431
-34.520466 120.849579 -0.000062 0.544945
-50.669243 118.490929 -0.000036 0.536599
-57.602394 117.478294 -0.000026 0.542199
-61.463753 116.914314 -0.000020 0.550439
-63.928894 116.554260 -0.000015 0.513146
-65.642250 116.304016 -0.000013 0.532723
-66.904572 116.119644 -0.000011 0.564202
-27.512203 121.536316 13.960074 0.678431
-27.702187 121.509918 12.271001 0.417212
-27.512207 121.536316 10.687913 0.678431
-27.512203 121.536316 9.082642 0.678431
-27.702187 121.509918 7.470818 0.481727
-27.512192 121.536316 5.915055 0.678431
-27.702190 121.509918 4.336251 0.497292
-27.607193 121.523117 2.779763 0.399786
-27.607193 121.523117 1.220237 0.412009
-34.480370 120.568199 -0.000062 0.535027
-50.645226 118.322342 -0.000036 0.544945
-57.585266 117.358131 -0.000026 0.536187
-61.450478 116.821121 -0.000020 0.537957
-63.918068 116.478294 -0.000016 0.487938
-65.633133 116.240013 -0.000013 0.512657
-66.896706 116.064453 -0.000011 0.563622
-27.512192 121.200089 13.948778 0.678431
-27.702187 121.175041 12.261298 0.505989
-27.512188 121.200089 10.679708 0.678431
-27.512203 121.200089 9.075951 0.678431
-27.702190 121.175041 7.465650 0.681498
-27.512192 121.200089 5.911357 0.678431
-27.702190 121.175041 4.334043 0.685420
-27.607193 121.187569 2.779028 0.508522
-27.607193 121.187569 1.220973 0.678431
-34.442249 120.286537 -0.000062 0.544686
-50.622387 118.153595 -0.000036 0.535683
-57.568985 117.237854 -0.000026 0.551553
-61.437847 116.727844 -0.000020 0.577173
-63.907772 116.402245 -0.000016 0.553826
-65.624458 116.175949 -0.000013 0.534615
-66.889229 116.009216 -0.000011 0.519326
-27.702187 120.840790 13.890124 0.612268
-27.702183 120.840790 12.252116 0.603922
-27.702198 120.840790 10.637099 0.839551
-27.702190 120.840790 9.041215 0.839979
-27.702187 120.840790 7.460757 0.839979
-27.702183 120.840790 5.892156 0.839979
-27.702187 120.840790 4.331955 0.839216
-27.607189 120.852638 2.778329 0.678431
-27.607193 120.852638 1.221670 0.678431
-34.406082 120.004623 -0.000062 0.542275
-50.600712 117.984688 -0.000036 0.539132
-57.553543 117.117470 -0.000026 0.534234
-61.425869 116.634483 -0.000020 0.549477
-63.898010 116.326134 -0.000015 0.517418
-65.616226 116.111824 -0.000013 0.552346
-66.882141 115.953926 -0.000011 0.525689
-27.702183 120.507118 13.880069 0.512093
-27.702194 120.507118 12.243443 0.635538
-27.702206 120.507118 10.629795 0.838712
-27.702194 120.507118 9.035262 0.747097
-27.702198 120.507118 7.456139 0.753521
-27.702190 120.507118 5.888865 0.759045
-27.702190 120.507118 4.329981 0.763851
-27.607204 120.518295 2.777670 0.678431
-27.607204 120.518295 1.222329 0.678431
-34.371895 119.722466 -0.000062 0.542412
-50.580231 117.815636 -0.000036 0.528328
-57.538948 116.996979 -0.000026 0.524788
-61.414547 116.541039 -0.000020 0.529198
-63.888779 116.249954 -0.000016 0.575479
-65.608452 116.047646 -0.000013 0.552224
-66.875435 115.898590 -0.000011 0.567193
-27.702187 120.173996 13.870607 0.573785
-27.702194 120.173996 12.235283 0.560784
-27.702194 120.173996 10.622923 0.560815
-27.702187 120.173996 9.029659 0.456001
-27.702183 120.173996 7.451795 0.461707
-27.702183 120.173996 5.885769 0.468437
-27.702183 120.173996 4.328127 0.474845
-27.607204 120.184494 2.777052 0.678431
-27.607204 120.184494 1.222948 0.678431
-34.339661 119.440071 -0.000062 0.544213
-50.560925 117.646446 -0.000036 0.526925
-57.525177 116.876389 -0.000026 0.543145
-61.403873 116.447510 -0.000020 0.545937
-63.880074 116.173714 -0.000016 0.516442
-65.601120 115.983414 -0.000013 0.573312
-66.869110 115.843208 -0.000011 0.553582
-27.552204 119.856911 13.899509 0.106203
-27.702198 119.841385 12.227635 0.764035
-27.552193 119.856911 10.643920 0.171695
-27.552200 119.856911 9.046778 0.070588
-27.702194 119.841385 7.447721 0.511086
-27.552193 119.856911 5.895229 0.094118
-27.702190 119.841385 4.326386 0.521813
-27.607204 119.851219 2.776470 0.678431
-27.607204 119.851219 1.223529 0.678431
-34.309422 119.157463 -0.000062 0.537301
-50.542793 117.477127 -0.000036 0.545205
-57.512264 116.755707 -0.000026 0.530510
-61.393856 116.353920 -0.000020 0.515358
-63.871910 116.097412 -0.000016 0.531182
-65.594246 115.919128 -0.000013 0.577279
-66.863182 115.787781 -0.000011 0.546090
-27.512199 119.527580 13.901273 0.678431
-27.702198 119.509254 12.220500 0.473716
-27.512196 119.527580 10.645202 0.678431
-27.512199 119.527580 9.047820 0.678431
-27.702187 119.509254 7.443921 0.705608
-27.512196 119.527580 5.895806 0.678431
-27.702198 119.509254 4.324763 0.717494
-27.607197 119.518417 2.775929 0.678431
-27.607197 119.518417 1.224070 0.678431
-34.281143 118.874649 -0.000061 0.544869
-50.525856 117.307686 -0.000037 0.542077
-57.500195 116.634933 -0.000025 0.552712
-61.384491 116.260254 -0.000020 0.535363
-63.864273 116.021057 -0.000016 0.548409
-65.587814 115.854805 -0.000013 0.513130
-66.857635 115.732315 -0.000011 0.535363
-27.512192 119.194557 13.893555 0.678431
-27.702194 119.177567 12.213872 0.650797
-27.512192 119.194557 10.639595 0.678431
-27.512192 119.194557 9.043251 0.678431
-27.702190 119.177574 7.440390 0.733379
-27.512188 119.194565 5.893281 0.678431
-27.702198 119.177567 4.323255 0.839216
-27.607197 119.186066 2.775426 0.678431
-27.607197 119.186066 1.224574 0.678431
-34.254856 118.591644 -0.000061 0.535042
-50.510094 117.138123 -0.000037 0.535195
-57.488960 116.514084 -0.000026 0.530831
-61.375778 116.166534 -0.000020 0.534661
-63.857170 115.944649 -0.000016 0.504921
-65.581825 115.790436 -0.000013 0.542885
-66.852478 115.676811 -0.000011 0.567407
-27.702206 118.846298 13.838667 0.520821
-27.702198 118.846298 12.207749 0.552056
-27.702194 118.846298 10.599726 0.741787
-27.702190 118.846298 9.010749 0.747311
-27.702194 118.846298 7.437129 0.601068
-27.702198 118.846298 5.875314 0.611231
-27.702202 118.846298 4.321864 0.763851
-27.607212 118.854126 2.774961 0.678431
-27.607212 118.854126 1.225039 0.678431
-34.230526 118.308464 -0.000061 0.545388
-50.495529 116.968460 -0.000037 0.544640
-57.478565 116.393158 -0.000026 0.535714
-61.367722 116.072746 -0.000020 0.549783
-63.850605 115.868195 -0.000016 0.570779
-65.576294 115.726021 -0.000013 0.546807
-66.847702 115.621277 -0.000011 0.523354
-27.702194 118.515419 13.832153 0.530709
-27.702194 118.515411 12.202129 0.567651
-27.702194 118.515411 10.594991 0.434592
-27.702187 118.515419 9.006889 0.442496
-27.702190 118.515419 7.434133 0.527901
-27.702202 118.515411 5.873179 0.519081
-27.702198 118.515411 4.320585 0.508431
-27.632206 118.520691 2.774125 0.094118
-27.632206 118.520691 1.225875 0.084184
-34.208157 118.025124 -0.000062 0.539605
-50.482132 116.798698 -0.000037 0.550835
-57.469025 116.272163 -0.000026 0.543526
-61.360325 115.978912 -0.000020 0.519295
-63.844574 115.791695 -0.000016 0.514961
-65.571213 115.661575 -0.000013 0.538338
-66.843323 115.565704 -0.000011 0.533532
-27.702202 118.184875 13.826220 0.566567
-27.702202 118.184875 12.197013 0.683421
-27.702194 118.184875 10.590681 0.518181
-27.702190 118.184875 9.003374 0.528725
-27.702190 118.184875 7.431409 0.585504
-27.702198 118.184875 5.871238 0.576944
-27.702198 118.184875 4.319422 0.568856
-27.607197 118.191368 2.774147 0.678431
-27.607197 118.191368 1.225854 0.678431
-34.187794 117.741631 -0.000062 0.539422
-50.469921 116.628853 -0.000037 0.542718
-57.460320 116.151100 -0.000026 0.532921
-61.353577 115.885025 -0.000020 0.546502
-63.839069 115.715157 -0.000016 0.515297
-65.566582 115.597092 -0.000013 0.530282
-66.839325 115.510109 -0.000012 0.522530
-25.644608 117.980843 14.337234 0.570672
-25.644611 117.980843 12.637630 0.635843
-25.644623 117.980843 10.961884 0.394003
-25.644634 117.980843 9.305989 0.611704
-25.539558 117.987289 7.678210 0.556008
-25.644623 117.980843 6.038513 0.515846
-25.539551 117.987289 4.424814 0.578820
-24.639874 118.042465 2.822444 0.214710
-24.639874 118.042465 1.177555 0.089220
-34.169399 117.458000 -0.000062 0.539666
-50.458908 116.458916 -0.000037 0.541848
