# This PCD file was generated using the MATLABÂ® pcwrite function
# from Computer Vision ToolboxÂ®.
# .PCD v.7 - Point Cloud Data file format
VERSION .7
FIELDS x y z intensity
SIZE 4 4 4 4
TYPE F F F F
COUNT 1 1 1 1
WIDTH 1284
HEIGHT 1
VIEWPOINT 0 0 0 1 0 0 0
POINTS 1284
DATA ascii
102.080444 23.944773 8.731628 0.678431
101.850449 23.796551 7.621412 0.479667
101.850449 23.796551 6.582739 0.547768
102.080444 23.944773 5.585582 0.678431
102.080444 23.944773 4.555624 0.678431
101.850449 23.796555 3.517740 0.424140
101.850449 23.796553 2.505553 0.925856
101.850449 23.796553 1.494448 0.527306
101.850449 23.796555 0.482259 0.462394
96.384544 20.274021 -0.000004 0.539574
90.495102 16.478540 -0.000003 0.536873
87.214996 14.364658 -0.000001 0.560311
84.197029 12.419710 0.199996 0.722637
82.887115 11.575530 0.199997 0.727230
81.922035 10.953578 0.199997 0.685313
102.080437 23.687057 9.772379 0.678431
102.080444 23.687061 8.701639 0.678431
101.850449 23.541103 7.596370 0.549828
101.850449 23.541103 6.562324 0.678431
102.080444 23.687059 5.569610 0.678431
102.080437 23.687057 4.544239 0.678431
101.850449 23.541107 3.510979 0.770855
101.850449 23.541105 2.503300 0.766384
101.850449 23.541103 1.496700 0.580468
101.850449 23.541105 0.489021 0.650797
96.476288 20.130564 -0.000004 0.553277
90.560493 16.376289 -0.000002 0.539712
87.265717 14.285360 -0.000002 0.535256
84.234238 12.361526 0.199996 0.683375
82.918465 11.526514 0.199997 0.669825
81.949059 10.911314 0.199997 0.686061
102.080429 23.431620 9.738283 0.678431
102.080437 23.431623 8.672241 0.678431
101.850449 23.287910 7.571820 0.505882
101.850449 23.287907 6.542310 0.870588
102.080429 23.431620 5.553949 0.678431
102.080429 23.431620 4.533077 0.678431
101.850456 23.287914 3.504351 0.558633
101.850449 23.287912 2.501092 0.609277
101.850449 23.287912 1.498908 0.578042
101.850456 23.287912 0.495648 0.576761
96.567039 19.986471 -0.000004 0.544625
90.625168 16.273586 -0.000002 0.530129
87.315872 14.205709 -0.000002 0.531594
84.271034 12.303086 0.199996 0.747662
82.949463 11.477279 0.199997 0.688838
81.975800 10.868863 0.199997 0.722942
101.850433 23.036903 9.637217 0.525902
101.850433 23.036907 8.585098 0.603922
101.850449 23.036915 7.547752 0.616602
101.850449 23.036915 6.522691 0.397574
101.850433 23.036907 5.507533 0.469642
101.850433 23.036907 4.499996 0.624964
101.850449 23.036919 3.497853 0.619196
101.850456 23.036919 2.498928 0.596826
101.850456 23.036919 1.501072 0.487327
101.850449 23.036917 0.502146 0.462013
96.656769 19.841743 -0.000004 0.540322
90.689133 16.170433 -0.000002 0.528756
87.365471 14.125710 -0.000002 0.565393
84.307434 12.244392 0.199996 0.733898
82.980125 11.427830 0.199997 0.748470
82.002228 10.826224 0.199997 0.707408
101.850433 22.788055 9.604742 0.869795
101.850433 22.788059 8.557098 0.543359
101.850449 22.788067 7.524163 0.478248
101.850449 22.788065 6.503459 0.532860
101.850433 22.788061 5.492619 0.500237
101.850433 22.788059 4.489364 0.557076
101.850449 22.788069 3.491483 0.447791
101.850449 22.788067 2.496806 0.626871
101.850449 22.788067 1.503194 0.601938
101.850449 22.788067 0.508516 0.456031
96.745483 19.696394 -0.000004 0.548760
90.752365 16.066835 -0.000003 0.530144
87.414520 14.045366 -0.000002 0.553658
84.343414 12.185442 0.199996 0.687068
83.010437 11.378167 0.199997 0.731014
82.028366 10.783403 0.199997 0.675227
101.850433 22.541307 9.572908 0.616632
101.850441 22.541311 8.529650 0.611368
101.850449 22.541317 7.501039 0.630152
101.850449 22.541317 6.484608 0.635294
101.850433 22.541311 5.477999 0.456336
101.850441 22.541313 4.478944 0.773648
101.850456 22.541321 3.485240 0.709590
101.850449 22.541319 2.494726 0.630152
101.850449 22.541319 1.505273 0.611444
101.850449 22.541319 0.514759 0.515267
96.833191 19.550434 -0.000004 0.543404
90.814873 15.962801 -0.000003 0.543359
87.462997 13.964684 -0.000002 0.531929
84.378983 12.126245 0.199996 0.721950
83.040405 11.328296 0.199996 0.704738
82.054207 10.740402 0.199997 0.741695
101.850433 22.296602 9.541708 0.645823
101.850433 22.296604 8.502745 0.777295
101.850449 22.296610 7.478372 0.584314
101.850449 22.296608 6.466129 0.674372
101.850433 22.296602 5.463668 0.631037
101.850441 22.296602 4.468730 0.679210
101.850456 22.296612 3.479120 0.585885
101.850456 22.296612 2.492689 0.571221
101.850456 22.296612 1.507312 0.697643
101.850456 22.296612 0.520878 0.656138
96.919868 19.403860 -0.000004 0.535546
90.876656 15.858333 -0.000003 0.549096
87.510910 13.883663 -0.000002 0.550484
85.362167 12.623005 -0.000001 0.526192
83.070023 11.278214 0.199996 0.756710
82.079742 10.697221 0.199997 0.722103
101.850441 22.053894 9.511127 0.773526
101.850449 22.053898 8.476378 0.494606
101.850449 22.053898 7.456158 0.446372
101.850449 22.053900 6.448020 0.394888
101.850449 22.053898 5.449623 0.677150
101.850441 22.053896 4.458720 0.723247
101.850449 22.053902 3.473124 0.488182
101.850449 22.053902 2.490691 0.461875
101.850449 22.053900 1.509310 0.643015
101.850449 22.053902 0.526877 0.760296
97.005524 19.256687 -0.000004 0.537987
90.937714 15.753438 -0.000003 0.516197
87.558258 13.802311 -0.000002 0.545052
85.400772 12.556684 -0.000001 0.493584
83.099297 11.227928 0.199996 0.708324
82.104980 10.653863 0.199997 0.771756
101.850441 21.813133 9.481157 0.766629
101.850449 21.813135 8.450535 0.584543
101.850449 21.813139 7.434386 0.809934
101.850449 21.813137 6.430270 0.639063
101.850441 21.813133 5.435859 0.506523
101.850449 21.813137 4.448909 0.755261
101.850456 21.813141 3.467245 0.525795
101.850449 21.813139 2.488732 0.723293
101.850449 21.813139 1.511268 0.494881
101.850449 21.813139 0.532755 0.531792
97.090157 19.108921 -0.000004 0.528817
90.998024 15.648111 -0.000003 0.540764
87.605042 13.720629 -0.000002 0.521553
85.438904 12.490097 -0.000001 0.519463
83.128204 11.177439 0.199997 0.674922
82.129913 10.610329 0.199997 0.670924
101.850449 21.574280 9.451786 0.893782
101.850441 21.574280 8.425211 0.598962
101.850449 21.574280 7.413050 0.549020
101.850449 21.574280 6.412877 0.815503
101.850441 21.574280 5.422369 0.552239
101.850449 21.574280 4.439295 0.875975
101.850456 21.574284 3.461484 0.418555
101.850449 21.574284 2.486814 0.775830
101.850449 21.574284 1.513186 0.435492
101.850449 21.574284 0.538515 0.719020
97.173752 18.960566 -0.000005 0.547616
91.057610 15.542376 -0.000003 0.529625
87.651245 13.638625 -0.000002 0.540063
85.476578 12.423244 -0.000001 0.532891
83.156769 11.126749 0.199996 0.669841
82.154541 10.566622 0.199997 0.714305
101.850449 21.337273 9.423004 0.784436
101.850449 21.337275 8.400395 0.442924
101.850449 21.337276 7.392144 0.674601
101.850449 21.337276 6.395833 0.441138
101.850449 21.337275 5.409152 0.481590
101.850449 21.337276 4.429873 0.770108
101.850449 21.337278 3.455839 0.487037
101.850449 21.337280 2.484933 0.577752
101.850449 21.337280 1.515067 0.618112
101.850449 21.337276 0.544160 0.799405
97.256310 18.811628 -0.000004 0.543786
91.116455 15.436220 -0.000003 0.535561
87.696884 13.556297 -0.000002 0.507362
85.513779 12.356129 -0.000002 0.533288
83.184975 11.075860 0.199997 0.720714
82.178864 10.522743 0.199997 0.699062
101.850449 21.102085 9.394803 0.421256
101.850449 21.102085 8.376080 0.367742
101.850449 21.102085 7.371657 0.628626
101.850449 21.102083 6.379133 0.474968
101.850449 21.102085 5.396200 0.661891
101.850449 21.102085 4.420643 0.559289
101.850449 21.102089 3.450308 0.511009
101.850456 21.102089 2.483092 0.623362
101.850449 21.102089 1.516909 0.582864
101.850449 21.102087 0.549691 0.753399
97.337822 18.662121 -0.000004 0.548333
91.174553 15.329658 -0.000003 0.562799
87.741936 13.473652 -0.000001 0.546166
85.550514 12.288754 -0.000001 0.541253
83.212830 11.024776 0.199996 0.725505
82.202873 10.478697 0.199997 0.736690
102.054428 20.977119 9.425041 0.692287
102.054428 20.977123 8.402153 0.689509
102.054428 20.977121 7.393623 0.733822
102.054420 20.977118 6.397038 0.514504
102.054428 20.977121 5.410087 0.694789
102.054428 20.977123 4.430541 0.692287
102.054428 20.977121 3.456239 0.627344
102.054428 20.977119 2.485066 0.649409
102.054428 20.977119 1.514933 0.598520
102.054428 20.977119 0.543761 0.593912
97.418297 18.512051 -0.000005 0.535958
91.231903 15.222692 -0.000003 0.542321
87.786423 13.390697 -0.000002 0.557321
85.586777 12.221127 -0.000001 0.508461
83.240326 10.973499 0.199996 0.688792
82.226585 10.434484 0.199997 0.667613
102.501099 20.977123 9.524015 0.513512
102.501106 20.977127 8.487491 0.717739
102.501091 20.977119 7.465516 0.895171
102.501091 20.977118 6.455648 0.442832
102.501106 20.977127 5.455543 0.566598
102.501114 20.977131 4.462939 0.436774
102.501083 20.977116 3.475650 0.670787
102.501091 20.977119 2.491531 0.562661
102.501091 20.977119 1.508468 0.548669
102.501083 20.977116 0.524350 0.843107
97.497711 18.361420 -0.000005 0.529641
91.288513 15.115330 -0.000003 0.529046
87.830322 13.307434 -0.000002 0.541939
85.622566 12.153248 -0.000002 0.523384
83.267464 10.922031 0.199996 0.770474
82.249985 10.390107 0.199997 0.679347
102.959885 20.977133 9.626045 0.346258
102.959885 20.977133 8.575465 0.767132
102.959862 20.977119 7.539629 0.466789
102.959854 20.977116 6.516066 0.489937
102.959885 20.977131 5.502401 0.806577
102.959892 20.977135 4.496338 0.594949
102.959854 20.977116 3.495659 0.597238
102.959862 20.977119 2.498197 0.456733
102.959862 20.977119 1.501803 0.440955
102.959854 20.977116 0.504341 0.764950
97.576080 18.210236 -0.000005 0.546181
91.344368 15.007576 -0.000003 0.548257
87.873642 13.223866 -0.000002 0.534722
85.657875 12.085121 -0.000002 0.545434
83.294235 10.870375 0.199997 0.741466
82.273071 10.345568 0.199997 0.752422
103.431297 20.977139 9.731258 0.576699
103.431297 20.977140 8.666183 0.525689
103.431259 20.977119 7.616054 0.797131
103.431267 20.977123 6.578371 0.558801
103.431297 20.977139 5.550722 0.469368
103.431305 20.977139 4.530778 0.594797
103.431259 20.977119 3.516294 0.458717
103.431259 20.977118 2.505071 0.582315
103.431259 20.977118 1.494930 0.564691
103.431259 20.977118 0.483706 0.699474
97.653381 18.058508 -0.000005 0.545922
91.399467 14.899434 -0.000003 0.542229
87.916374 13.139997 -0.000002 0.552895
85.692711 12.016747 -0.000001 0.536126
83.320648 10.818534 0.199996 0.671656
82.295845 10.300867 0.199997 0.772519
103.915924 20.977146 9.839805 0.461707
103.915932 20.977148 8.759775 0.385199
103.915878 20.977123 7.694900 0.666789
103.915878 20.977123 6.642650 0.719371
103.915924 20.977146 5.600574 0.648829
103.915932 20.977148 4.566310 0.548455
103.915863 20.977118 3.537581 0.438819
103.915863 20.977116 2.512161 0.495369
103.915863 20.977116 1.487839 0.441474
103.915863 20.977118 0.462419 0.624689
97.729630 17.906246 -0.000004 0.542870
91.453812 14.790909 -0.000003 0.550835
87.958519 13.055832 -0.000002 0.568917
85.727074 11.948133 -0.000002 0.523964
83.346703 10.766510 0.199996 0.737133
82.318306 10.256010 0.199997 0.743969
104.414383 20.977154 9.951833 0.818387
104.414383 20.977158 8.856373 0.630915
104.414314 20.977123 7.776276 0.631525
104.414314 20.977119 6.708988 0.587793
104.414383 20.977158 5.652026 0.795956
104.414383 20.977156 4.602983 0.541604
104.414307 20.977118 3.559552 0.547036
104.414307 20.977118 2.519479 0.556329
104.414307 20.977118 1.480520 0.602472
104.414307 20.977116 0.440448 0.501091
97.804825 17.753460 -0.000005 0.538994
91.507401 14.682009 -0.000003 0.543343
88.000076 12.971375 -0.000002 0.545083
85.760956 11.879282 -0.000002 0.540597
83.372391 10.714304 0.199996 0.674693
82.340454 10.210997 0.199997 0.673350
104.927307 20.977160 10.067511 0.413382
104.927315 20.977161 8.956113 0.500771
104.927246 20.977127 7.860305 0.835081
104.927238 20.977123 6.777491 0.583673
104.927315 20.977161 5.705153 0.539590
104.927307 20.977161 4.640848 0.688151
104.927223 20.977116 3.582238 0.715099
104.927216 20.977116 2.527035 0.393530
104.927216 20.977116 1.472964 0.487953
104.927223 20.977116 0.417761 0.744549
97.878929 17.600147 -0.000005 0.529854
91.560219 14.572732 -0.000003 0.541085
88.041046 12.886629 -0.000002 0.547570
85.794350 11.810195 -0.000002 0.539071
83.397713 10.661921 0.199997 0.762463
82.362289 10.165829 0.199997 0.779217
106.001648 21.234209 10.338225 0.678431
106.001648 21.234209 9.189533 0.678431
105.455322 20.977123 7.947102 0.589899
105.455315 20.977123 6.848253 0.753384
106.001648 21.234207 5.829482 0.678431
106.001640 21.234205 4.729464 0.678431
105.455292 20.977112 3.605673 0.716060
105.455299 20.977114 2.534842 0.534463
105.455299 20.977114 1.465158 0.564981
105.455292 20.977112 0.394326 0.518288
97.951965 17.446320 -0.000005 0.547127
91.612282 14.463096 -0.000003 0.536171
88.081421 12.801601 -0.000003 0.551141
85.827271 11.740877 -0.000002 0.545312
83.422668 10.609362 0.199996 0.704906
82.383804 10.120510 0.199997 0.736660
106.362167 21.144787 10.410604 0.267353
106.362167 21.144791 9.251941 0.270436
105.999306 20.977123 8.036811 0.498894
105.999313 20.977123 6.921385 0.669947
106.362183 21.144794 5.862726 0.240146
106.362183 21.144793 4.753158 0.160784
106.362175 21.144791 3.649533 0.072709
105.999290 20.977116 2.542910 0.584726
105.999290 20.977116 1.457090 0.447150
105.999283 20.977114 0.370106 0.516945
98.023941 17.291990 -0.000005 0.539651
91.663574 14.353095 -0.000003 0.551629
88.121201 12.716290 -0.000002 0.555276
85.859695 11.671329 -0.000002 0.570886
83.447258 10.556630 0.199996 0.682216
82.405014 10.075043 0.199997 0.669505
106.559975 20.977116 10.438171 0.698680
106.559975 20.977118 9.275709 0.605539
106.559998 20.977127 8.129573 0.624063
106.559990 20.977123 6.997007 0.648447
106.559982 20.977119 5.875386 0.710338
106.559982 20.977119 4.762182 0.462150
106.559982 20.977119 3.654940 0.357763
106.559967 20.977114 2.551252 0.454078
106.559967 20.977114 1.448748 0.494713
106.559967 20.977112 0.345061 0.788663
98.094826 17.137161 -0.000005 0.548150
91.714104 14.242741 -0.000003 0.527565
88.160385 12.630705 -0.000002 0.555398
85.891640 11.601559 -0.000002 0.510231
83.471481 10.503728 0.199996 0.737835
82.425896 10.029429 0.199997 0.670390
107.138214 20.977131 10.570284 0.669078
107.138206 20.977131 9.389622 0.684779
107.138199 20.977125 8.225535 0.597833
107.138199 20.977127 7.075240 0.582086
107.138214 20.977133 5.936060 0.566201
107.138214 20.977131 4.805428 0.803891
107.138214 20.977131 3.680851 0.762951
107.138168 20.977112 2.559882 0.561822
107.138168 20.977112 1.440118 0.598108
107.138168 20.977112 0.319152 0.590341
98.164627 16.981842 -0.000005 0.525490
91.763855 14.132038 -0.000003 0.532189
88.198967 12.544849 -0.000002 0.556313
85.923096 11.531567 -0.000002 0.548089
83.495331 10.450658 0.199996 0.741329
82.446457 9.983671 0.199997 0.672938
108.047043 21.113529 10.792364 0.414664
108.323288 21.234215 9.646217 0.678431
108.323288 21.234215 8.441710 0.678431
107.734833 20.977123 7.156215 0.521157
108.189789 21.175890 6.055974 0.142916
108.323303 21.234221 4.902844 0.678431
108.323296 21.234219 3.739216 0.567224
107.734802 20.977112 2.568815 0.547524
107.734802 20.977112 1.431185 0.444678
107.734795 20.977112 0.292334 0.610208
98.233353 16.826036 -0.000005 0.531060
91.812843 14.020988 -0.000004 0.546715
88.236954 12.458725 -0.000002 0.555261
85.954063 11.461355 -0.000001 0.546975
83.518814 10.397423 0.199996 0.671550
82.466705 9.937770 0.199996 0.741238
108.350822 20.977116 10.848630 0.620584
108.792511 21.166426 9.733412 0.219425
108.792519 21.166428 8.515171 0.160784
108.350845 20.977127 7.240078 0.634256
108.742157 21.144840 6.112875 0.160784
108.792511 21.166424 4.935945 0.160784
108.792519 21.166428 3.759048 0.160784
108.350800 20.977108 2.578067 0.470939
108.350800 20.977108 1.421934 0.486091
108.350800 20.977108 0.264561 0.483268
98.300980 16.669754 -0.000005 0.539513
91.861038 13.909598 -0.000004 0.533349
88.274338 12.372339 -0.000002 0.532265
85.984543 11.390931 -0.000002 0.532525
83.541916 10.344024 0.199996 0.714000
82.486633 9.891727 0.199996 0.716960
108.987228 20.977116 10.995368 0.454826
108.987320 20.977154 9.756168 0.440726
108.987320 20.977158 8.534344 0.442924
108.987259 20.977127 7.326975 0.425238
108.987305 20.977150 6.131298 0.597757
108.987305 20.977150 4.944584 0.761898
108.987312 20.977152 3.764225 0.465507
108.987206 20.977106 2.587652 0.536721
108.987206 20.977106 1.412347 0.589075
108.987198 20.977106 0.235781 0.560250
98.367516 16.513006 -0.000005 0.545525
91.908463 13.797874 -0.000003 0.549203
88.311119 12.285694 -0.000003 0.525551
86.014519 11.320294 -0.000002 0.556497
83.564651 10.290466 0.199996 0.683680
82.506233 9.845548 0.199997 0.734966
109.645126 20.977116 11.147511 0.533715
109.645157 20.977129 9.887337 0.501198
109.645172 20.977135 8.644850 0.536522
109.645164 20.977131 7.417074 0.611612
109.645164 20.977131 6.201167 0.828275
109.645164 20.977131 4.994382 0.515694
109.645164 20.977131 3.794060 0.534997
109.645111 20.977108 2.597592 0.550454
109.645111 20.977108 1.402408 0.499840
109.645111 20.977108 0.205942 0.470314
98.432953 16.355797 -0.000005 0.538598
91.955101 13.685822 -0.000003 0.532311
88.347290 12.198793 -0.000002 0.565347
86.044014 11.249452 -0.000002 0.550652
83.587013 10.236752 0.199996 0.787320
82.525513 9.799232 0.199997 0.675242
110.325714 20.977116 11.305352 0.751446
110.962090 21.234230 10.171664 0.678431
110.962097 21.234230 8.884386 0.678431
110.325745 20.977127 7.510546 0.654368
110.325745 20.977129 6.273657 0.749798
110.962097 21.234230 5.102326 0.678431
110.962097 21.234234 3.858734 0.678431
110.325684 20.977106 2.607903 0.756100
110.325684 20.977106 1.392096 0.687236
110.325684 20.977106 0.174986 0.734737
98.497292 16.198132 -0.000005 0.533654
92.000961 13.573450 -0.000003 0.538201
88.382858 12.111641 -0.000002 0.548821
86.073006 11.178404 -0.000002 0.543664
83.608994 10.182880 0.199996 0.694911
82.544464 9.752783 0.199997 0.662516
111.030220 20.977118 11.469204 0.504997
111.378540 21.115028 10.245617 0.399863
111.378548 21.115028 8.946689 0.657633
111.030258 20.977131 7.607577 0.593698
111.030258 20.977131 6.348909 0.609064
111.378548 21.115028 5.130402 0.779446
111.378555 21.115032 3.875555 0.724819
111.030197 20.977104 2.618608 0.591257
111.030197 20.977104 1.381392 0.531975
111.030190 20.977104 0.142851 0.565545
98.560532 16.040026 -0.000005 0.537942
92.046036 13.460760 -0.000003 0.572839
88.417816 12.024246 -0.000003 0.548470
86.101501 11.107156 -0.000002 0.553307
83.630608 10.128859 0.199996 0.689418
82.563095 9.706203 0.199997 0.667338
111.760025 20.977119 11.639404 0.640421
111.760063 20.977133 10.311469 0.747616
111.760063 20.977135 9.002167 0.476631
111.760063 20.977135 7.708371 0.487922
111.760063 20.977133 6.427078 0.496529
111.760063 20.977133 5.155402 0.497002
111.760056 20.977131 3.890533 0.745861
111.759979 20.977104 2.629726 0.755016
111.759979 20.977104 1.370273 0.763622
111.759987 20.977104 0.109469 0.768261
98.622665 15.881481 -0.000005 0.540780
92.090324 13.347755 -0.000003 0.538430
88.452156 11.936607 -0.000002 0.533898
86.129501 11.035710 -0.000002 0.543786
83.651833 10.074687 0.199996 0.676509
82.581406 9.659494 0.199997 0.745037
112.516579 20.977118 11.816329 0.602289
112.516663 20.977152 10.464030 0.676493
112.516663 20.977150 9.130692 0.444755
112.516617 20.977133 7.813142 0.433677
112.516617 20.977131 6.508333 0.491493
112.516663 20.977148 5.213319 0.526284
112.516655 20.977146 3.925235 0.539956
112.516541 20.977100 2.641285 0.596918
112.516541 20.977102 1.358716 0.609415
112.516525 20.977100 0.074771 0.531563
98.683685 15.722505 -0.000005 0.534386
92.133820 13.234447 -0.000004 0.542473
88.485893 11.848730 -0.000002 0.533989
86.156998 10.964069 -0.000002 0.536614
83.672684 10.020369 0.199996 0.693660
82.599380 9.612659 0.199997 0.726223
113.301468 20.977118 12.000361 0.562905
113.752518 21.144861 10.726627 0.160784
113.796021 21.161039 9.360369 0.160784
113.301514 20.977137 7.922127 0.529458
113.301514 20.977135 6.592855 0.582193
113.796013 21.161037 5.316820 0.160784
113.796021 21.161041 3.987246 0.160784
113.301422 20.977104 2.653307 0.622431
113.301422 20.977104 1.346693 0.549157
113.301422 20.977104 0.038677 0.600992
98.743599 15.563106 -0.000005 0.538628
92.176521 13.120835 -0.000004 0.539788
88.519012 11.760621 -0.000003 0.543084
86.184006 10.892241 -0.000002 0.544518
83.693153 9.965904 0.199996 0.719219
82.617035 9.565699 0.199997 0.673411
114.116379 20.977116 12.191936 0.606973
114.116379 20.977116 10.787870 0.550149
114.116287 20.977081 9.403502 0.666941
114.116440 20.977137 8.035575 0.610636
114.116440 20.977135 6.680839 0.648051
114.116302 20.977089 5.336259 0.598077
114.116302 20.977085 3.998892 0.499062
114.116333 20.977100 2.665823 0.569055
114.116333 20.977100 1.334178 0.626947
114.116333 20.977100 0.001106 0.449363
98.802399 15.403295 -0.000005 0.540459
92.218430 13.006929 -0.000004 0.539147
88.551514 11.672282 -0.000003 0.535119
86.210495 10.820224 -0.000002 0.527779
83.713249 9.911301 0.199996 0.746166
82.634354 9.518617 0.199997 0.671336
114.963181 20.977119 12.391506 0.589364
114.963181 20.977118 10.959950 0.517052
114.963219 20.977133 9.548500 0.565148
114.963226 20.977139 8.153761 0.554665
114.963234 20.977139 6.772497 0.595834
114.963211 20.977131 5.401598 0.508675
114.963211 20.977131 4.038039 0.567819
114.963120 20.977097 2.678860 0.599496
114.963120 20.977097 1.321140 0.593042
114.233932 20.717445 -0.000009 0.539376
98.860092 15.243077 -0.000005 0.532357
92.259552 12.892735 -0.000004 0.532311
88.583397 11.583717 -0.000003 0.533684
86.236496 10.748025 -0.000002 0.547066
83.732956 9.856557 0.199996 0.672557
82.651352 9.471415 0.199996 0.708476
115.843842 20.977119 12.599578 0.609049
115.843826 20.977116 11.139354 0.604150
116.302635 21.136890 9.788034 0.160784
116.302628 21.136887 8.349032 0.160784
115.843903 20.977142 6.868058 0.656977
116.302635 21.136890 5.509541 0.160784
116.302635 21.136890 4.102712 0.160784
115.843773 20.977097 2.692453 0.581277
115.843773 20.977097 1.307548 0.560937
114.328331 20.449364 -0.000009 0.544884
98.916641 15.082458 -0.000005 0.541695
92.299866 12.778255 -0.000004 0.537835
88.614662 11.494934 -0.000003 0.541115
86.261978 10.675646 -0.000002 0.537575
83.752281 9.801678 0.199996 0.722072
82.668015 9.424095 0.199997 0.729519
116.760529 20.977121 12.816689 0.542641
116.760529 20.977119 11.326557 0.552056
116.760635 20.977158 9.857369 0.668070
116.760643 20.977160 8.405558 0.434058
116.760590 20.977140 6.967771 0.500862
116.760635 20.977158 5.540784 0.654917
116.760643 20.977158 4.121431 0.530449
116.760460 20.977097 2.706637 0.630808
116.760468 20.977097 1.293364 0.603662
114.420860 20.180632 -0.000009 0.539712
98.972092 14.921452 -0.000005 0.533776
92.339371 12.663494 -0.000004 0.545800
88.645309 11.405935 -0.000003 0.551217
86.286964 10.603090 -0.000002 0.551843
83.771225 9.746664 0.199996 0.727489
82.684341 9.376661 0.199996 0.695674
118.488655 21.234278 13.247501 0.678431
117.715607 20.977118 11.522060 0.494987
118.488647 21.234274 10.170291 0.678431
118.488655 21.234276 8.660664 0.678431
117.715675 20.977142 7.071906 0.520943
118.488640 21.234272 5.681796 0.678431
118.488632 21.234272 4.205918 0.678431
117.715530 20.977093 2.721449 0.498054
117.715530 20.977095 1.278552 0.515450
114.511505 19.911259 -0.000009 0.540825
99.026405 14.760060 -0.000005 0.543557
92.378090 12.548464 -0.000004 0.528466
88.675331 11.316721 -0.000003 0.528084
86.311440 10.530361 -0.000002 0.575128
83.789787 9.691521 0.199996 0.688457
82.700348 9.329113 0.199997 0.744869
118.881943 21.032459 13.325295 0.643732
118.711624 20.977116 11.726417 0.686381
118.881966 21.032463 10.226810 0.508614
118.881943 21.032459 8.706732 0.598306
118.711700 20.977142 7.180758 0.635477
118.881958 21.032463 5.707265 0.734493
118.881958 21.032463 4.221179 0.583688
118.711548 20.977093 2.736931 0.467369
118.711548 20.977093 1.263068 0.380972
114.600288 19.641266 -0.000009 0.536980
99.079597 14.598295 -0.000005 0.535988
92.416000 12.433166 -0.000004 0.542123
88.704727 11.227304 -0.000002 0.539681
86.335411 10.457465 -0.000002 0.559701
83.807953 9.636248 0.199996 0.692317
82.716019 9.281456 0.199996 0.690654
119.751465 20.977140 13.528439 0.665782
119.751404 20.977119 11.940242 0.586938
119.751480 20.977144 10.374373 0.502678
119.751465 20.977139 8.827032 0.544640
119.751495 20.977150 7.294651 0.687221
119.751480 20.977142 5.773762 0.641947
119.751472 20.977140 4.261020 0.783612
119.751312 20.977091 2.753133 0.564370
119.751312 20.977093 1.246868 0.674464
114.687164 19.370651 -0.000009 0.542855
99.131638 14.436157 -0.000005 0.540764
92.453102 12.317604 -0.000004 0.547555
88.733505 11.137680 -0.000003 0.536217
86.358864 10.384402 -0.000002 0.533211
83.825745 9.580850 0.199996 0.685267
82.731354 9.233689 0.199997 0.669474
121.383148 21.145878 13.931094 0.600107
120.837982 20.977119 12.164180 0.614221
121.383163 21.145882 10.666865 0.694163
121.383156 21.145882 9.065481 0.521340
120.838058 20.977146 7.413931 0.650416
121.383156 21.145880 5.905568 0.569146
121.383148 21.145880 4.339990 0.435538
120.837875 20.977089 2.770099 0.505745
120.837875 20.977089 1.229901 0.775601
114.772171 19.099442 -0.000009 0.538476
99.182564 14.273664 -0.000005 0.546593
92.489395 12.201786 -0.000004 0.536736
88.761650 11.047859 -0.000003 0.533471
86.381813 10.311177 -0.000002 0.555810
83.843140 9.525329 0.199996 0.699138
82.746353 9.185817 0.199996 0.676783
121.974747 20.977142 14.060451 0.681788
121.974686 20.977119 12.398960 0.457603
121.974754 20.977142 10.760830 0.610636
121.974762 20.977142 9.142085 0.660334
121.974777 20.977148 7.538986 0.530678
121.974747 20.977142 5.947912 0.602625
121.974754 20.977142 4.365360 0.593149
121.974579 20.977087 2.787888 0.626261
121.974579 20.977089 1.212113 0.480308
114.855270 18.827646 -0.000009 0.546380
99.232353 14.110821 -0.000005 0.540093
92.524879 12.085718 -0.000004 0.549371
88.789177 10.957845 -0.000003 0.539452
86.404251 10.237794 -0.000002 0.533989
83.860153 9.469687 0.199996 0.706340
82.761024 9.137841 0.199997 0.691096
123.799988 21.163944 14.511962 0.160784
123.165207 20.977119 12.645374 0.517174
123.165207 20.977118 10.968411 0.592599
123.799988 21.163944 9.409465 0.160784
123.165321 20.977152 7.670240 0.440528
123.734863 21.144779 6.090146 0.161578
123.799973 21.163940 4.453913 0.099580
123.165085 20.977083 2.806557 0.695857
123.165085 20.977085 1.193443 0.682918
114.936470 18.555275 -0.000009 0.537499
99.281006 13.947632 -0.000005 0.542519
92.559555 11.969405 -0.000004 0.538430
88.816071 10.867640 -0.000003 0.542260
86.426170 10.164256 -0.000002 0.560876
83.876778 9.413929 0.199996 0.694072
82.775352 9.089764 0.199997 0.690806
124.413559 20.977112 14.646498 0.668803
124.413574 20.977116 12.904292 0.641581
124.413582 20.977119 11.186544 0.694865
124.413567 20.977114 9.489136 0.456580
124.413712 20.977158 7.808155 0.511498
124.413712 20.977154 6.139763 0.617288
124.413574 20.977116 4.480299 0.461952
124.413460 20.977083 2.826175 0.488716
124.413467 20.977085 1.173826 0.625345
115.015762 18.282343 -0.000009 0.544915
99.328506 13.784105 -0.000005 0.530694
92.593414 11.852852 -0.000004 0.527855
88.842323 10.777247 -0.000003 0.535882
86.447578 10.090567 -0.000002 0.546517
83.893005 9.358057 0.199996 0.751186
82.789352 9.041589 0.199996 0.760418
126.385445 21.161726 15.134362 0.819455
126.385437 21.161722 13.324941 0.594736
125.724266 20.977119 11.416021 0.661097
126.385445 21.161724 9.778044 0.512993
125.724396 20.977154 7.953241 0.571954
125.724396 20.977158 6.243174 0.594888
126.385452 21.161726 4.575981 0.624048
125.724121 20.977079 2.846812 0.551324
125.724121 20.977081 1.153188 0.536583
115.093140 18.008863 -0.000009 0.543435
99.374878 13.620255 -0.000005 0.537850
92.626465 11.736067 -0.000004 0.550362
88.867950 10.686676 -0.000002 0.531838
86.468475 10.016729 -0.000002 0.572366
83.908852 9.302072 0.199996 0.692409
82.803009 8.993317 0.199997 0.721416
127.102188 20.977123 15.295173 0.579385
127.102173 20.977121 13.463596 0.548608
127.102173 20.977119 11.657740 0.554849
127.102188 20.977123 9.873274 0.613214
127.102318 20.977158 8.106068 0.559350
127.102310 20.977158 6.352101 0.569284
127.102188 20.977123 4.607520 0.651377
127.102028 20.977079 2.868549 0.626902
127.102036 20.977081 1.131450 0.576120
115.168625 17.734854 -0.000009 0.538689
99.420097 13.456083 -0.000005 0.550515
92.658691 11.619055 -0.000004 0.531991
88.892952 10.595928 -0.000003 0.533135
86.488853 9.942749 -0.000002 0.535164
83.924301 9.245977 0.199996 0.714855
82.816330 8.944950 0.199997 0.711406
128.552765 20.977123 15.646143 0.578149
128.886566 21.065315 13.840787 0.769177
128.552734 20.977118 11.912688 0.547967
128.886551 21.065315 10.132329 0.650050
128.552902 20.977161 8.267259 0.568322
128.552917 20.977161 6.466990 0.583490
128.886566 21.065315 4.693316 0.464546
128.552582 20.977077 2.891479 0.542885
128.552597 20.977077 1.108521 0.576608
115.242180 17.460323 -0.000009 0.536171
99.464172 13.291602 -0.000005 0.545602
92.690102 11.501820 -0.000003 0.550942
88.917313 10.505008 -0.000003 0.548180
86.508713 9.868628 -0.000002 0.522362
83.939362 9.189777 0.199996 0.685802
82.829315 8.896492 0.199997 0.669749
130.082123 20.977125 16.016861 0.690974
130.082260 20.977161 14.085896 0.668910
130.082092 20.977119 12.181978 0.537377
130.082275 20.977165 10.300674 0.658427
130.082260 20.977161 8.437517 0.557549
130.082260 20.977161 6.588343 0.677150
130.082275 20.977163 4.749069 0.667781
130.081924 20.977074 2.915696 0.379797
130.081924 20.977076 1.084304 0.359625
115.313805 17.185276 -0.000009 0.544686
99.507095 13.126812 -0.000005 0.535332
92.720703 11.384367 -0.000004 0.545693
88.941040 10.413918 -0.000003 0.523003
86.528053 9.794369 -0.000002 0.529732
83.954025 9.133472 0.199996 0.688121
82.841965 8.847943 0.199996 0.669337
131.696930 20.977123 16.408989 0.433845
131.696869 20.977112 14.423964 0.625879
131.696915 20.977121 12.466830 0.752178
131.696854 20.977108 10.532857 0.723323
131.696869 20.977112 8.617588 0.400092
131.697083 20.977165 6.716706 0.692744
131.696869 20.977112 4.825964 0.598108
131.696716 20.977070 2.941313 0.508247
131.696716 20.977072 1.058687 0.589517
115.383545 16.909750 -0.000009 0.542229
99.548866 12.961731 -0.000005 0.535302
92.750473 11.266705 -0.000003 0.548699
88.964134 10.322666 -0.000003 0.520867
86.546875 9.719977 -0.000002 0.540734
83.968300 9.077067 0.199996 0.706905
82.854271 8.799309 0.199996 0.670176
133.404770 20.977121 16.824436 0.541848
133.888885 21.094242 14.889764 0.541787
133.404770 20.977121 12.768616 0.563180
133.493652 20.998621 10.792452 0.584802
133.888885 21.094240 8.865692 0.761959
133.404968 20.977171 6.852704 0.583597
133.888885 21.094240 4.931917 0.581170
133.404556 20.977070 2.968453 0.611322
133.404556 20.977070 1.031546 0.667201
115.451324 16.633736 -0.000009 0.538308
99.589485 12.796360 -0.000005 0.536324
92.779419 11.148836 -0.000003 0.540139
88.986588 10.231256 -0.000003 0.539971
86.565186 9.645457 -0.000002 0.521752
83.982178 9.020563 0.199996 0.736309
82.866234 8.750589 0.199997 0.706706
135.214157 20.977123 17.265331 0.588037
136.078079 21.179752 15.353996 0.182605
136.291046 21.229702 13.290149 0.186358
135.214157 20.977119 11.039981 0.625223
136.291046 21.229702 9.138130 0.246509
135.214371 20.977171 6.997025 0.621225
136.291046 21.229702 5.048259 0.160784
135.213928 20.977066 2.997256 0.765072
135.213928 20.977066 1.002744 0.599878
115.517189 16.357252 -0.000009 0.543313
99.628952 12.630709 -0.000005 0.531533
92.807556 11.030768 -0.000004 0.543801
89.008400 10.139688 -0.000003 0.557031
86.582962 9.570808 -0.000002 0.500237
83.995659 8.963964 0.199996 0.713588
82.877861 8.701787 0.199996 0.773663
137.134644 20.977146 17.734060 0.578347
137.134552 20.977127 15.566481 0.579446
137.134644 20.977146 13.429376 0.540536
137.134537 20.977123 11.317543 0.589517
137.134628 20.977144 9.226156 0.640055
137.134766 20.977177 7.150457 0.545266
137.134644 20.977148 5.085849 0.542580
137.134277 20.977062 3.027876 0.714214
137.134277 20.977062 0.972125 0.632303
115.581131 16.080322 -0.000009 0.543450
99.667267 12.464790 -0.000006 0.537865
92.834854 10.912508 -0.000004 0.515541
89.029579 10.047973 -0.000003 0.529885
86.600227 9.496039 -0.000002 0.555093
84.008751 8.907271 0.199996 0.662547
82.889145 8.652905 0.199996 0.744686
139.176575 20.977097 18.233219 0.647883
139.176697 20.977127 15.996923 0.549416
139.176559 20.977095 13.791966 0.596262
139.176682 20.977121 11.613175 0.685039
139.176544 20.977093 9.455403 0.594446
139.176941 20.977182 7.313872 0.579767
139.176544 20.977095 5.183746 0.548486
139.176407 20.977062 3.060487 0.638254
139.176407 20.977062 0.939512 0.630442
115.643127 15.802949 -0.000009 0.537316
99.704407 12.298603 -0.000006 0.548302
92.861336 10.794060 -0.000004 0.532876
89.050110 9.956110 -0.000003 0.555230
86.616966 9.421152 -0.000002 0.552926
84.021439 8.850490 0.199996 0.715679
82.900093 8.603946 0.199996 0.646052
141.392365 20.985537 18.776159 0.536767
141.352783 20.977125 16.456303 0.583627
141.392349 20.985535 14.186366 0.597940
141.352783 20.977121 11.928679 0.628122
141.392349 20.985535 9.704760 0.500984
141.353058 20.977184 7.488276 0.605737
141.392334 20.985531 5.290229 0.638895
141.352448 20.977055 3.095293 0.618692
141.352448 20.977055 0.904708 0.651881
115.703194 15.525150 -0.000009 0.538979
99.740387 12.132163 -0.000006 0.536156
92.886978 10.675429 -0.000004 0.535119
89.070000 9.864107 -0.000003 0.529107
86.633186 9.346148 -0.000002 0.545815
84.033737 8.793620 0.199996 0.673869
82.910690 8.554911 0.199997 0.736629
143.893478 21.021629 19.391270 0.617441
143.676666 20.977123 16.947605 0.561990
143.893494 21.021633 14.633191 0.637263
143.676651 20.977123 12.266113 0.577981
145.201035 21.290031 10.140819 0.678431
145.201019 21.290030 7.802368 0.678431
145.201050 21.290031 5.476446 0.678431
145.201035 21.290031 3.157986 0.678431
143.676834 20.977160 0.867474 0.528145
115.761322 15.246943 -0.000009 0.541924
99.775215 11.965477 -0.000006 0.539849
92.911804 10.556625 -0.000004 0.535012
89.089249 9.771969 -0.000003 0.549203
86.648880 9.271034 -0.000002 0.514595
84.045639 8.736668 0.199996 0.685771
82.920952 8.505803 0.199997 0.680781
146.394653 21.022758 20.005482 0.528756
146.164185 20.977125 17.474264 0.576059
146.394623 21.022755 15.079354 0.687343
146.164154 20.977119 12.627820 0.678950
147.450226 21.231766 10.393139 0.160784
147.450226 21.231766 7.982212 0.159564
147.450211 21.231766 5.584194 0.161349
147.450226 21.231766 3.193878 0.163119
146.164337 20.977154 0.827573 0.681712
115.817520 14.968340 -0.000010 0.541131
99.808876 11.798553 -0.000006 0.528359
92.935791 10.437648 -0.000004 0.542351
89.107857 9.679698 -0.000003 0.559640
86.664047 9.195812 -0.000002 0.511391
84.057137 8.679632 0.199996 0.737606
82.930870 8.456626 0.199996 0.670634
148.833557 20.977123 20.602993 0.524819
148.895767 20.988991 18.053885 0.615641
148.833557 20.977125 15.513397 0.680415
148.895782 20.988991 13.025909 0.605188
149.770950 21.155941 10.653549 0.182177
149.770966 21.155941 8.167818 0.188266
149.770935 21.155941 5.695398 0.176516
149.770950 21.155941 3.230919 0.193851
148.833694 20.977150 0.784693 0.596979
115.871735 14.689340 -0.000010 0.536019
99.841370 11.631394 -0.000006 0.525154
92.958954 10.318506 -0.000004 0.531044
89.125809 9.587298 -0.000003 0.560082
86.678688 9.120485 -0.000002 0.527291
84.068237 8.622518 0.199996 0.683146
82.940437 8.407379 0.199997 0.713420
151.705719 20.977127 21.310163 0.620417
151.706024 20.977180 18.650015 0.668894
151.705719 20.977127 16.027092 0.625055
151.706039 20.977184 13.435341 0.668269
151.705704 20.977123 10.868546 0.654414
153.410583 21.290028 8.463184 0.678431
153.410583 21.290028 5.872366 0.678431
153.410583 21.290028 3.289867 0.678431
151.705856 20.977150 0.738495 0.602777
115.924011 14.409975 -0.000010 0.541680
99.872696 11.464014 -0.000006 0.542382
92.981277 10.199206 -0.000004 0.541344
89.143127 9.494777 -0.000003 0.542626
86.692802 9.045059 -0.000002 0.511086
84.078941 8.565328 0.199996 0.736385
82.949669 8.358068 0.199996 0.720592
154.805023 20.977119 22.074230 0.642664
154.804886 20.977097 19.308731 0.613245
154.805023 20.977123 16.582119 0.616922
154.804871 20.977093 13.887746 0.602655
154.805023 20.977119 11.219459 0.523568
156.264252 21.234421 8.692667 0.160784
156.264252 21.234421 6.009858 0.264088
156.264252 21.234421 3.335663 0.272328
154.805176 20.977146 0.688580 0.587808
115.974335 14.130247 -0.000010 0.535805
99.902840 11.296417 -0.000005 0.546731
93.002769 10.079754 -0.000004 0.535790
89.159798 9.402135 -0.000003 0.520439
86.706390 8.969535 -0.000002 0.561028
84.089241 8.508063 0.199996 0.715099
82.958549 8.308692 0.199997 0.671061
158.900436 21.102379 23.090452 0.434623
158.472595 21.030014 20.091270 0.546120
158.159897 20.977125 17.183655 0.588052
158.900452 21.102383 14.489571 0.673426
158.159882 20.977123 11.599773 0.619425
159.685455 21.235153 8.969109 0.165759
159.685455 21.235153 6.175486 0.161913
159.685455 21.235153 3.390834 0.131380
158.160004 20.977142 0.634483 0.676478
116.022720 13.850180 -0.000010 0.540703
99.931824 11.128618 -0.000006 0.542336
93.023430 9.960154 -0.000004 0.531777
89.175819 9.309381 -0.000003 0.576837
86.719452 8.893919 -0.000002 0.526955
84.099152 8.450729 0.199996 0.708309
82.967094 8.259257 0.199996 0.745312
161.803772 20.977150 23.802820 0.657084
161.803650 20.977131 20.799189 0.651164
161.803772 20.977148 17.837780 0.530373
161.803787 20.977152 14.911424 0.620386
161.803619 20.977123 12.013328 0.636881
163.747742 21.292004 9.298491 0.350790
163.747742 21.292004 6.372831 0.309850
163.747742 21.292002 3.456570 0.313863
161.803741 20.977142 0.575656 0.595224
116.069138 13.569779 -0.000010 0.536507
99.959641 10.960619 -0.000006 0.540169
93.043251 9.840412 -0.000004 0.535348
89.191193 9.216516 -0.000003 0.527398
86.731979 8.818213 -0.000002 0.502327
84.108650 8.393328 0.199996 0.683635
82.975288 8.209764 0.199996 0.745602
165.775620 20.977121 24.785467 0.541497
165.775635 20.977123 21.646500 0.596201
166.403870 21.074379 18.667265 0.574731
165.775650 20.977127 15.493342 0.660929
165.775604 20.977119 12.464644 0.706004
166.939453 21.157291 9.555242 0.160784
166.939423 21.157288 6.526661 0.164218
166.939423 21.157290 3.507809 0.164691
165.775726 20.977137 0.511460 0.671077
116.113609 13.289063 -0.000010 0.540948
99.986282 10.792430 -0.000006 0.537697
93.062241 9.720535 -0.000004 0.533547
89.205917 9.123548 -0.000003 0.532341
86.743988 8.742422 -0.000003 0.577432
84.117752 8.335860 0.199996 0.736477
82.983131 8.160213 0.199996 0.762173
170.122818 20.977127 25.862152 0.617731
170.122849 20.977131 22.574856 0.615152
170.122833 20.977131 19.333702 0.635264
170.122803 20.977125 16.130936 0.591485
170.122864 20.977135 12.959135 0.568933
171.861725 21.233904 9.955251 0.201251
171.861725 21.233904 6.766325 0.314977
171.861694 21.233902 3.587639 0.321157
170.122894 20.977137 0.441122 0.582452
116.156113 13.008043 -0.000010 0.541131
100.011742 10.624060 -0.000006 0.547768
93.080383 9.600529 -0.000004 0.517601
89.219994 9.030478 -0.000003 0.547738
86.755463 8.666549 -0.000002 0.561379
84.126457 8.278332 0.199995 0.673457
82.990631 8.110609 0.199997 0.671077
nan nan nan 0.000000
nan nan nan 0.000000
nan nan nan 0.000000
nan nan nan 0.000000
nan nan nan 0.000000
nan nan nan 0.000000
nan nan nan 0.000000
nan nan nan 0.000000
nan nan nan 0.000000
116.196648 12.726732 -0.000010 0.537285
100.036026 10.455514 -0.000006 0.540154
93.097702 9.480398 -0.000004 0.543343
89.233414 8.937311 -0.000003 0.550973
86.766411 8.590597 -0.000003 0.531792
84.134750 8.220743 0.199996 0.691508
82.997787 8.060954 0.199997 0.721294
nan nan nan 0.000000
nan nan nan 0.000000
nan nan nan 0.000000
nan nan nan 0.000000
nan nan nan 0.000000
nan nan nan 0.000000
nan nan nan 0.000000
nan nan nan 0.000000
nan nan nan 0.000000
116.235214 12.445140 -0.000010 0.543832
100.059135 10.286800 -0.000006 0.526162
93.114166 9.360149 -0.000004 0.529107
89.246193 8.844053 -0.000003 0.540978
86.776817 8.514569 -0.000002 0.507546
84.142647 8.163097 0.199996 0.680613
83.004601 8.011250 0.199997 0.740383
nan nan nan 0.000000
nan nan nan 0.000000
nan nan nan 0.000000
nan nan nan 0.000000
nan nan nan 0.000000
nan nan nan 0.000000
nan nan nan 0.000000
nan nan nan 0.000000
nan nan nan 0.000000
116.271820 12.163291 -0.000010 0.537041
100.081070 10.117934 -0.000006 0.538674
93.129807 9.239789 -0.000004 0.549615
89.258316 8.750709 -0.000003 0.533486
86.786705 8.438473 -0.000002 0.554284
84.150146 8.105399 0.199995 0.669734
83.011063 7.961500 0.199996 0.689158
nan nan nan 0.000000
nan nan nan 0.000000
nan nan nan 0.000000
nan nan nan 0.000000
nan nan nan 0.000000
nan nan nan 0.000000
nan nan nan 0.000000
nan nan nan 0.000000
nan nan nan 0.000000
116.306458 11.881195 -0.000010 0.540749
100.101822 9.948917 -0.000005 0.540124
93.144592 9.119322 -0.000004 0.534905
89.269791 8.657282 -0.000003 0.528130
86.796059 8.362309 -0.000002 0.549767
84.157234 8.047649 0.199995 0.748012
83.017174 7.911707 0.199996 0.669490
nan nan nan 0.000000
nan nan nan 0.000000
nan nan nan 0.000000
nan nan nan 0.000000
nan nan nan 0.000000
nan nan nan 0.000000
nan nan nan 0.000000
nan nan nan 0.000000
nan nan nan 0.000000
116.339134 11.598861 -0.000010 0.536004
100.121399 9.779760 -0.000006 0.540505
93.158546 8.998755 -0.000004 0.532067
89.280609 8.563777 -0.000003 0.541619
86.804878 8.286081 -0.000002 0.534005
84.163925 7.989852 0.199995 0.735241
83.022942 7.861871 0.199996 0.681559
nan nan nan 0.000000
nan nan nan 0.000000
nan nan nan 0.000000
nan nan nan 0.000000
nan nan nan 0.000000
nan nan nan 0.000000
nan nan nan 0.000000
nan nan nan 0.000000
nan nan nan 0.000000
116.369812 11.316307 -0.000010 0.541100
100.139793 9.610472 -0.000006 0.540230
93.171646 8.878095 -0.000004 0.557046
89.290771 8.470201 -0.000003 0.546792
86.813164 8.209794 -0.000002 0.507271
84.170204 7.932009 0.199996 0.717525
83.028358 7.811997 0.199996 0.685161
nan nan nan 0.000000
nan nan nan 0.000000
nan nan nan 0.000000
nan nan nan 0.000000
nan nan nan 0.000000
nan nan nan 0.000000
nan nan nan 0.000000
nan nan nan 0.000000
nan nan nan 0.000000
116.398544 11.033546 -0.000010 0.541299
100.156998 9.441057 -0.000006 0.530129
93.183914 8.757344 -0.000004 0.544060
89.300285 8.376554 -0.000003 0.562463
86.820923 8.133451 -0.000002 0.516518
84.176086 7.874124 0.199996 0.712581
83.033424 7.762086 0.199996 0.683421
nan nan nan 0.000000
nan nan nan 0.000000
nan nan nan 0.000000
nan nan nan 0.000000
nan nan nan 0.000000
144.558243 13.310872 7.654426 0.629084
144.558228 13.310871 5.387802 0.587884
144.558243 13.310872 3.128461 0.630335
144.558243 13.310872 0.871539 0.615641
116.425278 10.750587 -0.000010 0.536614
100.173019 9.271526 -0.000005 0.545388
93.195335 8.636512 -0.000004 0.550973
89.309143 8.282843 -0.000003 0.534920
86.828140 8.057055 -0.000003 0.504738
84.181564 7.816199 0.199995 0.745083
83.038147 7.712141 0.199997 0.688228
nan nan nan 0.000000
nan nan nan 0.000000
nan nan nan 0.000000
nan nan nan 0.000000
nan nan nan 0.000000
144.746338 12.843542 7.666450 0.713207
144.746338 12.843541 5.395009 0.721508
144.746338 12.843542 3.130861 0.709804
144.746338 12.843542 0.869139 0.713741
116.450058 10.467454 -0.000010 0.542565
100.187851 9.101888 -0.000006 0.543694
93.205917 8.515602 -0.000004 0.534035
89.317352 8.189073 -0.000003 0.532738
86.834824 7.980611 -0.000002 0.534920
84.186630 7.758237 0.199996 0.761852
83.042519 7.662164 0.199996 0.688426
nan nan nan 0.000000
nan nan nan 0.000000
nan nan nan 0.000000
nan nan nan 0.000000
nan nan nan 0.000000
144.746338 12.359664 7.663266 0.752941
144.746338 12.359665 5.393103 0.776471
144.746323 12.359664 3.130226 0.768017
144.746323 12.359664 0.869774 0.774868
116.472855 10.184155 -0.000010 0.543603
100.201515 8.932152 -0.000005 0.545129
93.215652 8.394623 -0.000004 0.546715
89.324890 8.095247 -0.000003 0.543236
86.840981 7.904122 -0.000003 0.521324
84.191299 7.700242 0.199996 0.664134
83.046547 7.612158 0.199996 0.677562
nan nan nan 0.000000
nan nan nan 0.000000
nan nan nan 0.000000
nan nan nan 0.000000
nan nan nan 0.000000
144.746338 11.876305 7.660364 0.737408
144.746338 11.876305 5.391364 0.751202
144.746323 11.876305 3.129648 0.729824
144.746323 11.876305 0.870354 0.724468
116.493668 9.900702 -0.000010 0.538949
100.213989 8.762324 -0.000006 0.536858
93.224541 8.273578 -0.000004 0.546365
89.331795 8.001372 -0.000003 0.546090
86.846603 7.827592 -0.000003 0.536171
84.195557 7.642214 0.199996 0.736599
83.050217 7.562125 0.199996 0.700084
nan nan nan 0.000000
nan nan nan 0.000000
nan nan nan 0.000000
nan nan nan 0.000000
nan nan nan 0.000000
144.746338 11.393414 7.657739 0.715496
144.746338 11.393414 5.389790 0.712383
144.746338 11.393414 3.129122 0.714443
144.746338 11.393414 0.870876 0.712383
116.512505 9.617107 -0.000010 0.538598
100.225273 8.592411 -0.000005 0.545785
93.232582 8.152472 -0.000004 0.534478
89.338028 7.907450 -0.000003 0.561654
86.851692 7.751024 -0.000003 0.571664
84.199409 7.584159 0.199996 0.721965
83.053543 7.512067 0.199996 0.688243
nan nan nan 0.000000
nan nan nan 0.000000
nan nan nan 0.000000
nan nan nan 0.000000
nan nan nan 0.000000
144.746338 10.910953 7.655394 0.776471
144.726318 10.909833 5.387398 0.611765
144.746338 10.910953 3.128655 0.771237
144.746323 10.910952 0.871345 0.774746
116.529350 9.333393 -0.000010 0.539788
100.235367 8.422426 -0.000005 0.546044
93.239777 8.031316 -0.000004 0.547677
89.343605 7.813488 -0.000003 0.535027
86.856239 7.674424 -0.000002 0.550164
84.202866 7.526078 0.199995 0.712062
83.056519 7.461988 0.199996 0.686702
nan nan nan 0.000000
nan nan nan 0.000000
nan nan nan 0.000000
nan nan nan 0.000000
nan nan nan 0.000000
144.746338 10.428862 7.653325 0.741390
144.706314 10.426905 5.385177 0.286244
144.746338 10.428862 3.128242 0.754910
144.746338 10.428862 0.871758 0.760266
116.544235 9.049564 -0.000010 0.537316
100.244278 8.252373 -0.000005 0.536645
93.246132 7.910110 -0.000004 0.531151
89.348534 7.719488 -0.000003 0.537743
86.860252 7.597792 -0.000003 0.536858
84.205910 7.467975 0.199996 0.710964
83.059143 7.411889 0.199996 0.679774
nan nan nan 0.000000
nan nan nan 0.000000
nan nan nan 0.000000
nan nan nan 0.000000
nan nan nan 0.000000
144.746338 9.947103 7.651534 0.706065
144.726318 9.946264 5.385088 0.611765
144.746323 9.947102 3.127884 0.718578
144.746323 9.947102 0.872116 0.710948
116.557137 8.765641 -0.000010 0.540185
100.252007 8.082262 -0.000006 0.543526
93.251640 7.788864 -0.000004 0.549569
89.352806 7.625457 -0.000003 0.524804
86.863739 7.521135 -0.000003 0.550179
84.208542 7.409851 0.199996 0.718181
83.061424 7.361773 0.199996 0.757198
nan nan nan 0.000000
nan nan nan 0.000000
nan nan nan 0.000000
nan nan nan 0.000000
nan nan nan 0.000000
144.746338 9.465623 7.650018 0.776471
144.726318 9.464924 5.384180 0.611765
144.746338 9.465623 3.127582 0.755016
144.746338 9.465623 0.872418 0.771374
116.568054 8.481632 -0.000010 0.536400
100.258545 7.912101 -0.000005 0.542428
93.256302 7.667582 -0.000004 0.537102
89.356422 7.531397 -0.000003 0.533135
86.866684 7.444455 -0.000002 0.558831
84.210785 7.351710 0.199996 0.725582
83.063347 7.311642 0.199996 0.739330
nan nan nan 0.000000
nan nan nan 0.000000
nan nan nan 0.000000
nan nan nan 0.000000
168.172180 9.638710 12.621305 0.937255
144.746338 8.984382 7.648780 0.747997
144.706329 8.983264 5.382454 0.286244
144.746338 8.984381 3.127333 0.733028
144.746338 8.984381 0.872665 0.754269
116.576965 8.197556 -0.000010 0.543618
100.263901 7.741900 -0.000006 0.540475
93.260109 7.546270 -0.000004 0.534722
89.359375 7.437315 -0.000003 0.534722
86.869095 7.367757 -0.000003 0.545754
84.212608 7.293556 0.199996 0.678157
83.064926 7.261499 0.199996 0.747906
nan nan nan 0.000000
nan nan nan 0.000000
nan nan nan 0.000000
nan nan nan 0.000000
168.172852 8.994025 12.619570 0.968627
144.746338 8.503325 7.647816 0.715358
144.726318 8.502905 5.382861 0.611765
144.746338 8.503325 3.127144 0.744442
144.746338 8.503325 0.872858 0.716335
116.583908 7.913423 -0.000010 0.539193
100.268051 7.571664 -0.000006 0.529030
93.263077 7.424935 -0.000005 0.528099
89.361671 7.343215 -0.000003 0.555138
86.870972 7.291043 -0.000002 0.532341
84.214035 7.235390 0.199995 0.735973
83.066147 7.211346 0.199996 0.685725
nan nan nan 0.000000
nan nan nan 0.000000
nan nan nan 0.000000
nan nan nan 0.000000
168.173370 8.349522 12.618338 0.937255
