# This PCD file was generated using the MATLABÂ® pcwrite function
# from Computer Vision ToolboxÂ®.
# .PCD v.7 - Point Cloud Data file format
VERSION .7
FIELDS x y z intensity
SIZE 4 4 4 4
TYPE F F F F
COUNT 1 1 1 1
WIDTH 1181
HEIGHT 1
VIEWPOINT 0 0 0 1 0 0 0
POINTS 1181
DATA ascii
-35.310825 122.263290 3.203435 0.678431
-35.310822 122.263298 2.400859 0.678431
-35.310822 122.263298 1.599141 0.678431
-35.310825 122.263290 0.796564 0.678431
-35.334785 122.168297 -0.000565 0.587137
-37.049911 115.368073 -0.000023 0.551614
-38.004253 111.584244 -0.000018 0.529122
-38.613518 109.168602 -0.000014 0.539437
-39.036976 107.489647 -0.000012 0.533394
-39.348961 106.252670 -0.000010 0.565209
-35.158806 122.168289 8.122440 0.728420
-35.158806 122.168289 7.279000 0.902846
-35.158806 122.168282 6.447400 0.532509
-35.158802 122.168289 5.625651 0.512551
-35.158802 122.168289 4.811844 0.598215
-35.158802 122.168289 4.004143 0.382773
-35.134132 122.263298 3.205588 0.591546
-35.134132 122.263306 2.401576 0.605600
-35.134132 122.263306 1.598424 0.595529
-35.134132 122.263298 0.794412 0.601175
-35.158802 122.168297 -0.004144 0.556374
-36.932327 115.337982 -0.000023 0.522637
-37.913063 111.560905 -0.000018 0.545617
-38.539177 109.149582 -0.000014 0.525231
-38.974346 107.473618 -0.000012 0.531716
-39.294960 106.238853 -0.000010 0.545434
-34.982185 122.168289 8.133709 0.897917
-34.982185 122.168289 7.288715 0.543511
-34.982185 122.168289 6.455586 0.447272
-34.982185 122.168289 5.632324 0.703334
-34.982185 122.168289 4.817019 0.646143
-34.982185 122.168289 4.007831 0.502083
-34.956802 122.263306 3.207807 0.678431
-34.956806 122.263306 2.402314 0.678431
-34.956806 122.263306 1.597685 0.678431
-34.956802 122.263306 0.792193 0.678431
-34.982182 122.168304 -0.007833 0.504555
-36.814957 115.307068 -0.000023 0.558877
-37.822037 111.536934 -0.000018 0.551797
-38.464970 109.130035 -0.000014 0.512001
-38.911831 107.457153 -0.000012 0.533547
-39.241055 106.224655 -0.000010 0.557931
-34.804909 122.168289 8.145317 0.880583
-34.804905 122.168289 7.298726 0.811917
-34.804905 122.168289 6.464019 0.413596
-34.804905 122.168289 5.639199 0.724208
-34.804905 122.168289 4.822351 0.891936
-34.804905 122.168289 4.011631 0.501518
-34.778812 122.263306 3.210093 0.678431
-34.778812 122.263306 2.403076 0.678431
-34.778812 122.263306 1.596924 0.678431
-34.778812 122.263306 0.789906 0.678431
-34.842365 122.031876 -0.000033 0.532784
-36.697807 115.275337 -0.000023 0.539132
-37.731182 111.512321 -0.000018 0.553262
-38.390903 109.109970 -0.000014 0.563378
-38.849430 107.440254 -0.000012 0.512840
-39.187252 106.210083 -0.000010 0.500099
-34.626945 122.168289 8.157272 0.671382
-34.626945 122.168289 7.309035 0.399161
-34.626945 122.168289 6.472704 0.611704
-34.626945 122.168289 5.646277 0.512825
-34.626945 122.168289 4.827840 0.856336
-34.626945 122.168289 4.015544 0.448524
-34.600140 122.263290 3.212447 0.678431
-34.600140 122.263290 2.403861 0.678431
-34.600140 122.263290 1.596140 0.678431
-34.600140 122.263290 0.787553 0.678431
-34.678314 121.986214 -0.000033 0.541878
-36.580879 115.242783 -0.000023 0.543572
-37.640503 111.487076 -0.000018 0.517647
-38.316978 109.089394 -0.000014 0.538781
-38.787151 107.422920 -0.000012 0.532464
-39.133553 106.195129 -0.000010 0.539498
-34.448284 122.168289 8.169575 0.672480
-34.448280 122.168289 7.319642 0.497353
-34.448280 122.168289 6.481640 0.704982
-34.448280 122.168289 5.653563 0.530510
-34.448280 122.168289 4.833490 0.394430
-34.448280 122.168289 4.019571 0.468544
-34.420761 122.263290 3.214869 0.678431
-34.420761 122.263290 2.404667 0.678431
-34.420761 122.263290 1.595333 0.678431
-34.420761 122.263290 0.785130 0.678431
-34.514587 121.939407 -0.000033 0.542870
-36.464184 115.209427 -0.000023 0.544472
-37.549999 111.461205 -0.000018 0.548913
-38.243195 109.068298 -0.000014 0.564279
-38.724995 107.405144 -0.000012 0.540230
-39.079960 106.179810 -0.000010 0.556725
-34.268894 122.168289 8.182230 0.553964
-34.268894 122.168289 7.330552 0.500435
-34.268894 122.168289 6.490832 0.678431
-34.268894 122.168289 5.661057 0.531243
-34.268894 122.168289 4.839302 0.444068
-34.268894 122.168297 4.023714 0.391745
-34.240658 122.263290 3.217360 0.678431
-34.240654 122.263290 2.405498 0.678431
-34.240654 122.263290 1.594503 0.678431
-34.240654 122.263290 0.782639 0.678431
-34.351192 121.891449 -0.000033 0.547860
-36.347725 115.175240 -0.000023 0.536233
-37.459679 111.434700 -0.000018 0.540032
-38.169567 109.046692 -0.000014 0.527871
-38.662960 107.386940 -0.000012 0.539757
-39.026474 106.164108 -0.000010 0.542229
-34.088757 122.168297 8.195238 0.626123
-34.088757 122.168297 7.341769 0.557870
-34.088757 122.168297 6.500281 0.555611
-34.088757 122.168289 5.668761 0.488899
-34.088760 122.168289 4.845277 0.701656
-34.088757 122.168297 4.027972 0.529122
-34.067413 122.238304 3.218639 0.094118
-34.067413 122.238297 2.405923 0.094118
-34.067413 122.238297 1.594077 0.094118
-34.067413 122.238312 0.781361 0.086275
-34.188129 121.842361 -0.000033 0.540078
-36.231503 115.140251 -0.000023 0.542382
-37.369545 111.407562 -0.000018 0.564416
-38.096085 109.024567 -0.000014 0.560693
-38.601055 107.368301 -0.000012 0.531548
-38.973095 106.148041 -0.000010 0.529549
-33.907860 122.168289 8.208601 0.647608
-33.907856 122.168297 7.353294 0.470832
-33.848473 122.358307 6.546214 0.678431
-33.848476 122.358299 5.706206 0.678431
-33.848476 122.358299 4.874316 0.678431
-33.907860 122.168289 4.032347 0.660761
-33.878166 122.263298 3.222555 0.678431
-33.878166 122.263298 2.407228 0.678431
-33.878166 122.263298 1.592773 0.678431
-33.878166 122.263298 0.777445 0.678431
-34.025421 121.792130 -0.000033 0.529046
-36.115532 115.104454 -0.000024 0.558389
-37.279606 111.379791 -0.000018 0.559319
-38.022766 109.001930 -0.000014 0.531823
-38.539288 107.349228 -0.000011 0.559457
-38.919834 106.131599 -0.000010 0.542458
-33.726166 122.168289 8.222332 0.549157
-33.726166 122.168289 7.365129 0.698619
-33.665321 122.358299 6.556265 0.678431
-33.665321 122.358299 5.714400 0.678431
-33.665321 122.358299 4.880672 0.678431
-33.726166 122.168289 4.036840 0.653162
-33.695744 122.263298 3.225258 0.648173
-33.695744 122.263298 2.408127 0.638498
-33.695744 122.263298 1.591872 0.638498
-33.695744 122.263298 0.774742 0.638498
-33.863064 121.740768 -0.000033 0.537011
-35.999813 115.067841 -0.000023 0.541436
-37.189861 111.351402 -0.000017 0.522881
-37.949600 108.978783 -0.000014 0.495628
-38.477650 107.329727 -0.000011 0.565316
-38.866688 106.114784 -0.000010 0.551537
-33.543655 122.168289 8.236424 0.592844
-33.543655 122.168289 7.377282 0.678431
-33.481346 122.358299 6.566584 0.678431
-33.481346 122.358299 5.722814 0.678431
-33.481346 122.358299 4.887197 0.678431
-33.543655 122.168289 4.041453 0.520272
-33.512501 122.263298 3.228033 0.678431
-33.512497 122.263298 2.409052 0.678431
-33.512497 122.263298 1.590948 0.678431
-33.512497 122.263298 0.771967 0.678431
-33.701065 121.688271 -0.000033 0.532006
-35.884350 115.030426 -0.000023 0.545785
-37.100315 111.322380 -0.000017 0.547311
-37.876602 108.955124 -0.000014 0.487556
-38.416149 107.309799 -0.000012 0.519158
-38.813660 106.097603 -0.000010 0.540413
-33.360313 122.168282 8.250887 0.575219
-33.360313 122.168289 7.389751 0.485603
-33.350933 122.196228 6.546069 0.484077
-33.350933 122.196228 5.706088 0.816724
-33.350933 122.196228 4.874225 0.656748
-33.360313 122.168289 4.046188 0.561654
-33.326221 122.269844 3.231219 0.315969
-33.326225 122.269836 2.410114 0.245640
-33.326221 122.269836 1.589887 0.236164
-33.326221 122.269844 0.768779 0.086320
-33.539444 121.634644 -0.000033 0.531609
-35.769154 114.992203 -0.000023 0.535744
-37.010975 111.292740 -0.000018 0.549737
-37.803772 108.930962 -0.000014 0.559380
-38.354790 107.289444 -0.000011 0.578073
-38.760754 106.080048 -0.000010 0.534127
-33.176102 122.168282 8.265722 0.621973
-33.176102 122.168289 7.402543 0.554711
-33.176102 122.168289 6.551482 0.416541
-33.176102 122.168289 5.710502 0.825513
-33.176102 122.168289 4.877649 0.505348
-33.176102 122.168289 4.051045 0.536721
-33.143471 122.263298 3.233802 0.678431
-33.143471 122.263298 2.410974 0.678431
-33.143471 122.263298 1.589026 0.678431
-33.143471 122.263298 0.766197 0.678431
-33.378201 121.579880 -0.000032 0.554025
-35.654228 114.953171 -0.000023 0.537911
-36.921844 111.262474 -0.000018 0.559762
-37.731110 108.906288 -0.000014 0.549737
-38.293575 107.268654 -0.000011 0.547860
-38.707970 106.062126 -0.000010 0.524712
-32.991013 122.168289 8.280935 0.632654
-32.991013 122.168289 7.415661 0.545892
-32.991013 122.168289 6.562534 0.609705
-32.991013 122.168289 5.719511 0.440726
-32.991013 122.168289 4.884636 0.497017
-32.991013 122.168289 4.056026 0.635294
-32.957638 122.263290 3.236798 0.678431
-32.957638 122.263290 2.411972 0.678431
-32.957638 122.263290 1.588028 0.678431
-32.957638 122.263298 0.763202 0.678431
-33.217342 121.524002 -0.000032 0.541131
-35.539577 114.913345 -0.000023 0.508675
-36.832928 111.231590 -0.000018 0.537072
-37.658619 108.881111 -0.000014 0.517403
-38.232506 107.247444 -0.000012 0.538109
-38.655315 106.043831 -0.000010 0.572366
-32.805012 122.168289 8.296532 0.633921
-32.805008 122.168289 7.429108 0.559228
-32.805008 122.168289 6.573863 0.715709
-32.805008 122.168289 5.728746 0.672755
-32.805008 122.168289 4.891799 0.600015
-32.805008 122.168289 4.061130 0.647059
-32.770889 122.263290 3.239868 0.678431
-32.770889 122.263290 2.412995 0.678431
-32.770889 122.263290 1.587006 0.678431
-32.770889 122.263290 0.760131 0.678431
-33.056873 121.467010 -0.000032 0.536507
-35.425205 114.872719 -0.000023 0.544503
-36.744228 111.200081 -0.000018 0.532235
-37.586311 108.855423 -0.000014 0.528191
-38.171585 107.225800 -0.000012 0.549477
-38.602791 106.025177 -0.000010 0.491661
-32.618076 122.168289 8.312511 0.597284
-32.618076 122.168289 7.442886 0.471962
-32.618073 122.168289 6.585471 0.725612
-32.618073 122.168297 5.738211 0.527932
-32.618073 122.168289 4.899137 0.557076
-32.618076 122.168289 4.066361 0.776471
-32.583202 122.263298 3.243016 0.678431
-32.583202 122.263298 2.414042 0.678431
-32.583202 122.263298 1.585957 0.678431
-32.583202 122.263298 0.756984 0.678431
-32.896812 121.408882 -0.000032 0.537621
-35.311123 114.831299 -0.000023 0.537697
-36.655754 111.167953 -0.000017 0.555276
-37.514183 108.829231 -0.000014 0.559991
-38.110821 107.203735 -0.000012 0.547997
-38.550396 106.006149 -0.000010 0.518914
-32.430176 122.168289 8.328884 0.680827
-32.430176 122.168289 7.457004 0.688334
-32.430176 122.168289 6.597363 0.790860
-32.430176 122.168289 5.747906 0.647059
-32.430176 122.168289 4.906657 0.611978
-32.430176 122.168289 4.071720 0.713634
-32.394550 122.263290 3.246240 0.510048
-32.394550 122.263290 2.415117 0.537072
-32.394550 122.263290 1.584884 0.584222
-32.394550 122.263290 0.753760 0.584222
-32.737160 121.349648 -0.000032 0.552834
-35.197327 114.789078 -0.000022 0.538170
-36.567505 111.135208 -0.000017 0.549950
-37.442238 108.802536 -0.000014 0.540215
-38.050209 107.181252 -0.000011 0.548211
-38.498135 105.986755 -0.000010 0.535714
-32.241295 122.168289 8.345650 0.560067
-32.241295 122.168289 7.471460 0.552575
-32.241295 122.168289 6.609543 0.611734
-32.241291 122.168297 5.757835 0.721447
-32.241291 122.168289 4.914357 0.620813
-32.241291 122.168289 4.077209 0.516503
-32.204906 122.263298 3.249541 0.678431
-32.204906 122.263306 2.416216 0.678431
-32.204906 122.263306 1.583784 0.678431
-32.204906 122.263298 0.750458 0.678431
-32.577923 121.289299 -0.000032 0.541802
-35.083832 114.746063 -0.000023 0.543343
-36.479485 111.101852 -0.000017 0.511086
-37.370480 108.775345 -0.000014 0.536187
-37.989758 107.158340 -0.000011 0.547707
-38.446011 105.967010 -0.000010 0.494011
-32.051395 122.168289 8.362818 0.557183
-32.051395 122.168289 7.486263 0.609140
-31.977100 122.358299 6.659136 0.678431
-31.977100 122.358292 5.798264 0.678431
-31.977100 122.358292 4.945711 0.678431
-32.051392 122.168289 4.082829 0.569650
-32.014248 122.263290 3.252921 0.678431
-32.014248 122.263290 2.417342 0.678431
-32.014248 122.263290 1.582658 0.678431
-32.014248 122.263290 0.747078 0.678431
-32.419113 121.227844 -0.000032 0.548119
-34.970642 114.702255 -0.000023 0.536309
-36.391697 111.067879 -0.000017 0.529335
-37.298916 108.747650 -0.000014 0.508354
-37.929466 107.135010 -0.000011 0.543511
-38.394024 105.946884 -0.000010 0.552804
-31.860460 122.168289 8.380391 0.635401
-31.860458 122.168289 7.501415 0.788022
-31.784632 122.358299 6.672003 0.678431
-31.784634 122.358299 5.808754 0.678431
-31.784632 122.358299 4.953847 0.678431
-31.860456 122.168297 4.088581 0.672114
-31.822548 122.263290 3.256382 0.678431
-31.822548 122.263290 2.418494 0.678431
-31.822548 122.263290 1.581505 0.678431
-31.822548 122.263290 0.743618 0.678431
-32.260735 121.165276 -0.000032 0.540703
-34.857758 114.657669 -0.000023 0.553277
-36.304153 111.033295 -0.000017 0.526452
-37.227547 108.719460 -0.000014 0.550484
-37.869339 107.111252 -0.000011 0.567285
-38.342182 105.926407 -0.000009 0.532113
-31.668453 122.168289 8.398375 0.450996
-31.668449 122.168304 7.516922 0.629847
-31.591084 122.358299 6.685170 0.678431
-31.591084 122.358299 5.819489 0.678431
-31.591084 122.358299 4.962173 0.678431
-31.668451 122.168297 4.094467 0.662989
-31.629766 122.263298 3.259923 0.640482
-31.629768 122.263298 2.419674 0.640986
-31.629768 122.263298 1.580326 0.638605
-31.629766 122.263298 0.740077 0.638605
-32.102798 121.101608 -0.000032 0.542367
-34.745190 114.612282 -0.000022 0.529198
-36.216850 110.998100 -0.000017 0.533608
-37.156376 108.690765 -0.000014 0.513100
-37.809380 107.087082 -0.000012 0.577691
-38.290482 105.905563 -0.000009 0.557717
-31.475357 122.168297 8.416772 0.371328
-31.475353 122.168304 7.532785 0.557977
-31.405582 122.336288 6.694305 0.272419
-31.405582 122.336288 5.826934 0.288289
-31.405582 122.336288 4.967947 0.284443
-31.475355 122.168304 4.100491 0.446708
-31.435898 122.263298 3.263546 0.678431
-31.435898 122.263298 2.420881 0.678431
-31.435898 122.263298 1.579119 0.678431
-31.435898 122.263298 0.736454 0.678431
-31.945311 121.036835 -0.000032 0.533974
-34.632942 114.566116 -0.000022 0.535531
-36.129795 110.962303 -0.000017 0.553384
-37.085407 108.661575 -0.000014 0.539513
-37.749592 107.062492 -0.000011 0.546929
-38.238930 105.884361 -0.000009 0.543694
-31.281132 122.168297 8.435591 0.411307
-31.281128 122.168304 7.549012 0.384527
-31.281126 122.168312 6.674879 0.745586
-31.281128 122.168304 5.811097 0.785168
-31.281128 122.168304 4.955665 0.691707
-31.281128 122.168304 4.106650 0.542031
-31.240896 122.263290 3.267251 0.678431
-31.240894 122.263290 2.422116 0.678431
-31.240894 122.263290 1.577885 0.678431
-31.240896 122.263290 0.732750 0.678431
-31.788275 120.970970 -0.000031 0.533745
-34.521015 114.519165 -0.000022 0.530251
-36.042992 110.925888 -0.000017 0.534859
-37.014641 108.631897 -0.000014 0.578103
-37.689972 107.037491 -0.000011 0.527245
-38.187527 105.862808 -0.000010 0.516579
-31.085758 122.168297 8.454836 0.723537
-31.085754 122.168304 7.565605 0.578347
-31.085754 122.168304 6.688857 0.624659
-31.085754 122.168304 5.822494 0.705455
-31.085754 122.168304 4.964502 0.395926
-31.085754 122.168304 4.112950 0.388235
-31.044739 122.263290 3.271040 0.678431
-31.044739 122.263283 2.423377 0.632883
-31.044739 122.263283 1.576623 0.628351
-31.044739 122.263290 0.728960 0.648951
-31.631702 120.904007 -0.000032 0.540841
-34.409416 114.471443 -0.000022 0.533639
-35.956448 110.888878 -0.000017 0.563973
-36.944088 108.601723 -0.000013 0.556527
-37.630531 107.012070 -0.000011 0.540856
-38.136272 105.840881 -0.000010 0.517067
-30.889206 122.168289 8.474509 0.556313
-30.889204 122.168297 7.582569 0.824170
-30.889202 122.168304 6.703149 0.821576
-30.889202 122.168304 5.834145 0.763928
-30.889202 122.168304 4.973539 0.688792
-30.889206 122.168297 4.119390 0.390402
-30.847397 122.263290 3.274915 0.678431
-30.847397 122.263290 2.424668 0.678431
-30.847397 122.263290 1.575332 0.678431
-30.847397 122.263290 0.725085 0.678431
-31.475609 120.835945 -0.000031 0.543664
-34.298164 114.422935 -0.000022 0.541497
-35.870163 110.851257 -0.000017 0.542519
-36.873745 108.571053 -0.000013 0.559472
-37.571274 106.986229 -0.000011 0.492546
-38.085178 105.818611 -0.000010 0.501991
-30.691441 122.168289 8.494623 0.655741
-30.691435 122.168297 7.599911 0.426642
-30.691433 122.168297 6.717759 0.518746
-30.691435 122.168297 5.846055 0.432471
-30.691435 122.168297 4.982776 0.572793
-30.691437 122.168289 4.125974 0.469917
-30.657290 122.244431 3.277860 0.170962
-30.657290 122.244431 2.425649 0.162493
-30.657288 122.244438 1.574351 0.160601
-30.657290 122.244431 0.722140 0.094057
-31.319988 120.766808 -0.000031 0.543359
-34.187241 114.373657 -0.000022 0.534997
-35.784142 110.813042 -0.000017 0.518715
-36.803619 108.539894 -0.000013 0.538750
-37.512192 106.959984 -0.000011 0.504891
-38.034237 105.795975 -0.000009 0.525109
-30.492434 122.168282 8.515180 0.442252
-30.492430 122.168289 7.617636 0.591424
-30.492432 122.168289 6.732690 0.512337
-30.492428 122.168297 5.858229 0.613962
-30.492430 122.168289 4.992217 0.643748
-30.492432 122.168289 4.132703 0.900572
-30.449028 122.263290 3.282923 0.678431
-30.449028 122.263283 2.427336 0.678431
-30.449028 122.263283 1.572664 0.678431
-30.449026 122.263290 0.717076 0.678431
-31.164860 120.696571 -0.000031 0.538720
-34.076675 114.323601 -0.000022 0.551354
-35.698391 110.774216 -0.000016 0.527504
-36.733711 108.508247 -0.000013 0.537011
-37.453300 106.933319 -0.000011 0.566903
-37.983456 105.772987 -0.000009 0.544259
-30.292152 122.168282 8.536187 0.640955
-30.292149 122.168289 7.635749 0.414572
-30.292149 122.168289 6.747952 0.648737
-30.292149 122.168289 5.870669 0.572320
-30.292150 122.168289 5.001865 0.795743
-30.292152 122.168282 4.139579 0.544701
-30.247936 122.263298 3.287060 0.678431
-30.247938 122.263298 2.428714 0.678431
-30.247938 122.263298 1.571286 0.678431
-30.247936 122.263298 0.712939 0.678431
-31.010223 120.625259 -0.000031 0.545037
-33.966457 114.272774 -0.000021 0.533852
-35.612911 110.734802 -0.000017 0.555611
-36.664028 108.476120 -0.000013 0.550515
-37.394592 106.906250 -0.000011 0.542412
-37.932838 105.749641 -0.000009 0.498695
-30.000515 122.358307 8.610325 0.678431
-30.090563 122.168289 7.654256 0.658900
-30.000515 122.358307 6.801804 0.678431
-30.000515 122.358307 5.914571 0.678431
-30.000517 122.358307 5.035913 0.678431
-30.090563 122.168289 4.146606 0.769055
-30.057381 122.238312 3.289928 0.094118
-30.057381 122.238312 2.429669 0.094118
-30.057381 122.238312 1.570331 0.094118
-30.057383 122.238304 0.710071 0.094118
-30.856085 120.552879 -0.000031 0.533898
-33.856598 114.221176 -0.000021 0.546212
-35.527710 110.694786 -0.000016 0.550607
-36.594570 108.443497 -0.000013 0.515084
-37.336075 106.878769 -0.000011 0.573175
-37.882381 105.725945 -0.000009 0.473243
-29.795959 122.358299 8.632427 0.678431
-29.887636 122.168282 7.673162 0.670268
-29.795963 122.358292 6.817858 0.678431
-29.795959 122.358307 5.927660 0.678431
-29.795956 122.358307 5.046065 0.678431
-29.887634 122.168289 4.153784 0.399435
-29.841791 122.263306 3.295605 0.678431
-29.841789 122.263306 2.431560 0.678431
-29.841791 122.263306 1.568440 0.678431
-29.841793 122.263306 0.704394 0.678431
-30.702456 120.479416 -0.000031 0.553399
-33.747097 114.168823 -0.000022 0.545632
-35.442791 110.654182 -0.000016 0.552636
-36.525341 108.410393 -0.000013 0.503731
-37.277752 106.850876 -0.000011 0.534005
-37.832092 105.701904 -0.000009 0.572992
-29.590025 122.358292 8.655003 0.678431
-29.683338 122.168289 7.692475 0.624170
-29.590023 122.358299 6.834260 0.678431
-29.590023 122.358299 5.941031 0.678431
-29.590023 122.358299 5.056433 0.678431
-29.683338 122.168289 4.161116 0.420371
-29.636683 122.263290 3.300015 0.678431
-29.636684 122.263290 2.433028 0.678431
-29.636684 122.263290 1.566972 0.678431
-29.636683 122.263290 0.699985 0.678431
-30.549347 120.404884 -0.000030 0.532448
-33.637966 114.115707 -0.000022 0.542428
-35.358158 110.612984 -0.000016 0.547417
-36.456345 108.376808 -0.000013 0.497047
-37.219624 106.822586 -0.000011 0.574807
-37.781975 105.677505 -0.000009 0.565942
-29.402668 122.318283 8.666856 0.031373
-29.477633 122.168289 7.712200 0.738323
-29.402664 122.318283 6.842871 0.031373
-29.402668 122.318283 5.948049 0.031373
-29.402666 122.318283 5.061876 0.031373
-29.477634 122.168289 4.168603 0.527291
-29.430151 122.263290 3.304519 0.678431
-29.430149 122.263290 2.434530 0.678431
-29.430149 122.263290 1.565471 0.678431
-29.430151 122.263290 0.695480 0.678431
-30.396757 120.329285 -0.000031 0.538903
-33.529213 114.061813 -0.000021 0.547036
-35.273811 110.571190 -0.000016 0.566857
-36.387585 108.342735 -0.000013 0.557214
-37.161697 106.793884 -0.000010 0.514672
-37.732025 105.652756 -0.000009 0.524300
-29.270485 122.168297 8.648215 0.870588
-29.270489 122.168289 7.732342 0.605325
-29.270491 122.168289 6.829326 0.495521
-29.270491 122.168289 5.937007 0.689525
-29.270489 122.168289 5.053313 0.544686
-29.270489 122.168289 4.176250 0.647059
-29.222170 122.263298 3.309120 0.438483
-29.222172 122.263298 2.436062 0.558450
-29.222172 122.263298 1.563938 0.547890
-29.222168 122.263306 0.690880 0.647059
-30.244701 120.252625 -0.000031 0.537163
-33.420834 114.007179 -0.000021 0.537652
-35.189762 110.528816 -0.000016 0.499168
-36.319065 108.308197 -0.000013 0.520363
-37.103970 106.764778 -0.000010 0.528664
-37.682251 105.627663 -0.000009 0.517449
-29.061867 122.168289 8.672064 0.457191
-29.061869 122.168282 7.752903 0.698848
-29.061869 122.168289 6.846650 0.475822
-29.061869 122.168289 5.951133 0.563561
-29.061867 122.168289 5.064268 0.614527
-29.061867 122.168289 4.184057 0.601831
-29.012718 122.263283 3.313815 0.678431
-29.012716 122.263290 2.437625 0.678431
-29.012716 122.263290 1.562374 0.678431
-29.012718 122.263283 0.686185 0.678431
-30.093185 120.174904 -0.000030 0.516625
-33.312843 113.951782 -0.000021 0.524025
-35.106007 110.485855 -0.000016 0.555047
-36.250786 108.273170 -0.000013 0.564828
-37.046448 106.735275 -0.000010 0.542382
-37.632652 105.602219 -0.000009 0.581262
-28.851738 122.168289 8.696413 0.390372
-28.851742 122.168282 7.773900 0.678676
-28.851738 122.168289 6.864340 0.291783
-28.851742 122.168289 5.965552 0.562844
-28.851738 122.168289 5.075451 0.574594
-28.851738 122.168289 4.192029 0.827634
-28.801744 122.263290 3.318610 0.678431
-28.801744 122.263290 2.439223 0.678431
-28.801744 122.263290 1.560777 0.678431
-28.801743 122.263290 0.681389 0.678431
-29.942219 120.096123 -0.000030 0.544503
-33.205242 113.895630 -0.000021 0.526345
-35.022556 110.442314 -0.000016 0.522866
-36.182755 108.237671 -0.000013 0.535546
-36.989136 106.705368 -0.000010 0.512108
-37.583237 105.576431 -0.000009 0.506294
-28.640055 122.168289 8.721271 0.665339
-28.640057 122.168282 7.795331 0.452354
-28.640057 122.168289 6.882397 0.727016
-28.640057 122.168282 5.980272 0.362127
-28.640053 122.168289 5.086867 0.546319
-28.640055 122.168289 4.200165 0.530648
-28.598709 122.245544 3.322516 0.189700
-28.598705 122.245544 2.440524 0.185931
-28.598705 122.245544 1.559476 0.178744
-28.598709 122.245544 0.677484 0.120897
-29.791803 120.016289 -0.000030 0.532448
-33.098030 113.838730 -0.000021 0.546792
-34.939415 110.398178 -0.000016 0.548943
-36.114975 108.201691 -0.000013 0.548974
-36.932030 106.675056 -0.000010 0.526345
-37.534000 105.550301 -0.000009 0.549035
-28.426788 122.168282 8.746641 0.482628
-28.426788 122.168282 7.817209 0.522972
-28.426788 122.168289 6.900827 0.391638
-28.426788 122.168289 5.995296 0.679042
-28.426788 122.168289 5.098519 0.223804
-28.426788 122.168289 4.208470 0.517723
-28.375080 122.263306 3.328501 0.678431
-28.375080 122.263306 2.442518 0.677195
-28.375080 122.263306 1.557482 0.677195
-28.375078 122.263306 0.671498 0.677195
-29.641949 119.935410 -0.000030 0.543923
-32.991226 113.781082 -0.000021 0.529366
-34.856579 110.353477 -0.000016 0.546288
-36.047443 108.165253 -0.000013 0.540551
-36.875137 106.644356 -0.000010 0.556008
-37.484943 105.523827 -0.000009 0.546319
-28.211887 122.168282 8.772537 0.554070
-28.211889 122.168282 7.839537 0.683833
-28.211887 122.168282 6.919637 0.499168
-28.211887 122.168282 6.010632 0.579934
-28.211887 122.168282 5.110412 0.761761
-28.211887 122.168282 4.216947 0.440009
-28.159313 122.263306 3.333601 0.678431
-28.159311 122.263306 2.444216 0.678431
-28.159311 122.263306 1.555784 0.678431
-28.159309 122.263306 0.666398 0.678431
-29.492657 119.853493 -0.000030 0.550378
-32.884819 113.722694 -0.000021 0.529274
-34.774055 110.308197 -0.000016 0.544106
-35.980171 108.128334 -0.000012 0.532906
-36.818462 106.613251 -0.000010 0.511070
-37.436077 105.497009 -0.000009 0.588281
-27.995323 122.168282 8.798965 0.532692
-27.995319 122.168289 7.862326 0.510201
-27.995319 122.168289 6.938836 0.571588
-27.995323 122.168282 6.026283 0.505974
-27.995323 122.168282 5.122550 0.854673
-27.995323 122.168282 4.225597 0.564675
-27.941879 122.263306 3.338805 0.678431
-27.941881 122.263298 2.445949 0.678431
-27.941881 122.263298 1.554050 0.678431
-27.941879 122.263306 0.661195 0.678431
-29.343945 119.770531 -0.000030 0.543404
-32.778820 113.663567 -0.000021 0.538720
-34.691853 110.262337 -0.000015 0.554376
-35.913155 108.090950 -0.000013 0.537911
-36.762005 106.581757 -0.000010 0.526787
-37.387398 105.469856 -0.000009 0.565209
-27.777054 122.168274 8.825933 0.536706
-27.777050 122.168289 7.885580 0.548394
-27.777050 122.168289 6.958427 0.768368
-27.777050 122.168289 6.042254 0.796124
-27.777052 122.168289 5.134936 0.758251
-27.777052 122.168282 4.234426 0.776471
-27.722736 122.263298 3.344116 0.661036
-27.722734 122.263298 2.447719 0.661036
-27.722734 122.263298 1.552282 0.661036
-27.722733 122.263298 0.655884 0.661036
-29.195820 119.686531 -0.000029 0.548775
-32.673241 113.603699 -0.000021 0.525444
-34.609974 110.215904 -0.000015 0.568536
-35.846405 108.053101 -0.000013 0.530678
-36.705769 106.549866 -0.000010 0.486213
-37.338909 105.442360 -0.000009 0.543969
-27.702177 121.918457 8.781082 0.519631
-27.702183 121.918442 7.846902 0.615518
-27.702183 121.918442 6.925840 0.595392
-27.702181 121.918442 6.015691 0.833631
-27.702183 121.918442 5.114334 0.602579
-27.702183 121.918442 4.219743 0.555657
-27.607204 122.081924 3.339230 0.678431
-27.607206 122.081924 2.446091 0.678431
-27.607204 122.081924 1.553909 0.678431
-27.607204 122.081924 0.660770 0.678431
-29.048279 119.601501 -0.000030 0.535271
-32.568085 113.543091 -0.000021 0.556756
-34.528419 110.168900 -0.000016 0.549661
-35.779919 108.014778 -0.000012 0.557946
-36.649757 106.517586 -0.000010 0.498634
-37.290611 105.414528 -0.000009 0.562783
-27.606256 121.709175 8.747988 0.686976
-27.702190 121.546677 7.777614 0.520165
-27.606255 121.709183 6.901805 0.727474
-27.606255 121.709183 5.996095 0.358694
-27.606255 121.709183 5.099138 0.641733
-27.702187 121.546684 4.193439 0.661051
-27.607182 121.707611 3.323362 0.678431
-27.607185 121.707603 2.440805 0.678431
-27.607185 121.707603 1.559194 0.678431
-27.607185 121.707603 0.676638 0.678431
-28.901339 119.515442 -0.000029 0.543572
-32.463356 113.481750 -0.000020 0.565545
-34.447197 110.121330 -0.000015 0.539574
-35.713703 107.975998 -0.000012 0.547158
-36.593971 106.484917 -0.000010 0.548714
-37.242512 105.386353 -0.000008 0.565118
-27.512215 121.500328 8.715078 0.678431
-27.702198 121.183586 7.710222 0.583703
-27.512211 121.500336 6.877899 0.678431
-27.512207 121.500336 5.976607 0.678431
-27.512211 121.500336 5.084024 0.678431
-27.702194 121.183594 4.167854 0.835554
-27.607191 121.341980 3.307926 0.678431
-27.607189 121.341980 2.435664 0.678431
-27.607189 121.341980 1.564336 0.678431
-27.607189 121.341988 0.692073 0.678431
-28.755001 119.428352 -0.000029 0.542275
-32.359055 113.419685 -0.000020 0.532311
-34.366306 110.073196 -0.000015 0.560174
-35.647758 107.936760 -0.000012 0.545373
-36.538414 106.451859 -0.000010 0.539803
-37.194611 105.357849 -0.000008 0.564019
-27.702202 120.828865 8.546524 0.529076
-27.702202 120.828865 7.644659 0.625681
-27.702200 120.828873 6.755458 0.576928
-27.702200 120.828873 5.876789 0.777890
-27.702198 120.828873 5.006611 0.553521
-27.702200 120.828873 4.142963 0.379522
-27.607201 120.984772 3.292908 0.678431
-27.607197 120.984779 2.430662 0.678431
-27.607197 120.984779 1.569338 0.678431
-27.607199 120.984779 0.707091 0.678431
-28.609276 119.340256 -0.000029 0.547555
-32.255188 113.356888 -0.000020 0.545602
-34.285755 110.024498 -0.000015 0.539834
-35.582092 107.897057 -0.000012 0.561807
-36.483093 106.418411 -0.000010 0.542184
-37.146908 105.329010 -0.000008 0.553216
-27.702194 120.482193 8.472528 0.630259
-27.702198 120.482193 7.580856 0.615152
-27.702198 120.482193 6.701705 0.599893
-27.702194 120.482193 5.832969 0.516167
-27.702196 120.482193 4.972626 0.498390
-27.702194 120.482201 4.118741 0.434638
-27.607212 120.635651 3.278292 0.672679
-27.607216 120.635651 2.425793 0.583398
-27.607216 120.635651 1.574207 0.583398
-27.607212 120.635651 0.721707 0.577630
-28.464169 119.251129 -0.000029 0.531685
-32.151764 113.293373 -0.000020 0.532387
-34.205544 109.975235 -0.000015 0.530022
-35.516701 107.856895 -0.000012 0.538109
-36.428001 106.384575 -0.000010 0.543755
-37.099407 105.299843 -0.000008 0.529427
-27.702185 120.143272 8.400497 0.481743
-27.702190 120.143265 7.518747 0.591562
-27.702190 120.143265 6.649381 0.429969
-27.702190 120.143265 5.790312 0.624140
-27.702187 120.143265 4.939546 0.607919
-27.702190 120.143265 4.095161 0.578439
-27.607220 120.294334 3.264065 0.678431
-27.607220 120.294327 2.421054 0.678431
-27.607220 120.294334 1.578946 0.678431
-27.607218 120.294334 0.735934 0.678431
-28.319687 119.161011 -0.000029 0.540139
-32.048786 113.229134 -0.000020 0.535195
-34.125679 109.925415 -0.000015 0.549828
-35.451595 107.816284 -0.000012 0.534630
-36.373154 106.350365 -0.000010 0.547265
-37.052116 105.270340 -0.000008 0.572549
-27.702183 119.811768 8.330353 0.848844
-27.702192 119.811752 7.458265 0.575647
-27.657637 119.881546 6.613493 0.798993
-27.657631 119.881554 5.761056 0.634775
-27.657631 119.881554 4.916856 0.756268
-27.702188 119.811760 4.072199 0.721035
-27.607180 119.960579 3.250216 0.678431
-27.607182 119.960579 2.416441 0.678431
-27.607182 119.960579 1.583559 0.666667
-27.607180 119.960579 0.749784 0.666667
-28.175840 119.069870 -0.000028 0.539528
-31.946259 113.164177 -0.000020 0.561837
-34.046165 109.875038 -0.000015 0.541695
-35.386772 107.775215 -0.000012 0.542306
-36.318542 106.315758 -0.000010 0.515541
-37.005028 105.240501 -0.000008 0.561593
-27.702198 119.487427 8.262024 0.806683
-27.702200 119.487419 7.399353 0.726894
-27.512188 119.780502 6.612350 0.669001
-27.512190 119.780502 5.760123 0.678431
-27.512192 119.780502 4.916132 0.669001
-27.702198 119.487419 4.049834 0.639231
-27.608751 119.631561 3.236580 0.094118
-27.608753 119.631561 2.411899 0.215686
-27.608753 119.631561 1.588101 0.235630
-27.608751 119.631561 0.763419 0.250233
-28.032631 118.977737 -0.000029 0.551385
-31.844185 113.098511 -0.000019 0.531807
-33.967003 109.824112 -0.000015 0.518395
-35.322235 107.733696 -0.000012 0.545281
-36.264175 106.280785 -0.000010 0.573083
-36.958149 105.210342 -0.000008 0.588373
-27.702206 119.169991 8.195455 0.548638
-27.702206 119.169991 7.341955 0.613794
-27.512184 119.458656 6.563322 0.678431
-27.512188 119.458649 5.720154 0.678431
-27.512190 119.458649 4.885133 0.678431
-27.702209 119.169983 4.028042 0.505470
-27.607199 119.314316 3.223575 0.678431
-27.607201 119.314316 2.407566 0.678431
-27.607199 119.314316 1.592433 0.678431
-27.607197 119.314316 0.776425 0.678431
-27.890070 118.884598 -0.000028 0.535119
-31.742573 113.032127 -0.000020 0.555077
-33.888203 109.772629 -0.000015 0.534340
-35.257996 107.691727 -0.000012 0.559243
-36.210052 106.245422 -0.000010 0.532296
-36.911484 105.179855 -0.000008 0.513146
-27.702206 118.859238 8.130587 0.752514
-27.702209 118.859238 7.286022 0.601724
-27.702208 118.859238 6.453318 0.402930
-27.702209 118.859230 5.630474 0.741176
-27.702208 118.859238 4.815585 0.664057
-27.702208 118.859238 4.006808 0.412085
-27.607204 119.001389 3.210763 0.615381
-27.607201 119.001389 2.403300 0.617395
-27.607201 119.001389 1.596700 0.617395
-27.607204 119.001389 0.789237 0.615381
-27.748161 118.790474 -0.000028 0.532052
-31.641432 112.965034 -0.000019 0.543191
-33.809761 109.720596 -0.000014 0.529397
-35.194046 107.649315 -0.000012 0.547768
-36.156178 106.209694 -0.000009 0.540917
-36.865028 105.149048 -0.000008 0.509987
-27.702206 118.554909 8.067356 0.637949
-27.702206 118.554901 7.231503 0.376806
-27.702208 118.554901 6.407386 0.775921
-27.702206 118.554901 5.593030 0.621271
-27.702206 118.554901 4.786544 0.403388
-27.702206 118.554901 3.986110 0.456245
-27.607214 118.694916 3.198274 0.678431
-27.607216 118.694916 2.399139 0.678431
-27.607216 118.694916 1.600861 0.678431
-27.607214 118.694916 0.801726 0.678431
-27.702192 118.554924 0.013887 0.437034
-31.540756 112.897240 -0.000019 0.522087
-33.731682 109.668022 -0.000015 0.523461
-35.130398 107.606453 -0.000012 0.542992
-36.102554 106.173584 -0.000009 0.509972
-36.818794 105.117912 -0.000008 0.548211
-27.702198 118.256790 8.005710 0.583398
-27.702202 118.256783 7.178347 0.750729
-27.702202 118.256783 6.362604 0.609857
-27.702198 118.256790 5.556524 0.762234
-27.702202 118.256783 4.758231 0.577371
-27.702202 118.256783 3.965930 0.895262
-27.607193 118.394737 3.186100 0.678431
-27.607193 118.394737 2.395084 0.678431
-27.607193 118.394737 1.604915 0.678431
-27.607193 118.394737 0.813899 0.678431
-27.702194 118.256790 0.034068 0.590799
-31.440556 112.828751 -0.000019 0.533867
-33.653973 109.614906 -0.000015 0.543099
-35.067047 107.563141 -0.000011 0.548974
-36.049183 106.137100 -0.000010 0.543038
-36.772778 105.086456 -0.000008 0.541619
-27.686356 117.987305 7.952510 0.761761
-27.686356 117.987305 7.132480 0.577050
-27.686359 117.987297 6.323962 0.569116
-27.686356 117.987305 5.525021 0.864958
-27.686356 117.987305 4.733800 0.551049
-27.686356 117.987305 3.948517 0.852949
-27.632193 118.064781 3.172082 0.218448
-27.632193 118.064789 2.390415 0.074510
-27.632193 118.064789 1.609585 0.149081
-27.632191 118.064789 0.827917 0.095262
-27.686356 117.987305 0.051483 0.567651
-31.340839 112.759560 -0.000019 0.533837
-33.576637 109.561241 -0.000014 0.541466
-35.004002 107.519402 -0.000011 0.542138
-35.996067 106.100243 -0.000010 0.537240
-36.726978 105.054680 -0.000008 0.558297
-27.482943 117.987297 7.981849 0.769299
-27.482943 117.987297 7.157776 0.662425
-27.482944 117.987297 6.345273 0.441794
-27.482943 117.987297 5.542394 0.449790
-27.482944 117.987297 4.747273 0.426963
-27.482943 117.987297 3.958120 0.437934
-27.415539 118.082298 3.178915 0.678431
-27.415539 118.082298 2.392691 0.678431
-27.415539 118.082298 1.607309 0.678431
-27.415539 118.082298 0.821085 0.678431
-27.482933 117.987312 0.041878 0.422599
-31.241608 112.689667 -0.000019 0.541558
-33.499680 109.507042 -0.000014 0.553277
-34.941261 107.475212 -0.000011 0.531304
-35.943214 106.063019 -0.000009 0.521614
-36.681404 105.022583 -0.000008 0.534157
-27.277504 117.987289 8.011771 0.430671
-27.277508 117.987289 7.183576 0.488075
-27.277504 117.987289 6.367010 0.568444
-27.277504 117.987289 5.560114 0.359838
-27.277504 117.987289 4.761016 0.611658
-27.277506 117.987289 3.967916 0.634150
-27.209089 118.082306 3.184813 0.678431
-27.209087 118.082306 2.394655 0.678431
-27.209087 118.082306 1.605345 0.678431
-27.209087 118.082306 0.815187 0.678431
-27.277489 117.987320 0.032082 0.631586
-31.142864 112.619095 -0.000019 0.559960
-33.423103 109.452301 -0.000014 0.547723
-34.878834 107.430595 -0.000011 0.522194
-35.890617 106.025429 -0.000009 0.561639
-36.636055 104.990166 -0.000008 0.541299
-27.069984 117.987297 8.042294 0.390448
-26.967072 118.128136 7.247568 0.816876
-26.931141 118.177307 6.432001 0.678431
-26.931141 118.177307 5.613098 0.678431
-26.931143 118.177307 4.802107 0.678431
-27.069984 117.987297 3.977907 0.546502
-27.000565 118.082306 3.190827 0.678431
-27.000563 118.082306 2.396659 0.678431
-27.000561 118.082306 1.603341 0.678431
-27.000561 118.082306 0.809172 0.678431
-27.069971 117.987312 0.022091 0.623652
-31.044621 112.547829 -0.000019 0.537163
-33.346909 109.397034 -0.000014 0.567102
-34.816719 107.385536 -0.000011 0.533242
-35.838287 105.987465 -0.000009 0.549187
-36.590935 104.957436 -0.000008 0.501152
-26.860334 117.987305 8.073425 0.650095
-26.830467 118.027588 7.247568 0.644633
-26.722416 118.173309 6.453929 0.263966
-26.722416 118.173309 5.630974 0.251774
-26.722416 118.173309 4.815970 0.086275
-26.860338 117.987305 3.988097 0.526314
-26.789898 118.082298 3.196962 0.642496
-26.789898 118.082298 2.398702 0.642496
-26.789898 118.082298 1.601297 0.655177
-26.789898 118.082298 0.803037 0.655177
-26.860336 117.987305 0.011902 0.608515
-30.946873 112.475876 -0.000019 0.528267
-33.271103 109.341240 -0.000014 0.535790
-34.754917 107.340042 -0.000011 0.564324
-35.786224 105.949142 -0.000009 0.549691
-36.546040 104.924393 -0.000008 0.526772
-26.648504 117.987305 8.105179 0.499825
-26.648510 117.987305 7.264114 0.443992
-26.648506 117.987305 6.434861 0.349615
-26.648504 117.987305 5.615429 0.602152
-26.648506 117.987305 4.803916 0.367773
-26.648504 117.987305 3.998491 0.636683
-26.577038 118.082298 3.203220 0.678431
-26.577034 118.082306 2.400787 0.678431
-26.577034 118.082306 1.599213 0.678431
-26.577038 118.082298 0.796780 0.678431
-26.648502 117.987305 0.001508 0.456825
-30.849632 112.403244 -0.000018 0.515938
-33.195686 109.284912 -0.000014 0.550973
-34.693439 107.294121 -0.000011 0.577249
-35.734428 105.910454 -0.000009 0.536782
-36.501381 104.891037 -0.000007 0.540291
-26.434444 117.987305 8.137563 0.664973
-26.434448 117.987305 7.292038 0.577935
-26.434443 117.987312 6.458387 0.353582
-26.434443 117.987305 5.634607 0.701900
-26.434444 117.987305 4.818789 0.295552
-26.434444 117.987305 4.009093 0.510033
-26.361931 118.082306 3.209603 0.678431
-26.361931 118.082306 2.402913 0.678431
-26.361931 118.082306 1.597087 0.678431
-26.361931 118.082306 0.790397 0.678431
-26.501539 117.899414 -0.000027 0.535683
-30.752901 112.329933 -0.000018 0.552712
-33.120670 109.228058 -0.000013 0.541070
-34.632278 107.247780 -0.000011 0.536736
-35.682907 105.871414 -0.000009 0.539208
-36.456955 104.857368 -0.000008 0.556222
-26.218082 117.987305 8.170599 0.686213
-26.218086 117.987305 7.320522 0.519280
-26.218081 117.987312 6.482385 0.649668
-26.218081 117.987312 5.654170 0.618845
-26.218077 117.987320 4.833962 0.833860
-26.218079 117.987320 4.019907 0.567895
-26.163879 118.057297 3.214560 0.074601
-26.163879 118.057297 2.404564 0.074830
-26.163879 118.057297 1.595436 0.094118
-26.163877 118.057304 0.785440 0.079149
-26.366539 117.795616 -0.000027 0.539376
-30.656681 112.255959 -0.000018 0.535775
-33.046047 109.170677 -0.000013 0.535363
-34.571445 107.201004 -0.000011 0.557366
-35.631653 105.832008 -0.000009 0.512917
-36.412766 104.823395 -0.000007 0.555734
-25.999374 117.987305 8.204293 0.534157
-25.999374 117.987305 7.349575 0.382315
-25.850101 118.177299 6.550823 0.678431
-25.850098 118.177307 5.709964 0.678431
-25.850100 118.177307 4.877232 0.678431
-25.999367 117.987320 4.030936 0.641917
-25.924736 118.082306 3.222754 0.678431
-25.924736 118.082306 2.407294 0.678431
-25.924736 118.082306 1.592706 0.678431
-25.924736 118.082306 0.777245 0.678431
-26.232269 117.690880 -0.000026 0.548287
-30.560978 112.181305 -0.000018 0.536156
-32.971825 109.112793 -0.000014 0.557427
-34.510941 107.153809 -0.000011 0.484794
-35.580681 105.792244 -0.000009 0.513558
-36.368816 104.789108 -0.000007 0.575265
-25.778250 117.987305 8.238663 0.598871
-25.778248 117.987305 7.379211 0.667109
-25.658691 118.137314 6.566730 0.074510
-25.658691 118.137314 5.722932 0.094118
-25.658691 118.137314 4.887289 0.139956
-25.778244 117.987312 4.042188 0.590845
-25.702526 118.082321 3.229529 0.511696
-25.702526 118.082321 2.409550 0.557626
-25.702524 118.082321 1.590450 0.512444
-25.702526 118.082321 0.770471 0.486397
-26.098740 117.585205 -0.000026 0.538048
-30.465801 112.105995 -0.000018 0.553994
-32.898014 109.054375 -0.000014 0.550195
-34.450764 107.106186 -0.000011 0.549294
-35.529984 105.752129 -0.000009 0.556939
-36.325104 104.754517 -0.000008 0.548180
-25.554659 117.987305 8.273724 0.604196
-25.554657 117.987305 7.409442 0.516472
-25.554657 117.987305 6.557295 0.588113
-25.554663 117.987305 5.715240 0.555322
-25.554657 117.987305 4.881323 0.489433
-25.554657 117.987312 4.053664 0.578195
-25.477848 118.082306 3.236438 0.678431
-25.477848 118.082306 2.411851 0.678431
-25.477848 118.082306 1.588148 0.678431
-25.477846 118.082314 0.763561 0.678431
-25.965946 117.478600 -0.000026 0.537285
-30.371157 112.030006 -0.000018 0.550713
-32.824612 108.995445 -0.000013 0.561669
-34.390926 107.058151 -0.000010 0.537987
-35.479572 105.711655 -0.000009 0.576059
-36.281635 104.719620 -0.000007 0.491859
-25.328526 117.987297 8.309490 0.456626
-25.328524 117.987305 7.440281 0.665965
-25.328524 117.987305 6.583275 0.606455
-25.328524 117.987305 5.736421 0.646891
-25.328524 117.987305 4.897749 0.395285
-25.328524 117.987305 4.065372 0.526894
-25.250610 118.082306 3.243487 0.678431
-25.250612 118.082298 2.414200 0.678431
-25.250612 118.082298 1.585801 0.678431
-25.250612 118.082298 0.756513 0.678431
-25.833900 117.371078 -0.000026 0.531106
-30.277040 111.953369 -0.000018 0.550011
-32.751617 108.936012 -0.000013 0.538033
-34.331421 107.009697 -0.000011 0.499260
-35.429440 105.670837 -0.000009 0.540291
-36.238411 104.684425 -0.000007 0.556207
-25.099791 117.987297 8.345978 0.807843
-25.099794 117.987297 7.471739 0.859419
-24.941732 118.177307 6.654751 0.678431
-24.941734 118.177299 5.794688 0.678431
-24.941734 118.177299 4.942939 0.678431
-25.099791 117.987297 4.077315 0.645472
-25.041559 118.057297 3.249080 0.094118
-25.041561 118.057297 2.416062 0.094118
-25.041561 118.057297 1.583938 0.094118
-25.041559 118.057297 0.750920 0.094118
-25.702610 117.262634 -0.000025 0.542809
-30.183464 111.876076 -0.000017 0.520729
-32.679047 108.876068 -0.000013 0.541283
-34.272259 106.960831 -0.000011 0.546212
-35.379597 105.629669 -0.000009 0.530526
-36.195435 104.648926 -0.000007 0.551049
-24.868372 117.987305 8.383204 0.735454
-24.868372 117.987305 7.503839 0.788769
-24.708061 118.177299 6.682055 0.666194
-24.708063 118.177299 5.816948 0.660822
-24.708063 118.177299 4.960202 0.659052
-24.868370 117.987305 4.089501 0.685603
-24.788204 118.082314 3.258015 0.678431
-24.788206 118.082314 2.419039 0.678431
-24.788206 118.082314 1.580961 0.678431
-24.788206 118.082314 0.741985 0.678431
-25.572079 117.153275 -0.000025 0.546120
-30.090427 111.798134 -0.000017 0.557687
-32.606895 108.815620 -0.000013 0.530282
-34.213436 106.911545 -0.000010 0.521462
-35.330040 105.588150 -0.000009 0.556329
-36.152702 104.613129 -0.000007 0.524712
-24.634209 117.987312 8.421186 0.394293
-24.634211 117.987305 7.536588 0.559747
-24.615852 118.008759 6.669549 0.706035
-24.615850 118.008759 5.806753 0.787839
-24.615849 118.008766 4.952295 0.540459
-24.634205 117.987312 4.101935 0.523278
-24.552910 118.082314 3.265500 0.678431
-24.552912 118.082306 2.421532 0.659556
-24.552912 118.082306 1.578468 0.659556
-24.552910 118.082314 0.734499 0.646693
-25.442310 117.043007 -0.000025 0.537377
-29.997932 111.719543 -0.000018 0.550210
-32.535160 108.754669 -0.000013 0.531060
-34.154961 106.861855 -0.000010 0.504234
-35.280777 105.546288 -0.000008 0.503197
-36.110226 104.577034 -0.000007 0.484764
-24.397238 117.987312 8.459940 0.667674
-24.397238 117.987312 7.570004 0.706798
-24.397242 117.987312 6.692562 0.739651
-24.397236 117.987320 5.825515 0.677089
-24.397238 117.987312 4.966846 0.603235
-24.397236 117.987312 4.114620 0.363027
-24.314796 118.082306 3.273137 0.678431
-24.314796 118.082306 2.424076 0.678431
-24.314795 118.082306 1.575924 0.678431
-24.314796 118.082306 0.726863 0.678431
-25.313326 116.931824 -0.000025 0.542412
-29.905998 111.640305 -0.000018 0.542428
-32.463863 108.693214 -0.000013 0.535454
-34.096836 106.811760 -0.000010 0.559548
-35.231808 105.504082 -0.000008 0.518822
-36.068005 104.540642 -0.000007 0.514611
-24.157372 117.987320 8.499481 0.524651
-24.157370 117.987320 7.604099 0.812757
-24.157370 117.987320 6.721287 0.572366
-24.157368 117.987320 5.848931 0.609720
-24.157372 117.987320 4.985006 0.541207
-24.157373 117.987320 4.127564 0.858839
-24.095778 118.057297 3.279293 0.074510
-24.095778 118.057297 2.426126 0.079927
-24.095778 118.057297 1.573873 0.086091
-24.095778 118.057297 0.720707 0.074510
-25.185114 116.819756 -0.000024 0.547555
-29.814613 111.560425 -0.000017 0.524346
-32.392990 108.631271 -0.000013 0.558618
-34.039055 106.761261 -0.000010 0.547173
-35.183132 105.461533 -0.000008 0.557168
-36.026031 104.503960 -0.000007 0.544518
-23.744946 118.177307 8.603621 0.678431
-23.914541 117.987328 7.638889 0.582177
-23.744944 118.177307 6.796935 0.678431
-23.744946 118.177307 5.910602 0.678431
-23.744947 118.177307 5.032834 0.678431
-23.914549 117.987320 4.140772 0.830243
-23.829752 118.082306 3.288881 0.678431
-23.829750 118.082306 2.429320 0.678431
-23.829750 118.082306 1.570680 0.678431
-23.829752 118.082306 0.711118 0.678431
-25.057686 116.706802 -0.000024 0.545571
-29.723793 111.479912 -0.000017 0.525765
-32.322556 108.568825 -0.000013 0.518486
-33.981632 106.710358 -0.000010 0.509911
-35.134754 105.418655 -0.000008 0.502754
-35.984322 104.466980 -0.000007 0.537850
-23.587065 118.077461 8.611464 0.449439
-23.668674 117.987320 7.674391 0.709621
-23.587063 118.077469 6.802632 0.782574
-23.587063 118.077469 5.915246 0.700404
-23.587065 118.077461 5.036435 0.708080
-23.668676 117.987320 4.154250 0.405661
-23.582672 118.082314 3.296998 0.678431
-23.582674 118.082314 2.432024 0.678431
-23.582674 118.082314 1.567977 0.678431
-23.582672 118.082314 0.703003 0.678431
-24.931047 116.592949 -0.000024 0.545449
-29.633532 111.398766 -0.000017 0.546212
-32.252552 108.505898 -0.000013 0.541558
-33.924568 106.659050 -0.000010 0.567041
-35.086678 105.375427 -0.000008 0.561852
-35.942867 104.429718 -0.000007 0.519890
-23.419682 117.987320 8.623024 0.654139
-23.419676 117.987320 7.710623 0.549767
-23.419676 117.987320 6.811030 0.711513
-23.419680 117.987320 5.922092 0.835767
-23.419678 117.987320 5.041746 0.814588
-23.419683 117.987320 4.168005 0.698848
-23.332474 118.082298 3.305277 0.678431
-23.332474 118.082298 2.434782 0.678431
-23.332474 118.082298 1.565218 0.678431
-23.332476 118.082298 0.694722 0.678431
-24.805208 116.478226 -0.000024 0.531716
-29.543840 111.317001 -0.000017 0.563760
-32.182995 108.442474 -0.000012 0.542565
-33.867859 106.607353 -0.000010 0.558145
-35.038906 105.331879 -0.000008 0.559945
-35.901676 104.392166 -0.000007 0.539666
-23.167471 117.987312 8.665912 0.872007
-23.167467 117.987312 7.747602 0.798886
-23.167469 117.987320 6.842184 0.541390
-23.167469 117.987320 5.947490 0.696986
-23.167467 117.987320 5.061443 0.718212
-23.167469 117.987312 4.182044 0.573800
-23.102285 118.057320 3.312053 0.094118
-23.102289 118.057320 2.437039 0.094118
-23.102289 118.057320 1.562961 0.094118
-23.102285 118.057320 0.687946 0.094118
-24.680172 116.362617 -0.000024 0.550866
-29.454725 111.234596 -0.000016 0.547036
-32.113876 108.378578 -0.000012 0.538109
-33.811520 106.555260 -0.000010 0.507713
-34.991436 105.287987 -0.000008 0.555947
-35.860748 104.354317 -0.000007 0.545647
-22.732578 118.177299 8.775139 0.678431
-22.911968 117.987305 7.785346 0.505684
-22.732584 118.177299 6.921526 0.678431
-22.732584 118.177292 6.012171 0.678431
-22.732582 118.177299 5.111607 0.678431
-22.911968 117.987305 4.196373 0.581186
-22.822254 118.082321 3.322359 0.678431
-22.822256 118.082321 2.440471 0.678431
-22.822256 118.082321 1.559528 0.678431
-22.822254 118.082321 0.677640 0.678431
-24.555958 116.246140 -0.000024 0.547219
-29.366188 111.151581 -0.000016 0.528557
-32.045216 108.314194 -0.000012 0.546487
-33.755539 106.502777 -0.000010 0.550820
-34.944275 105.243767 -0.000008 0.547890
-35.820084 104.316193 -0.000007 0.528206
-22.558271 118.086311 8.788708 0.613794
-22.653070 117.987305 7.823874 0.460105
-22.558270 118.086311 6.931383 0.618067
