# This PCD file was generated using the MATLABÂ® pcwrite function
# from Computer Vision ToolboxÂ®.
# .PCD v.7 - Point Cloud Data file format
VERSION .7
FIELDS x y z intensity
SIZE 4 4 4 4
TYPE F F F F
COUNT 1 1 1 1
WIDTH 1223
HEIGHT 1
VIEWPOINT 0 0 0 1 0 0 0
POINTS 1223
DATA ascii
nan nan nan 0.000000
nan nan nan 0.000000
nan nan nan 0.000000
1.037857 152.259323 0.200052 0.705379
-13.575544 153.724731 0.200032 0.715572
-18.206089 154.189072 0.009990 1.000000
-22.002434 154.569763 -0.000004 0.337865
-24.481258 154.818329 -0.000003 0.332540
-26.204132 154.991104 -0.000002 0.338537
-27.473467 155.118378 -0.000002 0.339757
nan nan nan 0.000000
nan nan nan 0.000000
nan nan nan 0.000000
nan nan nan 0.000000
nan nan nan 0.000000
nan nan nan 0.000000
nan nan nan 0.000000
nan nan nan 0.000000
nan nan nan 0.000000
1.011448 152.004898 0.200052 0.713542
-13.591370 153.572296 0.200032 0.694423
-18.132185 154.059677 -0.000004 0.337057
-22.012150 154.476135 -0.000004 0.335882
-24.489180 154.742004 -0.000003 0.334325
-26.210804 154.926788 -0.000003 0.334874
-27.479221 155.062943 -0.000003 0.331594
nan nan nan 0.000000
nan nan nan 0.000000
nan nan nan 0.000000
nan nan nan 0.000000
nan nan nan 0.000000
nan nan nan 0.000000
nan nan nan 0.000000
nan nan nan 0.000000
nan nan nan 0.000000
0.983261 151.750671 0.200052 0.700175
-13.608261 153.419968 0.200032 0.712779
-18.633387 153.994858 0.056482 0.665995
-22.022526 154.382584 -0.000004 0.338125
-24.497637 154.665741 -0.000003 0.338033
-26.217930 154.862534 -0.000002 0.341176
-27.485363 155.007538 -0.000002 0.339467
nan nan nan 0.000000
nan nan nan 0.000000
nan nan nan 0.000000
nan nan nan 0.000000
nan nan nan 0.000000
nan nan nan 0.000000
nan nan nan 0.000000
nan nan nan 0.000000
nan nan nan 0.000000
0.953308 151.496643 0.200052 0.712963
-13.626211 153.267776 0.200032 0.698238
-19.574629 153.990387 0.163959 0.688991
-22.100435 154.297226 0.009991 1.000000
-24.506622 154.589523 -0.000003 0.340673
-26.225502 154.798340 -0.000003 0.343999
-27.491892 154.952179 -0.000002 0.335134
nan nan nan 0.000000
nan nan nan 0.000000
nan nan nan 0.000000
nan nan nan 0.000000
nan nan nan 0.000000
nan nan nan 0.000000
nan nan nan 0.000000
nan nan nan 0.000000
nan nan nan 0.000000
0.921574 151.242844 0.200052 0.704463
-13.645220 153.115707 0.200031 0.725887
-19.899384 153.919800 0.200022 0.688197
-22.112055 154.204285 0.009991 1.000000
-24.516144 154.513382 -0.000003 0.330419
-26.233521 154.734192 -0.000003 0.336492
-27.498810 154.896866 -0.000002 0.335653
nan nan nan 0.000000
nan nan nan 0.000000
nan nan nan 0.000000
nan nan nan 0.000000
nan nan nan 0.000000
nan nan nan 0.000000
nan nan nan 0.000000
nan nan nan 0.000000
nan nan nan 0.000000
4.924080 150.441681 -0.000041 0.537209
-13.665289 152.963776 0.200031 0.692943
-19.913689 153.811508 0.200022 0.740230
-22.057556 154.102386 -0.000003 0.336324
-24.526192 154.437317 -0.000003 0.341283
-26.241989 154.670105 -0.000003 0.341283
-27.506109 154.841614 -0.000002 0.339284
53.644634 143.197739 24.535334 0.564263
53.644627 143.197739 21.430813 0.579293
53.644627 143.197739 18.369879 0.595850
53.644596 143.197739 15.345201 0.668589
53.644604 143.197739 12.349758 0.567926
53.644627 143.197739 9.376796 0.518273
53.644650 143.197739 6.419749 0.609506
nan nan nan 0.000000
nan nan nan 0.000000
4.884892 150.160172 -0.000041 0.537209
-13.686419 152.811981 0.200031 0.719051
-19.928753 153.703323 0.200023 0.721828
-22.070538 154.009155 -0.000003 0.333974
-24.536776 154.361313 -0.000003 0.339940
-26.250904 154.606064 -0.000003 0.328832
-27.513796 154.786392 -0.000002 0.334035
49.409359 143.197586 23.485626 0.551873
49.409328 143.197601 20.525717 0.588205
49.409321 143.197601 17.607365 0.609659
49.409321 143.197601 14.723578 0.602045
49.409336 143.197601 11.867666 0.651865
49.409344 143.197601 9.033181 0.588693
49.409351 143.197586 6.213874 0.615015
50.042637 143.102646 3.414100 0.618051
50.042645 143.102646 0.585900 0.571633
4.843731 149.878937 -0.000041 0.543175
-13.708612 152.660339 0.200032 0.691112
-19.944569 153.595245 0.200022 0.752316
-22.487438 153.976471 0.060485 0.685695
-24.602219 154.293518 0.009993 1.000000
-26.260269 154.542099 -0.000002 0.331975
-27.521868 154.731247 -0.000002 0.336431
45.626232 143.185638 22.549423 0.480751
45.549763 143.197662 19.701771 0.541421
45.626217 143.185654 16.927299 0.622431
45.626240 143.185638 14.169172 0.581613
45.549786 143.197647 11.428798 0.623941
45.626240 143.185638 8.726725 0.612619
45.626232 143.185638 6.030262 0.523629
46.074894 143.115173 3.349895 0.130266
46.074902 143.115173 0.650105 0.244923
4.800598 149.598022 -0.000041 0.540383
-13.731861 152.508865 0.200031 0.720668
-19.961140 153.487274 0.200022 0.746731
-23.058475 153.973770 0.144150 0.675898
-24.613804 154.218063 0.009993 1.000000
-26.270077 154.478195 -0.000002 0.337270
-27.530323 154.676147 -0.000003 0.353460
43.951351 142.880295 22.147331 0.462669
43.951359 142.880295 19.371790 0.565057
43.951374 142.880295 16.635220 0.520516
43.951359 142.880295 13.931057 0.730922
43.951359 142.880295 11.253034 0.564630
43.951366 142.880295 8.595101 0.585962
43.951382 142.880295 5.951403 0.646006
44.046368 142.864685 3.317769 0.678431
44.046368 142.864685 0.682231 0.678431
4.755512 149.317383 -0.000040 0.542885
-13.756172 152.357544 0.200031 0.705104
-19.978470 153.379425 0.200022 0.727230
-23.443981 153.948563 0.200017 0.749645
-24.625916 154.142670 0.009993 1.000000
-26.280329 154.414368 -0.000002 0.337606
-27.539169 154.621109 -0.000002 0.321645
43.951344 142.310593 22.170948 0.652064
43.951359 142.310577 19.392153 0.479622
43.951351 142.310593 16.652370 0.785611
43.951366 142.310577 13.945045 0.599313
43.951359 142.310593 11.263878 0.666560
43.951359 142.310593 8.602831 0.610758
43.951366 142.310577 5.956035 0.683528
44.046352 142.294296 3.319312 0.462531
44.046352 142.294296 0.680686 0.678431
4.708469 149.037094 -0.000040 0.542351
-13.781538 152.206406 0.200031 0.693645
-19.996544 153.271698 0.200022 0.715572
-23.458004 153.865021 0.200017 0.696712
-24.584404 154.058090 -0.000003 0.327382
-26.291031 154.350616 -0.000002 0.336049
-27.548393 154.566132 -0.000002 0.337148
44.101398 141.712723 22.233788 0.127764
43.951359 141.739517 19.413414 0.462348
44.101398 141.712723 16.698021 0.034806
44.101398 141.712723 13.982255 0.180636
44.101368 141.712723 11.292737 0.323659
44.101398 141.712723 8.623402 0.067460
44.101398 141.712723 5.968358 0.111177
44.046368 141.722549 3.320927 0.678431
44.046368 141.722549 0.679073 0.678431
4.659481 148.757126 -0.000041 0.538766
-13.807943 152.055435 0.200031 0.695521
-20.015373 153.164108 0.200022 0.699443
-23.472605 153.781570 0.200017 0.749706
-24.597631 153.982498 -0.000003 0.333516
-26.347736 154.295074 0.009994 1.000000
-27.557999 154.511230 -0.000003 0.336858
44.141392 141.131699 22.269728 0.678431
43.951382 141.167007 19.435587 0.588815
44.141384 141.131699 16.724129 0.623163
44.141384 141.131699 14.003536 0.678431
44.101391 141.139130 11.304564 0.223987
44.141384 141.131699 8.635168 0.678431
44.141384 141.131699 5.975409 0.678431
44.046368 141.149353 3.322607 0.678431
44.046368 141.149353 0.677391 0.678431
4.608524 148.477509 -0.000040 0.537606
-13.835417 151.904663 0.200030 0.720348
-20.034954 153.056641 0.200022 0.695964
-23.487791 153.698227 0.200017 0.688655
-24.922709 153.964859 0.057614 0.691218
-26.359268 154.231796 0.009994 1.000000
-27.567991 154.456390 -0.000003 0.343587
43.951359 140.593018 22.248070 0.699046
43.951374 140.593018 19.458660 0.562692
43.951366 140.593018 16.708399 0.540124
43.951359 140.593018 13.990714 0.558236
43.951366 140.593018 11.299299 0.746853
43.951359 140.593018 8.628078 0.549584
43.951351 140.593018 5.971160 0.737270
44.183575 140.548187 3.326644 0.182254
44.183575 140.548187 0.673356 0.131121
4.555630 148.198242 -0.000040 0.538888
-13.863935 151.754089 0.200030 0.687358
-20.055281 152.949310 0.200022 0.690761
-23.503555 153.614990 0.200017 0.682277
-25.306408 153.963028 0.126149 0.738415
-26.371243 154.168594 0.009995 1.000000
-27.578367 154.401627 -0.000003 0.333745
43.951366 140.017487 22.275898 0.645197
43.951351 140.017487 19.482643 0.584100
43.951359 140.017487 16.728605 0.586923
43.951344 140.017487 14.007191 0.568032
43.951374 140.017487 11.312078 0.658671
43.951351 140.017487 8.637186 0.610437
43.951351 140.017487 5.976617 0.481804
44.046360 139.998459 3.326177 0.678431
44.046360 139.998459 0.673821 0.678431
4.500763 147.919373 -0.000039 0.541436
-13.893511 151.603714 0.200030 0.715099
-20.076363 152.842133 0.200022 0.676005
-23.519905 153.531876 0.200017 0.679179
-25.664021 153.961334 0.189936 0.770153
-26.338270 154.096390 -0.000002 0.334905
-27.589123 154.346924 -0.000003 0.336461
44.141392 139.400894 22.353399 0.603616
43.951359 139.440338 19.507549 0.583581
44.141415 139.400894 16.784910 0.639002
44.141407 139.400894 14.053087 0.584405
43.951382 139.440338 11.325347 0.625940
44.141407 139.400894 8.662556 0.594202
44.141399 139.400894 5.991817 0.617090
44.046352 139.420624 3.328067 0.678431
44.046352 139.420624 0.671933 0.678431
4.443958 147.640884 -0.000038 0.538552
-13.924135 151.453552 0.200030 0.704417
-20.098188 152.735107 0.200022 0.674922
-23.536831 153.448868 0.200017 0.737453
-25.732121 153.904541 0.200013 0.670268
-26.351187 154.033035 -0.000002 0.331914
-27.600262 154.292313 -0.000003 0.343420
44.141376 138.820679 22.383423 0.588678
43.951351 138.861511 19.533381 0.525933
44.141369 138.820679 16.806717 0.583902
44.141376 138.820679 14.070873 0.568612
43.951351 138.861511 11.339105 0.631983
44.141399 138.820679 8.672386 0.482597
44.141399 138.820679 5.997709 0.582391
44.046391 138.841095 3.330026 0.678431
44.046391 138.841095 0.669973 0.678431
4.385227 147.362793 -0.000039 0.543420
-13.955805 151.303604 0.200030 0.713695
-20.120758 152.628235 0.200022 0.678523
-23.554338 153.365982 0.200017 0.743465
-25.746391 153.836975 0.200013 0.737270
-26.364548 153.969788 -0.000002 0.340383
-27.650803 154.246155 0.009995 1.000000
43.951359 138.280945 22.365788 0.637140
43.951351 138.280945 19.560150 0.584436
43.951366 138.280945 16.793907 0.621424
43.951351 138.280945 14.060423 0.602426
43.951366 138.280945 11.353364 0.598398
43.951359 138.280945 8.666613 0.594736
43.951366 138.280945 5.994249 0.551781
44.046398 138.259827 3.332059 0.678431
44.046398 138.259827 0.667941 0.678431
4.324547 147.085129 -0.000038 0.534478
-13.988518 151.153885 0.200030 0.707515
-20.144079 152.521515 0.200022 0.693980
-23.572422 153.283218 0.200017 0.772213
-25.761139 153.769501 0.200013 0.719875
-26.604322 153.956833 0.049994 0.654444
-27.662643 154.191971 0.009995 1.000000
43.951374 137.698578 22.397928 0.538445
43.951344 137.698578 19.587858 0.409445
43.951366 137.698578 16.817253 0.570397
43.951359 137.698578 14.079455 0.462104
43.951359 137.698578 11.368119 0.624353
43.951374 137.698578 8.677132 0.496864
43.951359 137.698578 6.000552 0.573617
44.046398 137.676758 3.334160 0.547845
44.046406 137.676758 0.665840 0.562005
4.261929 146.807892 -0.000038 0.537743
-14.022289 151.004395 0.200031 0.724956
-20.168144 152.414963 0.200022 0.738247
-23.591084 153.200577 0.200017 0.672572
-25.776352 153.702133 0.200013 0.675441
-26.880356 153.955521 0.108084 0.752453
-27.674862 154.137863 0.009995 1.000000
44.141369 137.069336 22.480068 0.678431
43.951344 137.114349 19.616516 0.518318
44.141338 137.069336 16.876919 0.678431
44.141369 137.069336 14.128104 0.678431
43.951351 137.114349 11.383385 0.401831
44.141369 137.069336 8.704022 0.678431
44.141369 137.069336 6.016662 0.678431
44.021404 137.097748 3.335912 0.094118
44.021397 137.097748 0.664086 0.062745
4.197384 146.531097 -0.000038 0.540780
-11.682989 150.292786 -0.000021 0.534630
-20.192947 152.308594 0.200021 0.707118
-23.610325 153.118088 0.200017 0.671122
-25.792036 153.634872 0.200014 0.709148
-27.140471 153.954285 0.162735 0.679911
-27.648621 154.074661 -0.000002 0.338155
43.933605 136.532501 22.460922 0.526513
43.951328 136.528168 19.646120 0.732845
43.933598 136.532501 16.863014 0.744518
43.933620 136.532501 14.116767 0.512612
43.951351 136.528168 11.399158 0.568093
43.933613 136.532501 8.697756 0.542412
43.933613 136.532501 6.012905 0.557137
44.046398 136.504944 3.338580 0.678431
44.046398 136.504944 0.661420 0.678431
4.130920 146.254761 -0.000038 0.534936
-11.722824 150.127213 -0.000021 0.533410
-20.218498 152.202377 0.200022 0.709072
-23.630138 153.035721 0.200017 0.702831
-25.808189 153.567734 0.200013 0.718013
-27.322018 153.937500 0.200011 0.746609
-27.661657 154.020462 -0.000003 0.337972
43.951321 135.940002 22.500952 0.519326
43.951344 135.940002 19.676699 0.658259
43.951336 135.940002 16.892090 0.769696
43.951351 135.939987 14.140473 0.602853
43.951359 135.939987 11.415442 0.559884
43.951351 135.940002 8.710860 0.604486
43.951344 135.940002 6.020757 0.516548
44.046352 135.916092 3.340898 0.592264
44.046352 135.916092 0.659102 0.678431
4.062489 145.978897 -0.000038 0.544274
-11.763802 149.961929 -0.000021 0.540261
-20.244781 152.096359 0.200021 0.727153
-23.650528 152.953491 0.200017 0.773083
-25.824810 153.500702 0.200013 0.717220
-27.336021 153.881027 0.200011 0.706966
-27.675074 153.966354 -0.000002 0.341070
43.951336 135.349747 22.537542 0.444099
43.951344 135.349747 19.708248 0.598291
43.951351 135.349747 16.918674 0.491356
43.951351 135.349747 14.162139 0.519097
43.951336 135.349747 11.432243 0.730861
43.951359 135.349747 8.722836 0.619257
43.951351 135.349747 6.027933 0.493660
44.046352 135.325134 3.343292 0.678431
44.046352 135.325134 0.656708 0.678431
3.992172 145.703522 -0.000038 0.537957
-11.805941 149.796951 -0.000021 0.538674
-20.271812 151.990524 0.200021 0.735958
-23.671488 152.871414 0.200016 0.689815
-25.841900 153.433777 0.200013 0.702846
-27.350418 153.824646 0.200011 0.720577
-27.837851 153.950958 0.038548 0.676646
44.141361 134.706711 22.624523 0.678431
43.951359 134.757355 19.740770 0.536248
44.141376 134.706711 16.981857 0.678431
44.141369 134.706711 14.213646 0.678431
43.951328 134.757370 11.449565 0.642649
44.141354 134.706711 8.751307 0.678431
11.887440 143.304718 4.405126 0.407584
12.599148 143.114990 2.813188 0.405478
44.046375 134.732025 0.654241 0.678431
3.919926 145.428635 -0.000038 0.539895
-11.849232 149.632248 -0.000021 0.543267
-20.299580 151.884888 0.200021 0.731502
-23.693024 152.789474 0.200017 0.766476
-25.859455 153.366989 0.200013 0.754543
-27.365208 153.768387 0.200011 0.693065
-28.046352 153.949951 0.088997 0.743694
43.951382 134.162766 22.614138 0.665187
43.951359 134.162766 19.774288 0.760174
43.951374 134.162766 16.974308 0.563470
43.951359 134.162766 14.207493 0.674968
43.951366 134.162766 11.467421 0.584588
43.951351 134.162766 8.747904 0.683925
43.951374 134.162766 6.042954 0.576181
11.718258 142.996689 2.799779 0.389883
44.046391 134.136719 0.651699 0.678431
3.845753 145.154266 -0.000038 0.535958
-11.893671 149.467865 -0.000021 0.533410
-20.328083 151.779434 0.200021 0.738247
-23.715130 152.707703 0.200017 0.662287
-25.877476 153.300323 0.200013 0.660639
-27.380390 153.712219 0.200011 0.670710
-28.244411 153.949005 0.136827 0.682658
43.951397 133.565887 22.654160 0.600778
43.951397 133.565887 19.808802 0.599084
43.951382 133.565887 17.003384 0.650156
43.951389 133.565887 14.231194 0.394430
43.951389 133.565887 11.485802 0.644953
43.951366 133.565887 8.761006 0.644251
11.801788 142.618698 4.409975 0.416037
10.523102 142.978760 2.781014 0.407919
44.046360 133.539139 0.649082 0.678431
3.769665 144.880417 -0.000037 0.544930
-11.939253 149.303802 -0.000021 0.538643
-20.357319 151.674179 0.200021 0.720027
-23.737806 152.626083 0.200017 0.673716
-25.895962 153.233780 0.200013 0.687037
-27.395964 153.656158 0.200010 0.752346
-28.432833 153.948120 0.182243 0.727657
43.951405 132.966660 22.695354 0.560296
43.951389 132.966660 19.844309 0.685939
43.951374 132.966660 17.033302 0.616175
43.951397 132.966660 14.255588 0.563210
43.951382 132.966660 11.504717 0.518807
43.951382 132.966660 8.774490 0.593454
10.843494 142.539276 4.365775 0.416068
10.621498 142.603455 2.784247 0.405966
44.046345 132.939209 0.646387 0.678431
3.691654 144.607117 -0.000037 0.541497
-11.985981 149.140045 -0.000021 0.531243
-20.387289 151.569153 0.200021 0.741604
-23.761047 152.544617 0.200016 0.677806
-25.914911 153.167374 0.200013 0.773068
-27.411930 153.600204 0.200010 0.666575
-28.514870 153.919098 0.200009 0.708095
44.141361 132.308655 22.787348 0.678431
43.951389 132.365021 19.880838 0.661219
44.141392 132.308640 17.100140 0.678431
44.141376 132.308640 14.310073 0.678431
43.951397 132.365021 11.524176 0.478447
44.141376 132.308640 8.804607 0.678431
11.773438 141.912674 4.418271 0.400168
10.689537 142.234283 2.787014 0.409918
11.919640 141.869293 1.191990 0.367254
3.611767 144.334351 -0.000037 0.539971
-12.033850 148.976624 -0.000021 0.549661
-20.417995 151.464325 0.200020 0.715999
-23.784863 152.463318 0.200016 0.770855
-25.934326 153.101089 0.200013 0.667185
-27.428288 153.544373 0.200011 0.758343
-28.528969 153.870956 0.200009 0.726680
43.951405 131.760849 22.781271 0.651011
43.951412 131.760849 19.918398 0.629297
43.951397 131.760849 17.095716 0.659724
43.951382 131.760864 14.306467 0.658564
43.951389 131.760864 11.544179 0.606241
43.951382 131.760864 8.802614 0.609079
10.873463 141.827332 4.377135 0.406973
12.355801 141.376221 2.817168 0.411505
44.021389 131.739548 0.641195 0.077455
3.529961 144.062149 -0.000037 0.541161
-12.082861 148.813538 -0.000021 0.548531
-20.449432 151.359711 0.200020 0.712505
-23.809242 152.382187 0.200016 0.709636
-25.954203 153.034943 0.200013 0.724498
-27.445030 153.488647 0.200010 0.689799
-28.543407 153.822906 0.200008 0.734981
43.951405 131.154144 22.826019 0.564370
43.951412 131.154144 19.956985 0.721813
43.951412 131.154144 17.128227 0.427558
43.951405 131.154144 14.332974 0.447913
43.951412 131.154144 11.564734 0.581018
43.951405 131.154144 8.817266 0.548730
10.152409 141.698425 4.345149 0.406210
10.313221 141.648254 2.783915 0.402701
44.046368 131.124512 0.637841 0.678431
3.446255 143.790543 -0.000036 0.538705
-12.133009 148.650803 -0.000021 0.528557
-20.481598 151.255310 0.200020 0.673335
-23.834192 152.301224 0.200016 0.739681
-25.974539 152.968948 0.200013 0.684627
-27.462166 153.433044 0.200011 0.694316
-28.558182 153.774979 0.200009 0.707561
44.141376 130.484055 22.921951 0.562982
43.951397 130.544769 19.996618 0.689494
44.141376 130.484055 17.197906 0.678431
44.141369 130.484055 14.389775 0.658915
43.951405 130.544769 11.585845 0.641794
44.141376 130.484039 8.848667 0.678431
11.296215 140.982925 4.409317 0.401663
11.313950 140.977264 2.802836 0.406363
44.046352 130.514420 0.634834 0.678431
3.360680 143.519516 -0.000037 0.541299
-12.184290 148.488419 -0.000021 0.541634
-20.514492 151.151154 0.200020 0.690669
-23.859701 152.220444 0.200016 0.666087
-25.995338 152.903091 0.200013 0.686992
-27.479689 153.377563 0.200011 0.735485
-28.573290 153.727127 0.200009 0.671519
44.101345 129.883575 22.958706 0.203555
43.951389 129.932663 20.037310 0.550896
44.101315 129.883591 17.224598 0.175067
44.101345 129.883575 14.411546 0.107591
43.951382 129.932663 11.607517 0.588571
44.101337 129.883575 8.860697 0.190158
44.101337 129.883575 6.110534 0.154971
44.046345 129.901581 3.368253 0.696941
44.046345 129.901581 0.631749 0.678431
3.273182 143.249084 -0.000036 0.534813
-12.236702 148.326401 -0.000021 0.537820
-20.548117 151.047226 0.200020 0.690669
-23.885778 152.139847 0.200016 0.687953
-26.016594 152.837387 0.200013 0.717571
-27.497593 153.322205 0.200010 0.694881
-28.588732 153.679398 0.200009 0.695201
43.951351 129.317795 22.967602 0.426322
43.951351 129.317780 20.079058 0.584024
43.951374 129.317780 17.231075 0.499855
43.951389 129.317780 14.416818 0.588540
43.951382 129.317780 11.629759 0.466529
43.951366 129.317780 8.863613 0.371542
43.951366 129.317780 6.112277 0.554192
44.046360 129.285950 3.371421 0.497719
44.046360 129.285950 0.628581 0.497719
3.183804 142.979294 -0.000036 0.544091
-12.290247 148.164749 -0.000021 0.540169
-18.933764 150.391037 -0.000014 0.546258
-23.912411 152.059418 0.200016 0.766400
-26.038309 152.771820 0.200013 0.738689
-27.515890 153.266968 0.200011 0.751888
-28.604506 153.631775 0.200009 0.721096
43.951344 128.699997 23.017277 0.663462
43.951321 128.700012 20.121885 0.729641
43.951351 128.699997 17.267155 0.562280
43.951351 128.699997 14.446234 0.651682
43.951359 128.699997 11.652575 0.749722
43.951336 128.699997 8.879873 0.611215
43.951344 128.699997 6.122019 0.663920
44.046383 128.667419 3.374671 0.678431
44.046383 128.667419 0.625331 0.678431
3.092548 142.710114 -0.000036 0.538735
-12.344923 148.003479 -0.000020 0.535897
-18.972727 150.276093 -0.000014 0.535515
-23.939610 151.979187 0.200016 0.752468
-26.060482 152.706421 0.200013 0.664683
-27.534569 153.211868 0.200011 0.664729
-28.620609 153.584259 0.200008 0.679469
44.141392 128.012604 23.118671 0.678431
43.951344 128.079254 20.165821 0.441749
44.141399 128.012604 17.340813 0.678431
44.141392 128.012604 14.506277 0.678431
43.951344 128.079254 11.675971 0.713390
44.141407 128.012604 8.913066 0.678431
44.141392 128.012604 6.141907 0.678431
44.021366 128.054703 3.377569 0.086610
44.021366 128.054703 0.622431 0.094118
2.999428 142.441589 -0.000036 0.542489
-12.400719 147.842590 -0.000020 0.540764
-19.012495 150.161423 -0.000014 0.536767
-23.967363 151.899155 0.200015 0.690196
-26.083107 152.641174 0.200013 0.678431
-27.553629 153.156906 0.200010 0.718746
-28.637047 153.536865 0.200008 0.741009
43.951405 127.455444 23.120470 0.644282
43.951389 127.455444 20.210861 0.589685
43.951374 127.455452 17.342108 0.660975
43.951382 127.455452 14.507335 0.697704
43.951374 127.455452 11.699961 0.594293
43.951397 127.455444 8.913651 0.673899
43.951382 127.455444 6.142257 0.648478
44.046383 127.421387 3.381420 0.678431
44.046391 127.421379 0.618582 0.678431
2.904423 142.173706 -0.000036 0.538277
-12.457632 147.682098 -0.000020 0.533562
-19.053068 150.047028 -0.000013 0.542397
-23.995678 151.819305 0.200015 0.664683
-26.106194 152.576080 0.200013 0.746944
-27.573078 153.102066 0.200010 0.666407
-28.653816 153.489578 0.200008 0.691264
43.951359 126.828537 23.173975 0.540948
43.951397 126.828522 20.257011 0.652964
43.951351 126.828537 17.380981 0.548669
43.951366 126.828537 14.539027 0.604944
43.951374 126.828529 11.724540 0.435096
43.951382 126.828529 8.931170 0.636088
43.951389 126.828529 6.152755 0.595895
44.021366 126.802887 3.384482 0.086687
44.021366 126.802887 0.615518 0.062745
2.807549 141.906509 -0.000036 0.542519
-12.515673 147.522003 -0.000020 0.538979
-19.094433 149.932922 -0.000013 0.537453
-24.024548 151.739670 0.200015 0.674861
-26.129730 152.511154 0.200013 0.686305
-27.592909 153.047363 0.200010 0.761044
-28.670914 153.442413 0.200009 0.701854
nan nan nan 0.000000
43.951420 126.198372 20.304295 0.544396
43.951405 126.198380 17.420818 0.620325
43.951397 126.198380 14.571502 0.630396
43.951420 126.198380 11.749725 0.517449
43.951420 126.198380 8.949118 0.714946
43.951412 126.198380 6.163510 0.551751
44.021351 126.172188 3.388069 0.081865
44.021358 126.172188 0.611933 0.081865
2.708836 141.639984 -0.000036 0.538537
-12.574827 147.362335 -0.000020 0.544030
-19.136591 149.819107 -0.000013 0.547417
-24.053978 151.660233 0.200016 0.698360
-26.153719 152.446396 0.200013 0.730251
-27.613117 152.992798 0.200010 0.670985
-28.688341 153.395370 0.200009 0.671321
nan nan nan 0.000000
43.951389 125.564941 20.352703 0.541833
44.141346 125.492302 17.498611 0.678431
44.141361 125.492294 14.634922 0.678431
43.951382 125.564941 11.775510 0.708721
44.141338 125.492302 8.984175 0.678431
44.141354 125.492302 6.184511 0.678431
44.046413 125.528610 3.392177 0.598291
44.046413 125.528610 0.607822 0.597299
2.608234 141.374161 -0.000035 0.542473
-12.635092 147.203064 -0.000020 0.539071
-19.179546 149.705597 -0.000013 0.538552
-24.083958 151.580994 0.200016 0.754299
-26.178158 152.381805 0.200013 0.683482
-27.633709 152.938385 0.200010 0.748165
-28.706095 153.348450 0.200009 0.746090
nan nan nan 0.000000
43.951374 124.928101 20.402275 0.545312
43.951382 124.928101 17.503370 0.595666
43.951382 124.928101 14.638802 0.622034
43.951351 124.928116 11.801912 0.544564
43.951374 124.928108 8.986319 0.570733
43.951374 124.928101 6.185796 0.450858
44.046360 124.891022 3.395938 0.678431
44.046368 124.891014 0.604062 0.678431
2.505768 141.109055 -0.000034 0.539117
-12.696468 147.044220 -0.000019 0.553903
-19.223295 149.592377 -0.000013 0.524147
-24.114489 151.501968 0.200015 0.686748
-26.203049 152.317383 0.200013 0.677577
-27.654680 152.884109 0.200010 0.690654
-28.724178 153.301666 0.200009 0.668956
nan nan nan 0.000000
43.951382 124.287796 20.453020 0.474372
43.951412 124.287788 17.546127 0.615686
43.951389 124.287796 14.673656 0.621561
43.951405 124.287788 11.828948 0.610346
43.951405 124.287788 9.005587 0.622675
43.951405 124.287788 6.197341 0.577920
44.046413 124.249924 3.399786 0.678431
44.046413 124.249924 0.600212 0.678431
2.401489 140.844650 -0.000034 0.539483
-12.758957 146.885818 -0.000019 0.533349
-19.267826 149.479477 -0.000013 0.547219
-24.145571 151.423172 0.200015 0.705196
-26.228390 152.253128 0.200012 0.745754
-27.676029 152.829987 0.200010 0.687282
-28.742586 153.254990 0.200009 0.765743
nan nan nan 0.000000
43.951389 123.643890 20.504953 0.533303
44.141392 123.566635 17.627193 0.678431
44.141422 123.566628 14.739751 0.666667
43.951412 123.643883 11.856611 0.571160
44.141399 123.566635 9.042118 0.678431
44.141407 123.566635 6.219231 0.678431
44.046383 123.605270 3.403726 0.678431
44.046383 123.605270 0.596274 0.678431
2.295341 140.580994 -0.000034 0.536889
-12.822546 146.727844 -0.000019 0.551629
-19.313156 149.366882 -0.000013 0.573129
-24.177204 151.344574 0.200014 0.687984
-26.254177 152.189072 0.200012 0.694057
-27.697754 152.776016 0.200010 0.715358
-28.761318 153.208450 0.200009 0.691814
nan nan nan 0.000000
43.951374 122.996353 20.558079 0.635157
43.951366 122.996353 17.634632 0.448997
43.951389 122.996353 14.745808 0.500740
43.951382 122.996353 11.884906 0.534524
43.951382 122.996353 9.045469 0.798993
43.951389 122.996353 6.221238 0.487633
44.046352 122.956955 3.407755 0.678431
44.046352 122.956955 0.592243 0.678431
2.187382 140.318085 -0.000034 0.535088
-12.887232 146.570328 -0.000019 0.535790
-19.359261 149.254608 -0.000012 0.554879
-24.209381 151.266220 0.200014 0.717678
-26.280415 152.125183 0.200012 0.688273
-27.719856 152.722198 0.200010 0.720333
-28.780376 153.162048 0.200009 0.669093
nan nan nan 0.000000
43.951366 122.345032 20.612423 0.703227
43.951374 122.345024 17.680418 0.666728
43.951351 122.345032 14.783130 0.619669
43.951366 122.345032 11.913852 0.475639
43.951389 122.345016 9.066100 0.535409
43.951366 122.345032 6.233597 0.530846
44.021320 122.315437 3.411436 0.120714
44.021320 122.315437 0.588566 0.070832
2.077587 140.055923 -0.000034 0.544320
-12.953022 146.413254 -0.000019 0.540810
-19.406151 149.142670 -0.000013 0.546380
-24.242111 151.188080 0.200014 0.749935
-26.307093 152.061478 0.200012 0.723827
-27.742334 152.668533 0.200010 0.735012
-28.799755 153.115768 0.200008 0.680171
53.272121 117.670616 26.193188 0.535149
43.951351 121.689857 20.667997 0.750683
44.141376 121.607925 17.764887 0.678431
44.141376 121.607918 14.851998 0.678431
43.951351 121.689857 11.943453 0.740169
44.141369 121.607925 9.104167 0.678431
44.141392 121.607910 6.256405 0.678431
44.021351 121.659668 3.415649 0.074510
44.021351 121.659668 0.584351 0.099351
1.965942 139.794556 -0.000034 0.539117
-13.019899 146.256653 -0.000019 0.549035
-19.453817 149.031036 -0.000013 0.533867
-24.275385 151.110168 0.200014 0.665873
-26.334219 151.997971 0.200012 0.670192
-27.765186 152.615021 0.200010 0.677150
-28.819460 153.069641 0.200008 0.714961
51.596539 117.670525 25.808369 0.642008
51.596531 117.670532 22.528475 0.502953
43.951366 121.030731 17.775108 0.657847
43.951359 121.030731 14.860332 0.639170
43.951366 121.030731 11.973723 0.498985
43.951359 121.030731 9.108771 0.526299
43.951359 121.030731 6.259165 0.549584
44.046391 120.988960 3.420405 0.678431
44.046391 120.988960 0.579595 0.678431
1.852489 139.533951 -0.000033 0.539040
-13.087879 146.100525 -0.000019 0.529488
-19.502274 148.919769 -0.000012 0.521172
-24.309200 151.032501 0.200014 0.684581
-26.361786 151.934647 0.200012 0.691447
-27.788412 152.561676 0.200010 0.678111
-28.839485 153.023636 0.200009 0.710445
49.973217 117.670502 25.436689 0.581277
49.973225 117.670494 22.207998 0.750530
43.951397 120.367516 17.824055 0.469184
43.951389 120.367523 14.900231 0.521889
43.951405 120.367516 12.004669 0.696895
43.951405 120.367508 9.130829 0.691142
43.951397 120.367516 6.272381 0.590814
44.046360 120.324982 3.424811 0.678431
44.046360 120.324982 0.575187 0.678431
1.737217 139.274155 -0.000033 0.536553
-13.156942 145.944870 -0.000019 0.541939
-19.551495 148.808823 -0.000012 0.544305
-23.112900 150.403885 -0.000009 0.547295
-26.389795 151.871521 0.200012 0.735515
-27.812008 152.508484 0.200010 0.677089
-28.859831 152.977783 0.200008 0.695857
48.815754 117.480652 25.192093 0.678431
48.815769 117.480652 21.997101 0.678431
44.141384 119.613480 17.912075 0.678431
44.141407 119.613472 14.971992 0.678431
43.951366 119.700180 12.036292 0.516320
44.141399 119.613480 9.170495 0.678431
44.141384 119.613480 6.296145 0.678431
44.046406 119.656815 3.429318 0.526772
44.046406 119.656815 0.570682 0.497215
1.620129 139.015182 -0.000033 0.540322
-13.227095 145.789703 -0.000018 0.544961
-19.601492 148.698227 -0.000012 0.521798
-23.151676 150.318115 -0.000009 0.542138
-26.418243 151.808594 0.200012 0.678920
-27.835976 152.455475 0.200010 0.758694
-28.880499 152.932068 0.200009 0.748775
46.873562 117.670502 24.730307 0.704005
47.215534 117.511566 21.680376 0.146258
43.951344 119.028587 17.925186 0.742458
43.951344 119.028587 14.982677 0.528984
43.951328 119.028595 12.068606 0.647669
43.951336 119.028595 9.176399 0.574395
43.951351 119.028587 6.299682 0.458885
44.046406 118.984406 3.433919 0.678431
44.046406 118.984406 0.566081 0.678431
1.501240 138.757019 -0.000033 0.536492
-13.298325 145.635025 -0.000018 0.531243
-19.652264 148.587982 -0.000012 0.527932
-23.191048 150.232620 -0.000009 0.549752
-26.447128 151.745865 0.200012 0.755489
-27.860313 152.402634 0.200010 0.655634
-28.901484 152.886505 0.200009 0.676707
45.392597 117.670509 24.394445 0.593393
45.392628 117.670494 21.309343 0.609598
43.951359 118.352592 17.977417 0.515633
43.951328 118.352608 15.025250 0.450858
43.951351 118.352600 12.101627 0.645121
43.951336 118.352600 9.199936 0.585184
43.951344 118.352600 6.313784 0.499458
44.046391 118.307617 3.438621 0.678431
44.046391 118.307617 0.561377 0.678431
1.380558 138.499695 -0.000032 0.536980
-13.370630 145.480850 -0.000018 0.536324
-19.703800 148.478104 -0.000012 0.539910
-23.231018 150.147400 -0.000009 0.530617
-26.476454 151.683334 0.200011 0.703563
-27.885015 152.349945 0.200009 0.743221
-28.922785 152.841080 0.200009 0.725155
43.954601 117.670555 24.069397 0.496803
43.954617 117.670547 21.029072 0.606409
43.951351 117.672119 18.030767 0.743557
43.951344 117.672119 15.068751 0.527352
43.951351 117.672119 12.135363 0.527840
43.951351 117.672119 9.223982 0.660395
43.951351 117.672119 6.328190 0.599786
44.046421 117.626312 3.443426 0.527398
44.046421 117.626312 0.556573 0.574731
1.258068 138.243225 -0.000032 0.541314
-13.444014 145.327194 -0.000018 0.539254
-19.756100 148.368576 -0.000012 0.533654
-23.271584 150.062454 -0.000009 0.538430
-26.506216 151.621017 0.200012 0.691035
-27.910089 152.297440 0.200010 0.675105
-28.944403 152.795807 0.200009 0.675868
42.557621 117.670639 23.754681 0.659220
42.557629 117.670639 20.757706 0.426978
42.557629 117.670639 17.802811 0.415564
42.557621 117.670639 14.882915 0.514046
42.557613 117.670639 11.991235 0.411566
42.557621 117.670639 9.121256 0.577462
42.557629 117.670639 6.266645 0.490257
42.751286 117.575661 3.424728 0.675258
42.751286 117.575661 0.575272 0.596124
1.133808 137.987610 -0.000032 0.536629
-13.518469 145.174042 -0.000018 0.538140
-19.809166 148.259415 -0.000012 0.544427
-23.312740 149.977798 -0.000008 0.552193
-26.536407 151.558899 0.200011 0.743984
-27.935528 152.245117 0.200009 0.735164
-28.966335 152.750702 0.200009 0.666941
41.334957 117.603287 23.487663 0.536599
41.200008 117.670639 20.494900 0.584360
41.610882 117.465546 17.664963 0.424018
41.610882 117.465553 14.770535 0.190967
41.199986 117.670654 11.851250 0.609888
41.610897 117.465546 9.059136 0.316869
41.610889 117.465546 6.229426 0.149966
41.410084 117.565781 3.405130 0.062745
41.410084 117.565781 0.594871 0.187320
1.007744 137.732864 -0.000032 0.542931
-13.593988 145.021423 -0.000018 0.540490
-19.862993 148.150635 -0.000012 0.547387
-23.354485 149.893433 -0.000008 0.531685
-26.567036 151.496994 0.200011 0.667872
-27.961330 152.192963 0.200010 0.674937
-28.988585 152.705734 0.200008 0.683940
39.879932 117.670609 23.154551 0.535271
39.879940 117.670601 20.240257 0.709285
39.879932 117.670609 17.366871 0.484154
39.879925 117.670609 14.527520 0.514031
39.879932 117.670609 11.715614 0.593820
39.879932 117.670609 8.924809 0.666911
39.879932 117.670609 6.148944 0.785779
40.066936 117.575623 3.385426 0.678431
40.066936 117.575623 0.614574 0.678431
0.879932 137.479004 -0.000032 0.540734
-13.670568 144.869324 -0.000018 0.532799
-19.917576 148.042221 -0.000012 0.549966
-23.396816 149.809357 -0.000008 0.508644
-26.598093 151.435318 0.200011 0.755398
-27.987495 152.141006 0.200009 0.671687
-29.011147 152.660919 0.200008 0.762249
39.960377 116.965378 23.253029 0.678431
39.770374 117.063560 20.278971 0.432547
39.960369 116.965378 17.438404 0.678431
39.960377 116.965378 14.585843 0.678431
39.770390 117.063553 11.736242 0.517678
39.960369 116.965378 8.957041 0.678431
39.960369 116.965378 6.168258 0.678431
39.865383 117.014465 3.386676 0.678431
39.865383 117.014465 0.613323 0.678431
0.750317 137.226059 -0.000031 0.541146
-13.748217 144.717773 -0.000018 0.547173
-19.972919 147.934204 -0.000012 0.543389
-23.439735 149.725586 -0.000009 0.547707
-26.629581 151.373840 0.200011 0.740978
-28.014027 152.089218 0.200009 0.698283
-29.034021 152.616272 0.200008 0.699107
39.770412 116.396065 23.276739 0.657816
39.770443 116.396057 20.345617 0.574334
39.770420 116.396065 17.455633 0.566186
39.770412 116.396065 14.599885 0.622934
39.770435 116.396057 11.771736 0.574975
39.770435 116.396057 8.964808 0.627451
39.770412 116.396065 6.172908 0.630625
39.865376 116.346161 3.391732 0.678431
39.865368 116.346161 0.608268 0.678431
0.618958 136.974030 -0.000031 0.537255
-13.826916 144.566757 -0.000018 0.539361
-20.029013 147.826584 -0.000012 0.545174
-23.483234 149.642120 -0.000008 0.533684
-26.661497 151.312607 0.200010 0.666560
-28.040915 152.037628 0.200009 0.736751
-29.057205 152.571793 0.200008 0.741390
39.920307 115.643532 23.398197 0.039460
39.770374 115.723679 20.413614 0.594491
39.920322 115.643524 17.543865 0.160418
39.920322 115.643524 14.671810 0.128679
39.770397 115.723663 11.807960 0.500206
39.920307 115.643532 9.004564 0.177539
39.920322 115.643524 6.196731 0.076844
39.840374 115.686264 3.396429 0.078599
39.840374 115.686264 0.603573 0.094118
0.485844 136.722900 -0.000031 0.531807
-13.906673 144.416306 -0.000017 0.531868
-20.085857 147.719345 -0.000012 0.529519
-23.527323 149.558945 -0.000008 0.519661
-26.693844 151.251587 0.200010 0.701396
-28.068163 151.986221 0.200009 0.667063
-29.080702 152.527466 0.200009 0.744854
39.950993 114.948074 23.487621 0.630106
39.770420 115.046219 20.483051 0.626154
39.960339 114.942993 17.610756 0.678431
39.960316 114.943001 14.726339 0.678431
39.770412 115.046227 11.844942 0.607034
39.960331 114.942993 9.034708 0.678431
39.960316 114.943001 6.214787 0.678431
39.865391 114.994598 3.402158 0.535424
39.865391 114.994598 0.597842 0.586130
0.350990 136.472717 -0.000031 0.536568
-13.987476 144.266418 -0.000017 0.540261
-20.143452 147.612503 -0.000011 0.544732
-23.571983 149.476089 -0.000008 0.549371
-26.726608 151.190796 0.200010 0.697169
-28.095770 151.934998 0.200009 0.756039
-29.104504 152.483307 0.200008 0.681147
39.770390 114.363625 23.518309 0.493812
39.770374 114.363632 20.553896 0.588464
39.770397 114.363617 17.631111 0.609567
39.770382 114.363632 14.742937 0.648554
39.770382 114.363632 11.882678 0.537011
39.770390 114.363625 9.043881 0.542901
39.770374 114.363632 6.220284 0.584649
39.865376 114.311127 3.407534 0.678431
39.865376 114.311127 0.592466 0.678431
0.214367 136.223480 -0.000030 0.540856
-14.069319 144.117081 -0.000017 0.536416
-20.201786 147.506073 -0.000011 0.550225
-23.617226 149.393539 -0.000008 0.537667
-26.759802 151.130234 0.200010 0.671138
-28.123732 151.883972 0.200009 0.687297
-29.128614 152.439301 0.200008 0.756588
39.770367 113.675751 23.602173 0.647547
39.770374 113.675743 20.626213 0.540749
39.920368 113.591476 17.723333 0.326253
39.920376 113.591476 14.818123 0.248096
39.770359 113.675751 11.921194 0.391867
39.920361 113.591484 9.085439 0.208301
39.920368 113.591476 6.245187 0.077211
39.865414 113.622353 3.413018 0.678431
39.865414 113.622353 0.586980 0.678431
0.076031 135.975204 -0.000030 0.544564
-14.152201 143.968323 -0.000017 0.552605
-20.260859 147.400040 -0.000011 0.531273
-23.663044 149.311325 -0.000008 0.544396
-26.793415 151.069901 0.200009 0.738857
-28.152054 151.833145 0.200009 0.731182
-29.153034 152.395477 0.200008 0.692195
39.770367 112.982445 23.687761 0.750637
39.960423 112.873932 20.747272 0.513130
39.960415 112.873932 17.794022 0.678431
39.960438 112.873924 14.875750 0.678431
39.770367 112.982445 11.960502 0.459541
39.960430 112.873924 9.117296 0.678431
39.960430 112.873924 6.264272 0.678431
39.865353 112.928207 3.418619 0.678431
39.865353 112.928207 0.581383 0.678431
-0.064041 135.727890 -0.000030 0.538674
-14.236132 143.820160 -0.000016 0.548775
-20.320667 147.294434 -0.000012 0.548730
-23.709431 149.229416 -0.000008 0.532631
-26.827454 151.009811 0.200010 0.682887
-28.180725 151.782532 0.200009 0.674205
-29.177755 152.351822 0.200008 0.683024
39.770412 112.283562 23.775110 0.727611
39.770420 112.283554 20.775322 0.478645
39.770397 112.283569 17.817644 0.453086
39.770405 112.283569 14.895010 0.559503
39.770405 112.283569 12.000615 0.653010
39.770405 112.283569 9.127943 0.543954
39.770412 112.283562 6.270652 0.480430
39.865406 112.228439 3.424332 0.594186
39.865406 112.228439 0.575670 0.585748
-0.205837 135.481567 -0.000030 0.542000
-14.321081 143.672577 -0.000016 0.534127
-20.381229 147.189255 -0.000011 0.551354
-23.756392 149.147842 -0.000008 0.559365
-25.911133 150.398224 -0.000008 0.554604
-28.209751 151.732101 0.200009 0.723186
-29.202785 152.308350 0.200008 0.682094
39.770382 111.579048 23.864206 0.552682
39.908146 111.497818 20.886684 0.617212
39.908131 111.497826 17.911469 0.560693
39.908146 111.497818 14.971498 0.653117
39.770374 111.579048 12.041538 0.686381
39.908138 111.497818 9.170220 0.534859
39.908146 111.497818 6.295981 0.461601
39.865345 111.523056 3.430157 0.676020
39.865345 111.523056 0.569841 0.677714
-0.349354 135.236252 -0.000029 0.542672
-14.407064 143.525589 -0.000016 0.551797
-20.442513 147.084488 -0.000011 0.545403
-23.803917 149.066589 -0.000008 0.489738
-25.949879 150.331985 -0.000008 0.559152
-28.239128 151.681885 0.200008 0.709880
-29.228115 152.265045 0.200008 0.733440
41.991619 109.537903 24.603724 0.567758
42.181652 109.424042 21.537632 0.678431
42.181660 109.424042 18.459879 0.678431
41.991611 109.537903 15.385710 0.665812
41.991611 109.537910 12.381175 0.589624
42.181637 109.424057 9.417351 0.678431
42.181644 109.424057 6.444045 0.678431
42.112667 109.465378 3.478974 0.302052
42.112667 109.465378 0.521026 0.086275
-0.494579 134.991928 -0.000029 0.544961
-14.494076 143.379211 -0.000016 0.542702
-20.504526 146.980148 -0.000011 0.541894
-23.852013 148.985672 -0.000008 0.512398
-25.989086 150.266022 -0.000008 0.535271
-28.268858 151.631866 0.200009 0.668788
-29.253746 152.221924 0.200008 0.694026
41.991642 108.800400 24.699228 0.758099
41.991627 108.800407 21.572124 0.636652
41.991627 108.800400 18.488934 0.477195
41.991627 108.800407 15.442263 0.593820
41.991642 108.800400 12.425036 0.581796
41.991642 108.800400 9.430448 0.553811
41.991627 108.800400 6.451892 0.610330
42.086590 108.742607 3.484725 0.678431
42.086590 108.742607 0.515277 0.678431
-0.641502 134.748627 -0.000029 0.535439
-14.582102 143.233444 -0.000016 0.531106
-20.567265 146.876251 -0.000011 0.541024
-23.900673 148.905106 -0.000008 0.542000
-26.028753 150.200333 -0.000008 0.538521
-28.298933 151.582062 0.200008 0.693309
-29.279680 152.178986 0.200008 0.709133
41.991627 108.056610 24.796646 0.573724
41.991642 108.056595 21.656128 0.575128
41.991634 108.056602 18.559702 0.574929
41.991634 108.056610 15.499956 0.616388
41.991634 108.056595 12.469776 0.609613
41.991634 108.056602 9.462337 0.549752
41.991657 108.056580 6.471001 0.567437
42.086597 107.997887 3.491097 0.678431
42.086597 107.997887 0.508903 0.666667
-0.790123 134.506363 -0.000029 0.536187
-14.671148 143.088287 -0.000016 0.543572
-20.630733 146.772797 -0.000010 0.527169
-23.949884 148.824860 -0.000009 0.558556
-26.068878 150.134918 -0.000007 0.511925
-28.329357 151.532455 0.200008 0.721630
-29.305910 152.136215 0.200007 0.775814
42.181652 107.187057 24.952225 0.678431
42.181622 107.187080 21.790264 0.678431
42.181637 107.187073 18.672718 0.678431
41.991665 107.306358 15.558811 0.590112
41.991642 107.306366 12.515422 0.589395
42.181637 107.187073 9.513263 0.678431
42.181652 107.187057 6.501512 0.678431
42.086620 107.246727 3.497597 0.634470
42.086620 107.246727 0.502403 0.678431
-0.940430 134.265152 -0.000028 0.537606
-14.761192 142.943756 -0.000016 0.535897
-20.694916 146.669785 -0.000010 0.517861
-23.999660 148.744965 -0.000009 0.549889
-26.109457 150.069794 -0.000008 0.524330
-28.360123 151.483078 0.200008 0.701839
-29.332439 152.093643 0.200007 0.656413
41.991650 106.549515 24.997408 0.550591
41.991642 106.549522 21.829226 0.656519
41.991642 106.549530 18.705540 0.662776
41.991665 106.549507 15.618848 0.660685
41.991642 106.549522 12.561981 0.490791
41.991642 106.549522 9.528052 0.629664
41.991657 106.549515 6.510374 0.593729
42.086605 106.488968 3.504228 0.678431
42.086605 106.488968 0.495774 0.678431
-1.092426 134.024994 -0.000028 0.543938
-14.852262 142.799866 -0.000016 0.539818
-20.759823 146.567230 -0.000010 0.548608
-24.049999 148.665436 -0.000009 0.509834
-26.150494 150.004959 -0.000008 0.521233
-28.391235 151.433914 0.200008 0.745251
-29.359268 152.051239 0.200007 0.748058
41.991680 105.785889 25.100822 0.535973
41.991642 105.785919 21.918390 0.500175
41.991673 105.785889 18.780661 0.491371
41.991657 105.785904 15.680082 0.496590
41.991642 105.785919 12.609472 0.594446
41.991657 105.785904 9.561907 0.600824
41.991665 105.785904 6.530655 0.636683
42.086590 105.724426 3.510991 0.678431
42.086590 105.724426 0.489009 0.678431
-1.246082 133.785889 -0.000027 0.541161
-14.944321 142.656616 -0.000016 0.550225
-20.825436 146.465118 -0.000010 0.553994
-24.100883 148.586243 -0.000009 0.545373
-26.191975 149.940399 -0.000008 0.648035
-28.422689 151.384964 0.200008 0.678721
-29.386387 152.009033 0.200007 0.675502
40.979916 105.680603 24.902990 0.582696
40.979900 105.680618 21.747818 0.594720
40.979885 105.680618 18.636948 0.584909
40.979893 105.680618 15.562931 0.614435
40.979885 105.680618 12.518615 0.605951
40.979893 105.680618 9.497145 0.709163
40.979885 105.680618 6.491856 0.606271
41.124348 105.585632 3.499043 0.678431
41.124348 105.585632 0.500955 0.678431
-1.401409 133.547852 -0.000027 0.539467
-15.037384 142.514008 -0.000015 0.534752
-20.891766 146.363480 -0.000010 0.536339
-24.152328 148.507416 -0.000009 0.524941
-26.233912 149.876129 -0.000008 0.549279
-28.454487 151.336243 0.200007 0.728725
-29.413805 151.967026 0.200007 0.733104
39.830112 105.680702 24.662882 0.593133
39.830112 105.680710 21.540789 0.650065
39.830120 105.680702 18.462540 0.528130
39.830112 105.680710 15.420742 0.559289
39.830097 105.680710 12.408345 0.717266
39.830105 105.680702 9.418549 0.530449
39.830097 105.680710 6.444764 0.491829
39.972416 105.585701 3.483331 0.678431
39.972424 105.585693 0.516669 0.678431
-1.558407 133.310944 -0.000026 0.537865
-15.131439 142.372055 -0.000015 0.537163
-20.958805 146.262299 -0.000010 0.550072
-24.204317 148.428940 -0.000009 0.498924
-26.276295 149.812164 -0.000008 0.542489
-28.486620 151.287735 0.200007 0.660624
-29.441513 151.925201 0.200007 0.757336
39.960392 104.829384 24.808979 0.551049
39.960415 104.829361 21.666767 0.678431
39.960407 104.829369 18.568668 0.678431
39.770390 104.958145 15.473215 0.582986
39.770405 104.958138 12.449039 0.693202
39.960400 104.829376 9.466375 0.678431
39.960407 104.829369 6.473420 0.678431
39.865353 104.893784 3.488196 0.678431
39.865353 104.893784 0.511804 0.678431
-1.717033 133.075104 -0.000027 0.539834
-15.226484 142.230759 -0.000015 0.523766
-21.026546 146.161591 -0.000010 0.538857
-24.256851 148.350845 -0.000009 0.542504
-26.319126 149.748489 -0.000008 0.545480
-28.519093 151.239456 0.200007 0.770062
-29.469513 151.883575 0.200007 0.674601
39.770397 104.188484 24.860205 0.600397
39.770397 104.188477 21.710932 0.581689
39.770397 104.188484 18.605873 0.562478
39.770412 104.188477 15.537598 0.590799
39.770397 104.188477 12.498968 0.503822
39.770382 104.188492 9.483139 0.502007
39.770397 104.188477 6.483465 0.620127
11.808094 123.425400 2.938023 0.826780
11.808094 123.425400 1.061976 0.853880
-1.877304 132.840393 -0.000026 0.539864
-15.322506 142.090134 -0.000015 0.536477
-21.094986 146.061356 -0.000010 0.527626
-24.309929 148.273102 -0.000009 0.528313
-26.362396 149.685120 -0.000008 0.532387
-28.551903 151.191406 0.200007 0.661006
-29.497803 151.842148 0.200007 0.717189
39.770351 103.411423 24.971071 0.671916
39.770374 103.411400 21.806536 0.654688
39.770390 103.411392 18.686420 0.636683
39.770359 103.411407 15.603252 0.694896
39.770367 103.411407 12.549891 0.504906
39.770359 103.411407 9.519438 0.639368
39.770367 103.411407 6.505210 0.581796
11.425465 123.204483 2.934936 0.832547
11.425461 123.204483 1.065064 0.861509
-2.039215 132.606796 -0.000026 0.541329
-15.419516 141.950180 -0.000015 0.550042
-21.164127 145.961609 -0.000010 0.532815
-24.363552 148.195740 -0.000009 0.513024
-26.406109 149.622055 -0.000008 0.529427
-28.585047 151.143585 0.200007 0.678599
-29.526379 151.800919 0.200006 0.657679
39.816128 102.594261 25.098228 0.478660
39.816128 102.594254 21.916164 0.471199
39.816128 102.594261 18.778780 0.457099
39.770397 102.626678 15.670235 0.479240
39.816120 102.594269 12.608284 0.484672
39.816128 102.594261 9.561058 0.514946
7.808876 125.278778 4.602865 0.987945
11.045315 122.985016 2.931915 0.824155
11.045315 122.985016 1.068085 0.826719
-2.202747 132.374329 -0.000026 0.538231
-15.517500 141.810898 -0.000015 0.541390
-21.233965 145.862335 -0.000010 0.526925
-24.417713 148.118759 -0.000009 0.552911
-26.450264 149.559296 -0.000007 0.527504
-28.618523 151.095993 0.200006 0.657725
-29.555244 151.759888 0.200006 0.707393
39.960369 101.697525 25.258154 0.678431
39.960354 101.697533 22.054058 0.678431
39.960339 101.697540 18.894945 0.678431
39.770367 101.834183 15.738540 0.546120
39.960339 101.697540 12.681731 0.678431
39.960346 101.697540 9.613409 0.678431
7.454155 125.078300 4.594406 0.952697
10.667618 122.766953 2.928959 0.821790
10.667618 122.766953 1.071041 0.828458
-2.367908 132.143021 -0.000026 0.549416
-15.616446 141.672318 -0.000014 0.542016
-21.304491 145.763565 -0.000009 0.541451
-24.472410 148.042145 -0.000008 0.519112
-26.494854 149.496841 -0.000008 0.574487
-28.652332 151.048645 0.200007 0.728435
-29.584396 151.719055 0.200006 0.681147
39.770420 101.033630 25.317200 0.763622
39.770390 101.033653 22.104963 0.605722
39.770390 101.033646 18.937832 0.396338
39.770397 101.033646 15.808221 0.399420
39.770382 101.033661 12.708846 0.556695
39.770397 101.033646 9.632735 0.630228
7.105347 124.876450 4.586348 0.991791
10.292286 122.550247 2.926066 0.824689
10.292286 122.550247 1.073934 0.827512
-2.534687 131.912872 -0.000026 0.541787
-15.716368 141.534424 -0.000014 0.547799
-21.375708 145.665283 -0.000009 0.534569
-24.527641 147.965927 -0.000009 0.531380
