# This PCD file was generated using the MATLABÂ® pcwrite function
# from Computer Vision ToolboxÂ®.
# .PCD v.7 - Point Cloud Data file format
VERSION .7
FIELDS x y z intensity
SIZE 4 4 4 4
TYPE F F F F
COUNT 1 1 1 1
WIDTH 1270
HEIGHT 1
VIEWPOINT 0 0 0 1 0 0 0
POINTS 1270
DATA ascii
nan nan nan 0.000000
nan nan nan 0.000000
nan nan nan 0.000000
nan nan nan 0.000000
nan nan nan 0.000000
41.991657 186.686417 0.000001 0.535698
30.794216 174.814758 -0.000000 0.539925
25.986732 169.717804 0.000000 0.545602
23.309219 166.879074 0.000000 0.531991
20.845659 164.267181 0.200001 0.736156
19.776394 163.133530 0.200002 0.681956
19.214943 162.538269 0.117376 0.653513
nan nan nan 0.000000
nan nan nan 0.000000
nan nan nan 0.000000
nan nan nan 0.000000
nan nan nan 0.000000
nan nan nan 0.000000
nan nan nan 0.000000
nan nan nan 0.000000
nan nan nan 0.000000
42.197720 186.490677 0.000001 0.545098
30.917686 174.697495 -0.000000 0.544106
26.074736 169.634216 -0.000000 0.539544
23.377468 166.814255 0.000000 0.532448
20.895733 164.219620 0.200002 0.677775
19.818581 163.093460 0.200001 0.702129
19.287201 162.537903 0.104977 0.686641
nan nan nan 0.000000
nan nan nan 0.000000
nan nan nan 0.000000
nan nan nan 0.000000
nan nan nan 0.000000
nan nan nan 0.000000
nan nan nan 0.000000
nan nan nan 0.000000
nan nan nan 0.000000
42.402435 186.293518 0.000001 0.542306
31.040333 174.579361 -0.000000 0.529213
26.162155 169.550034 -0.000001 0.538582
23.445265 166.748947 -0.000000 0.518120
20.945475 164.171707 0.200002 0.771023
19.860489 163.053101 0.200001 0.714687
19.360420 162.537537 0.092321 0.758007
nan nan nan 0.000000
nan nan nan 0.000000
nan nan nan 0.000000
nan nan nan 0.000000
nan nan nan 0.000000
nan nan nan 0.000000
nan nan nan 0.000000
nan nan nan 0.000000
nan nan nan 0.000000
42.605740 186.094910 0.000002 0.540093
31.162151 174.460373 -0.000000 0.525658
26.248978 169.465210 0.000000 0.530037
23.512598 166.683182 0.000000 0.556191
20.994879 164.123444 0.200002 0.668193
19.902113 163.012451 0.200001 0.664881
19.434626 162.537155 0.079400 0.723445
-9.025109 133.927948 10.187582 0.813504
-9.025111 133.927948 9.059643 0.608942
-9.025111 133.927948 7.947539 0.812192
-9.025111 133.927948 6.848609 0.375570
-9.025113 133.927948 5.760299 0.528267
-9.025107 133.927948 4.680153 0.752514
-9.120093 133.832718 3.612400 0.678431
-9.120095 133.832718 2.537083 0.678431
-9.120091 133.832718 1.462917 0.678431
-9.120091 133.832718 0.387600 0.678431
-3.167352 139.800873 -0.000015 0.546853
1.780639 144.761673 -0.000010 0.553582
4.536395 147.524567 -0.000008 0.523751
6.295705 149.288422 -0.000006 0.558267
7.518495 150.514389 -0.000005 0.585702
8.419386 151.417603 -0.000005 0.561044
-9.175090 134.100555 10.183701 0.191730
-9.175086 134.100571 9.056293 0.094118
-9.025113 134.248840 7.906345 0.527794
-9.175094 134.100555 6.846311 0.152636
-9.175092 134.100555 5.758515 0.062745
-9.175096 134.100555 4.678883 0.086275
-9.120111 134.154922 3.601233 0.618143
-9.120109 134.154922 2.533363 0.624750
-9.120109 134.154922 1.466637 0.629908
-9.120107 134.154922 0.398767 0.629908
-3.287496 139.921555 -0.000015 0.545312
1.695003 144.847687 -0.000010 0.552163
4.469982 147.591263 -0.000008 0.551156
6.241565 149.342804 -0.000006 0.497307
7.472881 150.560196 -0.000005 0.541588
8.380058 151.457108 -0.000005 0.518166
-9.215085 134.380127 10.141789 0.678431
-9.215087 134.380112 9.020159 0.678431
-9.025109 134.565338 7.865998 0.651835
-9.215087 134.380112 6.821490 0.678431
-9.215087 134.380112 5.739267 0.678431
-9.215085 134.380127 4.665164 0.678431
-9.120084 134.472748 3.590293 0.678431
-9.120088 134.472748 2.529719 0.678431
-9.120088 134.472748 1.470281 0.678431
-9.120086 134.472748 0.409707 0.678431
-3.406802 140.043060 -0.000015 0.549676
1.609973 144.934296 -0.000010 0.528908
4.404037 147.658432 -0.000008 0.535973
6.187804 149.397568 -0.000006 0.517815
7.427589 150.606323 -0.000005 0.536721
8.912703 152.054276 0.199996 0.748425
-9.025094 134.877563 10.020925 0.599283
-9.025094 134.877563 8.915943 0.707591
-9.025096 134.877563 7.826477 0.499657
-9.025096 134.877563 6.749914 0.581781
-9.025096 134.877563 5.683757 0.406348
-9.025094 134.877563 4.625598 0.594888
-9.120105 134.786224 3.579581 0.678431
-9.120109 134.786224 2.526151 0.678431
-9.120105 134.786224 1.473849 0.678431
-9.120105 134.786224 0.420419 0.678431
-3.525247 140.165405 -0.000015 0.533028
1.525548 145.021484 -0.000010 0.525673
4.338563 147.726059 -0.000008 0.554681
6.134427 149.452698 -0.000007 0.540719
7.382621 150.652771 -0.000005 0.536156
8.877806 152.090317 0.199996 0.667201
-9.096398 135.118011 9.992249 0.596628
-9.096398 135.118011 8.891220 0.471901
-9.096400 135.118011 7.805649 0.681880
-9.096402 135.118011 6.732935 0.561776
-9.096400 135.118011 5.670588 0.456046
-9.096400 135.118011 4.616213 0.696025
-9.196603 135.023010 3.574266 0.678431
-9.196605 135.023010 2.524381 0.620462
-9.196605 135.023010 1.475619 0.634958
-9.196605 135.023010 0.425733 0.624414
-3.642842 140.288559 -0.000015 0.545113
1.441730 145.109268 -0.000011 0.548241
4.273561 147.794144 -0.000008 0.545220
6.081438 149.508194 -0.000006 0.557961
7.337978 150.699524 -0.000005 0.524819
8.843163 152.126602 0.199996 0.651820
-9.422553 135.118027 10.051733 0.407416
-9.422559 135.118011 8.942509 0.492164
-9.422551 135.118027 7.848856 0.639963
-9.422551 135.118027 6.768159 0.635813
-9.422555 135.118027 5.697906 0.418296
-9.422553 135.118027 4.635684 0.577859
-9.497426 135.048019 3.584184 0.094118
-9.497432 135.048019 2.527685 0.088487
-9.497432 135.048019 1.472315 0.094118
-9.497428 135.048019 0.415815 0.094118
-3.759572 140.412537 -0.000015 0.524926
1.358528 145.197632 -0.000011 0.528283
4.209039 147.862671 -0.000008 0.545876
6.028834 149.564072 -0.000007 0.543450
7.293662 150.746597 -0.000005 0.483040
8.808773 152.163132 0.199996 0.754528
-9.959722 134.928009 10.182725 0.678431
-9.959718 134.928024 9.055453 0.678431
-9.753617 135.118027 7.893003 0.576623
-9.959718 134.928024 6.845730 0.678431
-9.959716 134.928024 5.758065 0.678431
-9.959720 134.928009 4.678562 0.678431
-9.856652 135.023041 3.597952 0.678431
-9.856652 135.023041 2.532270 0.678431
-9.856652 135.023041 1.467730 0.678431
-9.856652 135.023041 0.402047 0.678431
-3.875438 140.537338 -0.000016 0.539086
1.275952 145.286591 -0.000011 0.541527
4.144992 147.931656 -0.000008 0.531273
5.976624 149.620300 -0.000006 0.541970
7.249675 150.793976 -0.000006 0.563775
8.774639 152.199890 0.199996 0.662593
-10.089736 135.118042 10.174604 0.471611
-10.089732 135.118042 9.048452 0.831617
-10.089736 135.118027 7.938113 0.559365
-10.089744 135.118027 6.840924 0.315038
-10.089736 135.118027 5.754337 0.636545
-10.089738 135.118027 4.675906 0.548760
-10.194230 135.023041 3.610185 0.678431
-10.194226 135.023041 2.536345 0.678431
-10.194226 135.023041 1.463655 0.678431
-10.194230 135.023041 0.389815 0.678431
-3.990424 140.662933 -0.000015 0.546105
1.193995 145.376099 -0.000011 0.543450
4.081429 148.001083 -0.000009 0.558831
5.924806 149.676895 -0.000007 0.537636
7.206021 150.841660 -0.000006 0.494865
8.740764 152.236893 0.199997 0.675135
-10.431056 135.118042 10.238066 0.607797
-10.431056 135.118042 9.103172 0.346197
-10.431056 135.118042 7.984211 0.772808
-10.431058 135.118042 6.878504 0.670909
-10.431058 135.118042 5.783484 0.436790
-10.431054 135.118042 4.696678 0.475166
-10.537030 135.023041 3.622685 0.672694
-10.537026 135.023041 2.540509 0.678431
-10.537026 135.023041 1.459491 0.678431
-10.537026 135.023041 0.377315 0.678431
-4.104529 140.789337 -0.000015 0.553140
1.112660 145.466202 -0.000011 0.527916
4.018353 148.070953 -0.000009 0.543160
5.873385 149.733856 -0.000007 0.454902
7.162701 150.889648 -0.000006 0.574823
8.707147 152.274139 0.199996 0.705806
-10.992686 134.928040 10.374791 0.662257
-10.992682 134.928040 9.221060 0.662257
-10.777741 135.118042 8.031330 0.557153
-10.992692 134.928040 6.959472 0.675547
-10.992690 134.928040 5.846277 0.675364
-10.992686 134.928040 4.741434 0.675364
-10.885203 135.023056 3.635461 0.452354
-10.885205 135.023041 2.544764 0.511391
-10.885205 135.023041 1.455235 0.524361
-10.885203 135.023056 0.364538 0.678431
-4.217757 140.916534 -0.000016 0.548119
1.031960 145.556854 -0.000012 0.542672
3.955767 148.141266 -0.000009 0.551827
5.822365 149.791183 -0.000007 0.552682
7.119717 150.937927 -0.000006 0.522484
8.673790 152.311615 0.199996 0.667689
-11.129951 135.118042 10.369238 0.535683
-11.129956 135.118027 9.216274 0.603021
-11.129952 135.118027 8.079496 0.753735
-11.129949 135.118027 6.956183 0.485832
-11.129958 135.118027 5.843727 0.520546
-11.129954 135.118027 4.739617 0.561486
-11.238952 135.023026 3.648523 0.678431
-11.238950 135.023026 2.549115 0.678431
-11.238950 135.023026 1.450885 0.678431
-11.238948 135.023026 0.351477 0.678431
-4.330092 141.044510 -0.000016 0.529824
0.951897 145.648071 -0.000011 0.548608
3.893676 148.212006 -0.000009 0.531991
5.771743 149.848846 -0.000007 0.532998
7.077071 150.986526 -0.000006 0.535286
8.640696 152.349304 0.199996 0.686824
-11.487863 135.118011 10.437032 0.579675
-11.487864 135.118011 9.274730 0.459113
-11.487859 135.118011 8.128741 0.717861
-11.487861 135.118011 6.996329 0.696880
-11.487861 135.118011 5.874862 0.603174
-11.487857 135.118011 4.761808 0.623743
-11.598378 135.023041 3.661874 0.676692
-11.598374 135.023041 2.553562 0.666667
-11.598374 135.023041 1.446437 0.666667
-11.598378 135.023041 0.338125 0.666667
-4.441525 141.173279 -0.000016 0.536782
0.872473 145.739853 -0.000011 0.546090
3.832077 148.283173 -0.000009 0.539162
5.721528 149.906876 -0.000007 0.542290
7.034765 151.035400 -0.000006 0.523888
8.607866 152.387253 0.199996 0.678691
-12.064010 134.938049 10.576076 0.279088
-12.064008 134.938049 9.394615 0.275639
-11.851619 135.118011 8.179092 0.793072
-12.064008 134.938049 7.078670 0.259998
-12.064008 134.938049 5.938720 0.280232
-12.064010 134.938049 4.807323 0.084154
-11.963731 135.023026 3.675529 0.678431
-11.963729 135.023026 2.558110 0.678431
-11.963727 135.023026 1.441890 0.678431
-11.963731 135.023026 0.324471 0.678431
-4.552062 141.302811 -0.000016 0.529290
0.793691 145.832169 -0.000011 0.540734
3.770976 148.354782 -0.000009 0.566949
5.671717 149.965240 -0.000008 0.557092
6.992802 151.084579 -0.000006 0.546990
8.575302 152.425415 0.199996 0.720394
-12.221408 135.118011 10.577226 0.496864
-12.221414 135.118011 9.395609 0.568963
-12.221410 135.118011 8.230581 0.525856
-12.221410 135.118011 7.079350 0.905882
-12.221406 135.118011 5.939248 0.647776
-12.221410 135.118011 4.807700 0.593103
-12.335107 135.023041 3.689489 0.678431
-12.335103 135.023041 2.562761 0.678431
-12.335103 135.023041 1.437239 0.678431
-12.335107 135.023041 0.310510 0.678431
-4.661689 141.433105 -0.000017 0.544274
0.715551 145.925049 -0.000012 0.536629
3.710379 148.426804 -0.000009 0.519173
5.622316 150.023972 -0.000007 0.550347
6.951181 151.134048 -0.000007 0.557656
8.543007 152.463791 0.199997 0.668132
-12.597442 135.118011 10.649723 0.378408
-12.597436 135.118011 9.458117 0.492531
-12.597442 135.118011 8.283243 0.815991
-12.597442 135.118011 7.122284 0.677668
-12.597438 135.118011 5.972544 0.393896
-12.597442 135.118011 4.831431 0.348257
-12.701661 135.032181 3.703063 0.199268
-12.701661 135.032181 2.567282 0.206622
-12.701665 135.032181 1.432718 0.249592
-12.701665 135.032181 0.296937 0.203311
-4.770406 141.564178 -0.000017 0.539239
0.638062 146.018463 -0.000012 0.540337
3.650286 148.499252 -0.000009 0.536156
5.573327 150.083038 -0.000007 0.555138
6.909910 151.183807 -0.000006 0.491386
8.510979 152.502411 0.199997 0.685573
-13.140288 134.987793 10.775636 0.611765
-13.140292 134.987793 9.566685 0.491722
-12.979871 135.118042 8.337107 0.768429
-13.140294 134.987793 7.196850 0.635294
-13.140290 134.987793 6.030372 0.667857
-13.140288 134.987793 4.872649 0.471855
-13.096902 135.023010 3.718379 0.509926
-13.096904 135.023010 2.572384 0.571450
-13.096904 135.023010 1.427616 0.678431
-13.096900 135.023010 0.281621 0.678431
-4.878200 141.695999 -0.000016 0.537438
0.561232 146.112427 -0.000012 0.554589
3.590697 148.572128 -0.000009 0.524758
5.524748 150.142426 -0.000008 0.527596
6.868986 151.233856 -0.000006 0.535775
8.479219 152.541245 0.199996 0.764202
-13.368957 135.118042 10.799752 0.592157
-13.368957 135.118042 9.587478 0.550088
-13.368962 135.118042 8.392226 0.507118
-13.368960 135.118042 7.211129 0.614862
-13.368957 135.118042 6.041448 0.545266
-13.368958 135.118042 4.880542 0.562493
-13.487651 135.023041 3.733323 0.402960
-13.487647 135.023041 2.577362 0.678431
-13.487647 135.023041 1.422638 0.678431
-13.487651 135.023041 0.266676 0.675608
-4.985080 141.828568 -0.000017 0.529366
0.485057 146.206909 -0.000012 0.550027
3.531619 148.645401 -0.000010 0.544900
5.476587 150.202179 -0.000008 0.523278
6.828411 151.284180 -0.000006 0.545739
8.447735 152.580307 0.199996 0.670375
-14.005713 134.928040 10.954235 0.678431
-14.005710 134.928040 9.720678 0.678431
-13.764901 135.118042 8.448628 0.631022
-13.764909 135.118042 7.257112 0.434455
-14.005712 134.928040 6.112396 0.678431
-14.005713 134.928040 4.931112 0.678431
-13.885312 135.023041 3.748619 0.387015
-13.885312 135.023041 2.582456 0.678431
-13.885312 135.023041 1.417543 0.678431
-13.885312 135.023041 0.251382 0.678431
-5.091025 141.961884 -0.000017 0.545602
0.409541 146.301926 -0.000012 0.554437
3.473059 148.719101 -0.000009 0.519570
5.428844 150.262253 -0.000008 0.525490
6.788188 151.334793 -0.000007 0.527977
8.416521 152.619583 0.199996 0.702525
-14.167966 135.117996 10.956884 0.647578
-14.167966 135.117996 9.722963 0.912947
-14.167956 135.118011 8.506367 0.509316
-14.167962 135.118011 7.304181 0.470024
-14.167966 135.117996 6.113615 0.604776
-14.167962 135.118011 4.931979 0.711360
-14.257943 135.048019 3.762272 0.062745
-14.290086 135.023026 2.587671 0.627115
-14.290088 135.023010 1.412329 0.627115
-14.290088 135.023010 0.235727 0.601038
-5.196038 142.095932 -0.000017 0.542550
0.334700 146.397476 -0.000012 0.541665
3.415012 148.793198 -0.000009 0.597604
5.381524 150.322662 -0.000008 0.555306
6.748322 151.385696 -0.000006 0.549157
8.385584 152.659073 0.199996 0.729793
-14.578254 135.118011 11.038226 0.552529
-14.578254 135.118027 9.793098 0.547204
-14.578252 135.118027 8.565454 0.633463
-14.578252 135.118027 7.352351 0.424506
-14.578256 135.118011 6.150971 0.473503
-14.578259 135.118011 4.958607 0.457664
-14.669536 135.048050 3.778276 0.228183
-14.702201 135.023010 2.593009 0.678431
-14.702201 135.023010 1.406991 0.678431
-14.721759 135.008011 0.218491 0.383505
-5.300111 142.230713 -0.000017 0.535302
0.260519 146.493546 -0.000012 0.538293
3.357482 148.867706 -0.000009 0.526909
5.334626 150.383392 -0.000008 0.529168
6.708811 151.436859 -0.000006 0.517617
8.354923 152.698776 0.199996 0.678492
-15.194648 134.968018 11.183846 0.094911
-15.194644 134.968018 9.918658 0.097185
-15.194638 134.968018 8.671232 0.125078
-14.996095 135.118027 7.401672 0.750439
-15.194644 134.968018 6.217849 0.264714
-15.194648 134.968002 5.006274 0.224430
-15.088738 135.048035 3.794664 0.194324
-15.121858 135.023010 2.598473 0.678431
-15.121858 135.023010 1.401526 0.678431
-15.121863 135.023010 0.203296 0.344366
-5.403247 142.366226 -0.000017 0.528161
0.187010 146.590118 -0.000012 0.518380
3.300475 148.942596 -0.000010 0.537301
5.288150 150.444458 -0.000008 0.578317
7.408494 152.046555 0.199996 0.747494
8.324539 152.738693 0.199996 0.752422
-15.421737 135.118042 11.206800 0.329015
-15.421737 135.118042 9.938451 0.594446
-15.421735 135.118042 8.687909 0.589395
-15.421737 135.118042 7.452179 0.485939
-15.421741 135.118042 6.228393 0.724224
-15.421735 135.118042 5.013788 0.750118
-15.421739 135.118042 3.805686 0.559594
-15.549361 135.022995 2.604070 0.561654
-15.549359 135.023010 1.395930 0.561654
-15.515748 135.048035 0.188555 0.094118
-5.505431 142.502441 -0.000018 0.536767
0.114179 146.687210 -0.000012 0.541772
3.243991 149.017899 -0.000009 0.546975
5.242103 150.505844 -0.000008 0.540551
7.373579 152.093094 0.199995 0.674357
8.294436 152.778839 0.199996 0.671962
-18.802891 132.954971 12.209938 0.606882
-18.802895 132.954971 10.803395 0.669841
-18.802895 132.954971 9.416598 0.776471
-18.802891 132.954971 8.046228 0.739910
-18.802891 132.954971 6.689102 0.809186
-18.802895 132.954971 5.342159 0.429175
-18.802895 132.954971 4.002428 0.521920
-18.932362 132.859955 2.669627 0.678431
-18.932362 132.859955 1.330373 0.678431
-18.763535 132.983856 -0.000030 0.533593
-5.606658 142.639374 -0.000017 0.551354
0.042027 146.784805 -0.000012 0.526101
3.188036 149.093597 -0.000010 0.541711
5.196486 150.567551 -0.000008 0.521096
7.338992 152.139877 0.199995 0.763958
8.264614 152.819168 0.199996 0.741833
-19.288513 132.954956 12.308261 0.560388
-19.551212 132.764969 10.958190 0.678431
-19.551216 132.764969 9.547011 0.678431
-19.288517 132.954941 8.104454 0.488975
-19.551224 132.764954 6.771555 0.678431
-19.551216 132.764969 5.400927 0.678431
-19.288509 132.954956 4.021711 0.520058
-19.419868 132.859955 2.676075 0.609339
-19.419868 132.859955 1.323925 0.622827
-18.930897 133.213577 -0.000030 0.546487
-5.706923 142.777008 -0.000018 0.550408
-0.029439 146.882919 -0.000012 0.536095
3.132608 149.169678 -0.000010 0.555032
5.151301 150.629578 -0.000008 0.560143
7.304731 152.186905 0.199995 0.667048
8.235073 152.859726 0.199996 0.757046
-19.783607 132.954926 12.409005 0.748272
-19.814278 132.933075 10.983172 0.634150
-19.814281 132.933060 9.568058 0.588342
-19.783611 132.954926 8.164116 0.799588
-19.814285 132.933060 6.784862 0.692821
-19.814278 132.933075 5.410409 0.720806
-19.783607 132.954926 4.041470 0.683574
-19.916901 132.859940 2.682682 0.578332
-19.916901 132.859940 1.317318 0.578332
-19.096649 133.444458 -0.000030 0.536263
-5.806241 142.915344 -0.000018 0.530831
-0.100224 146.981506 -0.000013 0.538903
3.077715 149.246140 -0.000010 0.560342
5.106550 150.691910 -0.000008 0.526467
7.270800 152.234177 0.199995 0.771038
8.205816 152.900482 0.199996 0.646525
-20.288456 132.954926 12.512245 0.344533
-20.288441 132.954941 11.064052 0.732021
-20.288448 132.954926 9.636198 0.523262
-20.288456 132.954926 8.225252 0.619715
-20.288456 132.954926 6.827943 0.543267
-20.288445 132.954941 5.441116 0.590112
-20.288445 132.954926 4.061718 0.628229
-20.390289 132.883423 2.688784 0.168200
-20.390289 132.883423 1.311215 0.144305
-19.260773 133.676498 -0.000030 0.542947
-5.904578 143.054367 -0.000018 0.535637
-0.170316 147.080597 -0.000013 0.557137
3.023355 149.322983 -0.000010 0.534768
5.062233 150.754547 -0.000008 0.533867
7.237200 152.281677 0.199995 0.668940
8.176846 152.941437 0.199996 0.769360
-20.803444 132.954926 12.618075 0.606195
-20.803432 132.954941 11.155304 0.384848
-20.803436 132.954941 9.713074 0.847211
-20.803432 132.954941 8.287922 0.542596
-20.803444 132.954941 6.876547 0.726009
-20.803440 132.954941 5.475760 0.469093
-20.803440 132.954941 4.082474 0.738933
-20.940701 132.859985 2.696393 0.678431
-20.940697 132.859985 1.303607 0.678431
-19.423283 133.909683 -0.000030 0.537514
-6.001945 143.194061 -0.000018 0.552224
-0.239712 147.180176 -0.000013 0.542718
2.969535 149.400208 -0.000010 0.514138
5.018358 150.817505 -0.000008 0.554635
7.203932 152.329407 0.199995 0.770291
8.148161 152.982590 0.199996 0.683848
-21.015083 133.168823 12.631454 0.613367
-21.015083 133.168823 11.166841 0.741985
-21.015079 133.168823 9.722791 0.842954
-21.015079 133.168823 8.295845 0.781506
-21.015083 133.168823 6.882690 0.463066
-21.015076 133.168823 5.480138 0.509239
-21.015083 133.168823 4.085097 0.486809
-21.110096 133.104065 2.696418 0.678431
-21.110096 133.104065 1.303582 0.678431
-19.584175 134.143967 -0.000031 0.540398
-6.098330 143.334442 -0.000018 0.542443
-0.308412 147.280228 -0.000013 0.541558
2.916258 149.477814 -0.000010 0.548653
4.974922 150.880768 -0.000008 0.564462
7.170999 152.377380 0.199996 0.652018
8.119764 153.023956 0.199996 0.719966
-21.165100 133.425003 12.626629 0.094118
-21.165100 133.424988 11.162682 0.178363
-21.165104 133.424988 9.719289 0.151415
-21.015076 133.525711 8.266187 0.762860
-21.165100 133.425003 6.880475 0.094118
-21.165108 133.424988 5.478559 0.094118
-21.015076 133.525711 4.075275 0.543648
-21.110085 133.461929 2.693136 0.580880
-21.110088 133.461929 1.306863 0.549386
-19.743412 134.379395 -0.000030 0.548241
-6.193738 143.475494 -0.000018 0.535012
-0.376414 147.380753 -0.000013 0.554086
2.863518 149.555771 -0.000010 0.533135
4.931930 150.944336 -0.000009 0.517769
7.138401 152.425568 0.199995 0.676951
8.091656 153.065506 0.199996 0.741558
-21.015083 133.879257 12.532266 0.533822
-21.015087 133.879257 11.081318 0.820829
-21.015091 133.879257 9.650743 0.490974
-21.015091 133.879257 8.237108 0.564431
-21.015087 133.879257 6.837138 0.497826
-21.015079 133.879257 5.447671 0.833616
-21.015087 133.879257 4.065644 0.715938
-21.110065 133.816452 2.689920 0.678431
-21.110065 133.816452 1.310080 0.678431
-19.901005 134.615921 -0.000031 0.538186
-6.288165 143.617203 -0.000019 0.529534
-0.443708 147.481766 -0.000013 0.543557
2.811323 149.634109 -0.000010 0.566552
4.889381 151.008194 -0.000008 0.570336
7.106140 152.473984 0.199995 0.696574
8.063839 153.107254 0.199996 0.684230
-21.015076 134.229568 12.484121 0.741634
-21.015083 134.229553 11.039807 0.627527
-21.015083 134.229553 9.615770 0.438315
-21.015079 134.229568 8.208597 0.678676
-21.015076 134.229568 6.815025 0.580056
-21.015072 134.229568 5.431910 0.902876
-21.015083 134.229553 4.056203 0.655711
-21.110100 134.167679 2.686767 0.678431
-21.110096 134.167679 1.313234 0.678431
-20.056931 134.853546 -0.000031 0.538476
-6.381587 143.759583 -0.000019 0.537728
-0.510303 147.583237 -0.000013 0.540383
2.759683 149.712799 -0.000010 0.577218
4.847282 151.072342 -0.000008 0.546197
7.074218 152.522629 0.199995 0.757565
8.036316 153.149200 0.199996 0.657343
-21.015102 134.576675 12.436932 0.415366
-21.205090 134.454834 11.047864 0.678431
-21.205093 134.454834 9.622560 0.678431
-21.015102 134.576675 8.180653 0.920928
-21.205093 134.454834 6.819320 0.678431
-21.205097 134.454834 5.434970 0.678431
-21.015099 134.576691 4.046947 0.623850
-21.110073 134.515762 2.683675 0.629908
-21.110073 134.515762 1.316325 0.626596
-20.211220 135.092255 -0.000031 0.546960
-6.474021 143.902588 -0.000019 0.538094
-0.576180 147.685181 -0.000013 0.552468
2.708589 149.791855 -0.000010 0.554955
4.805631 151.136795 -0.000008 0.579019
7.042636 152.571503 0.199995 0.666285
8.009085 153.191330 0.199996 0.660380
-21.015110 134.920715 12.390663 0.536675
-21.015106 134.920715 10.959223 0.473457
-21.015102 134.920715 9.547878 0.640269
-21.015106 134.920715 8.153252 0.581353
-21.015102 134.920715 6.772102 0.623636
-21.015106 134.920715 5.401317 0.492271
-21.015110 134.920715 4.037872 0.461707
-21.110104 134.860718 2.680645 0.678431
-21.110107 134.860718 1.319356 0.678431
-20.363827 135.332016 -0.000032 0.541253
-6.565454 144.046249 -0.000019 0.547127
-0.641349 147.787567 -0.000013 0.524132
2.658049 149.871262 -0.000010 0.529274
4.764431 151.201538 -0.000008 0.541054
7.011397 152.620590 0.199995 0.744274
7.982148 153.233658 0.199996 0.744518
-21.246239 135.118011 12.413478 0.476768
-21.246239 135.118011 10.978895 0.427955
-21.246220 135.118027 9.564447 0.637552
-21.246223 135.118027 8.166759 0.793790
-21.246227 135.118011 6.782579 0.609491
-21.246227 135.118027 5.408786 0.668605
-21.246227 135.118011 4.042346 0.613519
-21.399014 135.023010 2.683240 0.678431
-21.399014 135.023010 1.316760 0.678431
-20.514748 135.572861 -0.000031 0.545113
-6.655877 144.190552 -0.000019 0.542611
-0.705802 147.890411 -0.000014 0.540764
2.608066 149.951035 -0.000010 0.540032
4.723680 151.266556 -0.000008 0.538415
6.980501 152.669891 0.199995 0.679561
7.955510 153.276169 0.199996 0.675761
-21.802120 135.118011 12.531981 0.482841
-22.047138 134.968018 11.143121 0.061646
-22.047138 134.968018 9.702806 0.073503
-21.802128 135.118011 8.236941 0.696025
-22.047138 134.968018 6.870056 0.075654
-22.047138 134.968018 5.471133 0.074510
-21.802128 135.118011 4.065588 0.576761
-21.916466 135.048019 2.690232 0.094118
-21.916466 135.048019 1.309768 0.094118
-20.663994 135.814743 -0.000032 0.538735
-6.745290 144.335480 -0.000019 0.553979
-0.769530 147.993713 -0.000014 0.533165
2.558640 150.031143 -0.000010 0.536019
4.683388 151.331863 -0.000008 0.527962
6.949950 152.719406 0.199995 0.788373
7.929168 153.318863 0.199996 0.724086
-22.370773 135.118042 12.653720 0.851896
-22.370766 135.118042 11.186039 0.439704
-22.370773 135.118042 9.738967 0.913878
-22.370777 135.118042 8.309032 0.505165
-22.370766 135.118042 6.892917 0.643732
-22.370770 135.118042 5.487428 0.566690
-22.370785 135.118042 4.089465 0.634195
-22.486938 135.048035 2.698210 0.078721
-22.486935 135.048035 1.301790 0.140658
-20.811550 136.057663 -0.000032 0.541695
-6.833695 144.481018 -0.000019 0.541299
-0.832536 148.097443 -0.000013 0.530541
2.509772 150.111588 -0.000011 0.550515
4.643549 151.397446 -0.000009 0.569299
6.919744 152.769135 0.199995 0.731014
7.903123 153.361740 0.199996 0.741253
-23.072662 135.046951 12.813761 0.637324
-23.007298 135.085724 11.307618 0.606882
-23.072666 135.046951 9.855221 0.745525
-22.952801 135.118042 8.383133 0.788724
-23.072666 135.046951 6.966419 0.584802
-23.072662 135.046951 5.539815 0.695369
-22.952805 135.118042 4.114005 0.473121
-23.113003 135.023026 2.707214 0.606531
-23.112999 135.023026 1.292787 0.666362
-20.957397 136.301605 -0.000032 0.544579
-6.921082 144.627167 -0.000019 0.534142
-0.894821 148.201614 -0.000013 0.546838
2.461470 150.192383 -0.000011 0.546654
4.604173 151.463318 -0.000008 0.551461
6.889887 152.819077 0.199995 0.750622
7.877380 153.404800 0.199996 0.703899
-23.548672 135.118057 12.907492 0.662516
-23.548679 135.118057 11.404851 0.765545
-23.548679 135.118057 9.923309 0.777783
-23.548683 135.118057 8.459314 0.528847
-23.548691 135.118057 7.009467 0.560815
-23.548679 135.118057 5.570498 0.603067
-23.548672 135.118057 4.139236 0.445731
-23.711422 135.023056 2.715654 0.678431
-23.711422 135.023056 1.284347 0.678431
-21.101543 136.546570 -0.000032 0.537774
-7.007440 144.773941 -0.000019 0.536568
-0.956382 148.306213 -0.000014 0.549737
2.413733 150.273499 -0.000011 0.539925
5.514535 152.083588 0.199994 0.678126
6.860380 152.869217 0.199995 0.688518
7.851936 153.448029 0.199996 0.765347
-24.159100 135.118011 13.039820 0.564675
-24.159088 135.118011 11.518945 0.464240
-24.159096 135.118011 10.019431 0.540780
-24.159092 135.118011 8.537674 0.630915
-24.159084 135.118011 7.070238 0.587259
-24.159081 135.118011 5.613812 0.634562
-24.159088 135.118011 4.165188 0.853513
-24.324501 135.022995 2.724334 0.678431
-24.324505 135.022995 1.275665 0.678431
-21.243969 136.792526 -0.000032 0.541863
-7.092776 144.921295 -0.000019 0.532097
-1.017200 148.411255 -0.000014 0.555230
2.366564 150.354965 -0.000010 0.531472
5.479926 152.143356 0.199994 0.730358
6.831223 152.919571 0.199996 0.680079
7.826796 153.491455 0.199996 0.681605
-25.085236 134.947998 13.262464 0.086275
-24.784386 135.118027 11.636286 0.547646
-25.085243 134.947998 10.181164 0.174487
-25.085243 134.947998 8.669525 0.084062
-25.085236 134.947998 7.172493 0.196139
-25.085236 134.947998 5.686695 0.225086
-24.784393 135.118027 4.191877 0.572305
-24.952534 135.022995 2.733265 0.678431
-24.952534 135.022995 1.266735 0.678431
-21.384674 137.039459 -0.000032 0.543679
-7.177079 145.069244 -0.000019 0.544411
-1.077288 148.516708 -0.000014 0.540505
2.319963 150.436752 -0.000011 0.564279
5.445736 152.203354 0.199994 0.720363
6.802419 152.970123 0.199995 0.682383
7.801960 153.535034 0.199996 0.745678
-25.425423 135.118011 13.315970 0.588342
-25.425423 135.118011 11.757057 0.642252
-25.425430 135.118011 10.220034 0.643977
-25.425419 135.118011 8.701209 0.507591
-25.425411 135.118011 7.197067 0.570382
-25.425415 135.118011 5.704210 0.709361
-25.425419 135.118011 4.219348 0.428382
-25.596321 135.022980 2.742454 0.633616
-25.596321 135.022980 1.257546 0.634775
-21.523670 137.287384 -0.000032 0.544656
-7.260350 145.217789 -0.000020 0.530556
-1.136637 148.622574 -0.000014 0.538979
2.273933 150.518860 -0.000011 0.545174
5.411963 152.263596 0.199994 0.696178
6.773968 153.020874 0.199996 0.748272
7.777429 153.578796 0.199996 0.695018
-26.159012 135.076279 13.481929 0.448875
-26.082718 135.118011 11.881372 0.623682
-26.159016 135.076279 10.340586 0.578958
-26.159008 135.076279 8.799490 0.522774
-26.082710 135.118011 7.263283 0.513283
-26.159004 135.076294 5.758536 0.493751
-26.082706 135.118011 4.247624 0.481041
-26.232300 135.036194 2.751464 0.122423
-26.232300 135.036194 1.248537 0.079423
-21.660908 137.536270 -0.000033 0.533898
-7.342584 145.366913 -0.000020 0.540673
-1.195245 148.728851 -0.000014 0.547677
2.228482 150.601288 -0.000011 0.542489
5.378615 152.324081 0.199994 0.775692
6.745872 153.071823 0.199995 0.665537
7.753205 153.622726 0.199996 0.702480
-27.110298 134.927979 13.709101 0.637568
-26.757008 135.118011 12.009389 0.453483
-27.110291 134.927979 10.505605 0.671351
-27.110291 134.927994 8.934015 0.673075
-26.757011 135.117996 7.331472 0.475914
-27.110306 134.927979 5.832901 0.646265
-26.757015 135.117996 4.276745 0.555810
-26.933624 135.023010 2.761655 0.678431
-26.933624 135.023010 1.238345 0.678431
-21.796432 137.786102 -0.000033 0.542016
-7.423778 145.516586 -0.000020 0.532204
-1.253109 148.835556 -0.000014 0.537148
2.183602 150.684021 -0.000011 0.548470
5.345690 152.384781 0.199994 0.660670
6.718132 153.122971 0.199995 0.750484
7.729287 153.666824 0.199996 0.687434
-27.448975 135.118027 13.761550 0.588052
-27.448986 135.118027 12.141255 0.480217
-27.448975 135.118027 10.543704 0.649363
-27.448978 135.118027 8.965078 0.651240
-27.448982 135.118027 7.401710 0.646464
-27.448990 135.118027 5.850069 0.639109
-27.448982 135.118027 4.306739 0.457298
-27.577923 135.049835 2.770750 0.223529
-27.577923 135.049835 1.229249 0.218982
-21.930176 138.036896 -0.000033 0.539925
-7.503913 145.666840 -0.000020 0.534951
-1.310228 148.942642 -0.000014 0.558282
2.139305 150.767075 -0.000011 0.544717
5.313188 152.445724 0.199994 0.742794
6.690750 153.174301 0.199995 0.680293
7.705677 153.711090 0.199996 0.686625
-34.475101 131.833984 15.702240 0.538048
-34.475101 131.833984 13.814590 0.449714
-34.475098 131.833984 11.953441 0.462211
-34.475094 131.833984 10.114333 0.551583
-34.475101 131.833984 8.293005 0.730098
-34.475105 131.833969 6.485342 0.636790
-34.475105 131.833984 4.687357 0.636576
-34.609615 131.764038 2.897627 0.093935
-34.609615 131.764038 1.102373 0.095171
-22.062199 138.288589 -0.000034 0.545190
-7.583005 145.817642 -0.000020 0.534020
-1.366605 149.050125 -0.000015 0.525658
2.095589 150.850433 -0.000011 0.535027
5.281112 152.506882 0.199994 0.744930
6.663728 153.225830 0.199995 0.752773
7.682375 153.755524 0.199996 0.732250
-35.314095 131.834015 15.889029 0.606943
-35.685829 131.643997 14.065814 0.678431
-35.314091 131.834015 12.089125 0.548653
-35.685841 131.643997 10.286879 0.678431
-35.314083 131.834015 8.378790 0.604700
-35.685837 131.643997 6.580718 0.678431
-35.685841 131.643982 4.744501 0.678431
-35.499981 131.738998 2.910765 0.677119
-35.499981 131.738998 1.089236 0.677119
-22.192432 138.541214 -0.000034 0.539773
-7.661033 145.969009 -0.000020 0.542412
-1.422221 149.158005 -0.000015 0.528603
2.052451 150.934097 -0.000011 0.531426
5.249464 152.568268 0.199994 0.678218
6.637065 153.277542 0.199995 0.675608
7.659388 153.800110 0.199996 0.688350
-36.176468 131.833969 16.081720 0.441337
-36.176483 131.833969 14.141794 0.543175
-36.176479 131.833969 12.229100 0.603037
-36.176479 131.833969 10.339063 0.485924
-36.176476 131.833969 8.467289 0.423560
-36.176479 131.833969 6.609562 0.656443
-36.176476 131.833969 4.761783 0.582193
-36.365471 131.739029 2.923397 0.678431
-36.365475 131.739014 1.076603 0.678431
-22.320923 138.794724 -0.000034 0.539193
-7.738006 146.120911 -0.000020 0.538415
-1.477085 149.266266 -0.000015 0.564492
2.009904 151.018066 -0.000011 0.528664
5.218245 152.629868 0.199994 0.754528
6.610764 153.329453 0.199995 0.745464
7.636711 153.844864 0.199996 0.768093
-37.062988 131.834015 16.280491 0.632349
-37.062981 131.834015 14.313177 0.743267
-37.062988 131.834015 12.373487 0.667445
-37.062984 131.834015 10.456769 0.581125
-37.062988 131.834015 8.558577 0.693599
-37.062981 131.834015 6.674628 0.733059
-37.062984 131.834015 4.800766 0.671687
-37.255566 131.738953 2.936435 0.678431
-37.255566 131.738953 1.063563 0.678431
-22.447624 139.049149 -0.000034 0.540795
-7.813930 146.273331 -0.000021 0.526787
-1.531195 149.374908 -0.000015 0.547799
1.967941 151.102325 -0.000011 0.547326
5.187458 152.691696 0.199994 0.693904
6.584829 153.381531 0.199996 0.673350
7.614345 153.889771 0.199996 0.681025
-37.975021 131.834015 16.485695 0.538949
-38.324329 131.664597 14.573961 0.362753
-37.975033 131.834015 12.522552 0.500145
-38.324337 131.664597 10.635880 0.300587
-38.324345 131.664581 8.697485 0.080201
-38.324341 131.664581 6.773633 0.296880
-38.324345 131.664581 4.860084 0.246082
-38.110249 131.768433 2.948786 0.246189
-38.110252 131.768433 1.051213 0.124422
-22.572556 139.304443 -0.000034 0.540764
-7.888772 146.426285 -0.000021 0.541024
-1.584535 149.483932 -0.000014 0.520928
1.926567 151.186874 -0.000011 0.532494
5.157103 152.753723 0.199994 0.728557
6.559253 153.433792 0.199995 0.741909
7.592296 153.934830 0.199996 0.750210
-38.913670 131.834030 16.697601 0.522271
-38.913681 131.834015 14.672830 0.598642
-38.913670 131.834030 12.676479 0.460044
-38.913689 131.834015 10.703783 0.507546
-38.913673 131.834030 8.750143 0.686641
-38.913666 131.834030 6.811165 0.634119
-38.913685 131.834015 4.882572 0.427237
-39.113171 131.738983 2.963787 0.678431
-39.113171 131.738983 1.036213 0.678431
-22.695690 139.560593 -0.000034 0.540764
-7.962543 146.579758 -0.000020 0.534096
-1.637124 149.593323 -0.000015 0.528618
1.885783 151.271698 -0.000012 0.526619
5.127180 152.815964 0.199994 0.685466
6.534045 153.486237 0.199995 0.672770
7.570561 153.980042 0.199996 0.682872
-40.286400 131.644012 17.028862 0.678431
-40.286388 131.644012 14.958449 0.678431
-40.286388 131.644012 12.917108 0.678431
-40.286392 131.644012 10.899946 0.678431
-40.286392 131.644012 8.902281 0.678431
-40.286407 131.643997 6.919602 0.678431
-40.286400 131.644012 4.947540 0.678431
-40.056320 131.751648 2.977656 0.215717
-40.056320 131.751648 1.022344 0.099367
-22.817047 139.817612 -0.000034 0.538949
-8.035254 146.733749 -0.000021 0.555917
-1.688943 149.703079 -0.000015 0.536904
1.845596 151.356827 -0.000012 0.519142
5.097694 152.878418 0.199994 0.666682
6.509204 153.538849 0.199995 0.758419
7.549141 154.025406 0.199996 0.683314
-40.876213 131.834000 17.142879 0.580194
-40.876205 131.834000 15.056760 0.464286
-40.876213 131.834000 12.999933 0.578256
-40.876217 131.834000 10.967469 0.510826
-40.876209 131.834000 8.954645 0.657389
-40.876221 131.834000 6.956925 0.509789
-40.876221 131.834000 4.969903 0.616495
-41.028507 131.764038 2.992002 0.126009
-41.028507 131.764038 1.007997 0.079835
-22.936600 140.075470 -0.000034 0.540490
-8.106885 146.888245 -0.000021 0.536904
-1.739994 149.813187 -0.000015 0.540398
1.806005 151.442215 -0.000012 0.544869
5.068646 152.941086 0.199994 0.700038
6.484731 153.591629 0.199995 0.689723
7.528039 154.070923 0.199996 0.700648
-41.902954 131.833939 17.376961 0.695796
-41.902943 131.833939 15.258595 0.583017
-41.902943 131.833939 13.169971 0.523079
-41.902935 131.833954 11.106088 0.701671
-41.902950 131.833939 9.062150 0.552499
-41.902943 131.833939 7.033549 0.696910
-41.902950 131.833939 5.015812 0.639750
-42.113415 131.739029 3.008330 0.676524
-42.113415 131.739029 0.991670 0.676524
-23.054344 140.334137 -0.000034 0.536477
-8.177428 147.043228 -0.000021 0.533288
-1.790277 149.923645 -0.000015 0.548257
2.996124 152.082184 0.199993 0.689036
5.040033 153.003937 0.199994 0.699809
6.460626 153.644577 0.199995 0.753216
7.507255 154.116577 0.199996 0.691264
-42.961723 131.834000 17.619099 0.566796
-42.961761 131.833984 15.467385 0.565805
-42.961742 131.833984 13.345866 0.463004
-42.961739 131.834000 11.249484 0.669062
-42.961754 131.833984 9.173361 0.629709
-42.961746 131.833984 7.112815 0.481010
-42.961754 131.833984 5.063303 0.629709
-43.176414 131.738983 3.024213 0.646952
-43.176414 131.738983 0.975787 0.641245
-23.170292 140.593643 -0.000035 0.539391
-8.246896 147.198700 -0.000021 0.530831
-1.839792 150.034470 -0.000015 0.525353
2.961566 152.159531 0.199993 0.672969
5.011861 153.066986 0.199994 0.668299
6.436893 153.697708 0.199995 0.677928
7.486790 154.162384 0.199996 0.724407
-44.054657 131.833954 17.869831 0.416938
-44.054668 131.833954 15.683571 0.485863
-44.054665 131.833954 13.528002 0.395911
-44.054649 131.833969 11.397961 0.373556
-44.054657 131.833954 9.288511 0.534646
-44.054657 131.833969 7.194887 0.494728
-44.054661 131.833954 5.112476 0.405112
-44.273434 131.738953 3.040655 0.604547
-44.273434 131.738953 0.959346 0.649088
-23.284416 140.853943 -0.000035 0.540154
-8.315270 147.354660 -0.000021 0.535256
-1.888524 150.145630 -0.000015 0.531136
2.927548 152.237122 0.199993 0.707088
4.984131 153.130249 0.199994 0.767346
6.413531 153.750992 0.199995 0.731975
7.466646 154.208328 0.199996 0.696544
-45.183056 131.834030 18.129473 0.638956
-45.183033 131.834045 15.907436 0.631159
-45.183044 131.834030 13.716605 0.635950
-45.183048 131.834030 11.551717 0.663340
-45.183044 131.834030 9.407755 0.466194
-45.183041 131.834030 7.279880 0.621530
-45.183056 131.834030 5.163399 0.725643
-45.406223 131.738953 3.057682 0.678431
-45.406223 131.738953 0.942317 0.678431
-23.396709 141.115036 -0.000034 0.536782
-8.382556 147.511078 -0.000021 0.542489
-1.936482 150.257126 -0.000015 0.532769
2.894073 152.314941 0.199992 0.741909
4.956842 153.193680 0.199994 0.670146
6.390540 153.804443 0.199995 0.723415
7.446824 154.254425 0.199996 0.732967
-46.349251 131.834015 18.398623 0.469505
-46.349255 131.834015 16.139513 0.602869
-46.349262 131.834000 13.912120 0.683024
-46.349266 131.834000 11.711110 0.679377
-46.349251 131.834015 9.531369 0.685435
-46.349251 131.834015 7.367984 0.494423
-46.349247 131.834015 5.216184 0.616419
-46.576759 131.738968 3.075330 0.678431
-46.576759 131.738968 0.924670 0.678431
-23.507187 141.376907 -0.000035 0.546365
-8.448745 147.667984 -0.000021 0.548562
-1.983657 150.368942 -0.000015 0.542443
2.861146 152.393005 0.199993 0.719036
4.929997 153.257324 0.199994 0.669062
6.367923 153.858047 0.199995 0.693935
7.427324 154.300644 0.199996 0.662074
-47.555107 131.833984 18.677738 0.460502
-47.555096 131.833984 16.380173 0.676783
-47.555111 131.833984 14.114872 0.570718
-47.555107 131.833984 11.876398 0.596048
-47.555099 131.833984 9.659555 0.493111
-47.555115 131.833984 7.459352 0.627375
-47.555103 131.833984 5.270927 0.578393
-47.726112 131.763947 3.092553 0.209369
-47.726112 131.763947 0.907446 0.077226
-23.615845 141.639542 -0.000035 0.540505
-8.513844 147.825333 -0.000021 0.534157
-2.030061 150.481094 -0.000015 0.538277
2.828763 152.471283 0.199993 0.701915
4.903597 153.321136 0.199994 0.745663
6.345683 153.911819 0.199995 0.704448
7.408148 154.347000 0.199996 0.711482
-49.275776 131.644073 19.095032 0.678431
-49.275795 131.644058 16.739985 0.677836
-49.275776 131.644073 14.417996 0.678431
-48.802826 131.833939 12.047916 0.436027
-49.275791 131.644058 9.851208 0.677745
-48.802826 131.833939 7.554162 0.526986
-49.275791 131.644058 5.352768 0.678431
-49.039341 131.738983 3.112622 0.654047
-49.039341 131.738983 0.887378 0.676158
-23.722652 141.902924 -0.000034 0.538186
-8.577840 147.983139 -0.000021 0.542031
-2.075673 150.593582 -0.000015 0.536858
2.796926 152.549789 0.199993 0.692012
4.877642 153.385132 0.199994 0.669703
6.323817 153.965729 0.199995 0.694087
7.389293 154.393494 0.199996 0.672190
-50.094315 131.834061 19.267988 0.663203
-50.094322 131.834061 16.889114 0.542733
-50.094315 131.834061 14.543636 0.696345
-50.094307 131.834061 12.225937 0.681224
-50.094307 131.834061 9.930639 0.652232
-50.094315 131.834061 7.652568 0.598184
-26.024811 141.302704 4.116026 0.406821
-50.336006 131.738968 3.132339 0.653666
-50.336014 131.738968 0.867659 0.645014
-23.827633 142.167053 -0.000036 0.538186
-8.640731 148.141388 -0.000021 0.545556
-2.120498 150.706360 -0.000015 0.536675
2.765637 152.628510 0.199993 0.712032
4.852135 153.449310 0.199994 0.719371
6.302329 154.019806 0.199995 0.715587
7.370765 154.440109 0.199996 0.753613
-51.432701 131.834076 19.580397 0.601663
-51.771721 131.703430 17.236952 0.521782
-51.771706 131.703445 14.836674 0.529183
-51.432709 131.834076 12.410943 0.711620
-51.771729 131.703430 10.115916 0.540169
-51.432716 131.834076 7.754830 0.635477
-26.259819 141.534393 4.122656 0.405127
-51.679283 131.739059 3.152825 0.570962
-51.679283 131.739059 0.847177 0.610040
-23.930771 142.431900 -0.000036 0.541619
-8.702514 148.300064 -0.000021 0.540597
-2.164536 150.819473 -0.000015 0.526116
2.734903 152.707458 0.199993 0.741848
4.827080 153.513672 0.199994 0.697826
6.281218 154.074020 0.199995 0.679622
7.352563 154.486862 0.199996 0.654276
-52.820770 131.834000 19.905275 0.621485
-52.820793 131.833984 17.438610 0.593500
-52.820770 131.834000 15.006567 0.625834
-52.820786 131.833984 12.603336 0.522026
-52.820786 131.833984 10.223330 0.780926
-52.820793 131.833984 7.861181 0.506996
-25.763935 142.043930 4.090974 0.403525
-53.072578 131.738968 3.174128 0.622278
-53.072578 131.738968 0.825873 0.646830
-24.032043 142.697464 -0.000036 0.534951
-8.763190 148.459183 -0.000021 0.533165
-2.207780 150.932877 -0.000015 0.536400
2.704713 152.786606 0.199993 0.679118
4.802470 153.578201 0.199994 0.666987
6.260488 154.128387 0.199996 0.706798
7.334688 154.533737 0.199996 0.761486
nan nan nan 0.000000
nan nan nan 0.000000
nan nan nan 0.000000
nan nan nan 0.000000
nan nan nan 0.000000
nan nan nan 0.000000
nan nan nan 0.000000
-25.576839 142.429810 2.691417 0.413108
nan nan nan 0.000000
-24.131462 142.963730 -0.000036 0.542870
-8.822757 148.618713 -0.000021 0.543297
-2.250236 151.046585 -0.000015 0.540978
2.675083 152.865982 0.199993 0.661173
4.778314 153.642899 0.199994 0.716976
6.240136 154.182892 0.199995 0.659312
7.317139 154.580734 0.199996 0.678386
nan nan nan 0.000000
nan nan nan 0.000000
nan nan nan 0.000000
nan nan nan 0.000000
nan nan nan 0.000000
nan nan nan 0.000000
nan nan nan 0.000000
-25.946018 142.610016 2.696079 0.403616
nan nan nan 0.000000
-24.229004 143.230682 -0.000036 0.538979
-8.881209 148.778656 -0.000021 0.546639
-2.291898 151.160583 -0.000015 0.536141
2.646006 152.945541 0.199993 0.675196
4.754609 153.707764 0.199994 0.690745
6.220164 154.237549 0.199995 0.755184
7.299922 154.627853 0.199997 0.744030
nan nan nan 0.000000
nan nan nan 0.000000
nan nan nan 0.000000
nan nan nan 0.000000
nan nan nan 0.000000
nan nan nan 0.000000
-25.068481 143.235306 4.038792 0.414145
-25.252384 143.170273 2.682305 0.406424
nan nan nan 0.000000
-24.324684 143.498322 -0.000036 0.537652
-8.938537 148.938995 -0.000021 0.544793
-2.332763 151.274857 -0.000016 0.555886
2.617485 153.025314 0.199993 0.759091
4.731358 153.772797 0.199994 0.659678
6.200577 154.292328 0.199995 0.684947
7.283034 154.675095 0.199998 0.700572
nan nan nan 0.000000
nan nan nan 0.000000
nan nan nan 0.000000
nan nan nan 0.000000
nan nan nan 0.000000
nan nan nan 0.000000
-25.561695 143.371323 4.059458 0.406119
nan nan nan 0.000000
-26.507454 143.044296 1.297629 0.374884
-24.418507 143.766602 -0.000036 0.534798
-8.994750 149.099747 -0.000022 0.542062
-2.372821 151.389435 -0.000015 0.552758
2.589520 153.105286 0.199993 0.726329
4.708561 153.837997 0.199994 0.756100
6.181372 154.347244 0.199995 0.755550
7.266479 154.722458 0.199998 0.690929
nan nan nan 0.000000
nan nan nan 0.000000
nan nan nan 0.000000
nan nan nan 0.000000
nan nan nan 0.000000
nan nan nan 0.000000
-27.046597 143.178375 4.131551 0.402655
-27.791012 142.926788 2.722869 0.404608
nan nan nan 0.000000
-24.510452 144.035538 -0.000036 0.543694
-9.049840 149.260864 -0.000022 0.552285
-0.765048 152.060944 0.199990 0.686748
2.562119 153.185440 0.199993 0.689097
4.686220 153.903336 0.199994 0.726131
6.162548 154.402298 0.199995 0.685893
7.250254 154.769928 0.199999 0.664988
nan nan nan 0.000000
nan nan nan 0.000000
nan nan nan 0.000000
nan nan nan 0.000000
nan nan nan 0.000000
-26.469601 143.687912 5.499561 0.401022
-25.774685 143.917389 4.060782 0.408026
-26.157948 143.790817 2.693041 0.375143
nan nan nan 0.000000
-24.600533 144.305115 -0.000036 0.543526
-9.103805 149.422379 -0.000022 0.536477
-0.799661 152.164551 0.199990 0.718135
2.535274 153.265793 0.199993 0.669520
4.664333 153.968842 0.199994 0.669490
6.144114 154.457489 0.199996 0.670680
7.234356 154.817505 0.199999 0.728588
nan nan nan 0.000000
nan nan nan 0.000000
nan nan nan 0.000000
nan nan nan 0.000000
nan nan nan 0.000000
nan nan nan 0.000000
-27.209866 143.762253 4.130175 0.401801
-27.166134 143.776352 2.708800 0.391135
nan nan nan 0.000000
-24.688698 144.575302 -0.000036 0.534600
-9.156627 149.584274 -0.000022 0.537392
-0.833549 152.268387 0.199990 0.690120
2.508991 153.346329 0.199993 0.694499
4.642907 154.034500 0.199994 0.752743
6.126064 154.512802 0.199996 0.757031
7.218789 154.865204 0.199999 0.714580
nan nan nan 0.000000
nan nan nan 0.000000
nan nan nan 0.000000
nan nan nan 0.000000
nan nan nan 0.000000
nan nan nan 0.000000
nan nan nan 0.000000
-27.605164 143.955170 2.714756 0.398276
nan nan nan 0.000000
-24.774998 144.846115 -0.000036 0.539788
-9.208323 149.746521 -0.000022 0.537102
-0.866713 152.372467 0.199990 0.682307
2.483270 153.427048 0.199993 0.753216
4.621942 154.100296 0.199994 0.715496
6.108403 154.568237 0.199997 0.711330
7.203557 154.912994 0.199998 0.701625
nan nan nan 0.000000
nan nan nan 0.000000
nan nan nan 0.000000
nan nan nan 0.000000
nan nan nan 0.000000
nan nan nan 0.000000
-26.220852 144.699341 4.070004 0.404868
-27.528740 144.297638 2.711898 0.403357
nan nan nan 0.000000
-24.859394 145.117508 -0.000036 0.540551
-9.258893 149.909119 -0.000022 0.547845
-0.899147 152.476776 0.199990 0.750713
2.458112 153.507935 0.199993 0.733684
4.601433 154.166245 0.199994 0.666667
6.091131 154.623810 0.199998 0.761257
7.188659 154.960907 0.199998 0.715633
nan nan nan 0.000000
nan nan nan 0.000000
nan nan nan 0.000000
nan nan nan 0.000000
nan nan nan 0.000000
nan nan nan 0.000000
nan nan nan 0.000000
nan nan nan 0.000000
nan nan nan 0.000000
-24.941902 145.389496 -0.000036 0.537530
-9.308322 150.072083 -0.000022 0.539025
-0.930858 152.581299 0.199990 0.721294
2.433520 153.589005 0.199993 0.698207
4.581387 154.232346 0.199994 0.710567
6.074244 154.679474 0.199998 0.671702
7.174096 155.008911 0.199998 0.712306
nan nan nan 0.000000
nan nan nan 0.000000
nan nan nan 0.000000
nan nan nan 0.000000
nan nan nan 0.000000
nan nan nan 0.000000
nan nan nan 0.000000
nan nan nan 0.000000
nan nan nan 0.000000
-25.022499 145.662048 -0.000036 0.536919
-9.356612 150.235382 -0.000022 0.552636
-0.961833 152.686050 0.199990 0.703609
2.409500 153.670242 0.199993 0.670100
4.561802 154.298569 0.199994 0.715084
6.057747 154.735275 0.199999 0.732799
7.089769 155.036560 0.181706 0.718700
nan nan nan 0.000000
nan nan nan 0.000000
nan nan nan 0.000000
nan nan nan 0.000000
nan nan nan 0.000000
nan nan nan 0.000000
nan nan nan 0.000000
nan nan nan 0.000000
nan nan nan 0.000000
-25.101192 145.935150 -0.000036 0.538216
-9.403764 150.399002 -0.000022 0.537377
-0.992076 152.791016 0.199990 0.737072
2.386045 153.751648 0.199993 0.662074
4.542682 154.364929 0.199995 0.666728
6.041638 154.791183 0.199999 0.686366
6.901333 155.035660 0.136288 0.702846
nan nan nan 0.000000
nan nan nan 0.000000
nan nan nan 0.000000
nan nan nan 0.000000
nan nan nan 0.000000
nan nan nan 0.000000
nan nan nan 0.000000
nan nan nan 0.000000
nan nan nan 0.000000
-25.177990 146.208801 -0.000037 0.544427
-9.449767 150.562958 -0.000022 0.546639
-1.021587 152.896194 0.199991 0.718105
2.363153 153.833221 0.199993 0.688548
4.524029 154.431427 0.199996 0.714977
6.025916 154.847198 0.199998 0.732143
6.703229 155.034714 0.088446 0.686107
nan nan nan 0.000000
nan nan nan 0.000000
nan nan nan 0.000000
nan nan nan 0.000000
nan nan nan 0.000000
nan nan nan 0.000000
nan nan nan 0.000000
nan nan nan 0.000000
nan nan nan 0.000000
-25.252861 146.482986 -0.000037 0.539193
