# This PCD file was generated using the MATLABÂ® pcwrite function
# from Computer Vision ToolboxÂ®.
# .PCD v.7 - Point Cloud Data file format
VERSION .7
FIELDS x y z intensity
SIZE 4 4 4 4
TYPE F F F F
COUNT 1 1 1 1
WIDTH 1257
HEIGHT 1
VIEWPOINT 0 0 0 1 0 0 0
POINTS 1257
DATA ascii
-76.701599 -86.217636 -0.000006 0.557870
-77.340073 -88.071846 4.490977 0.382422
-77.340073 -88.071838 4.147815 0.346593
-77.340073 -88.071838 3.809470 0.717220
-77.332703 -88.048286 3.471472 0.276265
-77.380478 -88.200989 3.159594 0.473381
-77.383987 -88.212212 2.827465 0.580392
-77.379982 -88.199409 2.495110 0.266667
-77.379982 -88.199409 2.164919 0.266056
-77.379982 -88.199409 1.835081 0.261891
-77.379982 -88.199409 1.504889 0.277531
-77.382034 -88.205971 1.173070 0.273426
-77.379982 -88.199409 0.840596 0.284749
-77.379982 -88.199409 0.505040 0.285222
-77.257790 -87.808830 0.240674 0.532982
-77.135742 -87.418694 -0.000007 0.521904
-76.754852 -86.201180 -0.000005 0.544747
-77.410095 -88.062851 4.494125 0.839216
-77.412979 -88.071838 4.152568 0.801160
-77.412979 -88.071838 3.813475 0.838209
-77.405426 -88.048286 3.474728 0.284169
-77.454376 -88.200996 3.162161 0.482353
-77.457970 -88.212204 2.829296 0.580392
-77.451881 -88.193207 2.495886 0.277653
-77.451881 -88.193207 2.165178 0.267018
-77.451881 -88.193207 1.834823 0.284688
-77.451881 -88.193207 1.504114 0.281651
-77.455627 -88.204903 1.171332 0.282155
-77.451881 -88.193207 0.838780 0.271962
-77.451881 -88.193207 0.502698 0.279896
-77.328674 -87.808823 0.236780 0.538537
-77.197372 -87.399178 -0.000007 0.533501
-76.807991 -86.184349 -0.000005 0.513970
-77.483261 -88.062851 4.499780 0.776471
-77.486206 -88.071838 4.157449 0.839216
-77.486206 -88.071838 3.817586 0.839216
-77.478477 -88.048286 3.478072 0.263661
-77.532280 -88.212204 3.166154 0.580392
-77.532280 -88.212212 2.831177 0.580392
-77.526047 -88.193207 2.497010 0.268147
-77.526047 -88.193207 2.165552 0.288685
-77.526047 -88.193207 1.834448 0.278828
-77.526047 -88.193207 1.502990 0.277302
-77.529526 -88.203812 1.169548 0.272572
-77.526047 -88.193207 0.836147 0.277562
-77.526047 -88.193207 0.499303 0.284794
-77.399879 -87.808830 0.232783 0.556146
-77.258865 -87.379234 -0.000007 0.549813
-76.861015 -86.167152 -0.000006 0.545266
-77.556755 -88.062851 4.505582 0.551522
-77.559776 -88.071838 4.162456 0.759854
-77.559776 -88.071838 3.821805 0.748898
-77.551865 -88.048286 3.481503 0.284321
-77.606941 -88.212204 3.168861 0.580392
-77.606941 -88.212212 2.833106 0.580392
-77.600555 -88.193207 2.498164 0.279164
-77.600555 -88.193207 2.165936 0.263279
-77.600555 -88.193207 1.834064 0.278355
-77.600555 -88.193207 1.501836 0.277058
-77.603745 -88.202690 1.167717 0.271107
-77.600555 -88.193207 0.833446 0.278019
-77.600555 -88.193207 0.495820 0.277882
-77.471405 -87.808830 0.228681 0.560784
-77.320221 -87.358856 -0.000007 0.551904
-76.913918 -86.149582 -0.000006 0.510277
-77.630600 -88.062851 4.511535 0.839216
-77.633690 -88.071838 4.167593 0.839216
-77.633690 -88.071838 3.826133 0.839216
-77.625595 -88.048286 3.485022 0.278431
-77.681946 -88.212204 3.171638 0.580392
-77.681946 -88.212212 2.835085 0.580392
-77.675415 -88.193207 2.499347 0.278737
-77.675415 -88.193207 2.166330 0.269490
-77.683449 -88.216576 1.833265 0.657420
-77.675415 -88.193207 1.500653 0.276707
-77.678276 -88.201538 1.165840 0.278691
-77.675415 -88.193207 0.830674 0.271595
-77.675415 -88.193207 0.492246 0.275532
-77.543274 -87.808823 0.224473 0.541848
-77.381432 -87.338051 -0.000007 0.527062
-76.966698 -86.131645 -0.000006 0.518700
-77.704803 -88.062851 4.517638 0.905882
-77.707962 -88.071838 4.172861 0.839216
-77.707962 -88.071838 3.830571 0.839216
-77.699677 -88.048286 3.488631 0.268650
-77.757317 -88.212212 3.174485 0.580392
-77.751221 -88.194885 2.835608 0.490211
-77.750633 -88.193207 2.500561 0.273060
-77.750633 -88.193207 2.166735 0.280247
-77.758850 -88.216576 1.832860 0.684443
-77.750633 -88.193207 1.499439 0.285512
-77.753143 -88.200356 1.163916 0.285328
-77.750633 -88.193207 0.827832 0.287739
-77.750633 -88.193207 0.488582 0.273075
-77.615486 -87.808823 0.220158 0.553704
-77.442497 -87.316826 -0.000007 0.548714
-77.019348 -86.113342 -0.000006 0.552483
-77.779366 -88.062851 4.523896 0.793713
-77.782593 -88.071838 4.178261 0.839216
-77.782593 -88.071838 3.835120 0.839216
-77.774132 -88.048286 3.492331 0.284077
-77.833054 -88.212204 3.177404 0.580392
-77.829018 -88.200989 2.838218 0.481865
-77.826225 -88.193207 2.501805 0.279484
-77.826225 -88.193207 2.167149 0.273289
-77.834625 -88.216576 1.832445 0.629618
-77.826225 -88.193207 1.498195 0.269551
-77.828362 -88.199150 1.161943 0.269947
-77.826225 -88.193207 0.824919 0.275074
-77.826225 -88.193207 0.484825 0.272663
-77.688049 -87.808823 0.215735 0.553887
-77.503410 -87.295166 -0.000007 0.579232
-77.071869 -86.094666 -0.000005 0.498573
-77.854301 -88.062851 4.530306 0.839216
-77.857605 -88.071838 4.183794 0.839216
-77.857605 -88.071838 3.839782 0.839216
-77.848953 -88.048286 3.496122 0.273793
-77.909172 -88.212204 3.180395 0.580392
-77.909172 -88.212212 2.841327 0.580392
-77.902191 -88.193207 2.503080 0.278096
-77.902191 -88.193207 2.167573 0.276967
-77.902191 -88.193207 1.832426 0.676219
-77.902191 -88.193207 1.496920 0.286519
-77.903923 -88.197914 1.159922 0.276967
-77.902191 -88.193207 0.821934 0.284504
-77.902191 -88.193207 0.480976 0.285512
-77.760979 -87.808823 0.211202 0.555856
-77.564163 -87.273087 -0.000007 0.529473
-77.124252 -86.075630 -0.000006 0.555398
-77.929626 -88.062851 4.536874 0.839216
-77.933006 -88.071838 4.189463 0.839216
-77.933006 -88.071838 3.844558 0.839216
-77.924164 -88.048286 3.500005 0.269230
-77.985687 -88.212212 3.183459 0.580392
-77.985687 -88.212204 2.843511 0.580392
-77.978554 -88.193207 2.504385 0.271397
-77.978554 -88.193207 2.168008 0.272251
-77.978554 -88.193207 1.831992 0.267567
-77.978554 -88.193207 1.495614 0.274067
-77.979843 -88.196640 1.157852 0.273350
-77.978554 -88.193207 0.818876 0.278431
-77.978554 -88.193207 0.477033 0.277928
-77.834290 -87.808823 0.206559 0.555825
-77.624771 -87.250580 -0.000007 0.568368
-77.176514 -86.056221 -0.000005 0.500771
-78.005348 -88.062851 4.543601 0.839216
-78.008797 -88.071838 4.195268 0.839216
-78.008797 -88.071838 3.849448 0.839216
-77.999763 -88.048286 3.503983 0.270069
-78.058296 -88.200989 3.185215 0.480232
-78.062599 -88.212204 2.845747 0.580392
-78.055313 -88.193207 2.505723 0.273838
-78.055313 -88.193207 2.168454 0.271427
-78.055313 -88.193207 1.831546 0.269886
-78.055313 -88.193207 1.494277 0.267079
-78.056137 -88.195351 1.155733 0.269749
-78.055313 -88.193207 0.815744 0.286290
-78.055313 -88.193207 0.472995 0.279973
-77.907982 -87.808823 0.201804 0.539849
-77.685219 -87.227654 -0.000006 0.558450
-77.228630 -86.036453 -0.000005 0.558938
-78.081474 -88.062851 4.550488 0.724971
-78.084991 -88.071838 4.201212 0.839216
-78.084991 -88.071838 3.854455 0.839216
-78.081474 -88.062851 3.510375 0.646448
-78.139923 -88.212204 3.189809 0.580392
-78.139923 -88.212204 2.848037 0.580392
-78.132492 -88.193207 2.507092 0.279774
-78.132492 -88.193207 2.168910 0.270451
-78.132492 -88.193207 1.831090 0.273838
-78.132492 -88.193207 1.492908 0.287312
-78.132805 -88.194023 1.153564 0.278264
-78.132492 -88.193207 0.812538 0.277531
-78.132492 -88.193207 0.468860 0.277607
-77.982071 -87.808823 0.196935 0.571038
-77.745506 -87.204308 -0.000007 0.537713
-77.280609 -86.016319 -0.000006 0.543359
-78.158020 -88.062851 4.557538 0.839216
-78.161613 -88.071838 4.207296 0.839216
-78.161613 -88.071838 3.859581 0.839216
-78.158020 -88.062851 3.514550 0.839216
-78.217674 -88.212212 3.193099 0.580392
-78.217674 -88.212204 2.850381 0.580392
-78.217674 -88.212212 2.509499 0.279759
-78.217674 -88.212212 2.169712 0.272251
-78.217674 -88.212212 1.830288 0.283467
-78.217674 -88.212212 1.490501 0.274647
-78.217674 -88.212212 1.149619 0.278431
-78.217674 -88.212212 0.806901 0.277195
-78.217674 -88.212212 0.461593 0.286259
-78.056564 -87.808823 0.191952 0.556054
-77.805626 -87.180534 -0.000007 0.479194
-77.332451 -85.995827 -0.000005 0.529091
-78.234993 -88.062851 4.564752 0.839216
-78.238655 -88.071838 4.213522 0.839216
-78.238655 -88.071838 3.864827 0.839216
-78.234993 -88.062851 3.518822 0.776471
-78.295860 -88.212212 3.196464 0.580392
-78.295860 -88.212212 2.852780 0.580392
-78.295860 -88.212212 2.510936 0.279576
-78.295860 -88.212212 2.170191 0.280079
-78.295860 -88.212212 1.829810 0.280385
-78.295860 -88.212212 1.489064 0.279103
-78.295860 -88.212212 1.147220 0.263905
-78.295860 -88.212212 0.803536 0.281193
-78.295860 -88.212212 0.457254 0.268681
-78.131470 -87.808823 0.186852 0.530007
-77.865570 -87.156342 -0.000006 0.538384
-77.384140 -85.974968 -0.000005 0.539773
-78.312401 -88.062851 4.572132 0.839216
-78.316139 -88.071838 4.219892 0.839216
-78.316139 -88.071838 3.870193 0.839216
-78.312401 -88.062851 3.523192 0.839216
-78.368370 -88.197495 3.198073 0.283803
-78.368370 -88.197495 2.853927 0.280476
-78.368370 -88.197495 2.511624 0.279484
-78.368370 -88.197495 2.170419 0.277623
-78.368370 -88.197495 1.829581 0.270451
-78.368370 -88.197495 1.488376 0.271565
-78.368370 -88.197495 1.146073 0.285008
-78.368370 -88.197495 0.801927 0.275761
-78.368370 -88.197495 0.455178 0.274525
-78.206810 -87.808823 0.181634 0.560784
-77.925354 -87.131744 -0.000006 0.567376
-77.435684 -85.953751 -0.000005 0.530785
-78.390266 -88.062851 4.579681 0.479957
-78.394073 -88.071838 4.226407 0.736767
-78.394073 -88.071838 3.875682 0.866300
-78.390266 -88.062851 3.527663 0.429023
-78.426437 -88.148178 3.195427 0.275013
-78.426437 -88.148178 2.852041 0.276371
-78.426437 -88.148178 2.510494 0.273747
-78.426437 -88.148178 2.170043 0.268528
-78.426437 -88.148178 1.829957 0.279210
-78.426437 -88.148178 1.489506 0.285969
-78.426437 -88.148178 1.147959 0.272709
-78.426437 -88.148178 0.804573 0.273579
-78.426437 -88.148178 0.458590 0.272755
-78.282585 -87.808823 0.176297 0.560784
-77.984970 -87.106720 -0.000007 0.517266
-77.487083 -85.932182 -0.000005 0.533761
-78.468590 -88.062851 4.587401 0.839216
-78.472473 -88.071838 4.233069 0.458686
-78.472473 -88.071838 3.881295 0.537057
-78.468590 -88.062851 3.532234 0.905882
-78.472466 -88.071823 3.189437 0.261982
-78.472466 -88.071823 2.847771 0.288167
-78.472466 -88.071823 2.507935 0.286473
-78.472466 -88.071823 2.169191 0.278431
-78.472466 -88.071823 1.830809 0.276356
-78.472466 -88.071823 1.492064 0.286061
-78.472466 -88.071823 1.152229 0.279072
-78.472466 -88.071823 0.810564 0.268315
-78.472466 -88.071823 0.466316 0.270604
-78.358810 -87.808823 0.170840 0.564614
-78.044395 -87.081276 -0.000006 0.520577
-77.538330 -85.910240 -0.000005 0.551019
-78.547386 -88.062851 4.595294 0.839216
-78.551346 -88.071838 4.239882 0.686992
-78.551346 -88.071838 3.887034 0.423774
-78.547386 -88.062851 3.536909 0.839216
-78.551338 -88.071823 3.193064 0.264652
-78.551338 -88.071823 2.850357 0.272969
-78.551338 -88.071823 2.509485 0.272404
-78.551338 -88.071823 2.169707 0.267109
-78.551338 -88.071823 1.830293 0.276829
-78.551338 -88.071823 1.490515 0.277897
-78.551338 -88.071823 1.149643 0.277211
-78.551338 -88.071823 0.806935 0.273152
-78.551338 -88.071823 0.461637 0.264759
-78.435501 -87.808823 0.165259 0.560784
-78.103653 -87.055428 -0.000006 0.533394
-77.589424 -85.887955 -0.000005 0.523873
-78.626671 -88.062851 4.603364 0.839216
-78.630707 -88.071838 4.246846 0.839216
-78.630707 -88.071838 3.892901 0.660548
-78.626671 -88.062851 3.541687 0.839216
-78.620132 -88.048279 3.193805 0.279438
-78.620132 -88.048279 2.850885 0.279423
-78.620132 -88.048279 2.509801 0.270634
-78.620132 -88.048279 2.169812 0.276387
-78.620132 -88.048279 1.830188 0.270298
-78.620132 -88.048279 1.490199 0.275975
-78.620132 -88.048279 1.149115 0.265126
-78.620132 -88.048279 0.806195 0.266758
-78.620132 -88.048279 0.460682 0.288060
-78.620132 -88.048279 0.111798 0.275883
-78.162727 -87.029160 -0.000007 0.506035
-77.640350 -85.865303 -0.000005 0.514214
-78.710564 -88.071838 4.614085 0.776471
-78.710564 -88.071838 4.253963 0.839216
-78.710564 -88.071838 3.898897 0.839216
-78.710564 -88.071838 3.548037 0.732418
-78.710564 -88.071838 3.200567 0.437003
-78.710564 -88.071838 2.855705 0.607355
-78.710564 -88.071838 2.512688 0.725475
-78.710564 -88.071838 2.170774 0.839216
-78.710564 -88.071838 1.829226 0.839216
-78.710564 -88.071838 1.487311 0.839216
-78.710564 -88.071838 1.144295 0.905882
-78.710564 -88.071838 0.799433 0.839216
-78.710556 -88.071823 0.451967 0.531609
-78.710556 -88.071823 0.101106 0.560418
-78.221611 -87.002480 -0.000006 0.511406
-77.691132 -85.842308 -0.000006 0.554940
-78.790939 -88.071838 4.622521 0.776471
-78.790939 -88.071838 4.261237 0.839216
-78.790939 -88.071838 3.905025 0.839216
-78.790939 -88.071838 3.553032 0.905882
-78.790939 -88.071838 3.204441 0.910109
-78.790939 -88.071838 2.858466 0.796750
-78.790939 -88.071838 2.514343 0.768490
-78.790939 -88.071838 2.171325 0.836179
-78.790939 -88.071838 1.828675 0.839216
-78.790939 -88.071846 1.485657 0.839216
-78.790939 -88.071838 1.141534 0.905882
-78.790939 -88.071838 0.795559 0.839216
-78.790932 -88.071823 0.446970 0.556283
-78.790924 -88.071823 0.094978 0.560784
-78.280312 -86.975395 -0.000006 0.562524
-77.741745 -85.818947 -0.000005 0.558785
-78.871834 -88.071838 4.631140 0.776471
-78.871834 -88.071838 4.268668 0.839216
-78.871826 -88.071838 3.911285 0.839216
-78.871826 -88.071838 3.558136 0.905882
-78.871826 -88.071838 3.208399 0.905882
-78.871826 -88.071838 2.861287 0.771939
-78.871826 -88.071838 2.516033 0.839216
-78.871834 -88.071838 2.171888 0.832471
-78.871834 -88.071838 1.828112 0.839216
-78.871826 -88.071838 1.483967 0.839216
-78.871834 -88.071838 1.138713 0.905882
-78.871834 -88.071838 0.791601 0.839216
-78.871826 -88.071823 0.441867 0.533532
-78.871826 -88.071831 0.088717 0.549462
-78.338821 -86.947899 -0.000006 0.538354
-77.792191 -85.795235 -0.000005 0.514870
-78.953262 -88.071838 4.639944 0.776471
-78.953262 -88.071846 4.276260 0.839216
-78.953262 -88.071838 3.917681 0.839216
-78.953262 -88.071838 3.563350 0.905882
-78.953262 -88.071838 3.212443 0.905882
-78.953262 -88.071838 2.864169 0.839216
-78.953262 -88.071838 2.517760 0.839216
-78.953262 -88.071846 2.172463 0.827756
-78.953262 -88.071846 1.827536 0.839216
-78.953262 -88.071846 1.482240 0.839216
-78.953262 -88.071838 1.135830 0.905882
-78.953262 -88.071838 0.787557 0.839216
-78.953255 -88.071831 0.436652 0.554253
-78.953255 -88.071831 0.082321 0.561578
-78.397133 -86.919991 -0.000006 0.549950
-77.842476 -85.771179 -0.000005 0.554391
-79.035248 -88.071838 4.648938 0.839216
-79.035248 -88.071846 4.284015 0.905882
-79.035248 -88.071838 3.924214 0.905882
-79.035248 -88.071838 3.568676 0.839216
-79.035248 -88.071838 3.216573 0.839216
-79.035248 -88.071838 2.867113 0.839216
-79.035248 -88.071838 2.519524 0.832639
-79.035248 -88.071838 2.173051 0.762432
-79.035248 -88.071838 1.826949 0.839216
-79.035248 -88.071838 1.480476 0.839216
-79.035248 -88.071838 1.132887 0.905882
-79.035248 -88.071846 0.783427 0.583520
-79.035240 -88.071831 0.431326 0.537255
-79.035240 -88.071838 0.075787 0.560784
-78.455254 -86.891678 -0.000006 0.537972
-77.892586 -85.746765 -0.000006 0.552377
-79.117790 -88.071838 4.658122 0.572305
-79.117790 -88.071838 4.291934 0.905882
-79.117790 -88.071838 3.930887 0.905882
-79.117790 -88.071838 3.574115 0.839216
-79.117790 -88.071846 3.220792 0.839216
-79.117790 -88.071846 2.870120 0.839216
-79.117790 -88.071838 2.521325 0.839216
-79.117790 -88.071846 2.173651 0.776471
-79.117790 -88.071846 1.826349 0.797757
-79.117790 -88.071846 1.478675 0.784619
-79.117790 -88.071846 1.129880 0.780514
-79.117790 -88.071846 0.779208 0.540337
-79.117790 -88.071838 0.425886 0.563500
-79.117790 -88.071838 0.069114 0.560845
-78.513176 -86.862961 -0.000006 0.498573
-77.942528 -85.722008 -0.000005 0.571710
-79.200920 -88.071846 4.667502 0.531868
-79.200912 -88.071838 4.300020 0.905882
-79.200912 -88.071838 3.937699 0.905882
-79.200912 -88.071838 3.579669 0.839216
-79.200912 -88.071838 3.225100 0.839216
-79.200912 -88.071838 2.873190 0.839216
-79.200920 -88.071846 2.523165 0.839216
-79.200912 -88.071838 2.174264 0.776471
-79.200912 -88.071838 1.825736 0.801465
-79.200920 -88.071846 1.476835 0.812253
-79.200912 -88.071838 1.126810 0.335393
-79.200920 -88.071846 0.774901 0.339086
-79.200912 -88.071838 0.420331 0.558343
-79.200912 -88.071838 0.062301 0.535393
-78.570892 -86.833847 -0.000006 0.566934
-77.992294 -85.696899 -0.000005 0.553841
-79.284637 -88.071846 4.677079 0.822828
-79.284637 -88.071846 4.308278 0.905882
-79.284637 -88.071838 3.944656 0.905882
-79.284637 -88.071846 3.585340 0.839216
-79.284637 -88.071846 3.229498 0.839216
-79.284637 -88.071846 2.876325 0.839216
-79.284637 -88.071846 2.525043 0.839216
-79.284637 -88.071846 2.174889 0.776471
-79.284637 -88.071846 1.825111 0.817472
-79.284637 -88.071846 1.474957 0.838209
-79.284637 -88.071846 1.123675 0.476600
-79.284637 -88.071846 0.770502 0.661067
-79.284637 -88.071846 0.414660 0.556970
-79.284637 -88.071846 0.055344 0.559457
-78.628403 -86.804321 -0.000006 0.550851
-78.041885 -85.671440 -0.000005 0.543297
nan nan nan 0.000000
nan nan nan 0.000000
nan nan nan 0.000000
nan nan nan 0.000000
nan nan nan 0.000000
nan nan nan 0.000000
nan nan nan 0.000000
nan nan nan 0.000000
nan nan nan 0.000000
-91.443024 -110.999664 0.200030 0.709636
-84.599754 -98.004761 0.199992 0.716747
-82.471603 -93.963547 -0.000012 0.543572
-80.653328 -90.510773 -0.000009 0.541207
-79.492516 -88.306473 -0.000007 0.517250
-78.685715 -86.774399 -0.000006 0.508293
-78.091293 -85.645638 -0.000005 0.562387
nan nan nan 0.000000
nan nan nan 0.000000
nan nan nan 0.000000
nan nan nan 0.000000
nan nan nan 0.000000
nan nan nan 0.000000
nan nan nan 0.000000
nan nan nan 0.000000
nan nan nan 0.000000
-91.668884 -110.879593 0.200036 0.709316
-84.735107 -97.932877 0.199991 0.696971
-82.578796 -93.906624 -0.000012 0.559274
-80.736458 -90.466614 -0.000009 0.548806
-79.560287 -88.270477 -0.000007 0.554040
-78.742805 -86.744080 -0.000006 0.534691
-78.140526 -85.619499 -0.000005 0.415808
nan nan nan 0.000000
nan nan nan 0.000000
nan nan nan 0.000000
nan nan nan 0.000000
nan nan nan 0.000000
nan nan nan 0.000000
nan nan nan 0.000000
nan nan nan 0.000000
nan nan nan 0.000000
-91.893951 -110.758057 0.200035 0.708766
-84.869965 -97.860077 0.199990 0.712627
-82.685585 -93.848946 -0.000011 0.538598
-80.819283 -90.421890 -0.000009 0.530236
-79.627808 -88.234009 -0.000007 0.542397
-78.799690 -86.713356 -0.000006 0.550103
-78.189568 -85.593010 -0.000005 0.565499
nan nan nan 0.000000
nan nan nan 0.000000
nan nan nan 0.000000
nan nan nan 0.000000
nan nan nan 0.000000
nan nan nan 0.000000
nan nan nan 0.000000
nan nan nan 0.000000
nan nan nan 0.000000
-92.118134 -110.634888 0.200038 0.706004
-85.004311 -97.786316 0.199989 0.713771
-82.791977 -93.790527 -0.000012 0.550027
-80.901794 -90.376579 -0.000009 0.524193
-79.695068 -88.197075 -0.000007 0.489647
-78.856361 -86.682243 -0.000006 0.538521
-78.238434 -85.566177 -0.000005 0.494408
nan nan nan 0.000000
nan nan nan 0.000000
nan nan nan 0.000000
nan nan nan 0.000000
nan nan nan 0.000000
nan nan nan 0.000000
nan nan nan 0.000000
nan nan nan 0.000000
nan nan nan 0.000000
-92.341476 -110.510216 0.200037 0.707881
-85.138130 -97.711617 0.199988 0.698436
-82.897949 -93.731361 -0.000011 0.536828
-80.983978 -90.330704 -0.000009 0.528054
-79.762077 -88.159676 -0.000007 0.548547
-78.912804 -86.650726 -0.000006 0.551873
-77.895470 -84.843170 0.200004 0.675532
nan nan nan 0.000000
nan nan nan 0.000000
nan nan nan 0.000000
nan nan nan 0.000000
nan nan nan 0.000000
nan nan nan 0.000000
nan nan nan 0.000000
nan nan nan 0.000000
nan nan nan 0.000000
-92.563927 -110.383934 0.200040 0.711589
-85.271439 -97.636009 0.199986 0.707210
-83.003510 -93.671463 -0.000011 0.531991
-81.065849 -90.284248 -0.000009 0.557855
-79.828812 -88.121796 -0.000007 0.568994
-78.969032 -86.618828 -0.000006 0.539223
-77.939102 -84.818413 0.200002 0.732494
nan nan nan 0.000000
nan nan nan 0.000000
nan nan nan 0.000000
nan nan nan 0.000000
nan nan nan 0.000000
nan nan nan 0.000000
nan nan nan 0.000000
nan nan nan 0.000000
nan nan nan 0.000000
-92.785561 -110.256233 0.200035 0.705028
-85.404213 -97.559456 0.199985 0.704845
-83.108658 -93.610832 -0.000011 0.536706
-81.147392 -90.237221 -0.000009 0.547753
-79.895287 -88.083466 -0.000007 0.510063
-79.025040 -86.586525 -0.000006 0.536736
-77.982567 -84.793358 0.200001 0.676860
nan nan nan 0.000000
nan nan nan 0.000000
nan nan nan 0.000000
nan nan nan 0.000000
nan nan nan 0.000000
nan nan nan 0.000000
nan nan nan 0.000000
nan nan nan 0.000000
nan nan nan 0.000000
-93.006248 -110.126923 0.200034 0.703914
-85.536438 -97.481964 0.199984 0.702815
-83.213371 -93.549461 -0.000011 0.545815
-81.228600 -90.189629 -0.000009 0.515160
-79.961494 -88.044662 -0.000007 0.550851
-79.080811 -86.553841 -0.000005 0.545296
-78.025848 -84.767990 0.200001 0.724987
nan nan nan 0.000000
nan nan nan 0.000000
nan nan nan 0.000000
nan nan nan 0.000000
nan nan nan 0.000000
nan nan nan 0.000000
nan nan nan 0.000000
nan nan nan 0.000000
nan nan nan 0.000000
-93.226089 -109.996147 0.200029 0.706615
-85.668121 -97.403564 0.199984 0.697749
-83.317650 -93.487366 -0.000011 0.540185
-81.309471 -90.141472 -0.000008 0.536095
-80.027428 -88.005409 -0.000007 0.497169
-79.136360 -86.520767 -0.000006 0.548699
-78.068954 -84.742325 0.200000 0.730526
nan nan nan 0.000000
nan nan nan 0.000000
nan nan nan 0.000000
nan nan nan 0.000000
nan nan nan 0.000000
nan nan nan 0.000000
nan nan nan 0.000000
nan nan nan 0.000000
nan nan nan 0.000000
-93.444946 -109.863747 0.200028 0.705348
-85.799255 -97.324249 0.199983 0.696452
-83.421501 -93.424545 -0.000011 0.550637
-81.390015 -90.092743 -0.000008 0.553765
-80.093086 -87.965691 -0.000007 0.528084
-79.191673 -86.487305 -0.000006 0.554604
-78.111877 -84.716362 0.199999 0.730098
nan nan nan 0.000000
nan nan nan 0.000000
nan nan nan 0.000000
nan nan nan 0.000000
nan nan nan 0.000000
nan nan nan 0.000000
nan nan nan 0.000000
nan nan nan 0.000000
nan nan nan 0.000000
-93.662949 -109.729942 0.200022 0.705242
-85.929848 -97.244026 0.199981 0.699458
-83.524910 -93.360992 -0.000011 0.540047
-81.470207 -90.043465 -0.000008 0.565789
-80.158463 -87.925507 -0.000006 0.538155
-79.246750 -86.453453 -0.000005 0.500648
-78.154625 -84.690102 0.199998 0.668360
nan nan nan 0.000000
nan nan nan 0.000000
nan nan nan 0.000000
nan nan nan 0.000000
nan nan nan 0.000000
nan nan nan 0.000000
nan nan nan 0.000000
nan nan nan 0.000000
nan nan nan 0.000000
-96.048126 -113.041283 -0.000023 0.543847
-86.059868 -97.162888 0.199980 0.704692
-83.639778 -93.315659 -0.002584 0.694850
-81.550056 -89.993622 -0.000008 0.550896
-80.223557 -87.884880 -0.000007 0.518288
-79.301590 -86.419220 -0.000006 0.592721
-78.197182 -84.663544 0.199997 0.723598
nan nan nan 0.000000
nan nan nan 0.000000
nan nan nan 0.000000
nan nan nan 0.000000
-98.690819 -116.650085 7.196888 0.633478
-98.772171 -116.777428 5.716473 0.825528
-98.796722 -116.815865 4.228936 0.839216
-98.796715 -116.815857 2.742449 0.823209
-98.796715 -116.815857 1.257552 0.823240
-96.288177 -112.889107 -0.000023 0.539315
-86.189316 -97.080841 0.199979 0.705867
-83.598602 -93.025467 0.028148 0.774227
-81.629562 -89.943230 -0.000008 0.557214
-80.288368 -87.843788 -0.000006 0.524071
-79.356194 -86.384613 -0.000006 0.533547
-78.239555 -84.636681 0.199996 0.747524
nan nan nan 0.000000
nan nan nan 0.000000
nan nan nan 0.000000
nan nan nan 0.000000
-98.772156 -116.195984 7.158028 0.812329
-98.772148 -116.195984 5.676385 0.823575
-98.883041 -116.366920 4.212687 0.820493
-99.015457 -116.571045 2.741017 0.678431
-99.015457 -116.571045 1.258983 0.678431
-96.527145 -112.735260 -0.000023 0.540749
-86.318176 -96.997894 0.199978 0.720775
-83.558632 -92.743980 0.057866 0.673976
-81.708702 -89.892273 -0.000008 0.549355
-80.352890 -87.802261 -0.000007 0.532128
-79.410553 -86.349617 -0.000005 0.523751
-78.281738 -84.609528 0.199996 0.654307
nan nan nan 0.000000
nan nan nan 0.000000
nan nan nan 0.000000
nan nan nan 0.000000
-98.772141 -115.626923 7.103230 0.826352
-98.772141 -115.626923 5.637329 0.827451
-98.883034 -115.795273 4.189180 0.822370
-99.015450 -115.996315 2.733144 0.678431
-99.015450 -115.996307 1.266855 0.678431
-96.765045 -112.579742 -0.000023 0.544717
-86.446465 -96.914040 0.199978 0.710567
-83.507713 -92.452415 0.089146 0.694682
-81.787491 -89.840775 -0.000008 0.520546
-80.417122 -87.760269 -0.000006 0.534508
-79.464661 -86.314240 -0.000005 0.527474
-78.323730 -84.582077 0.199996 0.692103
nan nan nan 0.000000
nan nan nan 0.000000
nan nan nan 0.000000
-98.710434 -114.977531 8.494892 0.661677
-98.772133 -115.069794 7.049828 0.839216
-98.772125 -115.069794 5.599266 0.824170
-98.864716 -115.208244 4.164654 0.734096
-98.864716 -115.208244 2.721036 0.773159
-98.864716 -115.208244 1.278964 0.733516
-97.001854 -112.422577 -0.000023 0.539071
-86.574173 -96.829308 0.199976 0.714015
-83.456909 -92.167831 0.119656 0.696483
-81.865921 -89.788719 -0.000009 0.542779
-80.481056 -87.717834 -0.000007 0.511131
-79.518524 -86.278496 -0.000005 0.528328
-78.365532 -84.554337 0.199996 0.691875
nan nan nan 0.000000
nan nan nan 0.000000
-98.772141 -114.524208 9.904819 0.837751
-98.772156 -114.524231 8.444242 0.835889
-98.912277 -114.730621 7.026479 0.821408
-98.912277 -114.730629 5.582623 0.825238
-98.883064 -114.687607 4.143945 0.740337
-99.015465 -114.882629 2.717996 0.266667
-99.015465 -114.882629 1.282005 0.264851
-97.237549 -112.263748 -0.000023 0.543526
-86.701271 -96.743668 0.199976 0.709636
-83.394989 -91.873466 0.151721 0.706920
-81.943985 -89.736122 -0.000008 0.542489
-80.544693 -87.674957 -0.000006 0.534600
-79.052017 -85.476219 0.199996 0.694438
-78.407135 -84.526299 0.199997 0.681300
nan nan nan 0.000000
nan nan nan 0.000000
-43.873398 -34.325684 11.779399 0.896056
-44.642544 -35.441799 9.771387 1.000000
-45.366966 -36.493011 7.880167 0.891264
-45.914078 -37.286930 6.112034 0.647059
-45.012550 -35.978722 4.541743 0.627359
-45.012558 -35.978729 2.846643 0.631998
-45.012558 -35.978725 1.153358 0.684688
-51.269646 -45.058449 -0.000026 0.546166
-60.530048 -58.496292 -0.000016 0.542840
-64.505852 -64.265617 -0.000012 0.522850
-66.720154 -67.478813 -0.000010 0.532250
-68.133797 -69.530159 -0.000008 0.547555
-69.116333 -70.955925 -0.000007 0.550362
-69.840218 -72.006363 -0.000007 0.548592
nan nan nan 0.000000
nan nan nan 0.000000
-43.394424 -34.295551 11.833609 0.951949
-44.179878 -35.418472 9.813372 0.900893
-44.919445 -36.475784 7.911158 0.925750
-45.618484 -37.475159 6.113178 0.949020
-44.924164 -36.482533 4.523889 0.640330
-45.012543 -36.608879 2.838172 0.636362
-45.012543 -36.608879 1.161828 0.654856
-51.036182 -45.220539 -0.000026 0.537469
-60.390171 -58.593414 -0.000016 0.554879
-64.406151 -64.334839 -0.000012 0.544961
-66.642838 -67.532501 -0.000010 0.539971
-68.070763 -69.573929 -0.000008 0.519783
-69.063225 -70.992798 -0.000007 0.517021
-69.794434 -72.038155 -0.000006 0.512093
nan nan nan 0.000000
nan nan nan 0.000000
-42.909874 -34.264774 11.888972 0.965255
-43.711990 -35.394638 9.856239 0.941115
-44.467033 -36.458199 7.942792 0.915633
-45.180523 -37.463219 6.134665 0.869505
-44.484314 -36.482540 4.536335 0.573266
-45.012543 -37.226604 2.829909 0.606867
-45.012527 -37.226585 1.170090 0.658747
-50.803848 -45.384254 -0.000026 0.540978
-60.250969 -58.691498 -0.000016 0.545464
-64.306946 -64.404755 -0.000012 0.521279
-66.565895 -67.586716 -0.000009 0.528649
-68.008041 -69.618134 -0.000008 0.545983
-69.010384 -71.030037 -0.000007 0.505821
-69.748863 -72.070259 -0.000006 0.530648
nan nan nan 0.000000
nan nan nan 0.000000
-42.419594 -34.233341 11.945518 0.588785
-43.238739 -35.370308 9.900013 0.945312
-44.009613 -36.440250 7.975083 0.910018
-44.737854 -37.451031 6.156591 0.936736
-44.040085 -36.482544 4.549030 0.584360
-45.012535 -37.832275 2.821847 0.572656
-45.012539 -37.832287 1.178153 0.609247
-50.572670 -45.549591 -0.000026 0.539864
-60.112461 -58.790558 -0.000016 0.529519
-64.208221 -64.475357 -0.000012 0.535317
-66.489334 -67.641479 -0.000010 0.529305
-67.945625 -69.662766 -0.000008 0.544854
-68.957802 -71.067642 -0.000007 0.559518
-69.703522 -72.102692 -0.000006 0.562829
nan nan nan 0.000000
nan nan nan 0.000000
-41.923428 -34.201256 12.003276 0.838911
-42.759998 -35.345459 9.944709 0.920531
-45.909271 -39.652843 7.547610 0.653483
-44.290356 -37.438583 6.178971 0.968475
-43.591351 -36.482533 4.561980 0.642481
-45.012535 -38.426338 2.813981 0.637324
-45.028927 -38.448765 1.186474 0.392294
-50.342651 -45.716537 -0.000027 0.536614
-59.974648 -58.890587 -0.000016 0.549142
-64.109993 -64.546646 -0.000012 0.533593
-66.413155 -67.696770 -0.000010 0.545876
-67.883522 -69.707848 -0.000008 0.523613
-68.905479 -71.105614 -0.000007 0.537530
-69.658409 -72.135429 -0.000006 0.558328
nan nan nan 0.000000
nan nan nan 0.000000
-41.421204 -34.168461 12.062271 0.933898
-45.910454 -40.219456 9.085429 0.647059
-45.548538 -39.731640 7.564921 0.664836
-43.837910 -37.425907 6.201808 0.847074
-43.138027 -36.482540 4.575186 0.635493
-45.012531 -39.009155 2.806301 0.542840
-45.028908 -39.031235 1.194149 0.469886
-50.113804 -45.885086 -0.000026 0.535653
-59.837532 -58.991566 -0.000016 0.545434
-64.012260 -64.618622 -0.000013 0.564431
-66.337364 -67.752586 -0.000009 0.520562
-67.821732 -69.753349 -0.000008 0.540673
-68.853424 -71.143951 -0.000007 0.560418
-69.613533 -72.168488 -0.000007 0.509102
nan nan nan 0.000000
nan nan nan 0.000000
-40.912754 -34.134956 12.122539 0.940337
-45.734364 -40.540005 9.062977 0.654902
-45.136703 -39.746067 7.591954 0.678935
-45.012589 -39.581200 6.002587 0.611765
-45.012558 -39.581150 4.398121 0.524636
-45.012535 -39.581120 2.798803 0.622293
-45.012535 -39.581120 1.201196 0.599557
-49.886127 -46.055222 -0.000027 0.539406
-59.701130 -59.093502 -0.000016 0.547539
-63.915043 -64.691277 -0.000012 0.519738
-66.261963 -67.808937 -0.000010 0.558404
-67.760269 -69.799286 -0.000008 0.546914
-68.801636 -71.182655 -0.000007 0.567102
-69.568878 -72.201859 -0.000006 0.497551
nan nan nan 0.000000
nan nan nan 0.000000
-45.911804 -41.319958 10.531201 0.630533
-45.330009 -40.558235 9.097063 0.654902
-45.012596 -40.142651 7.564227 0.536049
-45.012592 -40.142643 5.965906 0.650736
-45.012550 -40.142590 4.376143 0.613977
-45.012543 -40.142574 2.791482 0.669429
-45.012539 -40.142570 1.208517 0.627787
-49.659653 -46.226944 -0.000027 0.535653
-59.565441 -59.196396 -0.000016 0.552209
-63.818329 -64.764610 -0.000012 0.546471
-66.186958 -67.865807 -0.000010 0.527779
-67.699120 -69.845650 -0.000008 0.552041
-68.750130 -71.221710 -0.000007 0.518929
-69.524460 -72.235535 -0.000007 0.553872
nan nan nan 0.000000
-45.912888 -41.855755 12.034549 0.611765
-45.523178 -41.352833 10.569577 0.643519
-45.012589 -40.693913 9.109821 0.589761
-45.012581 -40.693913 7.513964 0.599985
-45.012585 -40.693909 5.930079 0.549340
-45.012543 -40.693855 4.354679 0.606180
-45.012543 -40.693855 2.784333 0.643015
-45.012543 -40.693855 1.215668 0.600458
-49.434372 -46.400238 -0.000027 0.536080
-59.430473 -59.300224 -0.000016 0.557595
-63.722130 -64.838623 -0.000012 0.542809
-66.112350 -67.923203 -0.000010 0.525521
-67.638298 -69.892441 -0.000009 0.562478
-68.698891 -71.261131 -0.000007 0.509316
-69.480278 -72.269524 -0.000007 0.517235
nan nan nan 0.000000
-45.717468 -42.132000 12.013483 0.623529
-45.122597 -41.375278 10.611203 0.634104
-45.012573 -41.235329 9.046513 0.596155
-45.012566 -41.235317 7.464866 0.575326
-45.031307 -41.259159 5.892597 0.678431
-45.086494 -41.329357 4.327832 0.453254
-45.012550 -41.235302 2.777347 0.648524
-45.012550 -41.235298 1.222652 0.627420
-49.210323 -46.575119 -0.000027 0.538903
-59.296227 -59.404995 -0.000017 0.536721
-63.626450 -64.913292 -0.000013 0.542382
-66.038147 -67.981117 -0.000010 0.544793
-67.577805 -69.939651 -0.000008 0.555688
-68.647926 -71.300911 -0.000007 0.592096
-69.929810 -72.931541 0.199998 0.749599
-45.914074 -42.897655 13.432433 0.611765
-45.324245 -42.158043 12.061793 0.635203
-45.012569 -41.767220 10.567720 0.598474
-45.012558 -41.767204 8.984659 0.588266
-45.012547 -41.767193 7.416895 0.694911
-45.031334 -41.790756 5.858422 0.678431
-45.086479 -41.859898 4.307399 0.494118
-45.012554 -41.767197 2.770523 0.645396
-45.012558 -41.767208 1.229476 0.612055
-48.987503 -46.751556 -0.000027 0.541039
-59.162724 -59.510700 -0.000017 0.536309
-63.531296 -64.988632 -0.000012 0.525063
-65.964348 -68.039551 -0.000010 0.546670
-67.517639 -69.987289 -0.000008 0.528176
-68.597237 -71.341042 -0.000007 0.538048
-69.890472 -72.962685 0.199998 0.753216
-45.896835 -43.382969 13.340360 0.814801
-45.012566 -42.289883 12.081751 0.610254
-45.012550 -42.289871 10.493578 0.653346
-44.994865 -42.268005 8.928384 0.678431
-45.012547 -42.289864 7.370017 0.605417
-45.031303 -42.313042 5.825036 0.678431
-45.086487 -42.381260 4.287429 0.573709
-45.012558 -42.289871 2.763855 0.680461
-45.012566 -42.289883 1.236145 0.597116
-48.765907 -46.929539 -0.000027 0.538384
-59.029961 -59.617336 -0.000017 0.535912
-63.436668 -65.064644 -0.000012 0.538964
-65.890961 -68.098495 -0.000010 0.533288
-67.457817 -70.035347 -0.000008 0.525048
-68.546837 -71.381523 -0.000007 0.593118
-69.851364 -72.994102 0.199998 0.646723
-45.451988 -43.339108 13.419262 0.907500
-45.012558 -42.803600 11.995732 0.678203
-45.012562 -42.803596 10.421109 0.691920
-44.994873 -42.782043 8.869269 0.678431
-45.012566 -42.803600 7.324196 0.591150
-45.012573 -42.803612 5.794821 0.607492
-45.012543 -42.803577 4.273640 0.644862
-45.012566 -42.803604 2.757338 0.616709
-44.985794 -42.770981 1.241972 0.373175
-48.545570 -47.109066 -0.000027 0.536522
-58.897942 -59.724899 -0.000017 0.554726
-63.342575 -65.141312 -0.000012 0.555718
-65.817986 -68.157951 -0.000010 0.524971
-67.398323 -70.083817 -0.000009 0.582620
-68.496719 -71.422363 -0.000008 0.540002
-69.812469 -73.025787 0.199998 0.730373
-45.000584 -43.294262 13.499954 0.762539
-45.869156 -44.337799 11.622455 0.774563
-45.012573 -43.308662 10.350269 0.594644
-44.994884 -43.287415 8.811481 0.678431
-45.012577 -43.308674 7.279408 0.631296
-45.031349 -43.331223 5.760493 0.683085
-45.012527 -43.308609 4.254515 0.584009
-45.012566 -43.308655 2.750968 0.568124
-44.981892 -43.271805 1.248248 0.678431
-48.326469 -47.290108 -0.000029 0.536233
-58.766682 -59.833378 -0.000017 0.538491
-63.249016 -65.218628 -0.000013 0.516182
-65.745430 -68.217911 -0.000010 0.550332
-67.339172 -70.132698 -0.000009 0.539269
-68.446884 -71.463539 -0.000008 0.497581
-69.773796 -73.057747 0.199998 0.748516
nan nan nan 0.000000
-45.430668 -44.300560 11.689459 0.899001
-45.914066 -44.873154 10.026731 0.648463
-45.050049 -43.849709 8.742307 0.777966
-45.012581 -43.805328 7.235620 0.672648
-45.031326 -43.827530 5.729307 0.678431
-45.012531 -43.805271 4.235816 0.559503
-45.012566 -43.805309 2.744738 0.594232
-45.012959 -43.805771 1.255271 0.601450
-48.108658 -47.472694 -0.000028 0.542397
-58.636177 -59.942768 -0.000018 0.547707
-63.156002 -65.296593 -0.000013 0.538781
-65.673294 -68.278381 -0.000010 0.538384
-67.280365 -70.181992 -0.000008 0.543633
-68.397339 -71.505074 -0.000007 0.551797
-69.735352 -73.089973 0.199998 0.660548
nan nan nan 0.000000
-44.985748 -44.262493 11.757967 0.855711
-45.829674 -45.248100 9.984699 0.954040
-45.012585 -44.293835 8.695715 0.591821
-45.012596 -44.293846 7.192803 0.576150
-45.031303 -44.315697 5.698813 0.678431
-45.012527 -44.293762 4.217533 0.645151
-45.012573 -44.293819 2.738648 0.599725
-45.012939 -44.294247 1.261361 0.678431
-47.892124 -47.656792 -0.000028 0.544427
-58.506447 -60.053070 -0.000017 0.533120
-63.063534 -65.375214 -0.000013 0.540917
-65.601585 -68.339355 -0.000010 0.528038
-67.221909 -70.231697 -0.000009 0.528618
-68.348091 -71.546951 -0.000007 0.547417
-69.697128 -73.122467 0.199998 0.718669
nan nan nan 0.000000
-44.534180 -44.223553 11.828027 0.911528
-45.397049 -45.217163 10.040371 0.606592
-45.914078 -45.812515 8.437780 0.647059
-45.012577 -44.774429 7.150935 0.647334
-45.031326 -44.796021 5.668985 0.678431
-45.012535 -44.774380 4.199651 0.622843
-45.012577 -44.774429 2.732693 0.600305
-45.051716 -44.819504 1.268284 0.161868
-47.676884 -47.842415 -0.000028 0.538811
-58.377483 -60.164276 -0.000017 0.544701
-62.971619 -65.454475 -0.000013 0.528008
-65.530296 -68.400818 -0.000010 0.555795
-67.163788 -70.281815 -0.000009 0.571252
-68.299133 -71.589165 -0.000008 0.537179
-69.659142 -73.155235 0.199998 0.754101
nan nan nan 0.000000
-44.075790 -44.183735 11.899676 0.893629
-44.958115 -45.185532 10.097281 0.862303
-45.780914 -46.119740 8.416479 0.756542
-45.012562 -45.247349 7.109983 0.520684
-45.012589 -45.247383 5.642138 0.616449
-45.012527 -45.247314 4.182163 0.590799
-45.012581 -45.247368 2.726866 0.610666
-45.012581 -45.247372 1.273133 0.625162
-47.462936 -48.029510 -0.000028 0.544076
-58.249302 -60.276375 -0.000018 0.539528
-62.880249 -65.534370 -0.000013 0.531731
-65.459442 -68.462791 -0.000010 0.535393
-67.106026 -70.332329 -0.000009 0.524620
-68.250465 -71.631729 -0.000008 0.518929
-69.621376 -73.188263 0.199998 0.664561
nan nan nan 0.000000
-43.610336 -44.142998 11.972965 0.920501
-44.512665 -45.153191 10.155468 0.921157
-45.353767 -46.094845 8.461287 0.465553
-45.914082 -46.722145 6.914236 0.663478
-45.012592 -45.712887 5.613583 0.579065
-45.012566 -45.712860 4.165051 0.613794
-45.012581 -45.712875 2.721169 0.626581
-45.012581 -45.712875 1.278832 0.609903
-47.250301 -48.218102 -0.000029 0.541222
-58.121906 -60.389374 -0.000018 0.541115
-62.789455 -65.614914 -0.000013 0.532235
-65.389023 -68.525253 -0.000010 0.559686
-67.048622 -70.383247 -0.000009 0.533516
-68.202103 -71.674622 -0.000007 0.531151
-69.583847 -73.221550 0.199998 0.745312
nan nan nan 0.000000
-43.137627 -44.101326 12.047934 0.875654
-44.060516 -45.120129 10.214961 0.901610
-44.920399 -46.069389 8.507085 0.935393
-45.725212 -46.957851 6.908606 0.843168
-45.012581 -46.171158 5.585647 0.616648
-45.012589 -46.171162 4.148311 0.694148
-45.012589 -46.171158 2.715593 0.659022
-45.012589 -46.171158 1.284408 0.632609
-47.039001 -48.408188 -0.000028 0.540917
-57.995300 -60.503258 -0.000018 0.542428
-62.699219 -65.696083 -0.000013 0.527337
-65.319038 -68.588203 -0.000010 0.555871
-66.991570 -70.434570 -0.000009 0.503899
-68.154037 -71.717857 -0.000007 0.505592
-69.546547 -73.255096 0.199998 0.743404
nan nan nan 0.000000
-42.657433 -44.058689 12.124636 0.929259
-43.601452 -45.086311 10.275800 0.883894
-44.480644 -46.043373 8.553898 0.923659
-45.303185 -46.938766 6.942947 0.921508
-44.814957 -46.407299 5.582262 0.653040
-44.814964 -46.407303 4.146284 0.581811
-45.012581 -46.622421 2.710136 0.551751
-45.012581 -46.622421 1.289863 0.632822
-46.829006 -48.599720 -0.000029 0.538552
-57.869492 -60.618015 -0.000018 0.537530
-62.609550 -65.777878 -0.000013 0.555703
-65.249496 -68.651642 -0.000010 0.555306
-66.934875 -70.486282 -0.000009 0.562921
-68.106277 -71.761429 -0.000008 0.510201
-69.509483 -73.288910 0.199998 0.663005
nan nan nan 0.000000
-42.169514 -44.015068 12.203114 0.882811
-43.135277 -45.051739 10.338021 0.780209
-44.034302 -46.016777 8.601755 0.927871
-44.875057 -46.919266 6.978042 0.924300
-44.398117 -46.407303 5.605473 0.632670
-44.398117 -46.407303 4.160190 0.634577
-45.012585 -47.066895 2.704798 0.524956
-45.012581 -47.066891 1.295202 0.644205
-46.620361 -48.792725 -0.000029 0.538338
-57.744488 -60.733650 -0.000018 0.544701
-62.520454 -65.860298 -0.000013 0.555154
-65.180397 -68.715561 -0.000010 0.528923
-66.878548 -70.538391 -0.000009 0.549218
-68.058823 -71.805328 -0.000008 0.514717
-69.472656 -73.322983 0.199999 0.730907
nan nan nan 0.000000
-41.673653 -43.970436 12.283418 0.615702
-42.661770 -45.016369 10.401662 0.852995
-43.581192 -45.989590 8.650683 0.907027
-44.440643 -46.899326 7.013907 0.850324
-43.975815 -46.407307 5.629164 0.635142
-43.975815 -46.407303 4.174384 0.621530
-45.012581 -47.504730 2.699572 0.583017
-45.012581 -47.504730 1.300428 0.648890
-46.413078 -48.987179 -0.000030 0.539605
-57.620296 -60.850159 -0.000018 0.546426
-62.431938 -65.943344 -0.000013 0.543053
-65.111755 -68.779961 -0.000010 0.539498
-66.822578 -70.590897 -0.000009 0.536980
-68.011673 -71.849564 -0.000008 0.525475
-69.436073 -73.357300 0.199999 0.751369
nan nan nan 0.000000
-41.169567 -43.924755 12.365608 0.919249
-42.180679 -44.980175 10.466772 0.888472
-43.121078 -45.961781 8.700715 0.863203
-43.999756 -46.878956 7.050565 0.924407
-43.547905 -46.407303 5.653348 0.663172
-43.547905 -46.407303 4.188875 0.634424
-45.012573 -47.936153 2.694458 0.655879
-45.012589 -47.936165 1.305543 0.642496
-46.207161 -49.183083 -0.000030 0.539300
-57.496925 -60.967537 -0.000018 0.546197
-62.344002 -66.027000 -0.000013 0.544030
-65.043556 -68.844841 -0.000011 0.552621
-66.766983 -70.643784 -0.000009 0.513680
-67.964828 -71.894119 -0.000008 0.535149
-69.399727 -73.391884 0.200000 0.675929
nan nan nan 0.000000
-40.656982 -43.877972 12.449745 0.921523
-41.691807 -44.943153 10.533381 0.891234
-42.653778 -45.933342 8.751879 0.895415
-43.552212 -46.858131 7.088036 0.883864
-43.114235 -46.407314 5.678035 0.645029
-43.114235 -46.407310 4.203666 0.576822
-45.012562 -48.361324 2.689450 0.603052
-45.028904 -48.378147 1.310934 0.448585
-46.002609 -49.380417 -0.000030 0.544762
-57.374367 -61.085762 -0.000018 0.546700
-62.256649 -66.111259 -0.000014 0.545754
-64.975815 -68.910194 -0.000010 0.544915
-66.711761 -70.697060 -0.000009 0.528389
-67.918304 -71.939003 -0.000008 0.553841
-69.363617 -73.426712 0.200000 0.700664
nan nan nan 0.000000
-40.135674 -43.830109 12.535871 0.614298
-41.194881 -44.905266 10.601540 0.852842
-45.909645 -49.691032 8.015693 0.626108
-43.097809 -46.836845 7.126343 0.768566
-42.674644 -46.407314 5.703241 0.606897
-42.674644 -46.407310 4.218768 0.608896
-45.012558 -48.780434 2.684547 0.581064
-45.028931 -48.797058 1.315834 0.493355
-45.799446 -49.579178 -0.000030 0.538918
-57.252647 -61.204849 -0.000018 0.537224
-62.169891 -66.196136 -0.000014 0.547326
-64.908524 -68.976013 -0.000011 0.529931
-66.656906 -70.750725 -0.000009 0.530816
-67.872093 -71.984215 -0.000008 0.523568
-69.327759 -73.461800 0.200000 0.755001
nan nan nan 0.000000
-39.605320 -43.781094 12.624060 0.814328
-40.689659 -44.866501 10.671291 0.590066
-45.717033 -49.898819 8.013935 0.638224
-42.636314 -46.815071 7.165512 0.868055
-42.228958 -46.407314 5.728980 0.637461
-42.228954 -46.407314 4.234189 0.598154
-45.012550 -49.193649 2.679748 0.568963
-45.035404 -49.216522 1.320781 0.350484
-45.597679 -49.779350 -0.000030 0.535119
-57.131752 -61.324776 -0.000018 0.543755
-62.083729 -66.281624 -0.000013 0.539239
-64.841705 -69.042313 -0.000010 0.560708
-66.602432 -70.804771 -0.000009 0.548913
-67.826202 -72.029747 -0.000008 0.537896
-69.292145 -73.497131 0.200000 0.662028
nan nan nan 0.000000
-39.065624 -43.730892 12.714373 0.925917
-45.910759 -50.487755 9.276439 0.663600
-45.334805 -49.919228 8.052013 0.638605
-45.012604 -49.601177 6.745671 0.641306
-45.012573 -49.601147 5.382481 0.636332
-45.012547 -49.601120 4.026588 0.639963
-45.012539 -49.601116 2.675048 0.579355
-45.012562 -49.601135 1.324953 0.682643
-45.397301 -49.980911 -0.000030 0.541039
-57.011711 -61.445549 -0.000018 0.534203
-61.998161 -66.367699 -0.000013 0.539696
-64.775345 -69.109070 -0.000010 0.534401
-66.548332 -70.859192 -0.000009 0.515969
-67.780624 -72.075592 -0.000008 0.552666
-69.256783 -73.532715 0.200001 0.735393
nan nan nan 0.000000
-45.911667 -50.878242 10.577849 0.735805
-45.618813 -50.593182 9.300946 0.658030
-45.012604 -50.003090 8.077436 0.599283
-45.012596 -50.003078 6.713306 0.607874
-45.012554 -50.003036 5.359414 0.646220
-45.012547 -50.003029 4.012768 0.642649
-45.012535 -50.003017 2.670443 0.592554
-45.012558 -50.003044 1.329557 0.658930
-45.198341 -50.183887 -0.000030 0.536461
-56.892502 -61.567154 -0.000018 0.535958
-61.913200 -66.454376 -0.000014 0.537774
-64.709450 -69.176285 -0.000011 0.527581
-66.494614 -70.913994 -0.000010 0.523613
-67.735374 -72.121765 -0.000008 0.520745
-69.221664 -73.568542 0.200001 0.702541
nan nan nan 0.000000
-45.901428 -51.252754 10.523221 0.623575
-45.240276 -50.618111 9.347317 0.657908
-45.012589 -50.399551 8.036563 0.660441
-45.012581 -50.399544 6.681608 0.634974
-45.012550 -50.399513 5.336822 0.612024
-45.012554 -50.399513 3.999229 0.582574
-45.012539 -50.399502 2.665934 0.641993
-45.012562 -50.399529 1.334066 0.550607
-45.012547 -50.399506 0.000769 0.646235
-56.774147 -61.689587 -0.000019 0.552590
-61.828846 -66.541641 -0.000013 0.532860
-64.644028 -69.243965 -0.000011 0.557839
-66.441284 -70.969162 -0.000009 0.551171
-68.358513 -72.809532 0.200000 0.699046
-69.186798 -73.604614 0.200001 0.676448
-45.912746 -51.642822 11.815534 0.637751
-45.531090 -51.281555 10.576825 0.636942
-45.012596 -50.790756 9.355629 0.661540
-45.012589 -50.790749 7.996525 0.613703
-45.012566 -50.790726 6.650558 0.629557
-45.012554 -50.790710 5.314688 0.663432
-45.012558 -50.790718 3.985969 0.621393
-45.012543 -50.790703 2.661518 0.649287
-45.012550 -50.790710 1.338483 0.589837
-45.012554 -50.790710 0.014030 0.622705
-56.656662 -61.812851 -0.000019 0.548592
-61.745102 -66.629494 -0.000013 0.542214
-64.579086 -69.312103 -0.000011 0.541802
-66.388336 -71.024712 -0.000009 0.531624
-68.318367 -72.851646 0.200001 0.734356
-69.152184 -73.640923 0.200001 0.778836
-45.821804 -51.932163 11.782492 0.611765
-45.156364 -51.311020 10.631437 0.648035
-45.012596 -51.176815 9.307517 0.604288
-45.012581 -51.176804 7.957304 0.582788
-45.012562 -51.176788 6.620141 0.651316
-45.031315 -51.194290 5.290902 0.678431
-45.012566 -51.176788 3.972978 0.603128
-45.012543 -51.176769 2.657191 0.634989
-45.012543 -51.176773 1.342809 0.610483
-45.012550 -51.176773 0.027020 0.653910
-56.540024 -61.936920 -0.000019 0.548943
-61.661972 -66.717926 -0.000013 0.557656
-64.514618 -69.380684 -0.000011 0.530907
-66.335777 -71.080627 -0.000009 0.559014
-68.278519 -72.894043 0.200001 0.678538
-69.117821 -73.677483 0.200001 0.725353
-45.455322 -51.965393 11.844158 0.623529
-45.012589 -51.557880 10.617967 0.615961
-45.012589 -51.557877 9.260383 0.644587
-45.012566 -51.557861 7.918880 0.683543
-45.012558 -51.557846 6.590339 0.597513
-45.031334 -51.575134 5.269671 0.678431
-45.012562 -51.557854 3.960252 0.602213
-45.012539 -51.557831 2.652952 0.649989
-45.012543 -51.557835 1.347049 0.580453
-45.012550 -51.557838 0.039746 0.651667
-56.424259 -62.061806 -0.000019 0.549508
-61.579464 -66.806946 -0.000014 0.543481
-64.450623 -69.449715 -0.000011 0.553933
-66.283615 -71.136902 -0.000009 0.554116
-68.238968 -72.936714 0.200001 0.748516
-69.083717 -73.714272 0.200001 0.698741
-45.084446 -51.999298 11.907001 0.653071
-45.012589 -51.934074 10.563151 0.626932
-45.012573 -51.934059 9.214203 0.687587
-45.012558 -51.934052 7.881232 0.623529
-45.012558 -51.934052 6.561141 0.628351
-45.031303 -51.951065 5.248879 0.678431
-45.012527 -51.934025 3.947785 0.662593
-45.012543 -51.934032 2.648798 0.694728
-45.012543 -51.934032 1.351202 0.590646
-45.012550 -51.934040 0.052215 0.637263
-56.309376 -62.187508 -0.000019 0.525277
-61.497574 -66.896530 -0.000014 0.530434
-64.387123 -69.519196 -0.000011 0.549630
-66.231842 -71.193542 -0.000009 0.545052
-68.199715 -72.979660 0.200001 0.665202
-69.049873 -73.751305 0.200002 0.739223
-45.012589 -52.305538 11.869014 0.573816
-45.012581 -52.305534 10.509440 0.653132
-44.994888 -52.289696 9.173271 0.678431
-44.994884 -52.289696 7.847862 0.678431
-45.012566 -52.305515 6.532531 0.646525
-45.031322 -52.322304 5.228498 0.678431
-45.012527 -52.305481 3.935567 0.626535
-45.012550 -52.305500 2.644728 0.630488
-45.012550 -52.305500 1.355272 0.624308
-45.012543 -52.305496 0.064432 0.628885
-56.195374 -62.313999 -0.000018 0.530785
-61.416321 -66.986687 -0.000014 0.537987
-64.324104 -69.589119 -0.000011 0.514977
-66.180466 -71.250542 -0.000009 0.543816
-68.160759 -73.022888 0.200002 0.748241
-69.016289 -73.788574 0.200002 0.666590
-45.012589 -52.672382 11.807972 0.629496
-45.012577 -52.672371 10.456809 0.619593
-44.994884 -52.656757 9.128904 0.678431
-44.994884 -52.656757 7.811691 0.678431
-45.012566 -52.672363 6.504496 0.653956
-45.058060 -52.712509 5.205605 0.769085
-45.012527 -52.672329 3.923596 0.630503
-45.012547 -52.672348 2.640740 0.661677
