# This PCD file was generated using the MATLABÂ® pcwrite function
# from Computer Vision ToolboxÂ®.
# .PCD v.7 - Point Cloud Data file format
VERSION .7
FIELDS x y z intensity
SIZE 4 4 4 4
TYPE F F F F
COUNT 1 1 1 1
WIDTH 1209
HEIGHT 1
VIEWPOINT 0 0 0 1 0 0 0
POINTS 1209
DATA ascii
97.566208 -59.783218 6.482522 0.968627
97.701370 -59.656067 5.681810 0.968627
97.391174 -59.947872 4.806403 0.965179
97.853928 -59.512558 4.052359 0.968627
97.973534 -59.400043 3.237722 0.968627
98.094330 -59.286411 2.414994 0.968627
98.216599 -59.171394 1.582260 0.968627
98.340630 -59.054718 0.737518 0.968627
97.389084 -59.949837 -0.000031 0.540002
92.285622 -64.750664 -0.000022 0.538308
89.443275 -67.424461 -0.000017 0.527581
87.628693 -69.131439 -0.000014 0.542611
85.692963 -70.952377 0.200000 0.694240
84.856697 -71.739059 0.200000 0.688624
97.303154 -60.261818 8.040802 0.968627
97.436981 -60.137680 7.248032 0.968627
97.570923 -60.013428 6.454555 0.968627
97.705276 -59.888794 5.658668 0.968627
97.391205 -60.180141 4.788165 0.980392
97.855850 -59.749123 4.039232 0.968627
97.974701 -59.638870 3.229754 0.968627
98.094727 -59.527534 2.412304 0.968627
98.216202 -59.414848 1.584984 0.968627
98.339409 -59.300560 0.745807 0.968627
97.534760 -60.046974 -0.003322 0.969314
92.368477 -64.839355 -0.000023 0.535134
89.507530 -67.493240 -0.000017 0.571298
87.681076 -69.187515 -0.000015 0.532540
85.732681 -70.994896 0.200001 0.700633
84.890938 -71.775719 0.200000 0.686717
97.309334 -60.484337 8.004178 0.968627
97.442390 -60.362625 7.215976 0.968627
97.575554 -60.240822 6.427142 0.968627
97.709106 -60.118652 5.635984 0.968627
97.391235 -60.409424 4.770298 0.960906
97.857742 -59.982700 4.026370 0.968627
97.975853 -59.874664 3.221947 0.968627
98.095108 -59.765572 2.409669 0.968627
98.215805 -59.655167 1.587654 0.968627
98.338219 -59.543198 0.753926 0.968627
97.534744 -60.278152 0.009522 0.977264
92.450706 -64.928627 -0.000022 0.544076
89.571304 -67.562477 -0.000017 0.538369
87.733063 -69.243958 -0.000014 0.555138
85.772095 -71.037689 0.200001 0.686015
84.924927 -71.812614 0.200000 0.676188
97.315399 -60.704227 7.968267 0.968627
97.447693 -60.584892 7.184547 0.968627
97.580093 -60.465477 6.400269 0.968627
97.712860 -60.345718 5.613750 0.968627
97.391266 -60.635796 4.752790 0.979568
97.859589 -60.213375 4.013766 0.968627
97.976974 -60.107498 3.214297 0.968627
98.095490 -60.000595 2.407089 0.968627
98.215424 -59.892426 1.590268 0.968627
98.337051 -59.782715 0.761880 0.968627
97.534721 -60.506401 0.022107 0.977310
92.532310 -65.018471 -0.000022 0.557076
89.634598 -67.632156 -0.000017 0.507286
87.784660 -69.300758 -0.000015 0.549706
85.811218 -71.080757 0.200000 0.662043
84.958664 -71.849754 0.200001 0.713161
83.397629 -73.305267 3.265483 0.597299
83.397629 -73.305267 3.091147 0.612772
83.397629 -73.305267 2.919259 0.615991
97.716537 -60.570061 5.591953 0.968627
97.391296 -60.859337 4.735636 0.978271
97.861404 -60.441223 4.001411 0.968627
97.978073 -60.337456 3.206801 0.968627
98.095863 -60.232693 2.404559 0.968627
98.215050 -60.126694 1.592831 0.968627
98.335907 -60.019203 0.769673 0.968627
97.534698 -60.731789 0.034438 0.968627
92.613289 -65.108879 -0.000023 0.550607
89.697403 -67.702263 -0.000018 0.543297
87.835861 -69.357918 -0.000015 0.541115
85.850037 -71.124100 0.200000 0.668772
84.992134 -71.887123 0.200001 0.690333
83.397629 -73.352180 3.257703 0.623529
83.397629 -73.352180 3.084439 0.610910
83.397629 -73.352180 2.913608 0.614267
83.397629 -73.352180 2.744800 0.608240
97.391327 -61.080116 4.718825 0.980392
97.863182 -60.666313 3.989303 0.968627
97.979149 -60.564613 3.199453 0.968627
98.096222 -60.461937 2.402080 0.968627
98.214676 -60.358063 1.595341 0.968627
98.334785 -60.252731 0.777309 0.968627
97.534668 -60.954414 0.046524 0.980392
92.693634 -65.199852 -0.000023 0.520119
89.759712 -67.772820 -0.000018 0.550408
87.886658 -69.415436 -0.000015 0.524269
85.888550 -71.167709 0.200001 0.695659
85.025345 -71.924721 0.200000 0.663188
83.202972 -73.566841 3.185620 0.160784
83.202972 -73.566841 3.022287 0.188128
83.202972 -73.566841 2.861246 0.160784
83.203323 -73.566536 2.702182 0.189548
97.391357 -61.298214 4.702350 0.968627
97.864922 -60.888721 3.977435 0.968627
97.980209 -60.789032 3.192252 0.968627
98.096588 -60.688404 2.399651 0.968627
98.214310 -60.586601 1.597802 0.968627
98.333687 -60.483383 0.784791 0.968627
83.219879 -73.552223 1.610062 0.807843
83.219879 -73.552223 1.452911 0.192157
83.219879 -73.552223 1.294572 0.192157
83.219879 -73.552223 1.134687 0.807843
83.219879 -73.552223 0.972886 0.192157
83.219872 -73.552223 0.808782 0.807843
83.202965 -73.610268 3.178534 0.160784
83.202965 -73.610268 3.016177 0.160784
83.202965 -73.610268 2.856098 0.160784
83.206589 -73.607178 2.698622 0.182910
97.391380 -61.513695 4.686204 0.980392
83.237762 -73.580605 2.389534 0.192157
83.231972 -73.585541 2.233013 0.807843
83.231972 -73.585541 2.077615 0.192157
83.231972 -73.585541 1.922385 0.807843
83.221565 -73.594414 1.767659 0.192157
83.206352 -73.607384 1.613850 0.807843
83.206352 -73.607384 1.458225 0.192157
83.206352 -73.607384 1.301424 0.192157
83.206352 -73.607384 1.143093 0.807843
83.206352 -73.607384 0.982864 0.192157
83.206345 -73.607384 0.820353 0.807843
83.207573 -73.649307 3.173095 0.172549
83.207573 -73.649307 3.011487 0.172549
83.207573 -73.649307 2.852148 0.178683
83.224617 -73.634979 2.697999 0.169024
83.255783 -73.608780 2.546011 0.617868
83.238281 -73.623489 2.387295 0.192157
83.234383 -73.626770 2.231794 0.807843
83.234383 -73.626770 2.077209 0.192157
83.234383 -73.626770 1.922790 0.807843
83.227875 -73.632240 1.768623 0.192157
83.216080 -73.642151 1.615083 0.807843
83.216080 -73.642151 1.459956 0.192157
83.216080 -73.642151 1.303655 0.192157
83.216080 -73.642151 1.145829 0.807843
83.216080 -73.642151 0.986112 0.192157
83.216080 -73.642151 0.824120 0.807843
83.238739 -73.665939 3.176421 0.191623
83.238739 -73.665939 3.014354 0.172549
83.238739 -73.665939 2.854564 0.192157
83.243347 -73.662125 2.697551 0.170245
83.273865 -73.636826 2.545541 0.611765
83.257767 -73.650169 2.387120 0.192157
83.254150 -73.653168 2.231709 0.807843
83.254150 -73.653168 2.077181 0.192157
83.254150 -73.653168 1.922819 0.807843
83.247444 -73.658730 1.768719 0.192157
83.235077 -73.668976 1.615297 0.807843
83.235077 -73.668976 1.460255 0.192157
83.235077 -73.668976 1.304042 0.192157
83.235077 -73.668976 1.146303 0.807843
83.235077 -73.668976 0.986675 0.192157
83.235077 -73.668976 0.824773 0.807843
83.270149 -73.682617 3.179840 0.188205
83.270149 -73.682617 3.017303 0.172549
83.270149 -73.682617 2.857047 0.176730
83.272003 -73.681099 2.699046 0.182940
83.337074 -73.627937 2.551806 0.613642
83.292175 -73.664619 2.388545 0.192157
83.287521 -73.668427 2.232499 0.807843
83.287521 -73.668427 2.077444 0.192157
83.287521 -73.668427 1.922556 0.807843
83.279022 -73.675369 1.768040 0.192157
83.263824 -73.687782 1.614456 0.807843
83.263824 -73.687782 1.459076 0.192157
83.263824 -73.687782 1.302521 0.192157
83.263824 -73.687782 1.144438 0.807843
83.263824 -73.687782 0.984460 0.192157
83.263824 -73.687782 0.822204 0.807843
83.301735 -73.699394 3.183337 0.172549
83.301735 -73.699394 3.020318 0.172549
83.301735 -73.699394 2.859587 0.160784
83.301315 -73.699738 2.700680 0.178363
83.397629 -73.622154 2.557635 0.611765
97.239563 -62.473129 3.854804 0.223529
97.345512 -62.387791 3.117975 0.223529
97.452393 -62.301701 2.374638 0.223529
97.560455 -62.214661 1.623092 0.223529
83.345978 -73.663765 1.765127 0.192157
83.309387 -73.693237 1.611837 0.807843
83.309387 -73.693237 1.455401 0.192157
83.309387 -73.693237 1.297782 0.192157
83.309387 -73.693237 1.138626 0.807843
83.309387 -73.693237 0.977561 0.192157
83.309387 -73.693237 0.814203 0.807843
83.333511 -73.716278 3.186913 0.151049
83.333511 -73.716278 3.023401 0.160784
83.333511 -73.716278 2.862185 0.171084
83.333450 -73.716324 2.702867 0.180255
83.403862 -73.660416 2.555446 0.803693
97.241013 -62.673630 3.844628 0.223529
97.346375 -62.589966 3.111804 0.223529
97.452675 -62.505569 2.372558 0.223529
97.560135 -62.420242 1.625197 0.223529
97.669022 -62.333786 0.867956 0.223529
97.534492 -62.440601 0.124644 0.980392
93.237991 -65.852051 -0.000023 0.534676
90.181885 -68.278625 -0.000019 0.534554
88.230820 -69.827782 -0.000015 0.549966
86.149506 -71.480362 0.200001 0.768383
85.250343 -72.194305 0.200001 0.762600
83.365486 -73.733261 3.190569 0.172549
83.365486 -73.733261 3.026553 0.178195
83.365486 -73.733261 2.864841 0.146120
83.365555 -73.733208 2.705056 0.172549
97.321014 -62.810455 4.585526 0.223529
97.408379 -62.742073 3.851932 0.223529
97.496140 -62.673386 3.115046 0.223529
97.584480 -62.604240 2.373252 0.223529
97.673607 -62.534485 1.624896 0.223529
97.763718 -62.463955 0.868262 0.223529
97.534470 -62.643383 0.134938 0.968627
93.313141 -65.947365 -0.000024 0.533196
90.240158 -68.352547 -0.000018 0.529213
88.278328 -69.888046 -0.000015 0.556313
86.185524 -71.526054 0.200000 0.713542
85.281403 -72.233696 0.200001 0.693477
83.397636 -73.750366 3.194298 0.611765
83.397636 -73.750366 3.029768 0.615412
83.397636 -73.750366 2.867549 0.591302
83.397636 -73.750366 2.707253 0.616449
97.897270 -62.564045 4.655268 0.980392
97.664581 -62.743561 3.868445 0.223529
97.754410 -62.674263 3.125037 0.223529
97.844833 -62.604500 2.376614 0.223529
97.936073 -62.534111 1.621501 0.223529
98.028328 -62.462940 0.857966 0.223529
97.534447 -62.843964 0.145031 0.979202
93.387604 -66.043205 -0.000023 0.539574
90.297913 -68.426880 -0.000018 0.538842
88.325409 -69.948639 -0.000015 0.539223
86.221222 -71.571999 0.200001 0.662470
85.312180 -72.273315 0.200001 0.666362
83.397629 -73.792191 3.187927 0.623529
83.397629 -73.792191 3.024275 0.611765
83.397629 -73.792191 2.862922 0.611765
83.397636 -73.792183 2.703480 0.605692
98.163483 -62.564049 4.679580 0.969726
98.746002 -62.121090 3.969876 0.968627
98.841507 -62.048470 3.186130 0.968627
98.937660 -61.975353 2.397071 0.968627
99.034668 -61.901585 1.600935 0.968627
99.132774 -61.826988 0.795894 0.968627
97.616684 -62.979839 0.146453 0.980392
93.461418 -66.139557 -0.000024 0.508247
90.355148 -68.501602 -0.000019 0.540612
88.372070 -70.009560 -0.000015 0.526268
86.256607 -71.618187 0.200001 0.723613
85.342690 -72.313141 0.200001 0.727977
83.397644 -73.833557 3.181686 0.611765
83.397644 -73.833557 3.018895 0.611765
83.397644 -73.833557 2.858388 0.623529
83.397636 -73.833557 2.699782 0.622110
98.434624 -62.564049 4.704474 0.963302
99.023491 -62.122723 3.987955 0.968627
99.121277 -62.049438 3.197071 0.968627
99.219734 -61.975647 2.400752 0.968627
99.319077 -61.901196 1.597216 0.968627
99.419548 -61.825897 0.784617 0.968627
97.879875 -62.979805 0.129228 0.972534
93.534546 -66.236427 -0.000024 0.532647
90.411865 -68.576729 -0.000019 0.522622
88.418312 -70.070801 -0.000016 0.560739
86.291656 -71.664627 0.200001 0.696773
85.372917 -72.353180 0.200001 0.742458
83.397629 -73.874512 3.175560 0.622065
83.397629 -73.874512 3.013612 0.611765
83.397629 -73.874512 2.853938 0.623529
99.181870 -62.216167 5.606941 0.968627
98.710876 -62.564045 4.729973 0.980026
99.306122 -62.124390 4.006466 0.968627
99.406265 -62.050426 3.208274 0.968627
99.507095 -61.975952 2.404522 0.968627
99.608856 -61.900795 1.593408 0.968627
99.711769 -61.824776 0.773067 0.968627
98.147934 -62.979836 0.111595 0.972030
93.606995 -66.333809 -0.000024 0.508598
90.468056 -68.652245 -0.000019 0.544457
88.464119 -70.132370 -0.000016 0.536278
86.326393 -71.711304 0.200000 0.682307
85.402863 -72.393433 0.200001 0.676188
99.114021 -62.475510 8.038729 0.968627
99.231354 -62.390114 7.238162 0.968627
99.348419 -62.304901 6.439341 0.968627
99.465477 -62.219696 5.640559 0.968627
98.992386 -62.564041 4.756090 0.977264
99.594063 -62.126102 4.025424 0.968627
99.696625 -62.051449 3.219748 0.968627
99.799919 -61.976265 2.408383 0.968627
99.904167 -61.900387 1.589507 0.968627
100.009613 -61.823639 0.761234 0.968627
98.421165 -62.979820 0.093527 0.968627
93.678764 -66.431686 -0.000024 0.550469
90.523712 -68.728157 -0.000019 0.532799
88.509491 -70.194252 -0.000016 0.541573
86.360794 -71.758224 0.200001 0.745571
85.432526 -72.433884 0.200000 0.718639
99.394531 -62.481438 8.094812 0.968627
99.514648 -62.395283 7.287104 0.968627
99.634529 -62.309299 6.481071 0.968627
99.754410 -62.223316 5.674984 0.968627
99.279358 -62.564045 4.782849 0.980392
99.887497 -62.127857 4.044841 0.968627
99.992584 -62.052486 3.231503 0.968627
100.098404 -61.976585 2.412339 0.968627
100.205223 -61.899971 1.585510 0.968627
100.313293 -61.822460 0.749107 0.968627
98.699677 -62.979816 0.075015 0.974838
93.749847 -66.530067 -0.000024 0.554543
90.578842 -68.804451 -0.000019 0.523598
88.554436 -70.256454 -0.000016 0.546197
86.394875 -71.805389 0.200000 0.675990
85.461914 -72.474548 0.200000 0.741939
99.680267 -62.487507 8.152235 0.968627
99.803284 -62.400570 7.337224 0.968627
99.926056 -62.313805 6.523808 0.968627
100.048843 -62.227020 5.710244 0.968627
99.571968 -62.564041 4.810272 0.972900
100.186630 -62.129646 4.064736 0.968627
100.294296 -62.053555 3.243547 0.968627
100.402756 -61.976906 2.416393 0.968627
100.512238 -61.899536 1.581413 0.968627
100.622986 -61.821262 0.736679 0.968627
98.983658 -62.979816 0.056047 0.968627
93.820244 -66.628937 -0.000025 0.545388
90.633438 -68.881134 -0.000019 0.520790
88.598938 -70.318962 -0.000016 0.555581
86.428619 -71.852783 0.200000 0.707485
85.491005 -72.515419 0.200000 0.681849
99.971405 -62.493725 8.211041 0.968627
100.097404 -62.405991 7.388555 0.968627
100.223175 -62.318417 6.567584 0.968627
100.348976 -62.230820 5.746367 0.968627
99.870422 -62.564037 4.838380 0.980392
100.491623 -62.131493 4.085123 0.968627
100.601982 -62.054649 3.255891 0.968627
100.713150 -61.977242 2.420548 0.968627
100.825378 -61.899097 1.577214 0.968627
100.938919 -61.820034 0.723938 0.968627
99.273308 -62.979820 0.036605 0.956863
93.889946 -66.728294 -0.000025 0.518029
90.687492 -68.958191 -0.000019 0.562387
88.643013 -70.381783 -0.000016 0.528328
86.462029 -71.900414 0.200001 0.691203
85.519814 -72.556488 0.200001 0.665980
100.268135 -62.500095 8.271278 0.968627
100.397217 -62.411541 7.441144 0.968627
100.526085 -62.323143 6.612436 0.968627
100.654999 -62.234711 5.783382 0.968627
100.174919 -62.564041 4.867196 0.980392
100.802719 -62.133377 4.106019 0.968627
100.915848 -62.055771 3.268544 0.968627
101.029816 -61.977592 2.424808 0.968627
101.144882 -61.898651 1.572909 0.968627
100.946617 -62.034660 0.729622 0.223529
99.568817 -62.979820 0.016672 0.968627
93.958954 -66.828140 -0.000025 0.526268
90.741013 -69.035622 -0.000019 0.527840
88.686638 -70.444908 -0.000016 0.553201
86.495110 -71.948280 0.200000 0.680339
85.548340 -72.597755 0.200001 0.718334
100.570648 -62.506618 8.332996 0.968627
100.702919 -62.417229 7.495028 0.968627
100.834976 -62.327988 6.658399 0.968627
100.967110 -62.238697 5.821319 0.968627
100.485672 -62.564037 4.896747 0.980392
101.120102 -62.135307 4.127441 0.968627
100.942467 -62.255348 3.264107 0.223529
100.943848 -62.254414 2.421096 0.223529
100.945229 -62.253483 1.578877 0.223529
100.946609 -62.252548 0.735647 0.223529
99.870407 -62.979824 -0.003769 0.968627
94.027267 -66.928467 -0.000025 0.528466
90.793991 -69.113434 -0.000019 0.547402
88.729828 -70.508339 -0.000016 0.549630
86.527855 -71.996376 0.200001 0.665629
85.576576 -72.639221 0.200000 0.703700
100.879135 -62.513306 8.396238 0.968627
101.014709 -62.423061 7.550253 0.968627
101.150070 -62.332954 6.705513 0.968627
101.285530 -62.242786 5.860209 0.968627
100.802917 -62.564037 4.927057 0.970367
100.941101 -62.472054 4.099872 0.223529
100.942482 -62.471138 3.258203 0.223529
100.943863 -62.470222 2.419128 0.223529
100.945229 -62.469307 1.580844 0.223529
100.972000 -62.451485 0.740055 0.223529
99.927521 -63.146751 -0.000034 0.542748
94.094872 -67.029266 -0.000025 0.519692
90.846420 -69.191605 -0.000020 0.550439
88.772575 -70.572067 -0.000017 0.561608
86.560265 -72.044693 0.200001 0.701747
85.604523 -72.680893 0.200000 0.675593
101.193810 -62.520161 8.461060 0.968627
100.935532 -62.689495 7.504265 0.223529
100.936951 -62.688564 6.637489 0.223529
100.938354 -62.687645 5.780866 0.223529
100.939743 -62.686737 4.932410 0.223529
100.941124 -62.685825 4.090212 0.223529
100.941437 -62.685623 3.252352 0.223529
101.059860 -62.607979 2.419470 0.223529
101.179489 -62.529552 1.578189 0.223529
101.300575 -62.450165 0.726551 0.223529
100.021393 -63.288826 -0.000035 0.549981
94.161774 -67.130539 -0.000025 0.535912
90.898308 -69.270142 -0.000020 0.526894
88.814873 -70.636093 -0.000016 0.542824
86.592339 -72.093239 0.200000 0.703685
85.632172 -72.722748 0.200000 0.669169
100.934143 -62.902176 8.354353 0.223529
100.935577 -62.901253 7.479331 0.223529
100.936989 -62.900337 6.616480 0.223529
100.938385 -62.899433 5.763737 0.223529
101.027245 -62.842056 4.931103 0.223529
101.147118 -62.764660 4.100843 0.223529
101.267693 -62.686806 3.265755 0.223529
102.363815 -61.979057 2.442968 0.968627
102.491310 -61.896732 1.554549 0.968627
102.620377 -61.813393 0.655142 0.968627
100.114258 -63.431568 -0.000035 0.533242
94.227966 -67.232269 -0.000025 0.544366
90.949638 -69.349045 -0.000020 0.537041
88.856720 -70.700417 -0.000016 0.580484
86.624069 -72.142006 0.200001 0.670939
85.659523 -72.764801 0.200002 0.749447
100.934196 -63.112015 8.326006 0.223529
100.986908 -63.078495 7.468012 0.223529
101.109329 -63.000656 6.633036 0.223529
101.231689 -62.922852 5.798495 0.223529
101.354248 -62.844925 4.962600 0.223529
102.457314 -62.143555 4.218774 0.968627
102.585846 -62.061829 3.336843 0.968627
102.715401 -61.979450 2.447809 0.968627
102.846298 -61.896221 1.549653 0.968627
102.978821 -61.811958 0.640278 0.968627
100.206131 -63.574944 -0.000035 0.546639
94.293449 -67.334457 -0.000025 0.553185
91.000427 -69.428299 -0.000020 0.533654
88.898117 -70.765022 -0.000016 0.544488
86.655457 -72.190994 0.200001 0.742748
85.686600 -72.807037 0.200001 0.718029
101.185417 -63.162739 8.372447 0.223529
101.311363 -63.083893 7.526657 0.223529
102.476990 -62.354118 6.906276 0.968627
102.626961 -62.260220 6.025987 0.968627
102.141708 -62.564030 5.056458 0.980392
102.809792 -62.145752 4.243121 0.968627
102.941750 -62.063141 3.351597 0.968627
103.074783 -61.979851 2.452779 0.968627
103.209198 -61.895699 1.544626 0.968627
103.345299 -61.810486 0.625013 0.968627
100.296997 -63.718960 -0.000035 0.535286
94.358215 -67.437111 -0.000025 0.538033
91.050659 -69.507904 -0.000020 0.525414
88.939064 -70.829926 -0.000016 0.559915
86.686508 -72.240204 0.200000 0.712062
85.713364 -72.849472 0.200001 0.666041
102.518967 -62.549370 8.737267 0.968627
102.672836 -62.454529 7.848164 0.968627
102.826584 -62.359756 6.959768 0.968627
102.980530 -62.264866 6.070173 0.968627
102.495193 -62.564026 5.091001 0.980392
103.170097 -62.148014 4.268120 0.968627
103.305603 -62.064487 3.366745 0.968627
103.442238 -61.980263 2.457883 0.968627
103.580315 -61.895157 1.539463 0.968627
103.720123 -61.808979 0.609332 0.968627
100.386856 -63.863609 -0.000035 0.524666
94.422264 -67.540207 -0.000026 0.525322
91.100327 -69.587860 -0.000020 0.528939
88.043793 -71.471916 0.200001 0.738445
86.717209 -72.289627 0.200001 0.661280
85.739838 -72.892082 0.200001 0.756985
102.868103 -62.557156 8.810856 0.968627
103.026031 -62.461319 7.912478 0.968627
103.183861 -62.365547 7.014678 0.968627
103.341919 -62.269634 6.115537 0.968627
102.856773 -62.564026 5.126487 0.980255
103.538528 -62.150330 4.293791 0.968627
103.677727 -62.065865 3.382306 0.968627
103.818092 -61.980690 2.463126 0.968627
103.959953 -61.894608 1.534158 0.968627
104.081047 -61.821125 0.594517 0.972885
100.475708 -64.008888 -0.000035 0.539376
94.485588 -67.643753 -0.000026 0.529488
91.149437 -69.668159 -0.000020 0.545846
88.079826 -71.530838 0.200001 0.666148
86.747566 -72.339264 0.200001 0.728313
85.766014 -72.934883 0.200001 0.747997
103.224899 -62.565144 8.886392 0.968627
103.387054 -62.468288 7.978501 0.968627
103.549118 -62.371490 7.071058 0.968627
103.711433 -62.274540 6.162120 0.968627
103.226776 -62.564022 5.162954 0.962005
103.915390 -62.152714 4.320164 0.968627
104.058418 -62.067284 3.398292 0.968627
104.202660 -61.981133 2.468514 0.968627
104.348465 -61.894043 1.528707 0.968627
104.181114 -61.993996 0.594686 0.978439
100.563545 -64.154770 -0.000036 0.527276
94.548187 -67.747734 -0.000026 0.522683
91.197990 -69.748802 -0.000021 0.526497
88.115448 -71.589996 0.200000 0.684245
86.777573 -72.389114 0.200001 0.707393
85.791878 -72.977867 0.200005 0.683650
103.589676 -62.573345 8.963951 0.968627
103.756195 -62.475456 8.046301 0.968627
103.922661 -62.377594 7.128965 0.968627
104.089401 -62.279572 6.209973 0.968627
103.605530 -62.564026 5.200438 0.980392
104.301025 -62.155167 4.347265 0.968627
104.448029 -62.068745 3.414722 0.968627
104.596313 -61.981575 2.474052 0.968627
104.746201 -61.893459 1.523103 0.968627
104.279915 -62.167576 0.594857 0.974166
100.650360 -64.301270 -0.000036 0.541512
94.610069 -67.852150 -0.000026 0.537896
91.245979 -69.829781 -0.000020 0.554650
88.150658 -71.649414 0.200000 0.718730
86.807220 -72.439171 0.200004 0.674693
85.817474 -73.021011 0.199999 0.678035
103.962708 -62.581768 9.043608 0.968627
104.133766 -62.482811 8.115945 0.968627
104.304794 -62.383869 7.188455 0.968627
104.476143 -62.284740 6.259144 0.968627
104.648193 -62.185211 5.326009 0.968627
104.695770 -62.157684 4.375122 0.968627
104.846901 -62.070251 3.431613 0.968627
104.999390 -61.982040 2.479747 0.968627
104.674698 -62.169872 1.526392 0.223529
104.377602 -62.341747 0.595022 0.976974
100.736137 -64.448372 -0.000036 0.543847
94.671219 -67.956993 -0.000026 0.531868
91.293396 -69.911095 -0.000020 0.533959
88.185432 -71.709084 0.200004 0.744945
86.836540 -72.489433 0.200003 0.710719
85.842766 -73.064339 0.199993 0.702480
104.344330 -62.590424 9.125440 0.968627
104.520103 -62.490372 8.187504 0.968627
104.695877 -62.390316 7.249590 0.968627
104.871994 -62.290062 6.309681 0.968627
105.048882 -62.189377 5.365752 0.980392
104.670044 -62.405018 4.363197 0.223529
104.671600 -62.404133 3.415979 0.223529
104.673149 -62.403252 2.471684 0.223529
104.674698 -62.402370 1.528286 0.223529
104.474022 -62.516602 0.595189 0.970855
100.820900 -64.596069 -0.000036 0.525551
94.731621 -68.062263 -0.000026 0.522225
91.340248 -69.992737 -0.000020 0.540505
88.219788 -71.768997 0.200009 0.684840
86.865532 -72.539871 0.199993 0.716258
85.867729 -73.107857 0.199993 0.683207
104.734879 -62.599319 9.209530 0.968627
104.915550 -62.498138 8.261053 0.968627
104.665344 -62.638260 7.222570 0.223529
104.666931 -62.637371 6.257863 0.223529
104.668503 -62.636490 5.302357 0.223529
104.670059 -62.635620 4.353902 0.223529
104.671608 -62.634750 3.410409 0.223529
104.712021 -62.612122 2.470559 0.223529
104.869171 -62.524109 1.526494 0.223529
104.569069 -62.692177 0.595364 0.976074
100.904617 -64.744354 -0.000036 0.549249
94.791298 -68.167953 -0.000026 0.536721
91.386528 -70.074699 -0.000021 0.518975
88.253792 -71.829102 0.199997 0.746960
86.894150 -72.590530 0.199991 0.722225
85.892395 -73.151535 0.199993 0.674434
104.662170 -62.868786 9.160832 0.223529
104.663788 -62.867893 8.174740 0.223529
104.665382 -62.867016 7.202367 0.223529
104.666962 -62.866142 6.241389 0.223529
104.668518 -62.865288 5.289578 0.223529
104.808838 -62.787987 4.357783 0.223529
104.967270 -62.700706 3.421533 0.223529
105.127205 -62.612602 2.476494 0.223529
106.437164 -61.890965 1.499032 0.968627
104.663048 -62.868301 0.595530 0.977798
100.987312 -64.893219 -0.000036 0.551186
94.850235 -68.274055 -0.000026 0.539712
91.432236 -70.156990 -0.000021 0.538003
88.287376 -71.889450 0.199987 0.694636
86.922401 -72.641396 0.199991 0.674693
85.916756 -73.195396 0.199993 0.673793
104.662201 -63.095757 9.133581 0.223529
104.663818 -63.094883 8.151239 0.223529
104.741623 -63.052727 7.198338 0.223529
104.902214 -62.965714 6.264932 0.223529
105.063316 -62.878422 5.328712 0.223529
106.373581 -62.168491 4.494732 0.968627
106.542999 -62.076694 3.504165 0.968627
106.714035 -61.984028 2.504214 0.968627
106.887039 -61.890293 1.492567 0.968627
105.153214 -62.829716 0.573488 0.968627
101.068954 -65.042656 -0.000036 0.547616
94.908424 -68.380569 -0.000026 0.525994
91.477364 -70.239594 -0.000020 0.536538
88.320488 -71.950058 0.199988 0.692866
86.950302 -72.692459 0.199991 0.738338
85.940811 -73.239418 0.199994 0.704875
104.823936 -63.234863 9.152777 0.223529
104.989281 -63.146763 8.207857 0.223529
106.357040 -62.417984 7.511933 0.968627
106.554283 -62.312889 6.526640 0.968627
106.752518 -62.207264 5.536439 0.968627
106.819832 -62.171398 4.526852 0.968627
106.994316 -62.078426 3.523656 0.968627
107.170479 -61.984566 2.510789 0.968627
107.348701 -61.889603 1.485906 0.968627
105.600853 -62.820900 0.553912 0.962936
101.149567 -65.192657 -0.000036 0.549004
94.965874 -68.487488 -0.000026 0.523507
91.521919 -70.322510 -0.000021 0.561288
88.353172 -72.010895 0.199987 0.682231
86.977837 -72.743713 0.199991 0.694484
85.964554 -73.283615 0.199994 0.752636
106.393753 -62.637493 9.570354 0.968627
106.596077 -62.531498 8.576777 0.968627
106.798576 -62.425411 7.582335 0.968627
107.001656 -62.319016 6.584891 0.968627
107.205788 -62.212074 5.582285 0.968627
107.277725 -62.174389 4.559933 0.968627
107.457474 -62.080219 3.543733 0.968627
107.638992 -61.985123 2.517563 0.968627
107.822662 -61.888897 1.479043 0.968627
106.060959 -62.811844 0.533718 0.950286
101.229111 -65.343224 -0.000036 0.540154
95.022575 -68.594795 -0.000026 0.530129
91.565887 -70.405739 -0.000021 0.540902
88.385437 -72.071960 0.199987 0.704173
87.005020 -72.795158 0.199991 0.692485
85.987991 -73.327972 0.199993 0.700389
106.781425 -62.675163 9.652181 0.951629
107.042984 -62.540451 8.661543 0.968627
107.251511 -62.433060 7.654830 0.968627
107.460678 -62.325329 6.644883 0.968627
107.670975 -62.217022 5.629513 0.968627
107.471848 -62.319572 4.568572 0.977646
107.933022 -62.082054 3.564424 0.968627
108.120132 -61.985691 2.524546 0.968627
108.309494 -61.888161 1.471968 0.968627
106.534149 -62.802521 0.512878 0.980392
101.307610 -65.494339 -0.000036 0.536751
95.078529 -68.702507 -0.000027 0.545083
91.609283 -70.489273 -0.000021 0.543923
88.417274 -72.133247 0.199987 0.702113
87.031837 -72.846786 0.199991 0.761975
86.011124 -73.372490 0.199993 0.669749
106.879036 -62.864792 9.652353 0.980392
107.501511 -62.549675 8.748837 0.968627
107.716316 -62.440937 7.729502 0.968627
107.931839 -62.331833 6.706690 0.968627
108.148560 -62.222122 5.678178 0.968627
107.573364 -62.513306 4.568760 0.977768
108.421501 -62.083954 3.585753 0.968627
108.614441 -61.986282 2.531746 0.968627
108.809761 -61.887409 1.464672 0.968627
107.020996 -62.792931 0.491362 0.980392
101.385048 -65.646004 -0.000036 0.540810
95.133728 -68.810600 -0.000027 0.555657
91.652092 -70.573105 -0.000021 0.532723
88.448685 -72.194756 0.199987 0.730343
87.058304 -72.898605 0.199991 0.709606
86.033936 -73.417168 0.199993 0.699504
106.975334 -63.055096 9.652533 0.967330
107.972183 -62.559177 8.838772 0.968627
108.193542 -62.449051 7.806450 0.968627
108.415688 -62.338539 6.770392 0.968627
108.639122 -62.227383 5.728347 0.968627
107.962372 -62.564060 4.595402 0.976394
108.923492 -62.085911 3.607752 0.968627
108.615562 -62.239105 2.529906 0.223529
108.617310 -62.238235 1.470062 0.223529
107.522156 -62.783058 0.469140 0.968627
101.461433 -65.798203 -0.000036 0.546731
95.188164 -68.919083 -0.000027 0.554147
91.694313 -70.657227 -0.000021 0.507668
88.479660 -72.256485 0.199987 0.726482
87.084396 -72.950607 0.199990 0.690013
86.056435 -73.462006 0.199993 0.749493
107.300461 -63.133572 9.716879 0.968627
108.455505 -62.568974 8.931459 0.968627
108.683723 -62.457417 7.885770 0.968627
108.912796 -62.345448 6.836073 0.968627
108.610344 -62.493286 5.711847 0.223529
108.465576 -62.564053 4.632408 0.968627
108.613838 -62.491577 3.585293 0.223529
108.615585 -62.490723 2.528085 0.223529
108.617317 -62.489876 1.471883 0.223529
108.038330 -62.772892 0.446176 0.980392
101.536758 -65.950920 -0.000037 0.538399
95.241852 -69.027931 -0.000026 0.548180
91.735939 -70.741653 -0.000021 0.542885
88.510208 -72.318420 0.199987 0.678370
87.110130 -73.002792 0.199991 0.684169
86.078629 -73.507004 0.199993 0.670710
107.787933 -63.138077 9.826278 0.968627
108.952072 -62.579071 9.027025 0.968627
108.606834 -62.744850 7.850376 0.223529
108.608612 -62.743999 6.769690 0.223529
108.610367 -62.743156 5.699317 0.223529
108.612106 -62.742317 4.636847 0.223529
108.668640 -62.715172 3.582927 0.223529
108.872887 -62.617096 2.530973 0.223529
109.079803 -62.517738 1.465271 0.223529
108.570259 -62.762413 0.422434 0.978927
101.611008 -66.104172 -0.000037 0.546136
95.294762 -69.137161 -0.000026 0.545083
91.776985 -70.826363 -0.000021 0.541482
88.540321 -72.380577 0.199987 0.752926
87.135498 -73.055153 0.199991 0.684550
86.100494 -73.552155 0.199993 0.665110
108.289452 -63.142715 9.939211 0.972763
108.605072 -62.993858 8.920856 0.223529
108.606857 -62.993019 7.830975 0.223529
108.608627 -62.992188 6.753872 0.223529
108.776093 -62.913200 5.708126 0.223529
108.982941 -62.815643 4.661720 0.223529
110.516945 -62.092171 3.678069 0.968627
110.736046 -61.988834 2.562921 0.968627
110.958038 -61.884140 1.433062 0.968627
109.118713 -62.751614 0.397876 0.980392
101.684174 -66.257942 -0.000036 0.540413
95.346924 -69.246758 -0.000026 0.537087
91.817436 -70.911354 -0.000021 0.502876
88.570000 -72.442932 0.199987 0.717311
87.160507 -73.107689 0.199991 0.740993
86.122055 -73.597450 0.199993 0.704860
108.603287 -63.241222 9.999981 0.223529
108.666626 -63.211884 8.912964 0.223529
108.877342 -63.114300 7.866219 0.223529
110.489799 -62.367538 7.045903 0.968627
110.743263 -62.250153 5.945443 0.968627
110.065491 -62.564041 4.750870 0.980392
111.079590 -62.094395 3.703065 0.968627
111.306030 -61.989525 2.571367 0.968627
111.535492 -61.883255 1.424495 0.968627
109.684540 -62.740471 0.372462 0.968399
101.756279 -66.412209 -0.000037 0.545190
95.398308 -69.356712 -0.000027 0.543145
91.857292 -70.996635 -0.000021 0.561837
88.599243 -72.505501 0.199987 0.707546
87.185143 -73.160400 0.199991 0.756878
86.143295 -73.642899 0.199993 0.686366
108.968475 -63.320114 10.074880 0.223529
110.527351 -62.611336 9.332317 0.968627
110.786224 -62.493637 8.229003 0.968627
111.046303 -62.375385 7.120446 0.968627
111.308189 -62.256317 6.004215 0.968627
110.631378 -62.564041 4.793042 0.980392
111.659256 -62.096699 3.728900 0.968627
111.893387 -61.990246 2.580097 0.968627
112.130707 -61.882339 1.415637 0.968627
110.268715 -62.728931 0.346142 0.976349
101.827309 -66.566978 -0.000037 0.552026
95.448929 -69.467026 -0.000027 0.541848
90.668999 -71.640312 0.200006 0.733227
88.628044 -72.568275 0.199988 0.707439
87.209404 -73.213280 0.199990 0.666148
86.164223 -73.688492 0.199993 0.760601
109.885117 -63.157486 10.300959 0.980392
111.083229 -62.622803 9.440765 0.968627
111.350693 -62.503441 8.321917 0.968627
111.619469 -62.383495 7.197471 0.968627
111.890167 -62.262688 6.064957 0.968627
111.214920 -62.564034 4.836668 0.971756
112.256790 -62.099075 3.755617 0.968627
112.498993 -61.990986 2.589128 0.968627
112.744560 -61.881401 1.406472 0.968627
110.871887 -62.717117 0.318886 0.972351
101.897247 -66.722244 -0.000037 0.533104
95.498787 -69.577682 -0.000027 0.542428
90.703751 -71.717575 0.200013 0.689281
88.656403 -72.631241 0.199988 0.739651
87.233307 -73.266335 0.199991 0.739971
86.184830 -73.734238 0.199993 0.686305
114.097641 -61.565281 11.427306 0.968627
111.655762 -62.634644 9.552828 0.968627
111.932220 -62.513577 8.417948 0.968627
112.210114 -62.391876 7.277102 0.968627
112.490082 -62.269272 6.127772 0.968627
111.817009 -62.564026 4.881823 0.980392
112.342926 -62.333714 3.754827 0.223529
112.344856 -62.332870 2.584559 0.223529
112.346779 -62.332031 1.415407 0.223529
111.495636 -62.704765 0.290615 0.973724
101.966103 -66.877991 -0.000037 0.527169
95.547867 -69.688698 -0.000027 0.527321
90.737991 -71.795059 0.200016 0.690486
88.684326 -72.694412 0.199989 0.696056
87.256828 -73.319550 0.199990 0.660838
86.205116 -73.780121 0.199993 0.667262
112.800591 -62.408504 11.045190 0.223529
112.245743 -62.646885 9.668676 0.968627
112.531647 -62.524052 8.517252 0.968627
112.819107 -62.400547 7.359465 0.968627
112.339081 -62.606785 6.096384 0.223529
112.341019 -62.605949 4.919871 0.223529
112.342941 -62.605125 3.749521 0.223529
112.344849 -62.604301 2.582792 0.223529
112.558853 -62.512363 1.413398 0.223529
111.366501 -63.024632 0.302688 0.973312
102.033875 -67.034210 -0.000037 0.532265
95.596161 -69.800041 -0.000027 0.551781
90.771706 -71.872772 0.200014 0.730785
88.711807 -72.757774 0.199989 0.685191
87.279984 -73.372925 0.199990 0.697200
86.225075 -73.826141 0.199993 0.711498
113.470123 -62.399937 11.200350 0.223529
112.313675 -62.887245 9.661852 0.978317
112.335190 -62.878181 8.459131 0.223529
112.337151 -62.877354 7.265987 0.223529
112.339096 -62.876534 6.084236 0.223529
112.427994 -62.839073 4.918950 0.223529
112.683853 -62.731255 3.762506 0.223529
114.113029 -62.129028 2.612460 0.968627
114.115173 -62.128120 1.387501 0.968627
112.093872 -62.979866 0.268946 0.968627
102.100548 -67.190903 -0.000038 0.533867
95.643684 -69.911728 -0.000027 0.536522
90.804893 -71.950722 0.200012 0.721996
88.738838 -72.821320 0.199990 0.665446
87.302765 -73.426460 0.199991 0.690333
86.244720 -73.872307 0.199993 0.720928
112.331230 -63.147961 10.864918 0.223529
112.333244 -63.147129 9.644137 0.223529
112.335220 -63.146313 8.440347 0.223529
112.545425 -63.059456 7.284098 0.223529
114.106613 -62.414394 6.292366 0.968627
113.719879 -62.574184 5.025074 0.980392
114.110901 -62.412621 3.833233 0.968627
114.113029 -62.411743 2.610679 0.968627
114.115158 -62.410862 1.389283 0.968627
112.738098 -62.979843 0.239737 0.972259
102.166122 -67.348061 -0.000038 0.540612
95.690414 -70.023743 -0.000026 0.548028
90.837540 -72.028893 0.200008 0.722484
88.765434 -72.885056 0.199991 0.747204
87.325172 -73.480156 0.199990 0.694865
86.264038 -73.918610 0.199993 0.658610
112.386322 -63.392220 10.854522 0.223529
112.652771 -63.284290 9.696795 0.223529
114.102280 -62.697186 8.768882 0.968627
114.104469 -62.696301 7.518540 0.968627
114.106636 -62.695423 6.280126 0.968627
113.720123 -62.851974 5.016468 0.980392
114.110916 -62.693687 3.828006 0.968627
114.113037 -62.692829 2.608937 0.968627
114.115166 -62.691971 1.391025 0.968627
113.404388 -62.979858 0.209442 0.963836
102.230606 -67.505669 -0.000038 0.540520
95.736382 -70.136078 -0.000027 0.548486
90.869644 -72.107285 0.200003 0.680308
88.791580 -72.948982 0.199991 0.700038
87.347198 -73.534012 0.199990 0.762356
86.283035 -73.965042 0.199993 0.735027
114.097885 -62.978348 11.291035 0.968627
113.560966 -63.191471 9.886315 0.955169
114.102310 -62.976593 8.749965 0.968627
114.104500 -62.975723 7.503118 0.968627
114.106651 -62.974873 6.268162 0.968627
113.719635 -63.128494 5.007992 0.980392
114.110916 -62.973175 3.822896 0.968627
114.113037 -62.972336 2.607235 0.968627
114.342918 -62.881088 1.388717 0.968627
114.094162 -62.979832 0.177990 0.973724
102.293983 -67.663719 -0.000038 0.534798
95.781555 -70.248726 -0.000027 0.535164
90.901184 -72.185913 0.200001 0.701900
88.817276 -73.013084 0.199993 0.710704
87.368858 -73.588013 0.199990 0.734569
86.301704 -74.011604 0.199993 0.675822
114.097931 -63.256172 11.265593 0.968627
114.100159 -63.255306 9.989661 0.968627
114.102356 -63.254452 8.731483 0.968627
114.104523 -63.253605 7.488047 0.968627
114.106674 -63.252769 6.256474 0.968627
113.719994 -63.403141 4.999784 0.980392
114.110931 -63.251114 3.817903 0.968627
114.399910 -63.138737 2.610608 0.968627
115.069145 -62.878490 1.377641 0.968627
114.808487 -62.979851 0.145327 0.977905
102.356255 -67.822212 -0.000038 0.539986
95.825935 -70.361694 -0.000027 0.539437
90.932175 -72.264755 0.200000 0.735103
88.842529 -73.077370 0.199994 0.712123
87.390137 -73.642166 0.199990 0.705180
86.320053 -74.058296 0.199993 0.671489
114.097969 -63.532494 11.240746 0.968627
114.100189 -63.531647 9.968233 0.968627
114.102386 -63.530807 8.713427 0.968627
114.104546 -63.529987 7.473324 0.968627
114.106689 -63.529171 6.245054 0.968627
113.720551 -63.676231 4.991784 0.980392
114.456062 -63.396107 3.831169 0.968627
115.126389 -63.140808 2.621692 0.968627
115.822250 -62.875778 1.366124 0.968627
113.744232 -63.667217 0.206251 0.223529
102.417419 -67.981140 -0.000038 0.539635
95.869537 -70.474968 -0.000027 0.540398
90.962593 -72.343819 0.200002 0.739818
88.867317 -73.141830 0.199997 0.682719
87.411034 -73.696465 0.199990 0.684245
86.338066 -74.105118 0.199993 0.735653
114.098007 -63.807346 11.216474 0.968627
114.100220 -63.806519 9.947304 0.968627
114.102417 -63.805702 8.695792 0.968627
114.104576 -63.804897 7.458947 0.968627
114.106712 -63.804100 6.233904 0.968627
113.876450 -63.889965 4.997565 0.972946
115.182747 -63.402863 3.864458 0.968627
115.879738 -63.142963 2.633215 0.968627
113.742241 -63.940010 1.404116 0.223529
113.744217 -63.939270 0.210965 0.223529
102.477470 -68.140488 -0.000038 0.535592
95.912338 -70.588539 -0.000027 0.547082
90.992447 -72.423103 0.200005 0.690867
88.891670 -73.206451 0.199998 0.727687
87.431549 -73.750916 0.199990 0.710872
86.355759 -74.152061 0.199993 0.745586
114.098053 -64.080772 11.192780 0.968627
114.100266 -64.079964 9.926870 0.968627
114.102432 -64.079170 8.678574 0.968627
114.104599 -64.078384 7.444910 0.968627
114.600471 -63.897415 6.283479 0.968627
114.589890 -63.901276 5.052129 0.978607
115.936348 -63.409878 3.899073 0.968627
113.740265 -64.211349 2.594318 0.223529
113.742233 -64.210632 1.405648 0.223529
114.211357 -64.039421 0.191137 0.223529
102.536415 -68.300255 -0.000038 0.536400
95.954346 -70.702415 -0.000027 0.540993
91.021759 -72.502586 0.200006 0.698650
88.915558 -73.271255 0.200000 0.688945
87.451691 -73.805504 0.199990 0.716045
86.373123 -74.199127 0.199993 0.709468
114.098099 -64.352814 11.169650 0.968627
114.100296 -64.352020 9.906926 0.968627
114.102478 -64.351250 8.661770 0.968627
114.523132 -64.201042 7.497128 0.968627
115.320297 -63.916405 6.360628 0.968627
115.329727 -63.913040 5.108860 0.974563
113.738289 -64.481285 3.779632 0.223529
113.740265 -64.480583 2.592821 0.223529
118.259308 -62.866993 1.328657 0.968627
117.963974 -62.972443 -0.000064 0.546227
102.594238 -68.460426 -0.000038 0.538445
95.995560 -70.816574 -0.000027 0.524132
91.050522 -72.582268 0.200007 0.702480
88.939003 -73.336212 0.200002 0.748302
87.471443 -73.860229 0.199990 0.755383
86.390160 -74.246315 0.199993 0.683268
114.098129 -64.623497 11.147082 0.968627
114.100327 -64.622726 9.887462 0.968627
114.438789 -64.504532 8.710185 0.968627
115.237976 -64.225449 7.595908 0.968627
116.066437 -63.936142 6.440810 0.968627
113.736328 -64.749840 4.962817 0.223529
113.738297 -64.749153 3.775250 0.223529
118.317726 -63.149963 2.670703 0.968627
119.137169 -62.863804 1.315094 0.968627
118.058609 -63.240448 -0.000064 0.540276
102.650940 -68.620995 -0.000038 0.559686
96.035980 -70.931015 -0.000027 0.530251
91.078705 -72.662155 0.200010 0.709697
88.961990 -73.401337 0.200003 0.719020
87.490822 -73.915092 0.199990 0.661311
86.406868 -74.293617 0.199993 0.671641
114.098160 -64.892868 11.125068 0.968627
114.345779 -64.808334 9.924488 0.968627
115.148407 -64.534317 8.830465 0.968627
115.978828 -64.250809 7.698557 0.968627
113.734360 -65.017067 6.146631 0.223529
113.736343 -65.016396 4.955685 0.223529
118.375168 -63.432709 4.011679 0.968627
119.195953 -63.152493 2.684274 0.968627
121.233780 -62.456779 1.280490 0.223529
118.151382 -63.509109 -0.000064 0.534783
102.706520 -68.781952 -0.000039 0.541939
96.075592 -71.045746 -0.000028 0.534722
91.106354 -72.742233 0.200011 0.693095
88.984528 -73.466621 0.200004 0.688518
87.509811 -73.970085 0.199990 0.705303
86.423241 -74.341042 0.199993 0.682948
114.242363 -65.112862 11.141669 0.968627
115.049843 -64.843475 10.066140 0.968627
115.883728 -64.565269 8.955435 0.968627
113.732391 -65.283005 7.333863 0.223529
113.734375 -65.282341 6.136874 0.223529
118.577667 -63.666512 5.367202 0.968627
119.253693 -63.440975 4.052442 0.968627
121.675049 -62.633160 2.725430 0.223529
123.981598 -61.863644 1.234782 0.968627
118.242279 -63.778404 -0.000064 0.536873
102.760979 -68.943298 -0.000038 0.549172
94.464966 -71.711029 0.200006 0.674846
91.133476 -72.822487 0.200005 0.670100
89.006622 -73.532059 0.200003 0.700267
87.528419 -74.025215 0.199990 0.672206
86.439285 -74.388573 0.199993 0.713207
114.940521 -65.153320 11.304577 0.968627
115.779312 -64.879974 10.213297 0.968627
113.730408 -65.547668 8.527353 0.223529
113.732407 -65.547020 7.321599 0.223529
118.478653 -64.000305 6.701396 0.968627
119.452133 -63.683067 5.434873 0.968627
124.163666 -62.147667 4.301421 0.968627
124.598061 -62.006107 2.774068 0.968627
125.040443 -61.861942 1.218317 0.968627
118.331299 -64.048325 -0.000064 0.541360
102.814316 -69.105026 -0.000039 0.541726
94.499191 -71.814766 0.200004 0.709163
91.160027 -72.902939 0.200003 0.734676
89.028252 -73.597641 0.200002 0.730861
87.546638 -74.080475 0.199990 0.757931
86.454994 -74.436218 0.199993 0.741756
115.663757 -65.195343 11.473792 0.968627
113.728409 -65.811119 9.730021 0.223529
113.730431 -65.810478 8.512699 0.223529
118.373306 -64.333221 8.032068 0.968627
119.346710 -64.023514 6.795633 0.968627
124.944016 -62.242584 5.899713 0.968627
125.228386 -62.152103 4.351143 0.968627
124.960701 -62.237274 2.778558 0.223529
119.602829 -63.942024 1.313449 0.223529
118.418411 -64.318878 -0.000064 0.542062
102.866501 -69.267120 -0.000038 0.545754
94.532768 -71.918709 0.199993 0.708659
91.186035 -72.983559 0.199996 0.690700
89.049423 -73.663376 0.200002 0.730953
87.564468 -74.135857 0.199990 0.766278
86.470375 -74.483971 0.199993 0.728832
113.726387 -66.073380 10.944886 0.223529
113.728439 -66.072739 9.713081 0.223529
118.259575 -64.665802 9.361341 0.968627
119.234688 -64.363029 8.152637 0.968627
125.505142 -62.416023 7.526958 0.968627
124.955574 -62.586666 5.892156 0.223529
124.958153 -62.585861 4.332087 0.223529
119.600548 -64.249428 2.685007 0.223529
119.602829 -64.248718 1.314954 0.223529
118.503647 -64.590019 -0.000065 0.540673
102.917572 -69.429565 -0.000039 0.533822
94.565529 -72.022919 0.199992 0.677531
91.211456 -73.064369 0.199993 0.704265
89.070129 -73.729263 0.200002 0.676280
87.581917 -74.191360 0.199990 0.685786
86.485413 -74.531830 0.199993 0.680629
113.726418 -66.333855 10.925763 0.223529
118.135445 -64.998505 10.691105 0.968627
119.113983 -64.702141 9.508036 0.968627
124.950424 -62.934475 9.025360 0.223529
124.953018 -62.933689 7.448772 0.223529
124.974777 -62.927097 5.885477 0.223529
119.598282 -64.555466 4.051974 0.223529
119.600555 -64.554771 2.683543 0.223529
128.510208 -61.856335 1.164121 0.968627
118.586990 -64.861748 -0.000064 0.542092
102.967499 -69.592369 -0.000039 0.540139
94.597549 -72.127350 0.199993 0.716716
91.236313 -73.145355 0.199991 0.697353
89.090378 -73.795288 0.200002 0.708980
87.598976 -74.246986 0.199990 0.698222
86.500122 -74.579796 0.199993 0.679606
117.998871 -65.331749 12.023014 0.968627
118.982468 -65.041328 10.863726 0.968627
124.947815 -63.279995 10.599184 0.223529
125.147125 -63.221149 9.041130 0.223529
125.178528 -63.211880 7.464457 0.709804
119.596008 -64.860176 5.417518 0.223529
119.598282 -64.859505 4.047695 0.223529
129.242126 -62.012054 2.846624 0.968627
128.905869 -62.111336 1.159113 0.223529
118.668427 -65.134056 -0.000064 0.540581
103.016289 -69.755524 -0.000039 0.545449
94.628838 -72.232010 0.199994 0.699962
91.260620 -73.226517 0.199986 0.711131
89.110168 -73.861458 0.200002 0.687694
87.615646 -74.302734 0.199990 0.672969
86.514496 -74.627861 0.199993 0.676677
118.838043 -65.381012 12.221366 0.968627
nan nan nan 0.000000
129.200226 -62.399948 11.386839 0.223529
128.403900 -62.629044 9.529508 0.968627
119.593750 -65.163605 6.784813 0.223529
119.596024 -65.162949 5.410571 0.223529
128.900345 -62.486221 4.519048 0.223529
128.903137 -62.485420 2.839131 0.223529
128.900421 -62.486206 1.160916 0.223529
118.747963 -65.406929 -0.000064 0.536156
103.063942 -69.919006 -0.000039 0.536400
94.659470 -72.336861 0.199986 0.691463
91.284302 -73.307854 0.199989 0.674479
89.129494 -73.927765 0.200002 0.710048
87.631935 -74.358589 0.199990 0.690364
86.623833 -74.648605 0.175154 0.767697
nan nan nan 0.000000
nan nan nan 0.000000
130.854645 -62.310493 11.680871 0.223529
119.591469 -65.465790 8.157074 0.223529
119.593758 -65.465149 6.775341 0.223529
128.897614 -62.858746 6.195866 0.223529
129.108612 -62.799633 4.524685 0.223529
131.907623 -62.015511 2.888527 0.968627
132.498947 -61.849854 1.101424 0.968627
118.825600 -65.680344 -0.000065 0.541085
103.110451 -70.082825 -0.000039 0.551324
94.689308 -72.441940 0.199986 0.708110
91.307426 -73.389351 0.199991 0.714199
89.148361 -73.994194 0.200000 0.688930
87.647820 -74.414558 0.199990 0.736141
86.813866 -74.648186 0.129334 0.649073
nan nan nan 0.000000
nan nan nan 0.000000
119.589180 -65.766762 9.537577 0.223529
119.591492 -65.766136 8.145207 0.223529
129.310547 -63.116447 7.924758 0.223529
132.295349 -62.302711 6.476545 0.968627
131.337051 -62.563965 4.633290 0.968765
133.341949 -62.017376 2.911141 0.968627
132.635284 -62.210030 1.100844 0.223529
118.901321 -65.954292 -0.000066 0.540093
103.155815 -70.246956 -0.000039 0.525673
94.718414 -72.547226 0.199985 0.711070
91.329956 -73.471016 0.199997 0.748119
89.166771 -74.060760 0.199999 0.714397
87.663322 -74.470642 0.199990 0.734798
87.013641 -74.647766 0.081073 0.732738
nan nan nan 0.000000
119.586868 -66.066566 10.929697 0.223529
119.589188 -66.065948 9.523443 0.223529
130.720505 -63.114574 9.841560 0.979477
133.026978 -62.503033 8.355961 0.968627
132.626465 -62.609222 6.496237 0.223529
132.629410 -62.608444 4.694036 0.223529
132.632339 -62.607666 2.897420 0.223529
135.509003 -61.844944 1.053879 0.968627
118.975121 -66.228767 -0.000065 0.542153
103.200043 -70.411400 -0.000039 0.539025
94.746590 -72.652763 0.200007 0.749325
91.351936 -73.552826 0.200000 0.727291
89.184708 -74.127449 0.199998 0.735103
87.678429 -74.526833 0.199990 0.684321
87.224075 -74.647301 0.030139 0.653056
119.584518 -66.365250 12.336932 0.223529
119.586891 -66.364639 10.913421 0.223529
nan nan nan 0.000000
132.243500 -63.103237 10.060556 0.968658
131.501160 -63.294529 8.163106 0.709804
132.711472 -62.982651 6.495239 0.223529
134.336197 -62.563984 4.775711 0.971633
136.441727 -62.021427 2.960156 0.968627
137.136932 -61.842285 1.028096 0.968627
119.046989 -66.503761 -0.000065 0.540627
103.243103 -70.576157 -0.000039 0.538979
94.774223 -72.758446 0.200007 0.710628
91.373344 -73.634796 0.200002 0.689906
89.202179 -74.194267 0.199996 0.692653
87.693146 -74.583122 0.199990 0.712367
87.354431 -74.670403 0.000012 0.333135
119.584549 -66.662216 12.318627 0.223529
nan nan nan 0.000000
132.617584 -63.400681 11.940122 0.223529
132.926575 -63.323353 10.150725 0.223529
132.979080 -63.310215 8.327454 0.709804
136.854645 -62.340347 6.837472 0.968627
135.960983 -62.563988 4.853076 0.975952
136.417038 -62.449860 2.958039 0.223529
136.420197 -62.449070 1.041907 0.223529
119.116966 -66.779236 -0.000065 0.541466
103.285019 -70.741203 -0.000039 0.532189
94.801102 -72.864319 0.200008 0.692103
91.394150 -73.716919 0.200009 0.689677
89.219185 -74.261208 0.199996 0.698329
87.707466 -74.639511 0.199990 0.678264
87.368156 -74.724426 0.000011 0.338735
nan nan nan 0.000000
nan nan nan 0.000000
nan nan nan 0.000000
138.532593 -62.356705 10.992452 0.223529
134.877533 -63.244324 8.541317 0.709804
136.410736 -62.871990 6.791698 0.223529
136.577789 -62.831421 4.879353 0.223529
139.894577 -62.025955 3.014951 0.968627
nan nan nan 0.000000
119.184990 -67.055199 -0.000065 0.541390
103.325783 -70.906540 -0.000039 0.542870
94.827255 -72.970375 0.200008 0.679683
91.414421 -73.799171 0.200011 0.686870
89.235725 -74.328255 0.199995 0.666682
87.928215 -74.645782 0.154023 0.745495
87.381500 -74.778549 0.000011 0.339940
nan nan nan 0.000000
nan nan nan 0.000000
nan nan nan 0.000000
136.404404 -63.292622 10.653130 0.223529
136.186081 -63.344032 8.685059 0.709804
140.326370 -62.369133 7.113546 0.968627
139.498779 -62.564003 5.021973 0.980392
140.089554 -62.424896 3.016536 0.223529
139.908554 -62.467518 0.986506 0.223529
119.251099 -67.331627 -0.000065 0.538293
100.990417 -71.631386 0.200024 0.702037
