# This PCD file was generated using the MATLABÂ® pcwrite function
# from Computer Vision ToolboxÂ®.
# .PCD v.7 - Point Cloud Data file format
VERSION .7
FIELDS x y z intensity
SIZE 4 4 4 4
TYPE F F F F
COUNT 1 1 1 1
WIDTH 1198
HEIGHT 1
VIEWPOINT 0 0 0 1 0 0 0
POINTS 1198
DATA ascii
199.111847 119.503197 -0.000001 0.336278
199.464828 121.245636 0.010003 1.000000
199.708923 122.450531 -0.000004 0.339376
181.865219 37.694435 25.695642 0.519478
181.865234 37.694504 22.431259 0.667384
181.865234 37.694481 19.212736 0.573373
181.865234 37.694473 16.032326 0.620417
181.865265 37.694679 12.882630 0.566598
181.585281 36.360504 9.868375 0.678431
181.585297 36.360504 6.714273 0.678431
181.585297 36.360504 3.570302 0.678431
181.865265 37.694679 0.452006 0.653407
193.768982 94.417358 0.200003 0.712993
196.284500 106.404121 -0.000023 0.338140
197.723587 113.261597 0.000010 0.337667
198.525040 117.080582 0.000003 0.333440
199.036697 119.518692 -0.000001 0.341253
199.392319 121.213280 -0.000004 0.336019
199.654327 122.461784 -0.000004 0.329961
181.865219 40.806526 24.933275 0.648280
181.865234 40.806557 21.773930 0.661555
181.865250 40.806656 18.658932 0.649882
181.865234 40.806564 15.580865 0.650996
181.865234 40.806564 12.532526 0.597421
181.585190 39.516960 9.615265 0.678431
181.585190 39.516960 6.562627 0.678431
181.585190 39.516960 3.519787 0.678431
181.865234 40.806564 0.501806 0.629770
193.518829 94.470825 0.200006 0.705608
196.143951 106.559372 0.010020 1.000000
197.604889 113.286942 0.000011 0.337362
198.432983 117.100235 0.000004 0.337850
198.961639 119.534714 -0.000001 0.331426
199.329086 121.226776 -0.000004 0.340810
199.599808 122.473427 -0.000004 0.337758
181.224350 40.869774 24.952421 0.717494
181.224350 40.869781 21.790442 0.475380
181.224350 40.869774 18.672861 0.776745
181.224350 40.869781 15.592202 0.438056
181.224350 40.869766 12.541323 0.597345
181.154099 40.556839 9.539627 0.678431
181.154099 40.556839 6.517309 0.678431
181.154099 40.556839 3.504695 0.678431
181.224350 40.869774 0.500553 0.540856
193.269073 94.526031 0.200008 0.709499
195.951675 106.476387 -0.000023 0.338247
197.486374 113.313118 0.000011 0.339895
198.341064 117.120537 0.000004 0.338201
198.886719 119.551270 -0.000000 0.339849
199.265961 121.240715 -0.000004 0.341070
199.545380 122.485443 -0.000004 0.343633
180.567688 40.869759 24.989014 0.542443
180.567688 40.869781 21.821991 0.616403
180.567688 40.869766 18.699442 0.522026
180.567688 40.869781 15.613870 0.541131
180.567688 40.869766 12.558124 0.568994
180.495148 40.556854 9.551643 0.678431
180.495132 40.556831 6.524510 0.678431
180.495132 40.556824 3.507093 0.678431
180.567688 40.869759 0.498164 0.631434
193.019699 94.582977 0.200011 0.708217
195.823166 106.676086 0.013597 0.706081
197.368057 113.340118 0.000012 0.336187
198.249298 117.141472 0.000004 0.335592
198.811905 119.568336 -0.000000 0.339391
199.202942 121.255096 -0.000004 0.337758
199.491028 122.497841 -0.000004 0.329503
179.908890 40.869766 25.026834 0.592920
179.908890 40.869766 21.854610 0.706447
179.908890 40.869759 18.726921 0.538308
179.908890 40.869766 15.636275 0.700786
179.908890 40.869774 12.575499 0.682322
179.834045 40.556824 9.564075 0.678431
179.834045 40.556816 6.531955 0.678431
179.834030 40.556808 3.509572 0.678431
179.908890 40.869751 0.495692 0.693751
191.823700 90.682404 0.000021 0.538125
195.823624 107.404999 0.071782 0.679484
197.249924 113.367950 0.000012 0.337118
198.157684 117.163055 0.000004 0.337911
198.737213 119.585930 0.000000 0.323400
199.140015 121.269920 -0.000004 0.346059
199.436783 122.510620 -0.000004 0.342061
179.247879 40.869781 25.065914 0.521737
179.247894 40.869789 21.888300 0.549844
179.247879 40.869766 18.755310 0.603128
179.247894 40.869781 15.659415 0.556527
179.247894 40.869781 12.593447 0.454292
179.203796 40.690964 9.565582 0.160784
179.203781 40.690948 6.532858 0.160784
179.203796 40.690956 3.509874 0.172549
179.247894 40.869781 0.493140 0.690700
191.547516 90.749474 0.000020 0.538964
195.824036 108.092400 0.126561 0.723613
197.131973 113.396591 0.000013 0.340108
198.066208 117.185272 0.000005 0.335760
198.662643 119.604042 0.000000 0.335958
199.077194 121.285179 -0.000003 0.333410
199.382614 122.523773 -0.000004 0.342473
178.584610 40.869759 25.106260 0.642588
178.584610 40.869781 21.923084 0.615656
178.519318 40.612709 18.832867 0.678431
178.584610 40.869781 15.683304 0.595041
178.584610 40.869766 12.611972 0.659388
178.505112 40.556808 9.590164 0.678431
178.505127 40.556816 6.547585 0.678431
178.505112 40.556801 3.514779 0.678431
178.584610 40.869766 0.490505 0.649454
191.271805 90.818489 0.000020 0.537072
195.824036 108.740295 0.178097 0.692592
197.014236 113.426064 0.000013 0.335546
197.974899 117.208130 0.000005 0.337758
198.588211 119.622673 0.000000 0.341970
199.014481 121.300873 -0.000003 0.334615
199.328537 122.537308 -0.000004 0.337728
177.918976 40.869766 25.147873 0.586709
177.918976 40.869789 21.958967 0.542077
177.851761 40.612701 18.863186 0.678431
177.918976 40.869774 15.707949 0.482643
177.918976 40.869766 12.631085 0.574807
177.837143 40.556808 9.603833 0.678431
177.837158 40.556824 6.555775 0.678431
177.837143 40.556816 3.517508 0.678431
177.918976 40.869774 0.487785 0.778653
190.996582 90.889404 0.000020 0.537713
195.741409 109.037521 0.200006 0.718303
196.896713 113.456360 0.000013 0.334325
197.883743 117.231621 0.000005 0.335271
198.513901 119.641830 0.000001 0.341619
198.951874 121.317009 -0.000003 0.336843
199.274551 122.551224 -0.000004 0.326574
177.250900 40.869759 25.190767 0.584314
177.250916 40.869797 21.995943 0.577295
177.250885 40.869713 18.846008 0.588190
177.250916 40.869766 15.733348 0.511772
177.250916 40.869774 12.650783 0.612085
177.166748 40.556816 9.617922 0.678431
177.166748 40.556816 6.564217 0.678431
177.166748 40.556824 3.520318 0.678431
177.250900 40.869766 0.484984 0.606989
190.721863 90.962250 0.000020 0.540185
195.593277 109.076813 0.200006 0.694209
196.779388 113.487473 0.000014 0.335332
197.792770 117.255753 0.000005 0.330709
198.439728 119.661499 0.000001 0.341970
198.889389 121.333588 -0.000003 0.335592
199.220673 122.565506 -0.000004 0.341009
176.580322 40.869751 25.234957 0.616571
176.580322 40.869766 22.034056 0.585672
176.580322 40.869743 18.878098 0.689937
176.580322 40.869766 15.759517 0.579919
176.580322 40.869759 12.671081 0.661479
176.493820 40.556816 9.632436 0.678431
176.493820 40.556808 6.572914 0.678431
176.493820 40.556824 3.523216 0.678431
176.580322 40.869774 0.482097 0.541421
190.447662 91.037018 0.000020 0.541985
195.445419 109.117126 0.200006 0.696986
196.662292 113.519409 0.000014 0.337331
197.701950 117.280518 0.000006 0.338964
198.365692 119.681686 0.000001 0.338491
198.827011 121.350594 -0.000002 0.335164
199.166901 122.580177 -0.000004 0.340047
175.907150 40.869743 25.280447 0.595315
175.907150 40.869774 22.073280 0.596490
175.834167 40.612747 18.959759 0.678431
175.907150 40.869774 15.786452 0.628565
175.907150 40.869766 12.691971 0.439384
175.856384 40.690979 9.635944 0.172549
175.856384 40.690956 6.575016 0.160784
175.856384 40.690948 3.523918 0.160784
175.907150 40.869759 0.479126 0.575509
190.173981 91.113678 0.000019 0.539361
195.297836 109.158485 0.200006 0.719112
196.545425 113.552155 0.000014 0.337346
197.611313 117.305916 0.000006 0.337392
198.291794 119.702385 0.000001 0.338781
198.764771 121.368034 -0.000003 0.327199
199.113220 122.595215 -0.000004 0.342962
175.231293 40.869766 25.327257 0.582269
175.231308 40.869781 22.113638 0.621439
175.182434 40.702126 18.976921 0.335332
175.231293 40.869766 15.814177 0.633478
175.231308 40.869781 12.713469 0.472755
175.140076 40.556854 9.662754 0.678431
175.140076 40.556862 6.591078 0.678431
175.140076 40.556854 3.529267 0.678431
175.231293 40.869766 0.476066 0.688579
189.900864 91.192276 0.000019 0.543801
195.150558 109.200867 0.200007 0.718578
196.428787 113.585709 0.000014 0.339315
197.520859 117.331940 0.000006 0.336843
198.218063 119.723602 0.000001 0.337728
198.702637 121.385910 -0.000002 0.338003
199.059662 122.610626 -0.000004 0.337224
174.552689 40.869751 25.375401 0.525979
174.552704 40.869789 22.155146 0.621363
174.552689 40.869751 18.980120 0.575082
174.552689 40.869751 15.842690 0.606546
174.552704 40.869766 12.735581 0.573587
174.459091 40.556839 9.678570 0.678431
174.459106 40.556862 6.600553 0.678431
174.459106 40.556847 3.532424 0.678431
174.552704 40.869766 0.472922 0.686336
189.628281 91.272751 0.000019 0.537392
195.003571 109.244225 0.200003 0.707958
196.312393 113.620087 0.000015 0.335958
197.430588 117.358604 0.000006 0.338003
198.144470 119.745338 0.000002 0.337484
198.640640 121.404221 -0.000002 0.335805
199.006195 122.626411 -0.000004 0.332876
173.871231 40.869759 25.424885 0.592950
173.871246 40.869781 22.197815 0.531777
173.819809 40.702110 19.047972 0.115312
173.871231 40.869774 15.871991 0.560327
173.871231 40.869766 12.758307 0.589731
173.775269 40.556847 9.694822 0.678431
173.775269 40.556854 6.610291 0.678431
173.775269 40.556862 3.535666 0.678431
173.871231 40.869774 0.469689 0.579034
189.356262 91.355148 0.000018 0.546502
194.856873 109.288620 0.200000 0.712688
196.196228 113.655281 0.000015 0.339773
197.340500 117.385895 0.000007 0.333898
198.071014 119.767586 0.000002 0.338949
198.578766 121.422958 -0.000002 0.332311
198.952850 122.642570 -0.000004 0.337163
173.186874 40.869759 25.475719 0.490074
173.106064 40.612701 22.299856 0.460456
173.106079 40.612724 19.102020 0.678431
173.186874 40.869766 15.902100 0.684871
173.186874 40.869759 12.781657 0.554971
173.088501 40.556831 9.711527 0.678431
173.088501 40.556839 6.620300 0.678431
173.088501 40.556847 3.539001 0.678431
173.186890 40.869789 0.466369 0.484825
189.084854 91.439438 0.000018 0.541299
194.710526 109.334076 0.200001 0.715877
196.106323 113.773956 0.009986 1.000000
197.250610 117.413811 0.000007 0.337987
197.997742 119.790344 0.000002 0.336187
198.517029 121.442139 -0.000001 0.342611
198.899612 122.659103 -0.000004 0.338598
172.499481 40.869743 25.527943 0.675761
172.499481 40.869743 22.286680 0.729335
172.499496 40.869766 19.090921 0.639643
172.499496 40.869766 15.933016 0.625284
172.499496 40.869774 12.805635 0.681605
172.398712 40.556839 9.728676 0.678431
172.398712 40.556824 6.630576 0.678431
172.398712 40.556824 3.542421 0.678431
172.499496 40.869774 0.462957 0.576318
188.814011 91.525604 0.000018 0.539147
194.564468 109.380508 0.199997 0.710536
195.991241 113.810585 0.009987 1.000000
197.160919 117.442352 0.000008 0.337285
197.924622 119.813614 0.000002 0.342000
198.455429 121.461739 -0.000001 0.337102
198.846497 122.676010 -0.000004 0.319005
171.808990 40.869759 25.581535 0.615244
171.808990 40.869736 22.332895 0.521553
171.808990 40.869751 19.129854 0.693568
171.809006 40.869781 15.964757 0.625483
171.809006 40.869774 12.830251 0.704875
171.705795 40.556824 9.746283 0.678431
171.705795 40.556816 6.641126 0.666667
171.705795 40.556808 3.545938 0.666667
171.808990 40.869766 0.459457 0.689082
188.543793 91.613678 0.000018 0.541558
194.418732 109.427956 0.199994 0.708675
195.849274 113.765701 0.000016 0.335164
197.071426 117.471527 0.000008 0.338994
197.851654 119.837395 0.000003 0.344976
198.393951 121.481773 -0.000001 0.326711
198.793503 122.693283 -0.000004 0.340505
171.115341 40.869759 25.636530 0.669245
171.028580 40.612740 22.438894 0.678431
171.028580 40.612740 19.219164 0.678431
171.115341 40.869781 15.997322 0.492317
171.115341 40.869774 12.855509 0.426017
171.021240 40.590973 9.761395 0.214038
171.021225 40.590950 6.650176 0.174411
171.021225 40.590958 3.548954 0.168475
171.115341 40.869766 0.455864 0.666514
188.274185 91.703629 0.000017 0.540047
194.273346 109.476425 0.199990 0.705730
195.822525 114.065948 0.031808 0.684520
196.982132 117.501320 0.000008 0.335439
197.778870 119.861687 0.000003 0.333791
198.332626 121.502235 -0.000001 0.343740
198.740616 122.710922 -0.000004 0.340398
170.418381 40.869751 25.692938 0.544106
170.329605 40.612701 22.487680 0.526497
170.329605 40.612709 19.260262 0.538262
170.418381 40.869766 16.030731 0.724636
170.418381 40.869751 12.881420 0.508309
170.310333 40.556862 9.782877 0.678431
170.310333 40.556870 6.663045 0.595712
170.310333 40.556870 3.553240 0.664958
170.418396 40.869789 0.452179 0.561456
188.005219 91.795464 0.000017 0.540825
194.128311 109.525955 0.199991 0.711208
195.821976 114.430252 0.071449 0.704952
196.893051 117.531738 0.000008 0.338903
197.706253 119.886482 0.000003 0.338048
198.271454 121.523125 -0.000000 0.334997
198.687866 122.728935 -0.000004 0.331579
169.718079 40.869743 25.750778 0.661952
169.718063 40.869728 22.478827 0.617792
169.718063 40.869705 19.252808 0.574746
169.718079 40.869759 16.064985 0.605753
169.718079 40.869766 12.907982 0.540200
169.607559 40.556831 9.801880 0.605661
169.607559 40.556831 6.674433 0.587808
169.607559 40.556824 3.557032 0.644358
169.718079 40.869774 0.448399 0.562615
187.736893 91.889160 0.000016 0.536721
193.983612 109.576447 0.199988 0.714977
195.821442 114.780182 0.109435 0.764446
196.804184 117.562775 0.000008 0.332128
197.633804 119.911781 0.000003 0.329900
198.210419 121.544441 -0.000001 0.330465
198.635239 122.747314 -0.000004 0.340139
169.014297 40.869751 25.810068 0.625971
169.014297 40.869743 22.529940 0.538521
169.014282 40.869713 19.295872 0.603967
169.014297 40.869766 16.100090 0.487190
169.014297 40.869766 12.935209 0.476326
168.901337 40.556854 9.821352 0.678431
168.901321 40.556839 6.686100 0.678431
168.901337 40.556854 3.560920 0.678431
169.014297 40.869774 0.444527 0.576638
187.469238 91.984749 0.000016 0.539101
193.839279 109.627998 0.199988 0.714748
195.820938 115.116615 0.145864 0.677348
196.715546 117.594429 0.000009 0.332631
197.561539 119.937592 0.000004 0.337987
198.149536 121.566185 -0.000001 0.337942
198.582748 122.766060 -0.000003 0.327367
168.306976 40.869743 25.870815 0.695552
168.212143 40.612732 22.641487 0.678431
168.212128 40.612701 19.389847 0.678431
168.306976 40.869766 16.136066 0.531868
168.212128 40.612724 12.994628 0.386954
168.191513 40.556831 9.841310 0.678431
168.191513 40.556831 6.698058 0.678431
180.950287 75.137291 2.961741 0.601068
180.950256 75.137238 1.038258 0.609064
187.202255 92.082199 0.000016 0.543587
193.695328 109.680565 0.199990 0.696239
195.820450 115.440346 0.180830 0.740993
196.627121 117.626709 0.000009 0.336950
197.489456 119.963905 0.000004 0.343465
198.088806 121.588348 -0.000000 0.342321
198.530380 122.785172 -0.000003 0.337499
167.595978 40.869751 25.933046 0.518959
167.595993 40.869766 22.635975 0.565713
167.596008 40.869789 19.385187 0.593790
167.595993 40.869766 16.172916 0.721660
167.596008 40.869797 12.991685 0.687129
167.478043 40.556831 9.861748 0.678431
167.478043 40.556824 6.710306 0.673655
180.950256 76.300575 2.943906 0.616556
180.950241 76.300552 1.056095 0.610498
186.935944 92.181488 0.000016 0.544533
193.551712 109.734070 0.199986 0.709453
195.775818 115.634956 0.200013 0.677195
196.538925 117.659599 0.000010 0.334386
197.417557 119.990723 0.000004 0.334813
198.028229 121.610939 0.000000 0.335500
198.478165 122.804657 -0.000003 0.330617
166.881241 40.869751 25.996767 0.623819
166.881256 40.869774 22.690918 0.589197
166.881256 40.869804 19.431479 0.511986
166.881256 40.869759 16.210657 0.513542
166.881256 40.869781 13.020952 0.604578
178.348328 70.661697 7.237686 0.773220
166.760818 40.556862 6.722843 0.678431
180.950241 77.421555 2.926762 0.625101
180.950241 77.421555 1.073237 0.599725
186.670349 92.282669 0.000016 0.541192
193.408493 109.788635 0.199987 0.707454
195.673737 115.673843 0.200013 0.704173
196.450974 117.693108 0.000010 0.342397
197.345840 120.018036 0.000004 0.333867
197.967819 121.633957 0.000000 0.344930
198.426071 122.824493 -0.000003 0.345098
166.162659 40.869743 26.062019 0.671839
166.061661 40.612740 22.806822 0.678431
166.061661 40.612740 19.529129 0.678431
166.162659 40.869766 16.249294 0.553262
166.061661 40.612724 13.082691 0.655344
178.242126 71.610802 7.168313 0.648112
166.092392 40.690941 6.728608 0.129946
180.870514 78.299805 2.913842 0.618372
180.870514 78.299805 1.086158 0.601221
186.405472 92.385689 0.000016 0.546395
193.265671 109.844200 0.199988 0.704387
195.571930 115.713432 0.200013 0.693080
196.363235 117.727226 0.000010 0.339879
197.274323 120.045845 0.000004 0.337697
197.907578 121.657387 0.000000 0.340673
198.374115 122.844704 -0.000003 0.335668
165.440125 40.869743 26.128798 0.575189
165.337036 40.612709 22.864573 0.612253
165.337036 40.612679 19.577789 0.678431
165.440125 40.869774 16.288841 0.581262
165.337036 40.612694 13.113453 0.522408
178.123611 72.497498 7.104322 0.636271
177.988831 72.161423 5.076002 0.625010
180.450470 78.299805 2.916377 0.596918
180.450470 78.299797 1.083622 0.610895
186.141296 92.490532 0.000016 0.544976
193.123230 109.900764 0.199990 0.706981
195.470413 115.753738 0.200013 0.694987
196.275757 117.761963 0.000010 0.337835
197.203003 120.074165 0.000005 0.340368
197.847488 121.681244 0.000000 0.335134
198.322311 122.865273 -0.000002 0.334798
164.713501 40.869743 26.197134 0.616938
164.713531 40.869774 22.863674 0.611627
164.713531 40.869789 19.577021 0.712596
164.713516 40.869759 16.329308 0.716640
177.180984 71.341309 9.325438 0.596353
178.008011 73.362625 7.042132 0.644984
177.988815 73.315704 5.023446 0.632822
180.028061 78.299805 2.918973 0.622263
180.028061 78.299797 1.081027 0.618555
185.877884 92.597244 0.000016 0.540459
192.981171 109.958267 0.199986 0.708339
195.369171 115.794754 0.200013 0.682918
196.188507 117.797295 0.000010 0.338140
197.131882 120.102974 0.000004 0.325643
197.787567 121.705513 0.000000 0.338933
198.270645 122.886200 -0.000003 0.339712
163.982758 40.869736 26.267042 0.571740
163.982758 40.869759 22.923954 0.591882
163.982773 40.869774 19.627810 0.541604
163.982758 40.869743 16.370705 0.589807
177.486450 73.227509 9.111475 0.687663
177.988831 74.431335 6.961747 0.639902
177.988800 74.431259 4.972795 0.622629
179.603241 78.299797 2.921627 0.599023
179.603241 78.299797 1.078372 0.597879
185.615219 92.705780 0.000016 0.540597
192.839539 110.016808 0.199987 0.706401
195.268219 115.836464 0.200013 0.703502
196.127426 117.895325 0.009989 1.000000
197.060974 120.132278 0.000005 0.340093
197.727814 121.730202 0.000001 0.340490
198.219131 122.907486 -0.000002 0.343908
nan nan nan 0.000000
163.138351 40.612755 23.045929 0.678431
163.138351 40.612747 19.730577 0.678431
175.897324 70.595337 11.621034 0.950576
177.491852 74.342346 8.993048 0.399329
177.988831 75.510208 6.880226 0.604105
177.988800 75.510132 4.923953 0.613245
179.175919 78.299805 2.924345 0.625238
179.196808 78.348877 1.076530 0.359487
185.353302 92.816147 0.000015 0.537240
191.743286 107.832123 0.000004 0.538354
195.167557 115.878891 0.200013 0.699809
196.041122 117.931702 0.009990 1.000000
196.990250 120.162086 0.000005 0.345480
197.668243 121.755310 0.000001 0.343572
198.167755 122.929131 -0.000002 0.340185
nan nan nan 0.000000
162.508301 40.869774 23.048649 0.761563
162.508301 40.869766 19.732862 0.527474
176.006866 71.985596 11.425144 0.692485
177.488174 75.400215 8.881399 0.694118
177.988815 76.554245 6.801574 0.616587
177.988800 76.554184 4.876828 0.609247
178.746063 78.299789 2.927120 0.610178
178.767365 78.348885 1.073755 0.296529
185.092178 92.928352 0.000015 0.541070
191.586823 107.899338 0.000003 0.547234
195.067200 115.922005 0.200012 0.676997
195.955078 117.968681 0.009990 1.000000
196.919754 120.192383 0.000005 0.334874
197.608856 121.780830 0.000001 0.338888
198.116547 122.951141 -0.000002 0.332296
nan nan nan 0.000000
nan nan nan 0.000000
161.764404 40.869751 19.787167 0.678416
176.111755 73.319809 11.237614 0.787579
177.537094 76.543549 8.758661 0.706523
177.988800 77.565201 6.725643 0.602670
177.988800 77.565170 4.831333 0.621225
178.313599 78.299782 2.929959 0.604379
178.320831 78.316162 1.070334 0.227985
184.831818 93.042343 0.000014 0.540246
191.430847 107.967651 0.000003 0.539498
194.967133 115.965828 0.200012 0.713695
195.842087 117.944733 0.000012 0.329870
196.849457 120.223160 0.000006 0.335271
197.549637 121.806770 0.000001 0.337270
198.065491 122.973503 -0.000002 0.337774
183.930817 91.734322 12.588669 0.432441
183.894455 91.653610 11.149068 0.209751
183.930817 91.734322 9.691711 0.414801
183.894470 91.653610 8.283639 0.213748
183.930817 91.734314 6.863041 0.404746
183.930817 91.734322 5.466133 0.431922
183.930817 91.734314 4.076707 0.418341
183.930817 91.734322 2.691741 0.408988
183.930817 91.734322 1.308259 0.377142
184.572281 93.158173 0.000014 0.542473
191.275345 108.037056 0.000003 0.548226
194.867386 116.010345 0.200012 0.694896
195.816391 118.116875 0.021778 0.725689
196.779388 120.254440 0.000006 0.333043
197.490601 121.833115 0.000001 0.332021
198.014587 122.996223 -0.000002 0.336919
183.930817 92.441841 12.427340 0.421530
183.850830 92.267532 11.032268 0.678431
183.930817 92.441833 9.574521 0.360006
183.850830 92.267532 8.203421 0.678431
183.930817 92.441833 6.788949 0.392706
183.930817 92.441833 5.413323 0.404669
183.943298 92.469040 4.043595 0.269566
183.930847 92.441887 2.681201 0.402808
183.930847 92.441887 1.318799 0.358450
184.313568 93.275833 0.000014 0.543191
191.120331 108.107544 0.000003 0.548928
194.767944 116.055557 0.200012 0.689006
195.816055 118.339340 0.051796 0.694331
196.709534 120.286201 0.000006 0.342138
197.431747 121.859879 0.000001 0.328786
197.963837 123.019295 -0.000001 0.337179
183.930817 93.128159 12.271344 0.378714
183.850830 92.957016 10.897143 0.678431
183.930817 93.128159 9.461206 0.396155
183.930817 93.128159 8.082594 0.422431
183.930817 93.128143 6.717306 0.406546
183.930817 93.128159 5.362258 0.405051
183.850830 92.957016 4.023751 0.678431
183.930847 93.128220 2.671010 0.410697
183.930847 93.128220 1.328990 0.396780
184.055664 93.395279 0.000013 0.542779
190.965820 108.179108 0.000003 0.531502
194.668839 116.101471 0.200012 0.675349
195.815720 118.555168 0.080826 0.757092
196.639908 120.318451 0.000006 0.332509
197.373093 121.887054 0.000002 0.332280
197.913269 123.042725 -0.000001 0.335561
183.930817 93.794281 12.120434 0.383017
183.850830 93.626213 10.766420 0.678431
183.930817 93.794281 9.351583 0.377234
183.930817 93.794281 7.993224 0.376562
183.930817 93.794281 6.647995 0.402564
183.930817 93.794289 5.312859 0.399451
183.850830 93.626221 3.994017 0.678431
183.930862 93.794388 2.661150 0.379797
183.930862 93.794388 1.338850 0.411521
183.930862 93.794388 0.015132 0.401526
190.811813 108.251740 0.000003 0.529229
194.570038 116.148064 0.200011 0.708003
195.815414 118.764679 0.108915 0.750362
196.570511 120.351189 0.000006 0.334096
197.314621 121.914627 0.000002 0.336172
197.862854 123.066505 -0.000001 0.350469
183.930817 94.441162 11.974369 0.412177
183.850830 94.276062 10.639899 0.678431
183.930817 94.441147 9.245480 0.425879
183.930817 94.441154 7.906726 0.372961
183.930817 94.441147 6.580914 0.423957
183.930817 94.441154 5.265047 0.391089
183.850815 94.276047 3.965239 0.678431
183.930878 94.441277 2.651607 0.411795
183.930878 94.441269 1.348392 0.394278
183.930878 94.441277 0.043780 0.401846
190.658295 108.325462 0.000003 0.540734
194.471573 116.195343 0.200011 0.698940
195.815094 118.968147 0.136102 0.671489
196.501328 120.384415 0.000007 0.337545
197.256348 121.942619 0.000002 0.336141
197.812607 123.090637 -0.000001 0.336782
183.930817 95.069626 11.832939 0.408011
183.930817 95.069633 10.478330 0.394827
183.930817 95.069626 9.142743 0.407889
183.930817 95.069633 7.822972 0.425422
183.930817 95.069626 6.515958 0.418830
183.930817 95.069633 5.218749 0.394842
183.850830 94.907440 3.937373 0.678431
183.930893 95.069786 2.642367 0.397864
183.930893 95.069786 1.357633 0.405158
183.930893 95.069778 0.071520 0.425422
190.505325 108.400253 0.000003 0.541955
194.373428 116.243317 0.200011 0.674327
195.814804 119.165863 0.162431 0.720714
196.432388 120.418114 0.000007 0.344625
197.198257 121.971008 0.000002 0.337331
197.762527 123.115112 -0.000001 0.347189
183.930817 95.680573 11.695927 0.408118
183.930817 95.680580 10.360192 0.379705
183.930817 95.680580 9.043216 0.400229
183.930817 95.680580 7.741834 0.442008
183.906738 95.632607 6.459206 0.343359
183.930817 95.680588 5.173898 0.382605
183.906738 95.632607 3.904253 0.344457
183.930908 95.680756 2.633417 0.383001
183.930908 95.680756 1.366584 0.424933
183.930908 95.680756 0.098392 0.413306
190.352859 108.476105 0.000003 0.539040
194.275635 116.291977 0.200010 0.696223
195.814514 119.358078 0.187939 0.759121
196.363693 120.452301 0.000007 0.329793
197.140381 121.999809 0.000003 0.331777
197.712616 123.139946 -0.000001 0.343343
183.930817 96.274750 11.563138 0.407568
183.930817 96.274757 10.245699 0.391150
183.930817 96.274750 8.946757 0.413336
183.930817 96.274750 7.663198 0.403754
183.850830 96.118118 6.412279 0.678431
183.930817 96.274757 5.130432 0.370306
183.850830 96.118118 3.884215 0.678431
183.930908 96.274963 2.624741 0.397848
183.930908 96.274963 1.375259 0.411688
183.930908 96.274948 0.124437 0.398810
190.200928 108.553009 0.000002 0.532860
194.178177 116.341309 0.200010 0.687343
195.775421 119.469063 0.200008 0.676036
196.295227 120.486961 0.000007 0.339193
197.082703 122.029007 0.000003 0.331701
197.662888 123.165123 -0.000001 0.333242
183.930817 96.852913 11.434391 0.397070
183.930817 96.852921 10.134686 0.421241
183.850830 96.698936 8.884804 0.678431
183.930817 96.852921 7.586957 0.426352
183.850830 96.698936 6.352879 0.678431
183.930817 96.852921 5.088286 0.416510
183.850830 96.698936 3.858848 0.678431
183.930923 96.853127 2.616329 0.399039
183.930923 96.853119 1.383670 0.415885
183.930923 96.853134 0.149688 0.409751
190.049545 108.630989 0.000002 0.547066
194.081070 116.391327 0.200010 0.708797
195.700119 119.507858 0.200009 0.713603
196.227005 120.522095 0.000007 0.335668
197.025238 122.058617 0.000003 0.331899
197.613327 123.190651 -0.000000 0.337606
183.850815 97.264336 11.352405 0.678431
183.930817 97.415710 10.027020 0.358480
183.850815 97.264328 8.793679 0.678431
183.930817 97.415710 7.513009 0.349905
183.850815 97.264336 6.295264 0.678431
183.930817 97.415726 5.047411 0.386343
183.850815 97.264336 3.834244 0.678431
183.930939 97.415955 2.608172 0.380529
183.930939 97.415955 1.391828 0.372366
183.930939 97.415955 0.174180 0.397055
189.898712 108.710014 0.000002 0.531563
193.984314 116.442024 0.200010 0.675090
195.625076 119.547173 0.200009 0.737926
196.159042 120.557709 0.000007 0.327611
196.967972 122.088615 0.000003 0.339498
197.563965 123.216522 -0.000000 0.348760
183.850815 97.815002 11.230674 0.678431
183.930817 97.963867 9.922537 0.430701
183.850830 97.815010 8.705252 0.678431
183.930817 97.963867 7.441250 0.400824
183.850830 97.815010 6.239356 0.672328
183.930817 97.963882 5.007745 0.398749
183.850830 97.815010 3.810369 0.677211
183.930939 97.964119 2.600256 0.403403
183.930939 97.964119 1.399745 0.413703
183.930954 97.964127 0.197947 0.399130
189.748444 108.790092 0.000002 0.536690
193.887909 116.493385 0.200009 0.698314
195.550308 119.587021 0.200009 0.682322
196.117294 120.642136 0.009991 1.000000
196.910919 122.119019 0.000003 0.338445
197.514771 123.242737 -0.000000 0.335515
183.850815 98.351547 11.112510 0.672648
183.930801 98.497932 9.821121 0.365026
183.850815 98.351547 8.619416 0.678431
183.930817 98.497940 7.371595 0.396307
183.850815 98.351547 6.185088 0.678431
183.930817 98.497940 4.969243 0.373541
183.850830 98.351547 3.787193 0.675547
183.930954 98.498207 2.592571 0.410971
183.930954 98.498207 1.407429 0.406470
183.930954 98.498207 0.221016 0.404334
189.598724 108.871223 0.000002 0.541192
193.791870 116.545433 0.200009 0.735348
195.475830 119.627373 0.200009 0.666010
196.050171 120.678513 0.009992 1.000000
196.854080 122.149818 0.000003 0.336248
197.465759 123.269295 0.000000 0.319921
183.850815 98.874557 10.997763 0.678431
183.930801 99.018547 9.722636 0.400961
183.850815 98.874557 8.536060 0.678431
183.930817 99.018555 7.303955 0.403891
183.850815 98.874557 6.132388 0.678431
183.930817 99.018562 4.931853 0.391730
183.850830 98.874573 3.764688 0.676036
183.930969 99.018845 2.585109 0.390677
183.930969 99.018845 1.414891 0.409781
183.930969 99.018837 0.243418 0.359197
189.449570 108.953392 0.000002 0.546471
193.696198 116.598137 0.200009 0.693904
195.401627 119.668251 0.200009 0.691615
195.983292 120.715355 0.009992 1.000000
196.797455 122.181015 0.000003 0.339300
197.416931 123.296188 0.000000 0.332906
183.850830 99.384583 10.886298 0.678431
183.930817 99.526245 9.626966 0.410147
183.850830 99.384590 8.455092 0.678431
183.930817 99.526245 7.238249 0.405371
183.850830 99.384590 6.081195 0.678431
183.930817 99.526245 4.895533 0.424506
183.850830 99.384590 3.742828 0.678431
183.930984 99.526550 2.577859 0.413275
183.930984 99.526550 1.422140 0.414008
183.930984 99.526543 0.265180 0.418692
189.300995 109.036591 0.000002 0.529641
193.600891 116.651512 0.200009 0.700816
195.327713 119.709648 0.200009 0.734447
195.889694 120.704887 0.000008 0.334951
196.741058 122.212608 0.000004 0.336965
197.368301 123.323425 -0.000000 0.349172
183.850830 99.882156 10.777984 0.678431
183.930817 100.021515 9.534004 0.398840
183.850830 99.882149 8.376414 0.678431
183.930817 100.021515 7.174402 0.444038
183.850830 99.882141 6.031451 0.678431
183.930817 100.021523 4.860241 0.401846
183.850830 99.882149 3.721586 0.678431
183.930984 100.021828 2.570817 0.429648
183.930984 100.021828 1.429184 0.391592
183.930984 100.021835 0.286326 0.415381
189.153015 109.120834 0.000001 0.554635
193.505951 116.705544 0.200008 0.704402
195.254089 119.751556 0.200009 0.735439
195.823013 120.742851 0.000008 0.331212
196.684875 122.244591 0.000004 0.334081
197.319855 123.351006 0.000000 0.338537
183.850830 100.367760 10.672698 0.678431
183.930817 100.504898 9.443640 0.387060
183.850830 100.367752 8.299931 0.678431
183.930817 100.504898 7.112339 0.434272
183.850830 100.367752 5.983096 0.678431
183.930817 100.504906 4.825935 0.394003
183.850830 100.367752 3.700937 0.678431
183.931000 100.505219 2.563970 0.414664
183.931000 100.505219 1.436031 0.418997
183.931000 100.505219 0.306882 0.422553
189.005615 109.206116 0.000001 0.548608
193.411407 116.760254 0.200008 0.730968
195.180771 119.793983 0.200009 0.667659
195.812210 120.876656 0.020099 0.696468
196.628922 122.276962 0.000004 0.333486
197.271606 123.378922 0.000000 0.332830
183.930817 100.976837 10.531023 0.400732
183.930817 100.976837 9.355769 0.388815
183.850830 100.841866 8.225565 0.678431
183.930817 100.976830 7.051991 0.397742
183.850830 100.841866 5.936078 0.678431
183.930817 100.976837 4.792575 0.443320
183.850830 100.841858 3.680857 0.678431
183.931015 100.977173 2.557312 0.436576
183.931015 100.977173 1.442688 0.416205
183.931000 100.977165 0.326869 0.439414
188.858826 109.292419 0.000001 0.527367
193.317245 116.815613 0.200008 0.725017
195.107742 119.836914 0.200009 0.713542
195.811996 121.025276 0.043390 0.694209
196.573181 122.309731 0.000004 0.337377
197.223557 123.407173 0.000001 0.334035
183.930817 101.437790 10.431896 0.384955
183.930801 101.437790 9.270301 0.382498
183.930817 101.437798 8.125011 0.387640
183.930817 101.437790 6.993289 0.399115
183.850830 101.304947 5.890343 0.678431
183.930817 101.437790 4.760128 0.434089
183.850830 101.304947 3.661326 0.678431
183.931015 101.438141 2.550836 0.403647
183.931015 101.438141 1.449164 0.390723
183.931015 101.438141 0.346311 0.374594
188.712631 109.379745 0.000001 0.544335
193.223465 116.871628 0.200008 0.698924
195.035019 119.880363 0.200009 0.691188
195.811768 121.170448 0.066047 0.721675
196.517685 122.342880 0.000004 0.331945
197.175705 123.435760 0.000001 0.330602
183.930817 101.888168 10.335453 0.419089
183.930817 101.888168 9.187141 0.411460
183.930817 101.888176 8.054953 0.440040
183.930817 101.888168 6.936176 0.407828
183.850830 101.757401 5.845844 0.678431
183.930817 101.888176 4.728557 0.415351
183.850830 101.757401 3.642324 0.678431
183.931030 101.888527 2.544536 0.442069
183.931030 101.888527 1.455465 0.416846
183.931030 101.888527 0.365227 0.401053
188.567047 109.468086 0.000001 0.542947
193.130081 116.928291 0.200007 0.707866
194.962585 119.924316 0.200009 0.679423
195.811554 121.312302 0.088091 0.737484
196.462418 122.376427 0.000004 0.340414
197.128052 123.464684 0.000001 0.326635
183.930817 102.328400 10.241584 0.418326
183.930817 102.328400 9.106203 0.393332
183.930817 102.328400 7.986765 0.434180
183.930817 102.328400 6.880588 0.419135
183.850830 102.199654 5.802534 0.678431
183.930817 102.328400 4.697830 0.409537
183.850815 102.199646 3.623829 0.678431
183.931030 102.328766 2.538403 0.422263
183.931030 102.328766 1.461597 0.383841
183.931030 102.328758 0.383637 0.405356
188.422089 109.557442 0.000001 0.531151
193.037094 116.985619 0.200008 0.713176
194.890472 119.968765 0.200009 0.706264
195.811340 121.450958 0.109549 0.671778
196.407394 122.410347 0.000004 0.338140
197.080597 123.493927 0.000001 0.339071
183.930801 102.758820 10.150203 0.389746
183.930817 102.758827 9.027409 0.401434
183.930817 102.758820 7.920385 0.391638
183.930817 102.758827 6.826471 0.409903
183.885056 102.686317 5.752994 0.251942
183.930817 102.758827 4.667915 0.391684
183.885056 102.686310 3.602673 0.251148
183.931046 102.759193 2.532433 0.410315
183.931046 102.759193 1.467567 0.405707
183.931046 102.759193 0.401560 0.404303
188.277771 109.647804 0.000001 0.530190
192.944504 117.043579 0.200008 0.718379
194.818680 120.013725 0.200009 0.725887
195.811127 121.586548 0.130440 0.692195
196.352600 122.444656 0.000004 0.321477
197.033356 123.523514 0.000001 0.328649
183.930801 103.179840 10.061212 0.436957
183.930817 103.179848 8.950677 0.397971
183.930817 103.179840 7.855742 0.419379
183.930817 103.179848 6.773771 0.411551
183.930817 103.179848 5.702258 0.415442
183.930817 103.179848 4.638784 0.405295
183.850830 103.055023 3.588291 0.678431
183.931061 103.180222 2.526619 0.376822
183.931061 103.180222 1.473382 0.396826
183.931046 103.180222 0.419014 0.447379
188.134064 109.739182 0.000000 0.538857
192.852341 117.102196 0.200007 0.691096
194.747192 120.059181 0.200009 0.742611
195.810928 121.719185 0.150785 0.662043
196.298050 122.479347 0.000005 0.336538
196.986313 123.553421 0.000001 0.334905
183.930801 103.591774 9.974527 0.403647
183.899521 103.543701 8.888325 0.256641
183.930801 103.591782 7.792774 0.393668
183.930817 103.591782 6.722438 0.416480
183.930817 103.591782 5.662447 0.393088
183.930817 103.591782 4.610411 0.413245
183.899536 103.543709 3.566824 0.263722
183.931061 103.592163 2.520956 0.429831
183.931061 103.592163 1.479044 0.406531
183.931061 103.592163 0.436015 0.409216
187.991013 109.831551 0.000000 0.533242
191.812332 115.704193 -0.000003 0.550912
194.676025 120.105133 0.200009 0.669459
195.810730 121.848969 0.170605 0.767330
196.243729 122.514420 0.000005 0.341970
196.939499 123.583664 0.000001 0.342351
183.741776 103.708847 9.975965 0.416480
183.688919 103.628853 8.897887 0.678431
183.741776 103.708855 7.793818 0.437858
183.741776 103.708855 6.723291 0.394018
183.741776 103.708862 5.663107 0.383261
183.741776 103.708862 4.610880 0.383154
183.688919 103.628860 3.568999 0.678431
183.741760 103.708832 2.521057 0.370214
183.741760 103.708832 1.478942 0.408438
183.741760 103.708832 0.435710 0.402090
187.848618 109.924927 0.000000 0.537896
191.710831 115.770744 -0.000003 0.545144
194.605179 120.151588 0.200009 0.714855
195.810532 121.976013 0.189916 0.793072
196.189667 122.549866 0.000005 0.332952
196.892883 123.614227 0.000002 0.342245
183.474106 103.708847 10.013121 0.393286
183.425690 103.636665 8.927987 0.505974
183.474106 103.708847 7.820809 0.431373
183.474106 103.708862 6.745293 0.433356
183.474106 103.708862 5.680172 0.408072
183.474106 103.708855 4.623043 0.404440
183.420441 103.628860 3.576308 0.678431
183.474091 103.708832 2.523485 0.397452
183.474091 103.708832 1.476515 0.420935
183.474091 103.708832 0.428422 0.406928
187.706863 110.019287 0.000000 0.548516
191.609802 115.838005 -0.000003 0.564004
194.534668 120.198532 0.200009 0.690135
195.783615 122.060547 0.200005 0.679194
196.135864 122.585693 0.000005 0.334569
196.846481 123.645119 0.000002 0.339269
183.203903 103.708847 10.051018 0.411017
183.203918 103.708862 8.941889 0.405219
183.203918 103.708855 7.848337 0.429603
183.203918 103.708855 6.767736 0.424582
183.203918 103.708855 5.697577 0.389288
183.203903 103.708855 4.635449 0.377783
183.149445 103.628853 3.583763 0.678431
183.203888 103.708824 2.525961 0.394369
183.203888 103.708824 1.474039 0.398596
183.203888 103.708824 0.420989 0.398535
187.565781 110.114639 -0.000000 0.537392
191.509247 115.905960 -0.000003 0.542657
194.464462 120.245972 0.200009 0.682139
195.726395 122.099220 0.200006 0.742229
196.108322 122.660110 0.009993 1.000000
196.800293 123.676331 0.000002 0.333135
182.931137 103.708855 10.089670 0.420645
182.931137 103.708862 8.975218 0.412284
182.931137 103.708855 7.876415 0.407843
182.931137 103.708855 6.790626 0.404349
182.915909 103.686829 5.718410 0.518578
182.931137 103.708855 4.648101 0.390936
182.915924 103.686829 3.587904 0.507576
182.931122 103.708832 2.528485 0.393698
182.931122 103.708832 1.471514 0.418143
182.931122 103.708824 0.413409 0.435126
187.425354 110.210968 -0.000000 0.552941
191.409164 115.974617 -0.000004 0.522881
194.394608 120.293892 0.200009 0.677745
195.669449 122.138290 0.200007 0.671870
196.055283 122.696503 0.009993 1.000000
196.754333 123.707863 0.000002 0.324681
182.655716 103.708847 10.129095 0.361654
182.655716 103.708855 9.009212 0.395117
182.655716 103.708855 7.905054 0.369802
182.655731 103.708855 6.813972 0.359167
182.599594 103.628860 5.744678 0.677836
182.655731 103.708862 4.661007 0.356878
182.599594 103.628853 3.599122 0.678431
182.655701 103.708824 2.531061 0.354757
182.655701 103.708832 1.468939 0.370504
182.655701 103.708824 0.405676 0.374960
187.285614 110.308273 -0.000000 0.546975
191.309555 116.043976 -0.000004 0.556680
194.325089 120.342300 0.200009 0.724773
195.612778 122.177757 0.200007 0.730587
196.002502 122.733261 0.009994 1.000000
196.708588 123.739716 0.000002 0.343938
182.377594 103.708855 10.169306 0.403723
182.377594 103.708855 9.043882 0.425086
182.377594 103.708855 7.934264 0.439567
182.377594 103.708855 6.837785 0.432593
182.320633 103.628860 5.763200 0.678431
182.377594 103.708855 4.674170 0.435889
182.320633 103.628853 3.607033 0.678431
182.377563 103.708832 2.533688 0.445808
182.377563 103.708832 1.466312 0.439063
182.377563 103.708824 0.397790 0.403571
187.146545 110.406555 -0.000001 0.520989
191.210449 116.114029 -0.000004 0.528420
194.255905 120.391197 0.200008 0.715038
195.556381 122.217621 0.200007 0.678019
195.923141 122.732719 0.000006 0.340688
196.663071 123.771896 0.000002 0.326253
182.096680 103.708855 10.210318 0.417014
182.096680 103.708855 9.079246 0.411063
182.096695 103.708862 7.964054 0.397742
182.096695 103.708862 6.862070 0.437827
182.038879 103.628853 5.782094 0.678431
182.096695 103.708862 4.687595 0.427344
182.038879 103.628853 3.615100 0.678431
182.096664 103.708832 2.536367 0.412207
182.096664 103.708832 1.463633 0.423194
182.096664 103.708832 0.389747 0.400168
187.008179 110.505798 -0.000001 0.528984
191.111816 116.184769 -0.000004 0.548852
194.187073 120.440575 0.200009 0.674754
195.500259 122.257874 0.200007 0.730144
195.870621 122.770401 0.000006 0.341421
196.617767 123.804382 0.000002 0.338033
181.812927 103.708847 10.252149 0.396628
181.812927 103.708855 9.115314 0.409964
181.812927 103.708862 7.994438 0.407034
181.812927 103.708862 6.886843 0.436820
181.796768 103.686813 5.793095 0.485801
181.812927 103.708862 4.701288 0.379675
181.796753 103.686806 3.619798 0.480934
181.812912 103.708824 2.539101 0.430365
181.812912 103.708824 1.460899 0.446921
181.812912 103.708832 0.381542 0.442283
186.870514 110.606026 -0.000001 0.538186
191.013687 116.256203 -0.000004 0.543069
194.118591 120.490433 0.200008 0.750683
195.444427 122.298515 0.200007 0.686259
195.818344 122.808449 0.000006 0.327169
196.572708 123.837189 0.000002 0.329915
181.526245 103.708847 10.294815 0.431312
181.526260 103.708855 9.152102 0.411215
181.526245 103.708855 8.025433 0.404211
181.526260 103.708855 6.912108 0.407599
181.466736 103.628860 5.821015 0.678431
181.526260 103.708855 4.715255 0.410315
181.466721 103.628853 3.631722 0.678431
181.526230 103.708832 2.541887 0.433371
181.526230 103.708832 1.458112 0.418235
181.526230 103.708832 0.373175 0.412116
186.733536 110.707199 -0.000001 0.532143
190.916061 116.328308 -0.000005 0.547189
194.050446 120.540764 0.200008 0.735821
195.388870 122.339546 0.200006 0.726070
195.809143 122.904366 0.015487 0.718883
196.527863 123.870308 0.000002 0.335683
181.236572 103.708855 10.338331 0.408423
181.236588 103.708855 9.189624 0.424689
181.236588 103.708855 8.057045 0.403922
181.236588 103.708855 6.937881 0.390967
181.176178 103.628860 5.841063 0.678431
181.236572 103.708855 4.729500 0.430091
181.176178 103.628853 3.640283 0.678431
181.236572 103.708832 2.544731 0.403571
181.236572 103.708832 1.455270 0.423804
181.236557 103.708832 0.364640 0.406470
186.597275 110.809326 -0.000001 0.545464
190.818954 116.401108 -0.000004 0.566918
193.982651 120.591568 0.200008 0.721279
195.333618 122.380966 0.200006 0.693202
195.808975 123.010612 0.033828 0.643534
196.483261 123.903740 0.000003 0.330510
180.943848 103.708847 10.382718 0.416693
180.943848 103.708862 9.227894 0.412360
180.943848 103.708855 8.089288 0.426337
180.943848 103.708855 6.964165 0.394018
180.914322 103.670319 5.855502 0.151934
180.943848 103.708862 4.744029 0.400763
180.914322 103.670319 3.646448 0.147799
180.943832 103.708832 2.547631 0.400565
180.943832 103.708832 1.452370 0.431052
180.943832 103.708832 0.355935 0.411063
186.461731 110.912399 -0.000002 0.537255
190.722336 116.474579 -0.000004 0.555505
193.915222 120.642853 0.200008 0.762493
195.278641 122.422775 0.200007 0.674571
195.808823 123.114914 0.051740 0.680262
196.438904 123.937477 0.000002 0.333104
180.647949 103.708847 10.427994 0.404440
180.647949 103.708855 9.266932 0.468528
180.647949 103.708855 8.122177 0.432135
180.647949 103.708855 6.990976 0.396612
180.585785 103.628860 5.882366 0.678431
180.647964 103.708862 4.758849 0.412757
180.585785 103.628853 3.657921 0.678431
180.647934 103.708832 2.550588 0.422644
180.647934 103.708832 1.449412 0.444144
180.647934 103.708832 0.347055 0.428473
186.326904 111.016418 -0.000002 0.539590
190.626236 116.548714 -0.000005 0.527611
193.848145 120.694595 0.200008 0.687922
195.223953 122.464966 0.200006 0.671016
195.808655 123.217346 0.069234 0.740887
196.394760 123.971535 0.000003 0.342885
180.348846 103.708855 10.474175 0.406302
180.348846 103.708855 9.306753 0.380957
180.348846 103.708855 8.155723 0.437949
180.348846 103.708855 7.018325 0.406928
180.285767 103.628860 5.903639 0.678431
180.348846 103.708855 4.773966 0.413046
180.285767 103.628860 3.667005 0.678431
180.348816 103.708832 2.553605 0.432349
180.348816 103.708832 1.446395 0.448005
180.348816 103.708832 0.337998 0.421836
186.192810 111.121376 -0.000002 0.537316
190.530670 116.623520 -0.000005 0.534249
193.781433 120.746811 0.200008 0.691371
195.169571 122.507530 0.200006 0.680613
195.808517 123.317955 0.086325 0.731487
196.350876 124.005890 0.000003 0.333074
180.046402 103.708847 10.521284 0.405386
180.046402 103.708855 9.347372 0.393240
179.982437 103.628860 8.208582 0.678431
180.046417 103.708862 7.046222 0.403250
179.982422 103.628853 5.925340 0.678431
180.046417 103.708855 4.789388 0.404059
179.982422 103.628853 3.676272 0.678431
180.046387 103.708832 2.556682 0.422324
180.046387 103.708832 1.443318 0.394690
180.046387 103.708832 0.328759 0.399741
186.059448 111.227264 -0.000002 0.546395
190.435608 116.698997 -0.000005 0.523735
193.715088 120.799492 0.200007 0.704631
195.115494 122.550476 0.200006 0.688350
195.808365 123.416809 0.103025 0.729885
196.307220 124.040550 0.000003 0.332616
179.740585 103.708847 10.569339 0.376257
179.740585 103.708855 9.388807 0.407813
179.675690 103.628860 8.243594 0.678431
179.740601 103.708855 7.074680 0.408759
179.675690 103.628853 5.947477 0.678431
179.740601 103.708855 4.805118 0.393774
179.675690 103.628853 3.685725 0.678431
179.740570 103.708832 2.559821 0.400015
179.740570 103.708832 1.440178 0.390127
179.740570 103.708832 0.319334 0.398535
185.926849 111.334091 -0.000002 0.543969
190.341095 116.775131 -0.000005 0.514748
193.649124 120.852638 0.200008 0.743389
195.061707 122.593803 0.200006 0.675029
195.808212 123.513947 0.119343 0.694408
196.263809 124.075523 0.000003 0.318791
179.365448 103.628853 10.644314 0.678431
179.431274 103.708847 9.431078 0.416083
179.365448 103.628853 8.279314 0.678431
179.431274 103.708847 7.103712 0.361669
179.365448 103.628853 5.970060 0.678431
179.431274 103.708862 4.821165 0.379660
179.365448 103.628853 3.695369 0.678431
179.431259 103.708832 2.563025 0.414374
179.431259 103.708832 1.436976 0.414420
179.431259 103.708832 0.309719 0.366171
185.794983 111.441833 -0.000003 0.551263
190.247116 116.851929 -0.000005 0.544289
193.583527 120.906235 0.200007 0.692805
195.008224 122.637497 0.200006 0.706661
195.808060 123.609436 0.135294 0.682185
196.220642 124.110794 0.000003 0.351858
179.051620 103.628860 10.694475 0.678431
179.118408 103.708855 9.474197 0.366247
179.051620 103.628853 8.315752 0.678431
179.118408 103.708855 7.133327 0.385229
179.051636 103.628860 5.993096 0.678431
179.118408 103.708855 4.837536 0.367559
179.051620 103.628860 3.705207 0.678431
179.118378 103.708832 2.566291 0.356832
179.118393 103.708832 1.433709 0.317418
179.118393 103.708839 0.299911 0.325429
185.663864 111.550491 -0.000002 0.536660
190.153656 116.929375 -0.000005 0.543877
193.518295 120.960297 0.200007 0.694697
194.955048 122.681564 0.200006 0.719921
195.807922 123.703323 0.150887 0.664042
196.177734 124.146362 0.000003 0.335256
178.783203 103.686836 10.726622 0.493019
178.801849 103.708855 9.518192 0.404044
178.783203 103.686844 8.339104 0.512383
178.801849 103.708855 7.163542 0.432090
178.783203 103.686829 6.007862 0.475181
178.801849 103.708855 4.854239 0.388373
178.783203 103.686836 3.711512 0.511391
178.801834 103.708832 2.569624 0.432898
178.801834 103.708832 1.430375 0.411200
178.801834 103.708839 0.289904 0.437400
185.533524 111.660065 -0.000003 0.553033
190.060760 117.007477 -0.000005 0.519341
193.453445 121.014809 0.200007 0.753307
194.902191 122.726006 0.200006 0.727291
195.807785 123.795662 0.166133 0.749905
196.135056 124.182228 0.000003 0.342657
178.412842 103.628853 10.797867 0.678431
178.481537 103.708855 9.563078 0.389288
178.412842 103.628860 8.390856 0.678431
178.481537 103.708855 7.194371 0.469001
178.412842 103.628853 6.040581 0.678431
178.481537 103.708855 4.871280 0.414557
178.412842 103.628853 3.725484 0.678431
178.481522 103.708839 2.573025 0.366888
178.481522 103.708839 1.426974 0.398367
178.481522 103.708839 0.279694 0.393118
185.403931 111.770546 -0.000003 0.530968
189.968399 117.086220 -0.000005 0.556054
193.388977 121.069763 0.200006 0.691218
194.849640 122.770813 0.200006 0.684565
195.807648 123.886497 0.181042 0.655161
196.118622 124.248657 0.009994 1.000000
178.087677 103.628853 10.851144 0.678431
178.157364 103.708855 9.608877 0.396307
178.087692 103.628860 8.429556 0.678431
178.157364 103.708855 7.225825 0.410529
178.087692 103.628853 6.065051 0.678431
178.157364 103.708855 4.888667 0.398795
178.087692 103.628860 3.735933 0.678431
178.157349 103.708832 2.576495 0.341466
178.157349 103.708832 1.423504 0.417838
178.157349 103.708832 0.269277 0.420066
185.275146 111.881943 -0.000003 0.524651
189.876587 117.165604 -0.000007 0.538003
193.324905 121.125183 0.200006 0.748119
194.797394 122.815994 0.200006 0.685863
195.807510 123.975861 0.195623 0.793408
196.076675 124.284935 0.009994 1.000000
177.809753 103.686829 10.886128 0.508415
177.829208 103.708847 9.655610 0.392645
177.809753 103.686829 8.454969 0.490440
177.829208 103.708855 7.257922 0.391058
177.809753 103.686829 6.081118 0.506203
177.829224 103.708862 4.906407 0.417960
177.809753 103.686829 3.742795 0.485466
177.829193 103.708832 2.580037 0.415885
177.829193 103.708832 1.419963 0.391760
177.829193 103.708839 0.258647 0.412100
185.147110 111.994217 -0.000003 0.538155
