# This PCD file was generated using the MATLABÂ® pcwrite function
# from Computer Vision ToolboxÂ®.
# .PCD v.7 - Point Cloud Data file format
VERSION .7
FIELDS x y z intensity
SIZE 4 4 4 4
TYPE F F F F
COUNT 1 1 1 1
WIDTH 1308
HEIGHT 1
VIEWPOINT 0 0 0 1 0 0 0
POINTS 1308
DATA ascii
89.729500 -20.677876 -0.000004 0.532601
86.621239 -23.037170 -0.000003 0.535988
83.761383 -25.207920 0.199993 0.725383
82.520096 -26.150105 0.199993 0.687846
81.605576 -26.844265 0.199993 0.758526
145.957306 21.234266 23.921234 0.678431
145.613495 20.977072 20.808582 0.665217
145.957291 21.234266 17.923794 0.678431
145.957306 21.234270 14.981545 0.676448
145.613480 20.977064 12.018332 0.649744
146.031830 21.290033 9.183410 0.678431
146.031830 21.290033 6.303883 0.678431
146.031830 21.290022 3.433601 0.678431
145.613556 20.977125 0.574944 0.587304
108.480347 -6.802036 -0.000009 0.546349
95.412888 -16.577736 -0.000005 0.539727
89.802551 -20.774803 -0.000004 0.532692
86.677887 -23.112343 -0.000003 0.567742
83.802948 -25.263073 0.199993 0.713069
82.555115 -26.196571 0.199993 0.726146
81.635765 -26.884329 0.199993 0.667063
146.638062 20.977095 24.019720 0.517372
146.638031 20.977079 20.986231 0.572656
146.638062 20.977106 17.995344 0.698024
146.638062 20.977106 15.039872 0.470100
146.638016 20.977068 12.112957 0.590951
147.062500 21.290033 9.251257 0.678431
147.062515 21.290037 6.344532 0.678431
147.062515 21.290033 3.447144 0.678431
146.638077 20.977114 0.561485 0.705333
108.649826 -7.030203 -0.000009 0.540124
95.514420 -16.714447 -0.000005 0.535866
89.874916 -20.872242 -0.000004 0.565042
86.734009 -23.187912 -0.000003 0.524834
83.844124 -25.318520 0.199993 0.704448
82.589806 -26.243282 0.199993 0.779904
81.665680 -26.924606 0.199993 0.715053
148.036057 21.234232 24.340345 0.678431
147.682114 20.977072 21.168201 0.533700
148.036072 21.234243 18.228247 0.678431
148.036072 21.234243 15.229745 0.678431
102.437195 -11.895243 5.776143 0.401434
103.920181 -10.817789 4.841751 0.408576
148.112915 21.290075 6.386176 0.678431
148.112915 21.290071 3.461014 0.678431
147.682159 20.977118 0.547699 0.600488
108.817673 -7.259554 -0.000009 0.541039
95.614990 -16.851860 -0.000005 0.535912
89.946594 -20.970182 -0.000004 0.545678
86.789604 -23.263868 -0.000003 0.535821
83.884911 -25.374249 0.199993 0.704829
82.624168 -26.290234 0.199993 0.662852
81.695305 -26.965088 0.199993 0.714443
148.895813 21.083979 24.493002 0.518791
148.746475 20.977072 21.354649 0.558938
148.895782 21.083971 18.339132 0.628733
148.895782 21.083971 15.320138 0.522469
148.746460 20.977060 12.309195 0.529671
104.380554 -10.785765 4.873903 0.400122
149.183670 21.290075 6.428841 0.678431
149.183655 21.290071 3.475225 0.678431
148.746521 20.977110 0.533572 0.498924
108.983932 -7.490072 -0.000009 0.538033
95.714592 -16.989975 -0.000005 0.545220
90.017593 -21.068626 -0.000004 0.555093
86.844666 -23.340212 -0.000004 0.530282
83.925308 -25.430265 0.199993 0.702296
82.658203 -26.337423 0.199993 0.694575
81.724655 -27.005779 0.199993 0.661784
149.831940 20.977179 24.668642 0.729534
149.831787 20.977076 21.545723 0.549508
149.831909 20.977167 18.466721 0.649683
149.831909 20.977163 15.424150 0.495567
149.831787 20.977064 12.410969 0.667903
150.275391 21.289988 9.464931 0.678431
104.617676 -10.917938 3.727610 0.397391
150.275391 21.289995 3.489787 0.678431
149.831848 20.977114 0.519096 0.573434
109.148575 -7.721746 -0.000009 0.552819
95.813248 -17.128775 -0.000006 0.531670
90.087898 -21.167557 -0.000004 0.532601
86.899193 -23.416939 -0.000003 0.537484
83.965317 -25.486559 0.199993 0.700389
82.691910 -26.384850 0.199993 0.688762
81.753716 -27.046671 0.199993 0.751995
150.938812 20.977064 24.895739 0.602014
150.938782 20.977064 21.741570 0.637888
151.298523 21.227083 18.711401 0.341817
102.724083 -12.532995 6.848926 0.415976
101.922668 -13.089993 5.648269 0.413825
101.677124 -13.260653 4.575785 0.401785
104.785072 -11.100571 3.729201 0.399344
151.291367 21.222105 3.502767 0.164965
150.938873 20.977110 0.504256 0.678157
109.311584 -7.954565 -0.000009 0.536919
95.910912 -17.268269 -0.000005 0.536828
90.157516 -21.266975 -0.000005 0.537438
86.953186 -23.494043 -0.000004 0.536431
84.004929 -25.543131 0.199993 0.712566
82.725281 -26.432510 0.199993 0.689967
81.782486 -27.087767 0.199993 0.659220
152.068298 20.977064 25.128622 0.569757
152.068283 20.977064 21.942373 0.562585
152.068375 20.977121 18.800879 0.574151
104.345467 -11.699390 7.117116 0.402152
152.068283 20.977057 12.622245 0.569329
101.886208 -13.383278 4.584188 0.413962
104.821381 -11.373526 3.723054 0.407492
152.329407 21.155855 3.516136 0.161044
152.068329 20.977098 0.489042 0.653376
109.472969 -8.188520 -0.000008 0.542641
96.007614 -17.408436 -0.000005 0.542229
90.226440 -21.366882 -0.000004 0.554192
87.006630 -23.571526 -0.000003 0.536492
84.044144 -25.599979 0.199993 0.664958
82.758316 -26.480404 0.199993 0.695354
81.810974 -27.129063 0.199993 0.717617
153.221039 20.977060 25.367445 0.547799
153.221039 20.977060 22.148291 0.685588
153.602203 21.234152 19.057995 0.678111
101.470528 -13.929056 6.578496 0.402853
102.238495 -13.411058 5.657380 0.410483
101.824829 -13.690077 4.565885 0.406714
153.684967 21.289984 6.610439 0.678431
153.684967 21.289984 3.535716 0.678431
153.221085 20.977098 0.473440 0.528984
109.632736 -8.423580 -0.000009 0.537408
96.103317 -17.549276 -0.000005 0.543420
90.294655 -21.467266 -0.000004 0.538720
87.059540 -23.649378 -0.000003 0.545068
84.082970 -25.657099 0.199993 0.770352
82.791023 -26.528526 0.199993 0.741665
81.839172 -27.170555 0.199993 0.675471
154.397919 20.977068 25.612417 0.595514
154.398102 20.977186 22.359564 0.679118
154.398102 20.977194 19.152332 0.553414
104.688446 -12.049784 7.130231 0.414694
154.397888 20.977045 12.844433 0.580285
102.140442 -13.742676 4.584991 0.406973
105.060516 -11.802582 3.721007 0.408942
154.868866 21.289968 3.551813 0.678431
154.397964 20.977095 0.457437 0.505516
109.790848 -8.659761 -0.000008 0.538720
96.198051 -17.690781 -0.000005 0.548272
90.362175 -21.568123 -0.000004 0.550668
87.111908 -23.727596 -0.000004 0.566537
84.121384 -25.714489 0.199993 0.673289
82.823387 -26.576878 0.199993 0.669520
81.867081 -27.212244 0.199993 0.671061
155.599777 20.977068 25.863749 0.537285
155.992722 21.234201 22.677649 0.678431
104.425018 -12.510714 8.206806 0.399390
103.238663 -13.287041 6.849660 0.412787
102.381973 -13.847643 5.643334 0.408103
102.120903 -14.018486 4.571205 0.418082
156.078018 21.290018 6.708364 0.678431
156.078003 21.290010 3.568334 0.678431
155.599823 20.977087 0.441018 0.592157
109.947296 -8.897043 -0.000009 0.541650
96.291794 -17.832939 -0.000006 0.539101
90.428986 -21.669449 -0.000004 0.552972
87.163719 -23.806177 -0.000004 0.566247
84.159409 -25.772144 0.199993 0.761059
82.855415 -26.625450 0.199993 0.707393
81.894699 -27.254124 0.199993 0.724575
156.827545 20.977064 26.121675 0.630411
156.827698 20.977156 22.798656 0.433066
104.882187 -12.499399 8.277693 0.416190
102.760017 -13.867043 6.743256 0.413443
101.337189 -14.783991 5.483863 0.399725
102.515976 -14.024317 4.598112 0.395361
104.579269 -12.694616 3.677227 0.409781
144.532486 13.053450 3.336475 0.614160
144.532486 13.053450 0.663526 0.635370
110.102081 -9.135408 -0.000009 0.536492
96.384537 -17.975758 -0.000006 0.539117
90.495094 -21.771236 -0.000004 0.545525
87.214989 -23.885120 -0.000003 0.542336
84.197021 -25.830067 0.199993 0.718990
82.887108 -26.674248 0.199993 0.766354
81.922020 -27.296200 0.199993 0.683116
nan nan nan 0.000000
nan nan nan 0.000000
102.186478 -14.495415 7.668791 0.407568
102.856934 -14.069933 6.739153 0.403403
102.557091 -14.260220 5.634557 0.452079
102.704514 -14.166660 4.604847 0.405921
102.523636 -14.281448 3.550149 0.402518
144.746292 12.513834 3.334665 0.717891
144.746292 12.513834 0.665335 0.745220
110.255219 -9.374842 -0.000009 0.546380
96.476288 -18.119213 -0.000006 0.538247
90.560486 -21.873489 -0.000004 0.543954
87.265701 -23.964420 -0.000004 0.548608
84.234230 -25.888248 0.199993 0.686198
82.918457 -26.723263 0.199993 0.678187
81.949051 -27.338463 0.199993 0.722805
nan nan nan 0.000000
nan nan nan 0.000000
102.244614 -14.715559 7.656397 0.399222
102.535385 -14.533865 6.662120 0.413306
105.559296 -12.644323 6.025871 0.407843
102.008507 -14.863096 4.526125 0.403342
103.965820 -13.640038 3.626894 0.429709
106.830666 -11.849880 2.597191 0.419181
144.746292 11.842405 0.671191 0.774060
110.406677 -9.615343 -0.000009 0.537743
96.567032 -18.263306 -0.000006 0.536370
90.625160 -21.976194 -0.000004 0.553292
87.315857 -24.044071 -0.000004 0.566857
84.271027 -25.946690 0.199993 0.726375
82.949463 -26.772497 0.199993 0.720088
81.975784 -27.380915 0.199993 0.745190
nan nan nan 0.000000
nan nan nan 0.000000
102.321587 -14.923010 7.648408 0.406851
102.325745 -14.920452 6.605472 0.406241
103.316879 -14.310701 5.705606 0.399969
102.341347 -14.910854 4.547258 0.412497
103.632263 -14.116682 3.600627 0.435950
106.941383 -12.080896 2.596739 0.397177
144.746307 11.176817 0.676930 0.754726
110.556442 -9.856899 -0.000009 0.540978
96.656754 -18.408031 -0.000006 0.547723
90.689117 -22.079346 -0.000004 0.541314
87.365463 -24.124071 -0.000003 0.551278
84.307426 -26.005384 0.199993 0.679683
82.980118 -26.821947 0.199993 0.748669
82.002220 -27.423553 0.199993 0.715389
nan nan nan 0.000000
nan nan nan 0.000000
102.527565 -15.051630 7.668206 0.416541
102.862625 -14.848711 6.678993 0.411887
107.216194 -12.212099 6.214280 0.406195
101.376282 -15.748873 4.443913 0.398764
103.776894 -14.295010 3.602128 0.402838
106.420052 -12.694260 2.584227 0.411872
144.746292 10.516909 0.682556 0.752941
110.704521 -10.099495 -0.000009 0.540597
96.745476 -18.553383 -0.000005 0.548272
90.752350 -22.182943 -0.000004 0.549676
87.414505 -24.204414 -0.000004 0.528161
84.343407 -26.064335 0.199993 0.681208
83.010437 -26.871611 0.199993 0.704570
82.028358 -27.466373 0.199993 0.668742
nan nan nan 0.000000
nan nan nan 0.000000
103.040688 -14.998930 7.753176 0.399558
102.699333 -15.202419 6.631208 0.405035
102.076317 -15.573810 5.508254 0.410925
104.159508 -14.331980 4.699368 0.414939
103.795837 -14.548771 3.596505 0.396460
106.576805 -12.890985 2.584768 0.396811
144.746292 9.862570 0.688070 0.754070
110.850914 -10.343107 -0.000009 0.548012
96.833183 -18.699341 -0.000006 0.536614
90.814865 -22.286978 -0.000004 0.547738
87.462982 -24.285097 -0.000004 0.539635
84.378975 -26.123531 0.199992 0.717571
83.040398 -26.921482 0.199993 0.712688
82.054199 -27.509377 0.199993 0.730449
nan nan nan 0.000000
nan nan nan 0.000000
102.830635 -15.378094 7.685157 0.427466
102.791046 -15.401320 6.627898 0.407355
103.774719 -14.824205 5.720328 0.410376
105.029778 -14.087866 4.770978 0.392187
105.810860 -13.629608 3.704697 0.409216
105.007286 -14.101063 2.552582 0.466957
144.746307 9.213648 0.693477 0.767926
104.952515 -14.133194 0.344191 0.450721
96.919868 -18.845917 -0.000006 0.534783
90.876648 -22.391445 -0.000004 0.539300
87.510902 -24.366117 -0.000004 0.534066
85.362152 -25.626776 -0.000003 0.559960
83.070015 -26.971563 0.199993 0.727581
82.079735 -27.552557 0.199993 0.734325
nan nan nan 0.000000
nan nan nan 0.000000
103.143478 -15.449347 7.727835 0.396033
103.157768 -15.441092 6.671946 0.407843
102.851608 -15.617856 5.582619 0.413916
104.413490 -14.716103 4.701392 0.408804
105.776138 -13.929380 3.695816 0.424002
104.494751 -14.669186 2.540657 0.450965
104.929001 -14.418472 1.451139 0.451164
105.019485 -14.366230 0.347106 0.446418
97.005524 -18.993090 -0.000006 0.533791
90.937706 -22.496342 -0.000005 0.536156
87.558243 -24.447470 -0.000004 0.531075
85.400757 -25.693096 -0.000003 0.545968
83.099289 -27.021851 0.199993 0.720333
82.104973 -27.595915 0.199993 0.655756
nan nan nan 0.000000
nan nan nan 0.000000
104.154587 -15.127705 7.916570 0.410697
103.205841 -15.666667 6.661504 0.399969
102.435944 -16.104031 5.513328 0.406134
104.200562 -15.101589 4.670532 0.407736
104.667984 -14.836056 3.626438 0.452354
106.165573 -13.985310 2.569943 0.458808
105.078026 -14.603119 1.450524 0.463630
105.284332 -14.485922 0.338738 0.460380
97.090149 -19.140858 -0.000005 0.552529
90.998016 -22.601665 -0.000005 0.527123
87.605026 -24.529152 -0.000004 0.526970
85.438889 -25.759686 -0.000003 0.530678
83.128197 -27.072340 0.199993 0.672145
82.129906 -27.639450 0.199993 0.660258
nan nan nan 0.000000
nan nan nan 0.000000
103.831635 -15.568249 7.826022 0.410971
102.801781 -16.143814 6.574541 0.406653
102.564178 -16.276602 5.516434 0.409842
104.432678 -15.232333 4.681851 0.453315
144.746292 7.298159 5.875603 0.752941
106.305153 -14.185844 2.570323 0.442939
105.637970 -14.558722 1.442184 0.456535
111.419319 -11.327639 -0.000009 0.531670
97.173744 -19.289213 -0.000006 0.543938
91.057602 -22.707405 -0.000004 0.537209
87.651237 -24.611156 -0.000004 0.552422
85.476563 -25.826538 -0.000003 0.557198
83.156761 -27.123030 0.199993 0.686702
82.154533 -27.683157 0.199993 0.673243
nan nan nan 0.000000
nan nan nan 0.000000
104.139275 -15.654206 7.867401 0.401358
102.722588 -16.433037 6.543467 0.415473
102.759285 -16.412861 5.528467 0.405829
103.718826 -15.885347 4.604699 0.402548
106.872742 -14.151474 3.737396 0.435325
106.497215 -14.357918 2.571706 0.405005
144.746292 6.669664 0.714041 0.741176
111.557121 -11.576218 -0.000009 0.533913
97.256302 -19.438148 -0.000006 0.529320
91.116440 -22.813560 -0.000005 0.548760
87.696869 -24.693483 -0.000004 0.529152
85.513763 -25.893654 -0.000004 0.577340
83.184967 -27.173918 0.199993 0.741314
82.178856 -27.727036 0.199993 0.727687
nan nan nan 0.000000
nan nan nan 0.000000
103.377045 -16.322262 7.687441 0.393393
102.629753 -16.726322 6.510551 0.403723
103.137794 -16.451622 5.564563 0.405402
157.764130 13.084692 9.632566 0.241749
106.804436 -14.469080 3.726981 0.453391
106.936752 -14.397537 2.577712 0.452888
144.746307 6.045980 0.718927 0.715953
111.693161 -11.825760 -0.000009 0.545907
97.337822 -19.587654 -0.000006 0.546166
91.174538 -22.920124 -0.000004 0.520363
87.741920 -24.776129 -0.000003 0.540841
85.550499 -25.961029 -0.000003 0.542870
83.212822 -27.225002 0.199993 0.730037
82.202866 -27.771082 0.199993 0.741131
nan nan nan 0.000000
nan nan nan 0.000000
102.812195 -16.869740 7.549789 0.425361
103.760094 -16.365734 6.683597 0.390982
104.718628 -15.856075 5.757213 0.410056
107.030457 -14.626854 4.892644 0.424063
121.458824 -6.955164 4.535892 0.402625
121.587173 -6.886923 2.847073 0.411627
144.746292 5.426989 0.723712 0.701411
111.827484 -12.076233 -0.000009 0.537911
97.418289 -19.737726 -0.000006 0.543420
91.231895 -23.027088 -0.000004 0.521065
87.786407 -24.859085 -0.000003 0.548043
85.586761 -26.028656 -0.000003 0.534371
83.240318 -27.276279 0.199993 0.715557
82.226570 -27.815296 0.199993 0.652888
nan nan nan 0.000000
nan nan nan 0.000000
102.180908 -17.440044 7.399779 0.409979
104.656158 -16.146015 6.816375 0.412055
104.262474 -16.351830 5.684195 0.403067
106.982666 -14.929747 4.877594 0.415747
106.658440 -15.099247 3.706115 0.417426
122.130203 -7.010817 2.853987 0.425116
144.746292 4.812574 0.728402 0.690806
111.960022 -12.327652 -0.000009 0.538613
97.497704 -19.888359 -0.000006 0.537133
91.288498 -23.134449 -0.000005 0.540490
87.830307 -24.942347 -0.000004 0.514427
85.622551 -26.096535 -0.000003 0.559869
83.267456 -27.327747 0.199993 0.758999
82.249969 -27.859673 0.199993 0.722957
nan nan nan 0.000000
nan nan nan 0.000000
103.283234 -17.106464 7.605789 0.401694
104.576401 -16.441870 6.785675 0.404196
105.521034 -15.956394 5.833673 0.423484
157.634277 10.826136 9.536772 0.239338
107.526543 -14.925703 3.747901 0.405127
123.412247 -6.761568 2.874491 0.388266
144.746307 4.202631 0.732995 0.776471
112.090843 -12.579977 -0.000010 0.536431
97.576073 -20.039543 -0.000006 0.545388
91.344360 -23.242205 -0.000005 0.545342
87.873627 -25.025917 -0.000004 0.541588
85.657867 -26.164661 -0.000004 0.512825
83.294228 -27.379404 0.199993 0.683345
82.273064 -27.904211 0.199993 0.738796
nan nan nan 0.000000
nan nan nan 0.000000
103.075989 -17.452114 7.543635 0.409079
104.543762 -16.710691 6.763257 0.450980
103.770142 -17.101471 5.594398 0.404105
106.830276 -15.555692 4.843019 0.411444
107.140396 -15.399037 3.720441 0.411566
122.567627 -7.606192 2.855901 0.409293
144.746277 3.597040 0.737495 0.765652
112.219864 -12.833218 -0.000010 0.550607
97.653374 -20.191271 -0.000006 0.533776
91.399460 -23.350348 -0.000005 0.528206
87.916359 -25.109783 -0.000004 0.528420
85.692703 -26.233036 -0.000003 0.491539
83.320641 -27.431244 0.199993 0.687205
82.295837 -27.948912 0.199993 0.746975
nan nan nan 0.000000
nan nan nan 0.000000
nan nan nan 0.000000
104.477692 -16.993763 6.735694 0.410712
105.581421 -16.445873 5.814485 0.415290
106.516899 -15.981497 4.804410 0.408148
107.398254 -15.543986 3.728580 0.414115
144.746277 2.995710 3.258099 0.776471
144.746277 2.995707 0.741902 0.752621
112.347130 -13.087347 -0.000010 0.541085
97.729622 -20.343533 -0.000006 0.532341
91.453804 -23.458872 -0.000005 0.541436
87.958504 -25.193951 -0.000004 0.545541
85.727058 -26.301649 -0.000003 0.555917
83.346695 -27.483269 0.199993 0.681819
82.318298 -27.993771 0.199993 0.671885
nan nan nan 0.000000
nan nan nan 0.000000
nan nan nan 0.000000
104.336258 -17.310726 6.696109 0.401907
107.262268 -15.883616 6.016542 0.411414
144.446472 2.252306 8.255037 0.506432
107.178253 -15.924595 3.710626 0.429725
144.746277 2.398539 3.253784 0.776471
144.746277 2.398539 0.746214 0.771801
112.472610 -13.342365 -0.000010 0.546410
97.804810 -20.496319 -0.000006 0.550729
91.507393 -23.567772 -0.000005 0.535637
88.000061 -25.278408 -0.000003 0.539040
85.760941 -26.370501 -0.000003 0.544152
83.372383 -27.535475 0.199993 0.744320
82.340446 -28.038784 0.199993 0.671931
nan nan nan 0.000000
nan nan nan 0.000000
nan nan nan 0.000000
104.557510 -17.449793 6.716681 0.419928
nan nan nan 0.000000
109.630371 -15.019291 5.068456 0.417533
107.251518 -16.159044 3.708854 0.412314
124.070618 -8.100691 2.874396 0.414466
144.746277 1.805418 0.750439 0.768841
112.596313 -13.598249 -0.000010 0.537041
97.878922 -20.649632 -0.000006 0.542321
91.560211 -23.677050 -0.000004 0.543587
88.041031 -25.363153 -0.000004 0.548287
85.794334 -26.439587 -0.000003 0.531426
83.397705 -27.587858 0.199993 0.753063
82.362282 -28.083950 0.199993 0.686717
nan nan nan 0.000000
nan nan nan 0.000000
nan nan nan 0.000000
104.806381 -17.578020 6.741871 0.408103
nan nan nan 0.000000
144.446472 1.075174 8.213331 0.534539
144.746307 1.216257 5.738945 0.764492
123.987274 -8.552185 2.869996 0.415320
144.746292 1.216249 0.754575 0.770108
112.718216 -13.854996 -0.000010 0.546105
97.951958 -20.803459 -0.000006 0.541695
91.612274 -23.786686 -0.000005 0.545754
88.081406 -25.448181 -0.000004 0.533806
85.827255 -26.508905 -0.000004 0.552514
83.422661 -27.640417 0.199993 0.698436
82.383797 -28.129269 0.199993 0.724239
nan nan nan 0.000000
nan nan nan 0.000000
nan nan nan 0.000000
105.483032 -17.511204 6.837027 0.404105
nan nan nan 0.000000
144.446503 0.492416 8.193138 0.527092
144.746292 0.630943 5.726794 0.748760
144.746292 0.630945 3.241378 0.741085
144.746292 0.630945 0.758622 0.746609
112.838333 -14.112579 -0.000009 0.539239
98.023926 -20.957790 -0.000006 0.547402
91.663567 -23.896687 -0.000004 0.535790
88.121185 -25.533491 -0.000004 0.582559
85.859680 -26.578453 -0.000003 0.558053
83.447250 -27.693150 0.199993 0.685466
82.404999 -28.174736 0.199993 0.712474
nan nan nan 0.000000
nan nan nan 0.000000
nan nan nan 0.000000
107.013367 -17.066990 7.070859 0.412695
nan nan nan 0.000000
144.446487 -0.086603 8.173374 0.525185
144.726349 0.040348 5.713826 0.611765
144.746292 0.049397 3.237415 0.731929
144.746292 0.049397 0.762583 0.741039
112.956657 -14.371000 -0.000010 0.543069
98.094818 -21.112621 -0.000006 0.534661
91.714088 -24.007040 -0.000005 0.542748
88.160370 -25.619076 -0.000004 0.522408
85.891624 -26.648224 -0.000003 0.552361
83.471474 -27.746052 0.199993 0.720943
82.425888 -28.220350 0.199993 0.684916
nan nan nan 0.000000
nan nan nan 0.000000
nan nan nan 0.000000
nan nan nan 0.000000
nan nan nan 0.000000
144.446487 -0.661953 8.154035 0.523125
144.726349 -0.537350 5.702192 0.611765
144.746292 -0.528471 3.233539 0.756909
144.746292 -0.528471 0.766461 0.757366
113.073158 -14.630239 -0.000010 0.537423
98.164619 -21.267941 -0.000006 0.538445
91.763840 -24.117744 -0.000005 0.535744
88.198952 -25.704933 -0.000004 0.536217
85.923080 -26.718216 -0.000003 0.558602
83.495323 -27.799122 0.199993 0.673915
82.446449 -28.266109 0.199993 0.726986
nan nan nan 0.000000
nan nan nan 0.000000
nan nan nan 0.000000
nan nan nan 0.000000
nan nan nan 0.000000
144.446503 -1.233746 8.135117 0.492088
144.726349 -1.111481 5.690809 0.611765
144.746307 -1.102764 3.229747 0.742962
144.746307 -1.102764 0.770253 0.709834
113.187859 -14.890285 -0.000009 0.540505
98.233345 -21.423744 -0.000006 0.555932
91.812828 -24.228794 -0.000005 0.539940
88.236938 -25.791058 -0.000004 0.511376
85.954048 -26.788427 -0.000003 0.547250
83.518806 -27.852358 0.199992 0.674006
82.466698 -28.312010 0.199993 0.773098
nan nan nan 0.000000
nan nan nan 0.000000
nan nan nan 0.000000
nan nan nan 0.000000
nan nan nan 0.000000
144.446487 -1.802063 8.116608 0.503304
144.726318 -1.682127 5.679674 0.611765
144.746292 -1.673567 3.226039 0.761975
144.746292 -1.673567 0.773963 0.746044
113.300735 -15.151127 -0.000009 0.542260
98.300964 -21.580029 -0.000006 0.553918
91.861023 -24.340183 -0.000005 0.542153
88.274323 -25.877445 -0.000004 0.522454
85.984528 -26.858852 -0.000004 0.536171
83.541908 -27.905756 0.199993 0.662409
82.486618 -28.358053 0.199993 0.746807
nan nan nan 0.000000
nan nan nan 0.000000
nan nan nan 0.000000
nan nan nan 0.000000
nan nan nan 0.000000
144.446487 -2.366982 8.098511 0.512230
144.726318 -2.249352 5.668787 0.611765
144.746292 -2.240955 3.222409 0.734569
144.746292 -2.240955 0.777590 0.711650
113.411774 -15.412753 -0.000009 0.533333
98.367500 -21.736774 -0.000006 0.534936
91.908447 -24.451908 -0.000004 0.528496
88.311104 -25.964088 -0.000004 0.541711
86.014503 -26.929489 -0.000003 0.564340
83.564644 -27.959314 0.199993 0.706966
82.506226 -28.404232 0.199993 0.682719
nan nan nan 0.000000
nan nan nan 0.000000
nan nan nan 0.000000
nan nan nan 0.000000
nan nan nan 0.000000
144.446503 -2.928596 8.080812 0.503395
144.726303 -2.813267 5.658137 0.611765
144.746292 -2.805029 3.218862 0.726650
144.746292 -2.805029 0.781138 0.750011
113.520996 -15.675145 -0.000009 0.540124
98.432938 -21.893986 -0.000006 0.551247
91.955086 -24.563959 -0.000004 0.553475
88.347275 -26.050991 -0.000004 0.542565
86.043999 -27.000332 -0.000003 0.521523
83.587006 -28.013029 0.199993 0.743862
82.525505 -28.450548 0.199993 0.693309
nan nan nan 0.000000
nan nan nan 0.000000
nan nan nan 0.000000
nan nan nan 0.000000
nan nan nan 0.000000
144.446503 -3.486994 8.063515 0.502434
144.746292 -3.365866 5.648791 0.767102
144.746307 -3.365866 3.215394 0.753628
144.746307 -3.365866 0.784605 0.764843
113.628387 -15.938293 -0.000009 0.542107
98.497284 -22.051649 -0.000006 0.533623
92.000954 -24.676331 -0.000005 0.548150
88.382843 -26.138142 -0.000004 0.533806
86.072990 -27.071381 -0.000003 0.525780
83.608986 -28.066898 0.199993 0.695964
82.544456 -28.496998 0.199993 0.664500
nan nan nan 0.000000
nan nan nan 0.000000
nan nan nan 0.000000
nan nan nan 0.000000
nan nan nan 0.000000
144.446503 -4.042240 8.046608 0.506981
144.746307 -3.923538 5.638616 0.739040
144.746307 -3.923542 3.212006 0.740795
144.746307 -3.923542 0.787994 0.735256
113.733940 -16.202185 -0.000009 0.535439
98.560516 -22.209755 -0.000006 0.537530
92.046021 -24.789024 -0.000004 0.561669
88.417801 -26.225538 -0.000004 0.545022
86.101486 -27.142628 -0.000003 0.509331
83.630600 -28.120922 0.199992 0.684932
82.563087 -28.543577 0.199993 0.726726
nan nan nan 0.000000
nan nan nan 0.000000
nan nan nan 0.000000
nan nan nan 0.000000
nan nan nan 0.000000
144.446503 -4.594433 8.030087 0.489708
144.726318 -4.485897 5.627621 0.611765
144.746307 -4.478144 3.208693 0.773663
144.746307 -4.478146 0.791305 0.776471
113.837646 -16.466805 -0.000010 0.538140
98.622650 -22.368301 -0.000006 0.535561
92.090317 -24.902027 -0.000005 0.535103
88.452141 -26.313177 -0.000003 0.515129
86.129486 -27.214073 -0.000004 0.549050
83.651825 -28.175093 0.199992 0.666255
82.581390 -28.590286 0.199993 0.753643
nan nan nan 0.000000
nan nan nan 0.000000
nan nan nan 0.000000
nan nan nan 0.000000
nan nan nan 0.000000
144.446503 -5.143639 8.013947 0.516243
144.726334 -5.037344 5.617915 0.611765
144.746307 -5.029758 3.205461 0.776471
144.746307 -5.029758 0.794541 0.776471
113.939514 -16.732140 -0.000010 0.537728
98.683678 -22.527277 -0.000006 0.546197
92.133804 -25.015335 -0.000005 0.549523
88.485870 -26.401054 -0.000003 0.549722
86.156982 -27.285715 -0.000003 0.545327
83.672676 -28.229412 0.199993 0.726574
82.599373 -28.637123 0.199993 0.724437
nan nan nan 0.000000
nan nan nan 0.000000
nan nan nan 0.000000
nan nan nan 0.000000
nan nan nan 0.000000
144.467056 -5.682302 7.999986 0.335454
144.726349 -5.585876 5.608434 0.611765
144.746307 -5.578453 3.202300 0.770230
144.746307 -5.578453 0.797700 0.763058
114.039520 -16.998180 -0.000010 0.542702
98.743591 -22.686676 -0.000006 0.534600
92.176514 -25.128948 -0.000005 0.536309
88.518997 -26.489162 -0.000004 0.519738
86.183983 -27.357544 -0.000003 0.536995
83.693146 -28.283876 0.199993 0.728710
82.617020 -28.684082 0.199993 0.660868
nan nan nan 0.000000
nan nan nan 0.000000
nan nan nan 0.000000
nan nan nan 0.000000
nan nan nan 0.000000
144.643448 -6.161741 7.999986 0.327352
144.726349 -6.131565 5.599176 0.611765
144.746307 -6.124302 3.199218 0.746899
144.746307 -6.124302 0.800784 0.735500
114.137665 -17.264915 -0.000010 0.534646
98.802391 -22.846489 -0.000006 0.547005
92.218422 -25.242855 -0.000005 0.533623
88.551498 -26.577501 -0.000004 0.540032
86.210480 -27.429562 -0.000003 0.518151
83.713242 -28.338480 0.199993 0.726497
82.634346 -28.731165 0.199993 0.673060
nan nan nan 0.000000
nan nan nan 0.000000
nan nan nan 0.000000
nan nan nan 0.000000
nan nan nan 0.000000
144.816498 -6.642391 7.999986 0.336736
144.726349 -6.674496 5.590141 0.611765
144.746307 -6.667389 3.196206 0.717052
144.746307 -6.667389 0.803794 0.726818
114.233917 -17.532337 -0.000010 0.541863
98.860077 -23.006704 -0.000006 0.543267
92.259537 -25.357048 -0.000005 0.546151
88.583382 -26.666065 -0.000004 0.535332
86.236473 -27.501760 -0.000003 0.529793
83.732948 -28.393223 0.199993 0.663279
82.651344 -28.778366 0.199992 0.666438
nan nan nan 0.000000
nan nan nan 0.000000
nan nan nan 0.000000
nan nan nan 0.000000
nan nan nan 0.000000
144.986176 -7.124243 7.999986 0.343618
144.781113 -7.195652 5.584174 0.906325
144.746307 -7.207773 3.193270 0.709804
144.746307 -7.207773 0.806732 0.657847
114.328323 -17.800417 -0.000010 0.536110
98.916634 -23.167324 -0.000006 0.537575
92.299850 -25.471527 -0.000005 0.553231
88.614647 -26.754848 -0.000004 0.569589
86.261963 -27.574139 -0.000003 0.516518
83.752274 -28.448103 0.199993 0.723033
82.668007 -28.825686 0.199993 0.723400
nan nan nan 0.000000
nan nan nan 0.000000
nan nan nan 0.000000
nan nan nan 0.000000
nan nan nan 0.000000
144.746307 -7.745543 7.964803 0.721843
144.746307 -7.745543 5.573762 0.721569
144.746307 -7.745543 3.190405 0.709804
144.746307 -7.745543 0.809597 0.721935
114.420853 -18.069149 -0.000010 0.541909
98.972076 -23.328331 -0.000007 0.526528
92.339355 -25.586288 -0.000005 0.550927
88.645294 -26.843849 -0.000004 0.553903
86.286949 -27.646694 -0.000003 0.515175
83.771217 -28.503117 0.199992 0.666712
82.684334 -28.873121 0.199993 0.735668
nan nan nan 0.000000
nan nan nan 0.000000
nan nan nan 0.000000
nan nan nan 0.000000
170.145996 0.168579 13.428507 0.738842
144.746307 -8.280764 7.950803 0.733333
144.746307 -8.280762 5.565375 0.709804
144.746307 -8.280764 3.187611 0.724834
144.746307 -8.280764 0.812391 0.730983
114.511505 -18.338520 -0.000010 0.538399
99.026398 -23.489723 -0.000006 0.532067
92.378075 -25.701321 -0.000005 0.548012
88.675308 -26.933064 -0.000004 0.525597
86.311424 -27.719423 -0.000003 0.526955
83.789780 -28.558262 0.199992 0.756390
82.700340 -28.920670 0.199993 0.749538
nan nan nan 0.000000
nan nan nan 0.000000
nan nan nan 0.000000
nan nan nan 0.000000
170.096161 -0.576845 13.396273 0.466285
144.746307 -8.813496 7.937160 0.746273
144.746307 -8.813498 5.557203 0.752178
144.746307 -8.813494 3.184886 0.728527
144.746307 -8.813498 0.815112 0.742092
114.600281 -18.608515 -0.000010 0.542565
99.079582 -23.651487 -0.000006 0.537285
92.415977 -25.816620 -0.000005 0.529931
88.704712 -27.022480 -0.000004 0.546975
86.335388 -27.792318 -0.000003 0.550164
83.807945 -28.613533 0.199993 0.687510
82.716011 -28.968327 0.199992 0.678401
nan nan nan 0.000000
nan nan nan 0.000000
nan nan nan 0.000000
nan nan nan 0.000000
169.938583 -1.352379 13.351740 0.611765
144.746292 -9.343826 7.923867 0.765255
144.746307 -9.343826 5.549239 0.760616
144.746307 -9.343826 3.182236 0.765896
144.746307 -9.343826 0.817766 0.733837
114.687164 -18.879129 -0.000010 0.544030
99.131630 -23.813625 -0.000006 0.543709
92.453087 -25.932180 -0.000005 0.555642
88.733482 -27.112104 -0.000004 0.526009
86.358849 -27.865383 -0.000003 0.536217
83.825737 -28.668932 0.199992 0.668544
82.731346 -29.016092 0.199992 0.658732
nan nan nan 0.000000
nan nan nan 0.000000
nan nan nan 0.000000
nan nan nan 0.000000
169.850830 -2.100677 13.316363 0.611048
144.746307 -9.871813 7.910921 0.735485
144.746307 -9.871813 5.541481 0.773983
144.746292 -9.871813 3.179651 0.752361
144.746292 -9.871813 0.820349 0.773281
114.772156 -19.150341 -0.000010 0.538674
99.182556 -23.976120 -0.000006 0.545754
92.489380 -26.047998 -0.000005 0.538674
88.761635 -27.201925 -0.000004 0.534081
86.381798 -27.938608 -0.000003 0.525154
83.843132 -28.724453 0.199992 0.712001
82.746346 -29.063965 0.199992 0.666606
nan nan nan 0.000000
nan nan nan 0.000000
nan nan nan 0.000000
nan nan nan 0.000000
169.765625 -2.843752 13.281997 0.611765
144.746307 -10.397512 7.898318 0.738338
144.746307 -10.397516 5.533931 0.756664
144.746307 -10.397516 3.177137 0.767544
144.746307 -10.397516 0.822864 0.758129
114.855263 -19.422134 -0.000010 0.539101
99.232338 -24.138962 -0.000006 0.536187
92.524864 -26.164066 -0.000005 0.534874
88.789154 -27.291939 -0.000004 0.550118
86.404228 -28.011992 -0.000003 0.568841
83.860146 -28.780094 0.199992 0.672984
82.761017 -29.111940 0.199992 0.681361
nan nan nan 0.000000
nan nan nan 0.000000
nan nan nan 0.000000
nan nan nan 0.000000
169.831818 -3.537956 13.266479 0.551110
144.746307 -10.921009 7.886056 0.720546
144.746307 -10.921013 5.526583 0.728923
144.746307 -10.921013 3.174689 0.715175
144.746307 -10.921013 0.825311 0.742367
114.936462 -19.694508 -0.000010 0.544060
99.280991 -24.302153 -0.000006 0.534859
92.559540 -26.280380 -0.000005 0.530999
88.816048 -27.382145 -0.000004 0.542672
86.426155 -28.085529 -0.000003 0.520806
83.876770 -28.835852 0.199992 0.737652
82.775345 -29.160017 0.199993 0.768444
nan nan nan 0.000000
nan nan nan 0.000000
nan nan nan 0.000000
nan nan nan 0.000000
169.602386 -4.315010 13.216192 0.611765
144.746307 -11.442360 7.874129 0.709987
144.726349 -11.448082 5.518418 0.611765
144.746307 -11.442362 3.172309 0.742550
144.746307 -11.442362 0.827692 0.710582
115.015755 -19.967438 -0.000010 0.540429
99.328491 -24.465679 -0.000006 0.541100
92.593399 -26.396933 -0.000004 0.532952
88.842308 -27.472538 -0.000004 0.514870
86.447563 -28.159218 -0.000003 0.524132
83.892998 -28.891726 0.199992 0.763836
82.789345 -29.208193 0.199992 0.735958
nan nan nan 0.000000
nan nan nan 0.000000
nan nan nan 0.000000
nan nan nan 0.000000
169.524353 -5.043486 13.184737 0.611765
144.746307 -11.961622 7.862535 0.720058
144.726349 -11.967196 5.511474 0.611765
144.746307 -11.961622 3.169995 0.719570
144.746307 -11.961622 0.830005 0.712428
115.093124 -20.240921 -0.000010 0.538872
99.374863 -24.629528 -0.000006 0.556802
92.626450 -26.513718 -0.000005 0.553414
88.867935 -27.563108 -0.000004 0.550042
86.468452 -28.233055 -0.000003 0.528511
83.908844 -28.947710 0.199993 0.705516
82.803001 -29.256466 0.199993 0.711299
nan nan nan 0.000000
nan nan nan 0.000000
nan nan nan 0.000000
nan nan nan 0.000000
169.448669 -5.767399 13.154225 0.611765
144.746307 -12.478867 7.851274 0.765072
144.726349 -12.484287 5.504728 0.611765
144.746307 -12.478868 3.167746 0.763882
144.746307 -12.478868 0.832253 0.773754
115.168610 -20.514929 -0.000010 0.540368
99.420082 -24.793701 -0.000006 0.548058
92.658676 -26.630730 -0.000005 0.524224
88.892937 -27.653856 -0.000004 0.518502
86.488831 -28.307037 -0.000003 0.535943
83.924294 -29.003805 0.199992 0.672847
82.816322 -29.304832 0.199992 0.695094
nan nan nan 0.000000
nan nan nan 0.000000
nan nan nan 0.000000
nan nan nan 0.000000
169.118866 -6.554649 13.094138 0.304936
144.746307 -12.994146 7.840336 0.754833
144.726349 -12.999422 5.498178 0.611765
144.746307 -12.994148 3.165565 0.771237
144.746307 -12.994148 0.834435 0.768963
115.242172 -20.789459 -0.000010 0.541634
99.464157 -24.958183 -0.000006 0.544808
92.690086 -26.747965 -0.000004 0.547326
88.917297 -27.744778 -0.000004 0.564050
86.508690 -28.381157 -0.000003 0.522377
83.939354 -29.060005 0.199992 0.706676
82.829308 -29.353291 0.199992 0.675227
nan nan nan 0.000000
nan nan nan 0.000000
nan nan nan 0.000000
nan nan nan 0.000000
169.076324 -7.260672 13.068927 0.926772
144.746307 -13.507542 7.829728 0.710628
144.726349 -13.512667 5.491822 0.611765
144.746307 -13.507540 3.163446 0.729015
144.746307 -13.507540 0.836553 0.750820
115.313797 -21.064507 -0.000010 0.540047
99.507080 -25.122972 -0.000006 0.538262
92.720680 -26.865417 -0.000004 0.538079
88.941025 -27.835869 -0.000004 0.560342
86.528030 -28.455418 -0.000003 0.521691
83.954018 -29.116310 0.199992 0.680644
82.841957 -29.401838 0.199992 0.663050
nan nan nan 0.000000
nan nan nan 0.000000
nan nan nan 0.000000
nan nan nan 0.000000
169.134094 -7.938540 13.056245 0.383383
144.746307 -14.019087 7.819438 0.710262
144.676300 -14.036539 5.483125 0.933837
144.746307 -14.019089 3.161393 0.723735
144.746307 -14.019089 0.838607 0.712612
115.383530 -21.340034 -0.000010 0.540887
99.548843 -25.288055 -0.000006 0.543099
92.750458 -26.983080 -0.000004 0.538949
88.964111 -27.927120 -0.000004 0.530663
86.546860 -28.529808 -0.000003 0.549844
83.968292 -29.172714 0.199992 0.768841
82.854263 -29.450474 0.199992 0.741131
nan nan nan 0.000000
nan nan nan 0.000000
nan nan nan 0.000000
nan nan nan 0.000000
169.141418 -8.627077 13.038161 0.312108
144.746292 -14.528862 7.809467 0.765789
144.746307 -14.528860 5.480696 0.745861
144.746307 -14.528862 3.159402 0.745693
144.746307 -14.528860 0.840596 0.761151
115.451309 -21.616047 -0.000010 0.542290
99.589470 -25.453424 -0.000006 0.538231
92.779404 -27.100948 -0.000004 0.532387
88.986572 -28.018530 -0.000004 0.539467
86.565163 -28.604328 -0.000003 0.512993
83.982170 -29.229219 0.199992 0.751690
82.866226 -29.499193 0.199993 0.662638
nan nan nan 0.000000
nan nan nan 0.000000
nan nan nan 0.000000
nan nan nan 0.000000
169.104492 -9.323772 13.015458 0.611765
144.746307 -15.036921 7.799812 0.752789
144.746307 -15.036922 5.474913 0.776471
144.746307 -15.036921 3.157477 0.739437
144.746307 -15.036921 0.842523 0.758724
115.517181 -21.892532 -0.000010 0.542336
99.628937 -25.619076 -0.000006 0.530587
92.807533 -27.219017 -0.000005 0.531609
89.008385 -28.110098 -0.000004 0.532464
86.582947 -28.678976 -0.000003 0.527214
83.995651 -29.285818 0.199992 0.685283
82.877853 -29.547997 0.199992 0.742824
nan nan nan 0.000000
nan nan nan 0.000000
nan nan nan 0.000000
nan nan nan 0.000000
169.042297 -10.023409 12.990385 0.611765
144.746307 -15.543311 7.790473 0.744839
144.726318 -15.547851 5.468310 0.611765
144.746307 -15.543309 3.155613 0.765164
144.746307 -15.543309 0.844388 0.752926
115.581116 -22.169464 -0.000010 0.537697
99.667252 -25.784994 -0.000006 0.532280
92.834839 -27.337276 -0.000005 0.536202
89.029556 -28.201813 -0.000004 0.522026
86.600204 -28.753746 -0.000003 0.536782
84.008743 -29.342510 0.199992 0.716945
82.889145 -29.596878 0.199992 0.778408
nan nan nan 0.000000
nan nan nan 0.000000
nan nan nan 0.000000
nan nan nan 0.000000
168.982254 -10.719498 12.966174 0.611765
144.746307 -16.048100 7.781443 0.717052
144.706329 -16.056889 5.461896 0.304524
144.746307 -16.048100 3.153809 0.718303
144.746307 -16.048100 0.846189 0.717815
115.643112 -22.446835 -0.000010 0.537057
99.704391 -25.951181 -0.000006 0.536751
92.861320 -27.455725 -0.000005 0.528267
89.050087 -28.293674 -0.000004 0.537026
86.616951 -28.828634 -0.000003 0.517769
84.021439 -29.399294 0.199992 0.722225
82.900085 -29.645838 0.199992 0.743694
nan nan nan 0.000000
nan nan nan 0.000000
nan nan nan 0.000000
nan nan nan 0.000000
168.924347 -11.412157 12.942823 0.611765
144.746307 -16.551342 7.772724 0.715709
144.726318 -16.555592 5.457677 0.611765
144.746307 -16.551342 3.152070 0.722942
144.746307 -16.551342 0.847930 0.717449
115.703178 -22.724634 -0.000010 0.545052
99.740372 -26.117622 -0.000007 0.538231
92.886963 -27.574356 -0.000005 0.544625
89.069977 -28.385677 -0.000004 0.509575
86.633163 -28.903637 -0.000003 0.542580
84.033730 -29.456161 0.199992 0.689326
82.910690 -29.694872 0.199992 0.662943
nan nan nan 0.000000
nan nan nan 0.000000
nan nan nan 0.000000
nan nan nan 0.000000
168.868500 -12.101526 12.920316 0.611765
144.746307 -17.053093 7.764308 0.775647
144.726318 -17.057196 5.452639 0.611765
144.746307 -17.053091 3.150390 0.771237
144.746307 -17.053091 0.849608 0.772686
115.761307 -23.002842 -0.000010 0.542229
99.775200 -26.284307 -0.000007 0.531014
92.911789 -27.693161 -0.000005 0.545419
89.089226 -28.477818 -0.000003 0.535042
86.648857 -28.978752 -0.000003 0.567849
84.045631 -29.513115 0.199992 0.688975
82.920944 -29.743980 0.199992 0.681346
nan nan nan 0.000000
nan nan nan 0.000000
nan nan nan 0.000000
nan nan nan 0.000000
168.814774 -12.787733 12.898652 0.611765
144.746307 -17.553402 7.756202 0.752941
144.726318 -17.557362 5.447782 0.611765
144.746307 -17.553402 3.148773 0.776471
144.746307 -17.553402 0.851227 0.767605
115.817505 -23.281445 -0.000010 0.539040
99.808861 -26.451233 -0.000007 0.528908
92.935776 -27.812138 -0.000005 0.542962
89.107834 -28.570087 -0.000004 0.518975
86.664024 -29.053974 -0.000003 0.573663
84.057129 -29.570150 0.199992 0.745724
82.930862 -29.793158 0.199992 0.667643
nan nan nan 0.000000
nan nan nan 0.000000
nan nan nan 0.000000
nan nan nan 0.000000
168.555786 -13.510454 12.853539 0.529473
144.746307 -18.052338 7.748395 0.709804
144.726334 -18.056150 5.443105 0.611765
144.746307 -18.052341 3.147214 0.731823
144.746307 -18.052341 0.852784 0.715175
115.871719 -23.560444 -0.000010 0.542351
99.841354 -26.618391 -0.000007 0.536583
92.958931 -27.931278 -0.000005 0.534859
89.125793 -28.662487 -0.000004 0.534020
86.678665 -29.129301 -0.000003 0.531182
84.068230 -29.627266 0.199992 0.775113
82.940430 -29.842403 0.199992 0.708400
nan nan nan 0.000000
nan nan nan 0.000000
nan nan nan 0.000000
nan nan nan 0.000000
168.713501 -14.151152 12.857821 0.611765
144.746307 -18.549942 7.740890 0.736370
144.746307 -18.549942 5.439609 0.732036
144.746307 -18.549942 3.145718 0.726482
144.746307 -18.549942 0.854282 0.736614
115.923996 -23.839809 -0.000010 0.535958
99.872681 -26.785770 -0.000007 0.543328
92.981262 -28.050579 -0.000005 0.533150
89.143105 -28.755009 -0.000003 0.556420
86.692780 -29.204727 -0.000003 0.527947
84.078934 -29.684456 0.199992 0.682155
82.949661 -29.891716 0.199992 0.702296
96.680847 -27.521486 7.290292 0.223529
96.748756 -27.509512 6.576381 0.223529
nan nan nan 0.000000
nan nan nan 0.000000
168.665863 -14.828627 12.838623 0.524422
144.746323 -19.046276 7.733684 0.776471
144.746307 -19.046278 5.435290 0.776471
144.746307 -19.046276 3.144278 0.739437
144.746307 -19.046276 0.855721 0.758724
115.974327 -24.119537 -0.000010 0.537774
99.902824 -26.953367 -0.000006 0.550851
93.002754 -28.170033 -0.000005 0.534142
89.159775 -28.847651 -0.000004 0.553948
86.706367 -29.280251 -0.000003 0.515724
84.089233 -29.741720 0.199992 0.724865
82.958542 -29.941092 0.199992 0.706416
96.662628 -27.674107 7.279284 0.223529
96.730331 -27.662655 6.566829 0.223529
96.797592 -27.651279 5.859832 0.223529
nan nan nan 0.000000
168.620270 -15.503421 12.820240 0.611765
144.746307 -19.541389 7.726773 0.753491
144.746307 -19.541389 5.431150 0.774624
144.746307 -19.541388 3.142900 0.775555
144.746307 -19.541388 0.857100 0.769467
116.022705 -24.399605 -0.000010 0.539284
99.931808 -27.121168 -0.000006 0.540719
93.023407 -28.289633 -0.000005 0.528954
89.175797 -28.940405 -0.000003 0.525368
86.719429 -29.355867 -0.000003 0.497978
84.099144 -29.799055 0.199992 0.733867
82.967087 -29.990526 0.199992 0.665370
96.746033 -27.809652 7.294352 0.223529
96.742981 -27.810148 6.564322 0.223529
96.779022 -27.804310 5.851949 0.223529
96.845718 -27.793507 5.150245 0.223529
168.576675 -16.175667 12.802661 0.611765
144.628937 -20.054340 7.710411 0.617807
144.628937 -20.054340 5.421346 0.591501
144.628937 -20.054340 3.139635 0.631006
144.628937 -20.054340 0.860365 0.612009
116.069122 -24.680006 -0.000010 0.541939
99.959625 -27.289165 -0.000006 0.536065
93.043228 -28.409374 -0.000004 0.529122
89.191170 -29.033270 -0.000003 0.533257
86.731964 -29.431574 -0.000003 0.541955
84.108643 -29.856457 0.199992 0.717678
82.975281 -30.040020 0.199992 0.736126
nan nan nan 0.000000
96.724617 -27.962284 6.555266 0.223529
97.067329 -27.909229 5.900777 0.223529
96.827019 -27.946430 5.143956 0.223529
96.893303 -27.936169 4.445985 0.223529
96.959503 -27.925922 3.748868 0.223529
144.746307 -20.528158 5.423398 0.737942
144.746323 -20.528156 3.140318 0.754864
144.746323 -20.528156 0.859682 0.749050
116.113594 -24.960722 -0.000010 0.543420
99.986267 -27.457355 -0.000006 0.528939
93.062218 -28.529251 -0.000004 0.543496
89.205902 -29.126238 -0.000004 0.539101
86.743973 -29.507364 -0.000003 0.515694
84.117744 -29.913923 0.199992 0.679835
82.983131 -30.089571 0.199992 0.755611
nan nan nan 0.000000
96.706314 -28.113825 6.546463 0.223529
nan nan nan 0.000000
nan nan nan 0.000000
96.874466 -28.088995 4.441213 0.223529
96.940483 -28.079247 3.745447 0.223529
97.006546 -28.069490 3.049051 0.223529
147.338837 -20.637091 3.181998 0.735515
147.340454 -20.636850 0.817974 0.736843
116.156097 -25.241741 -0.000010 0.538903
100.011726 -27.625727 -0.000006 0.546883
93.080368 -28.649258 -0.000004 0.531136
89.219971 -29.219309 -0.000003 0.562722
86.755447 -29.583237 -0.000003 0.516365
84.126450 -29.971453 0.199992 0.674052
82.990631 -30.139175 0.199992 0.752895
91.597298 -28.980251 5.975244 0.223529
96.688065 -28.264793 6.537910 0.223529
nan nan nan 0.000000
nan nan nan 0.000000
nan nan nan 0.000000
96.921524 -28.231983 3.742122 0.223529
96.987419 -28.222723 3.047048 0.223529
97.053497 -28.213436 2.349858 0.223529
150.974091 -20.635418 0.759119 0.744411
116.196632 -25.523054 -0.000010 0.542855
100.036011 -27.794271 -0.000006 0.542611
93.097679 -28.769386 -0.000005 0.550820
89.233398 -29.312475 -0.000003 0.516533
86.766388 -29.659189 -0.000003 0.545098
84.134743 -30.029041 0.199992 0.688045
82.997787 -30.188829 0.199992 0.671946
91.519745 -29.102375 5.951846 0.223529
91.612442 -29.090008 5.427627 0.223529
91.804314 -29.064405 4.922897 0.223529
nan nan nan 0.000000
nan nan nan 0.000000
156.452484 -20.438540 8.664975 0.233356
97.095261 -28.358446 3.051392 0.223529
97.034248 -28.366587 2.349207 0.223529
97.100487 -28.357750 1.649700 0.223529
116.235199 -25.804646 -0.000010 0.535500
100.059113 -27.962986 -0.000006 0.544762
93.114151 -28.889637 -0.000005 0.530755
89.246170 -29.405733 -0.000003 0.519677
86.776802 -29.735216 -0.000003 0.542870
84.142639 -30.086687 0.199992 0.685496
83.004593 -30.238533 0.199992 0.730510
91.592171 -29.204243 5.966549 0.223529
91.583542 -29.205332 5.418232 0.223529
91.624817 -29.200117 4.887327 0.223529
91.814529 -29.176151 4.382197 0.223529
nan nan nan 0.000000
156.443268 -21.011684 8.658171 0.237613
152.952621 -21.452652 5.816345 0.709804
97.250381 -28.489447 2.352455 0.223529
97.081131 -28.510830 1.650337 0.223529
97.147667 -28.502422 0.946966 0.223529
100.081055 -28.131851 -0.000006 0.538552
93.129784 -29.009996 -0.000004 0.539345
89.258301 -29.499077 -0.000004 0.529793
86.786682 -29.811314 -0.000003 0.542885
84.150139 -30.144384 0.199992 0.692836
83.011055 -30.288284 0.199992 0.685542
91.665131 -29.306875 5.981556 0.223529
91.656441 -29.307911 5.431157 0.223529
91.647873 -29.308933 4.889079 0.223529
91.639420 -29.309940 4.353999 0.223529
91.822830 -29.288071 3.846873 0.223529
156.434540 -21.583628 8.651749 0.242924
152.954147 -21.998638 5.813148 0.733333
152.955963 -21.998421 3.270171 0.722118
97.091103 -28.659870 1.650472 0.223529
97.128204 -28.655445 0.948831 0.223529
97.195198 -28.647457 0.240010 0.223529
93.144569 -29.130465 -0.000004 0.548470
89.269768 -29.592505 -0.000004 0.548852
86.796036 -29.887478 -0.000003 0.535073
84.157227 -30.202135 0.199992 0.676829
83.017166 -30.338078 0.199992 0.687037
91.774170 -29.406309 6.005826 0.223529
96.615509 -28.863270 6.506158 0.223529
91.721252 -29.412245 4.900181 0.223529
91.712730 -29.413202 4.363040 0.223529
91.704300 -29.414148 3.831660 0.223529
91.829681 -29.400084 3.315862 0.223529
92.019638 -29.378777 2.797779 0.223529
153.306396 -22.504402 3.274917 0.725155
97.071846 -28.812084 1.651071 0.223529
116.339119 -26.650925 -0.000010 0.541665
97.175636 -28.800442 0.243046 0.223529
93.158524 -29.251030 -0.000004 0.532937
89.280586 -29.686008 -0.000004 0.539284
86.804855 -29.963705 -0.000003 0.542519
84.163918 -30.259932 0.199992 0.750347
83.022934 -30.387913 0.199992 0.672847
91.848465 -29.510761 6.021501 0.223529
96.597473 -29.011623 6.498825 0.223529
nan nan nan 0.000000
91.786598 -29.517263 4.372267 0.223529
91.778099 -29.518156 3.838808 0.223529
91.769669 -29.519043 3.309916 0.223529
91.835487 -29.512125 2.788077 0.223529
92.024826 -29.492226 2.265620 0.223529
97.052658 -28.963781 1.651652 0.223529
116.369797 -26.933479 -0.000010 0.543053
100.139771 -28.639315 -0.000006 0.547585
93.171631 -29.371691 -0.000004 0.551202
89.290749 -29.779587 -0.000004 0.542153
86.813141 -30.039991 -0.000003 0.539773
84.170197 -30.317776 0.199992 0.745953
83.028351 -30.437788 0.199992 0.682109
91.923355 -29.616037 6.037498 0.223529
96.579475 -29.159504 6.491730 0.223529
101.193321 -28.707115 6.627694 0.223529
nan nan nan 0.000000
91.852478 -29.622988 3.846102 0.223529
91.843979 -29.623819 3.315110 0.223529
91.835533 -29.624649 2.787520 0.223529
91.840668 -29.624146 2.262404 0.223529
92.029793 -29.605602 1.734486 0.223529
116.398529 -27.216240 -0.000010 0.538643
100.156975 -28.808729 -0.000006 0.545617
93.183891 -29.492441 -0.000004 0.530968
89.300262 -29.873232 -0.000003 0.523812
86.820900 -30.116335 -0.000003 0.556634
84.176079 -30.375660 0.199992 0.697398
83.033424 -30.487698 0.199992 0.676814
91.998840 -29.722162 6.053821 0.223529
96.561508 -29.306929 6.484872 0.223529
101.197876 -28.884989 6.625474 0.223529
101.164696 -28.888010 5.765879 0.223529
101.257896 -28.879528 4.931362 0.223529
156.404785 -23.860800 8.629803 0.245563
91.910362 -29.730213 2.790692 0.223529
91.901878 -29.730986 2.263237 0.223529
91.893410 -29.731756 1.736903 0.223529
92.034966 -29.718874 1.203161 0.223529
92.229462 -29.701174 0.654019 0.223529
93.195313 -29.613276 -0.000004 0.549218
89.309120 -29.966944 -0.000003 0.553658
86.828125 -30.192732 -0.000003 0.538949
84.181557 -30.433586 0.199992 0.731411
83.038147 -30.537643 0.199992 0.692287
92.074951 -29.829151 6.070477 0.223529
96.543579 -29.453913 6.478249 0.223529
nan nan nan 0.000000
101.256821 -29.058134 5.777293 0.223529
101.135315 -29.068336 4.915421 0.223529
101.227478 -29.060598 4.085550 0.223529
155.950226 -24.465431 5.947360 0.743908
91.977242 -29.837357 2.264313 0.223529
91.968704 -29.838074 1.735827 0.223529
91.960167 -29.838791 1.207335 0.223529
92.040771 -29.832022 0.670367 0.223529
92.236336 -29.815599 0.111927 0.223529
89.317329 -30.060715 -0.000004 0.547234
86.834808 -30.269176 -0.000003 0.568841
84.186623 -30.491549 0.199992 0.738460
83.042519 -30.587622 0.199992 0.695918
92.151695 -29.937029 6.087472 0.223529
96.525940 -29.600451 6.471912 0.223529
nan nan nan 0.000000
nan nan nan 0.000000
101.317780 -29.231741 4.934836 0.223529
101.138199 -29.245560 4.077037 0.223529
101.196671 -29.241060 3.247322 0.223529
