# This PCD file was generated using the MATLABÂ® pcwrite function
# from Computer Vision ToolboxÂ®.
# .PCD v.7 - Point Cloud Data file format
VERSION .7
FIELDS x y z intensity
SIZE 4 4 4 4
TYPE F F F F
COUNT 1 1 1 1
WIDTH 1305
HEIGHT 1
VIEWPOINT 0 0 0 1 0 0 0
POINTS 1305
DATA ascii
nan nan nan 0.000000
nan nan nan 0.000000
1.144596 157.576645 -0.000028 0.338003
-15.172220 157.270935 -0.000016 0.337728
-22.177580 157.139679 -0.000012 0.337514
-26.079176 157.066574 -0.000008 0.339055
-28.570007 157.019913 -0.000007 0.338247
-30.301224 156.987473 -0.000006 0.333120
-31.576706 156.963577 -0.000005 0.336172
nan nan nan 0.000000
nan nan nan 0.000000
nan nan nan 0.000000
nan nan nan 0.000000
nan nan nan 0.000000
nan nan nan 0.000000
nan nan nan 0.000000
nan nan nan 0.000000
nan nan nan 0.000000
1.148918 157.292450 -0.000028 0.338964
-15.169628 157.100662 -0.000016 0.337804
-22.175728 157.018326 -0.000011 0.337865
-26.077744 156.972458 -0.000009 0.333471
-28.568836 156.943192 -0.000007 0.339223
-30.300240 156.922836 -0.000005 0.341222
-31.575855 156.907852 -0.000005 0.340398
nan nan nan 0.000000
nan nan nan 0.000000
nan nan nan 0.000000
nan nan nan 0.000000
nan nan nan 0.000000
nan nan nan 0.000000
nan nan nan 0.000000
nan nan nan 0.000000
nan nan nan 0.000000
1.151272 157.008255 -0.000028 0.337881
-15.168222 156.930389 -0.000016 0.338277
-22.174726 156.896957 -0.000011 0.339147
-26.076965 156.878342 -0.000009 0.341100
-28.568203 156.866455 -0.000007 0.337407
-30.299706 156.858185 -0.000005 0.337270
-31.575396 156.852112 -0.000005 0.338781
nan nan nan 0.000000
nan nan nan 0.000000
nan nan nan 0.000000
nan nan nan 0.000000
nan nan nan 0.000000
nan nan nan 0.000000
nan nan nan 0.000000
nan nan nan 0.000000
nan nan nan 0.000000
1.151630 156.724030 -0.000028 0.338994
-15.168003 156.760101 -0.000016 0.338598
-22.174570 156.775589 -0.000011 0.334783
-26.076843 156.784210 -0.000009 0.335882
-28.568104 156.789719 -0.000007 0.337057
-30.299622 156.793549 -0.000006 0.334615
-31.575323 156.796356 -0.000005 0.341192
nan nan nan 0.000000
nan nan nan 0.000000
nan nan nan 0.000000
nan nan nan 0.000000
nan nan nan 0.000000
nan nan nan 0.000000
nan nan nan 0.000000
nan nan nan 0.000000
nan nan nan 0.000000
1.150017 156.439819 -0.000028 0.338903
-15.168970 156.589813 -0.000016 0.337240
-22.175264 156.654221 -0.000012 0.336004
-26.077379 156.690079 -0.000008 0.338018
-28.568541 156.712982 -0.000007 0.331991
-30.299990 156.728897 -0.000006 0.332372
-31.575642 156.740616 -0.000005 0.338674
nan nan nan 0.000000
nan nan nan 0.000000
nan nan nan 0.000000
nan nan nan 0.000000
nan nan nan 0.000000
nan nan nan 0.000000
nan nan nan 0.000000
nan nan nan 0.000000
nan nan nan 0.000000
1.146408 156.155609 -0.000028 0.338186
-15.171135 156.419540 -0.000016 0.337896
-22.176800 156.532852 -0.000011 0.334203
-26.078573 156.595963 -0.000009 0.333181
-28.569515 156.636246 -0.000007 0.338537
-30.300808 156.664246 -0.000006 0.340414
-31.576347 156.684891 -0.000005 0.324147
nan nan nan 0.000000
nan nan nan 0.000000
nan nan nan 0.000000
nan nan nan 0.000000
nan nan nan 0.000000
nan nan nan 0.000000
nan nan nan 0.000000
nan nan nan 0.000000
nan nan nan 0.000000
1.140820 155.871460 -0.000028 0.338018
-15.174477 156.249283 -0.000016 0.339361
-22.179190 156.411499 -0.000011 0.338460
-26.080425 156.501846 -0.000008 0.337377
-28.571022 156.559525 -0.000007 0.334081
-30.302082 156.599625 -0.000006 0.327733
-31.577444 156.629150 -0.000005 0.332860
nan nan nan 0.000000
nan nan nan 0.000000
nan nan nan 0.000000
nan nan nan 0.000000
nan nan nan 0.000000
nan nan nan 0.000000
nan nan nan 0.000000
nan nan nan 0.000000
nan nan nan 0.000000
1.133270 155.587341 -0.000028 0.338033
-15.179024 156.079056 -0.000016 0.338842
-22.182421 156.290176 -0.000011 0.339666
-26.082932 156.407761 -0.000008 0.334859
-28.573067 156.482819 -0.000007 0.334096
-30.303806 156.534988 -0.000005 0.338888
-31.578930 156.573425 -0.000005 0.347936
nan nan nan 0.000000
nan nan nan 0.000000
nan nan nan 0.000000
nan nan nan 0.000000
nan nan nan 0.000000
nan nan nan 0.000000
nan nan nan 0.000000
nan nan nan 0.000000
nan nan nan 0.000000
0.921124 155.310806 0.009931 1.000000
-15.184746 155.908875 -0.000016 0.339055
-22.186499 156.168869 -0.000011 0.339178
-26.086094 156.313675 -0.000009 0.336858
-28.575645 156.406128 -0.000007 0.334813
-30.305979 156.470383 -0.000005 0.338598
-31.580803 156.517715 -0.000005 0.334752
nan nan nan 0.000000
nan nan nan 0.000000
nan nan nan 0.000000
nan nan nan 0.000000
nan nan nan 0.000000
nan nan nan 0.000000
nan nan nan 0.000000
nan nan nan 0.000000
nan nan nan 0.000000
1.342697 155.009109 -0.011365 0.702617
-15.191660 155.738724 -0.000016 0.338262
-22.191429 156.047607 -0.000011 0.337636
-26.089920 156.219635 -0.000009 0.332418
-28.578762 156.329453 -0.000007 0.342672
-30.308601 156.405792 -0.000006 0.336294
-31.583069 156.462021 -0.000005 0.333303
nan nan nan 0.000000
nan nan nan 0.000000
nan nan nan 0.000000
nan nan nan 0.000000
nan nan nan 0.000000
nan nan nan 0.000000
nan nan nan 0.000000
nan nan nan 0.000000
nan nan nan 0.000000
-2.967445 154.943268 0.199986 0.715511
-15.199759 155.568634 -0.000016 0.337438
-22.197201 155.926361 -0.000011 0.337026
-26.094397 156.125610 -0.000009 0.341283
-28.582413 156.252808 -0.000007 0.339940
-30.311676 156.341217 -0.000006 0.338567
-31.585718 156.406342 -0.000005 0.341268
nan nan nan 0.000000
nan nan nan 0.000000
nan nan nan 0.000000
nan nan nan 0.000000
nan nan nan 0.000000
nan nan nan 0.000000
nan nan nan 0.000000
nan nan nan 0.000000
nan nan nan 0.000000
-2.981426 154.687851 0.199988 0.696712
-15.209044 155.398590 -0.000016 0.336538
-22.203823 155.805176 -0.000012 0.332784
-26.099529 156.031616 -0.000009 0.338766
-28.586594 156.176178 -0.000007 0.341482
-30.315201 156.276657 -0.000006 0.334157
-31.588757 156.350693 -0.000005 0.329686
nan nan nan 0.000000
nan nan nan 0.000000
nan nan nan 0.000000
nan nan nan 0.000000
nan nan nan 0.000000
nan nan nan 0.000000
nan nan nan 0.000000
nan nan nan 0.000000
nan nan nan 0.000000
-2.997169 154.432541 0.199988 0.718517
-15.340925 155.236542 0.009959 1.000000
-22.211288 155.684036 -0.000011 0.337392
-26.105318 155.937668 -0.000009 0.334691
-28.591316 156.099594 -0.000007 0.326299
-30.319180 156.212128 -0.000006 0.340780
-31.592186 156.295044 -0.000005 0.335866
nan nan nan 0.000000
nan nan nan 0.000000
nan nan nan 0.000000
nan nan nan 0.000000
nan nan nan 0.000000
nan nan nan 0.000000
nan nan nan 0.000000
nan nan nan 0.000000
nan nan nan 0.000000
-3.014648 154.177338 0.199987 0.699107
-15.231184 155.058746 -0.000016 0.336355
-22.219601 155.562943 -0.000011 0.336202
-26.111767 155.843765 -0.000009 0.337179
-28.596573 156.023041 -0.000007 0.335531
-30.323605 156.147644 -0.000006 0.342779
-31.596004 156.239441 -0.000005 0.340764
nan nan nan 0.000000
nan nan nan 0.000000
nan nan nan 0.000000
nan nan nan 0.000000
nan nan nan 0.000000
nan nan nan 0.000000
nan nan nan 0.000000
nan nan nan 0.000000
nan nan nan 0.000000
-3.033936 153.922272 0.199986 0.712291
-15.733158 154.927673 0.040215 0.684825
-22.228754 155.441925 -0.000011 0.337697
-26.118864 155.749893 -0.000009 0.335592
-28.602360 155.946518 -0.000007 0.342336
-30.328484 156.083176 -0.000006 0.334646
-31.600208 156.183853 -0.000005 0.344579
nan nan nan 0.000000
nan nan nan 0.000000
nan nan nan 0.000000
nan nan nan 0.000000
nan nan nan 0.000000
nan nan nan 0.000000
nan nan nan 0.000000
nan nan nan 0.000000
nan nan nan 0.000000
-3.055031 153.667358 0.199986 0.703380
-17.688257 154.928711 0.199987 0.727855
-22.238760 155.320969 -0.000011 0.335729
-26.126621 155.656097 -0.000009 0.337072
-28.608685 155.870041 -0.000007 0.338003
-30.333807 156.018738 -0.000006 0.338247
-31.604805 156.128296 -0.000005 0.335164
nan nan nan 0.000000
nan nan nan 0.000000
nan nan nan 0.000000
nan nan nan 0.000000
nan nan nan 0.000000
nan nan nan 0.000000
nan nan nan 0.000000
nan nan nan 0.000000
nan nan nan 0.000000
-3.077873 153.412582 0.199986 0.712413
-17.701971 154.776077 0.199989 0.690410
-22.336002 155.208130 0.009971 1.000000
-26.135033 155.562332 -0.000009 0.339864
-28.615541 155.793610 -0.000007 0.337301
-30.339586 155.954361 -0.000006 0.337545
-31.609783 156.072784 -0.000005 0.333898
nan nan nan 0.000000
nan nan nan 0.000000
nan nan nan 0.000000
nan nan nan 0.000000
nan nan nan 0.000000
nan nan nan 0.000000
nan nan nan 0.000000
nan nan nan 0.000000
nan nan nan 0.000000
-3.102516 153.157974 0.199986 0.705959
-17.716742 154.623535 0.199990 0.709651
-22.347635 155.087921 0.009971 1.000000
-26.144096 155.468643 -0.000009 0.337118
-28.622932 155.717239 -0.000007 0.337789
-30.345812 155.890015 -0.000006 0.342504
-31.615150 156.017303 -0.000005 0.341070
nan nan nan 0.000000
nan nan nan 0.000000
nan nan nan 0.000000
nan nan nan 0.000000
nan nan nan 0.000000
nan nan nan 0.000000
nan nan nan 0.000000
nan nan nan 0.000000
nan nan nan 0.000000
-3.128922 152.903549 0.199986 0.714504
-17.732590 154.471100 0.199992 0.698573
-22.273823 154.958542 -0.000011 0.339086
-26.153816 155.375015 -0.000009 0.337133
-28.630856 155.640900 -0.000007 0.330770
-30.352486 155.825699 -0.000006 0.331182
-31.620907 155.961853 -0.000006 0.336553
nan nan nan 0.000000
nan nan nan 0.000000
nan nan nan 0.000000
nan nan nan 0.000000
nan nan nan 0.000000
nan nan nan 0.000000
nan nan nan 0.000000
nan nan nan 0.000000
nan nan nan 0.000000
-3.157116 152.649307 0.199986 0.700252
-17.749496 154.318771 0.199993 0.719448
-22.777975 154.894058 0.056816 0.672404
-26.164188 155.281464 -0.000009 0.332494
-28.639313 155.564636 -0.000007 0.341650
-30.359612 155.761459 -0.000006 0.332540
-31.627048 155.906448 -0.000005 0.337163
nan nan nan 0.000000
nan nan nan 0.000000
nan nan nan 0.000000
nan nan nan 0.000000
nan nan nan 0.000000
nan nan nan 0.000000
nan nan nan 0.000000
nan nan nan 0.000000
nan nan nan 0.000000
-3.187073 152.395279 0.199986 0.713756
-17.767447 154.166565 0.199993 0.699870
-23.718857 154.889572 0.164251 0.682139
-26.242046 155.196106 0.009978 1.000000
-28.648298 155.488434 -0.000007 0.340047
-30.367182 155.697250 -0.000006 0.335256
-31.633579 155.851089 -0.000005 0.337362
nan nan nan 0.000000
nan nan nan 0.000000
nan nan nan 0.000000
nan nan nan 0.000000
nan nan nan 0.000000
nan nan nan 0.000000
nan nan nan 0.000000
nan nan nan 0.000000
nan nan nan 0.000000
-3.218811 152.141449 0.199986 0.705089
-17.786461 154.014496 0.199993 0.719875
-24.040794 154.818649 0.199989 0.688411
-26.253666 155.103165 0.009978 1.000000
-28.657820 155.412292 -0.000007 0.339956
-30.375202 155.633102 -0.000006 0.337499
-31.640495 155.795792 -0.000005 0.331914
nan nan nan 0.000000
nan nan nan 0.000000
nan nan nan 0.000000
nan nan nan 0.000000
nan nan nan 0.000000
nan nan nan 0.000000
nan nan nan 0.000000
nan nan nan 0.000000
nan nan nan 0.000000
0.780811 151.340652 0.000036 0.540703
-17.806536 153.862564 0.199993 0.691249
-24.055113 154.710358 0.199990 0.717464
-26.199223 155.001266 -0.000009 0.330175
-28.667870 155.336212 -0.000008 0.338369
-30.383671 155.569016 -0.000006 0.344198
-31.647795 155.740524 -0.000005 0.326925
nan nan nan 0.000000
nan nan nan 0.000000
nan nan nan 0.000000
nan nan nan 0.000000
nan nan nan 0.000000
nan nan nan 0.000000
nan nan nan 0.000000
nan nan nan 0.000000
nan nan nan 0.000000
0.741619 151.059158 0.000036 0.537774
-17.827665 153.710770 0.199993 0.715999
-24.070189 154.602173 0.199991 0.758465
-26.212202 154.908035 -0.000009 0.341085
-28.678452 155.260208 -0.000007 0.339940
-30.392586 155.504974 -0.000006 0.345876
-31.655481 155.685318 -0.000005 0.338918
51.261082 143.197571 25.003693 0.560998
51.261051 143.197571 21.834652 0.594064
51.261066 143.197571 18.710108 0.633219
51.261074 143.197571 15.622567 0.601755
51.261074 143.197571 12.564868 0.547662
51.261044 143.197571 9.530108 0.644511
51.261066 143.197571 6.511604 0.584009
51.893612 143.102737 3.513261 0.644297
51.893612 143.102737 0.486739 0.641215
0.700459 150.777939 0.000036 0.539132
-17.849852 153.559128 0.199992 0.697185
-24.086014 154.494080 0.199992 0.721889
-26.631241 154.875687 0.060800 0.687587
-28.743858 155.192413 0.009982 1.000000
-30.401951 155.441010 -0.000006 0.332250
-31.663555 155.630157 -0.000005 0.331655
47.129238 143.197586 23.980698 0.580026
47.390224 143.156586 21.009647 0.544198
47.390209 143.156586 18.015060 0.605432
47.390224 143.156586 15.055948 0.554299
47.129238 143.197586 12.095039 0.669367
47.390217 143.156586 9.216906 0.556802
47.390209 143.156601 6.323949 0.557656
47.733433 143.102692 3.445973 0.621073
47.733433 143.102692 0.554026 0.587182
0.657333 150.497025 0.000036 0.539727
-17.873089 153.407639 0.199991 0.721889
-24.102596 154.386124 0.199993 0.718990
-27.202061 154.872955 0.144432 0.672160
-28.755445 155.116959 0.009982 1.000000
-30.411758 155.377106 -0.000006 0.333806
-31.672010 155.575058 -0.000005 0.335454
43.951412 143.098648 23.198700 0.505364
43.951420 143.098648 20.278318 0.577401
43.951420 143.098648 17.398945 0.627527
43.951405 143.098648 14.553665 0.660471
43.951382 143.098663 11.735890 0.599619
43.951397 143.098663 8.939258 0.591531
43.951405 143.098663 6.157601 0.617670
44.021389 143.087158 3.386038 0.070436
44.021389 143.087158 0.613962 0.077089
0.612259 150.216400 0.000036 0.540505
-17.897392 153.256317 0.199991 0.705837
-24.119934 154.278275 0.199994 0.755062
-27.585497 154.847427 0.199989 0.737560
-28.767555 155.041565 0.009982 1.000000
-30.422010 155.313278 -0.000006 0.337423
-31.680855 155.520020 -0.000005 0.336278
43.951382 142.499222 23.223545 0.580972
43.951382 142.499222 20.299740 0.684169
43.951382 142.499222 17.416988 0.564874
43.951389 142.499222 14.568381 0.534951
43.951366 142.499222 11.747299 0.431937
43.951389 142.499222 8.947392 0.647410
43.951389 142.499222 6.162475 0.603372
44.046360 142.482941 3.388076 0.678431
44.046360 142.482941 0.611923 0.678431
0.565212 149.936111 0.000036 0.543420
-17.922749 153.105164 0.199990 0.692805
-24.138016 154.170547 0.199995 0.703334
-27.599522 154.763885 0.199989 0.744320
-28.726078 154.956985 -0.000008 0.337469
-30.432713 155.249527 -0.000006 0.335409
-31.690081 155.465057 -0.000005 0.339788
43.951336 141.898361 23.249477 0.573159
43.951366 141.898346 20.322105 0.511696
43.951359 141.898346 17.435833 0.579126
43.951374 141.898346 14.583743 0.638239
43.951366 141.898346 11.759219 0.535027
43.951359 141.898346 8.955883 0.687831
43.951359 141.898361 6.167562 0.566766
44.064304 141.878174 3.390073 0.265568
44.064304 141.878174 0.609927 0.098161
0.516224 149.656158 0.000036 0.538415
-17.949162 152.954208 0.199989 0.689647
-24.156849 154.062943 0.199995 0.713130
-27.614132 154.680435 0.199990 0.734432
-28.739307 154.881409 -0.000007 0.336553
-30.489393 155.193985 0.009985 1.000000
-31.699688 155.410141 -0.000006 0.332280
44.141354 141.260666 23.324936 0.678431
43.951344 141.295975 20.345427 0.577752
44.141369 141.260666 17.490646 0.678431
44.141361 141.260666 14.628423 0.678431
43.951351 141.295975 11.771635 0.698192
44.141361 141.260666 8.980585 0.678431
44.141361 141.260666 6.182363 0.678431
44.046360 141.278320 3.391542 0.463539
44.046360 141.278320 0.608456 0.453590
0.465282 149.376556 0.000036 0.541863
-17.976622 152.803436 0.199988 0.712077
-24.176430 153.955475 0.199995 0.680766
-27.629324 154.597092 0.199991 0.709972
-29.066027 154.864059 0.057913 0.685863
-30.500927 155.130692 0.009985 1.000000
-31.709679 155.355301 -0.000005 0.337209
43.951344 140.692032 23.304680 0.600458
43.951351 140.692032 20.369707 0.590768
43.951374 140.692032 17.475935 0.625559
43.951382 140.692032 14.616434 0.593194
43.951344 140.692032 11.784567 0.557275
43.951366 140.692032 8.973954 0.604212
43.951366 140.692032 6.178389 0.594614
44.046375 140.673691 3.393385 0.464591
44.046375 140.673691 0.606615 0.589868
0.412380 149.097305 0.000036 0.538918
-18.005138 152.652847 0.199988 0.689464
-24.196758 153.848145 0.199995 0.682567
-27.645096 154.513855 0.199992 0.680262
-29.449652 154.862228 0.126434 0.704433
-30.512897 155.067490 0.009985 1.000000
-31.720055 155.300537 -0.000005 0.338872
43.951351 140.086472 23.333960 0.597757
43.951351 140.086472 20.394947 0.549157
43.951359 140.086472 17.497196 0.718044
43.951382 140.086456 14.633773 0.514397
43.951366 140.086456 11.798014 0.616709
43.951359 140.086456 8.983539 0.634531
43.951351 140.086472 6.184131 0.596857
44.046391 140.067429 3.395299 0.392340
44.046391 140.067429 0.604699 0.352880
0.357544 148.818451 0.000036 0.540215
-18.034714 152.502472 0.199988 0.717601
-24.217842 153.740967 0.199995 0.679332
-27.661453 154.430740 0.199993 0.681544
-29.807140 154.860535 0.190199 0.769635
-30.479954 154.995300 -0.000006 0.340673
-31.730812 155.245850 -0.000006 0.333822
44.189983 139.429657 23.425407 0.224216
43.951374 139.479187 20.421158 0.575952
44.141361 139.439758 17.554586 0.439246
44.141369 139.439758 14.680553 0.524102
43.951366 139.479187 11.811975 0.610742
44.141369 139.439758 9.009398 0.480140
44.141376 139.439758 6.199625 0.414969
44.046375 139.459473 3.397287 0.678431
44.046375 139.459473 0.602713 0.678431
0.300747 148.539963 0.000036 0.541527
-18.065340 152.352310 0.199987 0.706615
-24.239670 153.633942 0.199995 0.676600
-27.678385 154.347733 0.199994 0.729763
-29.873699 154.803421 0.199990 0.676753
-30.492870 154.931946 -0.000007 0.338170
-31.741951 155.191223 -0.000006 0.337865
44.127644 138.832275 23.441046 0.103136
43.951351 138.870163 20.448334 0.656245
44.141361 138.829330 17.577538 0.552483
44.141346 138.829330 14.699265 0.635966
43.951351 138.870163 11.826452 0.558862
44.141361 138.829330 9.019740 0.580362
44.141361 138.829330 6.205823 0.599847
44.046368 138.849747 3.399348 0.678431
44.046360 138.849747 0.600651 0.678431
0.242016 148.261887 0.000036 0.536873
-18.097013 152.202362 0.199988 0.708110
-24.262241 153.527069 0.199995 0.677028
-27.695896 154.264847 0.199995 0.719509
-29.887974 154.735855 0.199991 0.727611
-30.506231 154.868698 -0.000006 0.330022
-31.792475 155.145065 0.009987 1.000000
43.951374 138.259293 23.428553 0.558099
43.951351 138.259293 20.476503 0.403403
43.951359 138.259293 17.565907 0.596857
43.951359 138.259293 14.689780 0.648707
43.951359 138.259293 11.841455 0.666026
43.951359 138.259293 9.014500 0.635935
43.951359 138.259293 6.202683 0.617838
44.046383 138.238190 3.401487 0.610910
44.046375 138.238190 0.598513 0.649332
0.181339 147.984222 0.000036 0.537896
-18.129728 152.052628 0.199988 0.711391
-24.285564 153.420349 0.199995 0.714046
-27.713987 154.182083 0.199996 0.761669
-29.902718 154.668381 0.199991 0.730449
-30.747330 154.856033 0.050282 0.658946
-31.804314 155.090881 0.009987 1.000000
43.951397 137.646530 23.462374 0.545357
43.951359 137.646545 20.505659 0.552300
43.951382 137.646530 17.590473 0.599756
43.951405 137.646530 14.709812 0.534142
43.951382 137.646530 11.856985 0.491188
43.951374 137.646530 9.025568 0.556954
43.951374 137.646530 6.209316 0.612985
43.991734 137.637268 3.402780 0.295613
43.991734 137.637268 0.597220 0.227405
0.118729 147.707001 0.000036 0.539178
-18.163500 151.903137 0.199988 0.722179
-24.309622 153.313797 0.199994 0.715145
-27.732655 154.099457 0.199996 0.689479
-29.917936 154.601013 0.199991 0.666728
-31.023315 154.854721 0.108362 0.736156
-31.816532 155.036789 0.009987 1.000000
43.951359 137.031815 23.497330 0.486992
43.951374 137.031815 20.535818 0.564279
44.141376 136.986816 17.651403 0.678431
44.141369 136.986816 14.759482 0.678431
43.951359 137.031815 11.873046 0.617075
44.141369 136.986816 9.053028 0.678431
44.141384 136.986801 6.225765 0.678431
44.046345 137.009323 3.405983 0.494347
44.046352 137.009323 0.594015 0.479255
0.054188 147.430222 0.000035 0.541680
-15.825212 151.191742 0.000021 0.547478
-24.334429 153.207413 0.199994 0.695277
-27.751896 154.016953 0.199996 0.670237
-29.933624 154.533768 0.199992 0.670436
-31.283340 154.853485 0.162995 0.672648
-31.790310 154.973572 -0.000006 0.333547
43.951359 136.415039 23.533466 0.547845
43.951382 136.415039 20.566975 0.674128
43.951351 136.415054 17.642120 0.703822
43.951359 136.415054 14.751914 0.605417
43.951344 136.415054 11.889641 0.618997
43.951359 136.415039 9.048845 0.562692
43.951366 136.415039 6.223258 0.565988
44.046375 136.391830 3.408348 0.678431
44.046375 136.391830 0.591652 0.678431
-0.012280 147.153885 0.000035 0.544823
-15.865042 151.026184 0.000021 0.545708
-24.359974 153.101212 0.199994 0.744488
-27.771709 153.934586 0.199996 0.672633
-29.949783 154.466614 0.199993 0.747631
-31.463634 154.836395 0.199992 0.684367
-31.803345 154.919373 -0.000006 0.333501
43.951328 135.796188 23.570772 0.659464
43.951359 135.796188 20.599138 0.659342
43.951336 135.796188 17.669216 0.489281
43.951351 135.796188 14.774008 0.677577
43.951336 135.796188 11.906773 0.643534
43.951336 135.796188 9.061057 0.691905
43.951351 135.796188 6.230576 0.437064
44.046398 135.772263 3.410789 0.613108
44.046398 135.772263 0.589212 0.520714
-0.080696 146.878036 0.000035 0.538354
-15.906021 150.860901 0.000021 0.542580
-24.386255 152.995193 0.199993 0.718395
-27.792099 153.852356 0.199996 0.756878
-29.966408 154.399582 0.199993 0.675685
-31.477638 154.779922 0.199991 0.707332
-31.816761 154.865280 -0.000006 0.342123
43.951313 135.175140 23.609262 0.512383
43.951336 135.175140 20.632330 0.605341
43.951344 135.175140 17.697186 0.629145
43.951359 135.175140 14.796806 0.601343
43.951328 135.175140 11.924452 0.633005
43.951336 135.175140 9.073658 0.669963
43.951344 135.175140 6.238125 0.571145
44.021366 135.156982 3.412884 0.094118
44.021366 135.156982 0.587116 0.143679
-0.151009 146.602661 0.000035 0.540780
-15.948158 150.695923 0.000020 0.541634
-24.413284 152.889343 0.199993 0.757610
-27.813061 153.770279 0.199996 0.758175
-29.983501 154.332672 0.199994 0.712612
-31.492035 154.723557 0.199992 0.719036
-31.980642 154.850159 0.038830 0.701427
43.951321 134.551849 23.648954 0.504585
44.141369 134.501190 20.709023 0.575494
44.141392 134.501175 17.761803 0.678431
44.141376 134.501190 14.849479 0.678431
43.951328 134.551849 11.942679 0.790158
44.141376 134.501175 9.102776 0.678431
12.293156 142.991196 4.636330 0.406012
12.007607 143.067322 2.873312 0.408286
44.046337 134.526520 0.584099 0.678431
-0.223255 146.327789 0.000035 0.543618
-15.991447 150.531235 0.000021 0.558434
-24.441046 152.783707 0.199992 0.743725
-27.834597 153.688339 0.199996 0.729610
-30.001060 154.265869 0.199995 0.744244
-31.506828 154.667282 0.199992 0.737270
-32.189110 154.849152 0.089271 0.752544
43.951359 133.926208 23.689856 0.619364
43.951351 133.926224 20.701815 0.608240
43.951359 133.926208 17.755722 0.520912
43.951382 133.926208 14.844529 0.532891
43.951366 133.926208 11.961467 0.389960
43.951366 133.926208 9.100037 0.589456
12.370777 142.581467 4.645263 0.396124
10.588562 143.069916 2.850885 0.390661
44.046398 133.900162 0.581423 0.678431
-0.297424 146.053421 0.000035 0.536309
-16.035879 150.366852 0.000020 0.538613
-24.469547 152.678253 0.199991 0.717586
-27.856707 153.606567 0.199996 0.665614
-30.019085 154.199203 0.199996 0.662165
-31.522011 154.611115 0.199992 0.673671
-32.387138 154.848221 0.137093 0.688243
43.951374 133.298187 23.731970 0.672496
43.951382 133.298187 20.738132 0.702449
43.951359 133.298187 17.786314 0.629313
43.951374 133.298187 14.869464 0.726299
43.951366 133.298187 11.980806 0.513817
43.951374 133.298187 9.113823 0.549599
43.951374 133.298187 6.262190 0.470558
10.869457 142.613693 2.857313 0.408988
44.046368 133.271439 0.578670 0.678431
-0.373482 145.779587 0.000034 0.538491
-16.081461 150.202774 0.000020 0.542504
-24.498783 152.572998 0.199991 0.727398
-27.879383 153.524948 0.199996 0.673579
-30.037579 154.132660 0.199996 0.709636
-31.537582 154.555054 0.199991 0.697169
-32.575500 154.847321 0.182494 0.734874
43.951405 132.667679 23.775318 0.651560
44.141369 132.612762 20.818209 0.676875
44.141354 132.612762 17.853783 0.678431
44.141376 132.612762 14.924467 0.678431
43.951389 132.667694 12.000710 0.463172
44.141361 132.612762 9.144225 0.678431
11.106819 142.164337 4.591046 0.406775
9.990646 142.487061 2.844053 0.403052
11.843487 141.951324 1.124385 0.370474
-0.451488 145.506287 0.000034 0.538705
-16.128187 150.039032 0.000020 0.532525
-24.528751 152.467957 0.199990 0.741802
-27.902628 153.443481 0.199996 0.685878
-30.056530 154.066254 0.199996 0.716701
-31.553551 154.499100 0.199991 0.671870
-32.656509 154.818008 0.199993 0.688792
43.951405 132.034637 23.819891 0.614069
43.848660 132.065125 20.790789 0.606104
43.848675 132.065125 17.830687 0.534508
43.848675 132.065125 14.905638 0.543191
43.951397 132.034637 12.021186 0.616251
43.848660 132.065125 9.133816 0.567834
12.134720 141.475266 4.649025 0.400351
10.875008 141.849045 2.860877 0.410697
44.046391 132.006454 0.572919 0.677516
-0.531368 145.233536 0.000034 0.539025
-16.176054 149.875610 0.000020 0.534615
-24.559456 152.363129 0.199990 0.721813
-27.926443 153.362183 0.199996 0.705272
-30.075947 153.999969 0.199997 0.675792
-31.569910 154.443268 0.199992 0.747448
-32.670612 154.769867 0.199993 0.707912
43.951405 131.398956 23.865721 0.590845
43.951389 131.398956 20.853445 0.551141
43.951389 131.398956 17.883469 0.528588
43.951389 131.398956 14.948669 0.486915
43.951389 131.398956 12.042233 0.619516
43.951405 131.398956 9.157604 0.621088
10.620064 141.542725 4.576808 0.414374
10.411427 141.606216 2.854754 0.401495
44.046383 131.370056 0.569922 0.589456
-0.613167 144.961349 0.000034 0.537530
-16.225065 149.712524 0.000020 0.539574
-24.590889 152.258514 0.199989 0.703044
-27.950829 153.281052 0.199997 0.754726
-30.095821 153.933838 0.199997 0.722515
-31.586658 154.387543 0.199993 0.681712
-32.685051 154.721817 0.199992 0.718593
43.951382 130.760590 23.912802 0.620554
43.951374 130.760590 20.894047 0.564370
43.951366 130.760590 17.917671 0.516625
43.951405 130.760590 14.976559 0.568414
43.951382 130.760590 12.063858 0.487022
43.951382 130.760590 9.173018 0.564233
11.177624 140.985199 4.611052 0.416754
10.496540 141.197678 2.858055 0.422278
44.032551 130.735260 0.567080 0.125902
-0.696873 144.689743 0.000034 0.539391
-16.275206 149.549805 0.000020 0.540124
-24.623051 152.154129 0.199988 0.687892
-27.975773 153.200089 0.199996 0.691157
-30.116159 153.867844 0.199997 0.757107
-31.603796 154.331940 0.199994 0.743252
-32.699825 154.673874 0.199993 0.697429
43.951359 130.119431 23.961168 0.680568
44.141369 130.058685 20.978828 0.678431
44.141384 130.058685 17.989101 0.678431
44.141376 130.058685 15.034781 0.678431
43.951366 130.119415 12.086069 0.452094
44.141392 130.058685 9.205206 0.678431
44.141384 130.058685 6.316942 0.678431
12.489044 140.176453 2.894177 0.404166
44.046352 130.089066 0.563679 0.574319
-0.782444 144.418716 0.000034 0.539437
-16.326487 149.387421 0.000020 0.544762
-24.655945 152.049957 0.199988 0.716335
-28.001282 153.119308 0.199996 0.666606
-30.136959 153.801987 0.199997 0.680964
-31.621321 154.276459 0.199995 0.754925
-32.714931 154.626038 0.199993 0.751980
43.951382 129.475372 24.010828 0.537713
43.951351 129.475372 20.978561 0.474754
43.951366 129.475372 17.988873 0.560906
43.951374 129.475372 15.034602 0.654246
43.951359 129.475372 12.108873 0.559274
43.951359 129.475372 9.205101 0.577066
43.951359 129.475372 6.316881 0.497230
44.046360 129.444275 3.439569 0.678431
44.046352 129.444275 0.560433 0.678431
-0.869934 144.148300 0.000034 0.541405
-16.378897 149.225403 0.000020 0.543297
-24.689568 151.946030 0.199988 0.687785
-28.027355 153.038696 0.199995 0.671504
-30.158218 153.736267 0.199997 0.684672
-31.639233 154.221100 0.199995 0.681620
-32.730373 154.578308 0.199993 0.667536
43.951382 128.828384 24.061785 0.619318
43.951397 128.828384 21.022507 0.575219
43.951405 128.828384 18.025900 0.687236
43.951405 128.828384 15.064780 0.524697
43.951382 128.828384 12.132279 0.642893
43.951374 128.828400 9.221786 0.672068
43.951389 128.828384 6.326873 0.501060
44.046352 128.796570 3.442902 0.678431
44.046352 128.796570 0.557100 0.678431
-0.959286 143.878510 0.000033 0.539101
-16.432442 149.063751 0.000020 0.530358
-23.075708 151.289993 0.000014 0.549203
-28.053988 152.958282 0.199995 0.776272
-30.179932 153.670715 0.199997 0.741482
-31.657530 154.165878 0.199996 0.739574
-32.746147 154.530685 0.199993 0.685939
43.951359 128.178360 24.114052 0.573190
44.141369 128.113205 21.110954 0.678431
44.141369 128.113205 18.100410 0.678431
44.141376 128.113205 15.125530 0.678431
43.951374 128.178360 12.156289 0.751354
44.141376 128.113205 9.255367 0.678431
44.141376 128.113205 6.346993 0.678431
44.046329 128.145798 3.446321 0.678431
44.046337 128.145798 0.553681 0.678431
-1.050533 143.609344 0.000033 0.537636
-16.487110 148.902481 0.000020 0.541207
-23.114670 151.175049 0.000013 0.537835
-28.081184 152.878052 0.199994 0.711513
-30.202106 153.605301 0.199997 0.665415
-31.676212 154.110764 0.199997 0.667094
-32.762253 154.483170 0.199992 0.703151
43.951344 127.525238 24.167650 0.586175
43.951351 127.525238 21.113791 0.599008
43.951351 127.525238 18.102802 0.620081
43.951359 127.525230 15.127476 0.581628
43.951336 127.525238 12.180902 0.725521
43.951336 127.525238 9.256441 0.621729
43.951351 127.525238 6.347639 0.568765
44.046375 127.491905 3.449826 0.678431
44.046375 127.491905 0.550174 0.678431
-1.143650 143.340820 0.000033 0.546960
-16.542906 148.741608 0.000020 0.537682
-23.154438 151.060379 0.000013 0.544900
-28.108940 152.798004 0.199994 0.672572
-30.224731 153.540054 0.199997 0.699641
-31.695278 154.055801 0.199997 0.744961
-32.778690 154.435776 0.199992 0.751934
43.951359 126.868881 24.222614 0.474708
43.951389 126.868866 21.161182 0.473381
43.951382 126.868874 18.142725 0.544793
43.951382 126.868866 15.160022 0.639017
43.951397 126.868866 12.206148 0.508431
43.951389 126.868866 9.274435 0.601450
43.951389 126.868866 6.358418 0.601068
44.060253 126.829834 3.453663 0.295903
44.060253 126.829834 0.546339 0.292058
-1.238647 143.072952 0.000033 0.536797
-16.599819 148.581116 0.000019 0.533654
-23.195007 150.945984 0.000013 0.524315
-28.137251 152.718170 0.199993 0.665919
-30.247820 153.474960 0.199997 0.692363
-31.714725 154.000961 0.199997 0.657206
-32.795460 154.388489 0.199992 0.677516
nan nan nan 0.000000
nan nan nan 0.000000
43.951351 126.209244 18.183626 0.411612
43.951351 126.209244 15.193364 0.582879
43.951359 126.209244 12.232006 0.595117
43.951351 126.209244 9.292865 0.553262
43.951366 126.209244 6.369462 0.641077
44.021374 126.183586 3.456667 0.082475
44.021374 126.183586 0.543333 0.082475
-1.335518 142.805771 0.000033 0.540490
-16.657858 148.421021 0.000020 0.531563
-23.236370 150.831879 0.000013 0.537377
-28.166122 152.638519 0.199993 0.671580
-30.271357 153.410034 0.199997 0.680964
-31.734556 153.946259 0.199997 0.738796
-32.812561 154.341324 0.199993 0.744778
nan nan nan 0.000000
nan nan nan 0.000000
44.141346 125.475082 18.262447 0.678431
44.141338 125.475082 15.257621 0.678431
43.951336 125.546227 12.258498 0.673594
44.141361 125.475075 9.328382 0.678431
44.141346 125.475082 6.390744 0.678431
44.046383 125.510635 3.460878 0.639368
44.046383 125.510635 0.539124 0.639368
-1.434235 142.539246 0.000033 0.537804
-16.717007 148.261337 0.000019 0.553094
-23.278528 150.718079 0.000013 0.531746
-28.195549 152.559082 0.199993 0.731304
-30.295347 153.345276 0.199997 0.738231
-31.754768 153.891708 0.199997 0.698680
-32.829994 154.294281 0.199994 0.685435
nan nan nan 0.000000
nan nan nan 0.000000
43.951344 124.879715 18.268452 0.512627
43.951336 124.879723 15.262515 0.560342
43.951351 124.879715 12.285633 0.558114
43.951351 124.879715 9.331091 0.439429
43.951344 124.879715 6.392362 0.585702
44.046329 124.843399 3.464738 0.678431
44.046337 124.843399 0.535260 0.678431
-1.534821 142.273438 0.000033 0.537346
-16.777269 148.102081 0.000019 0.532113
-23.321484 150.604553 0.000013 0.532219
-28.225525 152.479843 0.199993 0.735286
-30.319790 153.280685 0.199997 0.738476
-31.775360 153.837280 0.199997 0.755535
-32.847748 154.247360 0.199995 0.700374
nan nan nan 0.000000
nan nan nan 0.000000
43.951336 124.209648 18.312397 0.600015
43.951351 124.209641 15.298346 0.661326
43.951351 124.209641 12.313419 0.685893
43.951366 124.209641 9.350895 0.579904
43.951336 124.209648 6.404227 0.471305
44.046368 124.172546 3.468697 0.678431
44.046368 124.172546 0.531303 0.678431
-1.637268 142.008331 0.000033 0.539101
-16.838642 147.943237 0.000019 0.539910
-23.365232 150.491348 0.000013 0.529671
-28.256060 152.400818 0.199992 0.694560
-30.344681 153.216263 0.199997 0.677317
-31.796329 153.783005 0.199997 0.680644
-32.865833 154.200562 0.199995 0.667430
nan nan nan 0.000000
nan nan nan 0.000000
44.141384 123.460190 18.394604 0.678431
44.024975 123.506584 15.346774 0.157366
43.951389 123.535904 12.341865 0.596246
44.141392 123.460190 9.387938 0.642893
44.141376 123.460190 6.426424 0.678431
44.046337 123.498062 3.472745 0.678431
44.046337 123.498062 0.527253 0.678431
-1.741535 141.743927 0.000033 0.537408
-16.901129 147.784836 0.000019 0.531594
-23.409758 150.378433 0.000013 0.516274
-28.287142 152.322021 0.199992 0.673243
-30.370022 153.152008 0.199997 0.695979
-31.817680 153.728882 0.199997 0.704997
-32.884243 154.153900 0.199996 0.778805
nan nan nan 0.000000
nan nan nan 0.000000
43.951366 122.858414 18.403418 0.753399
43.951382 122.858406 15.372549 0.496208
43.951359 122.858414 12.370967 0.608087
43.951389 122.858406 9.391911 0.560037
43.951382 122.858406 6.428806 0.578576
44.021381 122.829948 3.476450 0.149004
44.021381 122.829948 0.523550 0.149676
-1.847668 141.480286 0.000033 0.535103
-16.964710 147.626862 0.000019 0.531167
-23.455086 150.265854 0.000013 0.531594
-28.318773 152.243423 0.199991 0.721294
-30.395809 153.087952 0.199996 0.705180
-31.839407 153.674911 0.199997 0.685634
-32.902977 154.107361 0.199996 0.683619
nan nan nan 0.000000
nan nan nan 0.000000
43.951313 122.177101 18.450506 0.508766
43.951351 122.177078 15.410936 0.596063
43.951336 122.177094 12.400740 0.639811
43.951321 122.177094 9.413130 0.489372
43.951328 122.177094 6.441518 0.646754
44.046360 122.137680 3.481130 0.678431
44.046360 122.137680 0.518868 0.678431
-1.955635 141.217377 0.000033 0.541634
-17.029394 147.469345 0.000018 0.537682
-23.501192 150.153580 0.000013 0.535592
-28.350952 152.165054 0.199991 0.715892
-30.422043 153.024063 0.199996 0.682261
-31.861509 153.621094 0.199997 0.680659
-32.922039 154.060959 0.199997 0.737118
nan nan nan 0.000000
nan nan nan 0.000000
44.141331 121.411407 18.536222 0.560143
43.951351 121.491768 15.450211 0.582803
43.951336 121.491776 12.431198 0.517830
44.141323 121.411407 9.451752 0.388235
44.141323 121.411407 6.464659 0.413169
44.046314 121.451599 3.485470 0.678431
44.046314 121.451599 0.514532 0.678431
-2.065422 140.955231 0.000033 0.540246
-17.095184 147.312286 0.000019 0.552468
-23.548080 150.041626 0.000013 0.547799
-28.383678 152.086914 0.199991 0.756649
-30.448723 152.960358 0.199996 0.757504
-31.883987 153.567429 0.199997 0.738811
-32.941422 154.014679 0.199997 0.688182
nan nan nan 0.000000
nan nan nan 0.000000
43.951359 120.802399 18.547955 0.649531
43.951351 120.802399 15.490376 0.646372
43.951336 120.802399 12.462346 0.605402
43.951351 120.802399 9.457043 0.605356
43.951366 120.802391 6.467828 0.665034
44.046352 120.761429 3.489904 0.678431
44.046345 120.761429 0.510096 0.678431
-2.177063 140.693863 0.000032 0.542397
-17.162058 147.155685 0.000018 0.540597
-23.595745 149.930008 0.000013 0.547387
-28.416950 152.009003 0.199990 0.673396
-30.475849 152.896851 0.199996 0.677531
-31.906839 153.513916 0.199997 0.682811
-32.961124 153.968552 0.199997 0.661570
nan nan nan 0.000000
49.498867 117.670609 23.010744 0.616724
43.951389 120.108856 18.598333 0.577569
43.951336 120.108871 15.531440 0.519860
43.951336 120.108871 12.494196 0.449119
43.951351 120.108871 9.479740 0.629816
43.951366 120.108871 6.481429 0.507927
44.060398 120.060944 3.494690 0.227039
44.060406 120.060944 0.505309 0.062745
-2.290482 140.433258 0.000031 0.538430
-17.230034 146.999557 0.000018 0.528054
-23.644199 149.818741 0.000013 0.543801
-28.450768 151.931335 0.199990 0.671168
-30.503414 152.833527 0.199995 0.710231
-31.930065 153.460571 0.199997 0.753628
-32.981152 153.922546 0.199997 0.683635
47.837193 117.670677 25.987221 0.586542
47.837170 117.670685 22.682680 0.721538
44.101330 119.343887 18.679722 0.098100
43.951328 119.411079 15.573416 0.649882
43.951328 119.411079 12.526751 0.557305
44.101315 119.343903 9.516418 0.188083
44.101315 119.343895 6.503404 0.240620
20.809498 129.775833 3.082434 0.825803
20.809498 129.775833 0.917565 0.858305
-2.405754 140.173477 0.000031 0.538659
-17.299097 146.843903 0.000018 0.532067
-23.693417 149.707794 0.000012 0.531975
-27.254734 151.302826 0.000010 0.532265
-30.531425 152.770401 0.199995 0.723934
-31.953663 153.407394 0.199997 0.683558
-33.001499 153.876694 0.199997 0.694606
46.226871 117.670601 25.619677 0.634089
46.226902 117.670593 22.365786 0.652567
43.951328 118.708908 18.702446 0.458793
43.951321 118.708908 15.616323 0.459800
43.951321 118.708908 12.560027 0.553536
43.951328 118.708908 9.526661 0.586450
43.951321 118.708908 6.509540 0.498039
19.697033 129.775848 3.065847 0.826154
19.697033 129.775848 0.934153 0.826947
-2.522842 139.914505 0.000032 0.541512
-17.369244 146.688736 0.000018 0.546441
-23.743416 149.597198 0.000012 0.546044
-27.293510 151.217072 0.000010 0.526894
-30.559870 152.707458 0.199995 0.672877
-31.977631 153.354370 0.199997 0.715908
-33.022167 153.830978 0.199997 0.768246
45.073948 117.480515 25.377279 0.678431
45.073994 117.480492 22.156782 0.678431
43.951328 118.002243 18.756235 0.515358
43.951336 118.002243 15.660174 0.514366
43.951321 118.002251 12.594033 0.455299
43.951321 118.002251 9.550897 0.491463
43.951344 118.002243 6.524060 0.568185
18.618122 129.775848 3.049810 0.808759
18.618122 129.775848 0.950190 0.826139
-2.641716 139.656357 0.000031 0.539406
-17.440472 146.534073 0.000018 0.536522
-23.794189 149.486954 0.000013 0.534524
-27.332880 151.131561 0.000009 0.521798
-30.588757 152.644730 0.199994 0.750820
-32.001968 153.301529 0.199998 0.672877
-33.043152 153.785416 0.199997 0.681331
43.453724 117.526482 25.004948 0.217838
43.453701 117.526489 21.835728 0.166217
43.453709 117.526489 18.711014 0.230579
43.149136 117.670631 15.573324 0.654383
43.149143 117.670639 12.526679 0.617090
43.453716 117.526489 9.530521 0.139834
43.453709 117.526489 6.511851 0.108873
17.571095 129.775879 3.034297 0.818479
17.571110 129.775864 0.965702 0.834165
-2.762394 139.399033 0.000031 0.540383
-17.512774 146.379898 0.000018 0.529961
-23.845722 149.377075 0.000013 0.539925
-27.372850 151.046341 0.000009 0.526894
-30.618080 152.582199 0.199994 0.731365
-32.026672 153.248840 0.199997 0.711727
-33.064453 153.739990 0.199997 0.747189
41.677700 117.670517 24.587952 0.486625
41.677685 117.670525 21.476179 0.485130
41.677700 117.670525 18.408106 0.508171
41.677685 117.670532 15.376367 0.472953
41.677692 117.670525 12.373931 0.631754
41.677677 117.670532 9.394022 0.480491
41.677677 117.670532 6.430068 0.675349
16.554535 129.775879 3.019286 0.828901
16.554539 129.775879 0.980713 0.851377
-2.884861 139.142563 0.000031 0.544091
-17.586151 146.226227 0.000018 0.538750
-23.898020 149.267548 0.000012 0.540276
-27.413416 150.961411 0.000010 0.558114
-30.647842 152.519882 0.199994 0.676173
-32.051750 153.196335 0.199998 0.662776
-33.086071 153.694717 0.199997 0.667033
40.247967 117.670578 24.265858 0.547555
40.247974 117.670578 21.198463 0.545968
40.247982 117.670578 18.174137 0.530404
40.247967 117.670578 15.185629 0.538613
40.247974 117.670578 12.226006 0.517296
40.247974 117.670578 9.288587 0.620279
40.247990 117.670563 6.366900 0.669841
15.567032 129.775879 3.004753 0.825025
15.567032 129.775879 0.995247 0.856016
-3.009113 138.886948 0.000031 0.536202
-17.660606 146.073090 0.000018 0.544488
-23.951084 149.158386 0.000012 0.557565
-27.454571 150.876755 0.000010 0.558434
-30.678036 152.457764 0.199994 0.734722
-32.077187 153.144012 0.199997 0.738354
-33.108006 153.649597 0.199998 0.748043
39.770367 117.215393 24.209198 0.595285
39.770374 117.215393 21.149611 0.570626
39.770374 117.215393 18.132982 0.616724
39.770367 117.215393 15.152075 0.575570
39.770351 117.215401 12.199980 0.679133
39.770351 117.215401 9.270038 0.602823
39.770359 117.215393 6.355786 0.598901
14.607239 129.775879 2.990677 0.824430
14.607239 129.775879 1.009324 0.829587
-3.135174 138.632233 0.000031 0.536843
-17.736120 145.920471 0.000018 0.539361
-24.004910 149.049606 0.000012 0.557702
-27.496313 150.792389 0.000009 0.540978
-30.708664 152.395874 0.199994 0.673548
-32.102989 153.091873 0.199998 0.691142
-33.130253 153.604645 0.199997 0.690333
39.770420 116.521118 24.287422 0.630350
39.770428 116.521111 21.217062 0.632410
39.770428 116.521118 18.189802 0.525521
39.770420 116.521118 15.198397 0.590326
39.770412 116.521118 12.235906 0.597269
39.770428 116.521118 9.295647 0.577569
39.770428 116.521111 6.371130 0.552193
13.673927 129.775879 2.977036 0.819165
13.673935 129.775879 1.022964 0.820737
-3.262985 138.378372 0.000031 0.546563
-17.812696 145.768372 0.000017 0.537606
-24.059492 148.941208 0.000012 0.550164
-27.538643 150.708313 0.000009 0.547524
-30.739719 152.334183 0.199993 0.701488
-32.129158 153.039902 0.199998 0.742092
-33.152817 153.559830 0.199997 0.664240
39.770367 115.821945 24.367262 0.530404
39.960323 115.723785 21.332079 0.558114
39.960331 115.723785 18.286701 0.583902
39.960339 115.723785 15.277403 0.580453
39.770367 115.821945 12.272577 0.616129
39.960339 115.723785 9.339314 0.535882
39.960339 115.723785 6.397293 0.616968
12.765926 129.775879 2.963810 0.807691
12.765926 129.775879 1.036189 0.827085
-3.392563 138.125427 0.000030 0.535317
-17.890345 145.616821 0.000018 0.533059
-24.114838 148.833191 0.000012 0.529183
-27.581564 150.624542 0.000009 0.541848
-30.771210 152.272720 0.199993 0.743511
-32.155685 152.988113 0.199997 0.678279
-33.175690 153.515182 0.199998 0.667262
39.770344 115.117714 24.448788 0.532052
39.770351 115.117706 21.356195 0.453574
39.770359 115.117706 18.307022 0.465675
39.770336 115.117722 15.293959 0.658366
39.770374 115.117706 12.310021 0.611261
39.770344 115.117722 9.348469 0.566293
17.597523 126.771858 5.172197 0.937255
11.882149 129.775879 2.950986 0.832258
11.882149 129.775879 1.049013 0.863737
-3.523926 137.873398 0.000030 0.542214
-17.969040 145.465820 0.000017 0.531380
-24.170929 148.725555 0.000012 0.519188
-27.625063 150.541077 0.000009 0.507897
-30.803125 152.211472 0.199992 0.668818
-32.182575 152.936523 0.199997 0.682872
-33.198875 153.470688 0.199998 0.739498
39.770344 114.408264 24.532017 0.450172
39.770351 114.408264 21.427956 0.452476
39.770351 114.408264 18.367481 0.464118
39.770351 114.408264 15.343246 0.551369
39.770351 114.408264 12.348243 0.634623
39.770344 114.408264 9.375713 0.491753
16.641270 126.771866 5.130691 0.937255
11.021523 129.775879 2.938544 0.815351
11.021519 129.775894 1.061457 0.859983
-3.657028 137.622284 0.000030 0.538354
-18.048798 145.315369 0.000018 0.540322
-24.227770 148.618317 0.000012 0.550027
-27.669149 150.457901 0.000009 0.579797
-30.835472 152.150452 0.199992 0.748165
-32.209824 152.885117 0.199997 0.678111
-33.222374 153.426361 0.199998 0.704051
39.770390 113.693497 24.616982 0.785016
39.920383 113.611954 21.538088 0.179004
39.920353 113.611969 18.460255 0.138903
39.770367 113.693497 15.393557 0.584161
39.770367 113.693497 12.387263 0.535119
39.920361 113.611969 9.417521 0.167590
15.709709 126.771858 5.090405 0.961334
10.857063 129.409546 2.939018 0.820386
10.857059 129.409546 1.060982 0.853376
-3.791878 137.372101 0.000030 0.541192
-18.129595 145.165466 0.000018 0.546578
-24.285360 148.511490 0.000012 0.540063
-27.713808 150.375046 0.000009 0.529839
-30.868238 152.089661 0.199992 0.666606
-32.237431 152.833893 0.199996 0.680034
-33.246178 153.382202 0.199998 0.684382
39.770428 112.973251 24.703697 0.561532
39.960361 112.868286 21.622856 0.678431
39.960361 112.868279 18.531673 0.678431
39.770412 112.973259 15.444911 0.612085
39.770420 112.973251 12.427090 0.581216
39.960377 112.868271 9.449705 0.678431
14.801769 126.771835 5.051290 0.937255
10.857063 128.951828 2.942619 0.821286
10.857056 128.951828 1.057381 0.854841
-3.928474 137.122849 0.000029 0.546197
-18.211432 145.016144 0.000017 0.542992
-24.343693 148.405045 0.000012 0.529061
-27.759050 150.292496 0.000009 0.507805
-30.901432 152.029099 0.199992 0.714199
-32.265392 152.782867 0.199996 0.686595
-33.270287 153.338211 0.199997 0.749203
39.770344 112.247513 24.792168 0.532357
39.770336 112.247513 21.652266 0.532357
39.770351 112.247505 18.556452 0.558480
39.770336 112.247513 15.497301 0.556069
39.770336 112.247513 12.467720 0.530663
39.770336 112.247513 9.460868 0.551614
13.916500 126.771820 5.013300 0.937255
10.857056 128.490570 2.946291 0.836561
10.857052 128.490570 1.053708 0.828977
-4.066807 136.874573 0.000029 0.535897
-18.294312 144.867386 0.000017 0.549050
-24.402765 148.299026 0.000011 0.526116
-27.804867 150.210281 0.000009 0.542916
-30.935047 151.968765 0.199992 0.686213
-32.293713 152.732040 0.199996 0.741527
-33.294708 153.294388 0.199998 0.685756
39.802074 111.497894 24.891621 0.655344
39.802074 111.497894 21.738020 0.749660
39.802067 111.497894 18.628696 0.734585
39.770405 111.515976 15.550788 0.728191
39.770397 111.515984 12.509199 0.703975
39.802074 111.497894 9.493427 0.509102
12.877537 126.871979 4.966464 0.937255
10.857056 128.025681 2.950042 0.826383
10.857056 128.025681 1.049959 0.827070
-4.206875 136.627289 0.000029 0.538903
-18.378233 144.719223 0.000017 0.553521
-24.462574 148.193420 0.000011 0.526452
-27.851254 150.128372 0.000009 0.540581
-30.969086 151.908676 0.199992 0.680888
-32.322384 152.681412 0.199995 0.695979
-33.319431 153.250732 0.199997 0.770459
42.181606 109.379402 25.672935 0.678431
42.181591 109.379410 22.411694 0.678431
42.181583 109.379410 19.196241 0.666667
41.991619 109.489647 15.986305 0.655039
42.181591 109.379410 12.872226 0.678431
42.181599 109.379410 9.749186 0.678431
12.030643 126.876038 4.930306 0.937255
10.857067 127.557068 2.953868 0.814313
10.857063 127.557068 1.046133 0.822889
-4.348663 136.380966 0.000029 0.539422
-18.463184 144.571640 0.000017 0.531899
-24.523132 148.088226 0.000012 0.557824
-27.898216 150.046799 0.000009 0.545510
-30.052921 151.297180 0.000007 0.561837
-32.351410 152.630997 0.199995 0.746929
-33.344460 153.207260 0.199998 0.691356
41.991634 108.725479 25.714567 0.526513
41.991657 108.725471 22.447599 0.689891
41.991627 108.725494 19.226490 0.703288
41.991634 108.725487 16.043541 0.699260
41.991627 108.725479 12.891351 0.701259
41.991650 108.725471 9.762814 0.695567
11.229527 126.865013 4.896607 0.937255
10.857063 127.084648 2.957770 0.834974
10.857063 127.084648 1.042229 0.827802
-4.492157 136.135635 0.000029 0.550408
-18.549168 144.424652 0.000017 0.533303
-24.584414 147.983475 0.000011 0.538369
-27.945740 149.965546 0.000008 0.519432
-30.091667 151.230942 0.000007 0.527169
-32.380787 152.580765 0.199995 0.677836
-33.369793 153.163956 0.199998 0.682277
41.991589 107.955009 25.813162 0.533562
41.991596 107.955002 22.532612 0.558602
41.991596 107.955002 19.298117 0.573922
41.991596 107.955009 16.101929 0.599481
41.991596 107.955009 12.936634 0.596384
41.991589 107.955017 9.795090 0.597528
10.471466 126.839325 4.865238 0.937255
10.857063 126.608307 2.961753 0.827558
10.857059 126.608307 1.038247 0.819776
-4.637375 135.891327 0.000029 0.538506
-18.636173 144.278275 0.000017 0.540154
-24.646427 147.879135 0.000011 0.544518
-27.993834 149.884628 0.000008 0.529091
-30.130875 151.164978 0.000007 0.541772
-32.410515 152.530746 0.199995 0.742504
-33.395424 153.120834 0.199998 0.722774
42.181591 107.062416 25.969486 0.678431
42.181576 107.062424 22.667389 0.678431
42.141582 107.086761 19.403143 0.219364
41.991627 107.178040 16.161512 0.674174
42.181599 107.062408 13.008427 0.678431
42.181591 107.062408 9.846258 0.678431
9.709324 126.826546 4.833512 0.937255
10.857071 126.127975 2.965817 0.827451
10.857067 126.127975 1.034184 0.825757
-4.784298 135.648041 0.000029 0.542214
-18.724197 144.132507 0.000017 0.538308
-24.709164 147.775238 0.000011 0.534371
-28.042492 149.804062 0.000008 0.539498
-30.170542 151.099289 0.000007 0.533318
-32.440594 152.480942 0.199995 0.668833
-33.421360 153.077881 0.199998 0.715724
