# This PCD file was generated using the MATLABÂ® pcwrite function
# from Computer Vision ToolboxÂ®.
# .PCD v.7 - Point Cloud Data file format
VERSION .7
FIELDS x y z intensity
SIZE 4 4 4 4
TYPE F F F F
COUNT 1 1 1 1
WIDTH 1331
HEIGHT 1
VIEWPOINT 0 0 0 1 0 0 0
POINTS 1331
DATA ascii
67.222992 -83.045006 0.199992 0.731228
68.429359 -81.229279 0.002395 0.667765
69.799049 -79.167725 -0.000001 0.338079
70.757256 -77.725517 -0.000002 0.345525
71.463211 -76.662964 -0.000003 0.337011
nan nan nan 0.000000
nan nan nan 0.000000
nan nan nan 0.000000
nan nan nan 0.000000
nan nan nan 0.000000
nan nan nan 0.000000
nan nan nan 0.000000
nan nan nan 0.000000
nan nan nan 0.000000
53.116291 -103.763718 -0.000017 0.547097
62.242046 -90.234222 -0.000011 0.535302
67.132240 -82.984207 0.199996 0.695491
68.342209 -81.190361 0.000002 0.336568
69.735283 -79.125038 -0.000001 0.331090
70.703529 -77.689552 -0.000001 0.341894
71.416893 -76.631950 -0.000003 0.333104
nan nan nan 0.000000
nan nan nan 0.000000
nan nan nan 0.000000
nan nan nan 0.000000
nan nan nan 0.000000
nan nan nan 0.000000
nan nan nan 0.000000
nan nan nan 0.000000
nan nan nan 0.000000
52.881210 -103.603973 -0.000017 0.539559
62.101208 -90.138504 -0.000011 0.523323
67.041916 -82.922783 0.200000 0.680049
68.264351 -81.137459 0.000002 0.337713
69.671822 -79.081902 -0.000000 0.340459
70.650063 -77.653214 -0.000002 0.338918
71.370789 -76.600616 -0.000003 0.340230
nan nan nan 0.000000
nan nan nan 0.000000
nan nan nan 0.000000
nan nan nan 0.000000
nan nan nan 0.000000
nan nan nan 0.000000
nan nan nan 0.000000
nan nan nan 0.000000
nan nan nan 0.000000
52.647270 -103.442581 -0.000017 0.538109
61.961037 -90.041809 -0.000010 0.528161
66.952019 -82.860733 0.200003 0.712047
68.225311 -81.028702 0.009991 1.000000
69.608658 -79.038330 -0.000000 0.340826
70.596848 -77.616508 -0.000002 0.345602
71.324905 -76.568970 -0.000003 0.335378
nan nan nan 0.000000
nan nan nan 0.000000
nan nan nan 0.000000
nan nan nan 0.000000
nan nan nan 0.000000
nan nan nan 0.000000
nan nan nan 0.000000
nan nan nan 0.000000
nan nan nan 0.000000
52.414444 -103.279556 -0.000017 0.545464
61.821545 -89.944138 -0.000011 0.545739
66.862534 -82.798080 0.200003 0.707317
68.148590 -80.974983 0.009992 1.000000
69.545799 -78.994316 -0.000000 0.338613
70.543892 -77.579422 -0.000002 0.330678
71.279243 -76.536995 -0.000004 0.336507
nan nan nan 0.000000
nan nan nan 0.000000
nan nan nan 0.000000
nan nan nan 0.000000
nan nan nan 0.000000
nan nan nan 0.000000
nan nan nan 0.000000
nan nan nan 0.000000
nan nan nan 0.000000
52.182766 -103.114922 -0.000017 0.542229
61.682743 -89.845490 -0.000010 0.537636
66.773476 -82.734833 0.199999 0.710872
68.072250 -80.920723 0.009993 1.000000
69.483246 -78.949860 -0.000000 0.337041
70.491196 -77.541977 -0.000002 0.337774
71.233810 -76.504707 -0.000003 0.341085
nan nan nan 0.000000
nan nan nan 0.000000
nan nan nan 0.000000
nan nan nan 0.000000
nan nan nan 0.000000
nan nan nan 0.000000
nan nan nan 0.000000
nan nan nan 0.000000
nan nan nan 0.000000
51.952251 -102.948662 -0.000017 0.548119
61.544628 -89.745888 -0.000010 0.538079
66.684868 -82.670959 0.199996 0.712627
67.956696 -80.920425 0.000002 0.338399
69.421005 -78.904976 -0.000001 0.332769
70.438759 -77.504158 -0.000002 0.339681
71.188599 -76.472099 -0.000003 0.330327
nan nan nan 0.000000
nan nan nan 0.000000
nan nan nan 0.000000
nan nan nan 0.000000
nan nan nan 0.000000
nan nan nan 0.000000
nan nan nan 0.000000
nan nan nan 0.000000
nan nan nan 0.000000
51.722904 -102.780792 -0.000017 0.540566
61.407215 -89.645309 -0.000010 0.532692
66.596695 -82.606468 0.199992 0.690150
67.880737 -80.864838 0.000001 0.341192
69.359085 -78.859650 -0.000000 0.340169
70.386597 -77.465981 -0.000002 0.336172
71.143616 -76.439178 -0.000003 0.337362
nan nan nan 0.000000
nan nan nan 0.000000
nan nan nan 0.000000
nan nan nan 0.000000
nan nan nan 0.000000
nan nan nan 0.000000
nan nan nan 0.000000
nan nan nan 0.000000
nan nan nan 0.000000
51.494728 -102.611343 -0.000017 0.542321
61.270508 -89.543777 -0.000010 0.537743
66.508980 -82.541374 0.199988 0.696162
67.805176 -80.808716 0.000002 0.329915
69.297478 -78.813904 -0.000001 0.339879
70.334694 -77.427429 -0.000002 0.351064
71.098862 -76.405945 -0.000003 0.336095
nan nan nan 0.000000
nan nan nan 0.000000
nan nan nan 0.000000
nan nan nan 0.000000
nan nan nan 0.000000
nan nan nan 0.000000
nan nan nan 0.000000
nan nan nan 0.000000
nan nan nan 0.000000
51.267746 -102.440277 -0.000016 0.541390
61.134514 -89.441299 -0.000010 0.535195
66.421722 -82.475655 0.199984 0.708461
67.729996 -80.752068 0.000001 0.337102
69.236198 -78.767723 -0.000000 0.337987
70.283066 -77.388527 -0.000002 0.347906
71.054344 -76.372398 -0.000003 0.336767
nan nan nan 0.000000
nan nan nan 0.000000
nan nan nan 0.000000
nan nan nan 0.000000
nan nan nan 0.000000
nan nan nan 0.000000
nan nan nan 0.000000
nan nan nan 0.000000
nan nan nan 0.000000
51.041962 -102.267654 -0.000017 0.538949
60.999237 -89.337875 -0.000010 0.544289
66.334946 -82.409309 0.199984 0.706416
67.655220 -80.694893 0.000002 0.338170
69.175240 -78.721115 -0.000000 0.335485
70.231705 -77.349258 -0.000002 0.337972
71.010063 -76.338539 -0.000003 0.340444
nan nan nan 0.000000
nan nan nan 0.000000
nan nan nan 0.000000
nan nan nan 0.000000
nan nan nan 0.000000
nan nan nan 0.000000
nan nan nan 0.000000
nan nan nan 0.000000
nan nan nan 0.000000
50.817383 -102.093460 -0.000017 0.537896
60.864681 -89.233505 -0.000010 0.536370
66.248627 -82.342361 0.199983 0.679484
67.580841 -80.637207 0.000001 0.336583
69.114601 -78.674080 -0.000000 0.335882
70.180626 -77.309639 -0.000002 0.334905
70.966019 -76.304375 -0.000003 0.332631
nan nan nan 0.000000
nan nan nan 0.000000
nan nan nan 0.000000
nan nan nan 0.000000
nan nan nan 0.000000
nan nan nan 0.000000
nan nan nan 0.000000
nan nan nan 0.000000
nan nan nan 0.000000
50.594036 -101.917694 -0.000017 0.537011
60.730858 -89.128204 -0.000010 0.534142
66.162788 -82.274811 0.199984 0.698619
67.506874 -80.578995 0.000001 0.343175
69.054298 -78.626633 -0.000001 0.335164
70.129822 -77.269661 -0.000002 0.336614
70.922218 -76.269905 -0.000003 0.341161
nan nan nan 0.000000
nan nan nan 0.000000
nan nan nan 0.000000
nan nan nan 0.000000
nan nan nan 0.000000
nan nan nan 0.000000
nan nan nan 0.000000
nan nan nan 0.000000
nan nan nan 0.000000
50.371899 -101.740387 -0.000017 0.540490
60.597778 -89.021957 -0.000010 0.537926
66.077415 -82.206665 0.199984 0.726177
67.433311 -80.520264 0.000001 0.335103
68.994324 -78.578751 -0.000001 0.337606
70.079292 -77.229324 -0.000002 0.324804
70.878654 -76.235130 -0.000003 0.335256
nan nan nan 0.000000
nan nan nan 0.000000
nan nan nan 0.000000
nan nan nan 0.000000
nan nan nan 0.000000
nan nan nan 0.000000
nan nan nan 0.000000
nan nan nan 0.000000
nan nan nan 0.000000
50.151031 -101.561523 -0.000017 0.546242
60.465446 -88.914795 -0.000010 0.539971
65.992523 -82.137917 0.199984 0.716899
67.360161 -80.461029 0.000002 0.339956
68.934692 -78.530464 -0.000000 0.339086
70.029053 -77.188644 -0.000002 0.340810
70.835335 -76.200050 -0.000003 0.337789
nan nan nan 0.000000
nan nan nan 0.000000
nan nan nan 0.000000
nan nan nan 0.000000
nan nan nan 0.000000
nan nan nan 0.000000
nan nan nan 0.000000
nan nan nan 0.000000
nan nan nan 0.000000
49.931396 -101.381119 -0.000017 0.536995
60.333858 -88.806702 -0.000010 0.541482
65.908119 -82.068581 0.199984 0.696101
67.287422 -80.401291 0.000001 0.339300
68.875397 -78.481758 -0.000001 0.340307
69.979095 -77.147606 -0.000002 0.334218
70.792267 -76.164658 -0.000001 0.335683
nan nan nan 0.000000
nan nan nan 0.000000
nan nan nan 0.000000
nan nan nan 0.000000
nan nan nan 0.000000
nan nan nan 0.000000
nan nan nan 0.000000
nan nan nan 0.000000
nan nan nan 0.000000
49.713058 -101.199173 -0.000016 0.541299
60.203033 -88.697708 -0.000010 0.539315
65.824211 -81.998642 0.199987 0.696620
67.215103 -80.341034 0.000001 0.341650
68.816444 -78.432640 -0.000001 0.342885
69.929436 -77.106224 -0.000002 0.347799
70.749451 -76.128967 0.000003 0.336187
nan nan nan 0.000000
nan nan nan 0.000000
nan nan nan 0.000000
nan nan nan 0.000000
nan nan nan 0.000000
nan nan nan 0.000000
nan nan nan 0.000000
nan nan nan 0.000000
nan nan nan 0.000000
49.495972 -101.015724 -0.000016 0.538003
60.072968 -88.587791 -0.000010 0.547906
65.740799 -81.928108 0.199991 0.694575
67.143211 -80.280281 0.000001 0.336797
68.757828 -78.383102 -0.000000 0.338491
69.880051 -77.064499 -0.000002 0.337392
70.706879 -76.092987 0.000005 0.330678
nan nan nan 0.000000
nan nan nan 0.000000
nan nan nan 0.000000
nan nan nan 0.000000
nan nan nan 0.000000
nan nan nan 0.000000
nan nan nan 0.000000
nan nan nan 0.000000
nan nan nan 0.000000
49.280170 -100.830757 -0.000016 0.531746
59.943672 -88.476974 -0.000010 0.542306
65.657875 -81.857002 0.199994 0.693507
67.071739 -80.219025 0.000001 0.332296
68.699570 -78.333168 -0.000001 0.343282
69.830963 -77.022430 -0.000002 0.322560
70.664551 -76.056717 0.000003 0.333516
nan nan nan 0.000000
nan nan nan 0.000000
nan nan nan 0.000000
nan nan nan 0.000000
nan nan nan 0.000000
nan nan nan 0.000000
nan nan nan 0.000000
nan nan nan 0.000000
nan nan nan 0.000000
49.065666 -100.644302 -0.000016 0.539467
59.815163 -88.365250 -0.000010 0.536263
65.575462 -81.785309 0.199997 0.680293
67.000702 -80.157272 0.000001 0.335714
68.641655 -78.282822 -0.000000 0.330449
69.782181 -76.980019 -0.000002 0.344640
70.622475 -76.020149 0.000001 0.343328
nan nan nan 0.000000
nan nan nan 0.000000
nan nan nan 0.000000
nan nan nan 0.000000
nan nan nan 0.000000
nan nan nan 0.000000
nan nan nan 0.000000
nan nan nan 0.000000
nan nan nan 0.000000
48.852470 -100.456345 -0.000016 0.544671
59.687431 -88.252632 -0.000010 0.531289
65.493546 -81.713051 0.200001 0.710643
66.930099 -80.095016 0.000001 0.339635
68.584091 -78.232079 -0.000001 0.340551
69.733681 -76.937263 -0.000002 0.335866
70.580658 -75.983292 0.000001 0.346624
nan nan nan 0.000000
nan nan nan 0.000000
nan nan nan 0.000000
nan nan nan 0.000000
nan nan nan 0.000000
nan nan nan 0.000000
nan nan nan 0.000000
nan nan nan 0.000000
nan nan nan 0.000000
48.640602 -100.266899 -0.000016 0.538033
59.560486 -88.139137 -0.000009 0.531060
65.412132 -81.640221 0.200005 0.705074
66.859924 -80.032280 0.000001 0.335592
68.526886 -78.180931 -0.000001 0.335515
69.685493 -76.894173 -0.000002 0.333455
70.539108 -75.946136 0.000000 0.321614
nan nan nan 0.000000
nan nan nan 0.000000
nan nan nan 0.000000
nan nan nan 0.000000
nan nan nan 0.000000
nan nan nan 0.000000
nan nan nan 0.000000
nan nan nan 0.000000
nan nan nan 0.000000
48.430046 -100.075981 -0.000016 0.541741
59.434334 -88.024750 -0.000010 0.546410
65.331200 -81.566856 0.200003 0.709392
66.790192 -79.969055 0.000001 0.333349
68.470039 -78.129387 -0.000001 0.351003
69.637596 -76.850746 -0.000002 0.338186
70.497810 -75.908691 -0.000000 0.339849
nan nan nan 0.000000
nan nan nan 0.000000
nan nan nan 0.000000
nan nan nan 0.000000
nan nan nan 0.000000
nan nan nan 0.000000
nan nan nan 0.000000
nan nan nan 0.000000
nan nan nan 0.000000
48.220840 -99.883598 -0.000015 0.542779
59.308983 -87.909492 -0.000010 0.537835
65.250771 -81.492943 0.199999 0.710307
66.720909 -79.905342 0.000001 0.341604
68.413559 -78.077446 -0.000001 0.335439
69.590012 -76.806992 -0.000003 0.340688
70.456779 -75.870972 -0.000001 0.337270
nan nan nan 0.000000
nan nan nan 0.000000
nan nan nan 0.000000
nan nan nan 0.000000
nan nan nan 0.000000
nan nan nan 0.000000
nan nan nan 0.000000
nan nan nan 0.000000
nan nan nan 0.000000
48.012970 -99.689766 -0.000016 0.536934
59.184441 -87.793358 -0.000010 0.553140
65.170860 -81.418465 0.199996 0.698817
66.652069 -79.841148 0.000001 0.338491
68.357437 -78.025108 -0.000000 0.327443
69.542732 -76.762901 -0.000002 0.327672
70.416008 -75.832954 -0.000003 0.344091
nan nan nan 0.000000
nan nan nan 0.000000
nan nan nan 0.000000
nan nan nan 0.000000
nan nan nan 0.000000
nan nan nan 0.000000
nan nan nan 0.000000
nan nan nan 0.000000
nan nan nan 0.000000
47.806473 -99.494484 -0.000015 0.534920
59.060722 -87.676353 -0.000010 0.540978
65.091476 -81.343430 0.199993 0.740612
66.583672 -79.776474 0.000001 0.335637
68.301682 -77.972389 -0.000001 0.341451
69.495758 -76.718483 -0.000003 0.336706
70.375504 -75.794655 -0.000003 0.321447
nan nan nan 0.000000
nan nan nan 0.000000
nan nan nan 0.000000
nan nan nan 0.000000
nan nan nan 0.000000
nan nan nan 0.000000
nan nan nan 0.000000
nan nan nan 0.000000
nan nan nan 0.000000
47.601345 -99.297752 -0.000015 0.540459
58.937813 -87.558487 -0.000010 0.530449
65.012619 -81.267845 0.199989 0.739300
66.515739 -79.711319 0.000001 0.340902
68.246292 -77.919281 -0.000001 0.338048
69.449097 -76.673737 -0.000002 0.333837
70.335274 -75.756073 -0.000003 0.327779
nan nan nan 0.000000
nan nan nan 0.000000
nan nan nan 0.000000
nan nan nan 0.000000
nan nan nan 0.000000
nan nan nan 0.000000
nan nan nan 0.000000
nan nan nan 0.000000
nan nan nan 0.000000
47.397579 -99.099617 -0.000015 0.541039
58.815735 -87.439774 -0.000010 0.553780
64.904793 -81.221832 0.195136 0.717922
66.448257 -79.645699 0.000001 0.338109
68.191277 -77.865784 -0.000001 0.335241
69.402756 -76.628662 -0.000002 0.339254
70.295311 -75.717216 -0.000003 0.333074
nan nan nan 0.000000
nan nan nan 0.000000
nan nan nan 0.000000
nan nan nan 0.000000
nan nan nan 0.000000
nan nan nan 0.000000
nan nan nan 0.000000
nan nan nan 0.000000
nan nan nan 0.000000
47.195221 -98.900040 -0.000015 0.539071
58.694489 -87.320206 -0.000010 0.534447
64.750473 -81.221786 0.182675 0.724529
66.381233 -79.579605 0.000001 0.338689
68.136642 -77.811897 -0.000001 0.337819
69.356720 -76.583275 -0.000002 0.331258
70.255623 -75.678078 -0.000003 0.336538
97.060776 -48.980835 9.476454 0.968627
97.226158 -48.816605 8.496819 0.968627
97.391762 -48.652161 7.515842 0.968627
97.557945 -48.487129 6.531417 0.968627
97.725075 -48.321159 5.541399 0.968627
97.783646 -48.263000 4.530902 0.968627
97.931114 -48.116554 3.526579 0.968627
98.080101 -47.968605 2.511933 0.968627
98.230957 -47.818802 1.484589 0.968627
97.533829 -48.511078 0.500926 0.968627
93.189537 -52.825142 -0.000024 0.540108
88.217842 -57.762257 -0.000017 0.532631
85.448883 -60.511951 -0.000014 0.540795
82.901176 -63.041939 0.199998 0.718227
81.795418 -64.139999 0.199995 0.743542
81.381683 -64.550858 0.058456 0.681270
97.068954 -49.264477 9.428026 0.968627
97.233315 -49.103527 8.454407 0.968627
97.397888 -48.942368 7.479559 0.968627
97.563019 -48.780659 6.501381 0.968627
97.729065 -48.618050 5.517745 0.968627
97.786156 -48.562145 4.513825 0.968627
97.932632 -48.418701 3.516211 0.968627
98.080612 -48.273788 2.508432 0.968627
98.230423 -48.127083 1.488137 0.968627
97.533813 -48.809258 0.511212 0.980392
93.309105 -52.946396 -0.000024 0.534371
88.303062 -57.848679 -0.000018 0.540597
85.514977 -60.578976 -0.000014 0.578836
82.949661 -63.091114 0.199999 0.688960
81.836273 -64.181435 0.199995 0.664256
81.381683 -64.626595 0.071777 0.715358
97.076965 -49.544540 9.380557 0.968627
97.240334 -49.386780 8.412845 0.968627
97.403885 -49.228836 7.444002 0.968627
97.567986 -49.070370 6.471948 0.968627
97.732986 -48.911034 5.494571 0.968627
97.788612 -48.857315 4.497097 0.968627
97.934128 -48.716789 3.506053 0.968627
98.081116 -48.574844 2.505003 0.968627
98.229919 -48.431145 1.491612 0.968627
97.533798 -49.103386 0.521287 0.968627
93.427826 -53.068474 -0.000025 0.534997
88.387680 -57.935692 -0.000018 0.564828
85.580597 -60.646458 -0.000014 0.555703
82.997810 -63.140629 0.199999 0.727657
81.876831 -64.223145 0.199995 0.775601
81.381683 -64.701309 0.084823 0.741588
97.084824 -49.821106 9.334028 0.968627
97.247208 -49.666466 8.372106 0.968627
97.409767 -49.511665 7.409153 0.968627
97.572853 -49.356365 6.443106 0.968627
97.736816 -49.200226 5.471861 0.968627
97.791016 -49.148609 4.480706 0.968627
97.935585 -49.010937 3.496103 0.968627
98.081612 -48.871880 2.501644 0.968627
98.229416 -48.731125 1.495016 0.968627
97.533783 -49.393570 0.531155 0.980392
93.545692 -53.191380 -0.000025 0.539086
88.471687 -58.023289 -0.000018 0.530770
85.645752 -60.714394 -0.000014 0.563378
83.045609 -63.190475 0.199999 0.693523
81.917099 -64.265137 0.199995 0.678416
81.381683 -64.775009 0.097602 0.719844
97.092522 -50.094280 9.288412 0.968627
97.253952 -49.942692 8.332172 0.968627
97.415535 -49.790947 7.375001 0.968627
97.577621 -49.638741 6.414840 0.968627
97.740570 -49.485722 5.449608 0.968627
97.793373 -49.436142 4.464648 0.968627
97.937027 -49.301243 3.486355 0.968627
98.082092 -49.165012 2.498355 0.968627
98.228928 -49.027130 1.498349 0.968627
97.533768 -49.679928 0.540821 0.980392
93.662697 -53.315102 -0.000025 0.543236
88.555084 -58.111473 -0.000018 0.548623
85.710426 -60.782784 -0.000014 0.524788
83.093063 -63.240654 0.199999 0.773419
81.957085 -64.307411 0.199995 0.690013
81.381683 -64.847748 0.110121 0.733410
97.100075 -50.364136 9.243696 0.968627
97.260559 -50.215527 8.293028 0.968627
97.421188 -50.066784 7.341523 0.968627
97.582298 -49.917591 6.387138 0.968627
97.744255 -49.767624 5.427800 0.968627
97.795685 -49.720001 4.448913 0.968627
97.938423 -49.587814 3.476804 0.968627
98.082565 -49.454338 2.495131 0.968627
98.228447 -49.319252 1.501615 0.968627
97.533752 -49.962551 0.550291 0.980392
93.778831 -53.439644 -0.000025 0.527672
88.637863 -58.200233 -0.000019 0.536583
85.774620 -60.851627 -0.000014 0.531472
83.140160 -63.291161 0.199999 0.690364
81.996758 -64.349968 0.199996 0.762356
81.381683 -64.919533 0.122384 0.713802
97.107475 -50.630775 9.199852 0.968627
97.267036 -50.485069 8.254654 0.968627
97.426727 -50.339256 7.308707 0.968627
97.586884 -50.193008 6.359985 0.968627
97.747864 -50.046017 5.406427 0.968627
97.797951 -50.000282 4.433493 0.968627
97.939796 -49.870758 3.467444 0.968627
98.083031 -49.739967 2.491972 0.968627
98.227982 -49.607613 1.504815 0.968627
97.533737 -50.241547 0.559568 0.964950
93.894096 -53.564987 -0.000025 0.545022
88.720016 -58.289581 -0.000018 0.525948
85.838333 -60.920914 -0.000014 0.563073
83.186905 -63.341999 0.200000 0.771801
82.036148 -64.392792 0.199995 0.687434
81.381683 -64.990402 0.134400 0.681315
96.506683 -51.441750 8.951914 0.223529
96.638863 -51.322735 8.032618 0.223529
97.432159 -50.608444 7.276537 0.968627
97.591385 -50.465084 6.333368 0.968627
97.751396 -50.320999 5.385479 0.968627
97.800163 -50.277096 4.418382 0.968627
97.941139 -50.150162 3.458273 0.968627
98.083481 -50.021996 2.488878 0.968627
98.227516 -49.892303 1.507950 0.968627
97.533722 -50.517002 0.568659 0.973404
94.008484 -53.691139 -0.000025 0.530297
88.801544 -58.379494 -0.000018 0.550469
85.901566 -60.990646 -0.000014 0.565850
83.233299 -63.393162 0.199999 0.660609
82.075226 -64.435898 0.199995 0.745449
81.381683 -65.060364 0.146172 0.658473
96.514435 -51.693966 8.911253 0.223529
96.644058 -51.578888 7.996579 0.223529
96.775299 -51.462368 7.083873 0.223529
96.906616 -51.345772 6.170571 0.223529
97.754868 -50.592667 5.364946 0.968627
97.802338 -50.550514 4.403571 0.968627
97.942459 -50.426109 3.449286 0.968627
98.083931 -50.300507 2.485846 0.968627
98.227066 -50.173424 1.511022 0.968627
97.451668 -50.861855 0.582957 0.968078
94.121986 -53.818085 -0.000025 0.535378
88.882446 -58.469971 -0.000019 0.533654
85.964310 -61.060814 -0.000015 0.547860
83.279327 -63.444649 0.200000 0.752636
82.114006 -64.479271 0.199995 0.663706
81.381683 -65.129463 0.157707 0.680751
96.806900 -51.693939 8.966209 0.223529
96.806320 -51.694450 8.006361 0.223529
96.805740 -51.694954 7.060040 0.223529
96.910187 -51.603523 6.145685 0.223529
97.041122 -51.488895 5.235171 0.223529
97.172684 -51.373718 4.320206 0.223529
97.943756 -50.698700 3.440477 0.968627
98.084366 -50.575607 2.482874 0.968627
98.226624 -50.451065 1.514031 0.968627
97.581383 -51.015930 0.583182 0.974365
94.234604 -53.945816 -0.000026 0.535470
88.962708 -58.561012 -0.000019 0.509789
86.026558 -61.131420 -0.000015 0.545480
83.324997 -63.496456 0.200000 0.663172
82.152481 -64.522919 0.199996 0.710781
81.381683 -65.197701 0.169011 0.681865
97.135666 -51.666634 9.032848 0.968627
97.291710 -51.531944 8.108507 0.968627
97.102882 -51.694935 7.100849 0.223529
97.102303 -51.695435 6.158248 0.223529
97.101730 -51.695930 5.224807 0.223529
97.174652 -51.632988 4.306380 0.223529
97.306374 -51.519287 3.390398 0.223529
97.439301 -51.404549 2.466008 0.223529
97.573738 -51.288506 1.531085 0.223529
97.709930 -51.170944 0.583412 0.976562
94.346329 -54.074326 -0.000026 0.547982
89.042336 -58.652611 -0.000019 0.515831
86.088310 -61.202461 -0.000015 0.534401
83.370308 -63.548576 0.200000 0.712795
82.190659 -64.566826 0.199996 0.734112
81.381683 -65.265114 0.180090 0.760037
97.142380 -51.918312 8.993097 0.968627
97.297585 -51.786224 8.073732 0.968627
97.452835 -51.654091 7.154034 0.968627
97.608490 -51.521622 6.232036 0.968627
97.403687 -51.695927 5.251183 0.223529
97.403099 -51.696419 4.317218 0.223529
97.402519 -51.696915 3.388305 0.223529
97.439659 -51.665306 2.463236 0.223529
97.573303 -51.551567 1.533892 0.223529
97.708755 -51.436287 0.591939 0.223529
94.457146 -54.203625 -0.000026 0.547601
89.121323 -58.744770 -0.000019 0.576577
86.149567 -61.273933 -0.000015 0.537926
83.415253 -63.601013 0.200000 0.659022
82.228523 -64.611008 0.199996 0.667094
81.381683 -65.331718 0.190947 0.735515
97.148956 -52.167221 8.954115 0.968627
97.303337 -52.037678 8.039625 0.968627
97.457764 -51.908096 7.124886 0.968627
97.612556 -51.778214 6.207931 0.968627
97.768059 -51.647728 5.286778 0.968627
97.810616 -51.612022 4.347207 0.968627
97.709435 -51.696922 3.399822 0.223529
97.708847 -51.697411 2.466261 0.223529
97.708267 -51.697906 1.533751 0.223529
97.707672 -51.698399 0.600291 0.235294
94.567062 -54.333687 -0.000026 0.530190
89.199661 -58.837471 -0.000019 0.539666
86.210320 -61.345825 -0.000015 0.559274
83.459831 -63.653763 0.200000 0.744244
82.266075 -64.655441 0.199996 0.762356
81.386566 -65.393440 0.199992 0.645914
97.155418 -52.413414 8.915882 0.968627
97.308990 -52.286373 8.006181 0.968627
97.462585 -52.159302 7.096303 0.968627
97.616547 -52.031933 6.184294 0.968627
97.390472 -52.218960 5.211341 0.968627
97.812576 -51.869766 4.333803 0.968627
97.948677 -51.757172 3.406957 0.968627
98.086021 -51.643555 2.471568 0.968627
98.020294 -51.697922 1.529828 0.223529
98.019699 -51.698425 0.588515 0.223529
94.676064 -54.464516 -0.000027 0.555993
89.277359 -58.930717 -0.000019 0.533165
86.270576 -61.418140 -0.000015 0.561440
83.504036 -63.706821 0.200000 0.690089
82.303322 -64.700142 0.199996 0.667491
81.418678 -65.431984 0.199992 0.686732
97.161743 -52.656982 8.878380 0.968627
97.314522 -52.532379 7.973380 0.968627
97.467316 -52.407764 7.068271 0.968627
97.620461 -52.282867 6.161117 0.968627
97.390503 -52.470413 5.192982 0.980392
97.814514 -52.124596 4.320662 0.968627
97.949844 -52.014229 3.398985 0.968627
98.086418 -51.902840 2.468879 0.968627
98.224541 -51.790192 1.528204 0.968627
98.213615 -51.799095 0.584293 0.978073
94.784149 -54.596100 -0.000027 0.543709
89.354401 -59.024502 -0.000019 0.529732
86.330322 -61.490879 -0.000015 0.533822
83.547874 -63.760189 0.200000 0.699397
82.340248 -64.745110 0.199996 0.672679
81.450523 -65.470749 0.199992 0.681132
97.167946 -52.897980 8.841599 0.968627
97.319946 -52.775764 7.941209 0.968627
97.471954 -52.653549 7.040781 0.968627
97.624298 -52.531067 6.138389 0.968627
97.390533 -52.719017 5.174986 0.976806
97.816406 -52.376610 4.307779 0.968627
97.950989 -52.268398 3.391171 0.968627
98.086800 -52.159203 2.466244 0.968627
98.224144 -52.048775 1.530872 0.968627
98.363350 -51.936852 0.582835 0.968627
94.891319 -54.728436 -0.000027 0.531060
89.430779 -59.118828 -0.000019 0.528908
86.389557 -61.564030 -0.000015 0.528572
83.591339 -63.813858 0.200000 0.717311
82.376862 -64.790321 0.199996 0.657298
81.482094 -65.509735 0.199992 0.729213
97.174042 -53.136459 8.805523 0.968627
97.325279 -53.016590 7.909658 0.968627
97.476509 -52.896729 7.013824 0.968627
97.628059 -52.776611 6.116101 0.968627
97.390564 -52.964848 5.157346 0.978927
97.818253 -52.625862 4.295146 0.968627
97.952118 -52.519768 3.383510 0.968627
98.087181 -52.412720 2.463661 0.968627
98.223763 -52.304466 1.533487 0.968627
98.362183 -52.194748 0.590783 0.968627
94.997559 -54.861519 -0.000027 0.541588
89.506500 -59.213684 -0.000019 0.541253
86.448288 -61.637592 -0.000015 0.542977
83.634422 -63.867836 0.200000 0.675013
82.413162 -64.835793 0.199996 0.688884
81.513390 -65.548943 0.199992 0.691783
97.180016 -53.372494 8.770138 0.968627
97.330505 -53.254921 7.878712 0.968627
97.480972 -53.137360 6.987385 0.968627
97.631744 -53.019562 6.094244 0.968627
97.390594 -53.207970 5.140051 0.956863
97.820068 -52.872429 4.282761 0.968627
97.953217 -52.768402 3.375999 0.968627
98.087555 -52.663445 2.461128 0.968627
98.223389 -52.557323 1.536051 0.968627
98.361038 -52.449776 0.598576 0.968627
95.102875 -54.995338 -0.000028 0.529427
89.581566 -59.309059 -0.000020 0.539071
86.506500 -61.711563 -0.000015 0.552056
83.677132 -63.922108 0.200000 0.728786
82.449142 -64.881516 0.199996 0.688029
81.544418 -65.588371 0.199992 0.705089
97.185883 -53.606133 8.735426 0.968627
97.335625 -53.490814 7.848361 0.968627
97.485352 -53.375511 6.961456 0.968627
97.635361 -53.259983 6.072811 0.968627
97.390625 -53.448463 5.123098 0.980392
97.821854 -53.116367 4.270617 0.968627
97.954300 -53.014374 3.368634 0.968627
98.087914 -52.911476 2.458646 0.968627
98.223015 -52.807434 1.538564 0.968627
98.359924 -52.702003 0.606214 0.968627
95.207245 -55.129894 -0.000028 0.544839
89.655945 -59.404968 -0.000020 0.554406
86.564186 -61.785942 -0.000015 0.542214
83.719460 -63.976681 0.200001 0.675105
82.484802 -64.927490 0.199997 0.730175
81.575165 -65.628006 0.199992 0.742870
97.191628 -53.837448 8.701379 0.968627
97.340652 -53.724327 7.818589 0.968627
97.489639 -53.611240 6.936024 0.968627
97.638916 -53.497936 6.051790 0.968627
97.390656 -53.686378 5.106476 0.980392
97.823608 -53.357750 4.258710 0.968627
97.955360 -53.257744 3.361414 0.968627
98.088272 -53.156860 2.456212 0.968627
98.222656 -53.054855 1.541028 0.968627
98.358818 -52.951500 0.613701 0.968627
95.310669 -55.265175 -0.000027 0.545571
89.729668 -59.501389 -0.000019 0.537072
86.621361 -61.860718 -0.000015 0.550408
83.761406 -64.031548 0.200001 0.719615
82.520142 -64.973717 0.199997 0.686076
81.605637 -65.667862 0.199992 0.725780
97.197266 -54.066483 8.667980 0.968627
97.345581 -53.955528 7.789390 0.968627
97.493851 -53.844604 6.911081 0.968627
97.642395 -53.733479 6.031176 0.968627
97.390678 -53.921791 5.090179 0.980392
97.825317 -53.596634 4.247035 0.968627
97.956406 -53.498577 3.354335 0.968627
98.088623 -53.399658 2.453824 0.968627
98.222305 -53.299656 1.543443 0.968627
98.357742 -53.198334 0.621041 0.968627
95.413162 -55.401165 -0.000028 0.540902
89.802711 -59.598316 -0.000020 0.535271
86.678009 -61.935894 -0.000015 0.537041
83.802971 -64.086700 0.200001 0.776699
82.555153 -65.020187 0.199997 0.663630
81.635826 -65.707932 0.199992 0.659556
97.202797 -54.293297 8.635217 0.968627
97.350418 -54.184460 7.760747 0.968627
97.497986 -54.075665 6.886618 0.968627
97.645813 -53.966675 6.010957 0.968627
97.390709 -54.154755 5.074203 0.980392
97.827003 -53.833092 4.235585 0.968627
97.957420 -53.736938 3.347393 0.968627
98.088966 -53.639954 2.451485 0.968627
98.221954 -53.541908 1.545811 0.968627
98.356689 -53.442574 0.628237 0.968627
95.514694 -55.537872 -0.000028 0.540871
89.875076 -59.695755 -0.000020 0.525032
86.734131 -62.011459 -0.000015 0.555352
83.844147 -64.142143 0.200001 0.718944
82.589844 -65.066895 0.199997 0.755322
81.665741 -65.748207 0.199992 0.739498
96.584587 -54.971035 8.409990 0.223529
97.355156 -54.411182 7.732653 0.968627
97.502037 -54.304466 6.862624 0.968627
97.649155 -54.197575 5.991130 0.968627
97.390732 -54.385334 5.058539 0.980392
97.828651 -54.067169 4.224359 0.968627
97.958420 -53.972885 3.340587 0.968627
98.089302 -53.877792 2.449190 0.968627
98.221611 -53.781666 1.548133 0.968627
98.355652 -53.684280 0.635291 0.968627
95.615265 -55.675289 -0.000028 0.549111
89.946762 -59.793697 -0.000020 0.532677
86.789726 -62.087418 -0.000016 0.511223
83.884933 -64.197876 0.200001 0.775860
82.624207 -65.113846 0.199997 0.667063
81.695366 -65.788689 0.199992 0.747341
96.589012 -55.187584 8.379162 0.223529
96.710724 -55.100445 7.532684 0.223529
96.832138 -55.013519 6.688293 0.223529
96.953514 -54.926624 5.844176 0.223529
97.390762 -54.613586 5.043182 0.976165
97.830261 -54.298931 4.213349 0.968627
97.959396 -54.206482 3.333913 0.968627
98.089630 -54.113243 2.446941 0.968627
98.221275 -54.018997 1.550410 0.968627
98.354630 -53.923523 0.642207 0.968627
95.714874 -55.813408 -0.000028 0.541054
90.017761 -59.892136 -0.000020 0.536492
86.844788 -62.163765 -0.000016 0.562646
83.925331 -64.253891 0.200002 0.687541
82.658241 -65.161034 0.199997 0.691142
81.724716 -65.829376 0.199992 0.663111
96.711609 -55.318680 8.385168 0.223529
96.714508 -55.316635 7.506301 0.223529
96.835365 -55.231377 6.665808 0.223529
96.956177 -55.146156 5.825633 0.223529
97.077194 -55.060783 4.983976 0.223529
97.198685 -54.975082 4.139020 0.223529
97.960358 -54.437782 3.327368 0.968627
98.089958 -54.346359 2.444735 0.968627
98.220947 -54.253956 1.552641 0.968627
98.353638 -54.160355 0.648987 0.968627
95.813522 -55.952206 -0.000029 0.530343
90.088074 -59.991070 -0.000021 0.539986
86.899315 -62.240490 -0.000016 0.532433
83.965332 -64.310188 0.200002 0.750240
82.691948 -65.208466 0.199997 0.771023
81.753777 -65.870270 0.199992 0.727047
97.223885 -55.179359 8.510300 0.968627
97.022766 -55.319134 7.560529 0.223529
97.022110 -55.319595 6.684434 0.223529
97.021454 -55.320053 5.818769 0.223529
97.079231 -55.279892 4.969709 0.223529
97.200157 -55.195847 4.128736 0.223529
97.321808 -55.111298 3.282693 0.223529
97.444466 -55.026051 2.429703 0.223529
97.568390 -54.939919 1.567827 0.223529
98.352661 -54.394836 0.655633 0.968627
95.911194 -56.091698 -0.000028 0.543908
90.157692 -60.090492 -0.000021 0.538308
86.953308 -62.317593 -0.000016 0.527474
84.004944 -64.366760 0.200002 0.716381
82.725319 -65.256126 0.199997 0.693294
81.782547 -65.911369 0.199992 0.757687
97.228905 -55.395824 8.480545 0.968627
97.373245 -55.296989 7.625554 0.968627
97.517479 -55.198235 6.771168 0.968627
97.339569 -55.320053 5.857612 0.223529
97.338913 -55.320503 4.991647 0.223529
97.338249 -55.320957 4.132231 0.223529
97.337585 -55.321411 3.277470 0.223529
97.444733 -55.248043 2.427644 0.223529
97.568069 -55.163593 1.569910 0.223529
97.692963 -55.078079 0.701370 0.223529
96.007896 -56.231869 -0.000028 0.523430
90.226608 -60.190399 -0.000021 0.533730
87.006760 -62.395077 -0.000016 0.549081
84.044167 -64.423607 0.200002 0.682155
82.758354 -65.304016 0.199998 0.715282
81.811035 -65.952660 0.199992 0.686519
97.233841 -55.610363 8.451362 0.968627
97.377548 -55.513424 7.600047 0.968627
97.521156 -55.416565 6.749392 0.968627
97.664955 -55.319569 5.897573 0.968627
97.390862 -55.504448 4.984695 0.980392
97.836426 -55.203911 4.171411 0.968627
97.662209 -55.321419 3.290659 0.223529
97.661537 -55.321873 2.429900 0.223529
97.660866 -55.322327 1.570114 0.223529
97.692047 -55.301292 0.707572 0.223529
96.103607 -56.372711 -0.000028 0.544717
90.294830 -60.290779 -0.000021 0.536522
87.059669 -62.472931 -0.000016 0.545678
84.082985 -64.480728 0.200002 0.674479
82.791061 -65.352142 0.199998 0.741833
81.839233 -65.994156 0.199992 0.676585
97.238663 -55.823029 8.422732 0.968627
97.381775 -55.727947 7.575030 0.968627
97.524765 -55.632942 6.728035 0.968627
97.667938 -55.537819 5.879930 0.968627
97.390884 -55.721893 4.970782 0.977813
97.837891 -55.424904 4.161429 0.968627
97.964020 -55.341103 3.302443 0.968627
98.091194 -55.256607 2.436336 0.968627
97.992249 -55.322346 1.565608 0.223529
97.991562 -55.322803 0.695933 0.223529
96.198341 -56.514217 -0.000028 0.551339
90.362350 -60.391640 -0.000021 0.560601
87.112030 -62.551147 -0.000016 0.525475
84.121399 -64.538116 0.200002 0.687739
82.823425 -65.400490 0.199998 0.650111
81.867142 -66.035843 0.199992 0.738933
97.243408 -56.033852 8.394653 0.968627
97.385918 -55.940594 7.550496 0.968627
97.528297 -55.847420 6.707089 0.968627
97.670853 -55.754135 5.862628 0.968627
97.390907 -55.937328 4.957141 0.977813
97.839325 -55.643890 4.151644 0.968627
97.964890 -55.561726 3.296512 0.968627
98.091484 -55.478882 2.434338 0.968627
98.219406 -55.395180 1.563161 0.968627
98.348953 -55.310402 0.680939 0.968627
96.292084 -56.656376 -0.000029 0.530419
90.429169 -60.492966 -0.000021 0.538964
87.163849 -62.629730 -0.000016 0.549249
84.159416 -64.595779 0.200003 0.667109
82.855453 -65.449066 0.199998 0.726619
81.894760 -66.077728 0.199992 0.683787
97.248055 -56.242882 8.367113 0.968627
97.389977 -56.151421 7.526431 0.968627
97.531761 -56.060047 6.686546 0.968627
97.673714 -55.968559 5.845660 0.968627
97.390930 -56.150803 4.943768 0.977035
97.840729 -55.860928 4.142048 0.968627
97.965744 -55.780365 3.290697 0.968627
98.091774 -55.699142 2.432379 0.968627
98.219116 -55.617077 1.565142 0.968627
98.348061 -55.533974 0.686957 0.968627
96.384827 -56.799194 -0.000029 0.545830
90.495270 -60.594753 -0.000021 0.538201
87.215118 -62.708672 -0.000016 0.533776
84.197029 -64.653702 0.200003 0.723705
82.887146 -65.497864 0.199998 0.691295
81.922081 -66.119804 0.199993 0.679225
97.252617 -56.450161 8.340101 0.968627
97.393959 -56.360462 7.502831 0.968627
97.535164 -56.270851 6.666402 0.968627
97.676529 -56.181137 5.829023 0.968627
97.390953 -56.362370 4.930657 0.970367
97.842117 -56.076054 4.132640 0.968627
97.966576 -55.997070 3.284996 0.968627
98.092056 -55.917439 2.430458 0.968627
98.218826 -55.836987 1.567085 0.968627
98.347198 -55.755520 0.692858 0.968627
96.476578 -56.942650 -0.000029 0.532372
90.560661 -60.697006 -0.000021 0.539681
87.265831 -62.787971 -0.000017 0.525856
84.234238 -64.711884 0.200004 0.680079
82.918488 -65.546875 0.199998 0.676249
81.949112 -66.162064 0.199993 0.694835
97.257088 -56.655731 8.313610 0.968627
97.397873 -56.567764 7.479687 0.968627
97.538498 -56.479889 6.646647 0.968627
97.679283 -56.391918 5.812707 0.968627
97.390976 -56.572071 4.917804 0.973220
97.843475 -56.289322 4.123415 0.968627
97.967400 -56.211884 3.279407 0.968627
98.092331 -56.133820 2.428575 0.968627
98.218544 -56.054947 1.568990 0.968627
98.346344 -55.975090 0.698640 0.968627
96.567329 -57.086746 -0.000030 0.541833
90.625336 -60.799713 -0.000021 0.544747
87.315994 -62.867622 -0.000016 0.530632
84.271034 -64.770325 0.200004 0.735027
82.949493 -65.596115 0.199998 0.666010
81.975845 -66.204514 0.199992 0.685405
97.261475 -56.859634 8.287628 0.968627
97.401703 -56.773365 7.456990 0.968627
97.541763 -56.687195 6.627275 0.968627
97.681984 -56.600937 5.796710 0.968627
97.390999 -56.779949 4.905204 0.973999
97.844795 -56.500771 4.114372 0.968627
97.968201 -56.424850 3.273927 0.968627
98.092606 -56.348320 2.426729 0.968627
98.218277 -56.271008 1.570857 0.968627
98.345512 -56.192730 0.704310 0.968627
96.657059 -57.231472 -0.000030 0.544915
90.689301 -60.902863 -0.000021 0.554788
87.365593 -62.947624 -0.000017 0.544274
84.307426 -64.829018 0.200004 0.730587
82.980156 -65.645561 0.199998 0.740566
82.002281 -66.247154 0.199993 0.712993
97.265778 -57.061905 8.262152 0.968627
97.405457 -56.977310 7.434734 0.968627
97.544975 -56.892811 6.608282 0.968627
97.684631 -56.808235 5.781024 0.968627
97.391022 -56.986050 4.892853 0.980392
97.846100 -56.710445 4.105505 0.968627
97.968994 -56.636017 3.268555 0.968627
98.092865 -56.560997 2.424919 0.968627
98.218002 -56.485214 1.572687 0.968627
98.344696 -56.408485 0.709866 0.968627
96.745781 -57.376823 -0.000029 0.535470
90.752533 -61.006462 -0.000021 0.554925
87.414635 -63.027966 -0.000017 0.525399
84.343407 -64.887970 0.200004 0.677394
83.010468 -65.695229 0.199999 0.736294
82.028419 -66.289978 0.199993 0.694560
97.269989 -57.262573 8.237167 0.968627
97.409142 -57.179626 7.412910 0.968627
97.548119 -57.096779 6.589656 0.968627
97.687225 -57.013851 5.765646 0.968627
97.391037 -57.190418 4.880746 0.969589
97.847382 -56.918385 4.096814 0.968627
97.969765 -56.845428 3.263289 0.968627
98.093124 -56.771889 2.423146 0.968627
98.217743 -56.697605 1.574480 0.968627
98.343895 -56.622398 0.715313 0.968627
96.833488 -57.522781 -0.000030 0.540963
90.815041 -61.110497 -0.000021 0.553643
87.463120 -63.108650 -0.000017 0.527642
84.378975 -64.947166 0.200004 0.755230
83.040436 -65.745094 0.199998 0.706355
82.054260 -66.332977 0.199993 0.731762
97.274132 -57.461693 8.212671 0.968627
97.412758 -57.380363 7.391512 0.968627
97.551201 -57.299137 6.571395 0.968627
97.689774 -57.217834 5.750567 0.968627
97.391060 -57.393093 4.868879 0.968627
97.848625 -57.124641 4.088293 0.968627
97.970520 -57.053123 3.258127 0.968627
98.093384 -56.981041 2.421407 0.968627
98.217484 -56.908230 1.576239 0.968627
98.343117 -56.834526 0.720650 0.968627
96.920174 -57.669361 -0.000030 0.547707
90.876831 -61.214966 -0.000021 0.535943
87.511032 -63.189671 -0.000017 0.548165
85.362259 -64.450348 -0.000014 0.562829
83.070053 -65.795181 0.199998 0.766720
82.079796 -66.376160 0.199993 0.756832
97.278183 -57.659286 8.188652 0.968627
97.416298 -57.579552 7.370533 0.968627
97.554230 -57.499916 6.553495 0.968627
97.692268 -57.420219 5.735786 0.968627
97.391083 -57.594109 4.857249 0.955276
97.849854 -57.329239 4.079942 0.968627
97.971268 -57.259140 3.253068 0.968627
98.093628 -57.188492 2.419703 0.968627
98.217224 -57.117134 1.577962 0.968627
98.342346 -57.044895 0.725882 0.968627
97.005829 -57.816536 -0.000030 0.542504
90.937889 -61.319862 -0.000022 0.529442
87.558380 -63.271023 -0.000017 0.516152
85.400864 -64.516663 -0.000014 0.548043
83.099319 -65.845459 0.199998 0.738140
82.105026 -66.419518 0.199993 0.732708
97.282166 -57.855400 8.165104 0.968627
97.419769 -57.777229 7.349966 0.968627
97.557190 -57.699165 6.535945 0.968627
97.694717 -57.621040 5.721296 0.968627
97.391098 -57.793518 4.845850 0.966796
97.851051 -57.532227 4.071754 0.968627
97.972000 -57.463524 3.248109 0.968627
98.093872 -57.394287 2.418032 0.968627
98.216980 -57.324352 1.579650 0.968627
98.341591 -57.253563 0.731009 0.968627
97.090462 -57.964302 -0.000030 0.533806
90.998199 -61.425186 -0.000022 0.528405
87.605164 -63.352707 -0.000017 0.528420
85.439003 -64.583252 -0.000014 0.544808
83.128235 -65.895950 0.199998 0.650706
82.129959 -66.463051 0.199993 0.664302
97.286057 -58.050060 8.142017 0.968627
97.423172 -57.973431 7.329804 0.968627
97.560097 -57.896912 6.518742 0.968627
97.697113 -57.820332 5.707094 0.968627
97.391121 -57.991344 4.834680 0.980392
97.852234 -57.733639 4.063731 0.968627
97.972710 -57.666306 3.243249 0.968627
98.094116 -57.598454 2.416396 0.968627
98.216736 -57.529922 1.581305 0.968627
98.340851 -57.460556 0.736032 0.968627
97.174057 -58.112659 -0.000030 0.545586
91.057785 -61.530930 -0.000022 0.529274
87.651367 -63.434708 -0.000017 0.533135
85.476669 -64.650108 -0.000014 0.535958
83.156799 -65.946640 0.199997 0.691264
82.154587 -66.506760 0.199993 0.704280
97.289879 -58.243309 8.119387 0.968627
97.426514 -58.168198 7.310041 0.968627
97.562943 -58.093193 6.501881 0.968627
97.699463 -58.018139 5.693174 0.968627
97.391136 -58.187645 4.823733 0.980392
97.853386 -57.933517 4.055869 0.968627
97.973404 -57.867538 3.238486 0.968627
98.094353 -57.801044 2.414793 0.968627
98.216499 -57.733894 1.582927 0.968627
98.340134 -57.665928 0.740955 0.968627
97.256615 -58.261597 -0.000031 0.530312
91.116631 -61.637081 -0.000022 0.542870
87.697006 -63.517036 -0.000017 0.551507
85.513878 -64.717224 -0.000014 0.556054
83.185013 -65.997528 0.199997 0.661570
82.178909 -66.550636 0.199993 0.739712
96.655685 -58.780102 7.915546 0.223529
96.768860 -58.718910 7.128396 0.223529
96.881660 -58.657921 6.343853 0.223529
97.701767 -58.214493 5.679531 0.968627
97.391151 -58.382439 4.813008 0.980392
97.854515 -58.131901 4.048164 0.968627
97.974091 -58.067245 3.233819 0.968627
98.094582 -58.002094 2.413221 0.968627
98.216270 -57.936298 1.584516 0.968627
98.339424 -57.869713 0.745777 0.968627
97.338135 -58.411102 -0.000031 0.540856
91.174728 -61.743645 -0.000022 0.548196
87.742058 -63.599682 -0.000017 0.554467
85.550606 -64.784599 -0.000014 0.548119
83.212860 -66.048615 0.199997 0.744121
82.202927 -66.594681 0.199993 0.655436
96.658752 -58.965199 7.894314 0.223529
96.771545 -58.905228 7.109890 0.223529
96.883957 -58.845459 6.328096 0.223529
96.996223 -58.785767 5.547251 0.223529
97.108589 -58.726017 4.765682 0.223529
97.221306 -58.666084 3.981708 0.223529
97.974762 -58.265465 3.229247 0.968627
98.094810 -58.201637 2.411681 0.968627
98.216034 -58.137177 1.586072 0.968627
98.338730 -58.071941 0.750503 0.968627
97.534760 -58.499416 -0.010818 0.973312
91.232086 -61.850613 -0.000022 0.537285
87.786545 -63.682640 -0.000017 0.560983
85.586868 -64.852226 -0.000014 0.513726
83.240356 -66.099892 0.199997 0.669795
82.226631 -66.638901 0.199993 0.687541
96.769531 -59.092659 7.903970 0.223529
96.774155 -59.090240 7.091753 0.223529
96.886192 -59.031670 6.312653 0.223529
96.998070 -58.973183 5.534528 0.223529
97.110046 -58.914642 4.755710 0.223529
97.222366 -58.855919 3.974525 0.223529
97.335266 -58.796898 3.189280 0.223529
97.448997 -58.737442 2.398243 0.223529
97.563828 -58.677414 1.599636 0.223529
98.338051 -58.272659 0.755131 0.968627
97.534752 -58.692612 -0.003429 0.968627
91.288689 -61.957977 -0.000022 0.541436
87.830444 -63.765903 -0.000017 0.547677
85.622658 -64.920105 -0.000014 0.532906
83.267494 -66.151352 0.199996 0.762325
82.250031 -66.683273 0.199993 0.673961
97.304413 -59.002777 8.033282 0.968627
97.129524 -59.092659 7.159655 0.223529
97.129532 -59.092655 6.346857 0.223529
97.129532 -59.092651 5.543685 0.223529
97.129532 -59.092651 4.748276 0.223529
97.223404 -59.044411 3.967488 0.223529
97.335907 -58.986588 3.185019 0.223529
97.449234 -58.928345 2.396810 0.223529
97.563644 -58.869549 1.601086 0.223529
97.679398 -58.810059 0.796008 0.223529
97.534729 -58.884407 0.003810 0.976898
91.344551 -62.065727 -0.000022 0.540139
87.873764 -63.849472 -0.000017 0.512078
85.657974 -64.988235 -0.000014 0.564675
83.294273 -66.203011 0.199996 0.716869
82.273117 -66.727814 0.199993 0.721340
97.307869 -59.189415 8.012829 0.968627
97.442215 -59.121552 7.216997 0.968627
97.576340 -59.053802 6.422506 0.968627
97.710526 -58.986023 5.627655 0.968627
97.391220 -59.147312 4.772244 0.956130
97.499435 -59.092648 3.985859 0.223529
97.499443 -59.092648 3.189812 0.223529
97.499443 -59.092644 2.396321 0.223529
97.563461 -59.060307 1.602506 0.223529
97.678802 -59.002041 0.800315 0.223529
97.534721 -59.074825 0.010899 0.977722
91.399651 -62.173874 -0.000023 0.526696
87.916496 -63.933342 -0.000017 0.531304
85.692810 -65.056610 -0.000014 0.541009
83.320686 -66.254852 0.199996 0.679026
82.295891 -66.772514 0.199993 0.780056
97.311249 -59.374832 7.992790 0.968627
97.445168 -59.308353 7.199501 0.968627
97.578857 -59.241989 6.407584 0.968627
97.712608 -59.175598 5.615340 0.968627
97.391243 -59.335125 4.762572 0.977630
97.859840 -59.102512 4.011920 0.968627
97.977310 -59.044197 3.211869 0.968627
98.095665 -58.985443 2.405830 0.968627
97.879715 -59.092644 1.598115 0.223529
97.879715 -59.092644 0.793484 0.223529
97.534714 -59.263908 0.017842 0.971252
91.453995 -62.282398 -0.000022 0.539178
87.958649 -64.017509 -0.000017 0.531334
85.727173 -65.125221 -0.000014 0.555535
83.346741 -66.306877 0.199996 0.716213
82.318359 -66.817375 0.199993 0.707408
97.314560 -59.559048 7.973160 0.968627
97.448067 -59.493935 7.182365 0.968627
97.581329 -59.428940 6.392967 0.968627
97.714638 -59.363918 5.603277 0.968627
97.391258 -59.521641 4.753100 0.967575
97.860840 -59.292610 4.005113 0.968627
97.977921 -59.235508 3.207746 0.968627
98.095871 -59.177979 2.404442 0.968627
98.214958 -59.119892 1.593390 0.968627
98.335464 -59.061119 0.772710 0.968627
97.534698 -59.451679 0.024641 0.977768
91.507584 -62.391300 -0.000022 0.545220
88.000206 -64.101967 -0.000017 0.540902
85.761047 -65.194077 -0.000014 0.537606
83.372429 -66.359085 0.199995 0.727260
82.340508 -66.862389 0.199993 0.678828
97.317810 -59.742088 7.953938 0.968627
97.450897 -59.678326 7.165583 0.968627
97.583740 -59.614677 6.378654 0.968627
97.716629 -59.551006 5.591465 0.968627
97.391273 -59.706894 4.743827 0.976211
97.861816 -59.481445 3.998445 0.968627
97.978516 -59.425537 3.203709 0.968627
98.096069 -59.369209 2.403083 0.968627
98.214767 -59.312340 1.594763 0.968627
98.334854 -59.254803 0.776879 0.968627
97.534683 -59.638180 0.031297 0.980392
91.560410 -62.500576 -0.000022 0.548775
88.041176 -64.186714 -0.000018 0.535256
85.794449 -65.263161 -0.000015 0.530968
83.397758 -66.411461 0.199995 0.701305
82.362343 -66.907555 0.199993 0.739178
97.320984 -59.923988 7.935113 0.968627
97.453674 -59.861553 7.149150 0.968627
97.586105 -59.799232 6.364638 0.968627
97.718582 -59.736893 5.579900 0.968627
97.391281 -59.890911 4.734747 0.976211
97.862778 -59.669044 3.991918 0.968627
97.979095 -59.614307 3.199757 0.968627
98.096268 -59.559170 2.401753 0.968627
98.214561 -59.503502 1.596108 0.968627
98.334259 -59.447182 0.780959 0.968627
97.534676 -59.823437 0.037813 0.980392
91.612473 -62.610214 -0.000022 0.551461
88.081551 -64.271736 -0.000018 0.556298
85.827362 -65.332481 -0.000015 0.535012
83.422714 -66.464020 0.199995 0.699794
82.383858 -66.952873 0.199993 0.768795
97.324097 -60.104774 7.916682 0.968627
97.456390 -60.043648 7.133061 0.968627
97.588425 -59.982639 6.350916 0.968627
97.720497 -59.921612 5.568576 0.968627
97.391296 -60.073723 4.725862 0.980209
97.863708 -59.855438 3.985529 0.968627
97.979660 -59.801861 3.195889 0.968627
98.096458 -59.747890 2.400451 0.968627
98.214371 -59.693409 1.597424 0.968627
98.333672 -59.638283 0.784953 0.968627
97.534668 -60.007477 0.044192 0.980392
91.663765 -62.720215 -0.000022 0.540139
88.121330 -64.357048 -0.000018 0.567391
85.859795 -65.402023 -0.000014 0.538521
83.447304 -66.516754 0.199994 0.675120
82.405060 -66.998337 0.199993 0.660624
97.327148 -60.284466 7.898639 0.968627
97.459045 -60.224632 7.117311 0.968627
97.590691 -60.164917 6.337484 0.968627
97.722366 -60.105186 5.557493 0.968627
97.391312 -60.255360 4.717164 0.968627
97.864624 -60.040653 3.979275 0.968627
97.980217 -59.988220 3.192102 0.968627
98.096649 -59.935406 2.399175 0.968627
98.214180 -59.882088 1.598712 0.968627
98.333099 -59.828148 0.788861 0.968627
97.534653 -60.190338 0.050434 0.973129
91.714287 -62.830570 -0.000022 0.537148
88.160515 -64.442635 -0.000018 0.506233
85.891739 -65.471802 -0.000014 0.539773
83.471527 -66.569656 0.199994 0.747829
82.425949 -67.043953 0.199993 0.669505
97.330124 -60.463097 7.880977 0.968627
97.461647 -60.404537 7.101895 0.968627
97.592911 -60.346096 6.324339 0.968627
97.724197 -60.287643 5.546646 0.968627
97.391327 -60.435844 4.708653 0.968627
97.865532 -60.224716 3.973155 0.968627
97.980759 -60.173416 3.188397 0.968627
98.096832 -60.121738 2.397928 0.968627
98.213997 -60.069572 1.599973 0.968627
98.332535 -60.016792 0.792686 0.968627
97.534637 -60.372040 0.056543 0.979934
91.764046 -62.941277 -0.000023 0.538109
88.199097 -64.528496 -0.000017 0.535912
85.923195 -65.541794 -0.000014 0.551492
83.495377 -66.622726 0.199994 0.745220
82.446510 -67.089714 0.199993 0.690166
97.333046 -60.640686 7.863695 0.968627
97.464195 -60.583389 7.086810 0.968627
97.595085 -60.526207 6.311476 0.968627
97.725990 -60.469013 5.536033 0.968627
97.391342 -60.615219 4.700328 0.971298
97.866409 -60.407669 3.967168 0.968627
97.981293 -60.357475 3.184772 0.968627
98.097008 -60.306923 2.396708 0.968627
98.213814 -60.255890 1.601206 0.968627
98.331985 -60.204262 0.796427 0.968627
97.534630 -60.552620 0.062518 0.980392
91.813034 -63.052326 -0.000023 0.550805
88.237083 -64.614616 -0.000018 0.516289
85.954163 -65.612000 -0.000014 0.536553
83.518860 -66.675957 0.199993 0.671214
82.466759 -67.135612 0.199993 0.719539
97.335899 -60.817268 7.846784 0.968627
97.466690 -60.761215 7.072051 0.968627
97.597206 -60.705273 6.298892 0.968627
97.727737 -60.649326 5.525648 0.968627
97.391357 -60.793499 4.692184 0.976257
97.867271 -60.589523 3.961310 0.968627
97.981812 -60.540432 3.181226 0.968627
98.097183 -60.490982 2.395515 0.968627
98.213638 -60.441071 1.602412 0.968627
98.331444 -60.390579 0.800086 0.968627
97.534615 -60.732101 0.068365 0.968627
91.861229 -63.163715 -0.000023 0.530297
88.274467 -64.701004 -0.000018 0.546639
85.984642 -65.682426 -0.000015 0.552834
