# This PCD file was generated using the MATLABÂ® pcwrite function
# from Computer Vision ToolboxÂ®.
# .PCD v.7 - Point Cloud Data file format
VERSION .7
FIELDS x y z intensity
SIZE 4 4 4 4
TYPE F F F F
COUNT 1 1 1 1
WIDTH 1240
HEIGHT 1
VIEWPOINT 0 0 0 1 0 0 0
POINTS 1240
DATA ascii
nan nan nan 0.000000
nan nan nan 0.000000
nan nan nan 0.000000
-1.097441 106.597427 4.719069 0.937255
6.932634 114.256271 4.174261 0.937255
0.892824 108.495682 2.587655 0.925612
8.924707 116.156250 1.230716 0.352941
0.703703 108.315300 0.248613 0.808454
-7.443733 100.544533 0.000029 0.534630
-12.513755 95.708900 0.000021 0.537850
-15.337505 93.015694 0.000017 0.551980
-17.140236 91.296303 0.000014 0.559472
-18.393204 90.101257 0.000012 0.531655
-19.894073 88.669777 0.199994 0.692241
nan nan nan 0.000000
nan nan nan 0.000000
nan nan nan 0.000000
nan nan nan 0.000000
nan nan nan 0.000000
-0.977768 106.392166 4.714622 0.937255
7.615377 114.474236 4.205977 0.918883
1.021605 108.272629 2.586675 0.937163
0.848482 108.109802 1.417214 0.554391
0.848337 108.109665 0.250401 0.879698
-7.326641 100.420898 0.000029 0.521569
-12.430293 95.620781 0.000021 0.532494
-15.272779 92.947350 0.000017 0.541085
-17.087467 91.240593 0.000014 0.574289
-18.348749 90.054321 0.000011 0.478614
-19.859575 88.633354 0.199994 0.733715
nan nan nan 0.000000
nan nan nan 0.000000
nan nan nan 0.000000
nan nan nan 0.000000
nan nan nan 0.000000
-0.859549 106.186584 4.710198 0.937255
7.829294 114.245079 4.205974 0.914321
1.130905 108.032631 2.585302 0.937255
0.975992 107.888962 1.418156 0.502327
0.984028 107.896408 0.252681 0.159075
-7.210415 100.296448 0.000030 0.546899
-12.347452 95.532082 0.000021 0.538354
-15.208529 92.878563 0.000017 0.540536
-17.035091 91.184509 0.000014 0.526772
-18.304625 90.007080 0.000012 0.479789
-19.825333 88.596687 0.199994 0.696986
nan nan nan 0.000000
nan nan nan 0.000000
nan nan nan 0.000000
nan nan nan 0.000000
nan nan nan 0.000000
-0.741602 105.981750 4.705934 0.937255
8.041777 114.014587 4.205981 0.911116
1.251759 107.804771 2.584230 0.937255
1.103088 107.668808 1.419066 0.274327
1.103113 107.668831 0.255951 0.768200
-7.095053 100.171188 0.000029 0.540902
-12.265231 95.442802 0.000021 0.549828
-15.144764 92.809326 0.000017 0.544289
-16.983109 91.128067 0.000014 0.544839
-18.260830 89.959526 0.000012 0.498970
-19.791346 88.559792 0.199994 0.705379
nan nan nan 0.000000
nan nan nan 0.000000
nan nan nan 0.000000
nan nan nan 0.000000
nan nan nan 0.000000
-0.623898 105.777657 4.701828 0.937255
8.252478 113.782471 4.205977 0.907744
1.376062 107.581245 2.583277 0.936156
1.321888 107.532387 1.417916 0.937255
1.212603 107.433838 0.259730 0.711315
-6.980574 100.045135 0.000029 0.545556
-12.183633 95.352959 0.000021 0.555550
-15.081485 92.739639 0.000017 0.520378
-16.931519 91.071259 0.000014 0.554284
-18.217367 89.911667 0.000012 0.546639
-19.757618 88.522652 0.199994 0.784573
nan nan nan 0.000000
nan nan nan 0.000000
nan nan nan 0.000000
nan nan nan 0.000000
nan nan nan 0.000000
-0.506411 105.574295 4.697881 0.937255
8.461725 113.549034 4.205985 0.912535
1.510019 107.367371 2.582575 0.980636
9.762274 114.705528 1.236717 0.352941
1.338860 107.215164 0.262276 0.938216
-6.866978 99.918274 0.000029 0.553994
-12.102672 95.262535 0.000022 0.558145
-15.018692 92.669518 0.000017 0.555169
-16.880329 91.014091 0.000014 0.531548
-18.174240 89.863510 0.000012 0.534463
-19.724148 88.485275 0.199993 0.682689
nan nan nan 0.000000
nan nan nan 0.000000
nan nan nan 0.000000
nan nan nan 0.000000
nan nan nan 0.000000
-0.389191 105.371574 4.694083 0.937255
8.669313 113.314140 4.205992 0.919814
1.643644 107.153984 2.581903 0.992569
6.020456 110.991600 1.322843 0.937255
1.464743 106.997116 0.264731 0.937255
-6.754269 99.790634 0.000030 0.530022
-12.022337 95.171562 0.000022 0.549264
-14.956388 92.598961 0.000017 0.542809
-16.829536 90.956573 0.000014 0.527901
-18.131451 89.815048 0.000012 0.576715
-19.690943 88.447670 0.199993 0.713405
nan nan nan 0.000000
nan nan nan 0.000000
nan nan nan 0.000000
nan nan nan 0.000000
nan nan nan 0.000000
-0.272526 105.169220 4.690403 0.937255
8.875097 113.077644 4.205987 0.909758
1.776890 106.941010 2.581260 1.000000
6.105949 110.683624 1.325097 0.547036
1.590288 106.779686 0.267093 0.989029
-6.642462 99.662201 0.000030 0.531640
-11.942640 95.080017 0.000022 0.525689
-14.894579 92.527969 0.000017 0.544686
-16.779150 90.898697 0.000014 0.528237
-18.088999 89.766289 0.000012 0.501961
-19.658001 88.409836 0.199993 0.746792
43.951378 142.564987 24.725637 0.372885
43.951378 142.564987 21.594906 0.370489
43.951370 142.564987 18.508127 0.369162
43.951393 142.565002 15.457911 0.518090
43.951378 142.565002 12.437168 0.551263
-0.155996 104.967560 4.686882 0.937255
9.079409 112.839890 4.205995 0.915541
6.431353 110.582657 2.677867 0.937255
6.252335 110.430069 1.325982 0.669841
1.797119 106.632408 0.264096 0.998566
-6.531542 99.532997 0.000030 0.542504
-11.863585 94.987930 0.000022 0.528801
-14.833271 92.456551 0.000017 0.521920
-16.729168 90.840477 0.000014 0.515389
-18.046890 89.717239 0.000012 0.519966
-19.625324 88.371773 0.199994 0.656901
43.951408 141.737656 24.591761 0.656840
43.951416 141.737671 21.479473 0.656840
43.951424 141.737671 18.410877 0.785367
43.951431 141.737671 15.378632 0.498695
43.951408 141.737656 12.375681 0.592950
-0.039837 104.766357 4.683495 0.937255
9.281866 112.600540 4.205990 0.931197
6.578201 110.328308 2.677012 0.937255
10.423605 113.560081 1.240790 0.352941
6.249767 110.052292 -0.011414 0.690898
-6.421532 99.403023 0.000030 0.532616
-11.785173 94.895294 0.000022 0.529030
-14.772459 92.384705 0.000017 0.543069
-16.679592 90.781906 0.000014 0.602747
-18.005125 89.667892 0.000012 0.514122
-19.592911 88.333481 0.199993 0.721447
43.951363 140.919907 24.460514 0.506722
43.951324 140.919876 21.366291 0.620615
43.951332 140.919876 18.315529 0.622553
43.951347 140.919891 15.300897 0.504646
43.951340 140.919891 12.315400 0.589960
0.075979 104.565598 4.680238 0.937255
9.482851 112.359955 4.205997 0.914733
6.724688 110.074593 2.676193 0.937255
10.587870 113.275551 1.241709 0.352941
6.253222 109.683945 0.000050 0.539208
-6.312431 99.272278 0.000030 0.538598
-11.707414 94.802101 0.000022 0.511589
-14.712152 92.312431 0.000017 0.543236
-16.630426 90.722984 0.000014 0.533959
-17.963705 89.618256 0.000012 0.493050
-19.560770 88.294960 0.199993 0.704433
43.951340 140.111603 24.331873 0.663417
43.951317 140.111572 21.255377 0.633097
43.951332 140.111588 18.222084 0.469886
43.951332 140.111588 15.224719 0.626795
43.951332 140.111588 12.256319 0.469657
0.191738 104.365494 4.677145 0.937255
9.681932 112.117790 4.205994 0.923262
10.704554 112.953148 2.756413 0.937255
10.751757 112.991707 1.242589 0.352941
6.539446 109.550774 -0.006652 0.706798
-6.204247 99.140785 0.000030 0.528084
-11.630301 94.708374 0.000022 0.516579
-14.652350 92.239746 0.000018 0.572564
-16.581675 90.663727 0.000014 0.579660
-17.922632 89.568336 0.000012 0.516213
-19.528894 88.256218 0.199993 0.658427
43.951355 139.312469 24.205780 0.501717
44.132637 139.458450 21.196932 0.276570
44.132614 139.458435 18.172842 0.350622
44.132614 139.458435 15.184574 0.069245
43.951340 139.312469 12.198412 0.505425
0.306881 104.165565 4.674150 0.937255
9.879538 111.874428 4.206001 0.921996
10.867849 112.670319 2.755574 0.937255
10.915270 112.708504 1.243430 0.352941
6.683578 109.300720 -0.004413 0.670069
-6.096987 99.008530 0.000030 0.563943
-11.553855 94.614113 0.000022 0.533288
-14.593061 92.166634 0.000018 0.531868
-16.533339 90.604126 0.000015 0.535500
-17.881910 89.518127 0.000012 0.593805
-19.497293 88.217255 0.199993 0.701045
43.951332 138.522247 24.082165 0.463279
43.951347 138.522263 21.040075 0.601022
43.951340 138.522263 18.040699 0.684260
43.951340 138.522263 15.076848 0.463661
43.951347 138.522263 12.141640 0.748669
0.422028 103.966263 4.671320 0.937255
10.075228 111.629517 4.205997 0.919203
11.030790 112.388092 2.754772 0.937255
11.078428 112.425911 1.244233 0.352941
6.790287 109.021744 0.000051 0.535485
-5.990648 98.875526 0.000031 0.544686
-11.478060 94.519318 0.000022 0.522515
-14.534277 92.093124 0.000018 0.523583
-16.485420 90.544197 0.000014 0.553155
-17.841539 89.467628 0.000013 0.517952
-19.465965 88.178070 0.199993 0.686290
43.951332 137.740753 23.960989 0.546166
43.951347 137.740784 20.935600 0.508293
43.951332 137.740753 17.952675 0.535546
43.951324 137.740753 15.005087 0.531380
43.951332 137.740753 12.085985 0.609949
0.537224 103.767609 4.668654 0.937255
10.269281 111.383308 4.205996 0.937011
11.193392 112.106461 2.754008 0.937255
11.241243 112.143898 1.244997 0.352941
6.971571 108.802719 -0.000283 0.609567
-5.885241 98.741791 0.000031 0.543572
-11.402928 94.423996 0.000022 0.546975
-14.476011 92.019196 0.000018 0.525734
-16.437916 90.483932 0.000014 0.549737
-18.530714 88.846237 0.199992 0.696406
-19.434908 88.138672 0.199993 0.697139
43.951317 136.967743 23.842188 0.738811
44.141396 137.114365 20.885006 0.678431
44.141396 137.114365 17.910057 0.678431
44.141403 137.114365 14.970345 0.678431
43.951324 136.967758 12.031428 0.435676
0.651390 103.568710 4.666041 0.937255
2.777842 105.208931 3.729269 0.937255
2.776241 105.207695 2.575979 0.937255
2.778324 105.209305 1.423978 0.937255
2.757917 105.193565 0.271967 0.241642
-5.780764 98.607323 0.000031 0.543938
-11.328465 94.328156 0.000022 0.535775
-14.418261 91.944862 0.000018 0.557443
-16.390839 90.423332 0.000014 0.522118
-18.495016 88.800293 0.199992 0.697826
-19.404129 88.099052 0.199993 0.673289
43.951340 136.203064 23.725735 0.597436
43.951370 136.203079 20.732758 0.620554
43.951340 136.203064 17.781784 0.516442
43.951347 136.203064 14.865775 0.559792
43.951340 136.203064 11.977943 0.601373
0.766077 103.370766 4.663639 0.937255
10.652246 110.886887 4.205997 0.917571
11.438025 111.484283 2.750960 0.905882
11.438025 111.484291 1.249040 0.905882
7.313391 108.348465 0.000051 0.532845
-5.677237 98.472130 0.000031 0.527306
-11.254676 94.231796 0.000023 0.537057
-14.361033 91.870132 0.000018 0.568490
-16.344185 90.362411 0.000014 0.520714
-18.459641 88.754097 0.199992 0.703639
-19.373629 88.059227 0.199993 0.720882
43.951393 135.446442 23.611572 0.403204
43.951416 135.446472 20.634319 0.812177
43.951401 135.446457 17.698860 0.681651
43.951416 135.446472 14.798171 0.509514
43.951393 135.446457 11.925512 0.601801
0.879915 103.172676 4.661304 0.937255
10.841215 110.636749 4.206005 0.901091
11.599367 111.204834 2.750312 0.905882
11.599371 111.204842 1.249688 0.905882
7.400797 108.058815 0.005196 0.705699
-5.574659 98.336212 0.000031 0.544045
-11.181561 94.134918 0.000023 0.525277
-14.304328 91.795006 0.000018 0.555886
-16.297956 90.301163 0.000015 0.533913
-18.424587 88.707657 0.199991 0.663554
-19.343405 88.019180 0.199993 0.683803
43.912811 134.669205 23.487616 0.524819
43.951431 134.697723 20.537804 0.612161
44.141380 134.837997 17.660515 0.678431
44.141388 134.837997 14.766911 0.678431
43.951401 134.697693 11.874102 0.547066
0.994177 102.975372 4.659165 0.937255
11.028379 110.385262 4.206008 0.921096
11.760439 110.925858 2.749702 0.905882
11.760439 110.925858 1.250298 0.905882
7.567270 107.829361 0.005361 0.706600
-5.473021 98.199585 0.000031 0.540551
-11.109120 94.037537 0.000023 0.551995
-14.248149 91.719482 0.000018 0.554452
-16.252157 90.239594 0.000015 0.537743
-18.389862 88.660980 0.199992 0.781048
-19.313461 87.978935 0.199993 0.645502
43.951393 133.956604 23.389875 0.426490
43.951401 133.956619 20.443161 0.634546
43.951401 133.956619 17.537817 0.594965
43.951401 133.956619 14.666881 0.472343
43.951408 133.956619 11.823696 0.475837
1.108606 102.778633 4.657195 0.937255
10.492613 109.607658 4.162195 0.754482
15.299440 113.105728 2.817498 0.820005
15.299440 113.105728 1.182501 0.826032
7.822252 107.664352 0.000051 0.539651
-5.372353 98.062248 0.000032 0.554147
-11.037363 93.939651 0.000023 0.549172
-14.192494 91.643570 0.000018 0.555581
-16.206787 90.177704 0.000015 0.551644
-18.355459 88.614052 0.199991 0.667353
-19.283802 87.938469 0.199993 0.776013
43.951370 133.223007 23.282263 0.582223
43.951370 133.222992 20.350372 0.457023
43.951363 133.222992 17.459644 0.711147
43.951370 133.223007 14.603154 0.688945
43.951378 133.223007 11.774272 0.574273
1.221567 102.581238 4.655225 0.937255
11.397463 109.878433 4.206018 0.854444
44.046356 133.291107 3.392250 0.678431
44.046356 133.291107 0.607750 0.678431
7.988661 107.433960 0.000053 0.542443
-5.272635 97.924217 0.000032 0.549981
-10.966290 93.841263 0.000023 0.540536
-14.137378 91.567261 0.000018 0.549554
-16.161852 90.115501 0.000015 0.567041
-18.321388 88.566887 0.199991 0.767758
-19.254425 87.897804 0.199993 0.670909
44.141380 132.630981 23.235039 0.678431
43.951393 132.496735 20.259407 0.655222
44.141365 132.630966 17.425335 0.678431
44.141342 132.630951 14.575182 0.678431
43.951401 132.496735 11.725821 0.515236
1.335672 102.385056 4.653519 0.937255
11.579313 109.623070 4.206020 0.918853
44.046349 132.563828 3.385348 0.678431
44.046349 132.563828 0.614652 0.678431
8.153490 107.202431 0.000052 0.537865
-5.173889 97.785492 0.000032 0.550713
-10.895906 93.742393 0.000023 0.525429
-14.082793 91.490578 0.000018 0.527703
-16.117352 90.052986 0.000014 0.526711
-18.287647 88.519485 0.199991 0.665187
-19.225330 87.856934 0.199993 0.734096
43.951401 131.777588 23.073336 0.494652
43.951424 131.777588 20.170231 0.638727
43.951416 131.777588 17.307880 0.569757
43.951424 131.777603 14.479435 0.657694
43.951416 131.777588 11.678318 0.704005
1.448383 102.188240 4.651818 0.937255
11.759336 109.366425 4.206022 0.919997
44.046356 131.843689 3.378580 0.678431
44.046356 131.843689 0.621419 0.678431
8.316683 106.969742 0.000053 0.543069
-5.076109 97.646080 0.000032 0.547921
-10.826215 93.643021 0.000023 0.536950
-14.028743 91.413521 0.000018 0.551415
-16.073290 89.990166 0.000015 0.532647
-18.254236 88.471855 0.199991 0.719570
-19.196524 87.815857 0.199993 0.707500
43.951431 131.065399 22.971926 0.567773
43.951424 131.065399 20.082785 0.568887
43.951431 131.065414 17.234213 0.505196
43.951439 131.065414 14.419375 0.756436
43.951431 131.065414 11.631743 0.678767
1.562243 101.992546 4.650378 0.937255
11.937677 109.108597 4.206029 0.784207
44.046371 131.130524 3.371947 0.678431
44.046371 131.130524 0.628053 0.678431
8.478231 106.735916 0.000053 0.536171
-4.979305 97.505989 0.000032 0.537621
-10.757217 93.543175 0.000023 0.551141
-13.975233 91.336082 0.000018 0.546059
-16.029667 89.927032 0.000015 0.537423
-18.221159 88.423988 0.199991 0.680751
-19.168003 87.774590 0.199993 0.708141
44.141350 130.488327 22.929911 0.538476
43.951401 130.359985 19.997046 0.624063
44.141357 130.488327 17.203691 0.678431
44.141357 130.488327 14.394494 0.601755
43.951408 130.359985 11.586074 0.557885
1.674675 101.796173 4.648937 0.937255
12.114115 108.849472 4.206031 0.875959
44.046333 130.424133 3.365443 0.678431
44.046333 130.424133 0.634559 0.678431
8.638159 106.500977 0.000053 0.542336
-4.883488 97.365219 0.000032 0.534569
-10.688919 93.442848 0.000023 0.523476
-13.922267 91.258270 0.000018 0.541527
-15.986488 89.863602 0.000015 0.541665
-18.188419 88.375893 0.199991 0.758923
-19.139774 87.733116 0.199993 0.750622
43.951363 129.661163 22.774988 0.584710
43.951355 129.661163 19.912975 0.497017
43.951363 129.661179 17.091156 0.593240
43.951363 129.661179 14.302752 0.515770
43.951363 129.661163 11.541298 0.578500
1.788418 101.600952 4.647768 0.937255
12.288759 108.589127 4.206034 0.924025
44.046318 129.724380 3.359065 0.678431
44.046318 129.724380 0.640935 0.678431
8.796450 106.264931 0.000053 0.538750
-4.788649 97.223793 0.000032 0.542733
-10.621329 93.342041 0.000023 0.540536
-13.869842 91.180092 0.000018 0.520562
-15.943751 89.799866 0.000015 0.553201
-18.156013 88.327568 0.199991 0.728511
-19.111832 87.691452 0.199993 0.651698
43.951378 128.968872 22.679419 0.565774
43.951393 128.968872 19.830580 0.715892
43.951401 128.968872 17.021736 0.676097
43.951378 128.968872 14.246155 0.537118
43.951393 128.968872 11.497405 0.640757
1.900587 101.404930 4.646584 0.937255
12.461653 108.327614 4.206040 0.917037
44.046379 129.031128 3.352814 0.678431
44.046379 129.031128 0.647188 0.678431
8.953074 106.027771 0.000054 0.539162
-4.694798 97.081711 0.000032 0.537041
-10.554437 93.240768 0.000023 0.542809
-13.817966 91.101547 0.000018 0.549142
-15.901463 89.735840 0.000015 0.536645
-18.123947 88.279015 0.199991 0.670497
-19.084183 87.649590 0.199992 0.710826
44.036026 128.337494 22.610952 0.616571
43.951408 128.282867 19.749790 0.746609
44.036049 128.337509 16.972000 0.555489
44.036041 128.337509 14.205613 0.695109
43.951416 128.282867 11.454372 0.537194
3.973139 102.474663 4.836866 0.937255
12.632654 108.064865 4.206044 0.911131
44.046364 128.344177 3.346684 0.678431
44.046379 128.344177 0.653318 0.678431
9.108046 105.789536 0.000054 0.540948
-4.601952 96.938965 0.000033 0.531029
-10.488257 93.139023 0.000024 0.550607
-13.766641 91.022644 0.000018 0.522759
-15.859615 89.671516 0.000015 0.566690
-18.092220 88.230240 0.199991 0.704387
-19.056828 87.607536 0.199993 0.694347
44.141396 127.723785 22.550257 0.678431
43.951416 127.603012 19.670588 0.673609
44.141403 127.723785 16.927910 0.678431
44.141411 127.723785 14.169669 0.678431
43.951424 127.603020 11.412188 0.681483
44.141411 127.723785 8.726995 0.678431
12.801821 107.800926 4.206047 0.933959
44.046402 127.663399 3.340674 0.678431
44.046402 127.663399 0.659326 0.678431
9.261351 105.550217 0.000054 0.542489
-4.510099 96.795578 0.000033 0.530419
-10.422791 93.036827 0.000024 0.529381
-13.715866 90.943390 0.000018 0.539010
-15.818227 89.606895 0.000015 0.542229
-18.060833 88.181252 0.199991 0.754147
-19.029766 87.565292 0.199993 0.698207
43.951393 126.929153 22.403803 0.595712
43.951401 126.929161 19.592934 0.584985
43.951393 126.929161 16.821526 0.413733
43.951408 126.929161 14.082941 0.461280
43.951401 126.929169 11.370825 0.514626
43.951416 126.929169 8.679058 0.585000
16.000338 109.433197 4.381731 0.937255
44.046349 126.988586 3.334781 0.678431
44.046356 126.988602 0.665218 0.678431
9.412996 105.309853 0.000054 0.539467
-4.419250 96.651558 0.000033 0.544961
-10.358034 92.934174 0.000023 0.550942
-13.665646 90.863777 0.000018 0.514153
-15.777282 89.542000 0.000015 0.525246
-18.029791 88.132042 0.199991 0.656962
-19.002998 87.522865 0.199993 0.675731
44.716393 126.732605 22.540607 0.552850
43.951408 126.261169 19.516813 0.550210
43.951401 126.261169 16.757393 0.494591
43.951416 126.261169 14.030662 0.572595
43.951401 126.261169 11.330278 0.594141
43.951408 126.261169 8.650158 0.547494
43.951416 126.261169 5.984388 0.657465
44.046371 126.319702 3.329008 0.678431
44.046371 126.319702 0.670994 0.678431
9.562929 105.068405 0.000054 0.536004
-4.329403 96.506905 0.000033 0.536980
-10.293996 92.831078 0.000024 0.545632
-13.615983 90.783821 0.000018 0.530526
-15.736798 89.476814 0.000015 0.527825
-17.999092 88.082619 0.199991 0.736370
-18.976530 87.480247 0.199993 0.695109
45.820374 126.732788 22.776560 0.632898
43.951401 125.598907 19.442194 0.664851
44.141350 125.714149 16.734961 0.678431
44.141365 125.714157 14.012370 0.678431
44.101379 125.689896 11.310712 0.268971
44.141335 125.714142 8.640046 0.678431
44.141350 125.714157 5.978333 0.678431
44.046387 125.656540 3.323347 0.444236
44.046387 125.656540 0.676655 0.444236
9.711195 104.825943 0.000055 0.545235
-4.240574 96.361633 0.000033 0.534203
-10.230678 92.727531 0.000023 0.540688
-13.566880 90.703514 0.000018 0.525750
-16.636387 88.841293 0.199988 0.670130
-17.968740 88.032974 0.199991 0.690105
-18.950357 87.437447 0.199992 0.741131
47.267799 126.922699 23.111725 0.677089
43.951385 124.942215 19.369047 0.485618
43.951385 124.942215 16.632908 0.482704
43.951385 124.942223 13.929174 0.604517
43.951378 124.942215 11.251572 0.798383
43.951401 124.942230 8.594060 0.704616
43.951385 124.942215 5.950779 0.631312
44.046402 124.998962 3.317795 0.678431
44.046402 124.998962 0.682203 0.678431
9.857767 104.582443 0.000054 0.539559
-4.152758 96.215736 0.000033 0.527306
-10.168092 92.623543 0.000023 0.546990
-13.518337 90.622871 0.000018 0.537011
-16.600769 88.782127 0.199988 0.733455
-17.938736 87.983124 0.199991 0.744381
-18.924484 87.394463 0.199992 0.670863
48.105591 126.732605 23.268003 0.590478
43.951385 124.291000 19.297359 0.693553
43.951385 124.291000 16.572510 0.613336
43.951393 124.291008 13.879938 0.674784
43.951393 124.291008 11.213387 0.530694
43.951401 124.291016 8.566843 0.606516
43.951385 124.291000 5.934471 0.573236
44.046402 124.346848 3.312358 0.678431
44.046402 124.346848 0.687642 0.678431
10.002619 104.337921 0.000055 0.537072
-4.065966 96.069237 0.000033 0.538216
-10.106230 92.519127 0.000024 0.526726
-13.470359 90.541885 0.000018 0.507927
-16.565567 88.722710 0.199988 0.690715
-17.909077 87.933067 0.199990 0.693492
-18.898914 87.351303 0.199992 0.751492
49.289703 126.732712 23.524248 0.433585
44.141396 123.755005 19.274500 0.669337
43.951378 123.645096 16.513313 0.462211
44.141388 123.754997 13.864237 0.678431
44.141403 123.755005 11.201214 0.498131
44.141411 123.755005 8.558167 0.432044
44.141403 123.755005 5.929272 0.678431
44.021370 123.685577 3.306553 0.078920
44.021370 123.685577 0.693447 0.094118
10.145773 104.092392 0.000055 0.536721
-3.980196 95.922127 0.000033 0.541268
-10.045095 92.414276 0.000024 0.534508
-13.422950 90.460571 0.000019 0.560845
-16.530779 88.663048 0.199988 0.687068
-17.879772 87.882805 0.199991 0.704646
-18.873646 87.307961 0.199992 0.694850
50.502457 126.732651 23.787733 0.801724
43.951370 123.004379 19.158224 0.486061
43.951370 123.004387 16.455296 0.487526
43.951370 123.004387 13.784380 0.744808
43.951378 123.004395 11.139278 0.606073
43.951370 123.004379 8.514023 0.477531
43.951370 123.004387 5.902823 0.774899
44.046356 123.058449 3.301803 0.678431
44.046356 123.058441 0.698199 0.678431
10.287195 103.845871 0.000055 0.537636
-3.895454 95.774429 0.000033 0.527916
-9.984701 92.308998 0.000024 0.537743
-13.376111 90.378922 0.000019 0.503014
-16.496410 88.603142 0.199988 0.739254
-17.850817 87.832336 0.199991 0.689860
-18.848680 87.264450 0.199993 0.760388
51.745430 126.732651 24.058868 0.581674
43.951347 122.368729 19.090731 0.659861
43.951340 122.368729 16.398434 0.660273
43.951363 122.368744 13.738026 0.608637
43.951355 122.368744 11.103329 0.649302
43.951363 122.368744 8.488401 0.584878
43.951355 122.368736 5.887473 0.517845
44.046364 122.421936 3.296681 0.678431
44.046356 122.421936 0.703319 0.678431
10.426924 103.598389 0.000055 0.542351
-3.811745 95.626144 0.000033 0.521324
-9.925040 92.203308 0.000024 0.550317
-13.329837 90.296959 0.000019 0.556222
-16.462460 88.542999 0.199988 0.665629
-17.822214 87.781670 0.199990 0.669276
-18.824018 87.220757 0.199993 0.733516
53.019905 126.732712 24.337969 0.457542
44.141357 121.842705 19.071449 0.678431
43.951347 121.738052 16.342720 0.626444
44.141365 121.842712 13.724783 0.678431
44.141373 121.842712 11.093060 0.678431
43.951355 121.738060 8.463291 0.615518
44.141373 121.842712 5.883089 0.678431
44.046387 121.790405 3.291662 0.678431
44.046387 121.790405 0.708336 0.678431
10.564890 103.349915 0.000055 0.534844
-3.729078 95.477272 0.000033 0.550637
-9.866117 92.097198 0.000024 0.553491
-13.284140 90.214668 0.000019 0.563546
-16.428928 88.482620 0.199988 0.750820
-17.793966 87.730804 0.199991 0.714672
-18.799662 87.176903 0.199992 0.667643
nan nan nan 0.000000
43.951385 121.112213 18.959814 0.422202
43.951355 121.112206 16.288132 0.634882
43.951347 121.112198 13.648101 0.612558
43.951370 121.112213 11.033589 0.422309
43.951355 121.112198 8.438693 0.696651
43.951363 121.112206 5.857693 0.614313
44.021423 121.150162 3.286283 0.064836
44.021423 121.150162 0.713717 0.094331
10.701132 103.100487 0.000056 0.546853
-3.647448 95.327835 0.000033 0.530800
-9.807929 91.990685 0.000024 0.546960
-13.239016 90.132057 0.000019 0.563012
-16.395823 88.422012 0.199988 0.708370
-17.766077 87.679741 0.199991 0.737499
-18.775612 87.132874 0.199992 0.702876
nan nan nan 0.000000
43.951385 120.491081 18.896326 0.566644
43.951370 120.491074 16.234650 0.486381
43.951363 120.491074 13.604499 0.575723
43.951385 120.491081 10.999777 0.514183
43.951385 120.491081 8.414593 0.525185
43.951385 120.491089 5.843253 0.576196
44.046349 120.541672 3.281931 0.678431
44.046349 120.541672 0.718070 0.678431
10.835619 102.850113 0.000056 0.539528
-3.566874 95.177818 0.000034 0.532509
-9.750492 91.883766 0.000024 0.542596
-13.194471 90.049141 0.000018 0.537362
-16.363140 88.361168 0.199988 0.674037
-17.738541 87.628487 0.199990 0.682353
-18.751871 87.088676 0.199992 0.681254
39.770378 117.684639 20.341520 0.481239
39.770386 117.684647 17.814753 0.638392
39.770393 117.684647 15.323461 0.571633
39.770378 117.684639 12.861673 0.688060
39.770363 117.684631 10.423677 0.520592
39.770370 117.684631 8.003978 0.654566
39.770378 117.684639 5.597237 0.635294
44.046364 119.924301 3.277211 0.678431
44.046371 119.924301 0.722789 0.678431
10.968378 102.598824 0.000056 0.540276
-3.487339 95.027252 0.000034 0.540032
-9.693809 91.776451 0.000024 0.538445
-13.150510 89.965912 0.000019 0.545510
-16.330881 88.300102 0.199988 0.688121
-17.711365 87.577042 0.199990 0.752865
-18.728439 87.044319 0.199992 0.742596
39.770386 117.109665 20.275139 0.468467
39.860619 117.156128 17.779438 0.591516
39.860603 117.156113 15.293704 0.638498
39.860611 117.156120 12.837418 0.610330
39.860603 117.156113 10.404867 0.522942
39.770378 117.109650 7.982251 0.520134
39.860603 117.156113 5.589203 0.693904
39.865402 117.158585 3.195634 0.678431
39.865402 117.158585 0.804364 0.678431
11.099367 102.346596 0.000055 0.541222
-3.408848 94.876137 0.000033 0.528771
-9.637867 91.668739 0.000024 0.545983
-13.107128 89.882378 0.000019 0.541436
-16.299051 88.238815 0.199988 0.689097
-17.684549 87.525406 0.199990 0.661189
-18.705317 86.999802 0.199992 0.683650
39.770386 116.538803 20.210125 0.680613
39.770378 116.538795 17.701456 0.624567
39.770386 116.538803 15.228012 0.566476
39.770386 116.538795 12.783861 0.613458
39.770393 116.538803 10.363335 0.553887
39.770386 116.538803 7.960968 0.592203
39.770393 116.538803 5.571466 0.694865
39.865417 116.586899 3.191381 0.522942
39.865417 116.586899 0.808618 0.496757
11.228571 102.093460 0.000057 0.540490
-3.331434 94.724472 0.000034 0.534173
-9.582690 91.560638 0.000025 0.548211
-13.064329 89.798538 0.000019 0.524010
-16.267651 88.177307 0.199988 0.743313
-17.658092 87.473587 0.199990 0.747784
-18.682508 86.955116 0.199992 0.757641
39.770355 115.971939 20.146441 0.518761
39.975113 116.073792 17.695938 0.193011
39.975105 116.073784 15.223360 0.064424
39.975121 116.073792 12.780075 0.368063
39.975113 116.073792 10.360394 0.220691
39.770363 115.971947 7.940122 0.741176
39.975113 116.073784 5.570210 0.175006
39.865379 116.019203 3.187215 0.678431
39.865379 116.019203 0.812785 0.586099
11.356016 101.839432 0.000056 0.537560
-3.255077 94.572266 0.000034 0.533303
-9.528256 91.452164 0.000024 0.534325
-13.022115 89.714409 0.000018 0.532540
-16.236679 88.115578 0.199988 0.741604
-17.632000 87.421577 0.199990 0.671458
-18.660009 86.910278 0.199992 0.695537
39.770416 115.409058 20.084106 0.522484
39.770416 115.409058 17.592800 0.481270
39.770424 115.409058 15.136470 0.508644
39.770409 115.409058 12.709233 0.624765
39.770409 115.409058 10.305458 0.647150
39.770416 115.409058 7.919716 0.709804
39.770409 115.409058 5.546751 0.552789
39.865440 115.455490 3.183137 0.667308
39.865433 115.455490 0.816863 0.667308
11.481703 101.584526 0.000057 0.535836
-3.179771 94.419540 0.000034 0.538354
-9.474592 91.343300 0.000025 0.549432
-12.980495 89.629982 0.000019 0.551720
-16.206139 88.053627 0.199988 0.661891
-17.606270 87.369392 0.199990 0.679118
-18.637825 86.865280 0.199992 0.741604
39.770424 114.849960 20.023058 0.660883
39.960396 114.941170 17.585672 0.678431
39.960373 114.941162 15.130461 0.678431
39.960388 114.941170 12.704341 0.678431
39.960381 114.941162 10.301661 0.678431
39.770424 114.849960 7.899733 0.410025
39.960373 114.941154 5.545130 0.678431
39.865417 114.895569 3.179141 0.666667
39.865417 114.895569 0.820857 0.666667
11.605600 101.328743 0.000056 0.537346
-3.105539 94.266289 0.000034 0.529915
-9.421683 91.234070 0.000025 0.542000
-12.939462 89.545273 0.000019 0.562127
-16.176033 87.991478 0.199988 0.734630
-17.580908 87.317032 0.199990 0.671473
-18.615955 86.820129 0.199992 0.692241
39.770378 114.294601 19.963278 0.491402
39.770401 114.294609 17.488621 0.622721
39.770393 114.294601 15.048702 0.557122
39.770378 114.294601 12.637684 0.676127
39.770393 114.294609 10.249966 0.391760
39.770401 114.294609 7.880166 0.473899
39.770401 114.294609 5.523056 0.402335
39.865402 114.339401 3.175231 0.678431
39.865402 114.339401 0.824769 0.678431
11.727709 101.072105 0.000056 0.540139
-3.032381 94.112526 0.000034 0.524193
-9.369538 91.124474 0.000025 0.535821
-14.118335 88.885353 0.199984 0.676585
-16.146358 87.929115 0.199988 0.682231
-17.555908 87.264488 0.199990 0.748486
-18.594398 86.774826 0.199992 0.672602
39.770416 113.742905 19.904785 0.654902
39.960396 113.830864 17.483398 0.678431
39.960403 113.830864 15.044304 0.678431
39.960396 113.830856 12.634099 0.678431
39.960403 113.830872 10.247188 0.678431
39.770409 113.742897 7.861018 0.558862
39.960388 113.830864 5.521867 0.678431
39.865379 113.786873 3.171403 0.678431
39.865387 113.786873 0.828596 0.678431
11.847998 100.814606 0.000058 0.542336
-2.960293 93.958252 0.000034 0.545632
-9.318155 91.014519 0.000024 0.544533
-14.082472 88.808601 0.199984 0.667308
-16.117125 87.866539 0.199988 0.664500
-17.531279 87.211777 0.199990 0.681086
-18.573162 86.729378 0.199992 0.726894
39.770416 113.194740 19.847530 0.563180
39.770393 113.194733 17.388809 0.401633
39.770401 113.194733 14.964618 0.677592
39.770409 113.194740 12.569136 0.488640
39.770401 113.194733 10.196805 0.702983
39.770409 113.194740 7.842274 0.574899
39.770401 113.194733 5.500352 0.661418
39.865417 113.237930 3.167660 0.678431
39.865417 113.237930 0.832342 0.678431
11.966505 100.556290 0.000058 0.540581
-2.889297 93.803482 0.000035 0.544091
-9.267550 90.904198 0.000024 0.546548
-14.047144 88.731606 0.199984 0.737942
-16.088326 87.803772 0.199988 0.749111
-17.507019 87.158890 0.199990 0.754345
-18.552242 86.683777 0.199992 0.699809
39.770393 112.650047 19.791500 0.773495
39.960373 112.734810 17.385433 0.678431
39.960381 112.734810 14.961773 0.678431
39.628258 112.586639 12.512868 0.207996
39.960373 112.734810 10.195004 0.678431
39.770386 112.650047 7.823934 0.570291
39.960365 112.734810 5.499584 0.678431
39.865395 112.692436 3.163992 0.678431
39.865395 112.692436 0.836007 0.678431
12.083200 100.297142 0.000058 0.537560
-2.819372 93.648216 0.000034 0.536934
-9.217710 90.793533 0.000025 0.529976
-14.012355 88.654358 0.199984 0.691981
-16.059967 87.740799 0.199988 0.678599
-17.483126 87.105843 0.199990 0.663478
-18.531643 86.638039 0.199992 0.724178
39.770424 112.108765 19.736696 0.363378
39.770416 112.108757 17.293247 0.674952
39.770416 112.108749 14.884105 0.522179
39.770416 112.108757 12.503501 0.534737
39.770401 112.108749 10.145902 0.493111
39.770416 112.108757 7.805993 0.518105
39.770416 112.108757 5.478614 0.496086
39.840378 112.139389 3.159960 0.080888
39.840378 112.139389 0.840040 0.078401
12.198092 100.037193 0.000058 0.545510
-2.750538 93.492470 0.000034 0.540993
-9.168650 90.682526 0.000025 0.528222
-13.978109 88.576874 0.199984 0.721706
-16.032045 87.677628 0.199988 0.686915
-17.459602 87.052628 0.199990 0.699870
-18.511362 86.592148 0.199992 0.678462
39.770370 111.570732 19.683064 0.638041
39.960381 111.652344 17.291670 0.678431
39.960365 111.652336 14.882775 0.678431
39.770378 111.570732 12.471744 0.601144
39.960373 111.652344 10.145061 0.678431
39.770386 111.570732 7.788440 0.604059
39.960381 111.652344 5.478256 0.678431
39.865402 111.611549 3.156898 0.678431
39.865395 111.611542 0.843101 0.678431
12.311178 99.776451 0.000058 0.541253
-2.682791 93.336243 0.000034 0.545342
-9.120358 90.571175 0.000025 0.542199
-13.944406 88.499153 0.199984 0.676814
-16.004570 87.614265 0.199988 0.689525
-17.436455 86.999245 0.199990 0.696391
-18.491404 86.546120 0.199992 0.777340
39.770363 111.035942 19.630625 0.482353
39.770370 111.035942 17.201790 0.637461
39.770370 111.035942 14.807057 0.623529
39.770355 111.035934 12.440687 0.597055
39.770363 111.035942 10.097187 0.623529
39.770348 111.035934 7.771272 0.609827
39.770363 111.035934 5.457811 0.571145
39.812134 111.053535 3.152523 0.119921
39.812134 111.053535 0.847477 0.118242
12.422430 99.514923 0.000058 0.538094
-2.616131 93.179550 0.000034 0.540291
-9.072847 90.459488 0.000025 0.541146
-13.911244 88.421196 0.199984 0.688411
-15.977533 87.550720 0.199987 0.670924
-17.413679 86.945702 0.199990 0.669947
-18.471764 86.499962 0.199992 0.676875
40.930344 110.983452 19.893721 0.498466
40.930351 110.983459 17.428646 0.586099
40.930328 110.983452 14.998173 0.533410
40.930359 110.983459 12.596494 0.558358
40.930336 110.983452 10.218019 0.539696
40.930336 110.983452 7.857397 0.531090
40.930344 110.983452 5.509411 0.541924
41.160522 111.078537 3.173043 0.678431
41.160522 111.078537 0.826956 0.678431
12.531839 99.252625 0.000058 0.539269
-2.550570 93.022392 0.000034 0.553140
-9.026121 90.347481 0.000025 0.539132
-13.878627 88.343010 0.199984 0.761181
-15.950942 87.486977 0.199987 0.724102
-17.391277 86.892006 0.199990 0.773129
-18.452448 86.453659 0.199992 0.738506
41.991577 110.875130 20.129498 0.564004
41.991592 110.875137 17.631941 0.553872
41.991600 110.875137 15.169446 0.481163
41.991585 110.875137 12.736117 0.453300
41.991600 110.875137 10.326305 0.649927
41.991592 110.875137 7.934576 0.607614
41.991592 110.875137 5.555655 0.527276
42.086594 110.913605 3.186050 0.678431
42.086594 110.913605 0.813951 0.678431
12.639437 98.989571 0.000058 0.544961
-2.486111 92.864784 0.000034 0.542321
-8.980173 90.235138 0.000025 0.532692
-13.846559 88.264595 0.199984 0.723339
-15.924801 87.423058 0.199988 0.754498
-17.369253 86.838150 0.199990 0.677165
-18.433456 86.407227 0.199991 0.681254
41.991577 110.331512 20.078827 0.425254
41.991577 110.331512 17.588249 0.725612
41.991600 110.331528 15.132642 0.471244
41.991585 110.331520 12.706111 0.461616
41.991592 110.331520 10.303037 0.610803
41.991592 110.331520 7.917992 0.586389
41.991592 110.331520 5.545717 0.694957
42.086639 110.369240 3.182734 0.584634
42.086639 110.369240 0.817265 0.615702
12.745199 98.725769 0.000057 0.538949
-2.422754 92.706726 0.000035 0.541772
-8.935017 90.122482 0.000025 0.530282
-13.815032 88.185966 0.199984 0.668940
-15.899100 87.358948 0.199987 0.657816
-17.347603 86.784149 0.199990 0.762402
-18.414789 86.360657 0.199992 0.698100
41.991570 109.790901 20.029324 0.340688
41.991577 109.790909 17.545561 0.730587
41.991600 109.790916 15.096680 0.508644
41.991577 109.790909 12.676792 0.678737
41.991608 109.790916 10.280299 0.678798
41.991592 109.790909 7.901786 0.572168
41.991592 109.790916 5.536007 0.714244
42.086609 109.827850 3.179497 0.678431
42.086609 109.827850 0.820505 0.678431
12.849104 98.461243 0.000057 0.538643
-2.360497 92.548233 0.000035 0.543297
-8.890644 90.009514 0.000025 0.536065
-13.784060 88.107117 0.199984 0.665644
-15.873854 87.294670 0.199988 0.733181
-17.326332 86.729988 0.199990 0.651362
-18.396446 86.313965 0.199991 0.665202
41.991600 109.253235 19.980961 0.797345
42.181633 109.325592 17.547785 0.678431
42.181648 109.325592 15.098547 0.666667
42.181648 109.325592 12.678321 0.678431
42.181648 109.325592 10.281481 0.678431
41.991615 109.253235 7.885957 0.552789
42.181641 109.325592 5.536512 0.678431
42.086632 109.289413 3.176332 0.678431
42.086632 109.289413 0.823668 0.678431
12.951151 98.195984 0.000058 0.539834
-2.299347 92.389305 0.000035 0.541650
-8.847059 89.896240 0.000025 0.551614
-13.753640 88.028046 0.199984 0.694911
-15.849051 87.230209 0.199987 0.715618
-17.305435 86.675690 0.199990 0.708019
-18.378431 86.267143 0.199991 0.772076
41.991615 108.718407 19.933733 0.617563
41.991615 108.718407 17.463142 0.689357
41.991631 108.718414 15.027241 0.576577
41.991631 108.718414 12.620190 0.568292
41.991646 108.718422 10.236400 0.651606
41.991631 108.718414 7.870497 0.548837
41.991623 108.718414 5.517259 0.671092
42.086632 108.753830 3.173243 0.678431
42.086632 108.753830 0.826758 0.678431
13.051344 97.930023 0.000058 0.546929
-2.239317 92.229958 0.000035 0.527092
-8.804264 89.782669 0.000025 0.528206
-13.723771 87.948769 0.199984 0.690806
-15.824702 87.165588 0.199987 0.668238
-17.284924 86.621239 0.199990 0.668147
-18.360744 86.220200 0.199991 0.693980
41.991623 108.186356 19.887623 0.469978
41.991631 108.186356 17.423386 0.710140
41.991646 108.186371 14.993748 0.632151
41.991638 108.186363 12.592880 0.672374
41.991646 108.186363 10.215221 0.565789
41.991646 108.186371 7.855402 0.454322
41.991653 108.186371 5.508215 0.566049
42.086624 108.221016 3.170226 0.614740
42.086624 108.221016 0.829776 0.678431
13.149687 97.663376 0.000058 0.538537
-2.180393 92.070198 0.000035 0.537621
-8.762278 89.668793 0.000025 0.523629
-13.694458 87.869286 0.199984 0.766140
-15.800803 87.100792 0.199987 0.747326
-17.264791 86.566650 0.199990 0.734829
-18.343386 86.173126 0.199991 0.709880
41.991653 107.657013 19.842619 0.433829
41.991653 107.657013 17.384575 0.505287
41.991653 107.657013 14.961048 0.567041
41.991638 107.657013 12.566226 0.571908
41.991661 107.657021 10.194551 0.496605
41.991646 107.657013 7.840665 0.556741
41.991653 107.657013 5.499388 0.560708
42.086632 107.690918 3.167281 0.588113
42.086632 107.690918 0.832720 0.674662
13.246141 97.396034 0.000059 0.542260
-2.122589 91.910027 0.000035 0.548104
-10.358016 88.970314 0.199978 0.690883
-13.665702 87.789604 0.199984 0.680217
-15.777359 87.035828 0.199987 0.687114
-17.245037 86.511925 0.199990 0.688365
-18.326355 86.125938 0.199991 0.687526
41.991653 107.130295 19.798693 0.649912
42.181625 107.196617 17.390162 0.678431
42.181633 107.196625 14.965759 0.678431
42.141640 107.182663 12.563780 0.092409
42.181625 107.196617 10.197525 0.678431
41.991653 107.130295 7.826289 0.380255
42.181625 107.196625 5.500661 0.678431
42.086647 107.163460 3.164406 0.431312
42.086647 107.163460 0.835593 0.576379
13.340765 97.128044 0.000059 0.539422
-2.065897 91.749458 0.000035 0.531060
-10.321651 88.867310 0.199978 0.711727
-13.637499 87.709717 0.199984 0.670939
-15.754367 86.970703 0.199987 0.686915
-17.225670 86.457062 0.199990 0.746563
-18.309654 86.078629 0.199991 0.720058
41.991615 106.606125 19.755840 0.564508
41.991623 106.606133 17.309761 0.734340
41.991608 106.606125 14.898016 0.624720
41.991615 106.606125 12.514842 0.485100
41.991623 106.606125 10.154697 0.583154
41.991623 106.606125 7.812263 0.459022
41.991623 106.606125 5.482372 0.610407
42.069290 106.632637 3.161306 0.203433
42.069290 106.632637 0.838696 0.229160
13.433496 96.859390 0.000059 0.545266
-2.010344 91.588493 0.000035 0.533242
-10.286009 88.764053 0.199978 0.691554
-13.609856 87.629639 0.199984 0.701930
-15.731833 86.905418 0.199987 0.729000
-17.206684 86.402061 0.199989 0.714427
-18.293282 86.031212 0.199991 0.665385
39.770401 105.343643 19.127552 0.494072
39.770386 105.343636 16.768017 0.608270
39.770378 105.343628 14.441617 0.593027
39.770378 105.343628 12.142771 0.484886
39.770378 105.343636 9.866140 0.567773
39.770401 105.343636 7.606595 0.592935
39.770386 105.343636 5.359146 0.567529
39.865387 105.375320 3.120554 0.678431
39.865387 105.375320 0.879446 0.678431
13.524363 96.590103 0.000059 0.533989
-1.955908 91.427139 0.000035 0.557595
-10.251088 88.660545 0.199978 0.715557
-13.582770 87.549370 0.199984 0.765637
-15.709754 86.839981 0.199987 0.714992
-17.188082 86.346931 0.199989 0.676783
-18.277245 85.983673 0.199991 0.715328
39.960403 104.903488 19.138237 0.678431
39.960381 104.903488 16.777229 0.678431
39.960396 104.903488 14.449383 0.678431
39.770386 104.841583 12.119456 0.565454
39.960396 104.903488 9.871050 0.678431
39.770393 104.841591 7.593707 0.699153
39.960381 104.903488 5.361242 0.678431
39.865356 104.872528 3.117980 0.678431
39.865364 104.872528 0.882022 0.678431
13.613344 96.320183 0.000059 0.541238
-1.902594 91.265427 0.000036 0.538018
-10.216889 88.556801 0.199978 0.715633
-13.556248 87.468910 0.199983 0.727092
-15.688132 86.774391 0.199987 0.668376
-17.169868 86.291672 0.199990 0.750454
-18.261538 85.936028 0.199991 0.720714
39.770386 104.341812 19.049814 0.589578
39.770401 104.341812 16.700996 0.632486
39.770393 104.341812 14.385154 0.585748
39.770393 104.341812 12.096738 0.654902
39.770393 104.341812 9.830441 0.572717
39.770416 104.341820 7.581151 0.603922
39.770401 104.341812 5.343902 0.492012
19.326582 97.839180 2.762782 0.403265
39.865402 104.372032 0.884530 0.678431
13.700438 96.049644 0.000059 0.538369
-1.850412 91.103333 0.000035 0.533272
-10.183415 88.452820 0.199978 0.736385
-13.530285 87.388275 0.199983 0.687663
-15.666969 86.708649 0.199987 0.740124
-17.152037 86.236290 0.199989 0.666911
-18.246166 85.888275 0.199991 0.674846
39.960381 103.903229 19.062283 0.678431
39.960403 103.903236 16.711754 0.670161
39.960396 103.903229 14.394213 0.678431
39.770378 103.844254 12.074610 0.718685
39.960396 103.903229 9.836169 0.678431
39.770386 103.844254 7.568919 0.496849
19.977728 97.700554 4.318457 0.418738
19.433344 97.531578 2.762940 0.402899
39.865372 103.873734 0.886976 0.678431
13.785639 95.778511 0.000059 0.541054
-1.799368 90.940880 0.000035 0.540810
-10.150667 88.348610 0.199978 0.731212
-13.504892 87.307449 0.199984 0.671763
-15.646266 86.642761 0.199987 0.722332
-17.134594 86.180779 0.199989 0.737301
-18.164026 85.861244 0.182392 0.746227
39.770378 103.348846 18.976080 0.529168
39.770393 103.348854 16.637419 0.695293
39.770393 103.348854 14.331592 0.605112
39.770393 103.348854 12.053075 0.634577
39.770393 103.348854 9.796579 0.581109
39.770401 103.348854 7.557013 0.579995
19.137457 97.101913 4.270370 0.408377
19.540197 97.223846 2.763135 0.429236
39.865372 103.377609 0.889355 0.578836
13.868917 95.506783 0.000060 0.542794
-1.749453 90.778076 0.000035 0.564706
-10.118650 88.244171 0.199978 0.722210
-13.480062 87.226456 0.199984 0.663783
-15.626020 86.576736 0.199987 0.666957
-17.117540 86.125153 0.199989 0.678004
-17.975697 85.865334 0.136990 0.676509
39.960335 102.911606 18.990297 0.678431
39.960327 102.911598 16.649670 0.447959
39.960335 102.911606 14.341917 0.678431
39.770424 102.855545 12.032117 0.556558
39.960365 102.911606 9.803108 0.678431
39.770401 102.855537 7.545427 0.674723
20.951365 97.300911 4.358548 0.374350
21.983316 97.605499 2.803227 0.401892
39.865402 102.883575 0.891670 0.678431
13.950331 95.234482 0.000060 0.538430
-1.700687 90.614929 0.000036 0.542031
-10.087362 88.139519 0.199978 0.748287
-13.455793 87.145287 0.199984 0.746822
-15.606239 86.510567 0.199987 0.777600
-17.100874 86.069405 0.199989 0.728649
-17.777706 85.869637 0.089165 0.743252
39.770401 102.364258 18.906263 0.405051
39.770393 102.364258 16.577217 0.608972
39.770393 102.364258 14.280875 0.549508
39.770378 102.364250 12.011726 0.598840
39.770393 102.364258 9.764513 0.569970
39.770409 102.364258 7.534157 0.604349
19.901804 96.650322 4.300104 0.400534
19.568235 96.554398 2.760474 0.407843
39.865341 102.391563 0.893923 0.678431
14.029829 94.961624 0.000060 0.540002
-1.653046 90.451447 0.000036 0.530037
-10.056806 88.034645 0.199978 0.749599
-13.432097 87.063957 0.199984 0.752651
-15.586920 86.444260 0.199987 0.678126
-17.084599 86.013550 0.199989 0.718563
-17.569273 85.874161 0.038722 0.688960
39.960381 101.928131 18.922218 0.659724
39.770378 101.874924 16.548361 0.575250
39.960373 101.928131 14.292460 0.678431
39.770370 101.874924 11.991907 0.612802
39.960381 101.928131 9.771838 0.678431
39.770378 101.874931 7.523203 0.531426
19.695887 96.253220 4.285046 0.401068
20.003904 96.339478 2.766372 0.407767
39.865364 101.901527 0.896113 0.678431
14.107412 94.688210 0.000060 0.541604
-1.606556 90.287636 0.000036 0.531136
-10.026978 87.929558 0.199978 0.726253
-13.408966 86.982460 0.199984 0.770993
-15.568065 86.377815 0.199987 0.703258
-17.068710 85.957573 0.199989 0.712154
-17.405529 85.863251 0.000010 0.344701
39.770370 101.387520 18.840279 0.601617
39.770363 101.387520 16.520321 0.526162
39.770370 101.387520 14.232944 0.709804
39.770370 101.387520 11.972652 0.776471
39.770378 101.387527 9.734209 0.840253
39.770370 101.387520 7.512558 0.675914
19.615923 95.894867 4.276570 0.413108
19.845804 95.957520 2.762214 0.413718
39.865387 101.413422 0.898239 0.607156
14.183111 94.414276 0.000060 0.536324
-1.561213 90.123497 0.000036 0.550591
-9.997891 87.824265 0.199978 0.724529
-13.386405 86.900803 0.199984 0.673991
-15.549672 86.311249 0.199987 0.743099
-17.053215 85.901489 0.199989 0.717632
-17.390684 85.809525 0.000010 0.337957
39.960335 100.952316 18.857935 0.593500
39.770386 100.901970 16.493105 0.644694
39.960350 100.952316 14.245771 0.617426
39.770378 100.901962 11.953957 0.490684
39.960350 100.952316 9.742316 0.562539
39.770386 100.901970 7.502226 0.652064
39.960358 100.952316 5.306270 0.605814
21.369177 96.024864 2.786573 0.404211
39.865395 100.927155 0.900304 0.678431
14.256876 94.139809 0.000060 0.539651
-1.517012 89.959053 0.000036 0.543954
-9.969537 87.718773 0.199978 0.705455
-13.364413 86.818993 0.199983 0.673961
-15.531744 86.244553 0.199987 0.699413
-16.872097 85.889305 0.162895 0.667506
-17.376217 85.755692 0.000011 0.347692
39.770370 100.418198 18.778072 0.454414
39.770378 100.418198 16.466688 0.550027
39.770370 100.418198 14.187756 0.661234
39.770386 100.418198 11.935816 0.431891
39.770386 100.418198 9.705639 0.700038
39.770363 100.418198 7.492194 0.419516
39.770363 100.418190 5.290606 0.589273
39.840370 100.436226 3.097268 0.067659
39.840370 100.436226 0.902732 0.169253
14.328722 93.864822 0.000060 0.536217
-1.473961 89.794304 0.000036 0.544991
-9.941917 87.613091 0.199978 0.717418
-13.342996 86.737022 0.199983 0.703655
-15.514282 86.177734 0.199987 0.694804
-16.612110 85.894951 0.108259 0.738033
-17.400724 85.691818 0.009995 1.000000
39.937630 99.978012 18.791548 0.177584
39.770363 99.936172 16.441069 0.552743
39.937637 99.978012 14.197547 0.185061
39.770378 99.936172 11.918221 0.668315
39.937637 99.978012 9.711830 0.168078
39.770370 99.936172 7.482471 0.743175
39.937630 99.978012 5.293250 0.368948
39.865402 99.959946 3.095748 0.525246
39.865395 99.959946 0.904254 0.482918
14.398661 93.589355 0.000060 0.542962
-1.432053 89.629257 0.000036 0.536080
-9.915039 87.507210 0.199978 0.718898
-13.322150 86.654915 0.199983 0.750454
-15.497288 86.110794 0.199986 0.711833
-16.336174 85.900948 0.050176 0.645930
-17.387077 85.638062 0.009995 1.000000
39.770386 99.455826 18.719574 0.622507
39.770393 99.455826 16.416248 0.617502
39.770393 99.455826 14.145263 0.498604
39.770393 99.455826 11.901175 0.619806
39.770386 99.455826 9.678772 0.701015
39.770393 99.455826 7.473046 0.698146
39.770393 99.455826 5.279134 0.414450
39.865395 99.478889 3.093862 0.678431
39.865387 99.478889 0.906137 0.678431
14.466665 93.313408 0.000060 0.534249
-1.391315 89.463921 0.000036 0.540566
-9.888898 87.401154 0.199978 0.679545
-13.301878 86.572655 0.199983 0.700130
-15.480762 86.043739 0.199987 0.750164
-16.095390 85.894539 0.000012 0.337636
-17.373806 85.584206 0.009995 1.000000
39.839767 98.993439 18.709547 0.596002
39.839752 98.993431 16.407600 0.622354
39.839752 98.993431 14.137978 0.459571
39.839767 98.993439 11.895234 0.608606
39.839752 98.993431 9.674166 0.616297
39.839745 98.993431 7.469763 0.638361
39.839760 98.993439 5.277165 0.595529
40.235031 99.086464 3.098253 0.304601
40.235031 99.086464 0.901747 0.147707
14.532743 93.036987 0.000060 0.541665
-3.725824 88.739517 0.200020 0.711254
-9.863504 87.294907 0.199978 0.672343
-13.282184 86.490265 0.199983 0.741039
-15.464706 85.976570 0.199987 0.684703
-16.080357 85.831665 0.000012 0.335332
-17.322109 85.539398 0.000010 0.342840
41.935249 98.993568 19.220901 0.611292
41.935257 98.993576 16.848515 0.464424
41.935280 98.993576 14.509439 0.604334
41.935272 98.993576 12.198061 0.534142
41.935265 98.993576 9.909018 0.622126
41.935265 98.993576 7.637153 0.564675
41.935280 98.993576 5.377458 0.664317
42.241898 99.063492 3.130160 0.039582
42.241898 99.063492 0.869838 0.098512
14.596903 92.760117 0.000060 0.539498
