# This PCD file was generated using the MATLAB® pcwrite function
# from Computer Vision Toolbox®.
# .PCD v.7 - Point Cloud Data file format
VERSION .7
FIELDS x y z intensity
SIZE 4 4 4 4
TYPE F F F F
COUNT 1 1 1 1
WIDTH 1156
HEIGHT 1
VIEWPOINT 0 0 0 1 0 0 0
POINTS 1156
DATA ascii
288.900757 -260.750214 1.712272 1.000000
288.900757 -260.750214 1.136199 1.000000
288.900757 -260.750214 0.558270 1.000000
289.051208 -260.878601 -0.000017 0.501778
292.019257 -263.412079 -0.000013 0.549584
293.914063 -265.029449 -0.000023 0.544793
295.231049 -266.153625 -0.000021 0.471305
296.201355 -266.981873 -0.000020 0.550423
289.053680 -260.720215 6.380184 1.000000
289.053680 -260.720215 5.776760 1.000000
289.053680 -260.720215 5.181808 1.000000
289.053680 -260.720215 4.593904 1.000000
289.053650 -260.720215 4.011681 1.000000
289.053680 -260.720215 3.433825 1.000000
289.053680 -260.720215 2.859065 1.000000
289.053680 -260.720215 2.286150 1.000000
289.053680 -260.720215 1.713849 1.000000
289.053680 -260.720215 1.140934 1.000000
289.053650 -260.720215 0.566174 1.000000
289.130310 -260.786560 -0.000017 0.559304
292.080627 -263.340729 -0.000013 0.568368
293.964081 -264.971252 -0.000023 0.520943
295.273193 -266.104614 -0.000021 0.540658
296.237701 -266.939575 -0.000020 0.582910
289.204895 -260.690552 6.356512 1.000000
289.204895 -260.690552 5.756351 1.000000
289.204895 -260.690552 5.164613 1.000000
289.204895 -260.690552 4.579885 1.000000
289.204895 -260.690552 4.000809 1.000000
289.204895 -260.690552 3.426077 1.000000
289.204895 -260.690552 2.854422 1.000000
289.204895 -260.690552 2.284604 1.000000
289.204895 -260.690552 1.715396 1.000000
289.204895 -260.690552 1.145577 1.000000
289.204895 -260.690552 0.573922 1.000000
289.204895 -260.690552 -0.000809 1.000000
292.142487 -263.269775 -0.000013 0.554330
294.014496 -264.913422 -0.000023 0.529335
295.315674 -266.055878 -0.000021 0.541009
296.274323 -266.897583 -0.000020 0.548699
289.354523 -260.661194 6.333307 1.000000
289.354523 -260.661194 5.736340 1.000000
289.354523 -260.661194 5.147757 1.000000
289.354523 -260.661194 4.566143 1.000000
289.354523 -260.661194 3.990150 1.000000
289.354523 -260.661194 3.418480 1.000000
289.354523 -260.661194 2.849871 1.000000
289.354523 -260.661194 2.283088 1.000000
289.354523 -260.661194 1.716912 1.000000
289.354523 -260.661194 1.150129 1.000000
289.354523 -260.661194 0.581519 1.000000
289.354523 -260.661194 0.009849 1.000000
292.204834 -263.199249 -0.000013 0.533181
294.065338 -264.855927 -0.000023 0.561929
295.358490 -266.007446 -0.000021 0.541558
296.311249 -266.855804 -0.000020 0.534066
289.502563 -260.632141 6.310555 1.000000
289.502563 -260.632141 5.716723 1.000000
289.502563 -260.632141 5.131229 1.000000
289.502563 -260.632141 4.552669 1.000000
289.502563 -260.632141 3.979702 1.000000
289.502563 -260.632141 3.411033 1.000000
289.502563 -260.632141 2.845409 1.000000
289.502563 -260.632141 2.281602 1.000000
289.502563 -260.632141 1.718398 1.000000
289.502563 -260.632141 1.154591 1.000000
289.502563 -260.632141 0.588966 1.000000
289.502563 -260.632141 0.020298 1.000000
292.267670 -263.129181 -0.000013 0.565972
294.116577 -264.798798 -0.000023 0.540719
295.401672 -265.959320 -0.000022 0.521721
296.348450 -266.814301 -0.000020 0.466621
289.649078 -260.603424 6.288247 1.000000
289.649078 -260.603424 5.697490 1.000000
289.649078 -260.603424 5.115025 1.000000
289.649078 -260.603424 4.539460 1.000000
289.649078 -260.603424 3.969457 1.000000
289.649078 -260.603424 3.403731 1.000000
289.649078 -260.603424 2.841034 1.000000
289.649078 -260.603424 2.280144 1.000000
289.649078 -260.603424 1.719855 1.000000
289.649078 -260.603424 1.158966 1.000000
289.649078 -260.603424 0.596269 1.000000
289.649078 -260.603424 0.030543 1.000000
292.330994 -263.059540 -0.000013 0.521599
294.168182 -264.742035 -0.000023 0.558556
295.445160 -265.911469 -0.000021 0.558068
296.385956 -266.773071 -0.000020 0.528664
289.794067 -260.574982 6.266378 1.000000
289.794067 -260.574982 5.678633 1.000000
289.794067 -260.574982 5.099138 1.000000
289.794067 -260.574982 4.526509 1.000000
289.794067 -260.574982 3.959413 1.000000
289.794067 -260.574982 3.396572 1.000000
289.794067 -260.574982 2.836745 1.000000
289.794067 -260.574982 2.278716 1.000000
289.794067 -260.574982 1.721284 1.000000
289.794067 -260.574982 1.163255 1.000000
289.794067 -260.574982 0.603428 1.000000
289.794067 -260.574982 0.040587 1.000000
292.394806 -262.990326 -0.000013 0.541314
294.220215 -264.685638 -0.000023 0.536828
295.488983 -265.863953 -0.000021 0.552636
296.423737 -266.732086 -0.000020 0.531624
289.937622 -260.546814 6.244937 1.000000
289.937622 -260.546814 5.660144 1.000000
289.937622 -260.546814 5.083562 1.000000
289.937622 -260.546814 4.513811 1.000000
289.937622 -260.546814 3.949565 1.000000
289.937622 -260.546814 3.389553 1.000000
289.937622 -260.546814 2.832540 1.000000
289.937622 -260.546814 2.277315 1.000000
289.937622 -260.546814 1.722685 1.000000
289.937622 -260.546814 1.167460 1.000000
289.937622 -260.546814 0.610446 1.000000
289.937622 -260.546814 0.050435 1.000000
292.459106 -262.921570 -0.000013 0.521279
294.272644 -264.629578 -0.000024 0.548074
295.533142 -265.816742 -0.000021 0.524407
296.461823 -266.691376 -0.000020 0.550256
290.079712 -260.518951 6.223914 1.000000
290.079712 -260.518951 5.642017 1.000000
290.079712 -260.518921 5.068292 1.000000
290.079712 -260.518921 4.501361 1.000000
290.079712 -260.518921 3.939910 1.000000
290.079712 -260.518921 3.382671 1.000000
290.079712 -260.518921 2.828417 1.000000
290.079712 -260.518921 2.275942 1.000000
290.079712 -260.518921 1.724058 1.000000
290.079712 -260.518921 1.171583 1.000000
290.079712 -260.518921 0.617328 1.000000
290.079712 -260.518921 0.060090 1.000000
292.523895 -262.853302 -0.000013 0.522454
294.325439 -264.573914 -0.000024 0.559533
295.577637 -265.769836 -0.000021 0.540322
296.500183 -266.650940 -0.000020 0.544900
290.220428 -260.491333 6.203302 1.000000
290.220428 -260.491333 5.624245 1.000000
290.220428 -260.491333 5.053320 1.000000
290.220428 -260.491333 4.489155 1.000000
290.220428 -260.491333 3.930444 1.000000
290.220428 -260.491333 3.375924 1.000000
290.220428 -260.491333 2.824374 1.000000
290.220428 -260.491333 2.274595 1.000000
290.220428 -260.491333 1.725405 1.000000
290.220428 -260.491333 1.175626 1.000000
290.220428 -260.491333 0.624075 1.000000
290.220428 -260.491333 0.069556 1.000000
292.589142 -262.785431 -0.000013 0.519585
294.378632 -264.518585 -0.000023 0.521599
295.622437 -265.723236 -0.000021 0.559548
296.538818 -266.610748 -0.000020 0.531502
290.359802 -260.463989 6.183093 1.000000
290.359802 -260.463989 5.606820 1.000000
290.359772 -260.463989 5.038640 1.000000
290.359772 -260.463989 4.477188 1.000000
290.359772 -260.463989 3.921163 1.000000
290.359802 -260.463989 3.369309 1.000000
290.359772 -260.463989 2.820411 1.000000
290.359772 -260.463989 2.273275 1.000000
290.359772 -260.463989 1.726725 1.000000
290.359772 -260.463989 1.179589 1.000000
290.359802 -260.463989 0.630690 1.000000
290.359772 -260.463989 0.078837 1.000000
292.654846 -262.718048 -0.000014 0.520073
294.432220 -264.463654 -0.000023 0.533455
295.667572 -265.676941 -0.000021 0.558312
296.577759 -266.570862 -0.000020 0.530373
290.497803 -260.436920 6.163281 1.000000
290.497803 -260.436920 5.589738 1.000000
290.497803 -260.436920 5.024247 1.000000
290.497803 -260.436920 4.465455 1.000000
290.497803 -260.436920 3.912063 1.000000
290.497803 -260.436920 3.362824 1.000000
290.497803 -260.436920 2.816525 1.000000
290.497803 -260.436920 2.271980 1.000000
290.497803 -260.436920 1.728019 1.000000
290.497803 -260.436920 1.183475 1.000000
290.497803 -260.436920 0.637176 1.000000
290.497803 -260.436920 0.087937 1.000000
292.721039 -262.651123 -0.000014 0.528862
294.486176 -264.409088 -0.000023 0.507424
295.713043 -265.630981 -0.000021 0.553643
296.616943 -266.531219 -0.000021 0.544656
290.634552 -260.410095 6.143854 1.000000
290.634552 -260.410095 5.572988 1.000000
290.634552 -260.410095 5.010137 1.000000
290.634552 -260.410095 4.453951 1.000000
290.634552 -260.410095 3.903141 1.000000
290.634552 -260.410095 3.356465 1.000000
290.634552 -260.410095 2.812715 1.000000
290.634552 -260.410095 2.270712 1.000000
290.634552 -260.410095 1.729288 1.000000
290.634552 -260.410095 1.187285 1.000000
290.634552 -260.410095 0.643535 1.000000
290.634552 -260.410095 0.096858 1.000000
292.787689 -262.584656 -0.000014 0.568399
294.540527 -264.354919 -0.000024 0.515679
295.758820 -265.585358 -0.000022 0.551598
296.656403 -266.491852 -0.000020 0.603616
290.770020 -260.383514 6.124810 1.000000
290.770020 -260.383514 5.556567 1.000000
290.770020 -260.383514 4.996302 1.000000
290.770020 -260.383514 4.442674 1.000000
290.770020 -260.383514 3.894395 1.000000
290.770020 -260.383514 3.350230 1.000000
290.770020 -260.383514 2.808980 1.000000
290.770020 -260.383514 2.269467 1.000000
290.770020 -260.383514 1.730533 1.000000
290.770020 -260.383514 1.191020 1.000000
290.770020 -260.383514 0.649770 1.000000
290.770020 -260.383514 0.105605 1.000000
292.854828 -262.518677 -0.000014 0.547814
294.595215 -264.301117 -0.000024 0.529335
295.804932 -265.540009 -0.000022 0.540841
296.696167 -266.452789 -0.000020 0.544686
290.904266 -260.357208 6.106138 1.000000
290.904266 -260.357178 5.540467 1.000000
290.904266 -260.357208 4.982738 1.000000
290.904266 -260.357178 4.431616 1.000000
290.904266 -260.357178 3.885820 1.000000
290.904236 -260.357178 3.344119 1.000000
290.904236 -260.357178 2.805318 1.000000
290.904266 -260.357178 2.268248 1.000000
290.904266 -260.357178 1.731753 1.000000
290.904236 -260.357178 1.194682 1.000000
290.904236 -260.357178 0.655881 1.000000
290.904266 -260.357178 0.114180 1.000000
292.922394 -262.453156 -0.000014 0.560784
294.650330 -264.247711 -0.000024 0.525139
295.851318 -265.495026 -0.000022 0.560601
296.736176 -266.413971 -0.000020 0.553933
291.037292 -260.331085 6.087833 1.000000
291.037292 -260.331085 5.524685 1.000000
291.037292 -260.331085 4.969443 1.000000
291.037292 -260.331085 4.420776 1.000000
291.037292 -260.331085 3.877413 1.000000
291.037292 -260.331085 3.338126 1.000000
291.037292 -260.331085 2.801728 1.000000
291.037292 -260.331085 2.267052 1.000000
291.037292 -260.331085 1.732948 1.000000
291.037292 -260.331085 1.198272 1.000000
291.037292 -260.331085 0.661873 1.000000
291.037292 -260.331085 0.122587 1.000000
292.990417 -262.388092 -0.000014 0.560952
294.705780 -264.194672 -0.000021 0.522164
295.898071 -265.450348 -0.000022 0.548943
296.776459 -266.375458 -0.000020 0.540063
291.169128 -260.305237 6.069889 1.000000
291.169128 -260.305237 5.509212 1.000000
291.169128 -260.305237 4.956407 1.000000
291.169128 -260.305237 4.410150 1.000000
291.169128 -260.305237 3.869172 1.000000
291.169128 -260.305237 3.332252 1.000000
291.169128 -260.305237 2.798208 1.000000
291.169128 -260.305237 2.265879 1.000000
291.169128 -260.305237 1.734120 1.000000
291.169128 -260.305237 1.201791 1.000000
291.169128 -260.305237 0.667747 1.000000
291.169128 -260.305237 0.130828 1.000000
293.058899 -262.323517 -0.000015 0.538949
294.761627 -264.142029 -0.000021 0.516426
295.945099 -265.405975 -0.000022 0.587472
296.817017 -266.337219 -0.000020 0.541161
291.299866 -260.279602 6.052297 1.000000
291.299866 -260.279602 5.494044 1.000000
291.299866 -260.279602 4.943628 1.000000
291.299866 -260.279602 4.399733 1.000000
291.299866 -260.279602 3.861092 1.000000
291.299866 -260.279602 3.326494 1.000000
291.299866 -260.279602 2.794758 1.000000
291.299866 -260.279602 2.264730 1.000000
291.299866 -260.279602 1.735270 1.000000
291.299866 -260.279602 1.205241 1.000000
291.299866 -260.279602 0.673506 1.000000
291.299866 -260.279602 0.138908 1.000000
293.127838 -262.259430 -0.000014 0.529000
294.817810 -264.089783 -0.000021 0.532189
295.992432 -265.361969 -0.000022 0.565087
296.857849 -266.299255 -0.000020 0.532952
291.429443 -260.254181 6.035054 1.000000
291.429443 -260.254181 5.479176 1.000000
291.429443 -260.254181 4.931102 1.000000
291.429443 -260.254181 4.389520 1.000000
291.429443 -260.254181 3.853172 1.000000
291.429443 -260.254181 3.320849 1.000000
291.429443 -260.254181 2.791376 1.000000
291.429443 -260.254181 2.263604 1.000000
291.429443 -260.254181 1.736396 1.000000
291.429443 -260.254181 1.208624 1.000000
291.429443 -260.254181 0.679150 1.000000
291.429443 -260.254181 0.146828 1.000000
293.197235 -262.195801 -0.000014 0.500542
294.874390 -264.037903 -0.000021 0.563378
296.040100 -265.318268 -0.000022 0.538170
296.898926 -266.261597 -0.000020 0.585443
291.557953 -260.228973 6.018150 1.000000
291.557953 -260.228973 5.464601 1.000000
291.557953 -260.228973 4.918824 1.000000
291.557953 -260.228973 4.379511 1.000000
291.557953 -260.228973 3.845409 1.000000
291.557953 -260.228973 3.315316 1.000000
291.557953 -260.228973 2.788061 1.000000
291.557953 -260.228973 2.262499 1.000000
291.557953 -260.228973 1.737501 1.000000
291.557953 -260.228973 1.211939 1.000000
291.557953 -260.228973 0.684684 1.000000
291.557953 -260.228973 0.154591 1.000000
293.267059 -262.132690 -0.000015 0.542824
294.931305 -263.986450 -0.000021 0.564965
296.088043 -265.274933 -0.000021 0.490043
296.940277 -266.224213 -0.000020 0.531106
291.685394 -260.203949 6.001583 1.000000
291.685394 -260.203949 5.450316 1.000000
291.685394 -260.203979 4.906789 1.000000
291.685394 -260.203949 4.369699 1.000000
291.685394 -260.203979 3.837801 1.000000
291.685394 -260.203949 3.309893 1.000000
291.685394 -260.203949 2.784812 1.000000
291.685394 -260.203979 2.261417 1.000000
291.685394 -260.203979 1.738583 1.000000
291.685394 -260.203949 1.215188 1.000000
291.685394 -260.203949 0.690107 1.000000
291.685394 -260.203979 0.162200 1.000000
293.337311 -262.070038 -0.000015 0.533959
294.988586 -263.935394 -0.000021 0.535882
296.136292 -265.231903 -0.000022 0.508095
296.981903 -266.187103 -0.000021 0.496925
291.811768 -260.179169 5.985345 1.000000
291.811768 -260.179169 5.436315 1.000000
291.811768 -260.179169 4.894993 1.000000
291.811768 -260.179169 4.360083 1.000000
291.811768 -260.179169 3.830343 1.000000
291.811768 -260.179169 3.304577 1.000000
291.811768 -260.179169 2.781627 1.000000
291.811768 -260.179169 2.260356 1.000000
291.811768 -260.179169 1.739644 1.000000
291.811768 -260.179169 1.218372 1.000000
291.811768 -260.179169 0.695422 1.000000
291.811768 -260.179169 0.169657 1.000000
293.408020 -262.007904 -0.000015 0.512383
295.046234 -263.884735 -0.000021 0.558145
296.184845 -265.189209 -0.000022 0.552651
297.023773 -266.150299 -0.000020 0.547982
291.937164 -260.154572 5.969430 1.000000
291.937164 -260.154572 5.422592 1.000000
291.937164 -260.154572 4.883433 1.000000
291.937164 -260.154572 4.350659 1.000000
291.937164 -260.154572 3.823034 1.000000
291.937164 -260.154572 3.299367 1.000000
291.937164 -260.154572 2.778506 1.000000
291.937164 -260.154572 2.259317 1.000000
291.937164 -260.154572 1.740683 1.000000
291.937164 -260.154572 1.221494 1.000000
291.937164 -260.154572 0.700632 1.000000
291.937164 -260.154572 0.176966 1.000000
293.479126 -261.946259 -0.000015 0.543877
295.104218 -263.834473 -0.000020 0.529564
296.233704 -265.146881 -0.000022 0.549493
297.065887 -266.113800 -0.000020 0.538979
292.061554 -260.130188 5.953834 1.000000
292.061554 -260.130188 5.409145 1.000000
292.061554 -260.130188 4.872104 1.000000
292.061554 -260.130188 4.341423 1.000000
292.061554 -260.130188 3.815871 1.000000
292.061554 -260.130188 3.294262 1.000000
292.061554 -260.130188 2.775447 1.000000
292.061554 -260.130188 2.258298 1.000000
292.061554 -260.130188 1.741702 1.000000
292.061554 -260.130188 1.224552 1.000000
292.061554 -260.130188 0.705737 1.000000
292.061554 -260.130188 0.184129 1.000000
293.550690 -261.885101 -0.000015 0.531868
295.162537 -263.784607 -0.000020 0.546593
296.282867 -265.104889 -0.000022 0.536873
297.108246 -266.077576 -0.000020 0.565621
292.184967 -260.105957 5.938551 1.000000
292.184967 -260.105957 5.395967 1.000000
292.184967 -260.105957 4.861002 1.000000
292.184967 -260.105957 4.332373 1.000000
292.184967 -260.105957 3.808852 1.000000
292.184967 -260.105957 3.289260 1.000000
292.184967 -260.105957 2.772450 1.000000
292.184967 -260.105957 2.257300 1.000000
292.184967 -260.105957 1.742701 1.000000
292.184967 -260.105957 1.227550 1.000000
292.184967 -260.105957 0.710740 1.000000
292.184967 -260.105957 0.191148 1.000000
293.622681 -261.824432 -0.000015 0.566384
295.221222 -263.735168 -0.000021 0.554940
296.332306 -265.063232 -0.000022 0.522606
297.150879 -266.041656 -0.000020 0.547112
292.307434 -260.081940 5.923577 1.000000
292.307434 -260.081940 5.383057 1.000000
292.307434 -260.081940 4.850125 1.000000
292.307434 -260.081940 4.323505 1.000000
292.307434 -260.081940 3.801975 1.000000
292.307434 -260.081940 3.284358 1.000000
292.307434 -260.081940 2.769513 1.000000
292.307434 -260.081940 2.256321 1.000000
292.307434 -260.081940 1.743679 1.000000
292.307434 -260.081940 1.230487 1.000000
292.307434 -260.081940 0.715641 1.000000
292.307434 -260.081940 0.198025 1.000000
293.695099 -261.764282 -0.000015 0.529244
295.280273 -263.686127 -0.000020 0.511696
296.382019 -265.021912 -0.000022 0.528374
297.193756 -266.006042 -0.000020 0.586496
292.429016 -260.058105 5.908906 1.000000
292.428986 -260.058105 5.370407 1.000000
292.429016 -260.058105 4.839468 1.000000
292.429016 -260.058105 4.314817 1.000000
292.428986 -260.058105 3.795237 1.000000
292.428986 -260.058105 3.279556 1.000000
292.428986 -260.058105 2.766636 1.000000
292.429016 -260.058105 2.255363 1.000000
292.429016 -260.058105 1.744637 1.000000
292.428986 -260.058105 1.233364 1.000000
292.428986 -260.058105 0.720444 1.000000
292.428986 -260.058105 0.204763 1.000000
293.767914 -261.704651 -0.000015 0.562341
295.339630 -263.637512 -0.000021 0.538354
296.432037 -264.980957 -0.000022 0.502693
297.236877 -265.970734 -0.000020 0.497704
292.549652 -260.034424 5.894533 1.000000
292.549652 -260.034424 5.358014 1.000000
292.549652 -260.034424 4.829027 1.000000
292.549652 -260.034424 4.306306 1.000000
292.549652 -260.034424 3.788636 1.000000
292.549652 -260.034424 3.274851 1.000000
292.549652 -260.034424 2.763817 1.000000
292.549652 -260.034424 2.254424 1.000000
292.549652 -260.034424 1.745576 1.000000
292.549652 -260.034424 1.236183 1.000000
292.549652 -260.034424 0.725149 1.000000
292.549652 -260.034424 0.211364 1.000000
293.841156 -261.645508 -0.000015 0.530770
295.399323 -263.589325 -0.000020 0.557397
296.482330 -264.940338 -0.000022 0.538384
297.280273 -265.935730 -0.000020 0.569116
292.669434 -260.010925 5.880456 1.000000
292.669434 -260.010925 5.345875 1.000000
292.669434 -260.010925 4.818801 1.000000
292.669434 -260.010925 4.297969 1.000000
292.669434 -260.010925 3.782171 1.000000
292.669434 -260.010925 3.270243 1.000000
292.669434 -260.010925 2.761056 1.000000
292.669434 -260.010925 2.253504 1.000000
292.669434 -260.010925 1.746496 1.000000
292.669434 -260.010925 1.238944 1.000000
292.669434 -260.010925 0.729757 1.000000
292.669434 -260.010925 0.217829 1.000000
293.914795 -261.586914 -0.000015 0.537255
295.459381 -263.541534 -0.000021 0.511940
296.532928 -264.900085 -0.000022 0.509133
297.323883 -265.901001 -0.000020 0.564950
292.788361 -259.987610 5.866666 1.000000
292.788361 -259.987610 5.333984 1.000000
292.788361 -259.987610 4.808784 1.000000
292.788361 -259.987610 4.289803 1.000000
292.788361 -259.987610 3.775837 1.000000
292.788361 -259.987610 3.265728 1.000000
292.788361 -259.987610 2.758351 1.000000
292.788361 -259.987610 2.252603 1.000000
292.788361 -259.987610 1.747397 1.000000
292.788361 -259.987610 1.241649 1.000000
292.788361 -259.987610 0.734271 1.000000
292.788361 -259.987610 0.224163 1.000000
293.988861 -261.528809 -0.000015 0.554589
295.519775 -263.494202 -0.000013 0.521218
296.583801 -264.860168 -0.000021 0.551232
297.367737 -265.866608 -0.000020 0.581872
292.906433 -259.964447 5.853161 1.000000
292.906433 -259.964447 5.322340 1.000000
292.906433 -259.964447 4.798973 1.000000
292.906433 -259.964447 4.281805 1.000000
292.906433 -259.964447 3.769635 1.000000
292.906433 -259.964447 3.261308 1.000000
292.906433 -259.964447 2.755702 1.000000
292.906433 -259.964447 2.251721 1.000000
292.906433 -259.964447 1.748279 1.000000
292.906433 -259.964447 1.244297 1.000000
292.906433 -259.964447 0.738692 1.000000
292.906433 -259.964447 0.230365 1.000000
294.063324 -261.471222 -0.000016 0.540230
295.580475 -263.447266 -0.000013 0.533165
296.634918 -264.820618 -0.000022 0.565560
297.411835 -265.832489 -0.000020 0.530800
293.023712 -259.941437 5.839936 1.000000
293.023712 -259.941437 5.310938 1.000000
293.023712 -259.941437 4.789368 1.000000
293.023712 -259.941437 4.273974 1.000000
293.023712 -259.941437 3.763561 1.000000
293.023712 -259.941437 3.256979 1.000000
293.023712 -259.941437 2.753109 1.000000
293.023712 -259.941437 2.250857 1.000000
293.023712 -259.941437 1.749143 1.000000
293.023712 -259.941437 1.246891 1.000000
293.023712 -259.941437 0.743021 1.000000
293.023712 -259.941437 0.236439 1.000000
294.138184 -261.414154 -0.000015 0.522438
295.641510 -263.400726 -0.000013 0.533959
296.686340 -264.781433 -0.000021 0.522622
297.456177 -265.798706 -0.000020 0.533150
293.140167 -259.918579 5.826987 1.000000
293.140167 -259.918579 5.299774 1.000000
293.140167 -259.918579 4.779962 1.000000
293.140167 -259.918579 4.266306 1.000000
293.140167 -259.918579 3.757615 1.000000
293.140167 -259.918579 3.252740 1.000000
293.140167 -259.918579 2.750569 1.000000
293.140167 -259.918579 2.250011 1.000000
293.140167 -259.918579 1.749989 1.000000
293.140167 -259.918579 1.249430 1.000000
293.140167 -259.918579 0.747259 1.000000
293.140167 -259.918579 0.242385 1.000000
294.213440 -261.357605 -0.000015 0.543343
295.702850 -263.354645 -0.000013 0.532235
296.738037 -264.742615 -0.000022 0.548302
297.500732 -265.765228 -0.000020 0.540093
293.255859 -259.895905 5.814312 1.000000
293.255859 -259.895905 5.288844 1.000000
293.255859 -259.895905 4.770754 1.000000
293.255859 -259.895905 4.258799 1.000000
293.255859 -259.895905 3.751793 1.000000
293.255859 -259.895905 3.248591 1.000000
293.255859 -259.895905 2.748083 1.000000
293.255859 -259.895905 2.249183 1.000000
293.255859 -259.895905 1.750817 1.000000
293.255859 -259.895905 1.251917 1.000000
293.255859 -259.895905 0.751409 1.000000
293.255859 -259.895905 0.248207 1.000000
294.289093 -261.301605 -0.000016 0.516701
295.764526 -263.308990 -0.000013 0.529915
296.789978 -264.704132 -0.000021 0.558907
297.545532 -265.732056 -0.000020 0.580118
293.370789 -259.873352 5.801905 1.000000
293.370789 -259.873352 5.278146 1.000000
293.370789 -259.873352 4.761741 1.000000
293.370789 -259.873352 4.251451 1.000000
293.370789 -259.873352 3.746095 1.000000
293.370789 -259.873352 3.244529 1.000000
293.370789 -259.873352 2.745650 1.000000
293.370789 -259.873352 2.248372 1.000000
293.370789 -259.873352 1.751627 1.000000
293.370789 -259.873352 1.254350 1.000000
293.370789 -259.873352 0.755470 1.000000
293.370789 -259.873352 0.253905 1.000000
294.365112 -261.246124 -0.000016 0.562341
295.826508 -263.263733 -0.000013 0.528389
296.842224 -264.666016 -0.000022 0.539284
297.590546 -265.699188 -0.000020 0.530297
293.484985 -259.850952 5.789762 1.000000
293.484985 -259.850952 5.267676 1.000000
293.484985 -259.850952 4.752920 1.000000
293.484985 -259.850952 4.244261 1.000000
293.484985 -259.850952 3.740518 1.000000
293.484985 -259.850952 3.240555 1.000000
293.484985 -259.850952 2.743268 1.000000
293.484985 -259.850952 2.247579 1.000000
293.484985 -259.850952 1.752421 1.000000
293.484985 -259.850952 1.256731 1.000000
293.484985 -259.850952 0.759445 1.000000
293.484985 -259.850952 0.259482 1.000000
294.441528 -261.191162 -0.000016 0.521737
295.888824 -263.218933 -0.000013 0.542535
296.894714 -264.628296 -0.000021 0.537835
297.635803 -265.666656 -0.000020 0.573861
293.598450 -259.828705 5.777880 1.000000
293.598450 -259.828705 5.257432 1.000000
293.598450 -259.828705 4.744289 1.000000
293.598450 -259.828705 4.237225 1.000000
293.598480 -259.828705 3.735060 1.000000
293.598450 -259.828674 3.236665 1.000000
293.598450 -259.828705 2.740938 1.000000
293.598450 -259.828705 2.246803 1.000000
293.598450 -259.828705 1.753197 1.000000
293.598450 -259.828705 1.259062 1.000000
293.598450 -259.828674 0.763334 1.000000
293.598450 -259.828705 0.264939 1.000000
294.518341 -261.136749 -0.000016 0.542519
295.951447 -263.174591 -0.000013 0.541604
296.947449 -264.590912 -0.000021 0.550652
297.681305 -265.634430 -0.000020 0.554498
293.711243 -259.806580 5.766255 1.000000
293.711243 -259.806580 5.247407 1.000000
293.711243 -259.806580 4.735845 1.000000
293.711243 -259.806580 4.230341 1.000000
293.711243 -259.806580 3.729722 1.000000
293.711243 -259.806580 3.232860 1.000000
293.711243 -259.806580 2.738658 1.000000
293.711243 -259.806580 2.246043 1.000000
293.711243 -259.806580 1.753957 1.000000
293.711243 -259.806580 1.261342 1.000000
293.711243 -259.806580 0.767140 1.000000
293.711243 -259.806580 0.270278 1.000000
294.595520 -261.082886 -0.000016 0.540810
296.014374 -263.130676 -0.000013 0.539376
297.000458 -264.553894 -0.000021 0.532906
297.727020 -265.602539 -0.000020 0.509819
293.823303 -259.784576 5.754884 1.000000
293.823303 -259.784576 5.237603 1.000000
293.823303 -259.784576 4.727584 1.000000
293.823303 -259.784576 4.223607 1.000000
293.823303 -259.784576 3.724499 1.000000
293.823303 -259.784576 3.229137 1.000000
293.823303 -259.784576 2.736428 1.000000
293.823303 -259.784576 2.245301 1.000000
293.823303 -259.784576 1.754699 1.000000
293.823303 -259.784576 1.263572 1.000000
293.823303 -259.784576 0.770862 1.000000
293.823303 -259.784576 0.275500 1.000000
294.673096 -261.029541 -0.000016 0.532525
296.077576 -263.087189 -0.000013 0.502205
297.053741 -264.517273 -0.000021 0.550973
297.772949 -265.570953 -0.000020 0.545968
293.934723 -259.762726 5.743764 1.000000
293.934723 -259.762726 5.228014 1.000000
293.934723 -259.762726 4.719507 1.000000
293.934723 -259.762726 4.217021 1.000000
293.934723 -259.762726 3.719393 1.000000
293.934723 -259.762726 3.225497 1.000000
293.934723 -259.762726 2.734247 1.000000
293.934723 -259.762726 2.244574 1.000000
293.934723 -259.762726 1.755426 1.000000
293.934723 -259.762726 1.265753 1.000000
293.934723 -259.762726 0.774502 1.000000
293.934723 -259.762726 0.280607 1.000000
294.751007 -260.976746 -0.000016 0.523095
296.141113 -263.044128 -0.000013 0.557275
297.107269 -264.481018 -0.000021 0.512398
297.819092 -265.539673 -0.000019 0.529259
294.045502 -259.740997 5.732890 1.000000
294.045502 -259.740997 5.218639 1.000000
294.045502 -259.740997 4.711608 1.000000
294.045502 -259.740997 4.210583 1.000000
294.045502 -259.740997 3.714398 1.000000
294.045502 -259.740997 3.221938 1.000000
294.045502 -259.740997 2.732114 1.000000
294.045502 -259.740997 2.243864 1.000000
294.045502 -259.740997 1.756136 1.000000
294.045502 -259.740997 1.267885 1.000000
294.045502 -259.740997 0.778061 1.000000
294.045502 -259.740997 0.285601 1.000000
294.829315 -260.924500 -0.000017 0.532280
296.204956 -263.001556 -0.000013 0.606104
297.161041 -264.445129 -0.000021 0.584253
297.865448 -265.508728 -0.000019 0.556985
294.155609 -259.719391 5.722260 1.000000
294.155609 -259.719391 5.209474 1.000000
294.155609 -259.719391 4.703886 1.000000
294.155609 -259.719391 4.204287 1.000000
294.155609 -259.719391 3.709517 1.000000
294.155609 -259.719391 3.218458 1.000000
294.155609 -259.719391 2.730030 1.000000
294.155609 -259.719391 2.243170 1.000000
294.155609 -259.719391 1.756830 1.000000
294.155609 -259.719391 1.269970 1.000000
294.155609 -259.719391 0.781541 1.000000
294.155609 -259.719391 0.290483 1.000000
294.907990 -260.872803 -0.000016 0.565255
296.269073 -262.959412 -0.000013 0.531792
297.215057 -264.409607 -0.000021 0.534661
297.912048 -265.478119 -0.000019 0.581827
294.265106 -259.697906 5.711872 1.000000
294.265106 -259.697906 5.200516 1.000000
294.265106 -259.697906 4.696340 1.000000
294.265106 -259.697906 4.198135 1.000000
294.265137 -259.697906 3.704745 1.000000
294.265137 -259.697906 3.215058 1.000000
294.265106 -259.697906 2.727992 1.000000
294.265106 -259.697906 2.242491 1.000000
294.265106 -259.697906 1.757509 1.000000
294.265106 -259.697906 1.272008 1.000000
294.265106 -259.697906 0.784942 1.000000
294.265106 -259.697906 0.295254 1.000000
294.987000 -260.821655 -0.000016 0.520241
296.333496 -262.917694 -0.000013 0.524346
297.269318 -264.374481 -0.000021 0.559701
297.958832 -265.447815 -0.000020 0.568627
294.374023 -259.676575 5.701719 1.000000
294.374023 -259.676575 5.191763 1.000000
294.374023 -259.676575 4.688965 1.000000
294.374023 -259.676575 4.192123 1.000000
294.374023 -259.676575 3.700083 1.000000
294.374023 -259.676575 3.211734 1.000000
294.374023 -259.676544 2.726001 1.000000
294.374023 -259.676544 2.241827 1.000000
294.374023 -259.676544 1.758173 1.000000
294.374023 -259.676544 1.273998 1.000000
294.374023 -259.676544 0.788265 1.000000
294.374023 -259.676544 0.299917 1.000000
295.066376 -260.771057 -0.000016 0.564355
296.398193 -262.876434 -0.000013 0.510628
297.323853 -264.339752 -0.000021 0.507347
298.005829 -265.417847 -0.000020 0.578576
294.482330 -259.655304 5.691804 1.000000
294.482330 -259.655304 5.183213 1.000000
294.482330 -259.655304 4.681762 1.000000
294.482330 -259.655304 4.186252 1.000000
294.482330 -259.655304 3.695529 1.000000
294.482330 -259.655304 3.208489 1.000000
294.482330 -259.655304 2.724056 1.000000
294.482330 -259.655304 2.241180 1.000000
294.482330 -259.655304 1.758820 1.000000
294.482330 -259.655304 1.275944 1.000000
294.482330 -259.655304 0.791511 1.000000
294.482330 -259.655304 0.304471 1.000000
295.146088 -260.721008 -0.000016 0.526467
296.463196 -262.835663 -0.000013 0.533883
297.378601 -264.305359 -0.000021 0.542397
298.053040 -265.388214 -0.000020 0.511498
294.590088 -259.634186 5.682119 1.000000
294.590088 -259.634186 5.174863 1.000000
294.590057 -259.634186 4.674728 1.000000
294.590057 -259.634186 4.180516 1.000000
294.590088 -259.634186 3.691081 1.000000
294.590057 -259.634186 3.205318 1.000000
294.590057 -259.634186 2.722157 1.000000
294.590088 -259.634186 2.240547 1.000000
294.590057 -259.634186 1.759453 1.000000
294.590057 -259.634186 1.277843 1.000000
294.590057 -259.634186 0.794681 1.000000
294.590057 -259.634186 0.308919 1.000000
295.226166 -260.671509 -0.000016 0.546914
296.528473 -262.795319 -0.000014 0.549187
297.433594 -264.271393 -0.000021 0.560235
298.100464 -265.358917 -0.000020 0.569986
294.697266 -259.613159 5.672664 1.000000
294.697266 -259.613159 5.166710 1.000000
294.697266 -259.613159 4.667860 1.000000
294.697266 -259.613159 4.174917 1.000000
294.697266 -259.613159 3.686738 1.000000
294.697266 -259.613159 3.202224 1.000000
294.697266 -259.613159 2.720303 1.000000
294.697266 -259.613159 2.239929 1.000000
294.697266 -259.613159 1.760071 1.000000
294.697266 -259.613159 1.279697 1.000000
294.697266 -259.613159 0.797776 1.000000
294.697266 -259.613159 0.313261 1.000000
295.306580 -260.622589 -0.000017 0.544167
296.594025 -262.755432 -0.000014 0.538216
297.488831 -264.237793 -0.000021 0.562646
298.148071 -265.329956 -0.000019 0.536110
294.803894 -259.592224 5.663436 1.000000
294.803894 -259.592224 5.158753 1.000000
294.803894 -259.592224 4.661156 1.000000
294.803894 -259.592224 4.169452 1.000000
294.803894 -259.592224 3.682501 1.000000
294.803894 -259.592224 3.199202 1.000000
294.803894 -259.592224 2.718493 1.000000
294.803894 -259.592224 2.239326 1.000000
294.803894 -259.592224 1.760674 1.000000
294.803894 -259.592224 1.281507 1.000000
294.803894 -259.592224 0.800797 1.000000
294.803894 -259.592224 0.317499 1.000000
295.387329 -260.574219 -0.000017 0.535042
296.659851 -262.716003 -0.000014 0.514885
297.544281 -264.204559 -0.000021 0.514443
298.195923 -265.301300 -0.000019 0.534798
294.910004 -259.571411 5.654431 1.000000
294.910004 -259.571411 5.150989 1.000000
294.910004 -259.571411 4.654614 1.000000
294.910004 -259.571411 4.164120 1.000000
294.910004 -259.571411 3.678365 1.000000
294.910004 -259.571411 3.196255 1.000000
294.910004 -259.571411 2.716727 1.000000
294.910004 -259.571411 2.238738 1.000000
294.910004 -259.571411 1.761262 1.000000
294.910004 -259.571411 1.283273 1.000000
294.910004 -259.571411 0.803745 1.000000
294.910004 -259.571411 0.321635 1.000000
295.468414 -260.526428 -0.000017 0.581582
296.725952 -262.677032 -0.000014 0.507500
297.599976 -264.171753 -0.000018 0.538033
298.243927 -265.273010 -0.000019 0.534707
295.015594 -259.550720 5.645648 1.000000
295.015594 -259.550720 5.143415 1.000000
295.015594 -259.550720 4.648234 1.000000
295.015594 -259.550720 4.158918 1.000000
295.015594 -259.550720 3.674330 1.000000
295.015594 -259.550720 3.193380 1.000000
295.015594 -259.550720 2.715004 1.000000
295.015594 -259.550720 2.238164 1.000000
295.015594 -259.550720 1.761836 1.000000
295.015594 -259.550720 1.284996 1.000000
295.015594 -259.550720 0.806620 1.000000
295.015594 -259.550720 0.325669 1.000000
295.549835 -260.479187 -0.000017 0.552468
296.792328 -262.638519 -0.000014 0.567315
297.655914 -264.139313 -0.000018 0.518654
298.292145 -265.245026 -0.000019 0.531899
295.120667 -259.530090 5.637083 1.000000
295.120667 -259.530090 5.136031 1.000000
295.120667 -259.530090 4.642014 1.000000
295.120667 -259.530090 4.153846 1.000000
295.120667 -259.530090 3.670397 1.000000
295.120667 -259.530090 3.190577 1.000000
295.120667 -259.530090 2.713324 1.000000
295.120667 -259.530090 2.237605 1.000000
295.120667 -259.530090 1.762395 1.000000
295.120667 -259.530090 1.286675 1.000000
295.120667 -259.530090 0.809423 1.000000
295.120667 -259.530090 0.329602 1.000000
295.631592 -260.432526 -0.000016 0.531579
296.858978 -262.600494 -0.000014 0.525475
297.712036 -264.107269 -0.000018 0.543435
298.340546 -265.217407 -0.000019 0.521752
295.225281 -259.509583 5.628736 1.000000
295.225281 -259.509583 5.128834 1.000000
295.225281 -259.509583 4.635949 1.000000
295.225281 -259.509583 4.148903 1.000000
295.225281 -259.509583 3.666564 1.000000
295.225281 -259.509583 3.187843 1.000000
295.225281 -259.509583 2.711687 1.000000
295.225281 -259.509583 2.237060 1.000000
295.225281 -259.509583 1.762941 1.000000
295.225281 -259.509583 1.288313 1.000000
295.225281 -259.509583 0.812156 1.000000
295.225281 -259.509583 0.333436 1.000000
295.713654 -260.386444 -0.000017 0.565286
296.925903 -262.562927 -0.000014 0.548440
297.768433 -264.075623 -0.000018 0.508400
298.389160 -265.190125 -0.000019 0.525307
295.329407 -259.489136 5.620602 1.000000
295.329407 -259.489136 5.121820 1.000000
295.329407 -259.489136 4.630041 1.000000
295.329407 -259.489136 4.144086 1.000000
295.329407 -259.489136 3.662828 1.000000
295.329407 -259.489136 3.185181 1.000000
295.329407 -259.489136 2.710092 1.000000
295.329407 -259.489136 2.236528 1.000000
295.329407 -259.489136 1.763472 1.000000
295.329407 -259.489136 1.289908 1.000000
295.329407 -259.489136 0.814818 1.000000
295.329407 -259.489136 0.337171 1.000000
295.796051 -260.340942 -0.000017 0.537011
296.993073 -262.525818 -0.000014 0.528939
297.825012 -264.044342 -0.000018 0.548226
298.437958 -265.163147 -0.000018 0.531060
295.433075 -259.468811 5.612681 1.000000
295.433075 -259.468811 5.114991 1.000000
295.433075 -259.468811 4.624287 1.000000
295.433075 -259.468811 4.139396 1.000000
295.433075 -259.468811 3.659190 1.000000
295.433075 -259.468811 3.182589 1.000000
295.433075 -259.468811 2.708538 1.000000
295.433075 -259.468811 2.236011 1.000000
295.433075 -259.468811 1.763989 1.000000
295.433075 -259.468811 1.291461 1.000000
295.433075 -259.468811 0.817411 1.000000
295.433075 -259.468811 0.340809 1.000000
295.878754 -260.295990 -0.000018 0.540536
297.060486 -262.489166 -0.000014 0.530938
297.881805 -264.013489 -0.000018 0.538689
298.486938 -265.136536 -0.000018 0.511208
295.536285 -259.448578 5.604970 1.000000
295.536285 -259.448578 5.108341 1.000000
295.536285 -259.448578 4.618685 1.000000
295.536285 -259.448578 4.134829 1.000000
295.536285 -259.448578 3.655648 1.000000
295.536285 -259.448578 3.180064 1.000000
295.536285 -259.448578 2.707026 1.000000
295.536285 -259.448578 2.235507 1.000000
295.536285 -259.448578 1.764493 1.000000
295.536285 -259.448578 1.292974 1.000000
295.536285 -259.448578 0.819936 1.000000
295.536285 -259.448578 0.344352 1.000000
295.961792 -260.251648 -0.000017 0.523308
297.128174 -262.453003 -0.000014 0.541878
297.938843 -263.983032 -0.000018 0.548501
298.536102 -265.110291 -0.000019 0.536019
295.639069 -259.428406 5.597466 1.000000
295.639069 -259.428406 5.101871 1.000000
295.639069 -259.428406 4.613235 1.000000
295.639069 -259.428406 4.130385 1.000000
295.639069 -259.428406 3.652202 1.000000
295.639069 -259.428406 3.177608 1.000000
295.639069 -259.428406 2.705554 1.000000
295.639069 -259.428406 2.235017 1.000000
295.639069 -259.428406 1.764983 1.000000
295.639069 -259.428406 1.294445 1.000000
295.639069 -259.428406 0.822392 1.000000
295.639069 -259.428406 0.347798 1.000000
296.045105 -260.207855 -0.000017 0.512444
297.196106 -262.417328 -0.000014 0.556924
297.996063 -263.952942 -0.000018 0.544686
298.585449 -265.084351 -0.000019 0.578012
295.741455 -259.408325 5.590169 1.000000
295.741455 -259.408325 5.095579 1.000000
295.741455 -259.408325 4.607934 1.000000
295.741455 -259.408325 4.126063 1.000000
295.741455 -259.408325 3.648851 1.000000
295.741455 -259.408325 3.175219 1.000000
295.741455 -259.408325 2.704123 1.000000
295.741455 -259.408325 2.234540 1.000000
295.741455 -259.408325 1.765460 1.000000
295.741455 -259.408325 1.295877 1.000000
295.741455 -259.408325 0.824781 1.000000
295.741455 -259.408325 0.351149 1.000000
296.128754 -260.164642 -0.000017 0.531792
297.264282 -262.382111 -0.000014 0.519463
298.053497 -263.923279 -0.000017 0.531991
298.634979 -265.058777 -0.000018 0.543206
295.843384 -259.388336 5.583075 1.000000
295.843384 -259.388336 5.089462 1.000000
295.843384 -259.388336 4.602779 1.000000
295.843384 -259.388336 4.121863 1.000000
295.843384 -259.388336 3.645593 1.000000
295.843384 -259.388336 3.172896 1.000000
295.843384 -259.388336 2.702731 1.000000
295.843384 -259.388336 2.234077 1.000000
295.843384 -259.388336 1.765924 1.000000
295.843384 -259.388336 1.297268 1.000000
295.843384 -259.388336 0.827103 1.000000
295.843384 -259.388336 0.354407 1.000000
296.212677 -260.122040 -0.000017 0.554559
297.332703 -262.347382 -0.000014 0.516487
298.111145 -263.894012 -0.000018 0.536263
298.684662 -265.033539 -0.000018 0.520806
295.944946 -259.368408 5.576181 1.000000
295.944946 -259.368408 5.083518 1.000000
295.944946 -259.368408 4.597774 1.000000
295.944946 -259.368408 4.117781 1.000000
295.944946 -259.368408 3.642427 1.000000
295.944946 -259.368408 3.170640 1.000000
295.944946 -259.368408 2.701380 1.000000
295.944946 -259.368408 2.233626 1.000000
295.944946 -259.368408 1.766374 1.000000
295.944946 -259.368408 1.298620 1.000000
295.944946 -259.368408 0.829359 1.000000
295.944946 -259.368408 0.357573 1.000000
296.296906 -260.080017 -0.000017 0.540307
297.401367 -262.313110 -0.000014 0.544961
298.169006 -263.865173 -0.000017 0.570199
298.734558 -265.008667 -0.000018 0.518410
296.046112 -259.348572 5.569489 1.000000
296.046112 -259.348572 5.077749 1.000000
296.046112 -259.348541 4.592913 1.000000
296.046112 -259.348572 4.113818 1.000000
296.046112 -259.348572 3.639354 1.000000
296.046112 -259.348572 3.168450 1.000000
296.046112 -259.348572 2.700068 1.000000
296.046112 -259.348572 2.233189 1.000000
296.046112 -259.348572 1.766811 1.000000
296.046112 -259.348572 1.299932 1.000000
296.046112 -259.348572 0.831550 1.000000
296.046112 -259.348541 0.360646 1.000000
296.381439 -260.038574 -0.000017 0.547997
297.470276 -262.279327 -0.000014 0.541619
298.227051 -263.836700 -0.000017 0.548928
298.784607 -264.984100 -0.000018 0.586297
296.146912 -259.328796 5.562997 1.000000
296.146912 -259.328796 5.072149 1.000000
296.146912 -259.328796 4.588195 1.000000
296.146912 -259.328796 4.109972 1.000000
296.146912 -259.328796 3.636372 1.000000
296.146912 -259.328796 3.166324 1.000000
296.146912 -259.328796 2.698794 1.000000
296.146912 -259.328796 2.232765 1.000000
296.146912 -259.328796 1.767235 1.000000
296.146912 -259.328796 1.301206 1.000000
296.146912 -259.328796 0.833675 1.000000
296.146912 -259.328796 0.363628 1.000000
296.466248 -259.997742 -0.000018 0.549691
297.539398 -262.246033 -0.000014 0.528115
298.285278 -263.808655 -0.000018 0.544701
298.834839 -264.959930 -0.000018 0.546242
296.247375 -259.309082 5.556699 1.000000
296.247345 -259.309082 5.066721 1.000000
296.247345 -259.309082 4.583622 1.000000
296.247345 -259.309082 4.106244 1.000000
296.247345 -259.309082 3.633480 1.000000
296.247345 -259.309082 3.164263 1.000000
296.247375 -259.309082 2.697559 1.000000
296.247345 -259.309082 2.232354 1.000000
296.247345 -259.309082 1.767646 1.000000
296.247375 -259.309082 1.302441 1.000000
296.247345 -259.309082 0.835737 1.000000
296.247345 -259.309082 0.366520 1.000000
296.551331 -259.957489 -0.000018 0.551873
297.608765 -262.213226 -0.000014 0.557382
298.343719 -263.781006 -0.000017 0.525948
298.885223 -264.936096 -0.000018 0.540551
296.347443 -259.289459 5.550597 1.000000
296.347443 -259.289459 5.061459 1.000000
296.347443 -259.289459 4.579188 1.000000
296.347443 -259.289459 4.102630 1.000000
296.347443 -259.289459 3.630677 1.000000
296.347443 -259.289459 3.162265 1.000000
296.347443 -259.289459 2.696362 1.000000
296.347443 -259.289459 2.231955 1.000000
296.347443 -259.289459 1.768045 1.000000
296.347443 -259.289459 1.303638 1.000000
296.347443 -259.289459 0.837734 1.000000
296.347443 -259.289459 0.369323 1.000000
296.636688 -259.917816 -0.000018 0.543633
297.678375 -262.180878 -0.000014 0.529320
298.402374 -263.753784 -0.000017 0.549126
298.935760 -264.912598 -0.000018 0.527413
296.447205 -259.269897 5.544688 1.000000
296.447205 -259.269897 5.056364 1.000000
296.447205 -259.269897 4.574896 1.000000
296.447205 -259.269897 4.099130 1.000000
296.447205 -259.269897 3.627963 1.000000
296.447205 -259.269897 3.160331 1.000000
296.447205 -259.269897 2.695203 1.000000
296.447205 -259.269897 2.231569 1.000000
296.447205 -259.269897 1.768431 1.000000
296.447205 -259.269897 1.304797 1.000000
296.447205 -259.269897 0.839668 1.000000
296.447205 -259.269897 0.372037 1.000000
296.722321 -259.878784 -0.000018 0.529549
297.748199 -262.149048 -0.000014 0.538033
298.461182 -263.726929 -0.000017 0.466499
298.986481 -264.889465 -0.000018 0.575433
296.546631 -259.250366 5.538971 1.000000
296.546631 -259.250366 5.051435 1.000000
296.546631 -259.250366 4.570744 1.000000
296.546631 -259.250366 4.095745 1.000000
296.546631 -259.250366 3.625338 1.000000
296.546631 -259.250366 3.158460 1.000000
296.546631 -259.250366 2.694082 1.000000
296.546631 -259.250366 2.231195 1.000000
296.546631 -259.250366 1.768805 1.000000
296.546631 -259.250366 1.305918 1.000000
296.546631 -259.250366 0.841540 1.000000
296.546631 -259.250366 0.374662 1.000000
296.808258 -259.840302 -0.000017 0.562799
297.818237 -262.117676 -0.000014 0.547585
298.520203 -263.700531 -0.000017 0.538659
299.037354 -264.866699 -0.000017 0.511055
296.645721 -259.230927 5.533445 1.000000
296.645721 -259.230927 5.046669 1.000000
296.645721 -259.230927 4.566730 1.000000
296.645721 -259.230927 4.092472 1.000000
296.645721 -259.230927 3.622800 1.000000
296.645721 -259.230927 3.156651 1.000000
296.645721 -259.230927 2.692998 1.000000
296.645721 -259.230927 2.230834 1.000000
296.645721 -259.230927 1.769166 1.000000
296.645721 -259.230927 1.307002 1.000000
296.645721 -259.230927 0.843349 1.000000
296.645721 -259.230927 0.377200 1.000000
296.894440 -259.802460 -0.000018 0.530724
297.888489 -262.086823 -0.000014 0.541634
298.579376 -263.674530 -0.000017 0.542306
299.088409 -264.844299 -0.000017 0.520424
296.744537 -259.211548 5.528107 1.000000
296.744537 -259.211548 5.042067 1.000000
296.744537 -259.211548 4.562851 1.000000
296.744537 -259.211548 4.089312 1.000000
296.744537 -259.211548 3.620348 1.000000
296.744537 -259.211548 3.154903 1.000000
296.744537 -259.211548 2.691951 1.000000
296.744537 -259.211548 2.230486 1.000000
296.744537 -259.211548 1.769514 1.000000
296.744537 -259.211548 1.308049 1.000000
296.744537 -259.211548 0.845096 1.000000
296.744537 -259.211548 0.379652 1.000000
296.980865 -259.765198 -0.000018 0.563989
297.958954 -262.056458 -0.000014 0.531441
298.638733 -263.648956 -0.000016 0.538277
299.139587 -264.822205 -0.000017 0.553338
296.843048 -259.192230 5.522957 1.000000
296.843048 -259.192230 5.037627 1.000000
296.843048 -259.192230 4.559110 1.000000
296.843048 -259.192230 4.086262 1.000000
296.843048 -259.192230 3.617983 1.000000
296.843048 -259.192230 3.153218 1.000000
296.843048 -259.192230 2.690941 1.000000
296.843048 -259.192230 2.230149 1.000000
296.843048 -259.192230 1.769851 1.000000
296.843048 -259.192230 1.309059 1.000000
296.843048 -259.192230 0.846782 1.000000
296.843048 -259.192230 0.382017 1.000000
297.067566 -259.728546 -0.000018 0.525017
298.029633 -262.026581 -0.000014 0.567987
298.698303 -263.623779 -0.000017 0.539864
299.190918 -264.800507 -0.000017 0.564492
296.941284 -259.172974 5.517993 1.000000
296.941284 -259.172974 5.033347 1.000000
296.941284 -259.172974 4.555505 1.000000
296.941284 -259.172974 4.083323 1.000000
296.941284 -259.172974 3.615703 1.000000
296.941284 -259.172974 3.151593 1.000000
296.941284 -259.172974 2.689968 1.000000
296.941284 -259.172974 2.229825 1.000000
296.941284 -259.172974 1.770175 1.000000
296.941284 -259.172974 1.310032 1.000000
296.941284 -259.172974 0.848407 1.000000
296.941284 -259.172974 0.384297 1.000000
297.154510 -259.692505 -0.000018 0.533989
298.100525 -261.997192 -0.000014 0.556603
298.758026 -263.598999 -0.000016 0.531044
299.242432 -264.779175 -0.000017 0.564736
297.039215 -259.153748 5.513213 1.000000
297.039215 -259.153748 5.029225 1.000000
297.039215 -259.153748 4.552033 1.000000
297.039215 -259.153748 4.080491 1.000000
297.039215 -259.153748 3.613508 1.000000
297.039215 -259.153748 3.150028 1.000000
297.039215 -259.153748 2.689030 1.000000
297.039215 -259.153748 2.229513 1.000000
297.039215 -259.153748 1.770487 1.000000
297.039215 -259.153748 1.310969 1.000000
297.039215 -259.153748 0.849971 1.000000
297.039215 -259.153748 0.386492 1.000000
297.241730 -259.657043 -0.000018 0.559716
298.171600 -261.968292 -0.000014 0.570397
298.817902 -263.574677 -0.000016 0.538033
299.294067 -264.758179 -0.000016 0.547707
297.136932 -259.134583 5.508619 1.000000
297.136932 -259.134583 5.025264 1.000000
297.136932 -259.134583 4.548695 1.000000
297.136932 -259.134583 4.077771 1.000000
297.136932 -259.134583 3.611397 1.000000
297.136932 -259.134583 3.148524 1.000000
297.136932 -259.134583 2.688129 1.000000
297.136932 -259.134583 2.229213 1.000000
297.136932 -259.134583 1.770787 1.000000
297.136932 -259.134583 1.311871 1.000000
297.136932 -259.134583 0.851475 1.000000
297.136932 -259.134583 0.388602 1.000000
297.329163 -259.622223 -0.000018 0.546838
298.242889 -261.939911 -0.000015 0.552911
298.877960 -263.550751 -0.000016 0.570779
299.345856 -264.737549 -0.000017 0.515969
297.234375 -259.115479 5.504206 1.000000
297.234375 -259.115479 5.021459 1.000000
297.234375 -259.115479 4.545489 1.000000
297.234375 -259.115479 4.075157 1.000000
297.234375 -259.115479 3.609371 1.000000
297.234375 -259.115479 3.147080 1.000000
297.234375 -259.115479 2.687264 1.000000
297.234375 -259.115479 2.228925 1.000000
297.234375 -259.115479 1.771076 1.000000
297.234375 -259.115479 1.312736 1.000000
297.234375 -259.115479 0.852920 1.000000
297.234375 -259.115479 0.390628 1.000000
297.416870 -259.588013 -0.000018 0.562707
298.314392 -261.912018 -0.000015 0.524041
298.938202 -263.527283 -0.000012 0.528679
299.397797 -264.717285 -0.000017 0.505043
297.331573 -259.096405 5.499975 1.000000
297.331573 -259.096405 5.017810 1.000000
297.331573 -259.096405 4.542416 1.000000
297.331573 -259.096405 4.072652 1.000000
297.331573 -259.096405 3.607428 1.000000
297.331573 -259.096405 3.145694 1.000000
297.331573 -259.096405 2.686434 1.000000
297.331573 -259.096405 2.228648 1.000000
297.331573 -259.096405 1.771352 1.000000
297.331573 -259.096405 1.313566 1.000000
297.331573 -259.096405 0.854305 1.000000
297.331573 -259.096405 0.392572 1.000000
