# This PCD file was generated using the MATLABÂ® pcwrite function
# from Computer Vision ToolboxÂ®.
# .PCD v.7 - Point Cloud Data file format
VERSION .7
FIELDS x y z intensity
SIZE 4 4 4 4
TYPE F F F F
COUNT 1 1 1 1
WIDTH 1151
HEIGHT 1
VIEWPOINT 0 0 0 1 0 0 0
POINTS 1151
DATA ascii
276.808594 -650.248657 7.516300 1.000000
276.808563 -650.248657 6.278119 1.000000
276.808594 -650.248657 5.049230 1.000000
276.808594 -650.248657 3.826922 1.000000
276.808594 -650.248657 2.608539 1.000000
276.808594 -650.248657 1.391461 1.000000
276.808594 -650.248657 0.173078 1.000000
281.112793 -638.198425 -0.000034 0.543252
283.469666 -631.600037 -0.000024 0.529976
284.782288 -627.925110 -0.000018 0.523934
285.620300 -625.579041 -0.000015 0.555734
286.202759 -623.948364 -0.000012 0.568292
286.631866 -622.747009 -0.000010 0.516228
276.587097 -650.098328 11.298502 1.000000
276.587097 -650.098328 10.017519 1.000000
276.587097 -650.098328 8.754522 1.000000
276.587097 -650.098328 7.506484 1.000000
276.587097 -650.098328 6.270508 1.000000
276.587097 -650.098328 5.043807 1.000000
276.587097 -650.098328 3.823672 1.000000
276.587097 -650.098328 2.607457 1.000000
276.587097 -650.098328 1.392543 1.000000
276.587097 -650.098328 0.176328 1.000000
280.952606 -638.140625 -0.000034 0.559762
283.355499 -631.558838 -0.000024 0.542626
284.693756 -627.893188 -0.000018 0.548714
285.548126 -625.552917 -0.000014 0.548714
286.141937 -623.926392 -0.000012 0.550835
286.579437 -622.728088 -0.000010 0.555718
276.366364 -649.948486 11.282441 1.000000
276.366364 -649.948486 10.003669 1.000000
276.366364 -649.948486 8.742855 1.000000
276.366364 -649.948486 7.496972 1.000000
276.366364 -649.948486 6.263131 1.000000
276.366364 -649.948486 5.038548 1.000000
276.366364 -649.948486 3.820522 1.000000
276.366364 -649.948486 2.606408 1.000000
276.366364 -649.948486 1.393593 1.000000
276.366364 -649.948486 0.179477 1.000000
280.792847 -638.081665 -0.000034 0.535897
283.241638 -631.516785 -0.000024 0.529992
284.605469 -627.860596 -0.000018 0.549035
285.476135 -625.526367 -0.000014 0.538674
286.081299 -623.904053 -0.000011 0.505821
286.527161 -622.708740 -0.000010 0.577615
276.146393 -649.799194 11.266884 1.000000
276.146393 -649.799194 9.990256 1.000000
276.146393 -649.799194 8.731556 1.000000
276.146393 -649.799194 7.487761 1.000000
276.146393 -649.799194 6.255988 1.000000
276.146393 -649.799194 5.033456 1.000000
276.146393 -649.799194 3.817471 1.000000
276.146393 -649.799194 2.605391 1.000000
276.146393 -649.799194 1.394609 1.000000
276.146393 -649.799194 0.182529 1.000000
280.633514 -638.021606 -0.000034 0.542367
283.128052 -631.473999 -0.000024 0.552422
284.517395 -627.827393 -0.000018 0.540932
285.404327 -625.499329 -0.000014 0.535012
286.020813 -623.881226 -0.000012 0.557992
286.475006 -622.689087 -0.000010 0.509575
275.927155 -649.650391 11.251829 1.000000
275.927155 -649.650391 9.977278 1.000000
275.927155 -649.650391 8.720619 1.000000
275.927155 -649.650391 7.478845 1.000000
275.927155 -649.650391 6.249073 1.000000
275.927155 -649.650391 5.028527 1.000000
275.927155 -649.650391 3.814519 1.000000
275.927155 -649.650391 2.604408 1.000000
275.927155 -649.650391 1.395593 1.000000
275.927155 -649.650391 0.185480 1.000000
280.474609 -637.960388 -0.000034 0.541650
283.014801 -631.430420 -0.000024 0.554116
284.429535 -627.793518 -0.000018 0.533791
285.332733 -625.471741 -0.000014 0.570321
285.960480 -623.858032 -0.000012 0.535058
286.422974 -622.669067 -0.000010 0.533043
275.708618 -649.502075 11.237272 1.000000
275.708618 -649.502075 9.964725 1.000000
275.708618 -649.502075 8.710046 1.000000
275.708618 -649.502075 7.470226 1.000000
275.708618 -649.502075 6.242388 1.000000
275.708618 -649.502075 5.023764 1.000000
275.708618 -649.502075 3.811664 1.000000
275.708618 -649.502075 2.603457 1.000000
275.708618 -649.502075 1.396544 1.000000
275.708618 -649.502075 0.188336 1.000000
280.316101 -637.898132 -0.000035 0.526696
282.901825 -631.385986 -0.000024 0.545525
284.341919 -627.759094 -0.000019 0.522667
285.261322 -625.443665 -0.000015 0.531853
285.900299 -623.834351 -0.000012 0.491707
286.371094 -622.648682 -0.000009 0.504540
275.490753 -649.354187 11.223213 1.000000
275.490753 -649.354187 9.952604 1.000000
275.490753 -649.354187 8.699833 1.000000
275.490753 -649.354187 7.461900 1.000000
275.490753 -649.354187 6.235931 1.000000
275.490753 -649.354187 5.019160 1.000000
275.490753 -649.354187 3.808906 1.000000
275.490753 -649.354187 2.602538 1.000000
275.490753 -649.354187 1.397462 1.000000
275.490753 -649.354187 0.191093 1.000000
280.158051 -637.834717 -0.000034 0.533806
282.789185 -631.340820 -0.000025 0.531334
284.254578 -627.724060 -0.000019 0.532021
285.190094 -625.415100 -0.000015 0.544793
285.840302 -623.810303 -0.000012 0.556558
286.319366 -622.627930 -0.000010 0.509453
275.273529 -649.206787 11.209642 1.000000
275.273529 -649.206787 9.940904 1.000000
275.273529 -649.206787 8.689976 1.000000
275.273529 -649.206787 7.453865 1.000000
275.273529 -649.206787 6.229699 1.000000
275.273529 -649.206787 5.014719 1.000000
275.273529 -649.206787 3.806245 1.000000
275.273529 -649.206787 2.601651 1.000000
275.273529 -649.206787 1.398348 1.000000
275.273529 -649.206787 0.193755 1.000000
280.000458 -637.770264 -0.000035 0.538491
282.676849 -631.294861 -0.000024 0.546517
284.167450 -627.688416 -0.000019 0.539513
285.119080 -625.386047 -0.000015 0.516854
285.780487 -623.785828 -0.000012 0.548089
286.267761 -622.606812 -0.000010 0.560235
275.056946 -649.059753 11.196562 1.000000
275.056946 -649.059753 9.929621 1.000000
275.056946 -649.059753 8.680471 1.000000
275.056946 -649.059753 7.446116 1.000000
275.056946 -649.059753 6.223690 1.000000
275.056946 -649.059753 5.010436 1.000000
275.056946 -649.059753 3.803678 1.000000
275.056946 -649.059814 2.600798 1.000000
275.056946 -649.059753 1.399203 1.000000
275.056946 -649.059753 0.196320 1.000000
279.843292 -637.704651 -0.000035 0.538552
282.564850 -631.248108 -0.000024 0.532372
284.080597 -627.652161 -0.000019 0.542733
285.048248 -625.356506 -0.000014 0.533715
285.720825 -623.760925 -0.000012 0.569345
286.216339 -622.585327 -0.000010 0.571618
274.840942 -648.913208 11.183964 1.000000
274.840942 -648.913208 9.918760 1.000000
274.840973 -648.913208 8.671321 1.000000
274.840942 -648.913208 7.438657 1.000000
274.840942 -648.913208 6.217904 1.000000
274.840942 -648.913208 5.006312 1.000000
274.840942 -648.913208 3.801209 1.000000
274.840942 -648.913208 2.599975 1.000000
274.840973 -648.913208 1.400026 1.000000
274.840942 -648.913208 0.198791 1.000000
279.686615 -637.637939 -0.000035 0.540642
282.453156 -631.200562 -0.000025 0.540169
283.993988 -627.615295 -0.000019 0.538384
284.977631 -625.326416 -0.000015 0.499107
285.661316 -623.735596 -0.000012 0.577020
286.165039 -622.563538 -0.000010 0.573465
274.625549 -648.766968 11.171847 1.000000
274.625549 -648.766968 9.908312 1.000000
274.625549 -648.766968 8.662519 1.000000
274.625549 -648.766968 7.431480 1.000000
274.625549 -648.766968 6.212339 1.000000
274.625549 -648.766968 5.002345 1.000000
274.625549 -648.766968 3.798832 1.000000
274.625549 -648.766968 2.599182 1.000000
274.625549 -648.766968 1.400818 1.000000
274.625549 -648.766968 0.201168 1.000000
279.530396 -637.570190 -0.000035 0.533715
282.341827 -631.152222 -0.000025 0.522606
283.907623 -627.577820 -0.000019 0.519188
284.907257 -625.295898 -0.000015 0.527398
285.602020 -623.709839 -0.000012 0.514153
286.113892 -622.541321 -0.000010 0.544610
274.410706 -648.621155 11.160207 1.000000
274.410706 -648.621155 9.898277 1.000000
274.410706 -648.621155 8.654062 1.000000
274.410706 -648.621155 7.424588 1.000000
274.410706 -648.621155 6.206994 1.000000
274.410706 -648.621155 4.998535 1.000000
274.410706 -648.621155 3.796549 1.000000
274.410706 -648.621155 2.598422 1.000000
274.410706 -648.621155 1.401578 1.000000
274.410706 -648.621155 0.203451 1.000000
279.374664 -637.501282 -0.000035 0.542916
282.230835 -631.103149 -0.000025 0.554650
283.821533 -627.539734 -0.000019 0.520653
284.837067 -625.264832 -0.000015 0.535744
285.542908 -623.683716 -0.000013 0.588617
286.062927 -622.518799 -0.000010 0.571008
274.196381 -648.475708 11.149042 1.000000
274.196411 -648.475708 9.888650 1.000000
274.196381 -648.475708 8.645955 1.000000
274.196381 -648.475708 7.417976 1.000000
274.196411 -648.475708 6.201866 1.000000
274.196381 -648.475708 4.994881 1.000000
274.196411 -648.475708 3.794358 1.000000
274.196381 -648.475708 2.597692 1.000000
274.196381 -648.475708 1.402308 1.000000
274.196411 -648.475708 0.205641 1.000000
279.219421 -637.431335 -0.000036 0.554147
282.120178 -631.053284 -0.000025 0.536583
283.735718 -627.501099 -0.000019 0.530221
284.767120 -625.233337 -0.000015 0.526436
285.483948 -623.657166 -0.000012 0.539559
286.012085 -622.495911 -0.000010 0.595987
273.982605 -648.330566 11.138346 1.000000
273.982605 -648.330566 9.879429 1.000000
273.982605 -648.330566 8.638185 1.000000
273.982605 -648.330566 7.411643 1.000000
273.982605 -648.330566 6.196954 1.000000
273.982605 -648.330566 4.991381 1.000000
273.982605 -648.330627 3.792261 1.000000
273.982605 -648.330627 2.596995 1.000000
273.982605 -648.330627 1.403006 1.000000
273.982605 -648.330627 0.207737 1.000000
279.064636 -637.360291 -0.000036 0.552529
282.009857 -631.002686 -0.000025 0.543191
283.650177 -627.461853 -0.000019 0.550500
284.697357 -625.201294 -0.000015 0.547433
285.425201 -623.630188 -0.000013 0.543130
285.961426 -622.472656 -0.000010 0.561868
273.769287 -648.185791 11.128124 1.000000
273.769287 -648.185791 9.870613 1.000000
273.769287 -648.185791 8.630758 1.000000
273.769287 -648.185791 7.405588 1.000000
273.769287 -648.185791 6.192259 1.000000
273.769287 -648.185791 4.988034 1.000000
273.769287 -648.185791 3.790256 1.000000
273.769287 -648.185791 2.596326 1.000000
273.769287 -648.185791 1.403674 1.000000
273.769287 -648.185791 0.209744 1.000000
278.910370 -637.288208 -0.000036 0.535927
281.899902 -630.951294 -0.000025 0.553170
283.564911 -627.421936 -0.000019 0.543374
284.627838 -625.168823 -0.000015 0.526772
285.366638 -623.602783 -0.000013 0.535042
285.910950 -622.449036 -0.000010 0.536599
273.556458 -648.041382 11.118366 1.000000
273.556458 -648.041382 9.862200 1.000000
273.556427 -648.041382 8.623671 1.000000
273.556427 -648.041382 7.399809 1.000000
273.556427 -648.041382 6.187778 1.000000
273.556427 -648.041382 4.984839 1.000000
273.556458 -648.041382 3.788343 1.000000
273.556427 -648.041382 2.595688 1.000000
273.556427 -648.041382 1.404311 1.000000
273.556458 -648.041382 0.211657 1.000000
278.756622 -637.215027 -0.000036 0.552193
281.790314 -630.899109 -0.000025 0.526101
283.479919 -627.381531 -0.000019 0.569726
284.558563 -625.135803 -0.000015 0.550973
285.308258 -623.575012 -0.000013 0.538369
285.860626 -622.425049 -0.000010 0.549462
273.344055 -647.897217 11.109076 1.000000
273.344055 -647.897217 9.854191 1.000000
273.344025 -647.897217 8.616922 1.000000
273.344025 -647.897217 7.394307 1.000000
273.344025 -647.897217 6.183510 1.000000
273.344055 -647.897217 4.981798 1.000000
273.344025 -647.897217 3.786521 1.000000
273.344025 -647.897217 2.595082 1.000000
273.344025 -647.897217 1.404918 1.000000
273.344025 -647.897217 0.213479 1.000000
278.603394 -637.140747 -0.000036 0.549172
281.681091 -630.846191 -0.000026 0.520714
283.395203 -627.340454 -0.000019 0.524651
284.489502 -625.102356 -0.000015 0.537270
285.250092 -623.546814 -0.000012 0.527306
285.810455 -622.400757 -0.000011 0.550576
273.132080 -647.753296 11.100244 1.000000
273.132050 -647.753296 9.846577 1.000000
273.132050 -647.753296 8.610507 1.000000
273.132050 -647.753296 7.389078 1.000000
273.132050 -647.753296 6.179455 1.000000
273.132050 -647.753296 4.978908 1.000000
273.132050 -647.753357 3.784789 1.000000
273.132050 -647.753296 2.594505 1.000000
273.132050 -647.753296 1.405496 1.000000
273.132050 -647.753296 0.215210 1.000000
278.450653 -637.065369 -0.000036 0.547158
281.572235 -630.792480 -0.000026 0.534463
283.310791 -627.298828 -0.000020 0.532647
284.420685 -625.068420 -0.000015 0.545892
285.192108 -623.518188 -0.000013 0.669215
285.760468 -622.376099 -0.000011 0.541192
272.920471 -647.609741 11.091875 1.000000
272.920471 -647.609741 9.839358 1.000000
272.920471 -647.609741 8.604427 1.000000
272.920471 -647.609741 7.384122 1.000000
272.920471 -647.609741 6.175611 1.000000
272.920471 -647.609741 4.976168 1.000000
272.920471 -647.609741 3.783148 1.000000
272.920471 -647.609741 2.593957 1.000000
272.920471 -647.609741 1.406043 1.000000
272.920471 -647.609741 0.216853 1.000000
278.298462 -636.989014 -0.000036 0.538582
281.463776 -630.738037 -0.000026 0.539376
283.226654 -627.256592 -0.000020 0.507973
284.352112 -625.033997 -0.000015 0.534463
285.134338 -623.489197 -0.000013 0.524330
285.710632 -622.351074 -0.000011 0.556435
272.709290 -647.466370 11.083960 1.000000
272.709290 -647.466370 9.832535 1.000000
272.709290 -647.466370 8.598679 1.000000
272.709290 -647.466370 7.379435 1.000000
272.709290 -647.466370 6.171976 1.000000
272.709290 -647.466370 4.973577 1.000000
272.709290 -647.466370 3.781595 1.000000
272.709290 -647.466370 2.593441 1.000000
272.709290 -647.466370 1.406559 1.000000
272.709290 -647.466370 0.218404 1.000000
278.146820 -636.911560 -0.000036 0.542748
281.355682 -630.682800 -0.000026 0.546990
283.142822 -627.213745 -0.000019 0.536248
284.283783 -624.999084 -0.000015 0.529564
285.076752 -623.459778 -0.000013 0.511940
285.661011 -622.325745 -0.000010 0.568582
272.498444 -647.323303 11.076506 1.000000
272.498444 -647.323303 9.826105 1.000000
272.498444 -647.323303 8.593262 1.000000
272.498444 -647.323303 7.375020 1.000000
272.498444 -647.323303 6.168552 1.000000
272.498444 -647.323303 4.971136 1.000000
272.498444 -647.323303 3.780132 1.000000
272.498444 -647.323303 2.592953 1.000000
272.498444 -647.323303 1.407046 1.000000
272.498444 -647.323303 0.219867 1.000000
277.995697 -636.833008 -0.000037 0.539254
281.247986 -630.626831 -0.000025 0.550378
283.059296 -627.170349 -0.000020 0.544381
284.215668 -624.963684 -0.000016 0.523690
285.019409 -623.429993 -0.000013 0.557198
285.611542 -622.300049 -0.000010 0.568689
272.287933 -647.180420 11.069501 1.000000
272.287933 -647.180420 9.820068 1.000000
272.287933 -647.180420 8.588175 1.000000
272.287933 -647.180420 7.370874 1.000000
272.287933 -647.180420 6.165335 1.000000
272.287933 -647.180420 4.968843 1.000000
272.287933 -647.180420 3.778759 1.000000
272.287933 -647.180420 2.592496 1.000000
272.287933 -647.180420 1.407504 1.000000
272.287933 -647.180420 0.221240 1.000000
277.845154 -636.753479 -0.000036 0.532128
281.140686 -630.570129 -0.000026 0.547204
282.976074 -627.126404 -0.000020 0.552407
284.147827 -624.927856 -0.000016 0.538231
284.962250 -623.399780 -0.000013 0.537560
285.562256 -622.273987 -0.000010 0.537987
272.077728 -647.037720 11.062950 1.000000
272.077728 -647.037720 9.814418 1.000000
272.077728 -647.037720 8.583415 1.000000
272.077728 -647.037720 7.366993 1.000000
272.077728 -647.037720 6.162327 1.000000
272.077728 -647.037720 4.966699 1.000000
272.077728 -647.037720 3.777474 1.000000
272.077728 -647.037720 2.592069 1.000000
272.077728 -647.037720 1.407931 1.000000
272.077728 -647.037720 0.222526 1.000000
277.695160 -636.672852 -0.000037 0.533806
281.033752 -630.512695 -0.000026 0.534752
282.893158 -627.081848 -0.000020 0.543725
284.080231 -624.891541 -0.000016 0.530785
284.905304 -623.369202 -0.000013 0.536995
285.513153 -622.247620 -0.000011 0.595666
271.867828 -646.895264 11.056850 1.000000
271.867828 -646.895264 9.809158 1.000000
271.867828 -646.895264 8.578981 1.000000
271.867828 -646.895264 7.363381 1.000000
271.867828 -646.895264 6.159525 1.000000
271.867828 -646.895264 4.964703 1.000000
271.867828 -646.895264 3.776278 1.000000
271.867828 -646.895264 2.591669 1.000000
271.867828 -646.895264 1.408330 1.000000
271.867828 -646.895264 0.223722 1.000000
277.545715 -636.591187 -0.000037 0.536767
280.927246 -630.454468 -0.000026 0.541070
282.810577 -627.036682 -0.000020 0.545129
284.012909 -624.854736 -0.000016 0.541009
284.848572 -623.338196 -0.000013 0.528038
285.464233 -622.220886 -0.000011 0.562493
271.658203 -646.752991 11.051196 1.000000
271.658203 -646.752991 9.804284 1.000000
271.658203 -646.752991 8.574879 1.000000
271.658203 -646.752991 7.360033 1.000000
271.658203 -646.752991 6.156928 1.000000
271.658203 -646.752991 4.962852 1.000000
271.658203 -646.752991 3.775170 1.000000
271.658203 -646.752991 2.591300 1.000000
271.658203 -646.752991 1.408700 1.000000
271.658203 -646.752991 0.224830 1.000000
277.396881 -636.508484 -0.000037 0.542290
280.821167 -630.395508 -0.000026 0.529458
282.728302 -626.990967 -0.000020 0.539284
283.945831 -624.817444 -0.000016 0.543389
284.792053 -623.306763 -0.000013 0.519997
285.415527 -622.193787 -0.000011 0.478553
271.448853 -646.610901 11.045994 1.000000
271.448822 -646.610901 9.799800 1.000000
271.448822 -646.610901 8.571097 1.000000
271.448853 -646.610901 7.356952 1.000000
271.448822 -646.610901 6.154539 1.000000
271.448822 -646.610901 4.961149 1.000000
271.448822 -646.610901 3.774149 1.000000
271.448853 -646.610901 2.590961 1.000000
271.448853 -646.610901 1.409040 1.000000
271.448822 -646.610901 0.225851 1.000000
277.248596 -636.424744 -0.000037 0.538155
280.715485 -630.335876 -0.000026 0.547631
282.646332 -626.944702 -0.000020 0.522011
283.878998 -624.779724 -0.000015 0.538872
284.735748 -623.275024 -0.000013 0.558297
285.366974 -622.166382 -0.000011 0.534630
271.239685 -646.468933 11.041237 1.000000
271.239685 -646.468933 9.795696 1.000000
271.239685 -646.468933 8.567644 1.000000
271.239685 -646.468933 7.354134 1.000000
271.239685 -646.468933 6.152355 1.000000
271.239685 -646.468933 4.959591 1.000000
271.239685 -646.468933 3.773216 1.000000
271.239685 -646.468933 2.590650 1.000000
271.239685 -646.468933 1.409351 1.000000
271.239685 -646.468933 0.226785 1.000000
277.100891 -636.339966 -0.000037 0.540032
280.610199 -630.275452 -0.000026 0.530617
282.564697 -626.897827 -0.000020 0.535592
283.812439 -624.741516 -0.000016 0.521691
284.679688 -623.242798 -0.000013 0.554223
285.318634 -622.138611 -0.000011 0.521324
271.030762 -646.327148 11.036924 1.000000
271.030762 -646.327148 9.791977 1.000000
271.030762 -646.327148 8.564510 1.000000
271.030762 -646.327148 7.351580 1.000000
271.030762 -646.327148 6.150373 1.000000
271.030762 -646.327148 4.958181 1.000000
271.030762 -646.327148 3.772370 1.000000
271.030762 -646.327148 2.590367 1.000000
271.030762 -646.327148 1.409632 1.000000
271.030762 -646.327148 0.227630 1.000000
276.953796 -636.254150 -0.000037 0.546731
280.505371 -630.214294 -0.000026 0.550820
282.483368 -626.850403 -0.000021 0.537331
283.746155 -624.702881 -0.000016 0.545342
284.623840 -623.210266 -0.000013 0.532525
285.270477 -622.110535 -0.000011 0.541024
270.822021 -646.185425 11.033056 1.000000
270.822021 -646.185486 9.788643 1.000000
270.821991 -646.185486 8.561701 1.000000
270.821991 -646.185486 7.349291 1.000000
270.822021 -646.185486 6.148598 1.000000
270.822021 -646.185486 4.956913 1.000000
270.822021 -646.185486 3.771611 1.000000
270.822021 -646.185425 2.590115 1.000000
270.822021 -646.185425 1.409885 1.000000
270.822021 -646.185486 0.228388 1.000000
276.807312 -636.167358 -0.000037 0.537987
280.400970 -630.152405 -0.000026 0.535576
282.402405 -626.802368 -0.000020 0.549187
283.680145 -624.663757 -0.000016 0.533104
284.568237 -623.177307 -0.000013 0.572717
285.222534 -622.082153 -0.000011 0.527443
270.613434 -646.043884 11.029632 1.000000
270.613434 -646.043884 9.785688 1.000000
270.613434 -646.043884 8.559214 1.000000
270.613434 -646.043884 7.347261 1.000000
270.613434 -646.043884 6.147024 1.000000
270.613434 -646.043884 4.955793 1.000000
270.613434 -646.043884 3.770940 1.000000
270.613434 -646.043884 2.589891 1.000000
270.613434 -646.043884 1.410108 1.000000
270.613434 -646.043884 0.229061 1.000000
276.661438 -636.079529 -0.000038 0.535973
280.296997 -630.089783 -0.000026 0.536645
282.321777 -626.753845 -0.000020 0.541756
283.614410 -624.624146 -0.000016 0.534401
284.512848 -623.143921 -0.000013 0.544640
285.174774 -622.053345 -0.000011 0.552468
270.404999 -645.902405 11.026650 1.000000
270.404999 -645.902405 9.783118 1.000000
270.404999 -645.902405 8.557047 1.000000
270.404999 -645.902405 7.345496 1.000000
270.404999 -645.902405 6.145654 1.000000
270.404999 -645.902405 4.954817 1.000000
270.404999 -645.902405 3.770354 1.000000
270.404999 -645.902405 2.589697 1.000000
270.404999 -645.902405 1.410303 1.000000
270.404999 -645.902405 0.229645 1.000000
276.516174 -635.990662 -0.000038 0.546059
280.193451 -630.026428 -0.000026 0.534173
282.241486 -626.704712 -0.000021 0.555917
283.548950 -624.584106 -0.000016 0.544717
284.457703 -623.110168 -0.000014 0.580011
285.127228 -622.024292 -0.000011 0.513756
270.196686 -645.761047 11.024106 1.000000
270.196686 -645.761047 9.780928 1.000000
270.196686 -645.761047 8.555202 1.000000
270.196686 -645.761047 7.343991 1.000000
270.196686 -645.761047 6.144487 1.000000
270.196686 -645.761047 4.953985 1.000000
270.196686 -645.761047 3.769855 1.000000
270.196686 -645.761047 2.589530 1.000000
270.196686 -645.761047 1.410469 1.000000
270.196686 -645.761047 0.230143 1.000000
276.371552 -635.900757 -0.000038 0.536400
280.090363 -629.962402 -0.000026 0.533593
282.161530 -626.655029 -0.000020 0.535515
283.483765 -624.543579 -0.000017 0.522362
284.402802 -623.076050 -0.000014 0.565347
285.079895 -621.994873 -0.000011 0.548379
269.988495 -645.619751 11.022009 1.000000
269.988495 -645.619751 9.779118 1.000000
269.988495 -645.619751 8.553675 1.000000
269.988495 -645.619751 7.342747 1.000000
269.988495 -645.619751 6.143523 1.000000
269.988495 -645.619751 4.953297 1.000000
269.988495 -645.619751 3.769445 1.000000
269.988495 -645.619751 2.589394 1.000000
269.988495 -645.619751 1.410607 1.000000
269.988495 -645.619751 0.230555 1.000000
276.227539 -635.809875 -0.000037 0.536965
279.987701 -629.897583 -0.000026 0.532418
282.081909 -626.604797 -0.000020 0.546822
283.418884 -624.502625 -0.000016 0.555398
284.348114 -623.041565 -0.000014 0.521431
285.032745 -621.965088 -0.000011 0.530434
269.780396 -645.478516 11.020349 1.000000
269.780396 -645.478516 9.777686 1.000000
269.780396 -645.478516 8.552470 1.000000
269.780396 -645.478516 7.341765 1.000000
269.780396 -645.478516 6.142762 1.000000
269.780396 -645.478516 4.952755 1.000000
269.780396 -645.478516 3.769119 1.000000
269.780396 -645.478516 2.589285 1.000000
269.780396 -645.478516 1.410715 1.000000
269.780396 -645.478516 0.230881 1.000000
276.084167 -635.718018 -0.000038 0.539590
279.885529 -629.832092 -0.000026 0.542367
282.002686 -626.554016 -0.000021 0.529732
283.354279 -624.461243 -0.000016 0.525093
284.293701 -623.006653 -0.000014 0.528557
284.985809 -621.935059 -0.000011 0.540276
269.572357 -645.337280 11.019132 1.000000
269.572357 -645.337280 9.776636 1.000000
269.572357 -645.337280 8.551584 1.000000
269.572327 -645.337280 7.341043 1.000000
269.572357 -645.337280 6.142201 1.000000
269.572357 -645.337280 4.952355 1.000000
269.572327 -645.337280 3.768880 1.000000
269.572357 -645.337280 2.589206 1.000000
269.572357 -645.337280 1.410795 1.000000
269.572357 -645.337280 0.231120 1.000000
275.941437 -635.625122 -0.000038 0.545998
279.783813 -629.765930 -0.000027 0.527077
281.923767 -626.502686 -0.000021 0.550546
283.289978 -624.419373 -0.000016 0.536400
284.239502 -622.971436 -0.000014 0.512047
284.939087 -621.904602 -0.000011 0.558373
269.364349 -645.196106 11.018351 1.000000
269.364349 -645.196106 9.775965 1.000000
269.364349 -645.196106 8.551019 1.000000
269.364349 -645.196106 7.340582 1.000000
269.364349 -645.196106 6.141843 1.000000
269.364349 -645.196106 4.952101 1.000000
269.364349 -645.196106 3.768727 1.000000
269.364349 -645.196106 2.589155 1.000000
269.364349 -645.196106 1.410845 1.000000
269.364349 -645.196106 0.231272 1.000000
275.799347 -635.531250 -0.000038 0.535531
279.682526 -629.698975 -0.000027 0.554955
281.845245 -626.450745 -0.000021 0.549004
283.225952 -624.377075 -0.000017 0.551797
284.185577 -622.935791 -0.000014 0.549386
284.892578 -621.873901 -0.000012 0.575799
269.156372 -645.054993 11.018012 1.000000
269.156372 -645.054993 9.775670 1.000000
269.156372 -645.054993 8.550771 1.000000
269.156372 -645.054993 7.340380 1.000000
269.156372 -645.054993 6.141687 1.000000
269.156372 -645.054993 4.951989 1.000000
269.156372 -645.054993 3.768660 1.000000
269.156372 -645.054993 2.589133 1.000000
269.156372 -645.054993 1.410868 1.000000
269.156372 -645.054993 0.231339 1.000000
275.657959 -635.436340 -0.000037 0.542977
279.581757 -629.631348 -0.000027 0.551308
281.767090 -626.398315 -0.000021 0.539117
283.162231 -624.334351 -0.000016 0.524529
284.131897 -622.899780 -0.000014 0.549279
284.846283 -621.842834 -0.000012 0.551812
268.948425 -644.913818 11.018111 1.000000
268.948425 -644.913818 9.775757 1.000000
268.948425 -644.913818 8.550844 1.000000
268.948425 -644.913818 7.340440 1.000000
268.948425 -644.913818 6.141734 1.000000
268.948425 -644.913818 4.952022 1.000000
268.948395 -644.913818 3.768680 1.000000
268.948425 -644.913818 2.589139 1.000000
268.948425 -644.913818 1.410861 1.000000
268.948425 -644.913818 0.231319 1.000000
275.517212 -635.340515 -0.000039 0.562127
279.481445 -629.563049 -0.000027 0.533440
281.689270 -626.345337 -0.000021 0.550011
283.098785 -624.291138 -0.000016 0.557702
284.078461 -622.863342 -0.000013 0.540002
284.800232 -621.811462 -0.000012 0.517525
268.740448 -644.772644 11.018651 1.000000
268.740417 -644.772644 9.776220 1.000000
268.740417 -644.772644 8.551235 1.000000
268.740448 -644.772644 7.340759 1.000000
268.740417 -644.772644 6.141981 1.000000
268.740417 -644.772644 4.952198 1.000000
268.740448 -644.772644 3.768785 1.000000
268.740417 -644.772644 2.589175 1.000000
268.740417 -644.772644 1.410826 1.000000
268.740448 -644.772644 0.231214 1.000000
275.377106 -635.243652 -0.000038 0.530983
279.381592 -629.494019 -0.000027 0.559655
281.611847 -626.291809 -0.000021 0.542687
283.035675 -624.247498 -0.000016 0.552758
284.025269 -622.826599 -0.000014 0.547433
284.754364 -621.779785 -0.000011 0.565881
268.532410 -644.631470 11.019628 1.000000
268.532410 -644.631470 9.777064 1.000000
268.532410 -644.631470 8.551948 1.000000
268.532410 -644.631470 7.341337 1.000000
268.532410 -644.631470 6.142431 1.000000
268.532410 -644.631470 4.952518 1.000000
268.532410 -644.631470 3.768978 1.000000
268.532410 -644.631470 2.589237 1.000000
268.532410 -644.631470 1.410762 1.000000
268.532410 -644.631470 0.231022 1.000000
275.237732 -635.145874 -0.000039 0.530419
279.282227 -629.424316 -0.000027 0.537591
281.534790 -626.237732 -0.000020 0.529625
282.972839 -624.203430 -0.000017 0.539666
283.972351 -622.789490 -0.000013 0.520623
284.708740 -621.747742 -0.000011 0.517845
268.324341 -644.490234 11.021049 1.000000
268.324341 -644.490234 9.778291 1.000000
268.324341 -644.490234 8.552979 1.000000
268.324341 -644.490234 7.342180 1.000000
268.324341 -644.490234 6.143082 1.000000
268.324341 -644.490234 4.952983 1.000000
268.324341 -644.490234 3.769257 1.000000
268.324341 -644.490234 2.589332 1.000000
268.324341 -644.490234 1.410669 1.000000
268.324341 -644.490234 0.230743 1.000000
275.099030 -635.047058 -0.000038 0.537179
279.183380 -629.353943 -0.000027 0.533104
281.458130 -626.183167 -0.000021 0.525414
282.910339 -624.158936 -0.000017 0.555596
283.919708 -622.751953 -0.000014 0.540307
284.663330 -621.715393 -0.000012 0.525933
268.116211 -644.348999 11.022906 1.000000
268.116211 -644.348999 9.779890 1.000000
268.116211 -644.348999 8.554327 1.000000
268.116211 -644.348999 7.343280 1.000000
268.116211 -644.348999 6.143936 1.000000
268.116211 -644.348999 4.953591 1.000000
268.116211 -644.348999 3.769620 1.000000
268.116211 -644.348999 2.589452 1.000000
268.116211 -644.348999 1.410548 1.000000
268.116211 -644.348999 0.230379 1.000000
274.960999 -634.947327 -0.000039 0.536538
279.084991 -629.282837 -0.000027 0.550469
281.381836 -626.127991 -0.000021 0.537362
282.848145 -624.113953 -0.000017 0.521187
283.867310 -622.714111 -0.000014 0.556939
284.618164 -621.682739 -0.000012 0.516716
267.907959 -644.207642 11.025208 1.000000
267.907959 -644.207642 9.781876 1.000000
267.907959 -644.207642 8.556000 1.000000
267.907959 -644.207642 7.344642 1.000000
267.907959 -644.207642 6.144992 1.000000
267.907959 -644.207642 4.954345 1.000000
267.907959 -644.207642 3.770072 1.000000
267.907959 -644.207642 2.589603 1.000000
267.907959 -644.207642 1.410397 1.000000
267.907959 -644.207642 0.229928 1.000000
274.823669 -634.846619 -0.000039 0.539574
278.987122 -629.211060 -0.000027 0.545800
281.305908 -626.072327 -0.000021 0.537652
282.786285 -624.068604 -0.000017 0.527245
283.815155 -622.675903 -0.000014 0.562356
nan nan nan 0.000000
267.699615 -644.066223 11.027946 1.000000
267.699615 -644.066223 9.784238 1.000000
267.699585 -644.066223 8.557991 1.000000
267.699585 -644.066223 7.346265 1.000000
267.699615 -644.066223 6.146251 1.000000
267.699615 -644.066223 4.955241 1.000000
267.699615 -644.066223 3.770609 1.000000
267.699615 -644.066223 2.589782 1.000000
267.699615 -644.066223 1.410218 1.000000
267.699615 -644.066223 0.229391 1.000000
274.687073 -634.744934 -0.000039 0.531319
278.889740 -629.138611 -0.000027 0.541802
281.230408 -626.016174 -0.000021 0.530297
282.724701 -624.022766 -0.000017 0.532876
283.763306 -622.637268 -0.000014 0.531868
284.528503 -621.616516 -0.000011 0.539818
267.491089 -643.924744 11.031131 1.000000
267.491089 -643.924744 9.786984 1.000000
267.491089 -643.924744 8.560304 1.000000
267.491119 -643.924744 7.348149 1.000000
267.491119 -643.924744 6.147713 1.000000
267.491119 -643.924744 4.956284 1.000000
267.491089 -643.924744 3.771234 1.000000
267.491119 -643.924744 2.589990 1.000000
267.491119 -643.924683 1.410011 1.000000
267.491089 -643.924744 0.228766 1.000000
274.551178 -634.642334 -0.000039 0.549981
278.792908 -629.065430 -0.000027 0.577523
281.155304 -625.959412 -0.000021 0.536126
282.663483 -623.976501 -0.000017 0.507042
283.711700 -622.598328 -0.000014 0.530159
284.484009 -621.582947 -0.000012 0.530892
267.282471 -643.783081 11.034758 1.000000
267.282471 -643.783081 9.790110 1.000000
267.282440 -643.783081 8.562937 1.000000
267.282471 -643.783081 7.350297 1.000000
267.282471 -643.783081 6.149379 1.000000
267.282440 -643.783081 4.957470 1.000000
267.282471 -643.783081 3.771945 1.000000
267.282471 -643.783081 2.590227 1.000000
267.282471 -643.783081 1.409774 1.000000
267.282471 -643.783081 0.228055 1.000000
274.415985 -634.538757 -0.000039 0.536873
278.696533 -628.991638 -0.000027 0.542473
281.080566 -625.902161 -0.000021 0.535042
282.602570 -623.929871 -0.000017 0.525536
283.660400 -622.559021 -0.000014 0.560189
284.439758 -621.549011 -0.000011 0.532738
267.073639 -643.641357 11.038827 1.000000
267.073608 -643.641357 9.793618 1.000000
267.073608 -643.641357 8.565893 1.000000
267.073608 -643.641357 7.352708 1.000000
267.073608 -643.641357 6.151248 1.000000
267.073608 -643.641357 4.958803 1.000000
267.073608 -643.641357 3.772743 1.000000
267.073608 -643.641357 2.590492 1.000000
267.073608 -643.641357 1.409508 1.000000
267.073608 -643.641357 0.227257 1.000000
274.281525 -634.434265 -0.000039 0.535134
278.600708 -628.917175 -0.000027 0.546929
281.006256 -625.844421 -0.000021 0.548745
282.541962 -623.882751 -0.000017 0.546288
283.609344 -622.519348 -0.000014 0.553445
284.395752 -621.514832 -0.000012 0.538659
266.864594 -643.499512 11.043342 1.000000
266.864594 -643.499512 9.797510 1.000000
266.864594 -643.499512 8.569172 1.000000
266.864594 -643.499512 7.355382 1.000000
266.864594 -643.499512 6.153321 1.000000
266.864594 -643.499512 4.960279 1.000000
266.864594 -643.499512 3.773629 1.000000
266.864594 -643.499512 2.590787 1.000000
266.864594 -643.499512 1.409213 1.000000
266.864594 -643.499512 0.226371 1.000000
274.147827 -634.328857 -0.000039 0.537728
278.505402 -628.841980 -0.000027 0.536049
280.932343 -625.786133 -0.000021 0.530617
282.481720 -623.835266 -0.000017 0.545785
283.558594 -622.479309 -0.000014 0.561379
284.351959 -621.480286 -0.000012 0.537224
266.655334 -643.357483 11.048301 1.000000
266.655334 -643.357483 9.801786 1.000000
266.655334 -643.357483 8.572774 1.000000
266.655334 -643.357483 7.358318 1.000000
266.655334 -643.357483 6.155598 1.000000
266.655334 -643.357483 4.961905 1.000000
266.655334 -643.357483 3.774601 1.000000
266.655365 -643.357483 2.591111 1.000000
266.655365 -643.357483 1.408889 1.000000
266.655334 -643.357483 0.225398 1.000000
274.014832 -634.222473 -0.000039 0.526650
278.410614 -628.766174 -0.000027 0.542733
280.858826 -625.727356 -0.000021 0.536339
282.421783 -623.787292 -0.000017 0.547082
283.508087 -622.438904 -0.000014 0.542962
284.308441 -621.445496 -0.000012 0.563333
266.445862 -643.215271 11.053709 1.000000
266.445862 -643.215271 9.806450 1.000000
266.445862 -643.215271 8.576703 1.000000
266.445862 -643.215271 7.361520 1.000000
266.445862 -643.215271 6.158082 1.000000
266.445862 -643.215271 4.963674 1.000000
266.445862 -643.215271 3.775661 1.000000
266.445862 -643.215271 2.591465 1.000000
266.445862 -643.215271 1.408535 1.000000
266.445862 -643.215271 0.224338 1.000000
273.882599 -634.115173 -0.000039 0.540505
278.316376 -628.689697 -0.000027 0.547601
280.785736 -625.668030 -0.000021 0.546899
282.362213 -623.738953 -0.000017 0.510430
283.457886 -622.398193 -0.000014 0.532845
284.265167 -621.410400 -0.000012 0.541405
266.236115 -643.072937 11.059560 1.000000
266.236115 -643.072937 9.811497 1.000000
266.236115 -643.072937 8.580955 1.000000
266.236115 -643.072937 7.364985 1.000000
266.236115 -643.072937 6.160769 1.000000
266.236115 -643.072937 4.965591 1.000000
266.236115 -643.072937 3.776810 1.000000
266.236115 -643.072937 2.591846 1.000000
266.236115 -643.072937 1.408153 1.000000
266.236115 -643.072937 0.223190 1.000000
273.751129 -634.006958 -0.000039 0.540871
278.222656 -628.612549 -0.000027 0.543572
280.713043 -625.608215 -0.000021 0.535988
282.302948 -623.690186 -0.000017 0.544274
283.407990 -622.357117 -0.000014 0.520348
284.222107 -621.374939 -0.000011 0.533654
266.026093 -642.930359 11.065867 1.000000
266.026093 -642.930359 9.816933 1.000000
266.026093 -642.930359 8.585535 1.000000
266.026062 -642.930359 7.368722 1.000000
266.026062 -642.930359 6.163666 1.000000
266.026093 -642.930359 4.967654 1.000000
266.026093 -642.930359 3.778047 1.000000
266.026093 -642.930359 2.592259 1.000000
266.026093 -642.930359 1.407741 1.000000
266.026093 -642.930359 0.221953 1.000000
273.620392 -633.897827 -0.000039 0.549783
278.129486 -628.534790 -0.000028 0.538216
280.640808 -625.547913 -0.000021 0.500984
282.244049 -623.640991 -0.000017 0.528511
283.358368 -622.315674 -0.000014 0.548608
284.179321 -621.339233 -0.000012 0.540291
265.815735 -642.787598 11.072623 1.000000
265.815735 -642.787598 9.822760 1.000000
265.815735 -642.787598 8.590443 1.000000
265.815735 -642.787598 7.372721 1.000000
265.815735 -642.787598 6.166770 1.000000
265.815765 -642.787598 4.969866 1.000000
265.815735 -642.787598 3.779372 1.000000
265.815735 -642.787598 2.592700 1.000000
265.815735 -642.787598 1.407300 1.000000
265.815765 -642.787598 0.220628 1.000000
273.490417 -633.787781 -0.000039 0.536599
278.036865 -628.456360 -0.000028 0.540948
280.568970 -625.487061 -0.000021 0.553674
282.185486 -623.591431 -0.000017 0.570733
283.309021 -622.273926 -0.000014 0.517617
284.136780 -621.303223 -0.000012 0.509590
265.605103 -642.644653 11.079835 1.000000
265.605103 -642.644653 9.828975 1.000000
265.605103 -642.644653 8.595680 1.000000
265.605072 -642.644653 7.376992 1.000000
265.605103 -642.644653 6.170081 1.000000
265.605103 -642.644653 4.972225 1.000000
265.605103 -642.644653 3.780786 1.000000
265.605103 -642.644653 2.593170 1.000000
265.605103 -642.644653 1.406829 1.000000
265.605103 -642.644653 0.219214 1.000000
273.361237 -633.676880 -0.000040 0.533272
277.944794 -628.377319 -0.000028 0.535363
280.497559 -625.425720 -0.000021 0.539513
282.127258 -623.541443 -0.000017 0.513558
283.259979 -622.231750 -0.000014 0.522972
284.094513 -621.266907 -0.000012 0.522988
265.394073 -642.501465 11.087497 1.000000
265.394073 -642.501465 9.835584 1.000000
265.394104 -642.501465 8.601247 1.000000
265.394073 -642.501465 7.381529 1.000000
265.394073 -642.501465 6.173601 1.000000
265.394073 -642.501465 4.974734 1.000000
265.394104 -642.501465 3.782288 1.000000
265.394073 -642.501465 2.593672 1.000000
265.394104 -642.501465 1.406328 1.000000
265.394104 -642.501465 0.217711 1.000000
273.232849 -633.565002 -0.000040 0.531838
277.853271 -628.297546 -0.000028 0.537011
280.426575 -625.363892 -0.000021 0.554620
282.069397 -623.491028 -0.000017 0.540734
283.211212 -622.189331 -0.000014 0.538064
284.052460 -621.230286 -0.000012 0.535760
265.182709 -642.357971 11.095617 1.000000
265.182739 -642.357971 9.842585 1.000000
265.182709 -642.357971 8.607145 1.000000
265.182709 -642.357971 7.386339 1.000000
265.182709 -642.357971 6.177329 1.000000
265.182739 -642.357971 4.977391 1.000000
265.182709 -642.357971 3.783882 1.000000
265.182709 -642.357971 2.594202 1.000000
265.182709 -642.357971 1.405797 1.000000
265.182709 -642.357971 0.216119 1.000000
273.105225 -633.452271 -0.000040 0.541833
277.762299 -628.217224 -0.000028 0.532616
280.356018 -625.301575 -0.000021 0.545617
282.011902 -623.440247 -0.000017 0.565118
283.162781 -622.146545 -0.000014 0.552651
284.010681 -621.193359 -0.000012 0.519142
264.970978 -642.214233 11.104195 1.000000
264.970947 -642.214233 9.849983 1.000000
264.970978 -642.214233 8.613378 1.000000
264.970947 -642.214233 7.391418 1.000000
264.970947 -642.214233 6.181270 1.000000
264.970947 -642.214233 4.980201 1.000000
264.970978 -642.214233 3.785564 1.000000
264.970947 -642.214233 2.594763 1.000000
264.970947 -642.214233 1.405237 1.000000
264.970978 -642.214233 0.214436 1.000000
272.978363 -633.338623 -0.000040 0.520195
277.671906 -628.136230 -0.000028 0.534401
280.285919 -625.238770 -0.000021 0.558328
281.954742 -623.389038 -0.000017 0.543481
283.114624 -622.103394 -0.000014 0.508995
283.969177 -621.156189 -0.000012 0.564935
264.758789 -642.070251 11.113236 1.000000
264.758789 -642.070251 9.857779 1.000000
264.758789 -642.070251 8.619946 1.000000
264.758789 -642.070251 7.396771 1.000000
264.758789 -642.070251 6.185421 1.000000
264.758789 -642.070251 4.983160 1.000000
264.758789 -642.070251 3.787336 1.000000
264.758789 -642.070251 2.595353 1.000000
264.758789 -642.070251 1.404646 1.000000
264.758789 -642.070251 0.212662 1.000000
272.852325 -633.224121 -0.000039 0.533318
277.582062 -628.054626 -0.000028 0.531075
280.216248 -625.175476 -0.000021 0.542489
281.897949 -623.337402 -0.000017 0.520226
283.066772 -622.059937 -0.000014 0.561563
283.927917 -621.118713 -0.000012 0.541085
264.546204 -641.925964 11.122741 1.000000
264.546204 -641.925964 9.865971 1.000000
264.546204 -641.925964 8.626848 1.000000
264.546204 -641.925964 7.402400 1.000000
264.546204 -641.925964 6.189788 1.000000
264.546204 -641.925964 4.986271 1.000000
264.546204 -641.925964 3.789200 1.000000
264.546204 -641.925964 2.595974 1.000000
264.546204 -641.925964 1.404026 1.000000
264.546204 -641.925964 0.210799 1.000000
272.727112 -633.108765 -0.000040 0.556039
277.492798 -627.972351 -0.000028 0.528817
280.147034 -625.111694 -0.000021 0.518196
281.841492 -623.285461 -0.000017 0.530861
283.019226 -622.016113 -0.000014 0.540291
283.886932 -621.080933 -0.000012 0.558389
264.333130 -641.781372 11.132710 1.000000
264.333130 -641.781372 9.874565 1.000000
264.333130 -641.781372 8.634089 1.000000
264.333130 -641.781372 7.408304 1.000000
264.333130 -641.781372 6.194365 1.000000
264.333130 -641.781372 4.989533 1.000000
264.333130 -641.781372 3.791155 1.000000
264.333130 -641.781372 2.596625 1.000000
264.333130 -641.781372 1.403375 1.000000
264.333160 -641.781372 0.208844 1.000000
272.602692 -632.992493 -0.000040 0.539544
277.404114 -627.889526 -0.000028 0.528038
280.078247 -625.047424 -0.000021 0.542214
281.785431 -623.233032 -0.000017 0.534142
282.971985 -621.971985 -0.000014 0.553826
283.846191 -621.042847 -0.000012 0.549706
264.119629 -641.636414 11.143142 1.000000
264.119598 -641.636414 9.883566 1.000000
264.119598 -641.636414 8.641670 1.000000
264.119629 -641.636414 7.414483 1.000000
264.119598 -641.636414 6.199158 1.000000
264.119629 -641.636414 4.992950 1.000000
264.119598 -641.636414 3.793202 1.000000
264.119598 -641.636414 2.597307 1.000000
264.119598 -641.636414 1.402693 1.000000
264.119629 -641.636414 0.206797 1.000000
272.479065 -632.875366 -0.000040 0.540963
277.316010 -627.806030 -0.000028 0.532204
280.009918 -624.982727 -0.000021 0.527779
281.729736 -623.180237 -0.000017 0.545327
282.925049 -621.927490 -0.000014 0.534127
283.805725 -621.004517 -0.000012 0.528801
263.905579 -641.491150 11.154053 1.000000
263.905579 -641.491150 9.892969 1.000000
263.905579 -641.491150 8.649592 1.000000
263.905579 -641.491150 7.420941 1.000000
263.905579 -641.491150 6.204167 1.000000
263.905579 -641.491150 4.996522 1.000000
263.905579 -641.491150 3.795341 1.000000
263.905579 -641.491150 2.598020 1.000000
263.905579 -641.491150 1.401980 1.000000
263.905579 -641.491150 0.204658 1.000000
272.356262 -632.757385 -0.000040 0.551141
277.228485 -627.721924 -0.000028 0.545861
279.942047 -624.917480 -0.000021 0.545037
281.674408 -623.127075 -0.000017 0.541680
282.878448 -621.882690 -0.000014 0.531121
283.765533 -620.965881 -0.000012 0.545342
263.691040 -641.345520 11.165431 1.000000
263.691040 -641.345520 9.902784 1.000000
263.691040 -641.345520 8.657861 1.000000
263.691040 -641.345581 7.427682 1.000000
263.691040 -641.345520 6.209393 1.000000
263.691040 -641.345520 5.000245 1.000000
263.691040 -641.345520 3.797572 1.000000
263.691040 -641.345520 2.598763 1.000000
263.691040 -641.345520 1.401237 1.000000
263.691040 -641.345520 0.202426 1.000000
272.234314 -632.638550 -0.000040 0.551308
277.141571 -627.637207 -0.000028 0.539437
279.874634 -624.851807 -0.000021 0.546761
281.619446 -623.073547 -0.000017 0.536400
282.832153 -621.837585 -0.000014 0.550301
283.725616 -620.927002 -0.000012 0.530373
263.475952 -641.199585 11.177288 1.000000
263.475922 -641.199585 9.913006 1.000000
263.475922 -641.199585 8.666471 1.000000
263.475922 -641.199585 7.434702 1.000000
263.475952 -641.199585 6.214837 1.000000
263.475922 -641.199585 5.004127 1.000000
263.475952 -641.199585 3.799898 1.000000
263.475952 -641.199585 2.599537 1.000000
263.475952 -641.199585 1.400462 1.000000
263.475952 -641.199585 0.200101 1.000000
272.113159 -632.518860 -0.000040 0.540505
277.055237 -627.551941 -0.000028 0.535973
279.807648 -624.785645 -0.000021 0.533059
281.564850 -623.019592 -0.000017 0.553338
282.786163 -621.792175 -0.000015 0.530617
283.685944 -620.887817 -0.000012 0.510826
263.260284 -641.053162 11.189624 1.000000
263.260284 -641.053162 9.923641 1.000000
263.260284 -641.053162 8.675432 1.000000
263.260254 -641.053162 7.442009 1.000000
263.260284 -641.053162 6.220503 1.000000
263.260284 -641.053162 5.008165 1.000000
263.260284 -641.053162 3.802318 1.000000
263.260284 -641.053162 2.600343 1.000000
263.260284 -641.053162 1.399657 1.000000
263.260284 -641.053162 0.197682 1.000000
271.992889 -632.398315 -0.000040 0.539696
276.969482 -627.466003 -0.000028 0.539513
279.741180 -624.718994 -0.000021 0.533379
281.510651 -622.965271 -0.000017 0.537682
282.740479 -621.746399 -0.000015 0.500954
283.646576 -620.848389 -0.000012 0.508492
263.044006 -640.906433 11.202442 1.000000
263.044006 -640.906433 9.934694 1.000000
263.044006 -640.906433 8.684743 1.000000
263.044006 -640.906433 7.449599 1.000000
263.044006 -640.906433 6.226391 1.000000
263.044006 -640.906433 5.012362 1.000000
263.044006 -640.906372 3.804832 1.000000
263.044006 -640.906433 2.601182 1.000000
263.044006 -640.906433 1.398819 1.000000
263.044006 -640.906372 0.195168 1.000000
271.873444 -632.276978 -0.000040 0.531182
276.884338 -627.379517 -0.000028 0.542031
279.675140 -624.651917 -0.000021 0.517494
281.456818 -622.910583 -0.000017 0.558175
282.695129 -621.700317 -0.000014 0.545769
283.607483 -620.808655 -0.000012 0.515312
262.827148 -640.759216 11.215747 1.000000
262.827148 -640.759216 9.946165 1.000000
262.827148 -640.759216 8.694407 1.000000
262.827148 -640.759216 7.457476 1.000000
262.827148 -640.759216 6.232500 1.000000
262.827148 -640.759216 5.016715 1.000000
262.827148 -640.759216 3.807441 1.000000
262.827148 -640.759216 2.602050 1.000000
262.827148 -640.759216 1.397950 1.000000
262.827148 -640.759216 0.192559 1.000000
271.754822 -632.154724 -0.000040 0.535897
276.799805 -627.292419 -0.000028 0.529549
279.609589 -624.584351 -0.000021 0.546029
281.403381 -622.855530 -0.000017 0.535012
282.650116 -621.653931 -0.000015 0.546944
283.568665 -620.768616 -0.000012 0.559152
262.609650 -640.611572 11.229538 1.000000
262.609650 -640.611572 9.958057 1.000000
262.609650 -640.611572 8.704427 1.000000
262.609650 -640.611572 7.465644 1.000000
262.609619 -640.611572 6.238836 1.000000
262.609650 -640.611572 5.021231 1.000000
262.609650 -640.611572 3.810146 1.000000
262.609650 -640.611572 2.602951 1.000000
262.609650 -640.611572 1.397049 1.000000
262.609650 -640.611572 0.189853 1.000000
271.637085 -632.031738 -0.000040 0.546914
276.715912 -627.204712 -0.000028 0.539620
279.544495 -624.516357 -0.000021 0.540063
281.350311 -622.800110 -0.000017 0.538231
282.605408 -621.607239 -0.000015 0.523674
283.530121 -620.728394 -0.000012 0.553017
262.391479 -640.463501 11.243823 1.000000
262.391449 -640.463501 9.970373 1.000000
262.391479 -640.463501 8.714803 1.000000
262.391449 -640.463501 7.474103 1.000000
262.391479 -640.463501 6.245396 1.000000
262.391479 -640.463501 5.025907 1.000000
262.391479 -640.463501 3.812948 1.000000
262.391479 -640.463501 2.603885 1.000000
262.391479 -640.463501 1.396115 1.000000
262.391479 -640.463501 0.187052 1.000000
271.520203 -631.907898 -0.000040 0.535027
276.632599 -627.116455 -0.000028 0.532280
279.479889 -624.447937 -0.000021 0.551980
281.297638 -622.744324 -0.000017 0.530785
282.561035 -621.560242 -0.000015 0.538308
283.491852 -620.687866 -0.000012 0.565332
262.172607 -640.314941 11.258604 1.000000
262.172607 -640.314941 9.983116 1.000000
262.172607 -640.314941 8.725538 1.000000
262.172607 -640.314941 7.482857 1.000000
262.172607 -640.314941 6.252183 1.000000
262.172607 -640.314941 5.030746 1.000000
262.172607 -640.314941 3.815846 1.000000
262.172607 -640.314941 2.604849 1.000000
262.172607 -640.314941 1.395150 1.000000
262.172607 -640.314941 0.184152 1.000000
271.404175 -631.783203 -0.000040 0.542214
276.549896 -627.027649 -0.000028 0.528405
279.415771 -624.379028 -0.000022 0.530999
281.245361 -622.688110 -0.000017 0.545403
282.516998 -621.512878 -0.000015 0.528954
283.453888 -620.647034 -0.000012 0.545800
261.953033 -640.165955 11.273886 1.000000
261.953033 -640.165955 9.996293 1.000000
261.953033 -640.165955 8.736641 1.000000
261.953033 -640.165955 7.491906 1.000000
261.953033 -640.165955 6.259202 1.000000
261.953033 -640.165955 5.035748 1.000000
261.953033 -640.165955 3.818843 1.000000
261.953033 -640.165955 2.605848 1.000000
261.953033 -640.165955 1.394151 1.000000
261.953033 -640.165955 0.181156 1.000000
271.289063 -631.657776 -0.000040 0.540536
276.467834 -626.938171 -0.000027 0.539254
279.352112 -624.309692 -0.000022 0.548287
281.193481 -622.631592 -0.000017 0.538369
282.473297 -621.465271 -0.000014 0.502571
283.416199 -620.605957 -0.000012 0.531014
261.732727 -640.016418 11.289670 1.000000
261.732727 -640.016418 10.009905 1.000000
261.732727 -640.016418 8.748108 1.000000
261.732727 -640.016418 7.501255 1.000000
261.732727 -640.016418 6.266452 1.000000
261.732727 -640.016418 5.040915 1.000000
261.732727 -640.016418 3.821939 1.000000
261.732727 -640.016418 2.606879 1.000000
261.732727 -640.016418 1.393121 1.000000
261.732727 -640.016418 0.178060 1.000000
271.174774 -631.531494 -0.000040 0.554482
276.386383 -626.848206 -0.000028 0.536843
279.288940 -624.239868 -0.000021 0.538674
281.141968 -622.574707 -0.000017 0.525383
282.429901 -621.417297 -0.000015 0.552239
283.378784 -620.564636 -0.000012 0.518822
261.511658 -639.866394 11.305964 1.000000
261.511658 -639.866394 10.023955 1.000000
