# This PCD file was generated using the MATLABÂ® pcwrite function
# from Computer Vision ToolboxÂ®.
# .PCD v.7 - Point Cloud Data file format
VERSION .7
FIELDS x y z intensity
SIZE 4 4 4 4
TYPE F F F F
COUNT 1 1 1 1
WIDTH 1192
HEIGHT 1
VIEWPOINT 0 0 0 1 0 0 0
POINTS 1192
DATA ascii
-95.121765 -45.937927 1.403091 1.000000
-95.121765 -45.937927 1.230333 1.000000
-95.121765 -45.937927 1.055889 1.000000
-95.121765 -45.937927 0.879354 1.000000
-95.121765 -45.937927 0.700305 1.000000
-95.085922 -45.943726 3.300272 1.000000
-95.085922 -45.943726 3.121144 1.000000
-95.085922 -45.943726 2.944530 1.000000
-95.085922 -45.943726 2.770009 1.000000
-95.085922 -45.943726 2.597174 1.000000
-95.085922 -45.943726 2.425636 1.000000
-95.085922 -45.943726 2.255016 1.000000
-95.085922 -45.943726 2.084945 1.000000
-95.085922 -45.943726 1.915055 1.000000
-95.085922 -45.943726 1.744983 1.000000
-95.085922 -45.943726 1.574364 1.000000
-95.085922 -45.943726 1.402826 1.000000
-95.085922 -45.943726 1.229991 1.000000
-95.085922 -45.943726 1.055469 1.000000
-95.085922 -45.943726 0.878856 1.000000
-95.085922 -45.943726 0.699727 1.000000
-95.050049 -45.949532 3.300914 1.000000
-95.050049 -45.949532 3.121697 1.000000
-95.050049 -45.949532 2.944997 1.000000
-95.050049 -45.949532 2.770389 1.000000
-95.050049 -45.949532 2.597469 1.000000
-95.050049 -45.949532 2.425846 1.000000
-95.050049 -45.949528 2.255142 1.000000
-95.050049 -45.949528 2.084987 1.000000
-95.050049 -45.949528 1.915013 1.000000
-95.050049 -45.949528 1.744858 1.000000
-95.050049 -45.949528 1.574154 1.000000
-95.050049 -45.949532 1.402531 1.000000
-95.050049 -45.949528 1.229611 1.000000
-95.050049 -45.949528 1.055003 1.000000
-95.050049 -45.949528 0.878303 1.000000
-95.050049 -45.949528 0.699085 1.000000
-95.014145 -45.955341 3.301620 1.000000
-95.014145 -45.955338 3.122306 1.000000
-95.014145 -45.955341 2.945509 1.000000
-95.014145 -45.955338 2.770807 1.000000
-95.014145 -45.955338 2.597793 1.000000
-95.014145 -45.955338 2.426077 1.000000
-95.014145 -45.955338 2.255280 1.000000
-95.014145 -45.955338 2.085033 1.000000
-95.014145 -45.955338 1.914967 1.000000
-95.014145 -45.955338 1.744719 1.000000
-95.014137 -45.955338 1.573923 1.000000
-95.014145 -45.955338 1.402207 1.000000
-95.014145 -45.955338 1.229193 1.000000
-95.014145 -45.955338 1.054490 1.000000
-95.014137 -45.955338 0.877694 1.000000
-95.014145 -45.955338 0.698380 1.000000
-94.978188 -45.961155 3.302390 1.000000
-94.978188 -45.961155 3.122970 1.000000
-94.978188 -45.961155 2.946069 1.000000
-94.978188 -45.961155 2.771263 1.000000
-94.978188 -45.961155 2.598146 1.000000
-94.978188 -45.961155 2.426329 1.000000
-94.978188 -45.961155 2.255432 1.000000
-94.978188 -45.961155 2.085083 1.000000
-94.978188 -45.961155 1.914917 1.000000
-94.978188 -45.961155 1.744568 1.000000
-94.978188 -45.961155 1.573671 1.000000
-94.978188 -45.961155 1.401854 1.000000
-94.978188 -45.961151 1.228737 1.000000
-94.978188 -45.961155 1.053931 1.000000
-94.978188 -45.961155 0.877030 1.000000
-94.978188 -45.961155 0.697610 1.000000
-94.942192 -45.966976 3.303224 1.000000
-94.942192 -45.966976 3.123689 1.000000
-94.942192 -45.966976 2.946675 1.000000
-94.942192 -45.966976 2.771757 1.000000
-94.942192 -45.966976 2.598530 1.000000
-94.942192 -45.966976 2.426602 1.000000
-94.942192 -45.966976 2.255595 1.000000
-94.942192 -45.966976 2.085138 1.000000
-94.942192 -45.966976 1.914862 1.000000
-94.942192 -45.966976 1.744405 1.000000
-94.942192 -45.966976 1.573398 1.000000
-94.942192 -45.966976 1.401470 1.000000
-94.942192 -45.966976 1.228243 1.000000
-94.942192 -45.966976 1.053325 1.000000
-94.942192 -45.966976 0.876311 1.000000
-94.942192 -45.966976 0.696776 1.000000
-94.906151 -45.972809 3.304123 1.000000
-94.906151 -45.972809 3.124464 1.000000
-94.906151 -45.972809 2.947328 1.000000
-94.906151 -45.972809 2.772289 1.000000
-94.906151 -45.972809 2.598943 1.000000
-94.906151 -45.972809 2.426896 1.000000
-94.906151 -45.972809 2.255772 1.000000
-94.906151 -45.972809 2.085196 1.000000
-94.906151 -45.972809 1.914804 1.000000
-94.906151 -45.972809 1.744228 1.000000
-94.906151 -45.972809 1.573103 1.000000
-94.906151 -45.972809 1.401057 1.000000
-94.906151 -45.972805 1.227710 1.000000
-94.906151 -45.972809 1.052672 1.000000
-94.906151 -45.972805 0.875535 1.000000
-94.906151 -45.972809 0.695877 1.000000
-94.870056 -45.978649 3.305087 1.000000
-94.870056 -45.978645 3.125295 1.000000
-94.870056 -45.978645 2.948028 1.000000
-94.870056 -45.978645 2.772860 1.000000
-94.870056 -45.978645 2.599385 1.000000
-94.870056 -45.978645 2.427212 1.000000
-94.870056 -45.978645 2.255960 1.000000
-94.870056 -45.978645 2.085259 1.000000
-94.870056 -45.978645 1.914741 1.000000
-94.870056 -45.978645 1.744039 1.000000
-94.870056 -45.978645 1.572788 1.000000
-94.870056 -45.978645 1.400615 1.000000
-94.870056 -45.978645 1.227140 1.000000
-94.870056 -45.978645 1.051972 1.000000
-94.870056 -45.978645 0.874705 1.000000
-94.870056 -45.978645 0.694913 1.000000
-94.833908 -45.984497 3.306115 1.000000
-94.833908 -45.984493 3.126183 1.000000
-94.833908 -45.984497 2.948775 1.000000
-94.833908 -45.984493 2.773469 1.000000
-94.833908 -45.984493 2.599858 1.000000
-94.833908 -45.984493 2.427549 1.000000
-94.833908 -45.984493 2.256162 1.000000
-94.833908 -45.984493 2.085326 1.000000
-94.833908 -45.984493 1.914674 1.000000
-94.833908 -45.984493 1.743837 1.000000
-94.833908 -45.984493 1.572451 1.000000
-94.833908 -45.984493 1.400142 1.000000
-94.833908 -45.984493 1.226531 1.000000
-94.833908 -45.984493 1.051224 1.000000
-94.833908 -45.984493 0.873817 1.000000
-94.833908 -45.984493 0.693884 1.000000
-94.797699 -45.990353 3.307210 1.000000
-94.797699 -45.990353 3.127126 1.000000
-94.797699 -45.990353 2.949570 1.000000
-94.797699 -45.990353 2.774117 1.000000
-94.797699 -45.990353 2.600360 1.000000
-94.797699 -45.990353 2.427907 1.000000
-94.797699 -45.990353 2.256377 1.000000
-94.797699 -45.990353 2.085398 1.000000
-94.797699 -45.990353 1.914602 1.000000
-94.797699 -45.990353 1.743623 1.000000
-94.797699 -45.990353 1.572093 1.000000
-94.797699 -45.990353 1.399639 1.000000
-94.797699 -45.990353 1.225882 1.000000
-94.797699 -45.990349 1.050429 1.000000
-94.797699 -45.990353 0.872874 1.000000
-94.797699 -45.990349 0.692789 1.000000
-94.761429 -45.996220 3.308371 1.000000
-94.761429 -45.996220 3.128127 1.000000
-94.761429 -45.996220 2.950413 1.000000
-94.761429 -45.996220 2.774805 1.000000
-94.761429 -45.996220 2.600893 1.000000
-94.761429 -45.996220 2.428287 1.000000
-94.761429 -45.996220 2.256605 1.000000
-94.761429 -45.996220 2.085474 1.000000
-94.761429 -45.996220 1.914526 1.000000
-94.761429 -45.996220 1.743395 1.000000
-94.761429 -45.996220 1.571713 1.000000
-94.761429 -45.996220 1.399107 1.000000
-94.761429 -45.996220 1.225195 1.000000
-94.761429 -45.996220 1.049586 1.000000
-94.761429 -45.996220 0.871873 1.000000
-94.761429 -45.996220 0.691629 1.000000
-94.725090 -46.002098 3.309597 1.000000
-94.725090 -46.002098 3.129184 1.000000
-94.725090 -46.002098 2.951304 1.000000
-94.725090 -46.002098 2.775531 1.000000
-94.725090 -46.002098 2.601456 1.000000
-94.725090 -46.002098 2.428688 1.000000
-94.725090 -46.002098 2.256845 1.000000
-94.725090 -46.002098 2.085554 1.000000
-94.725090 -46.002098 1.914446 1.000000
-94.725090 -46.002098 1.743155 1.000000
-94.725090 -46.002098 1.571312 1.000000
-94.725090 -46.002098 1.398544 1.000000
-94.725090 -46.002098 1.224469 1.000000
-94.725090 -46.002098 1.048696 1.000000
-94.725090 -46.002098 0.870816 1.000000
-94.725090 -46.002098 0.690403 1.000000
-94.688683 -46.007988 3.310889 1.000000
-94.688683 -46.007988 3.130298 1.000000
-94.688683 -46.007988 2.952242 1.000000
-94.688683 -46.007988 2.776296 1.000000
-94.688683 -46.007988 2.602050 1.000000
-94.688683 -46.007988 2.429111 1.000000
-94.688683 -46.007988 2.257099 1.000000
-94.688683 -46.007988 2.085638 1.000000
-94.688683 -46.007988 1.914362 1.000000
-94.688683 -46.007988 1.742901 1.000000
-94.688683 -46.007988 1.570889 1.000000
-94.688683 -46.007988 1.397950 1.000000
-94.688683 -46.007988 1.223704 1.000000
-94.688683 -46.007988 1.047757 1.000000
-94.688683 -46.007988 0.869702 1.000000
-94.688683 -46.007988 0.689111 1.000000
-94.652206 -46.013889 3.312248 1.000000
-94.652206 -46.013889 3.131469 1.000000
-94.652206 -46.013889 2.953230 1.000000
-94.652206 -46.013889 2.777101 1.000000
-94.652206 -46.013889 2.602674 1.000000
-94.652206 -46.013889 2.429556 1.000000
-94.652206 -46.013889 2.257365 1.000000
-94.652206 -46.013885 2.085727 1.000000
-94.652206 -46.013885 1.914273 1.000000
-94.652206 -46.013889 1.742635 1.000000
-94.652206 -46.013885 1.570444 1.000000
-94.652206 -46.013885 1.397326 1.000000
-94.652206 -46.013885 1.222899 1.000000
-94.652206 -46.013885 1.046770 1.000000
-94.652206 -46.013889 0.868530 1.000000
-94.652206 -46.013885 0.687752 1.000000
-94.615646 -46.019802 3.313673 1.000000
-94.615646 -46.019802 3.132699 1.000000
-94.615646 -46.019802 2.954265 1.000000
-94.615646 -46.019802 2.777945 1.000000
-94.615646 -46.019802 2.603329 1.000000
-94.615646 -46.019802 2.430023 1.000000
-94.615646 -46.019802 2.257645 1.000000
-94.615646 -46.019802 2.085820 1.000000
-94.615646 -46.019802 1.914180 1.000000
-94.615646 -46.019802 1.742355 1.000000
-94.615646 -46.019802 1.569977 1.000000
-94.615646 -46.019802 1.396671 1.000000
-94.615646 -46.019802 1.222055 1.000000
-94.615646 -46.019802 1.045734 1.000000
-94.615646 -46.019802 0.867301 1.000000
-94.615646 -46.019802 0.686326 1.000000
-94.579010 -46.025730 3.315167 1.000000
-94.579010 -46.025730 3.133986 1.000000
-94.579010 -46.025730 2.955350 1.000000
-94.579010 -46.025730 2.778829 1.000000
-94.579010 -46.025730 2.604014 1.000000
-94.579010 -46.025730 2.430511 1.000000
-94.579010 -46.025730 2.257938 1.000000
-94.579010 -46.025730 2.085918 1.000000
-94.579010 -46.025730 1.914082 1.000000
-94.579010 -46.025730 1.742062 1.000000
-94.579010 -46.025730 1.569488 1.000000
-94.579010 -46.025730 1.395985 1.000000
-94.579010 -46.025730 1.221171 1.000000
-94.579010 -46.025730 1.044650 1.000000
-94.579010 -46.025730 0.866013 1.000000
-94.579010 -46.025730 0.684833 1.000000
-94.542282 -46.031670 3.316728 1.000000
-94.542282 -46.031670 3.135332 1.000000
-94.542282 -46.031670 2.956484 1.000000
-94.542282 -46.031670 2.779753 1.000000
-94.542282 -46.031670 2.604731 1.000000
-94.542282 -46.031670 2.431022 1.000000
-94.542282 -46.031670 2.258244 1.000000
-94.542282 -46.031670 2.086020 1.000000
-94.542282 -46.031670 1.913980 1.000000
-94.542282 -46.031670 1.741756 1.000000
-94.542282 -46.031670 1.568977 1.000000
-94.542282 -46.031670 1.395269 1.000000
-94.542282 -46.031670 1.220246 1.000000
-94.542282 -46.031670 1.043516 1.000000
-94.542282 -46.031670 0.864668 1.000000
-94.542282 -46.031670 0.683272 1.000000
-94.505470 -46.037624 3.318356 1.000000
-94.505470 -46.037628 3.136736 1.000000
-94.505470 -46.037628 2.957667 1.000000
-94.505470 -46.037624 2.780718 1.000000
-94.505470 -46.037624 2.605479 1.000000
-94.505470 -46.037624 2.431556 1.000000
-94.505470 -46.037624 2.258563 1.000000
-94.505470 -46.037624 2.086126 1.000000
-94.505470 -46.037624 1.913874 1.000000
-94.505470 -46.037624 1.741437 1.000000
-94.505470 -46.037624 1.568444 1.000000
-94.505470 -46.037624 1.394521 1.000000
-94.505470 -46.037624 1.219282 1.000000
-94.505470 -46.037624 1.042333 1.000000
-94.505470 -46.037624 0.863263 1.000000
-94.505470 -46.037624 0.681643 1.000000
-94.468559 -46.043598 3.320053 1.000000
-94.468559 -46.043598 3.138200 1.000000
-94.468559 -46.043598 2.958899 1.000000
-94.468559 -46.043594 2.781723 1.000000
-94.468559 -46.043594 2.606259 1.000000
-94.468559 -46.043594 2.432111 1.000000
-94.468559 -46.043594 2.258896 1.000000
-94.468559 -46.043594 2.086237 1.000000
-94.468559 -46.043594 1.913763 1.000000
-94.468559 -46.043594 1.741104 1.000000
-94.468559 -46.043594 1.567889 1.000000
-94.468559 -46.043594 1.393741 1.000000
-94.468559 -46.043594 1.218277 1.000000
-94.468559 -46.043594 1.041100 1.000000
-94.468559 -46.043594 0.861800 1.000000
-94.468559 -46.043594 0.679947 1.000000
-94.431557 -46.049583 3.321819 1.000000
-94.431557 -46.049583 3.139722 1.000000
-94.431557 -46.049583 2.960182 1.000000
-94.431557 -46.049583 2.782769 1.000000
-94.431557 -46.049583 2.607070 1.000000
-94.431557 -46.049583 2.432689 1.000000
-94.431557 -46.049583 2.259243 1.000000
-94.431557 -46.049583 2.086352 1.000000
-94.431557 -46.049583 1.913648 1.000000
-94.431557 -46.049583 1.740758 1.000000
-94.431557 -46.049583 1.567311 1.000000
-94.431557 -46.049580 1.392930 1.000000
-94.431557 -46.049583 1.217231 1.000000
-94.431557 -46.049583 1.039817 1.000000
-94.431557 -46.049583 0.860277 1.000000
-94.431557 -46.049580 0.678180 1.000000
-94.394455 -46.055584 3.323655 1.000000
-94.394455 -46.055584 3.141305 1.000000
-94.394455 -46.055584 2.961516 1.000000
-94.394455 -46.055584 2.783856 1.000000
-94.394455 -46.055584 2.607913 1.000000
-94.394455 -46.055584 2.433290 1.000000
-94.394455 -46.055584 2.259602 1.000000
-94.394455 -46.055584 2.086472 1.000000
-94.394455 -46.055584 1.913528 1.000000
-94.394455 -46.055584 1.740398 1.000000
-94.394455 -46.055584 1.566710 1.000000
-94.394455 -46.055584 1.392087 1.000000
-94.394455 -46.055584 1.216144 1.000000
-94.394455 -46.055584 1.038484 1.000000
-94.394455 -46.055584 0.858694 1.000000
-94.394455 -46.055584 0.676345 1.000000
-94.357246 -46.061604 3.325560 1.000000
-94.357246 -46.061604 3.142948 1.000000
-94.357246 -46.061604 2.962900 1.000000
-94.357246 -46.061604 2.784984 1.000000
-94.357246 -46.061604 2.608788 1.000000
-94.357246 -46.061604 2.433914 1.000000
-94.357239 -46.061604 2.259976 1.000000
-94.357246 -46.061604 2.086597 1.000000
-94.357246 -46.061604 1.913403 1.000000
-94.357239 -46.061604 1.740024 1.000000
-94.357246 -46.061604 1.566086 1.000000
-94.357246 -46.061604 1.391212 1.000000
-94.357246 -46.061604 1.215016 1.000000
-94.357239 -46.061604 1.037100 1.000000
-94.357239 -46.061600 0.857052 1.000000
-94.357239 -46.061600 0.674439 1.000000
-94.319923 -46.067642 3.327536 1.000000
-94.319923 -46.067642 3.144651 1.000000
-94.319923 -46.067642 2.964334 1.000000
-94.319923 -46.067642 2.786154 1.000000
-94.319923 -46.067642 2.609695 1.000000
-94.319923 -46.067642 2.434561 1.000000
-94.319923 -46.067642 2.260363 1.000000
-94.319923 -46.067638 2.086726 1.000000
-94.319923 -46.067638 1.913274 1.000000
-94.319923 -46.067642 1.739636 1.000000
-94.319923 -46.067638 1.565439 1.000000
-94.319923 -46.067638 1.390305 1.000000
-94.319923 -46.067638 1.213846 1.000000
-94.319923 -46.067642 1.035665 1.000000
-94.319923 -46.067638 0.855348 1.000000
-94.319923 -46.067638 0.672464 1.000000
-94.282494 -46.073696 3.329582 1.000000
-94.282494 -46.073696 3.146416 1.000000
-94.282494 -46.073696 2.965821 1.000000
-94.282494 -46.073696 2.787366 1.000000
-94.282494 -46.073696 2.610635 1.000000
-94.282494 -46.073696 2.435230 1.000000
-94.282494 -46.073696 2.260765 1.000000
-94.282494 -46.073696 2.086859 1.000000
-94.282494 -46.073696 1.913140 1.000000
-94.282494 -46.073696 1.739235 1.000000
-94.282494 -46.073696 1.564770 1.000000
-94.282494 -46.073696 1.389365 1.000000
-94.282494 -46.073696 1.212634 1.000000
-94.282494 -46.073696 1.034178 1.000000
-94.282494 -46.073696 0.853584 1.000000
-94.282494 -46.073696 0.670418 1.000000
-94.244942 -46.079769 3.331700 1.000000
-94.244942 -46.079773 3.148242 1.000000
-94.244942 -46.079769 2.967360 1.000000
-94.244942 -46.079769 2.788620 1.000000
-94.244942 -46.079769 2.611607 1.000000
-94.244942 -46.079769 2.435924 1.000000
-94.244942 -46.079769 2.261180 1.000000
-94.244942 -46.079769 2.086998 1.000000
-94.244942 -46.079769 1.913002 1.000000
-94.244942 -46.079769 1.738820 1.000000
-94.244942 -46.079769 1.564076 1.000000
-94.244942 -46.079769 1.388392 1.000000
-94.244942 -46.079769 1.211380 1.000000
-94.244942 -46.079769 1.032640 1.000000
-94.244942 -46.079769 0.851758 1.000000
-94.244942 -46.079769 0.668300 1.000000
-94.207275 -46.085865 3.333889 1.000000
-94.207275 -46.085865 3.150130 1.000000
-94.207275 -46.085865 2.968950 1.000000
-94.207275 -46.085865 2.789916 1.000000
-94.207275 -46.085865 2.612613 1.000000
-94.207275 -46.085865 2.436640 1.000000
-94.207275 -46.085865 2.261610 1.000000
-94.207275 -46.085865 2.087141 1.000000
-94.207275 -46.085865 1.912859 1.000000
-94.207275 -46.085861 1.738390 1.000000
-94.207275 -46.085865 1.563360 1.000000
-94.207275 -46.085865 1.387387 1.000000
-94.207275 -46.085861 1.210083 1.000000
-94.207275 -46.085865 1.031050 1.000000
-94.207275 -46.085861 0.849870 1.000000
-94.207275 -46.085861 0.666111 1.000000
-94.169472 -46.091980 3.336151 1.000000
-94.169472 -46.091980 3.152080 1.000000
-94.169472 -46.091980 2.970593 1.000000
-94.169472 -46.091980 2.791256 1.000000
-94.169472 -46.091980 2.613652 1.000000
-94.169472 -46.091980 2.437381 1.000000
-94.169472 -46.091980 2.262053 1.000000
-94.169472 -46.091980 2.087289 1.000000
-94.169472 -46.091980 1.912711 1.000000
-94.169472 -46.091976 1.737947 1.000000
-94.169472 -46.091980 1.562619 1.000000
-94.169472 -46.091976 1.386348 1.000000
-94.169472 -46.091976 1.208744 1.000000
-94.169472 -46.091976 1.029407 1.000000
-94.169472 -46.091976 0.847920 1.000000
-94.169472 -46.091976 0.663849 1.000000
-94.131546 -46.098114 3.338486 1.000000
-94.131546 -46.098114 3.154093 1.000000
-94.131546 -46.098114 2.972289 1.000000
-94.131546 -46.098114 2.792639 1.000000
-94.131546 -46.098114 2.614724 1.000000
-94.131546 -46.098114 2.438145 1.000000
-94.131546 -46.098114 2.262511 1.000000
-94.131546 -46.098114 2.087441 1.000000
-94.131546 -46.098114 1.912559 1.000000
-94.131546 -46.098114 1.737489 1.000000
-94.131546 -46.098114 1.561855 1.000000
-94.131546 -46.098114 1.385276 1.000000
-94.131546 -46.098114 1.207361 1.000000
-94.131546 -46.098114 1.027711 1.000000
-94.131546 -46.098114 0.845906 1.000000
-94.131546 -46.098114 0.661514 1.000000
-94.093483 -46.104271 3.340894 1.000000
-94.093483 -46.104271 3.156170 1.000000
-94.093483 -46.104271 2.974039 1.000000
-94.093483 -46.104271 2.794065 1.000000
-94.093483 -46.104271 2.615830 1.000000
-94.093483 -46.104271 2.438933 1.000000
-94.093483 -46.104271 2.262983 1.000000
-94.093483 -46.104271 2.087599 1.000000
-94.093483 -46.104271 1.912401 1.000000
-94.093483 -46.104271 1.737017 1.000000
-94.093483 -46.104271 1.561067 1.000000
-94.093483 -46.104271 1.384170 1.000000
-94.093483 -46.104271 1.205935 1.000000
-94.093483 -46.104271 1.025961 1.000000
-94.093483 -46.104271 0.843830 1.000000
-94.093483 -46.104271 0.659105 1.000000
-94.055283 -46.110451 3.343377 1.000000
-94.055283 -46.110451 3.158310 1.000000
-94.055283 -46.110451 2.975842 1.000000
-94.055283 -46.110451 2.795535 1.000000
-94.055283 -46.110451 2.616971 1.000000
-94.055283 -46.110451 2.439746 1.000000
-94.055283 -46.110451 2.263470 1.000000
-94.055283 -46.110451 2.087761 1.000000
-94.055283 -46.110451 1.912239 1.000000
-94.055283 -46.110451 1.736529 1.000000
-94.055283 -46.110451 1.560254 1.000000
-94.055283 -46.110451 1.383029 1.000000
-94.055283 -46.110451 1.204464 1.000000
-94.055283 -46.110451 1.024157 1.000000
-94.055283 -46.110451 0.841689 1.000000
-94.055283 -46.110451 0.656622 1.000000
-94.016937 -46.116653 3.345935 1.000000
-94.016937 -46.116653 3.160516 1.000000
-94.016937 -46.116653 2.977700 1.000000
-94.016937 -46.116653 2.797050 1.000000
-94.016937 -46.116653 2.618145 1.000000
-94.016937 -46.116653 2.440583 1.000000
-94.016937 -46.116653 2.263972 1.000000
-94.016937 -46.116653 2.087928 1.000000
-94.016937 -46.116653 1.912072 1.000000
-94.016937 -46.116653 1.736028 1.000000
-94.016937 -46.116653 1.559416 1.000000
-94.016937 -46.116653 1.381854 1.000000
-94.016937 -46.116653 1.202950 1.000000
-94.016937 -46.116653 1.022299 1.000000
-94.016937 -46.116653 0.839483 1.000000
-94.016937 -46.116653 0.654065 1.000000
-93.978447 -46.122879 3.348569 1.000000
-93.978447 -46.122879 3.162787 1.000000
-93.978447 -46.122879 2.979613 1.000000
-93.978447 -46.122879 2.798609 1.000000
-93.978447 -46.122879 2.619355 1.000000
-93.978447 -46.122879 2.441445 1.000000
-93.978447 -46.122879 2.264488 1.000000
-93.978447 -46.122879 2.088100 1.000000
-93.978447 -46.122879 1.911900 1.000000
-93.978447 -46.122879 1.735511 1.000000
-93.978447 -46.122879 1.558554 1.000000
-93.978447 -46.122879 1.380645 1.000000
-93.978447 -46.122879 1.201391 1.000000
-93.978447 -46.122879 1.020386 1.000000
-93.978447 -46.122879 0.837213 1.000000
-93.978447 -46.122879 0.651431 1.000000
-93.939804 -46.129131 3.351279 1.000000
-93.939804 -46.129131 3.165124 1.000000
-93.939804 -46.129131 2.981582 1.000000
-93.939804 -46.129131 2.800214 1.000000
-93.939804 -46.129131 2.620600 1.000000
-93.939804 -46.129131 2.442332 1.000000
-93.939804 -46.129131 2.265020 1.000000
-93.939804 -46.129131 2.088277 1.000000
-93.939804 -46.129131 1.911723 1.000000
-93.939804 -46.129131 1.734980 1.000000
-93.939804 -46.129131 1.557667 1.000000
-93.939804 -46.129131 1.379400 1.000000
-93.939804 -46.129131 1.199785 1.000000
-93.939804 -46.129131 1.018418 1.000000
-93.939804 -46.129131 0.834876 1.000000
-93.939804 -46.129131 0.648721 1.000000
-93.901001 -46.135410 3.354065 1.000000
-93.901001 -46.135410 3.167526 1.000000
-93.901001 -46.135410 2.983606 1.000000
-93.901001 -46.135410 2.801864 1.000000
-93.901001 -46.135410 2.621880 1.000000
-93.901001 -46.135410 2.443245 1.000000
-93.901001 -46.135410 2.265566 1.000000
-93.901001 -46.135406 2.088459 1.000000
-93.901001 -46.135406 1.911541 1.000000
-93.901001 -46.135406 1.734433 1.000000
-93.901001 -46.135406 1.556755 1.000000
-93.901001 -46.135406 1.378120 1.000000
-93.901001 -46.135406 1.198135 1.000000
-93.901001 -46.135406 1.016393 1.000000
-93.901001 -46.135406 0.832473 1.000000
-93.901001 -46.135406 0.645934 1.000000
-93.862030 -46.141712 3.356930 1.000000
-93.862030 -46.141712 3.169996 1.000000
-93.862030 -46.141712 2.985687 1.000000
-93.862030 -46.141712 2.803561 1.000000
-93.862030 -46.141712 2.623195 1.000000
-93.862030 -46.141712 2.444182 1.000000
-93.862030 -46.141712 2.266128 1.000000
-93.862030 -46.141712 2.088646 1.000000
-93.862030 -46.141712 1.911354 1.000000
-93.862030 -46.141712 1.733871 1.000000
-93.862030 -46.141712 1.555817 1.000000
-93.862030 -46.141708 1.376805 1.000000
-93.862030 -46.141712 1.196439 1.000000
-93.862030 -46.141712 1.014313 1.000000
-93.862030 -46.141712 0.830004 1.000000
-93.862030 -46.141712 0.643070 1.000000
-93.822899 -46.148045 3.359873 1.000000
-93.822899 -46.148045 3.172534 1.000000
-93.822899 -46.148041 2.987825 1.000000
-93.822899 -46.148045 2.805304 1.000000
-93.822899 -46.148045 2.624547 1.000000
-93.822899 -46.148045 2.445146 1.000000
-93.822899 -46.148045 2.266706 1.000000
-93.822899 -46.148045 2.088838 1.000000
-93.822899 -46.148041 1.911162 1.000000
-93.822899 -46.148041 1.733294 1.000000
-93.822899 -46.148041 1.554854 1.000000
-93.822899 -46.148041 1.375453 1.000000
-93.822899 -46.148041 1.194696 1.000000
-93.822899 -46.148041 1.012175 1.000000
-93.822899 -46.148041 0.827466 1.000000
-93.822899 -46.148041 0.640127 1.000000
-93.783600 -46.154400 3.362896 1.000000
-93.783600 -46.154400 3.175140 1.000000
-93.783600 -46.154400 2.990021 1.000000
-93.783600 -46.154400 2.807094 1.000000
-93.783600 -46.154400 2.625935 1.000000
-93.783600 -46.154400 2.446135 1.000000
-93.783592 -46.154400 2.267298 1.000000
-93.783600 -46.154400 2.089036 1.000000
-93.783600 -46.154400 1.910964 1.000000
-93.783592 -46.154400 1.732702 1.000000
-93.783592 -46.154400 1.553865 1.000000
-93.783592 -46.154400 1.374065 1.000000
-93.783592 -46.154400 1.192906 1.000000
-93.783592 -46.154400 1.009979 1.000000
-93.783592 -46.154400 0.824860 1.000000
-93.783592 -46.154400 0.637104 1.000000
-93.744118 -46.160789 3.365998 1.000000
-93.744118 -46.160789 3.177815 1.000000
-93.744118 -46.160789 2.992274 1.000000
-93.744118 -46.160789 2.808931 1.000000
-93.744118 -46.160789 2.627360 1.000000
-93.744118 -46.160789 2.447151 1.000000
-93.744118 -46.160789 2.267907 1.000000
-93.744118 -46.160786 2.089238 1.000000
-93.744118 -46.160786 1.910761 1.000000
-93.744118 -46.160786 1.732093 1.000000
-93.744118 -46.160786 1.552849 1.000000
-93.744118 -46.160786 1.372640 1.000000
-93.744118 -46.160786 1.191069 1.000000
-93.744118 -46.160786 1.007725 1.000000
-93.744118 -46.160786 0.822185 1.000000
-93.744110 -46.160786 0.634001 1.000000
-93.704453 -46.167206 3.369182 1.000000
-93.704453 -46.167206 3.180560 1.000000
-93.704453 -46.167206 2.994587 1.000000
-93.704453 -46.167206 2.810816 1.000000
-93.704453 -46.167206 2.628822 1.000000
-93.704453 -46.167206 2.448193 1.000000
-93.704453 -46.167206 2.268531 1.000000
-93.704453 -46.167206 2.089447 1.000000
-93.704453 -46.167206 1.910554 1.000000
-93.704453 -46.167206 1.731469 1.000000
-93.704453 -46.167202 1.551807 1.000000
-93.704453 -46.167202 1.371178 1.000000
-93.704453 -46.167206 1.189183 1.000000
-93.704453 -46.167206 1.005413 1.000000
-93.704453 -46.167202 0.819440 1.000000
-93.704453 -46.167202 0.630818 1.000000
-93.664597 -46.173649 3.372447 1.000000
-93.664604 -46.173653 3.183376 1.000000
-93.664604 -46.173653 2.996959 1.000000
-93.664597 -46.173653 2.812750 1.000000
-93.664604 -46.173653 2.630322 1.000000
-93.664597 -46.173649 2.449262 1.000000
-93.664597 -46.173649 2.269172 1.000000
-93.664597 -46.173649 2.089660 1.000000
-93.664597 -46.173649 1.910340 1.000000
-93.664597 -46.173649 1.730828 1.000000
-93.664597 -46.173649 1.550738 1.000000
-93.664597 -46.173649 1.369678 1.000000
-93.664597 -46.173649 1.187250 1.000000
-93.664597 -46.173649 1.003041 1.000000
-93.664597 -46.173649 0.816624 1.000000
-93.664597 -46.173649 0.627552 1.000000
-93.624557 -46.180130 3.375796 1.000000
-93.624557 -46.180130 3.186263 1.000000
-93.624557 -46.180130 2.999392 1.000000
-93.624557 -46.180130 2.814733 1.000000
-93.624557 -46.180130 2.631860 1.000000
-93.624557 -46.180130 2.450358 1.000000
-93.624557 -46.180130 2.269828 1.000000
-93.624557 -46.180126 2.089879 1.000000
-93.624557 -46.180126 1.910121 1.000000
-93.624557 -46.180130 1.730171 1.000000
-93.624557 -46.180126 1.549642 1.000000
-93.624557 -46.180126 1.368140 1.000000
-93.624557 -46.180126 1.185266 1.000000
-93.624557 -46.180130 1.000608 1.000000
-93.624557 -46.180130 0.813736 1.000000
-93.624557 -46.180126 0.624203 1.000000
-93.584312 -46.186638 3.379228 1.000000
-93.584312 -46.186638 3.189223 1.000000
-93.584312 -46.186638 3.001885 1.000000
-93.584312 -46.186638 2.816766 1.000000
-93.584312 -46.186638 2.633436 1.000000
-93.584312 -46.186638 2.451482 1.000000
-93.584312 -46.186638 2.270502 1.000000
-93.584312 -46.186638 2.090103 1.000000
-93.584312 -46.186638 1.909897 1.000000
-93.584312 -46.186638 1.729498 1.000000
-93.584312 -46.186638 1.548518 1.000000
-93.584312 -46.186638 1.366564 1.000000
-93.584312 -46.186638 1.183234 1.000000
-93.584312 -46.186638 0.998115 1.000000
-93.584312 -46.186638 0.810777 1.000000
-93.584312 -46.186638 0.620771 1.000000
-93.543869 -46.193180 3.382745 1.000000
-93.543869 -46.193180 3.192255 1.000000
-93.543869 -46.193180 3.004440 1.000000
-93.543869 -46.193180 2.818849 1.000000
-93.543869 -46.193180 2.635051 1.000000
-93.543869 -46.193180 2.452633 1.000000
-93.543869 -46.193180 2.271192 1.000000
-93.543869 -46.193180 2.090333 1.000000
-93.543869 -46.193180 1.909667 1.000000
-93.543869 -46.193180 1.728809 1.000000
-93.543869 -46.193180 1.547367 1.000000
-93.543869 -46.193180 1.364949 1.000000
-93.543869 -46.193180 1.181151 1.000000
-93.543869 -46.193180 0.995560 1.000000
-93.543869 -46.193180 0.807744 1.000000
-93.543869 -46.193180 0.617254 1.000000
-93.503220 -46.199757 3.386348 1.000000
-93.503220 -46.199757 3.195362 1.000000
-93.503220 -46.199757 3.007057 1.000000
-93.503220 -46.199757 2.820982 1.000000
-93.503220 -46.199757 2.636706 1.000000
-93.503220 -46.199757 2.453812 1.000000
-93.503220 -46.199757 2.271898 1.000000
-93.503220 -46.199757 2.090568 1.000000
-93.503220 -46.199757 1.909432 1.000000
-93.503220 -46.199757 1.728102 1.000000
-93.503220 -46.199757 1.546188 1.000000
-93.503220 -46.199757 1.363294 1.000000
-93.503220 -46.199757 1.179018 1.000000
-93.503220 -46.199757 0.992943 1.000000
-93.503220 -46.199757 0.804638 1.000000
-93.503220 -46.199757 0.613652 1.000000
-93.462349 -46.206367 3.390037 1.000000
-93.462349 -46.206367 3.198543 1.000000
-93.462349 -46.206367 3.009737 1.000000
-93.462349 -46.206367 2.823167 1.000000
-93.462349 -46.206367 2.638400 1.000000
-93.462349 -46.206367 2.455020 1.000000
-93.462349 -46.206367 2.272622 1.000000
-93.462349 -46.206367 2.090809 1.000000
-93.462349 -46.206367 1.909191 1.000000
-93.462349 -46.206367 1.727378 1.000000
-93.462349 -46.206367 1.544980 1.000000
-93.462349 -46.206367 1.361600 1.000000
-93.462349 -46.206367 1.176833 1.000000
-93.462349 -46.206367 0.990263 1.000000
-93.462349 -46.206367 0.801457 1.000000
-93.462349 -46.206367 0.609962 1.000000
-93.421265 -46.213017 3.393815 1.000000
-93.421265 -46.213017 3.201800 1.000000
-93.421265 -46.213017 3.012480 1.000000
-93.421265 -46.213017 2.825404 1.000000
-93.421265 -46.213017 2.640135 1.000000
-93.421265 -46.213017 2.456256 1.000000
-93.421265 -46.213013 2.273362 1.000000
-93.421265 -46.213017 2.091056 1.000000
-93.421265 -46.213017 1.908944 1.000000
-93.421265 -46.213013 1.726637 1.000000
-93.421265 -46.213013 1.543743 1.000000
-93.421265 -46.213013 1.359865 1.000000
-93.421265 -46.213013 1.174596 1.000000
-93.421265 -46.213013 0.987519 1.000000
-93.421265 -46.213013 0.798200 1.000000
-93.421265 -46.213013 0.606185 1.000000
-93.379951 -46.219700 3.397681 1.000000
-93.379951 -46.219700 3.205133 1.000000
-93.379951 -46.219700 3.015289 1.000000
-93.379951 -46.219700 2.827693 1.000000
-93.379951 -46.219700 2.641911 1.000000
-93.379951 -46.219696 2.457522 1.000000
-93.379944 -46.219696 2.274121 1.000000
-93.379944 -46.219696 2.091308 1.000000
-93.379944 -46.219696 1.908692 1.000000
-93.379944 -46.219696 1.725879 1.000000
-93.379944 -46.219696 1.542478 1.000000
-93.379944 -46.219696 1.358089 1.000000
-93.379944 -46.219696 1.172307 1.000000
-93.379944 -46.219696 0.984711 1.000000
-93.379944 -46.219696 0.794866 1.000000
-93.379944 -46.219696 0.602319 1.000000
-93.338402 -46.226418 3.401637 1.000000
-93.338402 -46.226418 3.208544 1.000000
-93.338402 -46.226418 3.018163 1.000000
-93.338402 -46.226418 2.830036 1.000000
-93.338402 -46.226418 2.643728 1.000000
-93.338402 -46.226418 2.458817 1.000000
-93.338402 -46.226418 2.274897 1.000000
-93.338402 -46.226418 2.091567 1.000000
-93.338402 -46.226418 1.908433 1.000000
-93.338402 -46.226418 1.725103 1.000000
-93.338402 -46.226418 1.541183 1.000000
-93.338402 -46.226418 1.356272 1.000000
-93.338402 -46.226418 1.169964 1.000000
-93.338402 -46.226418 0.981837 1.000000
-93.338402 -46.226418 0.791456 1.000000
-93.338402 -46.226418 0.598363 1.000000
-93.296616 -46.233177 3.405684 1.000000
-93.296616 -46.233177 3.212034 1.000000
-93.296616 -46.233177 3.021102 1.000000
-93.296616 -46.233177 2.832433 1.000000
-93.296616 -46.233177 2.645586 1.000000
-93.296616 -46.233177 2.460142 1.000000
-93.296616 -46.233177 2.275690 1.000000
-93.296616 -46.233177 2.091831 1.000000
-93.296616 -46.233177 1.908169 1.000000
-93.296616 -46.233177 1.724310 1.000000
-93.296616 -46.233177 1.539858 1.000000
-93.296616 -46.233177 1.354414 1.000000
-93.296616 -46.233177 1.167567 1.000000
-93.296616 -46.233177 0.978897 1.000000
-93.296616 -46.233177 0.787966 1.000000
-93.296616 -46.233177 0.594315 1.000000
-93.254593 -46.239979 3.409824 1.000000
-93.254593 -46.239975 3.215604 1.000000
-93.254593 -46.239979 3.024110 1.000000
-93.254593 -46.239975 2.834885 1.000000
-93.254593 -46.239975 2.647488 1.000000
-93.254593 -46.239975 2.461497 1.000000
-93.254593 -46.239975 2.276502 1.000000
-93.254593 -46.239975 2.092102 1.000000
-93.254593 -46.239975 1.907898 1.000000
-93.254593 -46.239975 1.723498 1.000000
-93.254593 -46.239975 1.538503 1.000000
-93.254593 -46.239975 1.352512 1.000000
-93.254593 -46.239975 1.165115 1.000000
-93.254593 -46.239975 0.975890 1.000000
-93.254593 -46.239975 0.784396 1.000000
-93.254593 -46.239975 0.590175 1.000000
-93.212311 -46.246815 3.414057 1.000000
-93.212311 -46.246815 3.219254 1.000000
-93.212311 -46.246815 3.027185 1.000000
-93.212311 -46.246815 2.837391 1.000000
-93.212311 -46.246815 2.649432 1.000000
-93.212311 -46.246815 2.462883 1.000000
-93.212311 -46.246815 2.277332 1.000000
-93.212311 -46.246815 2.092378 1.000000
-93.212311 -46.246815 1.907622 1.000000
-93.212311 -46.246815 1.722667 1.000000
-93.212311 -46.246815 1.537117 1.000000
-93.212311 -46.246815 1.350568 1.000000
-93.212311 -46.246815 1.162609 1.000000
-93.212311 -46.246815 0.972815 1.000000
-93.212311 -46.246815 0.780746 1.000000
-93.212311 -46.246815 0.585942 1.000000
-93.169777 -46.253696 3.418386 1.000000
-93.169777 -46.253696 3.222986 1.000000
-93.169777 -46.253696 3.030329 1.000000
-93.169777 -46.253696 2.839954 1.000000
-93.169777 -46.253696 2.651420 1.000000
-93.169777 -46.253696 2.464300 1.000000
-93.169777 -46.253696 2.278181 1.000000
-93.169777 -46.253696 2.092661 1.000000
-93.169777 -46.253696 1.907339 1.000000
-93.169777 -46.253696 1.721819 1.000000
-93.169777 -46.253696 1.535700 1.000000
-93.169777 -46.253696 1.348580 1.000000
-93.169777 -46.253696 1.160045 1.000000
-93.169777 -46.253696 0.969671 1.000000
-93.169777 -46.253696 0.777014 1.000000
-93.169777 -46.253696 0.581614 1.000000
-93.126984 -46.260620 3.422810 1.000000
-93.126984 -46.260620 3.226800 1.000000
-93.126984 -46.260620 3.033543 1.000000
-93.126984 -46.260620 2.842574 1.000000
-93.126984 -46.260620 2.653451 1.000000
-93.126984 -46.260620 2.465748 1.000000
-93.126984 -46.260620 2.279049 1.000000
-93.126984 -46.260620 2.092950 1.000000
-93.126984 -46.260620 1.907050 1.000000
-93.126984 -46.260620 1.720951 1.000000
-93.126984 -46.260620 1.534252 1.000000
-93.126984 -46.260620 1.346549 1.000000
-93.126984 -46.260620 1.157425 1.000000
-93.126984 -46.260620 0.966457 1.000000
-93.126984 -46.260620 0.773200 1.000000
-93.126984 -46.260620 0.577190 1.000000
-93.083916 -46.267586 3.427331 1.000000
-93.083916 -46.267586 3.230699 1.000000
-93.083916 -46.267590 3.036828 1.000000
-93.083916 -46.267586 2.845252 1.000000
-93.083916 -46.267586 2.655528 1.000000
-93.083916 -46.267586 2.467228 1.000000
-93.083916 -46.267586 2.279936 1.000000
-93.083916 -46.267586 2.093246 1.000000
-93.083916 -46.267586 1.906755 1.000000
-93.083916 -46.267586 1.720064 1.000000
-93.083916 -46.267586 1.532772 1.000000
-93.083908 -46.267586 1.344472 1.000000
-93.083908 -46.267586 1.154748 1.000000
-93.083916 -46.267586 0.963172 1.000000
-93.083908 -46.267586 0.769300 1.000000
-93.083908 -46.267586 0.572668 1.000000
-93.040565 -46.274597 3.431952 1.000000
-93.040565 -46.274597 3.234683 1.000000
-93.040565 -46.274597 3.040184 1.000000
-93.040565 -46.274597 2.847988 1.000000
-93.040565 -46.274597 2.657650 1.000000
-93.040565 -46.274597 2.468740 1.000000
-93.040565 -46.274597 2.280842 1.000000
-93.040565 -46.274597 2.093547 1.000000
-93.040565 -46.274597 1.906453 1.000000
-93.040565 -46.274597 1.719158 1.000000
-93.040565 -46.274597 1.531259 1.000000
-93.040565 -46.274597 1.342350 1.000000
-93.040565 -46.274597 1.152012 1.000000
-93.040565 -46.274597 0.959816 1.000000
-93.040565 -46.274597 0.765317 1.000000
-93.040565 -46.274597 0.568048 1.000000
-92.996941 -46.281658 3.436673 1.000000
-92.996941 -46.281658 3.238753 1.000000
-92.996941 -46.281658 3.043613 1.000000
-92.996941 -46.281658 2.850784 1.000000
-92.996941 -46.281654 2.659818 1.000000
-92.996941 -46.281654 2.470286 1.000000
-92.996941 -46.281654 2.281768 1.000000
-92.996941 -46.281654 2.093855 1.000000
-92.996941 -46.281654 1.906144 1.000000
-92.996941 -46.281654 1.718232 1.000000
-92.996941 -46.281654 1.529714 1.000000
-92.996941 -46.281654 1.340181 1.000000
-92.996941 -46.281654 1.149216 1.000000
-92.996941 -46.281654 0.956387 1.000000
-92.996941 -46.281654 0.761246 1.000000
-92.996941 -46.281654 0.563327 1.000000
-92.953018 -46.288761 3.441495 1.000000
-92.953018 -46.288761 3.242912 1.000000
-92.953018 -46.288761 3.047116 1.000000
-92.953018 -46.288761 2.853640 1.000000
-92.953018 -46.288761 2.662033 1.000000
-92.953018 -46.288761 2.471864 1.000000
-92.953018 -46.288761 2.282714 1.000000
-92.953018 -46.288761 2.094171 1.000000
-92.953018 -46.288761 1.905829 1.000000
-92.953018 -46.288761 1.717286 1.000000
-92.953018 -46.288761 1.528135 1.000000
-92.953018 -46.288761 1.337967 1.000000
-92.953018 -46.288761 1.146360 1.000000
-92.953018 -46.288757 0.952883 1.000000
-92.953018 -46.288757 0.757088 1.000000
-92.953018 -46.288761 0.558504 1.000000
-92.908806 -46.295914 3.446421 1.000000
-92.908806 -46.295914 3.247159 1.000000
-92.908806 -46.295914 3.050694 1.000000
-92.908806 -46.295914 2.856557 1.000000
-92.908806 -46.295914 2.664295 1.000000
-92.908806 -46.295914 2.473477 1.000000
-92.908806 -46.295914 2.283680 1.000000
-92.908806 -46.295914 2.094492 1.000000
-92.908806 -46.295914 1.905508 1.000000
-92.908806 -46.295914 1.716320 1.000000
-92.908806 -46.295914 1.526523 1.000000
-92.908806 -46.295914 1.335704 1.000000
-92.908806 -46.295914 1.143443 1.000000
-92.908806 -46.295914 0.949305 1.000000
-92.908806 -46.295914 0.752841 1.000000
-92.908806 -46.295914 0.553579 1.000000
-92.864281 -46.303116 3.451451 1.000000
-92.864281 -46.303116 3.251496 1.000000
-92.864281 -46.303116 3.054348 1.000000
-92.864281 -46.303116 2.859536 1.000000
-92.864281 -46.303116 2.666606 1.000000
-92.864281 -46.303116 2.475123 1.000000
-92.864281 -46.303116 2.284666 1.000000
-92.864281 -46.303116 2.094821 1.000000
-92.864281 -46.303116 1.905179 1.000000
-92.864281 -46.303116 1.715333 1.000000
-92.864281 -46.303116 1.524876 1.000000
-92.864281 -46.303116 1.333394 1.000000
-92.864281 -46.303116 1.140464 1.000000
-92.864281 -46.303116 0.945651 1.000000
-92.864281 -46.303116 0.748503 1.000000
-92.864281 -46.303116 0.548548 1.000000
-92.819443 -46.310368 3.456589 1.000000
-92.819443 -46.310368 3.255926 1.000000
-92.819443 -46.310368 3.058080 1.000000
-92.819443 -46.310368 2.862578 1.000000
-92.819443 -46.310368 2.668965 1.000000
-92.819443 -46.310371 2.476805 1.000000
-92.819443 -46.310368 2.285674 1.000000
-92.819443 -46.310368 2.095157 1.000000
-92.819443 -46.310368 1.904843 1.000000
-92.819443 -46.310368 1.714326 1.000000
-92.819443 -46.310368 1.523195 1.000000
-92.819443 -46.310368 1.331035 1.000000
-92.819443 -46.310368 1.137422 1.000000
-92.819443 -46.310368 0.941920 1.000000
-92.819443 -46.310368 0.744074 1.000000
-92.819443 -46.310368 0.543411 1.000000
-92.774292 -46.317673 3.461833 1.000000
-92.774292 -46.317673 3.260448 1.000000
-92.774292 -46.317673 3.061890 1.000000
-92.774292 -46.317673 2.865684 1.000000
-92.774292 -46.317673 2.671374 1.000000
-92.774292 -46.317673 2.478522 1.000000
-92.774292 -46.317673 2.286703 1.000000
-92.774292 -46.317673 2.095499 1.000000
-92.774292 -46.317673 1.904501 1.000000
-92.774292 -46.317673 1.713297 1.000000
-92.774292 -46.317673 1.521478 1.000000
-92.774292 -46.317673 1.328626 1.000000
-92.774292 -46.317673 1.134316 1.000000
-92.774292 -46.317673 0.938110 1.000000
-92.774292 -46.317673 0.739552 1.000000
-92.774292 -46.317673 0.538166 1.000000
-92.728806 -46.325031 3.467188 1.000000
-92.728806 -46.325031 3.265065 1.000000
-92.728806 -46.325031 3.065780 1.000000
-92.728806 -46.325031 2.868855 1.000000
-92.728806 -46.325031 2.673833 1.000000
-92.728806 -46.325031 2.480275 1.000000
-92.728806 -46.325031 2.287753 1.000000
-92.728806 -46.325031 2.095849 1.000000
-92.728806 -46.325031 1.904151 1.000000
-92.728806 -46.325031 1.712247 1.000000
-92.728806 -46.325031 1.519725 1.000000
-92.728806 -46.325031 1.326167 1.000000
-92.728806 -46.325031 1.131145 1.000000
-92.728806 -46.325031 0.934220 1.000000
-92.728806 -46.325027 0.734935 1.000000
-92.728806 -46.325031 0.532812 1.000000
-92.682983 -46.332443 3.472654 1.000000
-92.682983 -46.332443 3.269778 1.000000
-92.682983 -46.332443 3.069750 1.000000
-92.682983 -46.332443 2.872092 1.000000
-92.682983 -46.332443 2.676343 1.000000
-92.682983 -46.332443 2.482064 1.000000
-92.682983 -46.332443 2.288825 1.000000
-92.682983 -46.332443 2.096206 1.000000
-92.682983 -46.332443 1.903794 1.000000
-92.682983 -46.332443 1.711175 1.000000
-92.682983 -46.332443 1.517936 1.000000
-92.682983 -46.332443 1.323657 1.000000
-92.682983 -46.332443 1.127908 1.000000
-92.682983 -46.332443 0.930250 1.000000
-92.682983 -46.332443 0.730222 1.000000
-92.682983 -46.332443 0.527346 1.000000
-92.636818 -46.339912 3.478233 1.000000
-92.636818 -46.339912 3.274588 1.000000
-92.636818 -46.339912 3.073803 1.000000
-92.636818 -46.339912 2.875395 1.000000
-92.636818 -46.339912 2.678905 1.000000
-92.636818 -46.339912 2.483890 1.000000
-92.636818 -46.339912 2.289919 1.000000
-92.636818 -46.339912 2.096570 1.000000
-92.636818 -46.339912 1.903429 1.000000
-92.636818 -46.339912 1.710081 1.000000
-92.636818 -46.339912 1.516110 1.000000
-92.636818 -46.339912 1.321094 1.000000
-92.636818 -46.339912 1.124604 1.000000
-92.636818 -46.339912 0.926197 1.000000
-92.636818 -46.339912 0.725412 1.000000
-92.636818 -46.339912 0.521767 1.000000
-92.590294 -46.347439 3.483927 1.000000
-92.590302 -46.347439 3.279498 1.000000
-92.590302 -46.347439 3.077939 1.000000
-92.590302 -46.347439 2.878767 1.000000
-92.590302 -46.347439 2.681521 1.000000
-92.590302 -46.347439 2.485754 1.000000
-92.590302 -46.347439 2.291036 1.000000
-92.590294 -46.347439 2.096943 1.000000
-92.590294 -46.347439 1.903057 1.000000
-92.590294 -46.347439 1.708964 1.000000
-92.590294 -46.347439 1.514246 1.000000
-92.590294 -46.347439 1.318479 1.000000
-92.590294 -46.347435 1.121232 1.000000
-92.590294 -46.347435 0.922061 1.000000
-92.590294 -46.347435 0.720502 1.000000
-92.590294 -46.347435 0.516072 1.000000
-92.543419 -46.355022 3.489738 1.000000
-92.543419 -46.355022 3.284508 1.000000
-92.543419 -46.355022 3.082160 1.000000
-92.543419 -46.355022 2.882209 1.000000
-92.543419 -46.355022 2.684190 1.000000
-92.543419 -46.355022 2.487656 1.000000
-92.543419 -46.355022 2.292175 1.000000
-92.543411 -46.355019 2.097322 1.000000
-92.543411 -46.355019 1.902678 1.000000
-92.543419 -46.355022 1.707824 1.000000
-92.543419 -46.355022 1.512344 1.000000
-92.543411 -46.355019 1.315810 1.000000
-92.543411 -46.355019 1.117791 1.000000
-92.543411 -46.355019 0.917839 1.000000
-92.543419 -46.355019 0.715491 1.000000
-92.543419 -46.355022 0.510262 1.000000
-92.496162 -46.362667 3.495668 1.000000
-92.496162 -46.362667 3.289621 1.000000
-92.496162 -46.362667 3.086468 1.000000
-92.496162 -46.362667 2.885720 1.000000
-92.496162 -46.362667 2.686913 1.000000
-92.496162 -46.362667 2.489598 1.000000
-92.496162 -46.362663 2.293339 1.000000
-92.496162 -46.362663 2.097710 1.000000
-92.496162 -46.362663 1.902290 1.000000
-92.496162 -46.362663 1.706661 1.000000
-92.496162 -46.362663 1.510402 1.000000
-92.496162 -46.362667 1.313087 1.000000
-92.496162 -46.362663 1.114279 1.000000
-92.496162 -46.362663 0.913532 1.000000
-92.496162 -46.362663 0.710378 1.000000
-92.496162 -46.362663 0.504331 1.000000
-92.448532 -46.370369 3.501719 1.000000
-92.448532 -46.370373 3.294838 1.000000
-92.448532 -46.370373 3.090863 1.000000
-92.448532 -46.370369 2.889304 1.000000
-92.448532 -46.370373 2.689692 1.000000
-92.448532 -46.370373 2.491578 1.000000
-92.448532 -46.370369 2.294525 1.000000
-92.448532 -46.370369 2.098105 1.000000
-92.448532 -46.370369 1.901895 1.000000
-92.448532 -46.370369 1.705475 1.000000
-92.448532 -46.370369 1.508422 1.000000
-92.448532 -46.370369 1.310308 1.000000
-92.448532 -46.370369 1.110696 1.000000
-92.448532 -46.370369 0.909137 1.000000
-92.448532 -46.370369 0.705161 1.000000
-92.448532 -46.370369 0.498281 1.000000
-92.400513 -46.378139 3.507893 1.000000
-92.400513 -46.378139 3.300162 1.000000
-92.400505 -46.378139 3.095348 1.000000
-92.400513 -46.378139 2.892960 1.000000
-92.400505 -46.378139 2.692528 1.000000
-92.400513 -46.378139 2.493599 1.000000
-92.400505 -46.378139 2.295736 1.000000
-92.400505 -46.378139 2.098508 1.000000
-92.400505 -46.378139 1.901492 1.000000
-92.400505 -46.378139 1.704264 1.000000
-92.400505 -46.378139 1.506401 1.000000
-92.400505 -46.378139 1.307472 1.000000
-92.400505 -46.378139 1.107040 1.000000
-92.400505 -46.378139 0.904652 1.000000
-92.400505 -46.378139 0.699838 1.000000
-92.400505 -46.378139 0.492107 1.000000
-92.352089 -46.385971 3.514192 1.000000
-92.352089 -46.385971 3.305593 1.000000
-92.352089 -46.385971 3.099924 1.000000
-92.352089 -46.385971 2.896690 1.000000
-92.352089 -46.385975 2.695420 1.000000
-92.352089 -46.385971 2.495661 1.000000
-92.352089 -46.385971 2.296971 1.000000
-92.352089 -46.385971 2.098920 1.000000
-92.352089 -46.385971 1.901080 1.000000
-92.352089 -46.385971 1.703028 1.000000
-92.352089 -46.385971 1.504339 1.000000
-92.352089 -46.385971 1.304580 1.000000
-92.352089 -46.385971 1.103310 1.000000
-92.352089 -46.385971 0.900076 1.000000
-92.352089 -46.385971 0.694407 1.000000
-92.352089 -46.385971 0.485808 1.000000
-92.303261 -46.393871 3.520617 1.000000
-92.303261 -46.393871 3.311134 1.000000
-92.303261 -46.393871 3.104591 1.000000
-92.303261 -46.393871 2.900495 1.000000
-92.303261 -46.393871 2.698372 1.000000
-92.303261 -46.393871 2.497764 1.000000
-92.303261 -46.393871 2.298232 1.000000
-92.303261 -46.393871 2.099339 1.000000
-92.303261 -46.393871 1.900660 1.000000
-92.303261 -46.393871 1.701768 1.000000
-92.303261 -46.393871 1.502235 1.000000
-92.303261 -46.393871 1.301628 1.000000
-92.303261 -46.393871 1.099504 1.000000
-92.303253 -46.393867 0.895408 1.000000
-92.303253 -46.393871 0.688865 1.000000
-92.303253 -46.393871 0.479382 1.000000
-92.254013 -46.401836 3.527174 1.000000
-92.254013 -46.401840 3.316786 1.000000
-92.254013 -46.401836 3.109354 1.000000
-92.254013 -46.401836 2.904377 1.000000
-92.254013 -46.401840 2.701383 1.000000
-92.254013 -46.401840 2.499910 1.000000
-92.254013 -46.401836 2.299517 1.000000
-92.254013 -46.401840 2.099768 1.000000
-92.254013 -46.401836 1.900232 1.000000
-92.254013 -46.401836 1.700482 1.000000
-92.254013 -46.401836 1.500089 1.000000
-92.254013 -46.401836 1.298617 1.000000
-92.254005 -46.401836 1.095622 1.000000
-92.254005 -46.401836 0.890646 1.000000
-92.254013 -46.401836 0.683213 1.000000
-92.254005 -46.401836 0.472826 1.000000
-92.204330 -46.409874 3.533861 1.000000
-92.204330 -46.409874 3.322553 1.000000
-92.204330 -46.409874 3.114212 1.000000
-92.204330 -46.409874 2.908338 1.000000
-92.204330 -46.409874 2.704454 1.000000
-92.204330 -46.409874 2.502100 1.000000
-92.204330 -46.409874 2.300829 1.000000
-92.204330 -46.409874 2.100205 1.000000
-92.204330 -46.409874 1.899795 1.000000
-92.204330 -46.409874 1.699171 1.000000
-92.204330 -46.409874 1.497900 1.000000
-92.204330 -46.409874 1.295546 1.000000
-92.204330 -46.409874 1.091662 1.000000
-92.204330 -46.409874 0.885788 1.000000
-92.204330 -46.409874 0.677447 1.000000
-92.204330 -46.409874 0.466139 1.000000
-92.154221 -46.417980 3.540683 1.000000
-92.154221 -46.417980 3.328435 1.000000
-92.154221 -46.417980 3.119167 1.000000
-92.154213 -46.417980 2.912378 1.000000
-92.154213 -46.417980 2.707587 1.000000
-92.154213 -46.417980 2.504333 1.000000
-92.154213 -46.417980 2.302167 1.000000
-92.154213 -46.417980 2.100650 1.000000
-92.154213 -46.417980 1.899350 1.000000
-92.154213 -46.417980 1.697833 1.000000
-92.154213 -46.417980 1.495667 1.000000
-92.154213 -46.417980 1.292413 1.000000
-92.154213 -46.417980 1.087622 1.000000
-92.154213 -46.417980 0.880833 1.000000
-92.154213 -46.417980 0.671565 1.000000
-92.154213 -46.417980 0.459317 1.000000
-92.103653 -46.426163 3.547641 1.000000
-92.103653 -46.426163 3.334435 1.000000
-92.103653 -46.426163 3.124222 1.000000
-92.103653 -46.426163 2.916498 1.000000
-92.103653 -46.426163 2.710783 1.000000
-92.103653 -46.426163 2.506611 1.000000
-92.103653 -46.426163 2.303532 1.000000
-92.103653 -46.426163 2.101105 1.000000
-92.103653 -46.426163 1.898895 1.000000
-92.103653 -46.426163 1.696468 1.000000
-92.103653 -46.426163 1.493389 1.000000
-92.103645 -46.426163 1.289217 1.000000
-92.103653 -46.426163 1.083502 1.000000
-92.103645 -46.426159 0.875778 1.000000
-92.103645 -46.426159 0.665565 1.000000
-92.103645 -46.426159 0.452358 1.000000
-92.052620 -46.434418 3.554739 1.000000
-92.052620 -46.434418 3.340555 1.000000
-92.052620 -46.434418 3.129378 1.000000
