# This PCD file was generated using the MATLABÂ® pcwrite function
# from Computer Vision ToolboxÂ®.
# .PCD v.7 - Point Cloud Data file format
VERSION .7
FIELDS x y z intensity
SIZE 4 4 4 4
TYPE F F F F
COUNT 1 1 1 1
WIDTH 1239
HEIGHT 1
VIEWPOINT 0 0 0 1 0 0 0
POINTS 1239
DATA ascii
85.070152 -63.767105 9.820028 1.000000
85.070152 -63.767105 8.375116 1.000000
85.070152 -63.767105 6.944168 1.000000
85.070152 -63.767101 5.523956 1.000000
85.070152 -63.767105 4.111351 1.000000
85.070152 -63.767101 2.703280 1.000000
85.070152 -63.767101 1.296719 1.000000
85.064674 -66.033012 -0.000034 0.542046
85.025223 -82.352707 -0.000021 0.531228
85.008286 -89.359291 -0.000016 0.557961
84.998848 -93.261574 -0.000012 0.533532
nan nan nan 0.000000
84.988640 -97.484360 -0.000009 0.554650
84.985558 -98.760063 -0.000008 0.556130
nan nan nan 0.000000
85.369728 -63.816704 11.271930 1.000000
85.369728 -63.816704 9.811325 1.000000
85.369728 -63.816700 8.368021 1.000000
85.369728 -63.816700 6.938666 1.000000
85.369728 -63.816700 5.520035 1.000000
85.369728 -63.816696 4.109001 1.000000
85.369728 -63.816700 2.702499 1.000000
85.369728 -63.816700 1.297501 1.000000
85.348885 -66.034698 -0.000034 0.539727
85.195503 -82.353706 -0.000021 0.543282
85.129654 -89.360008 -0.000016 0.529885
85.092979 -93.262131 -0.000012 0.572869
85.069565 -95.753296 -0.000010 0.529000
85.053284 -97.484741 -0.000009 0.536843
85.041298 -98.760399 -0.000008 0.544945
nan nan nan 0.000000
85.668671 -63.866196 11.262074 1.000000
85.668671 -63.866192 9.803024 1.000000
85.668671 -63.866192 8.361254 1.000000
85.668671 -63.866196 6.933417 1.000000
85.668671 -63.866192 5.516294 1.000000
85.668671 -63.866192 4.106759 1.000000
85.668671 -63.866192 2.701752 1.000000
85.668671 -63.866192 1.298248 1.000000
85.633087 -66.038338 -0.000035 0.542138
85.365776 -82.355904 -0.000021 0.539117
85.251015 -89.361572 -0.000016 0.544381
85.187096 -93.263344 -0.000012 0.546563
85.146294 -95.754280 -0.000011 0.536233
85.117928 -97.485580 -0.000009 0.531640
85.097038 -98.761116 -0.000008 0.537820
nan nan nan 0.000000
85.966980 -63.915585 11.252689 1.000000
85.966980 -63.915581 9.795116 1.000000
85.966980 -63.915581 8.354808 1.000000
85.966980 -63.915573 6.928419 1.000000
85.966980 -63.915581 5.512732 1.000000
85.966980 -63.915577 4.104624 1.000000
85.966980 -63.915569 2.701042 1.000000
85.966980 -63.915569 1.298959 1.000000
85.917244 -66.043999 -0.000035 0.535683
85.536034 -82.359283 -0.000021 0.550027
85.372360 -89.363983 -0.000016 0.532937
85.281204 -93.265213 -0.000012 0.523857
85.223015 -95.755806 -0.000010 0.564935
85.182564 -97.486862 -0.000009 0.535622
85.152763 -98.762222 -0.000007 0.540612
nan nan nan 0.000000
86.264702 -63.964867 11.243775 1.000000
86.264702 -63.964870 9.787607 1.000000
86.264709 -63.964870 8.348683 1.000000
86.264702 -63.964867 6.923670 1.000000
86.264709 -63.964867 5.509347 1.000000
86.264702 -63.964863 4.102597 1.000000
86.264702 -63.964867 2.700366 1.000000
86.264702 -63.964867 1.299634 1.000000
86.201370 -66.051605 -0.000035 0.548867
85.706261 -82.363846 -0.000022 0.546883
85.493690 -89.367241 -0.000016 0.545098
85.375305 -93.267738 -0.000012 0.533349
85.299721 -95.757866 -0.000010 0.524697
85.247192 -97.488594 -0.000009 0.531502
85.208488 -98.763718 -0.000007 0.523705
nan nan nan 0.000000
86.561867 -64.014069 11.235325 1.000000
86.561867 -64.014069 9.780487 1.000000
86.561867 -64.014069 8.342881 1.000000
86.561867 -64.014061 6.919170 1.000000
86.561867 -64.014053 5.506139 1.000000
86.561867 -64.014069 4.100676 1.000000
86.561867 -64.014053 2.699724 1.000000
86.561867 -64.014053 1.300275 1.000000
86.485428 -66.061241 -0.000035 0.536400
85.876450 -82.369614 -0.000022 0.551415
85.614990 -89.371353 -0.000015 0.545266
85.469376 -93.270920 -0.000012 0.539208
85.376411 -95.760460 -0.000010 0.543191
85.311806 -97.490784 -0.000009 0.543816
85.264198 -98.765602 -0.000008 0.488716
nan nan nan 0.000000
86.858505 -64.063179 11.227344 1.000000
86.858505 -64.063171 9.773764 1.000000
86.858505 -64.063187 8.337397 1.000000
86.858505 -64.063179 6.914916 1.000000
86.858505 -64.063171 5.503108 1.000000
86.858505 -64.063171 4.098860 1.000000
86.858505 -64.063171 2.699121 1.000000
86.858505 -64.063171 1.300879 1.000000
86.769409 -66.072815 -0.000036 0.536690
86.046593 -82.376564 -0.000022 0.539712
85.736267 -89.376297 -0.000016 0.535225
85.563431 -93.274765 -0.000012 0.531807
85.453087 -95.763596 -0.000011 0.513100
85.376396 -97.493423 -0.000009 0.531426
85.319893 -98.767876 -0.000008 0.572854
nan nan nan 0.000000
87.154640 -64.112198 11.219823 1.000000
87.154640 -64.112206 9.767426 1.000000
87.154640 -64.112198 8.332232 1.000000
87.154640 -64.112198 6.910910 1.000000
87.154640 -64.112198 5.500253 1.000000
87.154640 -64.112198 4.097149 1.000000
87.154640 -64.112198 2.698551 1.000000
87.154640 -64.112198 1.301450 1.000000
87.053299 -66.086411 -0.000036 0.539681
86.216682 -82.384697 -0.000022 0.536614
85.857498 -89.382095 -0.000016 0.533608
85.657448 -93.279259 -0.000013 0.521828
85.529739 -95.767258 -0.000010 0.540200
85.440971 -97.496513 -0.000009 0.546502
85.375572 -98.770538 -0.000008 0.552972
nan nan nan 0.000000
87.450310 -64.161163 11.212760 1.000000
87.450310 -64.161148 9.761478 1.000000
87.450310 -64.161148 8.327385 1.000000
87.450310 -64.161163 6.907149 1.000000
87.450310 -64.161148 5.497572 1.000000
87.450310 -64.161140 4.095543 1.000000
87.450317 -64.161156 2.698015 1.000000
87.450317 -64.161156 1.301985 1.000000
87.337097 -66.101952 -0.000036 0.539773
86.386719 -82.394020 -0.000022 0.536767
85.978683 -89.388741 -0.000016 0.536553
85.751434 -93.284416 -0.000013 0.549340
85.606354 -95.771461 -0.000010 0.525429
85.505524 -97.500046 -0.000009 0.518181
85.431229 -98.773590 -0.000008 0.548302
nan nan nan 0.000000
87.745544 -64.210037 11.206160 1.000000
87.745544 -64.210037 9.755917 1.000000
87.745544 -64.210030 8.322850 1.000000
87.745544 -64.210022 6.903634 1.000000
87.745544 -64.210030 5.495067 1.000000
87.745544 -64.210022 4.094041 1.000000
87.745544 -64.210030 2.697515 1.000000
87.745544 -64.210030 1.302484 1.000000
87.620781 -66.119499 -0.000036 0.541192
86.556679 -82.404526 -0.000022 0.555764
86.099831 -89.396233 -0.000016 0.538643
85.845390 -93.290222 -0.000012 0.548440
85.682945 -95.776199 -0.000010 0.518608
85.570045 -97.504044 -0.000009 0.527047
85.486870 -98.777039 -0.000007 0.521859
nan nan nan 0.000000
88.040367 -64.258835 11.200017 1.000000
88.040367 -64.258835 9.750742 1.000000
88.040375 -64.258835 8.318632 1.000000
88.040375 -64.258835 6.900363 1.000000
88.040367 -64.258835 5.492734 1.000000
88.040367 -64.258835 4.092644 1.000000
88.040367 -64.258835 2.697049 1.000000
88.040367 -64.258835 1.302950 1.000000
87.904327 -66.139008 -0.000036 0.536767
86.726563 -82.416229 -0.000022 0.542260
86.220917 -89.404572 -0.000016 0.536645
85.939293 -93.296692 -0.000013 0.533791
85.759506 -95.781464 -0.000011 0.538964
85.634544 -97.508484 -0.000009 0.567117
85.542480 -98.780869 -0.000008 0.554757
nan nan nan 0.000000
88.334816 -64.307587 11.194330 1.000000
88.334816 -64.307587 9.745950 1.000000
88.334816 -64.307587 8.314728 1.000000
88.334816 -64.307587 6.897332 1.000000
88.334816 -64.307587 5.490575 1.000000
88.334816 -64.307571 4.091350 1.000000
88.334816 -64.307579 2.696619 1.000000
88.334816 -64.307579 1.303381 1.000000
88.187729 -66.160522 -0.000036 0.541253
86.896362 -82.429115 -0.000022 0.540673
86.341934 -89.413750 -0.000016 0.531670
86.033150 -93.303810 -0.000013 0.547372
85.836021 -95.787270 -0.000011 0.528115
85.699005 -97.513367 -0.000009 0.558480
85.598061 -98.785080 -0.000008 0.514488
nan nan nan 0.000000
88.628906 -64.356277 11.189098 1.000000
88.628906 -64.356277 9.741541 1.000000
88.628914 -64.356270 8.311132 1.000000
88.628906 -64.356277 6.894546 1.000000
88.628914 -64.356270 5.488589 1.000000
88.628906 -64.356270 4.090160 1.000000
88.628906 -64.356262 2.696223 1.000000
88.628906 -64.356262 1.303777 1.000000
88.470978 -66.183990 -0.000036 0.537057
87.066071 -82.443176 -0.000022 0.540429
86.462891 -89.423782 -0.000016 0.537926
86.126961 -93.311584 -0.000013 0.539284
85.912491 -95.793610 -0.000010 0.512428
85.763435 -97.518707 -0.000009 0.565270
85.653610 -98.789688 -0.000008 0.521645
nan nan nan 0.000000
88.922684 -64.404907 11.184319 1.000000
88.922684 -64.404907 9.737514 1.000000
88.922684 -64.404907 8.307850 1.000000
88.922684 -64.404907 6.892000 1.000000
88.922691 -64.404907 5.486774 1.000000
88.922684 -64.404907 4.089073 1.000000
88.922684 -64.404907 2.695860 1.000000
88.922684 -64.404907 1.304139 1.000000
88.754059 -66.209442 -0.000036 0.541192
87.235672 -82.458420 -0.000022 0.532021
86.583778 -89.434647 -0.000016 0.545342
86.220711 -93.320015 -0.000013 0.539010
85.988922 -95.800484 -0.000010 0.527749
85.827820 -97.524498 -0.000009 0.515618
85.709129 -98.794678 -0.000008 0.564462
nan nan nan 0.000000
89.216164 -64.453499 11.179990 1.000000
89.216171 -64.453491 9.733870 1.000000
89.216164 -64.453499 8.304876 1.000000
89.216171 -64.453491 6.889694 1.000000
89.216171 -64.453491 5.485131 1.000000
89.216171 -64.453491 4.088089 1.000000
89.216171 -64.453491 2.695532 1.000000
89.216171 -64.453491 1.304468 1.000000
89.036949 -66.236877 -0.000036 0.537774
87.405167 -82.474861 -0.000022 0.552132
86.704582 -89.446365 -0.000016 0.549065
86.314400 -93.329102 -0.000012 0.544060
86.065300 -95.807892 -0.000010 0.548104
85.892166 -97.530739 -0.000009 0.520623
85.764610 -98.800056 -0.000008 0.505501
nan nan nan 0.000000
89.509392 -64.502045 11.176115 1.000000
89.509392 -64.502045 9.730603 1.000000
89.509392 -64.502037 8.302216 1.000000
89.509392 -64.502045 6.887630 1.000000
89.509392 -64.502029 5.483661 1.000000
89.509392 -64.502037 4.087207 1.000000
89.509392 -64.502037 2.695239 1.000000
89.509392 -64.502037 1.304761 1.000000
89.319649 -66.266266 -0.000036 0.538674
87.574539 -82.492477 -0.000022 0.542931
86.825302 -89.458916 -0.000016 0.539803
86.408020 -93.338837 -0.000013 0.554299
86.141624 -95.815826 -0.000010 0.544427
85.956467 -97.537430 -0.000009 0.517952
85.820053 -98.805824 -0.000008 0.540261
nan nan nan 0.000000
89.802383 -64.550552 11.172688 1.000000
89.802383 -64.550545 9.727718 1.000000
89.802383 -64.550560 8.299860 1.000000
89.802383 -64.550552 6.885805 1.000000
89.802383 -64.550552 5.482358 1.000000
89.802383 -64.550552 4.086428 1.000000
89.802383 -64.550552 2.694980 1.000000
89.802383 -64.550552 1.305021 1.000000
89.602135 -66.297653 -0.000036 0.539483
87.743782 -82.511276 -0.000022 0.538979
86.945938 -89.472321 -0.000016 0.550500
86.501579 -93.349228 -0.000013 0.574960
86.217896 -95.824303 -0.000011 0.509560
86.020721 -97.544571 -0.000009 0.536629
85.875458 -98.811974 -0.000008 0.540307
nan nan nan 0.000000
90.095161 -64.599014 11.169712 1.000000
90.095161 -64.599022 9.725210 1.000000
90.095161 -64.599022 8.297815 1.000000
90.095161 -64.599022 6.884219 1.000000
90.095161 -64.599014 5.481229 1.000000
90.095161 -64.599014 4.085752 1.000000
90.095161 -64.599014 2.694753 1.000000
90.095161 -64.599014 1.305246 1.000000
89.884392 -66.331009 -0.000036 0.539162
87.912895 -82.531258 -0.000022 0.540261
87.066467 -89.486557 -0.000016 0.543709
86.595055 -93.360275 -0.000013 0.545464
86.294098 -95.833305 -0.000010 0.524605
86.084923 -97.552155 -0.000009 0.535317
85.930809 -98.818520 -0.000008 0.578470
nan nan nan 0.000000
90.387772 -64.647453 11.167186 1.000000
90.387772 -64.647461 9.723080 1.000000
90.387772 -64.647461 8.296082 1.000000
90.387772 -64.647461 6.882874 1.000000
90.387772 -64.647446 5.480269 1.000000
90.387772 -64.647461 4.085175 1.000000
90.387772 -64.647461 2.694562 1.000000
90.387772 -64.647461 1.305438 1.000000
90.166405 -66.366341 -0.000036 0.545510
88.081863 -82.552422 -0.000022 0.537362
87.186897 -89.501648 -0.000016 0.562325
86.688454 -93.371971 -0.000013 0.535592
86.370239 -95.842842 -0.000010 0.523079
86.149071 -97.560181 -0.000010 0.489296
85.986122 -98.825447 -0.000008 0.541909
nan nan nan 0.000000
90.680237 -64.695877 11.165104 1.000000
90.680237 -64.695877 9.721329 1.000000
90.680237 -64.695892 8.294653 1.000000
90.680237 -64.695877 6.881765 1.000000
90.680237 -64.695877 5.479480 1.000000
90.680237 -64.695877 4.084702 1.000000
90.680237 -64.695869 2.694404 1.000000
90.680237 -64.695869 1.305595 1.000000
90.448174 -66.403610 -0.000036 0.540963
88.250679 -82.574760 -0.000023 0.539269
87.307220 -89.517563 -0.000016 0.550637
86.781769 -93.384323 -0.000013 0.532341
86.446312 -95.852905 -0.000011 0.536126
86.213158 -97.568665 -0.000009 0.549599
86.041382 -98.832756 -0.000008 0.526482
nan nan nan 0.000000
90.972580 -64.744278 11.163471 1.000000
90.972580 -64.744278 9.719953 1.000000
90.972572 -64.744286 8.293530 1.000000
90.972580 -64.744278 6.880895 1.000000
90.972580 -64.744278 5.478860 1.000000
90.972580 -64.744278 4.084331 1.000000
90.972580 -64.744278 2.694281 1.000000
90.972580 -64.744278 1.305719 1.000000
90.729668 -66.442871 -0.000036 0.538766
88.419334 -82.598274 -0.000022 0.541207
87.427429 -89.534325 -0.000016 0.549142
86.875000 -93.397324 -0.000013 0.562539
86.522316 -95.863510 -0.000010 0.548928
86.277191 -97.577591 -0.000009 0.518822
86.096588 -98.840454 -0.000008 0.531670
nan nan nan 0.000000
91.264832 -64.792664 11.162285 1.000000
91.264832 -64.792664 9.718954 1.000000
91.264832 -64.792656 8.292717 1.000000
91.264832 -64.792664 6.880263 1.000000
91.264832 -64.792664 5.478410 1.000000
91.264832 -64.792664 4.084060 1.000000
91.264832 -64.792648 2.694190 1.000000
91.264832 -64.792648 1.305809 1.000000
91.010887 -66.484070 -0.000037 0.539788
88.587822 -82.622971 -0.000022 0.545815
87.547523 -89.551926 -0.000016 0.540398
86.968132 -93.410973 -0.000012 0.547845
86.598244 -95.874634 -0.000011 0.555047
86.341156 -97.586967 -0.000009 0.526024
86.151741 -98.848541 -0.000008 0.528283
nan nan nan 0.000000
91.557022 -64.841042 11.161547 1.000000
91.557022 -64.841049 9.718329 1.000000
91.557022 -64.841034 8.292210 1.000000
91.557022 -64.841034 6.879870 1.000000
91.557022 -64.841034 5.478128 1.000000
91.557022 -64.841034 4.083894 1.000000
91.557022 -64.841034 2.694136 1.000000
91.557022 -64.841034 1.305865 1.000000
91.291809 -66.527237 -0.000037 0.538689
88.756126 -82.648849 -0.000022 0.539986
87.667480 -89.570358 -0.000016 0.538109
87.061165 -93.425278 -0.000012 0.534463
86.674088 -95.886292 -0.000010 0.534447
86.405052 -97.596794 -0.000009 0.542779
86.206841 -98.857010 -0.000008 0.575051
nan nan nan 0.000000
91.849182 -64.889404 11.161255 1.000000
91.849182 -64.889404 9.718084 1.000000
91.849182 -64.889397 8.292009 1.000000
91.849182 -64.889404 6.879715 1.000000
91.849182 -64.889404 5.478018 1.000000
91.849182 -64.889389 4.083827 1.000000
91.849182 -64.889397 2.694113 1.000000
91.849182 -64.889397 1.305887 1.000000
91.572426 -66.572372 -0.000037 0.540459
88.924255 -82.675888 -0.000022 0.541390
87.787315 -89.589645 -0.000016 0.539223
87.154099 -93.440216 -0.000013 0.540612
86.749847 -95.898483 -0.000011 0.529610
86.468880 -97.607063 -0.000009 0.568246
86.261871 -98.865860 -0.000008 0.546807
nan nan nan 0.000000
92.141335 -64.937767 11.161410 1.000000
92.141335 -64.937775 9.718215 1.000000
92.141335 -64.937775 8.292114 1.000000
92.141335 -64.937767 6.879797 1.000000
92.141342 -64.937759 5.478078 1.000000
92.141335 -64.937767 4.083861 1.000000
92.141342 -64.937759 2.694125 1.000000
92.141342 -64.937759 1.305876 1.000000
91.852715 -66.619476 -0.000037 0.541146
89.092194 -82.704102 -0.000023 0.542550
87.907005 -89.609756 -0.000016 0.529992
87.246925 -93.455818 -0.000013 0.535134
86.825523 -95.911201 -0.000010 0.528450
86.532631 -97.617775 -0.000009 0.532113
86.316841 -98.875099 -0.000008 0.525078
nan nan nan 0.000000
92.433517 -64.986145 11.162011 1.000000
92.433517 -64.986137 9.718721 1.000000
92.433517 -64.986145 8.292528 1.000000
92.433517 -64.986137 6.880117 1.000000
92.433517 -64.986145 5.478306 1.000000
92.433517 -64.986145 4.083999 1.000000
92.433517 -64.986130 2.694170 1.000000
92.433517 -64.986130 1.305830 1.000000
92.132668 -66.668549 -0.000037 0.537896
89.259926 -82.733490 -0.000022 0.528435
88.026558 -89.630699 -0.000016 0.538369
87.339645 -93.472069 -0.000013 0.577081
86.901108 -95.924438 -0.000011 0.528756
86.596313 -97.628929 -0.000009 0.552331
86.371750 -98.884720 -0.000008 0.540749
nan nan nan 0.000000
92.725746 -65.034531 11.163056 1.000000
92.725746 -65.034531 9.719603 1.000000
92.725746 -65.034523 8.293247 1.000000
92.725746 -65.034515 6.880675 1.000000
92.725746 -65.034523 5.478703 1.000000
92.725746 -65.034515 4.084236 1.000000
92.725746 -65.034515 2.694250 1.000000
92.725746 -65.034515 1.305751 1.000000
92.412270 -66.719559 -0.000037 0.543740
89.427444 -82.764061 -0.000022 0.548806
88.145958 -89.652481 -0.000017 0.530297
87.432243 -93.488960 -0.000013 0.558572
86.976601 -95.938210 -0.000010 0.538689
86.659912 -97.640533 -0.000009 0.570138
86.426590 -98.894722 -0.000008 0.486702
nan nan nan 0.000000
93.018059 -65.082916 11.164553 1.000000
93.018059 -65.082916 9.720864 1.000000
93.018059 -65.082916 8.294273 1.000000
93.018059 -65.082916 6.881472 1.000000
93.018059 -65.082916 5.479271 1.000000
93.018059 -65.082909 4.084576 1.000000
93.018059 -65.082901 2.694363 1.000000
93.018059 -65.082901 1.305637 1.000000
92.691513 -66.772514 -0.000037 0.539300
89.594749 -82.795776 -0.000023 0.536477
88.265205 -89.675102 -0.000016 0.531289
87.524727 -93.506500 -0.000013 0.535500
87.051994 -95.952507 -0.000011 0.548287
86.723427 -97.652580 -0.000009 0.534386
86.481354 -98.905113 -0.000008 0.526696
nan nan nan 0.000000
93.310478 -65.131332 11.166493 1.000000
93.310486 -65.131325 9.722498 1.000000
93.310478 -65.131332 8.295607 1.000000
93.310478 -65.131332 6.882505 1.000000
93.310478 -65.131332 5.480007 1.000000
93.310478 -65.131332 4.085017 1.000000
93.310486 -65.131317 2.694510 1.000000
93.310486 -65.131317 1.305490 1.000000
92.970383 -66.827423 -0.000037 0.541070
89.761833 -82.828674 -0.000023 0.533318
88.384293 -89.698547 -0.000016 0.533104
87.617081 -93.524681 -0.000013 0.548898
87.127281 -95.967331 -0.000011 0.544839
86.786858 -97.665070 -0.000009 0.549966
86.536041 -98.915878 -0.000008 0.514794
nan nan nan 0.000000
93.603035 -65.179764 11.168880 1.000000
93.603043 -65.179764 9.724512 1.000000
93.603043 -65.179764 8.297247 1.000000
93.603043 -65.179764 6.883778 1.000000
93.603043 -65.179756 5.480915 1.000000
93.603043 -65.179764 4.085562 1.000000
93.603043 -65.179764 2.694690 1.000000
93.603043 -65.179764 1.305309 1.000000
93.248863 -66.884262 -0.000037 0.537835
89.928680 -82.862732 -0.000023 0.546029
88.503212 -89.722824 -0.000016 0.548409
87.709305 -93.543510 -0.000013 0.538399
87.202469 -95.982681 -0.000011 0.522408
86.850197 -97.678001 -0.000009 0.507897
86.590660 -98.927025 -0.000008 0.533318
nan nan nan 0.000000
93.895767 -65.228226 11.171721 1.000000
93.895767 -65.228226 9.726904 1.000000
93.895767 -65.228226 8.299197 1.000000
93.895767 -65.228226 6.885291 1.000000
93.895767 -65.228226 5.481992 1.000000
93.895767 -65.228226 4.086208 1.000000
93.895767 -65.228210 2.694907 1.000000
93.895767 -65.228210 1.305094 1.000000
93.526932 -66.943062 -0.000037 0.538521
90.095276 -82.897964 -0.000023 0.528771
88.621956 -89.747925 -0.000017 0.550912
87.801399 -93.562981 -0.000013 0.516716
87.277542 -95.998558 -0.000011 0.550469
86.913445 -97.691376 -0.000009 0.528466
86.645195 -98.938560 -0.000008 0.532998
nan nan nan 0.000000
94.188690 -65.276726 11.175005 1.000000
94.188690 -65.276718 9.729673 1.000000
94.188690 -65.276718 8.301455 1.000000
94.188690 -65.276718 6.887041 1.000000
94.188690 -65.276718 5.483240 1.000000
94.188690 -65.276711 4.086955 1.000000
94.188690 -65.276711 2.695155 1.000000
94.188690 -65.276711 1.304845 1.000000
93.804588 -67.003792 -0.000037 0.540307
90.261635 -82.934357 -0.000023 0.539864
88.740524 -89.773865 -0.000017 0.536095
87.893356 -93.583092 -0.000013 0.513939
87.352509 -96.014954 -0.000010 0.523766
86.976601 -97.705185 -0.000009 0.543160
86.699654 -98.950470 -0.000008 0.559533
nan nan nan 0.000000
94.481834 -65.325256 11.178744 1.000000
94.481834 -65.325249 9.732821 1.000000
94.481834 -65.325249 8.304022 1.000000
94.481834 -65.325256 6.889031 1.000000
94.481834 -65.325241 5.484658 1.000000
94.481834 -65.325249 4.087806 1.000000
94.481842 -65.325241 2.695439 1.000000
94.481842 -65.325241 1.304562 1.000000
94.081818 -67.066452 -0.000037 0.537606
90.427727 -82.971901 -0.000023 0.545129
88.858910 -89.800629 -0.000016 0.542611
87.985168 -93.603851 -0.000013 0.537224
87.427361 -96.031876 -0.000010 0.509773
87.039658 -97.719437 -0.000009 0.549950
86.754021 -98.962761 -0.000008 0.505074
nan nan nan 0.000000
94.775238 -65.373825 11.182933 1.000000
94.775238 -65.373825 9.736349 1.000000
94.775238 -65.373825 8.306896 1.000000
94.775238 -65.373825 6.891261 1.000000
94.775238 -65.373825 5.486248 1.000000
94.775238 -65.373825 4.088758 1.000000
94.775238 -65.373825 2.695756 1.000000
94.775238 -65.373825 1.304244 1.000000
94.358597 -67.131058 -0.000037 0.540185
90.593559 -83.010612 -0.000023 0.552972
88.977104 -89.828217 -0.000016 0.539895
88.076836 -93.625244 -0.000013 0.549874
87.502083 -96.049316 -0.000011 0.559304
87.102615 -97.734138 -0.000009 0.563531
86.808304 -98.975433 -0.000008 0.548257
nan nan nan 0.000000
95.068924 -65.422455 11.187572 1.000000
95.068924 -65.422440 9.740258 1.000000
95.068924 -65.422447 8.310083 1.000000
95.068924 -65.422440 6.893734 1.000000
95.068924 -65.422447 5.488009 1.000000
95.068924 -65.422440 4.089813 1.000000
95.068924 -65.422447 2.696108 1.000000
95.068924 -65.422447 1.303893 1.000000
94.634918 -67.197601 -0.000037 0.542794
90.759117 -83.050476 -0.000023 0.542962
89.095108 -89.856628 -0.000016 0.539940
88.168343 -93.647285 -0.000013 0.546807
87.576691 -96.067284 -0.000011 0.545266
87.165466 -97.749268 -0.000010 0.521248
86.862495 -98.988480 -0.000008 0.575601
nan nan nan 0.000000
95.362915 -65.471123 11.192663 1.000000
95.362915 -65.471115 9.744549 1.000000
95.362915 -65.471115 8.313581 1.000000
95.362915 -65.471115 6.896446 1.000000
95.362915 -65.471115 5.489943 1.000000
95.362915 -65.471115 4.090971 1.000000
95.362915 -65.471115 2.696493 1.000000
95.362915 -65.471115 1.303507 1.000000
94.910774 -67.266060 -0.000037 0.538827
90.924385 -83.091492 -0.000023 0.531273
89.212906 -89.885864 -0.000016 0.528328
88.259705 -93.669960 -0.000013 0.539467
87.651169 -96.085770 -0.000011 0.533181
87.228210 -97.764847 -0.000009 0.553445
86.916595 -99.001907 -0.000008 0.507469
nan nan nan 0.000000
95.657242 -65.519852 11.198209 1.000000
95.657249 -65.519844 9.749222 1.000000
95.657249 -65.519836 8.317392 1.000000
95.657249 -65.519836 6.899401 1.000000
95.657242 -65.519852 5.492049 1.000000
95.657249 -65.519836 4.092234 1.000000
95.657249 -65.519836 2.696912 1.000000
95.657249 -65.519836 1.303087 1.000000
95.186142 -67.336441 -0.000038 0.536645
91.089371 -83.133667 -0.000023 0.538231
89.330498 -89.915924 -0.000016 0.551019
88.350899 -93.693268 -0.000013 0.546410
87.725510 -96.104767 -0.000011 0.507439
87.290848 -97.780853 -0.000009 0.518273
86.970604 -99.015717 -0.000008 0.569970
nan nan nan 0.000000
95.951950 -65.568634 11.204213 1.000000
95.951950 -65.568634 9.754278 1.000000
95.951950 -65.568634 8.321515 1.000000
95.951950 -65.568634 6.902597 1.000000
95.951950 -65.568626 5.494327 1.000000
95.951950 -65.568626 4.093599 1.000000
95.951950 -65.568626 2.697368 1.000000
95.951950 -65.568626 1.302632 1.000000
95.461006 -67.408752 -0.000038 0.545068
91.254059 -83.176987 -0.000023 0.526345
89.447868 -89.946808 -0.000016 0.542626
88.441933 -93.717216 -0.000013 0.551720
87.799721 -96.124290 -0.000010 0.550698
87.353363 -97.797302 -0.000009 0.534539
87.024513 -99.029892 -0.000008 0.546197
nan nan nan 0.000000
96.247055 -65.617493 11.210672 1.000000
96.247047 -65.617500 9.759716 1.000000
96.247055 -65.617493 8.325950 1.000000
96.247055 -65.617493 6.906037 1.000000
96.247055 -65.617493 5.496780 1.000000
96.247055 -65.617485 4.095068 1.000000
96.247055 -65.617485 2.697857 1.000000
96.247055 -65.617485 1.302143 1.000000
95.735359 -67.482994 -0.000037 0.539147
91.418434 -83.221458 -0.000022 0.529198
89.565033 -89.978500 -0.000016 0.542809
88.532791 -93.741798 -0.000013 0.554223
87.873795 -96.144333 -0.000010 0.557961
87.415771 -97.814178 -0.000009 0.554604
87.078323 -99.044449 -0.000008 0.510353
nan nan nan 0.000000
96.542580 -65.666420 11.217590 1.000000
96.542580 -65.666428 9.765547 1.000000
96.542587 -65.666420 8.330702 1.000000
96.542587 -65.666420 6.909723 1.000000
96.542580 -65.666420 5.499406 1.000000
96.542587 -65.666412 4.096641 1.000000
96.542587 -65.666412 2.698381 1.000000
96.542587 -65.666412 1.301619 1.000000
96.009201 -67.559113 -0.000037 0.536919
91.582497 -83.267075 -0.000022 0.530236
89.681969 -90.011017 -0.000016 0.549859
88.623482 -93.767014 -0.000013 0.542367
87.947731 -96.164886 -0.000010 0.505516
87.478058 -97.831497 -0.000009 0.530648
87.132027 -99.059387 -0.000008 0.556619
nan nan nan 0.000000
96.838577 -65.715424 11.224968 1.000000
96.838577 -65.715424 9.771763 1.000000
96.838577 -65.715416 8.335768 1.000000
96.838577 -65.715408 6.913652 1.000000
96.838577 -65.715408 5.502208 1.000000
96.838577 -65.715408 4.098320 1.000000
96.838577 -65.715416 2.698940 1.000000
96.838577 -65.715416 1.301059 1.000000
96.282486 -67.637169 -0.000037 0.539452
91.746239 -83.313843 -0.000023 0.539452
89.798676 -90.044342 -0.000016 0.538598
88.713989 -93.792854 -0.000013 0.536583
88.021515 -96.185959 -0.000010 0.539666
87.540222 -97.849251 -0.000009 0.529091
87.185623 -99.074692 -0.000007 0.527382
nan nan nan 0.000000
97.135056 -65.764511 11.232808 1.000000
97.135056 -65.764503 9.778369 1.000000
97.135056 -65.764496 8.341154 1.000000
97.135056 -65.764503 6.917828 1.000000
97.135056 -65.764496 5.505184 1.000000
97.135056 -65.764496 4.100104 1.000000
97.135056 -65.764496 2.699534 1.000000
97.135056 -65.764496 1.300466 1.000000
96.555237 -67.717133 -0.000037 0.541039
91.909645 -83.361748 -0.000022 0.535988
89.915146 -90.078484 -0.000016 0.533196
88.804321 -93.819336 -0.000013 0.537133
88.095154 -96.207550 -0.000011 0.550896
87.602257 -97.867439 -0.000009 0.545388
87.239113 -99.090370 -0.000008 0.514076
nan nan nan 0.000000
97.432053 -65.813675 11.241114 1.000000
97.432053 -65.813675 9.785364 1.000000
97.432053 -65.813675 8.346857 1.000000
97.432053 -65.813667 6.922254 1.000000
97.432053 -65.813675 5.508337 1.000000
97.432060 -65.813660 4.101993 1.000000
97.432053 -65.813660 2.700164 1.000000
97.432053 -65.813660 1.299837 1.000000
96.827415 -67.798981 -0.000037 0.535210
92.072723 -83.410774 -0.000023 0.533944
90.031380 -90.113441 -0.000017 0.545617
88.894463 -93.846443 -0.000013 0.531075
88.168640 -96.229645 -0.000011 0.586496
87.664169 -97.886063 -0.000009 0.541421
87.292496 -99.106422 -0.000008 0.529503
nan nan nan 0.000000
97.729599 -65.862930 11.249885 1.000000
97.729599 -65.862930 9.792753 1.000000
97.729599 -65.862930 8.352882 1.000000
97.729599 -65.862930 6.926925 1.000000
97.729607 -65.862930 5.511666 1.000000
97.729607 -65.862923 4.103988 1.000000
97.729599 -65.862930 2.700827 1.000000
97.729599 -65.862930 1.299172 1.000000
97.099014 -67.882744 -0.000037 0.542351
92.235451 -83.460960 -0.000023 0.544411
90.147362 -90.149208 -0.000016 0.534066
88.984413 -93.874184 -0.000013 0.548547
88.241966 -96.252258 -0.000011 0.529442
87.725945 -97.905113 -0.000009 0.558083
87.345764 -99.122856 -0.000008 0.551873
nan nan nan 0.000000
98.027725 -65.912292 11.259124 1.000000
98.027733 -65.912292 9.800538 1.000000
98.027733 -65.912285 8.359226 1.000000
98.027733 -65.912285 6.931847 1.000000
98.027733 -65.912277 5.515175 1.000000
98.027733 -65.912285 4.106089 1.000000
98.027733 -65.912285 2.701528 1.000000
98.027733 -65.912285 1.298472 1.000000
97.370018 -67.968391 -0.000037 0.536889
92.397820 -83.512276 -0.000023 0.545892
90.263092 -90.185783 -0.000016 0.545327
89.074165 -93.902550 -0.000013 0.566323
88.315140 -96.275391 -0.000010 0.498634
87.787590 -97.924591 -0.000009 0.527886
87.398911 -99.139648 -0.000008 0.550790
nan nan nan 0.000000
98.326462 -65.961746 11.268833 1.000000
98.326462 -65.961746 9.808717 1.000000
98.326469 -65.961739 8.365897 1.000000
98.326469 -65.961739 6.937017 1.000000
98.326469 -65.961746 5.518859 1.000000
98.326469 -65.961739 4.108298 1.000000
98.326469 -65.961739 2.702263 1.000000
98.326469 -65.961739 1.297736 1.000000
97.640427 -68.055923 -0.000037 0.541253
92.559830 -83.564720 -0.000023 0.536309
90.378563 -90.223160 -0.000016 0.532158
89.163712 -93.931549 -0.000013 0.532662
88.388145 -96.299019 -0.000011 0.531502
87.849091 -97.944504 -0.000009 0.518013
87.451942 -99.156815 -0.000007 0.549386
nan nan nan 0.000000
98.625847 -66.011307 11.279017 1.000000
98.625847 -66.011307 9.817297 1.000000
98.625847 -66.011307 8.372889 1.000000
98.625847 -66.011307 6.942441 1.000000
98.625847 -66.011307 5.522726 1.000000
98.625847 -66.011307 4.110614 1.000000
98.625847 -66.011307 2.703035 1.000000
98.625847 -66.011307 1.296965 1.000000
97.910217 -68.145317 -0.000038 0.535943
92.721466 -83.618301 -0.000023 0.540963
90.493767 -90.261353 -0.000016 0.530800
89.253067 -93.961159 -0.000013 0.541375
88.460983 -96.323166 -0.000011 0.503639
87.910454 -97.964844 -0.000009 0.519738
87.504852 -99.174355 -0.000008 0.545937
nan nan nan 0.000000
98.925903 -66.060989 11.289678 1.000000
98.925896 -66.060989 9.826275 1.000000
98.925903 -66.060982 8.380209 1.000000
98.925903 -66.060982 6.948118 1.000000
98.925903 -66.060982 5.526772 1.000000
98.925903 -66.060974 4.113037 1.000000
98.925903 -66.060974 2.703842 1.000000
98.925903 -66.060974 1.296157 1.000000
98.179375 -68.236633 -0.000039 0.539513
92.882729 -83.673004 -0.000023 0.544121
90.608704 -90.300339 -0.000016 0.534874
89.342201 -93.991402 -0.000013 0.558465
88.533653 -96.347816 -0.000010 0.520653
87.971680 -97.985611 -0.000009 0.537209
87.557640 -99.192261 -0.000007 0.545205
nan nan nan 0.000000
99.226654 -66.110779 11.300811 1.000000
99.226654 -66.110779 9.835659 1.000000
99.226662 -66.110764 8.387859 1.000000
99.226662 -66.110764 6.954052 1.000000
99.226662 -66.110764 5.531002 1.000000
99.226662 -66.110764 4.115571 1.000000
99.226662 -66.110764 2.704687 1.000000
99.226662 -66.110764 1.295313 1.000000
98.447884 -68.329819 -0.000038 0.540551
93.043602 -83.728836 -0.000023 0.544778
90.723373 -90.340134 -0.000016 0.544549
89.431129 -94.022263 -0.000013 0.529702
88.606148 -96.372971 -0.000010 0.511986
88.032753 -98.006805 -0.000009 0.562524
87.610306 -99.210541 -0.000008 0.512703
nan nan nan 0.000000
99.528152 -66.160690 11.312429 1.000000
99.528152 -66.160690 9.845447 1.000000
99.528152 -66.160690 8.395840 1.000000
99.528152 -66.160683 6.960239 1.000000
99.528152 -66.160683 5.535412 1.000000
99.528152 -66.160690 4.118214 1.000000
99.528152 -66.160683 2.705566 1.000000
99.528152 -66.160683 1.294433 1.000000
98.715736 -68.424881 -0.000038 0.538277
93.204086 -83.785789 -0.000023 0.539818
90.837753 -90.380722 -0.000016 0.541192
89.519836 -94.053741 -0.000013 0.535500
88.678467 -96.398636 -0.000011 0.522454
88.093681 -98.028427 -0.000009 0.546105
87.662834 -99.229187 -0.000007 0.546014
nan nan nan 0.000000
99.830414 -66.210732 11.324533 1.000000
99.830414 -66.210739 9.855643 1.000000
99.830414 -66.210732 8.404149 1.000000
99.830414 -66.210724 6.966685 1.000000
99.830414 -66.210739 5.540006 1.000000
99.830414 -66.210724 4.120966 1.000000
99.830414 -66.210724 2.706484 1.000000
99.830414 -66.210724 1.293516 1.000000
98.982925 -68.521805 -0.000038 0.538308
93.364166 -83.843857 -0.000023 0.546334
90.951851 -90.422112 -0.000016 0.537667
89.608322 -94.085838 -0.000013 0.534035
88.750603 -96.424805 -0.000010 0.518441
88.154449 -98.050476 -0.000009 0.553033
87.715240 -99.248192 -0.000008 0.536431
nan nan nan 0.000000
100.133484 -66.260902 11.337123 1.000000
100.133476 -66.260910 9.866247 1.000000
100.133476 -66.260910 8.412796 1.000000
100.133484 -66.260895 6.973392 1.000000
100.133484 -66.260895 5.544787 1.000000
100.133484 -66.260895 4.123830 1.000000
100.133476 -66.260902 2.707438 1.000000
100.133476 -66.260902 1.292562 1.000000
99.249420 -68.620583 -0.000038 0.539162
93.523834 -83.903038 -0.000023 0.531746
91.065659 -90.464294 -0.000016 0.532235
89.696587 -94.118553 -0.000012 0.565682
88.822556 -96.451477 -0.000010 0.530526
88.215073 -98.072945 -0.000009 0.550301
87.767502 -99.267563 -0.000008 0.518334
nan nan nan 0.000000
100.437378 -66.311218 11.350204 1.000000
100.437378 -66.311218 9.877269 1.000000
100.437378 -66.311203 8.421780 1.000000
100.437378 -66.311211 6.980358 1.000000
100.437378 -66.311211 5.549750 1.000000
100.437386 -66.311203 4.126804 1.000000
100.437378 -66.311203 2.708428 1.000000
100.437378 -66.311203 1.291572 1.000000
99.515228 -68.721222 -0.000039 0.541115
93.683090 -83.963341 -0.000023 0.538750
91.179161 -90.507278 -0.000016 0.550774
89.784615 -94.151886 -0.000013 0.544152
88.894318 -96.478653 -0.000010 0.520348
88.275528 -98.095840 -0.000009 0.539071
87.819633 -99.287300 -0.000007 0.579599
nan nan nan 0.000000
100.742142 -66.361679 11.363775 1.000000
100.742142 -66.361679 9.888701 1.000000
100.742142 -66.361679 8.431101 1.000000
100.742142 -66.361664 6.987586 1.000000
100.742142 -66.361664 5.554904 1.000000
100.742142 -66.361664 4.129892 1.000000
100.742142 -66.361664 2.709456 1.000000
100.742142 -66.361664 1.290543 1.000000
99.780327 -68.823715 -0.000038 0.540551
93.841919 -84.024750 -0.000023 0.537789
91.292366 -90.551048 -0.000016 0.544717
89.872406 -94.185829 -0.000013 0.537255
nan nan nan 0.000000
88.335831 -98.119148 -0.000009 0.541192
87.871628 -99.307404 -0.000008 0.491447
nan nan nan 0.000000
101.047806 -66.412277 11.377847 1.000000
101.047806 -66.412277 9.900557 1.000000
101.047813 -66.412277 8.440766 1.000000
101.047813 -66.412277 6.995082 1.000000
101.047813 -66.412277 5.560246 1.000000
101.047813 -66.412277 4.133093 1.000000
101.047813 -66.412277 2.710523 1.000000
101.047813 -66.412277 1.289477 1.000000
100.044701 -68.928070 -0.000038 0.539742
94.000313 -84.087273 -0.000023 0.544396
91.405266 -90.595612 -0.000016 0.540200
89.959969 -94.220390 -0.000013 0.540429
nan nan nan 0.000000
88.395958 -98.142883 -0.000009 0.518929
87.923477 -99.327866 -0.000007 0.524392
nan nan nan 0.000000
101.354416 -66.463043 11.392417 1.000000
101.354416 -66.463043 9.912832 1.000000
101.354416 -66.463036 8.450773 1.000000
101.354416 -66.463036 7.002844 1.000000
101.354416 -66.463036 5.565778 1.000000
101.354416 -66.463043 4.136407 1.000000
101.354416 -66.463036 2.711628 1.000000
101.354416 -66.463036 1.288373 1.000000
100.308334 -69.034264 -0.000038 0.541985
94.158272 -84.150894 -0.000023 0.535851
91.517845 -90.640953 -0.000016 0.538598
90.047279 -94.255554 -0.000013 0.545830
nan nan nan 0.000000
88.455933 -98.167038 -0.000009 0.545510
87.975182 -99.348694 -0.000007 0.521218
nan nan nan 0.000000
101.661987 -66.513962 11.407495 1.000000
101.661987 -66.513962 9.925533 1.000000
101.661987 -66.513954 8.461126 1.000000
101.661987 -66.513954 7.010873 1.000000
101.661987 -66.513962 5.571500 1.000000
101.661987 -66.513947 4.139837 1.000000
101.661995 -66.513947 2.712769 1.000000
101.661995 -66.513947 1.287230 1.000000
100.571228 -69.142288 -0.000038 0.542626
94.315781 -84.215614 -0.000023 0.530510
91.630112 -90.687088 -0.000016 0.535058
90.134346 -94.291336 -0.000013 0.552682
nan nan nan 0.000000
88.515724 -98.191605 -0.000009 0.536187
88.026741 -99.369881 -0.000008 0.547738
nan nan nan 0.000000
101.970566 -66.565048 11.423078 1.000000
101.970566 -66.565048 9.938665 1.000000
101.970566 -66.565041 8.471832 1.000000
101.970566 -66.565048 7.019175 1.000000
101.970566 -66.565041 5.577419 1.000000
101.970566 -66.565033 4.143381 1.000000
101.970566 -66.565033 2.713950 1.000000
101.970566 -66.565033 1.286049 1.000000
100.833359 -69.252151 -0.000038 0.541558
94.472832 -84.281441 -0.000023 0.539117
91.742050 -90.734001 -0.000016 0.536156
90.221153 -94.327713 -0.000013 0.528695
89.250198 -96.621994 -0.000010 0.562829
88.575348 -98.216599 -0.000009 0.501228
88.078148 -99.391426 -0.000008 0.491630
nan nan nan 0.000000
102.280182 -66.616295 11.439176 1.000000
102.280182 -66.616302 9.952225 1.000000
102.280182 -66.616295 8.482887 1.000000
102.280182 -66.616302 7.027749 1.000000
102.280182 -66.616302 5.583529 1.000000
102.280182 -66.616287 4.147043 1.000000
102.280182 -66.616287 2.715170 1.000000
102.280182 -66.616287 1.284830 1.000000
101.094719 -69.363823 -0.000038 0.539101
94.629417 -84.348351 -0.000023 0.545953
91.853661 -90.781693 -0.000016 0.546181
90.307716 -94.364700 -0.000013 0.550088
89.320763 -96.652145 -0.000010 0.548226
88.634796 -98.241997 -0.000009 0.543099
88.129410 -99.413330 -0.000008 0.544335
nan nan nan 0.000000
102.590866 -66.667740 11.455787 1.000000
102.590866 -66.667740 9.966221 1.000000
102.590866 -66.667732 8.494299 1.000000
102.590866 -66.667732 7.036598 1.000000
102.590866 -66.667732 5.589837 1.000000
102.590874 -66.667725 4.150822 1.000000
102.590874 -66.667725 2.716428 1.000000
102.590874 -66.667725 1.283571 1.000000
101.355286 -69.477341 -0.000038 0.541405
94.785538 -84.416359 -0.000023 0.563912
91.964928 -90.830162 -0.000016 0.540368
90.394012 -94.402298 -0.000013 0.537331
89.391113 -96.682793 -0.000010 0.563409
88.694061 -98.267822 -0.000009 0.563699
88.180511 -99.435593 -0.000007 0.526604
nan nan nan 0.000000
102.902672 -66.719360 11.472922 1.000000
102.902664 -66.719360 9.980658 1.000000
102.902664 -66.719360 8.506065 1.000000
102.902672 -66.719360 7.045725 1.000000
102.902672 -66.719353 5.596342 1.000000
102.902672 -66.719360 4.154719 1.000000
102.902672 -66.719353 2.717726 1.000000
102.902672 -66.719353 1.282273 1.000000
101.615059 -69.592667 -0.000038 0.543893
94.941177 -84.485451 -0.000023 0.543893
92.075859 -90.879417 -0.000016 0.536797
90.480042 -94.440491 -0.000013 0.534585
89.461250 -96.713928 -0.000010 0.536141
88.753151 -98.294052 -0.000009 0.511223
88.231461 -99.458214 -0.000007 0.557427
nan nan nan 0.000000
103.215622 -66.771164 11.490583 1.000000
103.215622 -66.771164 9.995538 1.000000
103.215622 -66.771164 8.518194 1.000000
103.215622 -66.771164 7.055132 1.000000
103.215622 -66.771156 5.603047 1.000000
103.215622 -66.771156 4.158736 1.000000
103.215622 -66.771164 2.719065 1.000000
103.215622 -66.771164 1.280935 1.000000
101.874016 -69.709808 -0.000038 0.547784
95.096329 -84.555634 -0.000023 0.539162
92.186447 -90.929436 -0.000016 0.552193
90.565804 -94.479286 -0.000013 0.561669
89.531166 -96.745552 -0.000010 0.505638
88.812057 -98.320694 -0.000009 0.565576
88.282249 -99.481186 -0.000007 0.519478
nan nan nan 0.000000
103.529755 -66.823174 11.508777 1.000000
103.529755 -66.823166 10.010862 1.000000
103.529755 -66.823166 8.530689 1.000000
103.529755 -66.823166 7.064824 1.000000
103.529755 -66.823158 5.609954 1.000000
103.529755 -66.823166 4.162876 1.000000
103.529755 -66.823166 2.720443 1.000000
103.529755 -66.823166 1.279557 1.000000
102.132156 -69.828743 -0.000038 0.538323
95.250992 -84.626900 -0.000023 0.547646
92.296684 -90.980225 -0.000016 0.532586
90.651299 -94.518677 -0.000013 0.539818
89.600861 -96.777664 -0.000010 0.530251
88.870773 -98.347748 -0.000009 0.548302
88.332870 -99.504509 -0.000008 0.503853
nan nan nan 0.000000
103.845108 -66.875374 11.527503 1.000000
103.845108 -66.875381 10.026637 1.000000
103.845108 -66.875381 8.543550 1.000000
103.845108 -66.875374 7.074795 1.000000
103.845108 -66.875374 5.617062 1.000000
103.845108 -66.875381 4.167134 1.000000
103.845108 -66.875366 2.721862 1.000000
103.845108 -66.875366 1.278138 1.000000
102.389465 -69.949463 -0.000038 0.541299
95.405144 -84.699234 -0.000023 0.533654
92.406555 -91.031784 -0.000016 0.536568
90.736511 -94.558662 -0.000013 0.534569
89.670326 -96.810265 -0.000010 0.547814
88.929298 -98.375206 -0.000009 0.581903
88.383339 -99.528191 -0.000008 0.540429
nan nan nan 0.000000
104.161720 -66.927795 11.546767 1.000000
104.161728 -66.927795 10.042870 1.000000
104.161720 -66.927795 8.556782 1.000000
104.161720 -66.927795 7.085058 1.000000
104.161720 -66.927795 5.624375 1.000000
104.161720 -66.927795 4.171517 1.000000
104.161720 -66.927795 2.723322 1.000000
104.161720 -66.927795 1.276679 1.000000
102.645912 -70.072006 -0.000038 0.541833
95.558800 -84.772644 -0.000023 0.542550
92.516068 -91.084106 -0.000016 0.525063
90.821442 -94.599236 -0.000013 0.531899
89.739571 -96.843346 -0.000010 0.521019
88.987625 -98.403084 -0.000008 0.541299
88.433632 -99.552223 -0.000008 0.527596
nan nan nan 0.000000
104.479630 -66.980431 11.566579 1.000000
104.479637 -66.980423 10.059558 1.000000
104.479637 -66.980423 8.570389 1.000000
104.479637 -66.980423 7.095611 1.000000
104.479637 -66.980423 5.631897 1.000000
104.479637 -66.980423 4.176022 1.000000
104.479645 -66.980423 2.724822 1.000000
104.479645 -66.980423 1.275177 1.000000
102.901505 -70.196320 -0.000038 0.543694
95.711929 -84.847130 -0.000023 0.535714
92.625214 -91.137199 -0.000016 0.542687
90.906090 -94.640411 -0.000012 0.547631
89.808578 -96.876907 -0.000010 0.528695
89.045761 -98.431358 -0.000008 0.548424
88.483757 -99.576599 -0.000008 0.538842
nan nan nan 0.000000
104.798882 -67.033279 11.586942 1.000000
104.798882 -67.033279 10.076714 1.000000
104.798882 -67.033279 8.584373 1.000000
104.798889 -67.033272 7.106458 1.000000
104.798889 -67.033279 5.639627 1.000000
104.798889 -67.033279 4.180653 1.000000
104.798889 -67.033279 2.726366 1.000000
104.798889 -67.033279 1.273634 1.000000
103.156212 -70.322433 -0.000038 0.540764
95.864540 -84.922684 -0.000023 0.545510
92.733986 -91.191048 -0.000016 0.540398
90.990440 -94.682175 -0.000012 0.540047
89.877342 -96.910957 -0.000010 0.552514
89.103699 -98.460045 -0.000009 0.547997
88.533714 -99.601334 -0.000008 0.537041
nan nan nan 0.000000
105.119514 -67.086365 11.607861 1.000000
105.119514 -67.086365 10.094336 1.000000
105.119514 -67.086365 8.598740 1.000000
105.119514 -67.086357 7.117597 1.000000
105.119514 -67.086357 5.647569 1.000000
105.119514 -67.086357 4.185412 1.000000
105.119522 -67.086349 2.727950 1.000000
105.119522 -67.086349 1.272050 1.000000
103.410049 -70.450302 -0.000039 0.539635
96.016617 -84.999306 -0.000023 0.537469
92.842384 -91.245659 -0.000016 0.529534
91.074509 -94.724533 -0.000012 0.547692
89.945877 -96.945480 -0.000010 0.538537
89.161438 -98.489128 -0.000009 0.549798
88.583496 -99.626419 -0.000008 0.542718
nan nan nan 0.000000
105.441559 -67.139679 11.629337 1.000000
105.441559 -67.139679 10.112432 1.000000
105.441559 -67.139679 8.613491 1.000000
105.441566 -67.139664 7.129039 1.000000
105.441566 -67.139671 5.655724 1.000000
105.441566 -67.139664 4.190299 1.000000
105.441566 -67.139664 2.729578 1.000000
105.441566 -67.139664 1.270422 1.000000
103.662979 -70.579941 -0.000039 0.539391
96.168159 -85.076981 -0.000023 0.536065
92.950394 -91.301018 -0.000016 0.536919
91.158272 -94.767464 -0.000012 0.547784
90.014160 -96.980484 -0.000010 0.520684
89.218964 -98.518623 -0.000008 0.536126
88.633102 -99.651840 -0.000008 0.527306
nan nan nan 0.000000
105.765068 -67.193237 11.651386 1.000000
105.765068 -67.193237 10.131007 1.000000
105.765068 -67.193237 8.628633 1.000000
105.765068 -67.193237 7.140783 1.000000
105.765068 -67.193230 5.664094 1.000000
105.765076 -67.193222 4.195313 1.000000
105.765076 -67.193230 2.731249 1.000000
105.765076 -67.193230 1.268751 1.000000
103.915001 -70.711349 -0.000039 0.541283
96.319153 -85.155716 -0.000023 0.532403
93.058014 -91.357132 -0.000016 0.553964
91.241737 -94.810982 -0.000012 0.517784
90.082207 -97.015968 -0.000010 0.518273
89.276291 -98.548508 -0.000008 0.578393
88.682526 -99.677612 -0.000007 0.538125
nan nan nan 0.000000
106.090073 -67.247047 11.674008 1.000000
106.090073 -67.247047 10.150064 1.000000
106.090073 -67.247047 8.644171 1.000000
106.090073 -67.247040 7.152833 1.000000
106.090073 -67.247040 5.672683 1.000000
106.090080 -67.247032 4.200458 1.000000
106.090080 -67.247032 2.732962 1.000000
106.090080 -67.247032 1.267037 1.000000
104.166092 -70.844521 -0.000038 0.541711
96.469597 -85.235489 -0.000022 0.549661
93.165237 -91.414001 -0.000016 0.545647
91.324898 -94.855087 -0.000012 0.527962
90.150002 -97.051918 -0.000010 0.569268
89.333405 -98.578796 -0.000008 0.529595
88.731773 -99.703728 -0.000007 0.560922
nan nan nan 0.000000
106.416626 -67.301102 11.697211 1.000000
106.416626 -67.301102 10.169610 1.000000
106.416626 -67.301102 8.660107 1.000000
106.416626 -67.301102 7.165190 1.000000
106.416626 -67.301102 5.681491 1.000000
106.416626 -67.301102 4.205737 1.000000
106.416626 -67.301094 2.734721 1.000000
106.416626 -67.301094 1.265280 1.000000
104.416245 -70.979439 -0.000038 0.540352
96.619476 -85.316330 -0.000023 0.542107
93.272064 -91.471611 -0.000016 0.542870
91.407745 -94.899765 -0.000012 0.541329
90.217537 -97.088341 -0.000010 0.515496
89.390305 -98.609482 -0.000008 0.539010
88.780838 -99.730186 -0.000007 0.567010
nan nan nan 0.000000
106.744759 -67.355431 11.720998 1.000000
106.744759 -67.355431 10.189651 1.000000
106.744759 -67.355431 8.676444 1.000000
106.744766 -67.355415 7.177863 1.000000
106.744766 -67.355423 5.690522 1.000000
106.744766 -67.355423 4.211146 1.000000
106.744766 -67.355423 2.736522 1.000000
106.744766 -67.355423 1.263477 1.000000
104.665459 -71.116089 -0.000038 0.540490
96.768784 -85.398201 -0.000022 0.535653
93.378487 -91.529976 -0.000016 0.561395
91.490280 -94.945030 -0.000012 0.538338
90.284821 -97.125244 -0.000010 0.556741
89.446991 -98.640572 -0.000008 0.507362
88.829712 -99.756989 -0.000007 0.561151
nan nan nan 0.000000
107.074524 -67.410019 11.745378 1.000000
107.074524 -67.410019 10.210194 1.000000
107.074524 -67.410019 8.693191 1.000000
107.074524 -67.410019 7.190846 1.000000
107.074524 -67.410019 5.699779 1.000000
107.074524 -67.410011 4.216691 1.000000
107.074524 -67.410019 2.738370 1.000000
107.074532 -67.410011 1.261630 1.000000
104.913712 -71.254486 -0.000038 0.538552
96.917519 -85.481117 -0.000022 0.546807
93.484497 -91.589073 -0.000016 0.533623
91.572495 -94.990860 -0.000012 0.560052
90.351845 -97.162605 -0.000010 0.545861
89.503456 -98.672043 -0.000008 0.562295
88.878395 -99.784134 -0.000007 0.493156
nan nan nan 0.000000
107.405952 -67.464905 11.770356 1.000000
107.405960 -67.464897 10.231238 1.000000
107.405960 -67.464890 8.710346 1.000000
107.405960 -67.464890 7.204153 1.000000
107.405960 -67.464890 5.709262 1.000000
107.405960 -67.464890 4.222374 1.000000
107.405960 -67.464890 2.740262 1.000000
107.405960 -67.464890 1.259738 1.000000
105.160988 -71.394608 -0.000038 0.543099
97.065674 -85.565071 -0.000022 0.539132
93.590096 -91.648911 -0.000016 0.553872
91.654388 -95.037270 -0.000012 0.541482
90.418610 -97.200439 -0.000010 0.535500
89.559700 -98.703918 -0.000008 0.499641
88.926895 -99.811615 -0.000007 0.530266
nan nan nan 0.000000
107.739120 -67.520050 11.795947 1.000000
107.739120 -67.520050 10.252795 1.000000
107.739120 -67.520050 8.727921 1.000000
107.739128 -67.520050 7.217782 1.000000
107.739128 -67.520042 5.718977 1.000000
107.739128 -67.520050 4.228194 1.000000
107.739128 -67.520050 2.742201 1.000000
107.739128 -67.520042 1.257799 1.000000
105.407288 -71.536461 -0.000038 0.542901
97.213242 -85.650055 -0.000022 0.535744
93.695267 -91.709480 -0.000016 0.547234
91.735954 -95.084244 -0.000012 0.555871
90.485107 -97.238731 -0.000010 0.567666
89.615723 -98.736183 -0.000008 0.545174
88.975197 -99.839432 -0.000007 0.540291
nan nan nan 0.000000
108.074051 -67.575500 11.822150 1.000000
108.074051 -67.575500 10.274870 1.000000
108.074051 -67.575500 8.745916 1.000000
108.074051 -67.575493 7.231741 1.000000
108.074051 -67.575493 5.728924 1.000000
108.074051 -67.575485 4.234155 1.000000
108.074051 -67.575493 2.744185 1.000000
108.074051 -67.575493 1.255813 1.000000
105.652588 -71.680023 -0.000038 0.541680
97.360207 -85.736069 -0.000022 0.535332
93.800018 -91.770790 -0.000016 0.540673
91.817192 -95.131790 -0.000012 0.533806
90.551338 -97.277496 -0.000010 0.542733
89.671516 -98.768837 -0.000008 0.523964
89.023308 -99.867592 -0.000007 0.527565
nan nan nan 0.000000
108.410782 -67.631256 11.848974 1.000000
108.410789 -67.631248 10.297469 1.000000
108.410789 -67.631241 8.764340 1.000000
108.410789 -67.631241 7.246027 1.000000
108.410797 -67.631241 5.739108 1.000000
108.410789 -67.631241 4.240257 1.000000
108.410797 -67.631241 2.746220 1.000000
108.410797 -67.631241 1.253781 1.000000
