# This PCD file was generated using the MATLAB® pcwrite function
# from Computer Vision Toolbox®.
# .PCD v.7 - Point Cloud Data file format
VERSION .7
FIELDS x y z intensity
SIZE 4 4 4 4
TYPE F F F F
COUNT 1 1 1 1
WIDTH 1166
HEIGHT 1
VIEWPOINT 0 0 0 1 0 0 0
POINTS 1166
DATA ascii
96.773117 -249.254471 -0.000013 0.526207
96.172722 -251.672318 -0.000010 0.556161
95.755424 -253.352814 -0.000008 0.535149
95.447975 -254.590927 -0.000007 0.520012
98.441124 -243.112198 6.971340 1.000000
98.441124 -243.112198 6.286477 1.000000
98.441124 -243.112198 5.611230 1.000000
98.441132 -243.112198 4.943980 1.000000
98.441132 -243.112198 4.283179 1.000000
98.441132 -243.112198 3.627337 1.000000
98.441132 -243.112198 2.975006 1.000000
98.441132 -243.112198 2.324770 1.000000
98.441132 -243.112198 1.675230 1.000000
98.441132 -243.112198 1.024994 1.000000
98.441132 -243.112198 0.372663 1.000000
97.831268 -245.496857 -0.000017 0.540002
96.864395 -249.277481 -0.000013 0.553140
96.247131 -251.691071 -0.000010 0.511528
95.818108 -253.368622 -0.000008 0.556634
95.502029 -254.604553 -0.000007 0.506539
98.544510 -243.263748 6.941098 1.000000
98.544510 -243.263748 6.260402 1.000000
98.544510 -243.263748 5.589262 1.000000
98.544510 -243.263748 4.926072 1.000000
98.544510 -243.263748 4.269290 1.000000
98.544510 -243.263748 3.617438 1.000000
98.544518 -243.263748 2.969075 1.000000
98.544518 -243.263748 2.322794 1.000000
98.544518 -243.263748 1.677206 1.000000
98.544510 -243.263748 1.030925 1.000000
98.544510 -243.263748 0.382562 1.000000
97.948746 -245.527328 -0.000017 0.542977
96.955505 -249.301117 -0.000013 0.546319
96.321411 -251.710342 -0.000010 0.527077
95.880692 -253.384857 -0.000008 0.492546
95.555984 -254.618546 -0.000007 0.495735
98.646652 -243.413483 6.911459 1.000000
98.646652 -243.413483 6.234847 1.000000
98.646652 -243.413483 5.567732 1.000000
98.646652 -243.413483 4.908520 1.000000
98.646652 -243.413467 4.255678 1.000000
98.646652 -243.413483 3.607736 1.000000
98.646652 -243.413467 2.963262 1.000000
98.646652 -243.413483 2.320858 1.000000
98.646652 -243.413483 1.679142 1.000000
98.646652 -243.413483 1.036738 1.000000
98.646652 -243.413483 0.392264 1.000000
98.066017 -245.558640 -0.000017 0.539193
97.046448 -249.325394 -0.000013 0.526452
96.395546 -251.730133 -0.000010 0.544060
95.943146 -253.401520 -0.000009 0.531395
95.609840 -254.632919 -0.000007 0.547295
98.747581 -243.561432 6.882412 1.000000
98.747581 -243.561432 6.209801 1.000000
98.747581 -243.561432 5.546632 1.000000
98.747581 -243.561432 4.891318 1.000000
98.747581 -243.561432 4.242338 1.000000
98.747581 -243.561417 3.598228 1.000000
98.747581 -243.561432 2.957564 1.000000
98.747581 -243.561417 2.318961 1.000000
98.747581 -243.561417 1.681040 1.000000
98.747581 -243.561432 1.042435 1.000000
98.747581 -243.561417 0.401772 1.000000
98.183060 -245.590759 -0.000017 0.544793
97.137222 -249.350311 -0.000013 0.519921
96.469551 -251.750443 -0.000010 0.511971
96.005493 -253.418640 -0.000008 0.563653
95.663597 -254.647675 -0.000007 0.517021
98.847328 -243.707642 6.853942 1.000000
98.847328 -243.707642 6.185251 1.000000
98.847328 -243.707642 5.525949 1.000000
98.847328 -243.707642 4.874458 1.000000
98.847328 -243.707642 4.229262 1.000000
98.847328 -243.707642 3.588907 1.000000
98.847328 -243.707642 2.951981 1.000000
98.847328 -243.707642 2.317101 1.000000
98.847328 -243.707642 1.682900 1.000000
98.847328 -243.707642 1.048019 1.000000
98.847328 -243.707642 0.411092 1.000000
98.299873 -245.623688 -0.000017 0.539376
97.227821 -249.375854 -0.000013 0.535622
96.543404 -251.771271 -0.000010 0.554879
96.067719 -253.436172 -0.000009 0.528466
95.717247 -254.662796 -0.000007 0.544823
98.945915 -243.852173 6.826033 1.000000
98.945915 -243.852173 6.161188 1.000000
98.945923 -243.852173 5.505679 1.000000
98.945923 -243.852173 4.857931 1.000000
98.945923 -243.852173 4.216445 1.000000
98.945923 -243.852173 3.579772 1.000000
98.945923 -243.852173 2.946508 1.000000
98.945923 -243.852173 2.315277 1.000000
98.945923 -243.852173 1.684723 1.000000
98.945923 -243.852173 1.053492 1.000000
98.945923 -243.852173 0.420228 1.000000
98.416458 -245.657440 -0.000017 0.546212
97.318237 -249.402023 -0.000013 0.543801
96.617119 -251.792603 -0.000010 0.541482
96.129814 -253.454147 -0.000008 0.533379
95.770790 -254.678299 -0.000007 0.556390
99.043388 -243.995056 6.798678 1.000000
99.043388 -243.995056 6.137602 1.000000
99.043388 -243.995056 5.485807 1.000000
99.043388 -243.995056 4.841733 1.000000
99.043388 -243.995056 4.203882 1.000000
99.043388 -243.995041 3.570817 1.000000
99.043388 -243.995056 2.941143 1.000000
99.043388 -243.995041 2.313491 1.000000
99.043388 -243.995041 1.686510 1.000000
99.043388 -243.995056 1.058857 1.000000
99.043388 -243.995056 0.429182 1.000000
98.532806 -245.692001 -0.000018 0.535302
97.408470 -249.428833 -0.000013 0.546456
96.690674 -251.814453 -0.000011 0.522759
96.191788 -253.472565 -0.000009 0.564889
95.824226 -254.694168 -0.000007 0.560861
99.139771 -244.136322 6.771864 1.000000
99.139771 -244.136337 6.114480 1.000000
99.139771 -244.136322 5.466328 1.000000
99.139771 -244.136337 4.825852 1.000000
99.139771 -244.136322 4.191566 1.000000
99.139771 -244.136322 3.562039 1.000000
99.139771 -244.136322 2.935883 1.000000
99.139771 -244.136322 2.311738 1.000000
99.139771 -244.136322 1.688262 1.000000
99.139771 -244.136322 1.064116 1.000000
99.139771 -244.136322 0.437960 1.000000
98.648911 -245.727386 -0.000018 0.556420
97.498512 -249.456268 -0.000013 0.544366
96.764084 -251.836823 -0.000010 0.535851
96.253624 -253.491409 -0.000009 0.532723
95.877548 -254.710419 -0.000007 0.562432
99.235077 -244.276047 6.745575 1.000000
99.235077 -244.276047 6.091814 1.000000
99.235077 -244.276047 5.447233 1.000000
99.235077 -244.276047 4.810286 1.000000
99.235077 -244.276047 4.179493 1.000000
99.235077 -244.276047 3.553434 1.000000
99.235077 -244.276047 2.930728 1.000000
99.235077 -244.276031 2.310021 1.000000
99.235077 -244.276031 1.689979 1.000000
99.235077 -244.276047 1.069272 1.000000
99.235077 -244.276047 0.446565 1.000000
98.764763 -245.763565 -0.000017 0.551659
97.588356 -249.484329 -0.000014 0.531441
96.837326 -251.859711 -0.000011 0.568429
96.315331 -253.510681 -0.000009 0.538766
95.930756 -254.727036 -0.000007 0.573663
99.329346 -244.414246 6.719804 1.000000
99.329346 -244.414230 6.069593 1.000000
99.329346 -244.414230 5.428513 1.000000
99.329346 -244.414230 4.795023 1.000000
99.329353 -244.414230 4.167657 1.000000
99.329353 -244.414230 3.544998 1.000000
99.329353 -244.414230 2.925673 1.000000
99.329353 -244.414230 2.308338 1.000000
99.329353 -244.414230 1.691662 1.000000
99.329353 -244.414230 1.074327 1.000000
99.329353 -244.414230 0.455001 1.000000
98.880363 -245.800552 -0.000018 0.545983
97.678009 -249.513016 -0.000013 0.545419
96.910416 -251.883087 -0.000011 0.572854
96.376907 -253.530380 -0.000009 0.540368
95.983841 -254.744034 -0.000007 0.540658
99.422607 -244.550934 6.694539 1.000000
99.422607 -244.550934 6.047810 1.000000
99.422607 -244.550934 5.410160 1.000000
99.422607 -244.550934 4.780062 1.000000
99.422607 -244.550934 4.156054 1.000000
99.422607 -244.550934 3.536728 1.000000
99.422607 -244.550934 2.920718 1.000000
99.422607 -244.550934 2.306687 1.000000
99.422607 -244.550934 1.693313 1.000000
99.422607 -244.550934 1.079282 1.000000
99.422607 -244.550934 0.463271 1.000000
98.995697 -245.838364 -0.000017 0.545922
97.767456 -249.542328 -0.000013 0.520287
96.983337 -251.906982 -0.000011 0.517678
96.438339 -253.550507 -0.000009 0.552483
96.036812 -254.761383 -0.000007 0.553262
99.514870 -244.686203 6.669770 1.000000
99.514877 -244.686188 6.026453 1.000000
99.514877 -244.686188 5.392168 1.000000
99.514877 -244.686188 4.765394 1.000000
99.514877 -244.686188 4.144679 1.000000
99.514877 -244.686188 3.528620 1.000000
99.514877 -244.686188 2.915860 1.000000
99.514877 -244.686188 2.305069 1.000000
99.514877 -244.686188 1.694931 1.000000
99.514877 -244.686188 1.084139 1.000000
99.514877 -244.686188 0.471380 1.000000
99.110764 -245.876953 -0.000018 0.536141
97.856697 -249.572266 -0.000013 0.527947
97.056084 -251.931396 -0.000011 0.566323
96.499626 -253.571075 -0.000009 0.557412
96.089661 -254.779114 -0.000007 0.523690
99.606178 -244.820038 6.645486 1.000000
99.606178 -244.820038 6.005513 1.000000
99.606178 -244.820038 5.374527 1.000000
99.606178 -244.820038 4.751013 1.000000
99.606178 -244.820038 4.133525 1.000000
99.606178 -244.820038 3.520671 1.000000
99.606178 -244.820038 2.911098 1.000000
99.606178 -244.820038 2.303482 1.000000
99.606178 -244.820038 1.696518 1.000000
99.606178 -244.820038 1.088902 1.000000
99.606178 -244.820038 0.479329 1.000000
99.225563 -245.916367 -0.000017 0.533349
97.945724 -249.602829 -0.000014 0.554498
97.128662 -251.956314 -0.000011 0.553338
96.560776 -253.592072 -0.000009 0.493263
96.142380 -254.797211 -0.000007 0.516243
99.696541 -244.952499 6.621676 1.000000
99.696541 -244.952499 5.984984 1.000000
99.696541 -244.952499 5.357231 1.000000
99.696541 -244.952499 4.736914 1.000000
99.696541 -244.952499 4.122591 1.000000
99.696541 -244.952499 3.512877 1.000000
99.696541 -244.952499 2.906428 1.000000
99.696541 -244.952499 2.301927 1.000000
99.696541 -244.952499 1.698073 1.000000
99.696541 -244.952499 1.093572 1.000000
99.696541 -244.952499 0.487123 1.000000
99.340080 -245.956573 -0.000018 0.543633
98.034538 -249.634003 -0.000013 0.530510
97.201065 -251.981735 -0.000011 0.528161
96.621773 -253.613480 -0.000009 0.542290
96.194977 -254.815674 -0.000007 0.541772
99.785988 -245.083618 6.598334 1.000000
99.785988 -245.083618 5.964857 1.000000
99.785988 -245.083618 5.340273 1.000000
99.785988 -245.083618 4.723089 1.000000
99.785988 -245.083618 4.111869 1.000000
99.785988 -245.083618 3.505236 1.000000
99.785988 -245.083618 2.901850 1.000000
99.785988 -245.083618 2.300402 1.000000
99.785988 -245.083618 1.699598 1.000000
99.785988 -245.083618 1.098150 1.000000
99.785988 -245.083618 0.494764 1.000000
99.454323 -245.997574 -0.000018 0.526589
98.123138 -249.665817 -0.000014 0.525399
97.273293 -252.007660 -0.000011 0.538033
96.682625 -253.635315 -0.000009 0.577646
96.247444 -254.834518 -0.000007 0.528588
99.874542 -245.213425 6.575447 1.000000
99.874542 -245.213425 5.945123 1.000000
99.874542 -245.213425 5.323649 1.000000
99.874542 -245.213425 4.709537 1.000000
99.874542 -245.213425 4.101358 1.000000
99.874542 -245.213425 3.497744 1.000000
99.874542 -245.213425 2.897361 1.000000
99.874542 -245.213425 2.298907 1.000000
99.874542 -245.213425 1.701093 1.000000
99.874542 -245.213425 1.102638 1.000000
99.874542 -245.213425 0.502256 1.000000
99.568268 -246.039383 -0.000018 0.535531
98.211502 -249.698227 -0.000014 0.533745
97.345337 -252.034088 -0.000011 0.526146
96.743317 -253.657593 -0.000009 0.564675
96.299774 -254.853714 -0.000008 0.517327
99.962219 -245.341949 6.553007 1.000000
99.962219 -245.341949 5.925775 1.000000
99.962219 -245.341949 5.307349 1.000000
99.962219 -245.341949 4.696248 1.000000
99.962219 -245.341949 4.091052 1.000000
99.962219 -245.341949 3.490399 1.000000
99.962219 -245.341949 2.892961 1.000000
99.962219 -245.341949 2.297441 1.000000
99.962219 -245.341949 1.702559 1.000000
99.962219 -245.341949 1.107039 1.000000
99.962219 -245.341949 0.509601 1.000000
99.681915 -246.081970 -0.000018 0.540063
98.299652 -249.731262 -0.000014 0.542977
97.417191 -252.061020 -0.000011 0.530358
96.803848 -253.680267 -0.000009 0.563134
96.351967 -254.873276 -0.000007 0.536431
100.049049 -245.469238 6.531008 1.000000
100.049049 -245.469238 5.906805 1.000000
100.049049 -245.469238 5.291368 1.000000
100.049049 -245.469238 4.683220 1.000000
100.049049 -245.469238 4.080948 1.000000
100.049049 -245.469238 3.483196 1.000000
100.049049 -245.469238 2.888646 1.000000
100.049049 -245.469238 2.296004 1.000000
100.049049 -245.469238 1.703996 1.000000
100.049049 -245.469238 1.111354 1.000000
100.049049 -245.469238 0.516803 1.000000
99.795273 -246.125366 -0.000018 0.537179
98.387558 -249.764908 -0.000014 0.553246
97.488853 -252.088440 -0.000011 0.550851
96.864227 -253.703384 -0.000009 0.520027
96.404030 -254.893204 -0.000007 0.562692
100.135040 -245.595306 6.509436 1.000000
100.135040 -245.595291 5.888207 1.000000
100.135040 -245.595291 5.275700 1.000000
100.135040 -245.595291 4.670445 1.000000
100.135048 -245.595291 4.071043 1.000000
100.135048 -245.595291 3.476136 1.000000
100.135048 -245.595291 2.884415 1.000000
100.135048 -245.595291 2.294595 1.000000
100.135040 -245.595291 1.705406 1.000000
100.135048 -245.595291 1.115585 1.000000
100.135048 -245.595291 0.523864 1.000000
99.908318 -246.169540 -0.000018 0.537896
98.475227 -249.799164 -0.000014 0.550164
97.560333 -252.116379 -0.000011 0.502144
96.924438 -253.726913 -0.000009 0.539345
96.455948 -254.913483 -0.000007 0.543801
100.220230 -245.720169 6.488289 1.000000
100.220230 -245.720169 5.869972 1.000000
100.220230 -245.720169 5.260337 1.000000
100.220230 -245.720169 4.657923 1.000000
100.220230 -245.720169 4.061330 1.000000
100.220230 -245.720169 3.469213 1.000000
100.220230 -245.720169 2.880268 1.000000
100.220230 -245.720169 2.293212 1.000000
100.220230 -245.720169 1.706787 1.000000
100.220230 -245.720169 1.119732 1.000000
100.220230 -245.720169 0.530786 1.000000
100.021049 -246.214508 -0.000018 0.531075
98.562660 -249.834045 -0.000014 0.525917
97.631607 -252.144806 -0.000011 0.543313
96.984489 -253.750870 -0.000009 0.579782
96.507721 -254.934143 -0.000008 0.503380
100.304626 -245.843887 6.467555 1.000000
100.304626 -245.843887 5.852095 1.000000
100.304626 -245.843887 5.245276 1.000000
100.304626 -245.843887 4.645644 1.000000
100.304626 -245.843872 4.051807 1.000000
100.304626 -245.843872 3.462426 1.000000
100.304626 -245.843887 2.876201 1.000000
100.304626 -245.843887 2.291858 1.000000
100.304626 -245.843887 1.708142 1.000000
100.304626 -245.843887 1.123799 1.000000
100.304626 -245.843872 0.537573 1.000000
100.133469 -246.260254 -0.000018 0.534676
98.649849 -249.869522 -0.000014 0.554208
97.702682 -252.173737 -0.000011 0.549432
97.044365 -253.775238 -0.000009 0.518669
96.559357 -254.955154 -0.000008 0.543618
100.388245 -245.966461 6.447227 1.000000
100.388245 -245.966461 5.834568 1.000000
100.388245 -245.966461 5.230510 1.000000
100.388245 -245.966461 4.633607 1.000000
100.388245 -245.966461 4.042472 1.000000
100.388245 -245.966461 3.455771 1.000000
100.388245 -245.966461 2.872215 1.000000
100.388245 -245.966461 2.290530 1.000000
100.388245 -245.966461 1.709469 1.000000
100.388245 -245.966461 1.127785 1.000000
100.388245 -245.966461 0.544228 1.000000
100.245567 -246.306793 -0.000018 0.550546
98.736778 -249.905624 -0.000014 0.544503
97.773552 -252.203156 -0.000011 0.518425
97.104073 -253.800018 -0.000009 0.534234
96.610832 -254.976517 -0.000008 0.523995
100.471115 -246.087936 6.427299 1.000000
100.471115 -246.087936 5.817385 1.000000
100.471115 -246.087936 5.216034 1.000000
100.471115 -246.087936 4.621804 1.000000
100.471115 -246.087936 4.033319 1.000000
100.471115 -246.087936 3.449249 1.000000
100.471115 -246.087936 2.868306 1.000000
100.471115 -246.087936 2.289228 1.000000
100.471115 -246.087936 1.710772 1.000000
100.471115 -246.087936 1.131694 1.000000
100.471115 -246.087936 0.550751 1.000000
100.357338 -246.354111 -0.000019 0.541543
98.823463 -249.942322 -0.000014 0.552407
97.844215 -252.233078 -0.000011 0.557641
97.163605 -253.825226 -0.000009 0.541207
96.662170 -254.998260 -0.000008 0.557076
100.553246 -246.208344 6.407762 1.000000
100.553246 -246.208344 5.800539 1.000000
100.553246 -246.208344 5.201841 1.000000
100.553246 -246.208344 4.610235 1.000000
100.553253 -246.208344 4.024346 1.000000
100.553253 -246.208344 3.442853 1.000000
100.553253 -246.208344 2.864474 1.000000
100.553246 -246.208344 2.287952 1.000000
100.553246 -246.208344 1.712048 1.000000
100.553253 -246.208344 1.135525 1.000000
100.553253 -246.208344 0.557146 1.000000
100.468773 -246.402206 -0.000019 0.535546
98.909882 -249.979614 -0.000014 0.546883
97.914673 -252.263474 -0.000011 0.542748
97.222961 -253.850845 -0.000009 0.519890
96.713348 -255.020340 -0.000008 0.508568
100.634666 -246.327682 6.388611 1.000000
100.634666 -246.327698 5.784025 1.000000
100.634666 -246.327682 5.187930 1.000000
100.634666 -246.327682 4.598894 1.000000
100.634666 -246.327682 4.015551 1.000000
100.634666 -246.327682 3.436584 1.000000
100.634666 -246.327682 2.860718 1.000000
100.634666 -246.327682 2.286701 1.000000
100.634666 -246.327682 1.713299 1.000000
100.634666 -246.327682 1.139282 1.000000
100.634666 -246.327682 0.563415 1.000000
100.579865 -246.451080 -0.000018 0.547967
98.996040 -250.017517 -0.000014 0.550561
97.984909 -252.294373 -0.000011 0.540413
97.282143 -253.876877 -0.000009 0.532525
96.764366 -255.042786 -0.000008 0.565896
100.715378 -246.446014 6.369836 1.000000
100.715378 -246.446014 5.767838 1.000000
100.715378 -246.446014 5.174292 1.000000
100.715378 -246.446014 4.587776 1.000000
100.715378 -246.445999 4.006928 1.000000
100.715378 -246.445999 3.430438 1.000000
100.715378 -246.446014 2.857036 1.000000
100.715378 -246.445999 2.285474 1.000000
100.715378 -246.445999 1.714525 1.000000
100.715378 -246.446014 1.142964 1.000000
100.715378 -246.445999 0.569561 1.000000
100.690620 -246.500732 -0.000018 0.542611
99.081940 -250.056030 -0.000014 0.559915
98.054932 -252.325775 -0.000011 0.522576
97.341133 -253.903320 -0.000009 0.575555
96.815231 -255.065598 -0.000008 0.568093
100.795410 -246.563324 6.351432 1.000000
100.795410 -246.563324 5.751971 1.000000
100.795410 -246.563324 5.160924 1.000000
100.795410 -246.563324 4.576878 1.000000
100.795410 -246.563324 3.998476 1.000000
100.795410 -246.563324 3.424414 1.000000
100.795410 -246.563324 2.853426 1.000000
100.795410 -246.563324 2.284272 1.000000
100.795410 -246.563324 1.715728 1.000000
100.795410 -246.563324 1.146573 1.000000
100.795410 -246.563324 0.575585 1.000000
100.801025 -246.551147 -0.000019 0.538354
99.167557 -250.095123 -0.000014 0.543328
98.124741 -252.357651 -0.000011 0.537133
97.399940 -253.930176 -0.000009 0.538720
96.865936 -255.088745 -0.000008 0.547478
100.874779 -246.679657 6.333395 1.000000
100.874771 -246.679657 5.736416 1.000000
100.874771 -246.679672 5.147820 1.000000
100.874771 -246.679657 4.566195 1.000000
100.874779 -246.679657 3.990191 1.000000
100.874779 -246.679657 3.418510 1.000000
100.874779 -246.679657 2.849889 1.000000
100.874779 -246.679657 2.283094 1.000000
100.874779 -246.679657 1.716906 1.000000
100.874771 -246.679657 1.150111 1.000000
100.874779 -246.679657 0.581490 1.000000
100.874779 -246.679657 0.009809 1.000000
99.252907 -250.134827 -0.000014 0.543740
98.194313 -252.390015 -0.000011 0.631037
97.458557 -253.957443 -0.000009 0.533547
96.916481 -255.112259 -0.000008 0.518990
100.953491 -246.795044 6.315714 1.000000
100.953491 -246.795044 5.721173 1.000000
100.953491 -246.795044 5.134977 1.000000
100.953491 -246.795044 4.555725 1.000000
100.953491 -246.795044 3.982071 1.000000
100.953491 -246.795044 3.412722 1.000000
100.953491 -246.795044 2.846421 1.000000
100.953491 -246.795044 2.281939 1.000000
100.953491 -246.795044 1.718061 1.000000
100.953491 -246.795044 1.153579 1.000000
100.953491 -246.795044 0.587278 1.000000
100.953491 -246.795044 0.017929 1.000000
99.337975 -250.175110 -0.000015 0.542229
98.263664 -252.422852 -0.000011 0.516213
97.516975 -253.985123 -0.000009 0.543160
96.966858 -255.136124 -0.000008 0.561608
101.031563 -246.909500 6.298387 1.000000
101.031563 -246.909500 5.706232 1.000000
101.031563 -246.909500 5.122390 1.000000
101.031563 -246.909500 4.545464 1.000000
101.031563 -246.909500 3.974113 1.000000
101.031570 -246.909500 3.407050 1.000000
101.031563 -246.909500 2.843022 1.000000
101.031563 -246.909500 2.280807 1.000000
101.031563 -246.909500 1.719193 1.000000
101.031563 -246.909500 1.156977 1.000000
101.031570 -246.909500 0.592950 1.000000
101.031563 -246.909500 0.025887 1.000000
99.422760 -250.216003 -0.000015 0.527382
98.332787 -252.456192 -0.000011 0.516655
97.575211 -254.013199 -0.000010 0.533318
97.017067 -255.160339 -0.000008 0.581750
101.109024 -247.023041 6.281405 1.000000
101.109024 -247.023041 5.691589 1.000000
101.109024 -247.023041 5.110054 1.000000
101.109024 -247.023041 4.535408 1.000000
101.109024 -247.023041 3.966314 1.000000
101.109024 -247.023041 3.401491 1.000000
101.109024 -247.023041 2.839692 1.000000
101.109024 -247.023041 2.279697 1.000000
101.109024 -247.023041 1.720303 1.000000
101.109024 -247.023041 1.160308 1.000000
101.109024 -247.023041 0.598508 1.000000
101.109024 -247.023041 0.033686 1.000000
99.507263 -250.257477 -0.000014 0.539239
98.401672 -252.490005 -0.000012 0.527062
97.633240 -254.041687 -0.000010 0.535241
97.067101 -255.184891 -0.000008 0.578683
101.185875 -247.135696 6.264765 1.000000
101.185875 -247.135696 5.677241 1.000000
101.185875 -247.135696 5.097966 1.000000
101.185875 -247.135696 4.525553 1.000000
101.185875 -247.135696 3.958672 1.000000
101.185875 -247.135696 3.396044 1.000000
101.185875 -247.135696 2.836428 1.000000
101.185875 -247.135696 2.278611 1.000000
101.185875 -247.135696 1.721390 1.000000
101.185875 -247.135696 1.163571 1.000000
101.185875 -247.135696 0.603955 1.000000
101.185875 -247.135696 0.041328 1.000000
99.591469 -250.299545 -0.000014 0.545785
98.470314 -252.524307 -0.000011 0.541405
97.691078 -254.070587 -0.000010 0.520394
97.116966 -255.209808 -0.000008 0.550286
101.262131 -247.247482 6.248459 1.000000
101.262131 -247.247482 5.663183 1.000000
101.262131 -247.247482 5.086122 1.000000
101.262131 -247.247482 4.515897 1.000000
101.262131 -247.247482 3.951183 1.000000
101.262131 -247.247482 3.390706 1.000000
101.262131 -247.247482 2.833231 1.000000
101.262131 -247.247482 2.277545 1.000000
101.262131 -247.247482 1.722455 1.000000
101.262131 -247.247482 1.166769 1.000000
101.262131 -247.247482 0.609293 1.000000
101.262131 -247.247482 0.048817 1.000000
99.675377 -250.342209 -0.000015 0.553918
98.538719 -252.559067 -0.000011 0.556039
97.748711 -254.099869 -0.000010 0.515740
97.166656 -255.235062 -0.000008 0.552438
101.337814 -247.358429 6.232483 1.000000
101.337814 -247.358429 5.649407 1.000000
101.337814 -247.358429 5.074518 1.000000
101.337814 -247.358429 4.506436 1.000000
101.337814 -247.358414 3.943846 1.000000
101.337814 -247.358429 3.385477 1.000000
101.337814 -247.358429 2.830097 1.000000
101.337814 -247.358429 2.276501 1.000000
101.337814 -247.358429 1.723498 1.000000
101.337814 -247.358429 1.169902 1.000000
101.337814 -247.358429 0.614523 1.000000
101.337814 -247.358429 0.056154 1.000000
99.758987 -250.385437 -0.000015 0.516884
98.606880 -252.594330 -0.000011 0.540246
97.806129 -254.129578 -0.000010 0.540536
97.216171 -255.260666 -0.000008 0.525643
101.412933 -247.468536 6.216832 1.000000
101.412933 -247.468536 5.635911 1.000000
101.412933 -247.468536 5.063148 1.000000
101.412933 -247.468536 4.497168 1.000000
101.412933 -247.468536 3.936657 1.000000
101.412933 -247.468536 3.380353 1.000000
101.412933 -247.468536 2.827028 1.000000
101.412933 -247.468536 2.275479 1.000000
101.412933 -247.468536 1.724521 1.000000
101.412933 -247.468536 1.172972 1.000000
101.412933 -247.468536 0.619646 1.000000
101.412933 -247.468536 0.063342 1.000000
99.842293 -250.429260 -0.000015 0.545769
98.674797 -252.630051 -0.000011 0.540230
97.863350 -254.159668 -0.000010 0.528756
97.265511 -255.286621 -0.000008 0.528588
101.487495 -247.577850 6.201499 1.000000
101.487495 -247.577850 5.622691 1.000000
101.487495 -247.577850 5.052010 1.000000
101.487495 -247.577850 4.488089 1.000000
101.487495 -247.577850 3.929615 1.000000
101.487503 -247.577850 3.375334 1.000000
101.487503 -247.577850 2.824020 1.000000
101.487495 -247.577850 2.274477 1.000000
101.487495 -247.577850 1.725523 1.000000
101.487503 -247.577850 1.175979 1.000000
101.487503 -247.577850 0.624665 1.000000
101.487495 -247.577850 0.070385 1.000000
99.925293 -250.473663 -0.000015 0.529168
98.742462 -252.666245 -0.000011 0.520638
97.920349 -254.190155 -0.000010 0.519127
97.314659 -255.312912 -0.000008 0.531823
101.561531 -247.686371 6.186482 1.000000
101.561531 -247.686371 5.609742 1.000000
101.561531 -247.686371 5.041101 1.000000
101.561531 -247.686371 4.479195 1.000000
101.561531 -247.686371 3.922719 1.000000
101.561531 -247.686371 3.370419 1.000000
101.561531 -247.686371 2.821075 1.000000
101.561531 -247.686371 2.273496 1.000000
101.561531 -247.686371 1.726503 1.000000
101.561531 -247.686371 1.178925 1.000000
101.561531 -247.686371 0.629581 1.000000
101.561531 -247.686371 0.077281 1.000000
100.007980 -250.518646 -0.000015 0.554711
98.809868 -252.702911 -0.000011 0.535836
97.977142 -254.221054 -0.000010 0.519127
97.363625 -255.339554 -0.000008 0.540200
101.635040 -247.794128 6.171773 1.000000
101.635040 -247.794128 5.597060 1.000000
101.635040 -247.794128 5.030417 1.000000
101.635040 -247.794128 4.470485 1.000000
101.635040 -247.794128 3.915964 1.000000
101.635040 -247.794128 3.365604 1.000000
101.635040 -247.794128 2.818190 1.000000
101.635040 -247.794128 2.272535 1.000000
101.635040 -247.794128 1.727465 1.000000
101.635040 -247.794128 1.181809 1.000000
101.635040 -247.794128 0.634395 1.000000
101.635040 -247.794128 0.084036 1.000000
100.090347 -250.564209 -0.000015 0.536675
98.877022 -252.740051 -0.000012 0.529259
98.033714 -254.252350 -0.000010 0.561807
97.412399 -255.366531 -0.000008 0.513405
101.708038 -247.901138 6.157370 1.000000
101.708038 -247.901138 5.584642 1.000000
101.708038 -247.901138 5.019955 1.000000
101.708038 -247.901138 4.461956 1.000000
101.708038 -247.901138 3.909349 1.000000
101.708038 -247.901138 3.360889 1.000000
101.708038 -247.901138 2.815366 1.000000
101.708038 -247.901123 2.271595 1.000000
101.708038 -247.901123 1.728405 1.000000
101.708038 -247.901138 1.184634 1.000000
101.708038 -247.901138 0.639110 1.000000
101.708038 -247.901138 0.090651 1.000000
100.172401 -250.610336 -0.000015 0.542977
98.943909 -252.777664 -0.000012 0.529976
98.090065 -254.284027 -0.000010 0.541146
97.460991 -255.393845 -0.000008 0.579355
101.780533 -248.007416 6.143267 1.000000
101.780533 -248.007401 5.572482 1.000000
101.780533 -248.007401 5.009710 1.000000
101.780533 -248.007401 4.453604 1.000000
101.780533 -248.007401 3.902872 1.000000
101.780533 -248.007401 3.356272 1.000000
101.780533 -248.007401 2.812600 1.000000
101.780533 -248.007401 2.270673 1.000000
101.780533 -248.007401 1.729327 1.000000
101.780533 -248.007401 1.187400 1.000000
101.780533 -248.007401 0.643727 1.000000
101.780533 -248.007401 0.097128 1.000000
100.254120 -250.657043 -0.000015 0.535180
99.010536 -252.815735 -0.000012 0.538430
98.146194 -254.316101 -0.000010 0.549966
97.509392 -255.421509 -0.000009 0.567559
101.852539 -248.112976 6.129461 1.000000
101.852547 -248.112961 5.560577 1.000000
101.852547 -248.112961 4.999681 1.000000
101.852547 -248.112961 4.445428 1.000000
101.852547 -248.112961 3.896532 1.000000
101.852547 -248.112961 3.351753 1.000000
101.852547 -248.112961 2.809892 1.000000
101.852547 -248.112961 2.269771 1.000000
101.852547 -248.112961 1.730229 1.000000
101.852547 -248.112961 1.190108 1.000000
101.852547 -248.112961 0.648247 1.000000
101.852547 -248.112961 0.103469 1.000000
100.335526 -250.704300 -0.000015 0.533349
99.076897 -252.854263 -0.000012 0.531090
98.202095 -254.348572 -0.000010 0.657725
97.557594 -255.449493 -0.000009 0.537682
101.924080 -248.217834 6.115946 1.000000
101.924080 -248.217834 5.548924 1.000000
101.924080 -248.217834 4.989863 1.000000
101.924080 -248.217834 4.437424 1.000000
101.924080 -248.217834 3.890324 1.000000
101.924080 -248.217834 3.347328 1.000000
101.924080 -248.217834 2.807241 1.000000
101.924080 -248.217834 2.268888 1.000000
101.924080 -248.217834 1.731112 1.000000
101.924080 -248.217834 1.192758 1.000000
101.924080 -248.217834 0.652671 1.000000
101.924080 -248.217834 0.109676 1.000000
100.416588 -250.752136 -0.000015 0.553262
99.142982 -252.893265 -0.000012 0.545846
98.257774 -254.381424 -0.000010 0.527993
97.605598 -255.477829 -0.000009 0.522622
101.995155 -248.322021 6.102717 1.000000
101.995155 -248.322021 5.537519 1.000000
101.995155 -248.322021 4.980254 1.000000
101.995155 -248.322021 4.429591 1.000000
101.995155 -248.322006 3.884250 1.000000
101.995155 -248.322021 3.342999 1.000000
101.995155 -248.322021 2.804647 1.000000
101.995155 -248.322021 2.268024 1.000000
101.995155 -248.322021 1.731976 1.000000
101.995155 -248.322021 1.195353 1.000000
101.995155 -248.322021 0.657001 1.000000
101.995155 -248.322021 0.115751 1.000000
100.497322 -250.800552 -0.000015 0.542107
99.208794 -252.932724 -0.000012 0.564569
98.313217 -254.414673 -0.000010 0.540429
97.653404 -255.506485 -0.000009 0.527382
102.065773 -248.425537 6.089775 1.000000
102.065773 -248.425537 5.526358 1.000000
102.065773 -248.425537 4.970851 1.000000
102.065773 -248.425537 4.421925 1.000000
102.065773 -248.425537 3.878304 1.000000
102.065773 -248.425537 3.338761 1.000000
102.065773 -248.425537 2.802108 1.000000
102.065773 -248.425537 2.267179 1.000000
102.065773 -248.425537 1.732822 1.000000
102.065773 -248.425537 1.197891 1.000000
102.065773 -248.425537 0.661238 1.000000
102.065773 -248.425537 0.121696 1.000000
100.577713 -250.849518 -0.000015 0.542428
99.274330 -252.972641 -0.000012 0.512062
98.368431 -254.448288 -0.000010 0.548562
97.701012 -255.535492 -0.000009 0.539879
102.135956 -248.528412 6.077110 1.000000
102.135956 -248.528412 5.515438 1.000000
102.135956 -248.528412 4.961652 1.000000
102.135956 -248.528412 4.414424 1.000000
102.135956 -248.528412 3.872487 1.000000
102.135956 -248.528412 3.334616 1.000000
102.135956 -248.528412 2.799624 1.000000
102.135956 -248.528412 2.266351 1.000000
102.135956 -248.528412 1.733649 1.000000
102.135956 -248.528412 1.200375 1.000000
102.135956 -248.528412 0.665383 1.000000
102.135956 -248.528412 0.127513 1.000000
100.657761 -250.899033 -0.000015 0.524727
99.339584 -253.013016 -0.000012 0.547463
98.423409 -254.482315 -0.000010 0.559365
97.748413 -255.564819 -0.000009 0.531502
102.205704 -248.630661 6.064720 1.000000
102.205704 -248.630661 5.504755 1.000000
102.205704 -248.630661 4.952652 1.000000
102.205704 -248.630661 4.407088 1.000000
102.205704 -248.630661 3.866797 1.000000
102.205704 -248.630661 3.330560 1.000000
102.205704 -248.630661 2.797195 1.000000
102.205704 -248.630661 2.265542 1.000000
102.205704 -248.630661 1.734458 1.000000
102.205704 -248.630661 1.202805 1.000000
102.205704 -248.630661 0.669439 1.000000
102.205704 -248.630661 0.133203 1.000000
100.737457 -250.949127 -0.000015 0.535348
99.404556 -253.053848 -0.000012 0.572671
98.478149 -254.516708 -0.000010 0.543099
97.795609 -255.594482 -0.000009 0.571450
102.275040 -248.732300 6.052603 1.000000
102.275040 -248.732300 5.494307 1.000000
102.275040 -248.732300 4.943850 1.000000
102.275040 -248.732300 4.399913 1.000000
102.275040 -248.732300 3.861233 1.000000
102.275040 -248.732300 3.326594 1.000000
102.275040 -248.732300 2.794818 1.000000
102.275040 -248.732300 2.264750 1.000000
102.275040 -248.732300 1.735250 1.000000
102.275040 -248.732300 1.205182 1.000000
102.275040 -248.732300 0.673406 1.000000
102.275040 -248.732300 0.138768 1.000000
100.816803 -250.999756 -0.000015 0.546151
99.469246 -253.095123 -0.000012 0.553780
98.532646 -254.551483 -0.000010 0.566812
97.842598 -255.624466 -0.000009 0.525521
102.343964 -248.833328 6.040754 1.000000
102.343956 -248.833328 5.484090 1.000000
102.343956 -248.833328 4.935242 1.000000
102.343964 -248.833328 4.392896 1.000000
102.343964 -248.833328 3.855791 1.000000
102.343964 -248.833328 3.322715 1.000000
102.343956 -248.833328 2.792494 1.000000
102.343964 -248.833328 2.263976 1.000000
102.343964 -248.833328 1.736024 1.000000
102.343956 -248.833328 1.207506 1.000000
102.343964 -248.833328 0.677284 1.000000
102.343964 -248.833328 0.144209 1.000000
100.895798 -251.050949 -0.000015 0.541482
99.533646 -253.136856 -0.000012 0.563561
98.586899 -254.586639 -0.000010 0.539437
97.889381 -255.654770 -0.000009 0.552163
102.412483 -248.933777 6.029170 1.000000
102.412483 -248.933777 5.474102 1.000000
102.412483 -248.933777 4.926827 1.000000
102.412483 -248.933777 4.386036 1.000000
102.412483 -248.933777 3.850471 1.000000
102.412483 -248.933777 3.318923 1.000000
102.412483 -248.933777 2.790222 1.000000
102.412483 -248.933777 2.263219 1.000000
102.412483 -248.933777 1.736781 1.000000
102.412483 -248.933777 1.209777 1.000000
102.412483 -248.933777 0.681077 1.000000
102.412483 -248.933777 0.149529 1.000000
100.974426 -251.102692 -0.000015 0.543832
99.597748 -253.179047 -0.000012 0.517067
98.640900 -254.622177 -0.000010 0.559075
97.935944 -255.685425 -0.000009 0.541039
102.480621 -249.033661 6.017848 1.000000
102.480614 -249.033661 5.464339 1.000000
102.480621 -249.033661 4.918604 1.000000
102.480621 -249.033661 4.379332 1.000000
102.480621 -249.033661 3.845270 1.000000
102.480621 -249.033661 3.315217 1.000000
102.480621 -249.033661 2.788001 1.000000
102.480621 -249.033661 2.262480 1.000000
102.480621 -249.033661 1.737520 1.000000
102.480621 -249.033661 1.211998 1.000000
102.480621 -249.033661 0.684783 1.000000
102.480621 -249.033661 0.154730 1.000000
101.052696 -251.154984 -0.000015 0.534173
99.661552 -253.221664 -0.000012 0.538949
98.694656 -254.658096 -0.000010 0.524895
97.982292 -255.716385 -0.000009 0.497108
102.548378 -249.132980 6.006783 1.000000
102.548370 -249.132980 5.454799 1.000000
102.548370 -249.132980 4.910567 1.000000
102.548370 -249.132980 4.372779 1.000000
102.548370 -249.132980 3.840189 1.000000
102.548378 -249.132980 3.311595 1.000000
102.548378 -249.132980 2.785832 1.000000
102.548378 -249.132980 2.261757 1.000000
102.548378 -249.132980 1.738243 1.000000
102.548378 -249.132980 1.214168 1.000000
102.548378 -249.132980 0.688404 1.000000
102.548370 -249.132980 0.159811 1.000000
101.130600 -251.207809 -0.000015 0.536477
99.725060 -253.264740 -0.000012 0.544717
98.748161 -254.694382 -0.000010 0.521920
98.028427 -255.747665 -0.000009 0.565942
102.615761 -249.231766 5.995975 1.000000
102.615761 -249.231766 5.445479 1.000000
102.615761 -249.231766 4.902715 1.000000
102.615761 -249.231766 4.366378 1.000000
102.615761 -249.231766 3.835224 1.000000
102.615761 -249.231766 3.308057 1.000000
102.615761 -249.231766 2.783711 1.000000
102.615761 -249.231766 2.261051 1.000000
102.615768 -249.231766 1.738949 1.000000
102.615761 -249.231766 1.216288 1.000000
102.615761 -249.231766 0.691943 1.000000
102.615761 -249.231766 0.164775 1.000000
101.208130 -251.261200 -0.000015 0.526650
99.788269 -253.308258 -0.000012 0.549340
98.801407 -254.731033 -0.000010 0.510872
98.074341 -255.779282 -0.000009 0.545144
102.682793 -249.330017 5.985417 1.000000
102.682793 -249.330017 5.436377 1.000000
102.682793 -249.330017 4.895045 1.000000
102.682793 -249.330017 4.360126 1.000000
102.682793 -249.330017 3.830377 1.000000
102.682793 -249.330017 3.304601 1.000000
102.682793 -249.330017 2.781641 1.000000
102.682793 -249.330017 2.260361 1.000000
102.682793 -249.330017 1.739639 1.000000
102.682793 -249.330017 1.218359 1.000000
102.682793 -249.330017 0.695399 1.000000
102.682793 -249.330017 0.169623 1.000000
101.285286 -251.315109 -0.000015 0.541665
99.851166 -253.352203 -0.000012 0.561151
98.854401 -254.768066 -0.000010 0.537682
98.120033 -255.811203 -0.000009 0.569024
102.749474 -249.427765 5.975109 1.000000
102.749474 -249.427765 5.427489 1.000000
102.749466 -249.427765 4.887558 1.000000
102.749474 -249.427765 4.354022 1.000000
102.749474 -249.427765 3.825642 1.000000
102.749474 -249.427765 3.301227 1.000000
102.749474 -249.427765 2.779620 1.000000
102.749474 -249.427765 2.259688 1.000000
102.749474 -249.427765 1.740312 1.000000
102.749474 -249.427765 1.220380 1.000000
102.749474 -249.427765 0.698773 1.000000
102.749474 -249.427765 0.174358 1.000000
101.362068 -251.369568 -0.000015 0.504570
99.913757 -253.396606 -0.000012 0.540871
98.907135 -254.805466 -0.000010 0.549783
98.165497 -255.843460 -0.000009 0.525750
102.815804 -249.525009 5.965046 1.000000
102.815804 -249.525009 5.418813 1.000000
102.815804 -249.525009 4.880248 1.000000
102.815811 -249.525009 4.348063 1.000000
102.815811 -249.525009 3.821021 1.000000
102.815811 -249.525009 3.297933 1.000000
102.815811 -249.525009 2.777646 1.000000
102.815811 -249.525009 2.259030 1.000000
102.815811 -249.525009 1.740970 1.000000
102.815811 -249.525009 1.222354 1.000000
102.815811 -249.525009 0.702067 1.000000
102.815811 -249.525009 0.178980 1.000000
101.438461 -251.424545 -0.000015 0.555856
99.976044 -253.441437 -0.000012 0.539879
98.959602 -254.843231 -0.000010 0.522606
98.210739 -255.876022 -0.000009 0.559350
102.881813 -249.621765 5.955227 1.000000
102.881813 -249.621765 5.410345 1.000000
102.881813 -249.621765 4.873115 1.000000
102.881813 -249.621765 4.342247 1.000000
102.881813 -249.621765 3.816511 1.000000
102.881813 -249.621765 3.294718 1.000000
102.881813 -249.621765 2.775720 1.000000
102.881813 -249.621765 2.258389 1.000000
102.881813 -249.621765 1.741611 1.000000
102.881813 -249.621765 1.224280 1.000000
102.881813 -249.621765 0.705281 1.000000
102.881813 -249.621765 0.183490 1.000000
101.514481 -251.480072 -0.000015 0.540978
100.038010 -253.486694 -0.000012 0.518593
99.011810 -254.881363 -0.000010 0.533944
98.255753 -255.908890 -0.000009 0.514382
102.947495 -249.718048 5.945648 1.000000
102.947495 -249.718048 5.402086 1.000000
102.947495 -249.718048 4.866157 1.000000
102.947495 -249.718048 4.336575 1.000000
102.947495 -249.718048 3.812111 1.000000
102.947495 -249.718048 3.291583 1.000000
102.947495 -249.718048 2.773842 1.000000
102.947495 -249.718048 2.257763 1.000000
102.947495 -249.718048 1.742237 1.000000
102.947495 -249.718048 1.226158 1.000000
102.947495 -249.718048 0.708417 1.000000
102.947495 -249.718048 0.187889 1.000000
101.590096 -251.536118 -0.000015 0.539635
100.099655 -253.532379 -0.000012 0.545495
99.063744 -254.919861 -0.000010 0.561883
98.300537 -255.942093 -0.000009 0.530373
103.012863 -249.813873 5.936307 1.000000
103.012863 -249.813873 5.394032 1.000000
103.012863 -249.813873 4.859370 1.000000
103.012863 -249.813873 4.331043 1.000000
103.012863 -249.813873 3.807821 1.000000
103.012863 -249.813873 3.288525 1.000000
103.012871 -249.813873 2.772010 1.000000
103.012863 -249.813873 2.257153 1.000000
103.012863 -249.813873 1.742847 1.000000
103.012871 -249.813873 1.227990 1.000000
103.012863 -249.813873 0.711475 1.000000
103.012863 -249.813873 0.192179 1.000000
101.665329 -251.592697 -0.000015 0.534951
100.160988 -253.578506 -0.000012 0.523857
99.115417 -254.958725 -0.000010 0.562905
98.345085 -255.975601 -0.000009 0.537835
103.077927 -249.909256 5.927199 1.000000
103.077927 -249.909256 5.386181 1.000000
103.077927 -249.909256 4.852756 1.000000
103.077927 -249.909256 4.325651 1.000000
103.077927 -249.909241 3.803639 1.000000
103.077927 -249.909256 3.285544 1.000000
103.077927 -249.909256 2.770223 1.000000
103.077927 -249.909241 2.256558 1.000000
103.077927 -249.909241 1.743442 1.000000
103.077927 -249.909256 1.229776 1.000000
103.077927 -249.909256 0.714456 1.000000
103.077927 -249.909241 0.196361 1.000000
101.740158 -251.649796 -0.000015 0.533349
100.221992 -253.625061 -0.000012 0.534142
99.166809 -254.997940 -0.000010 0.512535
98.389404 -256.009399 -0.000009 0.531456
103.142693 -250.004196 5.918325 1.000000
103.142693 -250.004196 5.378529 1.000000
103.142693 -250.004196 4.846310 1.000000
103.142693 -250.004196 4.320395 1.000000
103.142700 -250.004181 3.799564 1.000000
103.142693 -250.004196 3.282639 1.000000
103.142700 -250.004181 2.768483 1.000000
103.142700 -250.004181 2.255978 1.000000
103.142700 -250.004181 1.744022 1.000000
103.142700 -250.004181 1.231517 1.000000
103.142693 -250.004196 0.717360 1.000000
103.142693 -250.004196 0.200436 1.000000
101.814590 -251.707428 -0.000015 0.536675
100.282669 -253.672028 -0.000012 0.550683
99.217926 -255.037506 -0.000010 0.528237
98.433479 -256.043518 -0.000009 0.528984
103.207169 -250.098709 5.909682 1.000000
103.207169 -250.098709 5.371076 1.000000
103.207169 -250.098709 4.840032 1.000000
103.207169 -250.098709 4.315277 1.000000
103.207176 -250.098709 3.795594 1.000000
103.207169 -250.098709 3.279810 1.000000
103.207176 -250.098709 2.766788 1.000000
103.207176 -250.098709 2.255414 1.000000
103.207176 -250.098709 1.744587 1.000000
103.207176 -250.098709 1.233212 1.000000
103.207169 -250.098709 0.720190 1.000000
103.207176 -250.098709 0.204406 1.000000
101.888618 -251.765564 -0.000015 0.538811
100.343018 -253.719421 -0.000013 0.548043
99.268768 -255.077438 -0.000010 0.501442
98.477318 -256.077972 -0.000009 0.515114
103.271370 -250.192810 5.901266 1.000000
103.271370 -250.192810 5.363819 1.000000
103.271370 -250.192810 4.833918 1.000000
103.271370 -250.192810 4.310293 1.000000
103.271370 -250.192810 3.791728 1.000000
103.271370 -250.192810 3.277055 1.000000
103.271370 -250.192810 2.765137 1.000000
103.271370 -250.192810 2.254864 1.000000
103.271370 -250.192810 1.745136 1.000000
103.271370 -250.192810 1.234863 1.000000
103.271370 -250.192810 0.722945 1.000000
103.271370 -250.192810 0.208272 1.000000
101.962234 -251.824219 -0.000015 0.540963
100.403038 -253.767242 -0.000012 0.532631
99.319336 -255.117722 -0.000010 0.538262
98.520912 -256.112701 -0.000009 0.531106
103.335289 -250.286530 5.893075 1.000000
103.335297 -250.286514 5.356757 1.000000
103.335297 -250.286514 4.827969 1.000000
103.335297 -250.286514 4.305443 1.000000
103.335297 -250.286514 3.787967 1.000000
103.335297 -250.286514 3.274374 1.000000
103.335297 -250.286514 2.763531 1.000000
103.335297 -250.286514 2.254328 1.000000
103.335297 -250.286514 1.745672 1.000000
103.335297 -250.286514 1.236469 1.000000
103.335297 -250.286514 0.725625 1.000000
103.335297 -250.286514 0.212033 1.000000
102.035446 -251.883377 -0.000015 0.538689
100.462715 -253.815491 -0.000012 0.545495
99.369614 -255.158371 -0.000010 0.546304
98.564270 -256.147736 -0.000009 0.560723
103.398949 -250.379837 5.885109 1.000000
103.398949 -250.379837 5.349888 1.000000
103.398956 -250.379837 4.822182 1.000000
103.398949 -250.379837 4.300725 1.000000
103.398949 -250.379837 3.784308 1.000000
103.398949 -250.379837 3.271766 1.000000
103.398949 -250.379837 2.761968 1.000000
103.398949 -250.379837 2.253808 1.000000
103.398949 -250.379837 1.746192 1.000000
103.398949 -250.379837 1.238031 1.000000
103.398949 -250.379837 0.728234 1.000000
103.398949 -250.379837 0.215692 1.000000
102.108238 -251.943054 -0.000015 0.525887
100.522057 -253.864136 -0.000012 0.534173
99.419609 -255.199356 -0.000010 0.510765
98.607376 -256.183075 -0.000009 0.550393
103.462357 -250.472778 5.877363 1.000000
103.462357 -250.472778 5.343208 1.000000
103.462357 -250.472778 4.816555 1.000000
103.462349 -250.472778 4.296137 1.000000
103.462357 -250.472778 3.780750 1.000000
103.462357 -250.472778 3.269230 1.000000
103.462357 -250.472778 2.760449 1.000000
103.462349 -250.472778 2.253302 1.000000
103.462349 -250.472778 1.746698 1.000000
103.462357 -250.472778 1.239551 1.000000
103.462357 -250.472778 0.730769 1.000000
103.462357 -250.472778 0.219250 1.000000
102.180618 -252.003250 -0.000015 0.548272
100.581062 -253.913193 -0.000012 0.540887
99.469315 -255.240692 -0.000010 0.563241
98.650230 -256.218719 -0.000009 0.546471
103.525505 -250.565353 5.869836 1.000000
103.525505 -250.565353 5.336719 1.000000
103.525505 -250.565353 4.811087 1.000000
103.525505 -250.565353 4.291681 1.000000
103.525505 -250.565353 3.777293 1.000000
103.525513 -250.565353 3.266767 1.000000
103.525513 -250.565353 2.758973 1.000000
103.525505 -250.565353 2.252810 1.000000
103.525505 -250.565353 1.747190 1.000000
103.525513 -250.565353 1.241026 1.000000
103.525513 -250.565353 0.733233 1.000000
103.525505 -250.565353 0.222707 1.000000
102.252563 -252.063934 -0.000016 0.538079
100.639717 -253.962677 -0.000012 0.519570
99.518730 -255.282364 -0.000010 0.521767
98.692841 -256.254639 -0.000009 0.543801
103.588417 -250.657578 5.862526 1.000000
103.588417 -250.657578 5.330416 1.000000
103.588417 -250.657578 4.805777 1.000000
103.588417 -250.657562 4.287352 1.000000
103.588417 -250.657578 3.773937 1.000000
103.588417 -250.657562 3.264374 1.000000
103.588417 -250.657562 2.757539 1.000000
103.588417 -250.657562 2.252333 1.000000
103.588417 -250.657562 1.747667 1.000000
103.588425 -250.657562 1.242460 1.000000
103.588417 -250.657562 0.735626 1.000000
103.588417 -250.657578 0.226064 1.000000
102.324097 -252.125122 -0.000015 0.539178
100.698029 -254.012558 -0.000012 0.544732
99.567863 -255.324387 -0.000010 0.553002
98.735199 -256.290894 -0.000009 0.546410
103.651093 -250.749451 5.855432 1.000000
103.651093 -250.749451 5.324299 1.000000
103.651093 -250.749451 4.800624 1.000000
103.651093 -250.749451 4.283150 1.000000
103.651093 -250.749451 3.770678 1.000000
103.651093 -250.749451 3.262051 1.000000
103.651093 -250.749451 2.756148 1.000000
103.651093 -250.749451 2.251869 1.000000
103.651093 -250.749451 1.748131 1.000000
103.651093 -250.749451 1.243852 1.000000
103.651093 -250.749451 0.737948 1.000000
103.651093 -250.749451 0.229322 1.000000
102.395195 -252.186813 -0.000015 0.542260
100.755989 -254.062851 -0.000012 0.529580
99.616692 -255.366760 -0.000010 0.520821
98.777306 -256.327423 -0.000009 0.555718
103.713547 -250.840988 5.848551 1.000000
103.713547 -250.841003 5.318366 1.000000
103.713547 -250.841003 4.795624 1.000000
103.713547 -250.840988 4.279075 1.000000
103.713547 -250.840988 3.767517 1.000000
103.713547 -250.840988 3.259798 1.000000
103.713547 -250.840988 2.754798 1.000000
103.713547 -250.840988 2.251420 1.000000
103.713547 -250.840988 1.748580 1.000000
103.713547 -250.840988 1.245202 1.000000
103.713547 -250.840988 0.740201 1.000000
103.713547 -250.840988 0.232483 1.000000
102.465858 -252.248993 -0.000015 0.539788
100.813599 -254.113541 -0.000012 0.526345
99.665222 -255.409470 -0.000011 0.528557
98.819153 -256.364227 -0.000009 0.554971
103.775772 -250.932220 5.841880 1.000000
103.775772 -250.932220 5.312614 1.000000
103.775772 -250.932220 4.790779 1.000000
103.775772 -250.932220 4.275125 1.000000
103.775772 -250.932220 3.764454 1.000000
103.775772 -250.932220 3.257615 1.000000
103.775772 -250.932220 2.753490 1.000000
103.775772 -250.932220 2.250984 1.000000
103.775772 -250.932220 1.749016 1.000000
103.775772 -250.932220 1.246510 1.000000
103.775772 -250.932220 0.742384 1.000000
103.775772 -250.932220 0.235546 1.000000
102.536087 -252.311661 -0.000015 0.520760
100.870857 -254.164627 -0.000012 0.547616
99.713455 -255.452515 -0.000010 0.506783
98.860741 -256.401367 -0.000009 0.542611
103.837791 -251.023132 5.835420 1.000000
103.837791 -251.023132 5.307044 1.000000
103.837791 -251.023132 4.786086 1.000000
103.837791 -251.023132 4.271299 1.000000
103.837791 -251.023132 3.761487 1.000000
103.837791 -251.023132 3.255501 1.000000
103.837791 -251.023132 2.752223 1.000000
103.837791 -251.023132 2.250562 1.000000
103.837791 -251.023132 1.749438 1.000000
103.837791 -251.023132 1.247777 1.000000
103.837791 -251.023132 0.744499 1.000000
103.837791 -251.023132 0.238513 1.000000
102.605881 -252.374817 -0.000015 0.533928
100.927750 -254.216125 -0.000013 0.541009
99.761391 -255.495895 -0.000010 0.549615
98.902069 -256.438751 -0.000009 0.577356
103.899605 -251.113739 5.829167 1.000000
103.899605 -251.113739 5.301654 1.000000
103.899605 -251.113739 4.781545 1.000000
103.899605 -251.113739 4.267596 1.000000
103.899605 -251.113739 3.758615 1.000000
103.899605 -251.113739 3.253454 1.000000
103.899605 -251.113739 2.750997 1.000000
103.899605 -251.113739 2.250153 1.000000
103.899605 -251.113739 1.749846 1.000000
103.899605 -251.113739 1.249003 1.000000
103.899605 -251.113739 0.746546 1.000000
103.899605 -251.113739 0.241384 1.000000
102.675232 -252.438477 -0.000015 0.534493
100.984283 -254.268005 -0.000013 0.536171
99.809021 -255.539597 -0.000011 0.524071
98.943138 -256.476440 -0.000009 0.530114
103.961220 -251.204071 5.823120 1.000000
103.961220 -251.204071 5.296440 1.000000
103.961220 -251.204071 4.777153 1.000000
103.961220 -251.204071 4.264016 1.000000
103.961220 -251.204071 3.755839 1.000000
103.961220 -251.204071 3.251474 1.000000
103.961220 -251.204071 2.749810 1.000000
103.961220 -251.204071 2.249758 1.000000
103.961220 -251.204071 1.750242 1.000000
103.961220 -251.204071 1.250189 1.000000
