# This PCD file was generated using the MATLABÂ® pcwrite function
# from Computer Vision ToolboxÂ®.
# .PCD v.7 - Point Cloud Data file format
VERSION .7
FIELDS x y z intensity
SIZE 4 4 4 4
TYPE F F F F
COUNT 1 1 1 1
WIDTH 1255
HEIGHT 1
VIEWPOINT 0 0 0 1 0 0 0
POINTS 1255
DATA ascii
-40.763775 9.023386 2.286504 1.000000
-40.763775 9.023387 2.095433 1.000000
-40.763775 9.023387 1.904567 1.000000
-40.763775 9.023386 1.713496 1.000000
-40.763775 9.023386 1.521810 1.000000
-40.763775 9.023386 1.329092 1.000000
-40.763775 9.023386 1.134917 1.000000
-40.763771 9.023385 0.938847 1.000000
-40.763775 9.023386 0.740427 1.000000
-40.763775 9.023385 0.539182 1.000000
-40.818314 9.032213 3.451428 1.000000
-40.818314 9.032213 3.251476 1.000000
-40.818314 9.032213 3.054331 1.000000
-40.818314 9.032213 2.859521 1.000000
-40.818314 9.032214 2.666595 1.000000
-40.818314 9.032213 2.475116 1.000000
-40.818314 9.032213 2.284662 1.000000
-40.818314 9.032213 2.094820 1.000000
-40.818314 9.032213 1.905181 1.000000
-40.818314 9.032213 1.715338 1.000000
-40.818314 9.032213 1.524884 1.000000
-40.818314 9.032213 1.333405 1.000000
-40.818314 9.032213 1.140478 1.000000
-40.818314 9.032212 0.945668 1.000000
-40.818314 9.032211 0.748524 1.000000
-40.818314 9.032211 0.548572 1.000000
-40.872158 9.040928 3.442227 1.000000
-40.872158 9.040928 3.243543 1.000000
-40.872158 9.040928 3.047648 1.000000
-40.872158 9.040928 2.854073 1.000000
-40.872158 9.040928 2.662369 1.000000
-40.872158 9.040928 2.472104 1.000000
-40.872158 9.040928 2.282857 1.000000
-40.872158 9.040928 2.094218 1.000000
-40.872158 9.040928 1.905782 1.000000
-40.872158 9.040928 1.717143 1.000000
-40.872158 9.040928 1.527896 1.000000
-40.872158 9.040928 1.337631 1.000000
-40.872158 9.040928 1.145927 1.000000
-40.872154 9.040926 0.952352 1.000000
-40.872154 9.040926 0.756457 1.000000
-40.872154 9.040926 0.557772 1.000000
-40.925327 9.049534 3.433212 1.000000
-40.925327 9.049534 3.235769 1.000000
-40.925327 9.049535 3.041099 1.000000
-40.925327 9.049534 2.848734 1.000000
-40.925327 9.049534 2.658229 1.000000
-40.925323 9.049533 2.469153 1.000000
-40.925323 9.049534 2.281089 1.000000
-40.925327 9.049534 2.093629 1.000000
-40.925323 9.049534 1.906371 1.000000
-40.925323 9.049534 1.718911 1.000000
-40.925323 9.049532 1.530847 1.000000
-40.925323 9.049533 1.341771 1.000000
-40.925323 9.049532 1.151265 1.000000
-40.925323 9.049532 0.958901 1.000000
-40.925323 9.049532 0.764230 1.000000
-40.925323 9.049533 0.566788 1.000000
-40.977837 9.058034 3.424377 1.000000
-40.977837 9.058033 3.228152 1.000000
-40.977837 9.058033 3.034682 1.000000
-40.977837 9.058032 2.843503 1.000000
-40.977837 9.058033 2.654171 1.000000
-40.977837 9.058032 2.466261 1.000000
-40.977837 9.058033 2.279356 1.000000
-40.977837 9.058034 2.093052 1.000000
-40.977837 9.058033 1.906948 1.000000
-40.977837 9.058033 1.720643 1.000000
-40.977837 9.058032 1.533739 1.000000
-40.977837 9.058032 1.345828 1.000000
-40.977837 9.058031 1.156497 1.000000
-40.977837 9.058032 0.965318 1.000000
-40.977837 9.058031 0.771848 1.000000
-40.977837 9.058032 0.575622 1.000000
-41.029705 9.066428 3.415720 1.000000
-41.029705 9.066429 3.220687 1.000000
-41.029705 9.066428 3.028393 1.000000
-41.029705 9.066428 2.838376 1.000000
-41.029705 9.066427 2.650196 1.000000
-41.029705 9.066428 2.463427 1.000000
-41.029705 9.066429 2.277659 1.000000
-41.029705 9.066427 2.092487 1.000000
-41.029705 9.066427 1.907513 1.000000
-41.029705 9.066428 1.722341 1.000000
-41.029705 9.066427 1.536573 1.000000
-41.029705 9.066427 1.349804 1.000000
-41.029705 9.066427 1.161624 1.000000
-41.029705 9.066426 0.971607 1.000000
-41.029705 9.066426 0.779312 1.000000
-41.029705 9.066425 0.584279 1.000000
-41.080952 9.074724 3.407235 1.000000
-41.080952 9.074724 3.213371 1.000000
-41.080952 9.074723 3.022229 1.000000
-41.080952 9.074723 2.833351 1.000000
-41.080952 9.074722 2.646299 1.000000
-41.080952 9.074722 2.460649 1.000000
-41.080952 9.074722 2.275995 1.000000
-41.080952 9.074722 2.091933 1.000000
-41.080952 9.074722 1.908068 1.000000
-41.080952 9.074722 1.724005 1.000000
-41.080952 9.074722 1.539350 1.000000
-41.080952 9.074722 1.353701 1.000000
-41.080952 9.074722 1.166648 1.000000
-41.080952 9.074722 0.977770 1.000000
-41.080952 9.074722 0.786628 1.000000
-41.080952 9.074722 0.592764 1.000000
-41.131592 9.082919 3.398920 1.000000
-41.131592 9.082918 3.206201 1.000000
-41.131588 9.082918 3.016189 1.000000
-41.131588 9.082918 2.828427 1.000000
-41.131592 9.082918 2.642479 1.000000
-41.131592 9.082918 2.457928 1.000000
-41.131592 9.082918 2.274364 1.000000
-41.131588 9.082917 2.091389 1.000000
-41.131588 9.082917 1.908611 1.000000
-41.131588 9.082918 1.725636 1.000000
-41.131588 9.082917 1.542072 1.000000
-41.131588 9.082918 1.357520 1.000000
-41.131588 9.082916 1.171573 1.000000
-41.131588 9.082916 0.983811 1.000000
-41.131588 9.082916 0.793798 1.000000
-41.131588 9.082918 0.601080 1.000000
-41.181633 9.091019 3.390769 1.000000
-41.181633 9.091019 3.199173 1.000000
-41.181633 9.091019 3.010268 1.000000
-41.181633 9.091019 2.823600 1.000000
-41.181633 9.091018 2.638736 1.000000
-41.181633 9.091019 2.455260 1.000000
-41.181633 9.091018 2.272765 1.000000
-41.181633 9.091017 2.090857 1.000000
-41.181633 9.091017 1.909143 1.000000
-41.181633 9.091017 1.727235 1.000000
-41.181633 9.091017 1.544740 1.000000
-41.181633 9.091017 1.361264 1.000000
-41.181633 9.091017 1.176399 1.000000
-41.181633 9.091016 0.989731 1.000000
-41.181633 9.091017 0.800826 1.000000
-41.181633 9.091016 0.609230 1.000000
-41.231102 9.099026 3.382780 1.000000
-41.231102 9.099024 3.192285 1.000000
-41.231102 9.099024 3.004465 1.000000
-41.231102 9.099025 2.818869 1.000000
-41.231102 9.099025 2.635067 1.000000
-41.231102 9.099024 2.452644 1.000000
-41.231102 9.099024 2.271198 1.000000
-41.231102 9.099024 2.090335 1.000000
-41.231102 9.099023 1.909665 1.000000
-41.231102 9.099023 1.728802 1.000000
-41.231102 9.099024 1.547356 1.000000
-41.231102 9.099024 1.364933 1.000000
-41.231102 9.099023 1.181131 1.000000
-41.231102 9.099023 0.995535 1.000000
-41.231102 9.099022 0.807715 1.000000
-41.231102 9.099022 0.617220 1.000000
-41.280006 9.106940 3.374948 1.000000
-41.280006 9.106939 3.185533 1.000000
-41.280006 9.106939 2.998776 1.000000
-41.280006 9.106939 2.814231 1.000000
-41.280006 9.106939 2.631470 1.000000
-41.280006 9.106939 2.450081 1.000000
-41.280006 9.106939 2.269662 1.000000
-41.280006 9.106939 2.089823 1.000000
-41.280006 9.106939 1.910177 1.000000
-41.280006 9.106939 1.730338 1.000000
-41.280006 9.106939 1.549919 1.000000
-41.280006 9.106938 1.368530 1.000000
-41.280006 9.106939 1.185768 1.000000
-41.280006 9.106938 1.001224 1.000000
-41.280006 9.106937 0.814467 1.000000
-41.280006 9.106938 0.625051 1.000000
-41.328365 9.114767 3.367271 1.000000
-41.328365 9.114766 3.178913 1.000000
-41.328365 9.114766 2.993199 1.000000
-41.328365 9.114766 2.809685 1.000000
-41.328365 9.114766 2.627945 1.000000
-41.328362 9.114766 2.447568 1.000000
-41.328365 9.114767 2.268157 1.000000
-41.328362 9.114765 2.089322 1.000000
-41.328362 9.114765 1.910678 1.000000
-41.328362 9.114765 1.731843 1.000000
-41.328362 9.114765 1.552432 1.000000
-41.328362 9.114765 1.372055 1.000000
-41.328362 9.114765 1.190315 1.000000
-41.328362 9.114765 1.006800 1.000000
-41.328362 9.114765 0.821087 1.000000
-41.328362 9.114765 0.632728 1.000000
-41.376186 9.122505 3.359746 1.000000
-41.376186 9.122507 3.172424 1.000000
-41.376186 9.122506 2.987733 1.000000
-41.376186 9.122506 2.805229 1.000000
-41.376186 9.122505 2.624488 1.000000
-41.376186 9.122506 2.445104 1.000000
-41.376186 9.122506 2.266681 1.000000
-41.376186 9.122505 2.088830 1.000000
-41.376186 9.122505 1.911170 1.000000
-41.376186 9.122505 1.733319 1.000000
-41.376186 9.122505 1.554896 1.000000
-41.376186 9.122505 1.375512 1.000000
-41.376183 9.122505 1.194771 1.000000
-41.376183 9.122505 1.012267 1.000000
-41.376183 9.122505 0.827575 1.000000
-41.376183 9.122504 0.640254 1.000000
-41.423485 9.130162 3.352368 1.000000
-41.423485 9.130161 3.166063 1.000000
-41.423485 9.130161 2.982374 1.000000
-41.423485 9.130161 2.800859 1.000000
-41.423485 9.130161 2.621100 1.000000
-41.423485 9.130161 2.442689 1.000000
-41.423485 9.130161 2.265234 1.000000
-41.423485 9.130161 2.088348 1.000000
-41.423485 9.130161 1.911652 1.000000
-41.423485 9.130161 1.734766 1.000000
-41.423485 9.130160 1.557311 1.000000
-41.423485 9.130160 1.378900 1.000000
-41.423485 9.130159 1.199140 1.000000
-41.423485 9.130159 1.017626 1.000000
-41.423485 9.130159 0.833937 1.000000
-41.423485 9.130159 0.647631 1.000000
-41.470280 9.137735 3.345135 1.000000
-41.470280 9.137736 3.159826 1.000000
-41.470280 9.137735 2.977119 1.000000
-41.470280 9.137736 2.796576 1.000000
-41.470280 9.137735 2.617778 1.000000
-41.470280 9.137735 2.440321 1.000000
-41.470276 9.137735 2.263815 1.000000
-41.470280 9.137735 2.087876 1.000000
-41.470280 9.137735 1.912124 1.000000
-41.470276 9.137734 1.736185 1.000000
-41.470276 9.137734 1.559678 1.000000
-41.470276 9.137733 1.382222 1.000000
-41.470276 9.137734 1.203424 1.000000
-41.470276 9.137734 1.022881 1.000000
-41.470276 9.137733 0.840173 1.000000
-41.470276 9.137733 0.654864 1.000000
-41.516575 9.145228 3.338044 1.000000
-41.516575 9.145227 3.153712 1.000000
-41.516575 9.145228 2.971968 1.000000
-41.516575 9.145228 2.792377 1.000000
-41.516575 9.145229 2.614521 1.000000
-41.516575 9.145227 2.438000 1.000000
-41.516575 9.145228 2.262424 1.000000
-41.516575 9.145227 2.087412 1.000000
-41.516575 9.145227 1.912588 1.000000
-41.516575 9.145228 1.737576 1.000000
-41.516575 9.145227 1.562000 1.000000
-41.516575 9.145227 1.385479 1.000000
-41.516575 9.145227 1.207623 1.000000
-41.516575 9.145227 1.028031 1.000000
-41.516575 9.145226 0.846287 1.000000
-41.516575 9.145226 0.661955 1.000000
-41.562389 9.152644 3.331091 1.000000
-41.562389 9.152644 3.147717 1.000000
-41.562386 9.152642 2.966918 1.000000
-41.562386 9.152643 2.788260 1.000000
-41.562389 9.152643 2.611328 1.000000
-41.562389 9.152643 2.435724 1.000000
-41.562386 9.152643 2.261061 1.000000
-41.562389 9.152643 2.086958 1.000000
-41.562389 9.152643 1.913042 1.000000
-41.562386 9.152642 1.738939 1.000000
-41.562386 9.152642 1.564275 1.000000
-41.562386 9.152642 1.388672 1.000000
-41.562386 9.152642 1.211740 1.000000
-41.562386 9.152641 1.033082 1.000000
-41.562386 9.152641 0.852282 1.000000
-41.562386 9.152642 0.668908 1.000000
-41.607731 9.159981 3.324276 1.000000
-41.607731 9.159981 3.141841 1.000000
-41.607731 9.159983 2.961967 1.000000
-41.607731 9.159981 2.784224 1.000000
-41.607731 9.159982 2.608198 1.000000
-41.607731 9.159981 2.433493 1.000000
-41.607727 9.159981 2.259724 1.000000
-41.607731 9.159981 2.086513 1.000000
-41.607731 9.159981 1.913487 1.000000
-41.607727 9.159981 1.740276 1.000000
-41.607727 9.159981 1.566506 1.000000
-41.607731 9.159981 1.391802 1.000000
-41.607727 9.159980 1.215776 1.000000
-41.607731 9.159981 1.038033 1.000000
-41.607727 9.159979 0.858159 1.000000
-41.607727 9.159979 0.675724 1.000000
-41.652611 9.167247 3.317593 1.000000
-41.652611 9.167246 3.136078 1.000000
-41.652611 9.167246 2.957112 1.000000
-41.652611 9.167246 2.780266 1.000000
-41.652611 9.167247 2.605129 1.000000
-41.652611 9.167247 2.431306 1.000000
-41.652611 9.167245 2.258413 1.000000
-41.652611 9.167246 2.086076 1.000000
-41.652611 9.167246 1.913924 1.000000
-41.652611 9.167244 1.741586 1.000000
-41.652611 9.167246 1.568694 1.000000
-41.652611 9.167245 1.394871 1.000000
-41.652611 9.167245 1.219734 1.000000
-41.652611 9.167245 1.042887 1.000000
-41.652611 9.167244 0.863921 1.000000
-41.652611 9.167244 0.682407 1.000000
-41.697044 9.174438 3.311041 1.000000
-41.697044 9.174438 3.130429 1.000000
-41.697044 9.174438 2.952353 1.000000
-41.697044 9.174438 2.776386 1.000000
-41.697044 9.174438 2.602120 1.000000
-41.697044 9.174438 2.429161 1.000000
-41.697044 9.174437 2.257128 1.000000
-41.697044 9.174438 2.085648 1.000000
-41.697044 9.174438 1.914352 1.000000
-41.697044 9.174437 1.742872 1.000000
-41.697044 9.174438 1.570839 1.000000
-41.697044 9.174437 1.397880 1.000000
-41.697044 9.174437 1.223614 1.000000
-41.697044 9.174437 1.047647 1.000000
-41.697044 9.174437 0.869571 1.000000
-41.697044 9.174436 0.688959 1.000000
-41.741043 9.181560 3.304616 1.000000
-41.741039 9.181559 3.124890 1.000000
-41.741039 9.181559 2.947686 1.000000
-41.741039 9.181559 2.772582 1.000000
-41.741043 9.181559 2.599169 1.000000
-41.741043 9.181559 2.427058 1.000000
-41.741039 9.181559 2.255868 1.000000
-41.741043 9.181559 2.085229 1.000000
-41.741039 9.181559 1.914771 1.000000
-41.741039 9.181559 1.744131 1.000000
-41.741039 9.181559 1.572942 1.000000
-41.741039 9.181559 1.400831 1.000000
-41.741039 9.181558 1.227418 1.000000
-41.741039 9.181557 1.052313 1.000000
-41.741039 9.181557 0.875110 1.000000
-41.741039 9.181557 0.695383 1.000000
-41.784611 9.188611 3.298318 1.000000
-41.784611 9.188610 3.119459 1.000000
-41.784611 9.188611 2.943111 1.000000
-41.784611 9.188610 2.768852 1.000000
-41.784611 9.188610 2.596277 1.000000
-41.784611 9.188610 2.424996 1.000000
-41.784611 9.188610 2.254633 1.000000
-41.784611 9.188610 2.084817 1.000000
-41.784611 9.188610 1.915183 1.000000
-41.784611 9.188610 1.745367 1.000000
-41.784611 9.188608 1.575004 1.000000
-41.784611 9.188608 1.403723 1.000000
-41.784607 9.188608 1.231148 1.000000
-41.784611 9.188608 1.056889 1.000000
-41.784607 9.188608 0.880540 1.000000
-41.784611 9.188608 0.701681 1.000000
-41.827763 9.195595 3.292143 1.000000
-41.827763 9.195595 3.114135 1.000000
-41.827763 9.195595 2.938626 1.000000
-41.827763 9.195595 2.765195 1.000000
-41.827763 9.195594 2.593441 1.000000
-41.827763 9.195595 2.422975 1.000000
-41.827763 9.195594 2.253422 1.000000
-41.827763 9.195595 2.084414 1.000000
-41.827763 9.195594 1.915586 1.000000
-41.827763 9.195593 1.746578 1.000000
-41.827763 9.195594 1.577025 1.000000
-41.827763 9.195593 1.406559 1.000000
-41.827763 9.195593 1.234805 1.000000
-41.827763 9.195593 1.061374 1.000000
-41.827763 9.195593 0.885865 1.000000
-41.827763 9.195593 0.707856 1.000000
-41.870506 9.202513 3.286089 1.000000
-41.870506 9.202513 3.108914 1.000000
-41.870506 9.202513 2.934228 1.000000
-41.870506 9.202513 2.761610 1.000000
-41.870506 9.202513 2.590660 1.000000
-41.870506 9.202513 2.420993 1.000000
-41.870506 9.202513 2.252235 1.000000
-41.870506 9.202513 2.084018 1.000000
-41.870506 9.202513 1.915982 1.000000
-41.870506 9.202513 1.747765 1.000000
-41.870506 9.202512 1.579007 1.000000
-41.870506 9.202512 1.409340 1.000000
-41.870506 9.202511 1.238390 1.000000
-41.870506 9.202511 1.065772 1.000000
-41.870506 9.202512 0.891085 1.000000
-41.870506 9.202511 0.713911 1.000000
-41.912857 9.209368 3.280153 1.000000
-41.912857 9.209368 3.103796 1.000000
-41.912857 9.209368 2.929915 1.000000
-41.912857 9.209368 2.758095 1.000000
-41.912857 9.209368 2.587934 1.000000
-41.912857 9.209368 2.419050 1.000000
-41.912857 9.209368 2.251070 1.000000
-41.912857 9.209366 2.083631 1.000000
-41.912857 9.209366 1.916370 1.000000
-41.912857 9.209368 1.748929 1.000000
-41.912857 9.209367 1.580950 1.000000
-41.912857 9.209366 1.412066 1.000000
-41.912857 9.209366 1.241905 1.000000
-41.912857 9.209366 1.070084 1.000000
-41.912857 9.209366 0.896203 1.000000
-41.912857 9.209366 0.719846 1.000000
-41.954819 9.216159 3.274334 1.000000
-41.954819 9.216158 3.098779 1.000000
-41.954819 9.216159 2.925689 1.000000
-41.954819 9.216158 2.754648 1.000000
-41.954819 9.216158 2.585261 1.000000
-41.954819 9.216159 2.417145 1.000000
-41.954819 9.216158 2.249929 1.000000
-41.954819 9.216158 2.083250 1.000000
-41.954819 9.216158 1.916750 1.000000
-41.954819 9.216158 1.750071 1.000000
-41.954819 9.216158 1.582855 1.000000
-41.954819 9.216157 1.414739 1.000000
-41.954819 9.216157 1.245351 1.000000
-41.954819 9.216157 1.074311 1.000000
-41.954819 9.216157 0.901221 1.000000
-41.954819 9.216156 0.725666 1.000000
-41.996403 9.222889 3.268629 1.000000
-41.996403 9.222889 3.093859 1.000000
-41.996403 9.222889 2.921544 1.000000
-41.996403 9.222889 2.751270 1.000000
-41.996403 9.222889 2.582641 1.000000
-41.996403 9.222889 2.415277 1.000000
-41.996403 9.222889 2.248810 1.000000
-41.996403 9.222889 2.082877 1.000000
-41.996403 9.222889 1.917122 1.000000
-41.996403 9.222889 1.751190 1.000000
-41.996403 9.222887 1.584722 1.000000
-41.996403 9.222889 1.417359 1.000000
-41.996403 9.222888 1.248730 1.000000
-41.996403 9.222887 1.078455 1.000000
-41.996403 9.222887 0.906140 1.000000
-41.996403 9.222887 0.731371 1.000000
-42.037621 9.229560 3.263036 1.000000
-42.037621 9.229560 3.089037 1.000000
-42.037621 9.229561 2.917481 1.000000
-42.037621 9.229560 2.747958 1.000000
-42.037621 9.229559 2.580072 1.000000
-42.037621 9.229560 2.413447 1.000000
-42.037621 9.229559 2.247713 1.000000
-42.037621 9.229559 2.082512 1.000000
-42.037621 9.229559 1.917488 1.000000
-42.037617 9.229559 1.752287 1.000000
-42.037621 9.229559 1.586553 1.000000
-42.037617 9.229559 1.419927 1.000000
-42.037617 9.229559 1.252042 1.000000
-42.037621 9.229559 1.082518 1.000000
-42.037617 9.229559 0.910962 1.000000
-42.037617 9.229558 0.736964 1.000000
-42.078476 9.236172 3.257553 1.000000
-42.078476 9.236174 3.084309 1.000000
-42.078476 9.236173 2.913499 1.000000
-42.078476 9.236173 2.744711 1.000000
-42.078476 9.236173 2.577554 1.000000
-42.078476 9.236172 2.411652 1.000000
-42.078476 9.236173 2.246638 1.000000
-42.078476 9.236172 2.082154 1.000000
-42.078476 9.236172 1.917846 1.000000
-42.078476 9.236172 1.753362 1.000000
-42.078476 9.236172 1.588348 1.000000
-42.078476 9.236172 1.422446 1.000000
-42.078476 9.236172 1.255289 1.000000
-42.078476 9.236172 1.086501 1.000000
-42.078476 9.236171 0.915690 1.000000
-42.078476 9.236170 0.742447 1.000000
-42.118980 9.242729 3.252178 1.000000
-42.118980 9.242729 3.079675 1.000000
-42.118980 9.242729 2.909594 1.000000
-42.118980 9.242729 2.741528 1.000000
-42.118980 9.242728 2.575086 1.000000
-42.118980 9.242729 2.409893 1.000000
-42.118980 9.242729 2.245584 1.000000
-42.118980 9.242728 2.081803 1.000000
-42.118980 9.242727 1.918197 1.000000
-42.118980 9.242728 1.754416 1.000000
-42.118980 9.242727 1.590107 1.000000
-42.118980 9.242726 1.424914 1.000000
-42.118980 9.242727 1.258472 1.000000
-42.118980 9.242727 1.090405 1.000000
-42.118980 9.242727 0.920324 1.000000
-42.118980 9.242727 0.747822 1.000000
-42.159142 9.249229 3.246910 1.000000
-42.159142 9.249228 3.075133 1.000000
-42.159142 9.249229 2.905767 1.000000
-42.159142 9.249228 2.738408 1.000000
-42.159142 9.249228 2.572666 1.000000
-42.159142 9.249228 2.408168 1.000000
-42.159142 9.249228 2.244551 1.000000
-42.159142 9.249228 2.081459 1.000000
-42.159142 9.249228 1.918541 1.000000
-42.159142 9.249228 1.755449 1.000000
-42.159142 9.249228 1.591832 1.000000
-42.159142 9.249228 1.427334 1.000000
-42.159142 9.249228 1.261592 1.000000
-42.159142 9.249228 1.094232 1.000000
-42.159142 9.249226 0.924867 1.000000
-42.159142 9.249227 0.753090 1.000000
-42.198971 9.255676 3.241745 1.000000
-42.198971 9.255674 3.070680 1.000000
-42.198967 9.255674 2.902016 1.000000
-42.198971 9.255674 2.735350 1.000000
-42.198971 9.255675 2.570294 1.000000
-42.198967 9.255674 2.406477 1.000000
-42.198971 9.255674 2.243538 1.000000
-42.198967 9.255674 2.081121 1.000000
-42.198967 9.255674 1.918879 1.000000
-42.198967 9.255674 1.756462 1.000000
-42.198967 9.255674 1.593522 1.000000
-42.198967 9.255674 1.429706 1.000000
-42.198967 9.255674 1.264650 1.000000
-42.198967 9.255673 1.097984 1.000000
-42.198967 9.255672 0.929320 1.000000
-42.198967 9.255673 0.758254 1.000000
-42.238468 9.262068 3.236684 1.000000
-42.238468 9.262068 3.066316 1.000000
-42.238468 9.262067 2.898340 1.000000
-42.238468 9.262068 2.732352 1.000000
-42.238468 9.262068 2.567970 1.000000
-42.238468 9.262068 2.404821 1.000000
-42.238468 9.262068 2.242545 1.000000
-42.238468 9.262066 2.080791 1.000000
-42.238468 9.262066 1.919209 1.000000
-42.238468 9.262068 1.757455 1.000000
-42.238468 9.262068 1.595179 1.000000
-42.238468 9.262067 1.432030 1.000000
-42.238468 9.262066 1.267647 1.000000
-42.238468 9.262066 1.101660 1.000000
-42.238468 9.262066 0.933684 1.000000
-42.238468 9.262066 0.763315 1.000000
-42.277653 9.268410 3.231724 1.000000
-42.277653 9.268410 3.062039 1.000000
-42.277653 9.268410 2.894736 1.000000
-42.277653 9.268410 2.729415 1.000000
-42.277653 9.268410 2.565691 1.000000
-42.277653 9.268410 2.403197 1.000000
-42.277653 9.268409 2.241572 1.000000
-42.277653 9.268410 2.080467 1.000000
-42.277653 9.268410 1.919533 1.000000
-42.277653 9.268408 1.758428 1.000000
-42.277653 9.268408 1.596803 1.000000
-42.277653 9.268409 1.434308 1.000000
-42.277649 9.268408 1.270585 1.000000
-42.277649 9.268408 1.105264 1.000000
-42.277649 9.268408 0.937961 1.000000
-42.277649 9.268408 0.768276 1.000000
-42.316521 9.274702 3.226862 1.000000
-42.316521 9.274700 3.057847 1.000000
-42.316521 9.274700 2.891205 1.000000
-42.316521 9.274700 2.726536 1.000000
-42.316521 9.274702 2.563459 1.000000
-42.316521 9.274700 2.401606 1.000000
-42.316521 9.274700 2.240619 1.000000
-42.316521 9.274700 2.080149 1.000000
-42.316521 9.274700 1.919851 1.000000
-42.316521 9.274699 1.759381 1.000000
-42.316521 9.274699 1.598394 1.000000
-42.316521 9.274700 1.436541 1.000000
-42.316521 9.274698 1.273464 1.000000
-42.316521 9.274698 1.108795 1.000000
-42.316521 9.274698 0.942153 1.000000
-42.316521 9.274699 0.773137 1.000000
-42.355087 9.280943 3.222098 1.000000
-42.355087 9.280943 3.053739 1.000000
-42.355087 9.280943 2.887744 1.000000
-42.355087 9.280943 2.723715 1.000000
-42.355087 9.280943 2.561271 1.000000
-42.355087 9.280943 2.400046 1.000000
-42.355087 9.280943 2.239684 1.000000
-42.355087 9.280943 2.079838 1.000000
-42.355087 9.280943 1.920162 1.000000
-42.355087 9.280942 1.760315 1.000000
-42.355087 9.280942 1.599954 1.000000
-42.355087 9.280942 1.438729 1.000000
-42.355087 9.280941 1.276285 1.000000
-42.355087 9.280942 1.112256 1.000000
-42.355087 9.280941 0.946260 1.000000
-42.355087 9.280941 0.777901 1.000000
-42.393360 9.287136 3.217431 1.000000
-42.393360 9.287138 3.049715 1.000000
-42.393360 9.287137 2.884353 1.000000
-42.393360 9.287137 2.720951 1.000000
-42.393360 9.287137 2.559127 1.000000
-42.393360 9.287137 2.398518 1.000000
-42.393360 9.287137 2.238769 1.000000
-42.393360 9.287136 2.079533 1.000000
-42.393360 9.287136 1.920467 1.000000
-42.393360 9.287136 1.761231 1.000000
-42.393360 9.287136 1.601482 1.000000
-42.393360 9.287136 1.440872 1.000000
-42.393360 9.287135 1.279049 1.000000
-42.393360 9.287134 1.115646 1.000000
-42.393360 9.287135 0.950285 1.000000
-42.393356 9.287134 0.782569 1.000000
-42.431339 9.293284 3.212857 1.000000
-42.431339 9.293284 3.045771 1.000000
-42.431339 9.293283 2.881031 1.000000
-42.431339 9.293283 2.718243 1.000000
-42.431339 9.293284 2.557027 1.000000
-42.431339 9.293283 2.397021 1.000000
-42.431339 9.293283 2.237872 1.000000
-42.431339 9.293283 2.079234 1.000000
-42.431339 9.293283 1.920766 1.000000
-42.431339 9.293283 1.762128 1.000000
-42.431339 9.293283 1.602979 1.000000
-42.431339 9.293283 1.442973 1.000000
-42.431339 9.293283 1.281757 1.000000
-42.431339 9.293282 1.118968 1.000000
-42.431339 9.293282 0.954228 1.000000
-42.431339 9.293282 0.787142 1.000000
-42.469040 9.299385 3.208377 1.000000
-42.469040 9.299385 3.041908 1.000000
-42.469040 9.299386 2.877776 1.000000
-42.469040 9.299385 2.715589 1.000000
-42.469040 9.299385 2.554969 1.000000
-42.469040 9.299385 2.395555 1.000000
-42.469040 9.299385 2.236993 1.000000
-42.469040 9.299385 2.078941 1.000000
-42.469040 9.299385 1.921059 1.000000
-42.469040 9.299385 1.763007 1.000000
-42.469040 9.299384 1.604445 1.000000
-42.469040 9.299385 1.445031 1.000000
-42.469036 9.299383 1.284411 1.000000
-42.469040 9.299384 1.122223 1.000000
-42.469036 9.299383 0.958092 1.000000
-42.469036 9.299383 0.791623 1.000000
-42.506462 9.305443 3.203988 1.000000
-42.506462 9.305442 3.038124 1.000000
-42.506462 9.305442 2.874588 1.000000
-42.506462 9.305442 2.712990 1.000000
-42.506462 9.305442 2.552953 1.000000
-42.506462 9.305443 2.394118 1.000000
-42.506462 9.305442 2.236132 1.000000
-42.506462 9.305441 2.078655 1.000000
-42.506462 9.305441 1.921345 1.000000
-42.506462 9.305441 1.763867 1.000000
-42.506462 9.305441 1.605882 1.000000
-42.506462 9.305441 1.447047 1.000000
-42.506462 9.305441 1.287010 1.000000
-42.506462 9.305441 1.125411 1.000000
-42.506462 9.305440 0.961876 1.000000
-42.506462 9.305441 0.796012 1.000000
-42.543613 9.311456 3.199688 1.000000
-42.543613 9.311455 3.034417 1.000000
-42.543613 9.311455 2.871465 1.000000
-42.543613 9.311456 2.710444 1.000000
-42.543613 9.311455 2.550979 1.000000
-42.543613 9.311455 2.392710 1.000000
-42.543613 9.311455 2.235289 1.000000
-42.543613 9.311455 2.078374 1.000000
-42.543613 9.311455 1.921626 1.000000
-42.543613 9.311455 1.764711 1.000000
-42.543613 9.311455 1.607289 1.000000
-42.543613 9.311455 1.449021 1.000000
-42.543613 9.311455 1.289556 1.000000
-42.543613 9.311454 1.128534 1.000000
-42.543613 9.311453 0.965583 1.000000
-42.543613 9.311454 0.800311 1.000000
-42.580505 9.317427 3.195478 1.000000
-42.580505 9.317427 3.030787 1.000000
-42.580505 9.317427 2.868407 1.000000
-42.580505 9.317428 2.707951 1.000000
-42.580505 9.317427 2.549045 1.000000
-42.580505 9.317427 2.391332 1.000000
-42.580505 9.317427 2.234463 1.000000
-42.580505 9.317427 2.078099 1.000000
-42.580505 9.317427 1.921901 1.000000
-42.580505 9.317427 1.765536 1.000000
-42.580505 9.317426 1.608668 1.000000
-42.580505 9.317425 1.450955 1.000000
-42.580505 9.317426 1.292049 1.000000
-42.580505 9.317425 1.131593 1.000000
-42.580505 9.317425 0.969213 1.000000
-42.580505 9.317425 0.804522 1.000000
-42.617142 9.323357 3.191355 1.000000
-42.617142 9.323357 3.027231 1.000000
-42.617142 9.323356 2.865412 1.000000
-42.617142 9.323357 2.705509 1.000000
-42.617142 9.323357 2.547152 1.000000
-42.617142 9.323357 2.389982 1.000000
-42.617142 9.323356 2.233655 1.000000
-42.617142 9.323355 2.077829 1.000000
-42.617142 9.323355 1.922171 1.000000
-42.617142 9.323355 1.766345 1.000000
-42.617142 9.323355 1.610017 1.000000
-42.617142 9.323355 1.452848 1.000000
-42.617142 9.323355 1.294491 1.000000
-42.617142 9.323354 1.134588 1.000000
-42.617142 9.323355 0.972768 1.000000
-42.617142 9.323355 0.808645 1.000000
-42.653526 9.329245 3.187318 1.000000
-42.653526 9.329246 3.023750 1.000000
-42.653526 9.329245 2.862479 1.000000
-42.653526 9.329245 2.703118 1.000000
-42.653526 9.329245 2.545298 1.000000
-42.653526 9.329246 2.388661 1.000000
-42.653526 9.329245 2.232863 1.000000
-42.653526 9.329245 2.077565 1.000000
-42.653526 9.329244 1.922434 1.000000
-42.653526 9.329243 1.767137 1.000000
-42.653526 9.329243 1.611339 1.000000
-42.653526 9.329243 1.454702 1.000000
-42.653526 9.329243 1.296881 1.000000
-42.653526 9.329243 1.137520 1.000000
-42.653526 9.329243 0.976249 1.000000
-42.653526 9.329243 0.812682 1.000000
-42.689667 9.335094 3.183366 1.000000
-42.689667 9.335094 3.020343 1.000000
-42.689667 9.335094 2.859608 1.000000
-42.689667 9.335094 2.700778 1.000000
-42.689667 9.335094 2.543482 1.000000
-42.689667 9.335094 2.387367 1.000000
-42.689667 9.335094 2.232088 1.000000
-42.689667 9.335094 2.077307 1.000000
-42.689667 9.335094 1.922693 1.000000
-42.689667 9.335093 1.767912 1.000000
-42.689667 9.335093 1.612633 1.000000
-42.689667 9.335093 1.456517 1.000000
-42.689667 9.335093 1.299222 1.000000
-42.689667 9.335093 1.140391 1.000000
-42.689667 9.335093 0.979657 1.000000
-42.689667 9.335093 0.816634 1.000000
-42.725571 9.340905 3.179497 1.000000
-42.725571 9.340905 3.017007 1.000000
-42.725571 9.340905 2.856798 1.000000
-42.725571 9.340906 2.698487 1.000000
-42.725571 9.340904 2.541706 1.000000
-42.725571 9.340904 2.386101 1.000000
-42.725571 9.340904 2.231329 1.000000
-42.725571 9.340904 2.077055 1.000000
-42.725571 9.340904 1.922945 1.000000
-42.725571 9.340904 1.768671 1.000000
-42.725571 9.340904 1.613899 1.000000
-42.725571 9.340904 1.458294 1.000000
-42.725571 9.340904 1.301513 1.000000
-42.725571 9.340903 1.143202 1.000000
-42.725571 9.340902 0.982993 1.000000
-42.725571 9.340902 0.820503 1.000000
-42.761242 9.346680 3.175710 1.000000
-42.761242 9.346679 3.013742 1.000000
-42.761242 9.346680 2.854047 1.000000
-42.761242 9.346678 2.696244 1.000000
-42.761242 9.346679 2.539967 1.000000
-42.761242 9.346679 2.384861 1.000000
-42.761242 9.346678 2.230587 1.000000
-42.761242 9.346679 2.076807 1.000000
-42.761242 9.346678 1.923193 1.000000
-42.761238 9.346678 1.769413 1.000000
-42.761238 9.346678 1.615139 1.000000
-42.761238 9.346678 1.460033 1.000000
-42.761238 9.346676 1.303755 1.000000
-42.761238 9.346677 1.145952 1.000000
-42.761238 9.346677 0.986258 1.000000
-42.761238 9.346676 0.824289 1.000000
-42.796684 9.352415 3.172005 1.000000
-42.796684 9.352415 3.010547 1.000000
-42.796684 9.352415 2.851356 1.000000
-42.796684 9.352415 2.694050 1.000000
-42.796684 9.352415 2.538265 1.000000
-42.796684 9.352415 2.383648 1.000000
-42.796684 9.352414 2.229860 1.000000
-42.796684 9.352414 2.076565 1.000000
-42.796684 9.352414 1.923435 1.000000
-42.796684 9.352414 1.770140 1.000000
-42.796684 9.352414 1.616351 1.000000
-42.796684 9.352413 1.461735 1.000000
-42.796684 9.352413 1.305950 1.000000
-42.796684 9.352413 1.148644 1.000000
-42.796684 9.352413 0.989453 1.000000
-42.796684 9.352413 0.827995 1.000000
-42.831905 9.358116 3.168380 1.000000
-42.831905 9.358116 3.007421 1.000000
-42.831909 9.358116 2.848722 1.000000
-42.831905 9.358116 2.691903 1.000000
-42.831905 9.358116 2.536600 1.000000
-42.831905 9.358115 2.382462 1.000000
-42.831905 9.358115 2.229149 1.000000
-42.831905 9.358114 2.076329 1.000000
-42.831905 9.358114 1.923672 1.000000
-42.831905 9.358114 1.770851 1.000000
-42.831905 9.358114 1.617538 1.000000
-42.831905 9.358115 1.463400 1.000000
-42.831905 9.358114 1.308096 1.000000
-42.831905 9.358114 1.151277 1.000000
-42.831905 9.358114 0.992579 1.000000
-42.831905 9.358114 0.831620 1.000000
-42.866913 9.363783 3.164833 1.000000
-42.866917 9.363782 3.004363 1.000000
-42.866913 9.363782 2.846146 1.000000
-42.866913 9.363782 2.689803 1.000000
-42.866913 9.363781 2.534971 1.000000
-42.866913 9.363782 2.381301 1.000000
-42.866913 9.363781 2.228453 1.000000
-42.866913 9.363781 2.076097 1.000000
-42.866913 9.363781 1.923903 1.000000
-42.866913 9.363781 1.771547 1.000000
-42.866913 9.363781 1.618699 1.000000
-42.866913 9.363780 1.465029 1.000000
-42.866913 9.363781 1.310197 1.000000
-42.866913 9.363781 1.153853 1.000000
-42.866913 9.363779 0.995636 1.000000
-42.866913 9.363781 0.835166 1.000000
-42.901711 9.369414 3.161365 1.000000
-42.901711 9.369413 3.001373 1.000000
-42.901711 9.369414 2.843627 1.000000
-42.901711 9.369413 2.687749 1.000000
-42.901711 9.369413 2.533378 1.000000
-42.901711 9.369413 2.380166 1.000000
-42.901711 9.369413 2.227773 1.000000
-42.901711 9.369413 2.075870 1.000000
-42.901711 9.369413 1.924130 1.000000
-42.901711 9.369413 1.772227 1.000000
-42.901711 9.369412 1.619834 1.000000
-42.901711 9.369412 1.466622 1.000000
-42.901711 9.369412 1.312251 1.000000
-42.901711 9.369412 1.156373 1.000000
-42.901711 9.369411 0.998627 1.000000
-42.901711 9.369411 0.838634 1.000000
-42.936306 9.375012 3.157973 1.000000
-42.936306 9.375013 2.998448 1.000000
-42.936306 9.375011 2.841163 1.000000
-42.936302 9.375011 2.685741 1.000000
-42.936302 9.375011 2.531821 1.000000
-42.936306 9.375011 2.379055 1.000000
-42.936306 9.375011 2.227108 1.000000
-42.936306 9.375011 2.075649 1.000000
-42.936306 9.375011 1.924351 1.000000
-42.936302 9.375011 1.772892 1.000000
-42.936302 9.375011 1.620945 1.000000
-42.936302 9.375010 1.468179 1.000000
-42.936302 9.375010 1.314259 1.000000
-42.936302 9.375010 1.158836 1.000000
-42.936302 9.375011 1.001551 1.000000
-42.936302 9.375010 0.842026 1.000000
-42.970695 9.380579 3.154658 1.000000
-42.970695 9.380579 2.995589 1.000000
-42.970695 9.380579 2.838754 1.000000
-42.970695 9.380579 2.683777 1.000000
-42.970695 9.380579 2.530298 1.000000
-42.970695 9.380579 2.377970 1.000000
-42.970695 9.380579 2.226458 1.000000
-42.970695 9.380579 2.075432 1.000000
-42.970695 9.380579 1.924568 1.000000
-42.970695 9.380579 1.773542 1.000000
-42.970695 9.380578 1.622030 1.000000
-42.970695 9.380577 1.469702 1.000000
-42.970695 9.380577 1.316222 1.000000
-42.970695 9.380577 1.161245 1.000000
-42.970695 9.380577 1.004410 1.000000
-42.970695 9.380577 0.845342 1.000000
-43.004894 9.386114 3.151417 1.000000
-43.004894 9.386114 2.992795 1.000000
-43.004894 9.386114 2.836401 1.000000
-43.004894 9.386113 2.681858 1.000000
-43.004894 9.386114 2.528810 1.000000
-43.004894 9.386114 2.376909 1.000000
-43.004894 9.386114 2.225822 1.000000
-43.004894 9.386114 2.075220 1.000000
-43.004894 9.386112 1.924780 1.000000
-43.004894 9.386112 1.774178 1.000000
-43.004894 9.386112 1.623091 1.000000
-43.004894 9.386112 1.471190 1.000000
-43.004894 9.386112 1.318142 1.000000
-43.004894 9.386112 1.163599 1.000000
-43.004894 9.386112 1.007204 1.000000
-43.004894 9.386112 0.848582 1.000000
-43.038902 9.391619 3.148250 1.000000
-43.038902 9.391617 2.990065 1.000000
-43.038902 9.391619 2.834100 1.000000
-43.038902 9.391617 2.679983 1.000000
-43.038902 9.391618 2.527355 1.000000
-43.038902 9.391618 2.375872 1.000000
-43.038902 9.391618 2.225201 1.000000
-43.038902 9.391617 2.075013 1.000000
-43.038902 9.391617 1.924987 1.000000
-43.038902 9.391617 1.774799 1.000000
-43.038902 9.391617 1.624127 1.000000
-43.038902 9.391617 1.472645 1.000000
-43.038902 9.391616 1.320017 1.000000
-43.038902 9.391617 1.165900 1.000000
-43.038902 9.391616 1.009935 1.000000
-43.038902 9.391616 0.851749 1.000000
-43.072727 9.397093 3.145156 1.000000
-43.072727 9.397093 2.987397 1.000000
-43.072727 9.397093 2.831853 1.000000
-43.072727 9.397093 2.678151 1.000000
-43.072727 9.397093 2.525934 1.000000
-43.072727 9.397091 2.374860 1.000000
-43.072727 9.397093 2.224594 1.000000
-43.072723 9.397092 2.074811 1.000000
-43.072723 9.397092 1.925189 1.000000
-43.072727 9.397092 1.775406 1.000000
-43.072723 9.397091 1.625140 1.000000
-43.072723 9.397091 1.474066 1.000000
-43.072723 9.397091 1.321849 1.000000
-43.072723 9.397091 1.168147 1.000000
-43.072723 9.397091 1.012603 1.000000
-43.072723 9.397090 0.854843 1.000000
-43.106369 9.402538 3.142134 1.000000
-43.106369 9.402537 2.984792 1.000000
-43.106369 9.402536 2.829658 1.000000
-43.106369 9.402538 2.676361 1.000000
-43.106369 9.402536 2.524546 1.000000
-43.106369 9.402538 2.373871 1.000000
-43.106369 9.402537 2.224002 1.000000
-43.106369 9.402536 2.074614 1.000000
-43.106369 9.402536 1.925386 1.000000
-43.106369 9.402536 1.775998 1.000000
-43.106369 9.402537 1.626129 1.000000
-43.106369 9.402536 1.475453 1.000000
-43.106369 9.402536 1.323638 1.000000
-43.106369 9.402535 1.170342 1.000000
-43.106369 9.402535 1.015208 1.000000
-43.106369 9.402536 0.857865 1.000000
-43.139835 9.407954 3.139184 1.000000
-43.139835 9.407955 2.982247 1.000000
-43.139835 9.407955 2.827515 1.000000
-43.139835 9.407954 2.674614 1.000000
-43.139835 9.407954 2.523191 1.000000
-43.139835 9.407953 2.372905 1.000000
-43.139835 9.407954 2.223423 1.000000
-43.139835 9.407953 2.074421 1.000000
-43.139835 9.407953 1.925579 1.000000
-43.139835 9.407953 1.776577 1.000000
-43.139835 9.407953 1.627095 1.000000
-43.139835 9.407953 1.476809 1.000000
-43.139835 9.407953 1.325386 1.000000
-43.139835 9.407953 1.172485 1.000000
-43.139835 9.407952 1.017752 1.000000
-43.139835 9.407951 0.860815 1.000000
-43.173134 9.413343 3.136304 1.000000
-43.173134 9.413343 2.979764 1.000000
-43.173134 9.413343 2.825423 1.000000
-43.173134 9.413343 2.672909 1.000000
-43.173134 9.413343 2.521869 1.000000
-43.173134 9.413342 2.371962 1.000000
-43.173134 9.413343 2.222858 1.000000
-43.173134 9.413342 2.074233 1.000000
-43.173134 9.413342 1.925767 1.000000
-43.173134 9.413343 1.777142 1.000000
-43.173134 9.413342 1.628038 1.000000
-43.173134 9.413342 1.478131 1.000000
-43.173134 9.413342 1.327091 1.000000
-43.173134 9.413342 1.174577 1.000000
-43.173134 9.413342 1.020235 1.000000
-43.173134 9.413342 0.863695 1.000000
-43.206264 9.418705 3.133494 1.000000
-43.206264 9.418705 2.977341 1.000000
-43.206264 9.418705 2.823381 1.000000
-43.206264 9.418704 2.671245 1.000000
-43.206264 9.418705 2.520578 1.000000
-43.206264 9.418705 2.371042 1.000000
-43.206264 9.418705 2.222307 1.000000
-43.206264 9.418705 2.074049 1.000000
-43.206264 9.418705 1.925951 1.000000
-43.206264 9.418705 1.777693 1.000000
-43.206264 9.418705 1.628958 1.000000
-43.206264 9.418705 1.479422 1.000000
-43.206264 9.418703 1.328755 1.000000
-43.206264 9.418703 1.176618 1.000000
-43.206264 9.418703 1.022658 1.000000
-43.206264 9.418703 0.866505 1.000000
-43.239231 9.424042 3.130753 1.000000
-43.239231 9.424042 2.974978 1.000000
-43.239231 9.424042 2.821390 1.000000
-43.239231 9.424042 2.669621 1.000000
-43.239231 9.424041 2.519319 1.000000
-43.239231 9.424041 2.370145 1.000000
-43.239231 9.424042 2.221769 1.000000
-43.239231 9.424041 2.073870 1.000000
-43.239231 9.424041 1.926130 1.000000
-43.239231 9.424041 1.778231 1.000000
-43.239231 9.424040 1.629855 1.000000
-43.239231 9.424040 1.480681 1.000000
-43.239231 9.424040 1.330379 1.000000
-43.239231 9.424040 1.178610 1.000000
-43.239231 9.424040 1.025022 1.000000
-43.239231 9.424039 0.869247 1.000000
-43.272041 9.429353 3.128079 1.000000
-43.272041 9.429352 2.972672 1.000000
-43.272041 9.429352 2.819448 1.000000
-43.272041 9.429352 2.668038 1.000000
-43.272041 9.429352 2.518091 1.000000
-43.272041 9.429351 2.369270 1.000000
-43.272041 9.429351 2.221245 1.000000
-43.272041 9.429352 2.073696 1.000000
-43.272041 9.429352 1.926304 1.000000
-43.272041 9.429351 1.778755 1.000000
-43.272041 9.429350 1.630730 1.000000
-43.272041 9.429350 1.481909 1.000000
-43.272041 9.429351 1.331962 1.000000
-43.272041 9.429350 1.180552 1.000000
-43.272041 9.429351 1.027327 1.000000
-43.272041 9.429350 0.871921 1.000000
-43.304699 9.434637 3.125473 1.000000
-43.304699 9.434638 2.970425 1.000000
-43.304699 9.434637 2.817555 1.000000
-43.304699 9.434637 2.666495 1.000000
-43.304699 9.434637 2.516894 1.000000
-43.304699 9.434637 2.368417 1.000000
-43.304699 9.434637 2.220734 1.000000
-43.304699 9.434637 2.073525 1.000000
-43.304699 9.434637 1.926475 1.000000
-43.304699 9.434636 1.779266 1.000000
-43.304699 9.434637 1.631583 1.000000
-43.304699 9.434636 1.483106 1.000000
-43.304699 9.434635 1.333505 1.000000
-43.304699 9.434635 1.182445 1.000000
-43.304699 9.434636 1.029574 1.000000
-43.304699 9.434635 0.874526 1.000000
-43.337208 9.439899 3.122933 1.000000
-43.337208 9.439899 2.968235 1.000000
-43.337208 9.439899 2.815710 1.000000
-43.337208 9.439899 2.664991 1.000000
-43.337208 9.439899 2.515728 1.000000
-43.337208 9.439898 2.367585 1.000000
-43.337208 9.439899 2.220236 1.000000
-43.337208 9.439899 2.073359 1.000000
-43.337208 9.439899 1.926641 1.000000
-43.337208 9.439898 1.779764 1.000000
-43.337208 9.439898 1.632415 1.000000
-43.337208 9.439898 1.484272 1.000000
-43.337208 9.439898 1.335009 1.000000
-43.337208 9.439898 1.184290 1.000000
-43.337208 9.439898 1.031764 1.000000
-43.337208 9.439898 0.877066 1.000000
-43.369572 9.445137 3.120460 1.000000
-43.369572 9.445136 2.966103 1.000000
-43.369572 9.445137 2.813913 1.000000
-43.369576 9.445137 2.663526 1.000000
-43.369572 9.445137 2.514592 1.000000
-43.369572 9.445137 2.366776 1.000000
-43.369572 9.445137 2.219751 1.000000
-43.369572 9.445137 2.073198 1.000000
-43.369572 9.445137 1.926802 1.000000
-43.369572 9.445136 1.780249 1.000000
-43.369572 9.445135 1.633224 1.000000
-43.369572 9.445135 1.485408 1.000000
-43.369572 9.445136 1.336474 1.000000
-43.369572 9.445135 1.186086 1.000000
-43.369572 9.445135 1.033896 1.000000
-43.369572 9.445135 0.879539 1.000000
-43.401798 9.450353 3.118052 1.000000
-43.401798 9.450353 2.964026 1.000000
-43.401798 9.450353 2.812164 1.000000
-43.401798 9.450353 2.662100 1.000000
-43.401798 9.450352 2.513486 1.000000
-43.401798 9.450353 2.365987 1.000000
-43.401798 9.450352 2.219278 1.000000
-43.401798 9.450352 2.073040 1.000000
-43.401798 9.450352 1.926959 1.000000
-43.401794 9.450351 1.780722 1.000000
-43.401794 9.450352 1.634013 1.000000
-43.401798 9.450352 1.486514 1.000000
-43.401798 9.450352 1.337900 1.000000
-43.401798 9.450352 1.187836 1.000000
-43.401794 9.450351 1.035973 1.000000
-43.401794 9.450350 0.881948 1.000000
-43.433884 9.455545 3.115708 1.000000
-43.433884 9.455545 2.962006 1.000000
-43.433884 9.455545 2.810462 1.000000
-43.433884 9.455545 2.660712 1.000000
-43.433884 9.455545 2.512409 1.000000
-43.433884 9.455545 2.365220 1.000000
-43.433884 9.455544 2.218819 1.000000
-43.433884 9.455544 2.072887 1.000000
-43.433884 9.455544 1.927112 1.000000
-43.433884 9.455544 1.781181 1.000000
-43.433884 9.455544 1.634780 1.000000
-43.433884 9.455544 1.487590 1.000000
-43.433884 9.455544 1.339288 1.000000
-43.433884 9.455544 1.189538 1.000000
-43.433884 9.455544 1.037994 1.000000
-43.433884 9.455544 0.884291 1.000000
-43.465839 9.460717 3.113429 1.000000
-43.465839 9.460718 2.960040 1.000000
-43.465839 9.460716 2.808805 1.000000
-43.465836 9.460716 2.659362 1.000000
-43.465839 9.460717 2.511363 1.000000
-43.465839 9.460716 2.364474 1.000000
-43.465839 9.460716 2.218372 1.000000
-43.465839 9.460716 2.072739 1.000000
-43.465839 9.460716 1.927261 1.000000
-43.465839 9.460716 1.781628 1.000000
-43.465836 9.460716 1.635526 1.000000
-43.465836 9.460716 1.488637 1.000000
-43.465836 9.460714 1.340638 1.000000
-43.465836 9.460715 1.191194 1.000000
-43.465836 9.460716 1.039960 1.000000
-43.465836 9.460714 0.886571 1.000000
-43.497662 9.465869 3.111212 1.000000
-43.497662 9.465868 2.958129 1.000000
-43.497662 9.465868 2.807195 1.000000
-43.497662 9.465869 2.658049 1.000000
-43.497662 9.465868 2.510345 1.000000
-43.497662 9.465869 2.363748 1.000000
-43.497662 9.465868 2.217937 1.000000
-43.497662 9.465868 2.072594 1.000000
-43.497662 9.465868 1.927406 1.000000
-43.497662 9.465867 1.782063 1.000000
-43.497662 9.465868 1.636252 1.000000
-43.497662 9.465867 1.489655 1.000000
-43.497662 9.465868 1.341951 1.000000
-43.497662 9.465867 1.192804 1.000000
-43.497662 9.465866 1.041871 1.000000
-43.497662 9.465867 0.888788 1.000000
-43.529362 9.470999 3.109058 1.000000
-43.529362 9.470999 2.956272 1.000000
-43.529362 9.470999 2.805631 1.000000
-43.529362 9.470999 2.656774 1.000000
-43.529362 9.470999 2.509356 1.000000
-43.529362 9.470999 2.363043 1.000000
-43.529362 9.470999 2.217515 1.000000
-43.529362 9.470999 2.072453 1.000000
-43.529362 9.470999 1.927547 1.000000
-43.529362 9.470998 1.782485 1.000000
-43.529362 9.470997 1.636956 1.000000
-43.529362 9.470997 1.490644 1.000000
-43.529362 9.470997 1.343226 1.000000
-43.529362 9.470998 1.194369 1.000000
-43.529362 9.470997 1.043728 1.000000
-43.529362 9.470997 0.890941 1.000000
-43.560944 9.476110 3.106967 1.000000
-43.560944 9.476110 2.954469 1.000000
-43.560944 9.476110 2.804112 1.000000
-43.560944 9.476110 2.655535 1.000000
-43.560944 9.476110 2.508395 1.000000
-43.560944 9.476110 2.362359 1.000000
-43.560944 9.476110 2.217104 1.000000
-43.560944 9.476110 2.072316 1.000000
-43.560944 9.476110 1.927684 1.000000
-43.560944 9.476110 1.782896 1.000000
-43.560944 9.476109 1.637641 1.000000
-43.560944 9.476110 1.491605 1.000000
-43.560944 9.476109 1.344465 1.000000
-43.560944 9.476109 1.195888 1.000000
-43.560944 9.476109 1.045531 1.000000
-43.560944 9.476109 0.893033 1.000000
-43.592403 9.481203 3.104937 1.000000
-43.592403 9.481203 2.952718 1.000000
-43.592403 9.481203 2.802637 1.000000
-43.592403 9.481202 2.654333 1.000000
-43.592403 9.481202 2.507463 1.000000
-43.592403 9.481202 2.361694 1.000000
-43.592403 9.481202 2.216706 1.000000
-43.592403 9.481201 2.072184 1.000000
-43.592403 9.481201 1.927816 1.000000
-43.592403 9.481201 1.783294 1.000000
-43.592403 9.481201 1.638306 1.000000
-43.592403 9.481201 1.492537 1.000000
-43.592403 9.481201 1.345666 1.000000
-43.592403 9.481201 1.197363 1.000000
-43.592403 9.481201 1.047281 1.000000
-43.592403 9.481201 0.895063 1.000000
-43.623753 9.486277 3.102968 1.000000
-43.623753 9.486277 2.951021 1.000000
-43.623753 9.486277 2.801207 1.000000
-43.623753 9.486276 2.653167 1.000000
-43.623753 9.486276 2.506559 1.000000
-43.623753 9.486277 2.361050 1.000000
-43.623753 9.486275 2.216320 1.000000
-43.623753 9.486275 2.072055 1.000000
-43.623753 9.486275 1.927945 1.000000
-43.623753 9.486275 1.783680 1.000000
-43.623753 9.486276 1.638950 1.000000
-43.623753 9.486275 1.493441 1.000000
-43.623753 9.486275 1.346832 1.000000
-43.623753 9.486275 1.198793 1.000000
-43.623753 9.486275 1.048979 1.000000
-43.623753 9.486275 0.897031 1.000000
-43.654991 9.491332 3.101060 1.000000
-43.654991 9.491331 2.949376 1.000000
-43.654991 9.491331 2.799821 1.000000
-43.654991 9.491331 2.652037 1.000000
-43.654991 9.491331 2.505682 1.000000
-43.654991 9.491331 2.360425 1.000000
-43.654991 9.491331 2.215946 1.000000
-43.654991 9.491331 2.071930 1.000000
-43.654991 9.491331 1.928069 1.000000
-43.654991 9.491330 1.784054 1.000000
-43.654991 9.491330 1.639575 1.000000
-43.654991 9.491330 1.494318 1.000000
-43.654991 9.491329 1.347962 1.000000
-43.654991 9.491330 1.200179 1.000000
-43.654991 9.491329 1.050624 1.000000
-43.654991 9.491329 0.898939 1.000000
-43.686123 9.496370 3.099212 1.000000
-43.686123 9.496370 2.947782 1.000000
-43.686123 9.496370 2.798479 1.000000
-43.686123 9.496370 2.650943 1.000000
-43.686123 9.496370 2.504834 1.000000
-43.686123 9.496370 2.359820 1.000000
-43.686123 9.496370 2.215583 1.000000
-43.686123 9.496369 2.071810 1.000000
-43.686123 9.496368 1.928190 1.000000
-43.686123 9.496369 1.784416 1.000000
-43.686123 9.496368 1.640180 1.000000
-43.686123 9.496368 1.495166 1.000000
-43.686123 9.496368 1.349057 1.000000
-43.686123 9.496368 1.201521 1.000000
-43.686123 9.496369 1.052217 1.000000
-43.686123 9.496368 0.900787 1.000000
-43.717152 9.501392 3.097424 1.000000
-43.717152 9.501392 2.946240 1.000000
-43.717152 9.501392 2.797179 1.000000
-43.717152 9.501392 2.649884 1.000000
-43.717152 9.501392 2.504012 1.000000
-43.717152 9.501392 2.359235 1.000000
-43.717152 9.501390 2.215233 1.000000
-43.717152 9.501390 2.071693 1.000000
-43.717152 9.501390 1.928307 1.000000
-43.717152 9.501390 1.784767 1.000000
-43.717152 9.501391 1.640765 1.000000
-43.717152 9.501390 1.495988 1.000000
-43.717152 9.501390 1.350116 1.000000
-43.717152 9.501390 1.202820 1.000000
-43.717152 9.501390 1.053759 1.000000
-43.717152 9.501390 0.902575 1.000000
-43.748081 9.506399 3.095694 1.000000
-43.748081 9.506398 2.944749 1.000000
-43.748081 9.506399 2.795923 1.000000
-43.748081 9.506398 2.648860 1.000000
-43.748081 9.506398 2.503218 1.000000
-43.748081 9.506399 2.358669 1.000000
-43.748081 9.506398 2.214893 1.000000
-43.748081 9.506399 2.071580 1.000000
-43.748081 9.506398 1.928420 1.000000
-43.748081 9.506397 1.785106 1.000000
-43.748081 9.506397 1.641331 1.000000
-43.748081 9.506397 1.496782 1.000000
-43.748081 9.506397 1.351140 1.000000
-43.748081 9.506397 1.204077 1.000000
-43.748081 9.506396 1.055250 1.000000
-43.748081 9.506396 0.904305 1.000000
-43.778915 9.511389 3.094024 1.000000
-43.778915 9.511389 2.943309 1.000000
-43.778915 9.511389 2.794709 1.000000
-43.778915 9.511389 2.647870 1.000000
-43.778915 9.511389 2.502450 1.000000
-43.778915 9.511388 2.358122 1.000000
-43.778915 9.511389 2.214566 1.000000
-43.778915 9.511389 2.071471 1.000000
-43.778915 9.511388 1.928529 1.000000
-43.778915 9.511388 1.785434 1.000000
-43.778915 9.511387 1.641878 1.000000
-43.778915 9.511387 1.497549 1.000000
-43.778915 9.511388 1.352129 1.000000
-43.778915 9.511387 1.205290 1.000000
-43.778915 9.511387 1.056691 1.000000
-43.778915 9.511386 0.905975 1.000000
-43.809658 9.516365 3.092411 1.000000
-43.809658 9.516364 2.941918 1.000000
-43.809658 9.516364 2.793538 1.000000
-43.809658 9.516364 2.646915 1.000000
-43.809658 9.516363 2.501710 1.000000
-43.809658 9.516363 2.357594 1.000000
-43.809658 9.516363 2.214249 1.000000
-43.809658 9.516363 2.071365 1.000000
-43.809658 9.516363 1.928635 1.000000
-43.809658 9.516363 1.785750 1.000000
-43.809658 9.516363 1.642406 1.000000
-43.809658 9.516362 1.498290 1.000000
-43.809658 9.516362 1.353084 1.000000
