# This PCD file was generated using the MATLABÂ® pcwrite function
# from Computer Vision ToolboxÂ®.
# .PCD v.7 - Point Cloud Data file format
VERSION .7
FIELDS x y z intensity
SIZE 4 4 4 4
TYPE F F F F
COUNT 1 1 1 1
WIDTH 1213
HEIGHT 1
VIEWPOINT 0 0 0 1 0 0 0
POINTS 1213
DATA ascii
-372.869843 496.661530 0.000004 0.342824
-374.596588 496.533783 -0.000001 0.331640
-375.868835 496.439667 0.000003 0.343160
nan nan nan 0.000000
nan nan nan 0.000000
nan nan nan 0.000000
nan nan nan 0.000000
-351.821472 498.443634 5.694524 1.000000
-351.821442 498.443634 4.633273 1.000000
-351.821442 498.443634 3.577705 1.000000
-351.821442 498.443634 2.525527 1.000000
-351.821442 498.443634 1.474474 1.000000
-351.821442 498.443634 0.422295 1.000000
-359.519714 497.820007 0.000015 0.535134
-366.503235 497.254272 0.000012 0.539528
-370.392639 496.939209 0.000001 0.340078
-372.875763 496.738037 0.000004 0.341543
-374.601593 496.598236 -0.000000 0.330251
-375.873138 496.495239 0.000003 0.334081
nan nan nan 0.000000
nan nan nan 0.000000
nan nan nan 0.000000
nan nan nan 0.000000
-352.603180 498.599884 5.606426 1.000000
-352.603180 498.599884 4.570482 1.000000
-352.603180 498.599884 3.540083 1.000000
-352.603180 498.599884 2.512994 1.000000
-352.603180 498.599884 1.487005 1.000000
-352.603180 498.599884 0.459916 1.000000
-359.534058 497.989685 0.000015 0.541756
-366.513458 497.375214 0.000011 0.539208
-370.400574 497.032990 0.000001 0.336873
-372.882233 496.814514 0.000003 0.338888
-374.607056 496.662659 -0.000001 0.336400
-375.877838 496.550781 0.000003 0.352636
nan nan nan 0.000000
nan nan nan 0.000000
nan nan nan 0.000000
nan nan nan 0.000000
-353.348541 498.748871 5.522600 1.000000
-353.348511 498.748871 4.510735 1.000000
-353.348541 498.748871 3.504286 1.000000
-353.348511 498.748871 2.501071 1.000000
-353.348511 498.748871 1.498929 1.000000
-353.348541 498.748871 0.495713 1.000000
-359.549561 498.159271 0.000015 0.539055
-366.524506 497.496094 0.000011 0.541665
-370.409149 497.126740 0.000001 0.335958
-372.889221 496.890930 0.000003 0.333028
-374.612946 496.727020 -0.000000 0.346975
-375.882935 496.606293 0.000002 0.335973
nan nan nan 0.000000
nan nan nan 0.000000
nan nan nan 0.000000
nan nan nan 0.000000
-354.060028 498.891083 5.442748 1.000000
-354.060059 498.891083 4.453819 1.000000
-354.060059 498.891083 3.470186 1.000000
-354.060028 498.891083 2.489712 1.000000
-354.060028 498.891083 1.510288 1.000000
-354.060059 498.891083 0.529814 1.000000
-359.566284 498.328735 0.000015 0.536141
-366.536438 497.616852 0.000012 0.525124
-370.418396 497.220398 0.000001 0.335363
-372.896759 496.967285 0.000003 0.331441
-374.619293 496.791382 -0.000000 0.335378
-375.888397 496.661743 0.000003 0.333959
nan nan nan 0.000000
nan nan nan 0.000000
nan nan nan 0.000000
nan nan nan 0.000000
-354.740051 499.027008 5.366594 1.000000
-354.740051 499.027008 4.399541 1.000000
-354.740051 499.027008 3.437666 1.000000
-354.740051 499.026978 2.478879 1.000000
-354.740051 499.026978 1.521121 1.000000
-354.740051 499.026978 0.562334 1.000000
-359.584167 498.498077 0.000015 0.536690
-366.549194 497.737579 0.000012 0.547204
-370.428284 497.314026 0.000001 0.338323
-372.904816 497.043610 0.000003 0.333089
-374.626068 496.855652 0.000000 0.332235
-375.894257 496.717194 0.000003 0.328771
nan nan nan 0.000000
nan nan nan 0.000000
nan nan nan 0.000000
nan nan nan 0.000000
-355.390656 499.157043 5.293895 1.000000
-355.390656 499.157043 4.347723 1.000000
-355.390656 499.157043 3.406620 1.000000
-355.390656 499.157043 2.468538 1.000000
-355.390656 499.157043 1.531462 1.000000
-355.390656 499.157043 0.593379 1.000000
-359.603241 498.667267 0.000015 0.537423
-366.562775 497.858185 0.000011 0.553506
-370.438812 497.407532 0.000002 0.330953
-372.913391 497.119843 0.000003 0.329290
-374.633331 496.919891 0.000000 0.333761
-375.900482 496.772583 0.000002 0.339193
nan nan nan 0.000000
nan nan nan 0.000000
nan nan nan 0.000000
nan nan nan 0.000000
-356.013763 499.281586 5.224423 1.000000
-356.013763 499.281586 4.298208 1.000000
-356.013763 499.281586 3.376953 1.000000
-356.013794 499.281586 2.458656 1.000000
-356.013794 499.281586 1.541343 1.000000
-356.013794 499.281586 0.623047 1.000000
-359.623505 498.836365 0.000015 0.536538
-366.577209 497.978668 0.000011 0.528038
-370.450012 497.501007 0.000001 0.337896
-372.922516 497.196045 0.000002 0.335561
-374.641022 496.984100 0.000000 0.332631
-375.907135 496.827911 0.000003 0.333928
nan nan nan 0.000000
nan nan nan 0.000000
nan nan nan 0.000000
nan nan nan 0.000000
-356.611206 499.401001 5.157970 1.000000
-356.611206 499.401001 4.250844 1.000000
-356.611206 499.401001 3.348576 1.000000
-356.611206 499.401001 2.449204 1.000000
-356.611206 499.401001 1.550796 1.000000
-356.611206 499.401001 0.651424 1.000000
-359.644928 499.005280 0.000015 0.539513
-366.592499 498.099091 0.000012 0.544717
-370.461853 497.594391 0.000002 0.332570
-372.932190 497.272186 0.000001 0.337469
-374.649139 497.048218 0.000001 0.333410
-375.914154 496.883209 0.000002 0.338766
nan nan nan 0.000000
nan nan nan 0.000000
nan nan nan 0.000000
-357.184509 499.515594 5.989922 1.000000
-357.184509 499.515594 5.094350 1.000000
-357.184509 499.515594 4.205499 1.000000
-357.184509 499.515594 3.321407 1.000000
-357.184509 499.515594 2.440155 1.000000
-357.184509 499.515594 1.559845 1.000000
-357.184509 499.515594 0.678593 1.000000
-359.667572 499.174072 0.000015 0.532418
-366.608612 498.219391 0.000012 0.543359
-370.474365 497.687683 0.000002 0.338674
-372.942383 497.348236 0.000001 0.340291
-374.657745 497.112305 0.000001 0.321996
-375.921539 496.938477 0.000003 0.343435
nan nan nan 0.000000
nan nan nan 0.000000
nan nan nan 0.000000
-357.735229 499.625641 5.911315 1.000000
-357.735229 499.625641 5.033387 1.000000
-357.735199 499.625641 4.162047 1.000000
-357.735229 499.625641 3.295374 1.000000
-357.735229 499.625641 2.431482 1.000000
-357.735229 499.625641 1.568517 1.000000
-357.735229 499.625641 0.704626 1.000000
-359.691345 499.342682 0.000015 0.537179
-366.625580 498.339569 0.000011 0.520317
-370.487518 497.780884 0.000002 0.335058
-372.953094 497.424225 0.000000 0.328847
-374.666779 497.176300 0.000001 0.337377
-375.929321 496.993652 0.000002 0.343221
nan nan nan 0.000000
nan nan nan 0.000000
nan nan nan 0.000000
-358.264648 499.731476 5.835929 1.000000
-358.264648 499.731476 4.974923 1.000000
-358.264648 499.731476 4.120378 1.000000
-358.264648 499.731476 3.270407 1.000000
-358.264648 499.731476 2.423167 1.000000
-358.264648 499.731476 1.576833 1.000000
-358.264648 499.731476 0.729593 1.000000
-359.716309 499.511108 0.000015 0.544335
-366.643372 498.459625 0.000012 0.555230
-370.501312 497.873993 0.000002 0.335180
-372.964355 497.500122 0.000000 0.334859
-374.676239 497.240265 0.000002 0.338689
-375.937500 497.048798 0.000002 0.343725
nan nan nan 0.000000
nan nan nan 0.000000
nan nan nan 0.000000
-358.774109 499.833313 5.763575 1.000000
-358.774109 499.833313 4.918809 1.000000
-358.774109 499.833313 4.080381 1.000000
-358.774109 499.833313 3.246444 1.000000
-358.774109 499.833313 2.415185 1.000000
-358.774109 499.833313 1.584816 1.000000
-358.774109 499.833313 0.753555 1.000000
-359.742462 499.679382 0.000015 0.541360
-366.661987 498.579559 0.000012 0.540047
-370.515778 497.967010 0.000002 0.337011
-372.976135 497.575958 0.000000 0.338277
-374.686188 497.304138 0.000002 0.336233
-375.946045 497.103882 0.000002 0.322759
nan nan nan 0.000000
nan nan nan 0.000000
nan nan nan 0.000000
-359.264709 499.931366 5.694075 1.000000
-359.264709 499.931366 4.864910 1.000000
-359.264709 499.931366 4.041964 1.000000
-359.264709 499.931366 3.223427 1.000000
-359.264709 499.931366 2.407518 1.000000
-359.264709 499.931366 1.592482 1.000000
-359.264709 499.931366 0.776573 1.000000
-359.769775 499.847473 0.000015 0.545495
-366.681458 498.699341 0.000012 0.528588
-370.597412 498.048859 0.010007 1.000000
-372.988434 497.651703 -0.000000 0.337133
-374.696533 497.367950 0.000002 0.341543
-375.954987 497.158905 0.000002 0.334737
nan nan nan 0.000000
nan nan nan 0.000000
nan nan nan 0.000000
-359.737549 500.025879 5.627270 1.000000
-359.737549 500.025879 4.813099 1.000000
-359.737549 500.025879 4.005036 1.000000
-359.737549 500.025879 3.201302 1.000000
-359.737549 500.025879 2.400148 1.000000
-359.737549 500.025879 1.599852 1.000000
-359.737549 500.025879 0.798697 1.000000
-359.798279 500.015350 0.000015 0.544030
-366.701782 498.819000 0.000012 0.535485
-370.613098 498.141205 0.010009 1.000000
-373.001282 497.727356 -0.000001 0.340429
-374.707367 497.431702 0.000002 0.334356
-375.964325 497.213867 0.000000 0.349828
nan nan nan 0.000000
nan nan nan 0.000000
nan nan nan 0.000000
-360.193604 500.117035 5.563008 1.000000
-360.193604 500.117035 4.763261 1.000000
-360.193604 500.117035 3.969516 1.000000
-360.193604 500.117035 3.180019 1.000000
-360.193604 500.117035 2.393059 1.000000
-360.193604 500.117035 1.606941 1.000000
-360.193604 500.117035 0.819980 1.000000
-360.193604 500.117035 0.030484 1.000000
-366.722931 498.938538 0.000012 0.525170
-370.629425 498.233429 0.010012 1.000000
-373.014618 497.802917 -0.000002 0.335210
-374.718628 497.495331 0.000002 0.335744
-375.974030 497.268738 0.000000 0.333608
nan nan nan 0.000000
nan nan nan 0.000000
nan nan nan 0.000000
-360.633820 500.205017 5.501152 1.000000
-360.633820 500.205017 4.715290 1.000000
-360.633820 500.205017 3.935323 1.000000
-360.633820 500.205017 3.159533 1.000000
-360.633820 500.205017 2.386235 1.000000
-360.633820 500.205017 1.613765 1.000000
-360.633820 500.205017 0.840466 1.000000
-360.633820 500.205017 0.064677 1.000000
-366.744904 499.057892 0.000012 0.532113
-370.580078 498.337982 0.000003 0.331548
-373.028534 497.878387 -0.000002 0.332326
-374.730347 497.558929 0.000002 0.333883
-375.984131 497.323578 -0.000000 0.338903
nan nan nan 0.000000
nan nan nan 0.000000
nan nan nan 0.000000
-361.059021 500.290009 5.441572 1.000000
-361.059021 500.290009 4.669083 1.000000
-361.059021 500.290009 3.902389 1.000000
-361.059021 500.290009 3.139801 1.000000
-361.059021 500.290009 2.379662 1.000000
-361.059021 500.290009 1.620337 1.000000
-361.059021 500.290009 0.860198 1.000000
-361.059021 500.290009 0.097610 1.000000
-366.767700 499.177094 0.000012 0.527352
-370.597748 498.430420 0.000003 0.337911
-373.042938 497.953735 -0.000002 0.330510
-374.742493 497.622406 0.000002 0.339651
-375.994598 497.378326 -0.000001 0.330526
nan nan nan 0.000000
nan nan nan 0.000000
nan nan nan 0.000000
-361.470001 500.372131 5.384148 1.000000
-361.470001 500.372131 4.624547 1.000000
-361.470001 500.372131 3.870646 1.000000
-361.470001 500.372131 3.120782 1.000000
-361.470001 500.372131 2.373328 1.000000
-361.470001 500.372131 1.626673 1.000000
-361.470001 500.372131 0.879217 1.000000
-361.470032 500.372131 0.129353 1.000000
-366.791351 499.296143 0.000012 0.535088
-370.616119 498.522736 0.000010 0.536446
-373.057892 498.029022 -0.000002 0.340307
-374.755066 497.685822 0.000003 0.328298
-376.005432 497.433014 -0.000003 0.334386
nan nan nan 0.000000
nan nan nan 0.000000
nan nan nan 0.000000
-361.867523 500.451599 5.328768 1.000000
-361.867523 500.451599 4.581598 1.000000
-361.867523 500.451599 3.840035 1.000000
-361.867523 500.451599 3.102443 1.000000
-361.867523 500.451599 2.367219 1.000000
-361.867523 500.451599 1.632782 1.000000
-361.867523 500.451599 0.897557 1.000000
-361.867523 500.451599 0.159965 1.000000
-366.815796 499.415009 0.000011 0.537377
-370.635101 498.614929 0.000010 0.540124
-373.073364 498.104187 -0.000004 0.332219
-374.768097 497.749146 0.000003 0.335637
-376.016663 497.487610 -0.000004 0.336507
nan nan nan 0.000000
nan nan nan 0.000000
nan nan nan 0.000000
-362.252258 500.528503 5.275328 1.000000
-362.252258 500.528503 4.540154 1.000000
-362.252258 500.528503 3.810494 1.000000
-362.252258 500.528503 3.084744 1.000000
-362.252258 500.528503 2.361322 1.000000
-362.252258 500.528503 1.638677 1.000000
-362.252258 500.528503 0.915256 1.000000
-362.252258 500.528503 0.189505 1.000000
-366.841095 499.533722 0.000011 0.538903
-370.654724 498.707001 0.000010 0.524834
-373.089355 498.179230 -0.000004 0.339300
-374.781586 497.812378 0.000003 0.332906
-376.028290 497.542114 -0.000004 0.341299
nan nan nan 0.000000
nan nan nan 0.000000
-362.624878 500.602966 5.954387 1.000000
-362.624878 500.602966 5.223733 1.000000
-362.624878 500.602966 4.500139 1.000000
-362.624878 500.602966 3.781974 1.000000
-362.624878 500.602966 3.067656 1.000000
-362.624847 500.602966 2.355631 1.000000
-362.624878 500.602966 1.644369 1.000000
-362.624878 500.602966 0.932344 1.000000
-362.624878 500.602966 0.218025 1.000000
-366.867249 499.652252 0.000012 0.531258
-370.674988 498.798920 0.000009 0.530510
-373.105865 498.254150 -0.000004 0.337087
-374.795502 497.875519 0.000003 0.331670
-376.040283 497.596558 -0.000005 0.335058
nan nan nan 0.000000
nan nan nan 0.000000
-362.985931 500.675140 5.893247 1.000000
-362.985931 500.675140 5.173889 1.000000
-362.985931 500.675140 4.461483 1.000000
-362.985931 500.675140 3.754423 1.000000
-362.985931 500.675140 3.051148 1.000000
-362.985931 500.675140 2.350132 1.000000
-362.985931 500.675140 1.649867 1.000000
-362.985931 500.675140 0.948851 1.000000
-362.985931 500.675140 0.245577 1.000000
-366.894196 499.770599 0.000012 0.544747
-370.695892 498.890686 0.000010 0.542535
-373.122894 498.328979 -0.000005 0.334630
-374.809845 497.938538 0.000003 0.338567
-376.052673 497.650909 -0.000006 0.331106
nan nan nan 0.000000
nan nan nan 0.000000
-363.335999 500.745117 5.834151 1.000000
-363.335999 500.745117 5.125713 1.000000
-363.335999 500.745117 4.424121 1.000000
-363.335999 500.745117 3.727793 1.000000
-363.335999 500.745117 3.035193 1.000000
-363.335999 500.745117 2.344818 1.000000
-363.335999 500.745117 1.655182 1.000000
-363.335999 500.745117 0.964807 1.000000
-363.335999 500.745117 0.272207 1.000000
-366.921967 499.888733 0.000012 0.551400
-370.717438 498.982330 0.000010 0.525048
-373.140472 498.403687 -0.000005 0.344091
-374.824646 498.001465 0.000003 0.336492
-376.065430 497.705170 -0.000007 0.336385
nan nan nan 0.000000
nan nan nan 0.000000
-363.675629 500.812988 5.777006 1.000000
-363.675629 500.812988 5.079124 1.000000
-363.675629 500.812988 4.387990 1.000000
-363.675629 500.812988 3.702041 1.000000
-363.675629 500.812988 3.019764 1.000000
-363.675629 500.812988 2.339679 1.000000
-363.675629 500.812988 1.660321 1.000000
-363.675629 500.812988 0.980236 1.000000
-363.675629 500.812988 0.297959 1.000000
-366.950562 500.006683 0.000012 0.540444
-370.739624 499.073792 0.000010 0.544762
-373.158539 498.478271 -0.000005 0.333898
-374.839905 498.064301 0.000003 0.332494
-376.078552 497.759338 -0.000007 0.339010
nan nan nan 0.000000
nan nan nan 0.000000
-364.005310 500.878876 5.721717 1.000000
-364.005310 500.878876 5.034052 1.000000
-364.005310 500.878876 4.353034 1.000000
-364.005310 500.878876 3.677126 1.000000
-364.005310 500.878876 3.004837 1.000000
-364.005310 500.878876 2.334706 1.000000
-364.005310 500.878876 1.665294 1.000000
-364.005310 500.878876 0.995163 1.000000
-364.005310 500.878876 0.322874 1.000000
-366.980011 500.124420 0.000012 0.534035
-370.762451 499.165131 0.000010 0.540017
-373.177155 498.552704 -0.000006 0.342046
-374.855560 498.127014 0.000003 0.334386
-376.092072 497.813416 -0.000008 0.337636
nan nan nan 0.000000
nan nan nan 0.000000
-364.325470 500.942871 5.668200 1.000000
-364.325470 500.942871 4.990423 1.000000
-364.325470 500.942871 4.319198 1.000000
-364.325470 500.942871 3.653009 1.000000
-364.325470 500.942871 2.990387 1.000000
-364.325470 500.942871 2.329893 1.000000
-364.325470 500.942871 1.670107 1.000000
-364.325470 500.942871 1.009613 1.000000
-364.325470 500.942871 0.346991 1.000000
-367.010254 500.241974 0.000012 0.523598
-370.785919 499.256287 0.000010 0.515831
-373.196259 498.627014 -0.000007 0.334432
-374.871674 498.189636 0.000003 0.341619
-376.105957 497.867401 -0.000010 0.333486
nan nan nan 0.000000
nan nan nan 0.000000
-364.636597 501.005066 5.616374 1.000000
-364.636597 501.005066 4.948173 1.000000
-364.636597 501.005066 4.286431 1.000000
-364.636597 501.005066 3.629654 1.000000
-364.636597 501.005066 2.976395 1.000000
-364.636597 501.005066 2.325233 1.000000
-364.636597 501.005066 1.674768 1.000000
-364.636597 501.005066 1.023605 1.000000
-364.636597 501.005066 0.370345 1.000000
-367.041321 500.359314 0.000011 0.531106
-370.809998 499.347290 0.000009 0.557214
-373.215912 498.701202 -0.000007 0.334340
-374.888214 498.252136 0.000003 0.331746
-376.120209 497.921295 -0.000011 0.334493
nan nan nan 0.000000
nan nan nan 0.000000
-364.939026 501.065521 5.566162 1.000000
-364.939026 501.065521 4.907240 1.000000
-364.939056 501.065521 4.254685 1.000000
-364.939056 501.065521 3.607027 1.000000
-364.939026 501.065521 2.962838 1.000000
-364.939056 501.065521 2.320716 1.000000
-364.939056 501.065521 1.679283 1.000000
-364.939056 501.065521 1.037162 1.000000
-364.939056 501.065521 0.392972 1.000000
-367.073212 500.476410 0.000012 0.541665
-370.834717 499.438110 0.000010 0.540200
-373.236053 498.775238 -0.000008 0.341299
-374.905212 498.314514 0.000003 0.331212
-376.134857 497.975067 -0.000010 0.335683
nan nan nan 0.000000
nan nan nan 0.000000
-365.233215 501.124329 5.517496 1.000000
-365.233215 501.124329 4.867565 1.000000
-365.233215 501.124329 4.223916 1.000000
-365.233215 501.124329 3.585097 1.000000
-365.233215 501.124329 2.949698 1.000000
-365.233215 501.124329 2.316340 1.000000
-365.233215 501.124329 1.683660 1.000000
-365.233215 501.124329 1.050302 1.000000
-365.233215 501.124329 0.414903 1.000000
-367.105896 500.593292 0.000012 0.548638
-370.860107 499.528748 0.000010 0.547616
-373.256744 498.849152 -0.000008 0.337606
-374.922638 498.376770 0.000003 0.336751
-376.149902 498.028748 -0.000009 0.343404
nan nan nan 0.000000
nan nan nan 0.000000
-365.519501 501.181549 5.470306 1.000000
-365.519501 501.181549 4.829095 1.000000
-365.519501 501.181519 4.194081 1.000000
-365.519501 501.181549 3.563832 1.000000
-365.519501 501.181519 2.936957 1.000000
-365.519501 501.181549 2.312096 1.000000
-365.519501 501.181549 1.687904 1.000000
-365.519501 501.181519 1.063043 1.000000
-365.519501 501.181519 0.436168 1.000000
-367.139435 500.709930 0.000012 0.549889
-370.886078 499.619202 0.000010 0.558404
-373.277924 498.922882 -0.000009 0.339727
-374.940491 498.438904 0.000004 0.338445
-376.165283 498.082336 -0.000009 0.332662
nan nan nan 0.000000
nan nan nan 0.000000
-365.798218 501.237244 5.424532 1.000000
-365.798218 501.237244 4.791779 1.000000
-365.798218 501.237244 4.165140 1.000000
-365.798218 501.237244 3.543204 1.000000
-365.798218 501.237244 2.924598 1.000000
-365.798218 501.237244 2.307979 1.000000
-365.798218 501.237244 1.692021 1.000000
-365.798218 501.237244 1.075401 1.000000
-365.798218 501.237244 0.456795 1.000000
-367.173767 500.826355 0.000012 0.541268
-370.912720 499.709503 0.000009 0.551400
-373.299622 498.996490 -0.000009 0.336751
-374.958771 498.500885 0.000003 0.342840
-376.181061 498.135803 -0.000009 0.336156
nan nan nan 0.000000
nan nan nan 0.000000
-366.069702 501.291504 5.380110 1.000000
-366.069702 501.291504 4.755565 1.000000
-366.069672 501.291504 4.137055 1.000000
-366.069672 501.291504 3.523187 1.000000
-366.069672 501.291504 2.912605 1.000000
-366.069672 501.291504 2.303985 1.000000
-366.069672 501.291504 1.696015 1.000000
-366.069702 501.291504 1.087395 1.000000
-366.069672 501.291504 0.476813 1.000000
-367.208893 500.942535 0.000012 0.537087
-370.939972 499.799591 0.000009 0.529885
-373.321869 499.069946 -0.000009 0.338247
-374.977478 498.562775 0.000004 0.344930
-376.197205 498.189148 -0.000008 0.338552
nan nan nan 0.000000
-366.334229 501.344360 5.960957 1.000000
-366.334229 501.344360 5.336987 1.000000
-366.334229 501.344360 4.720410 1.000000
-366.334229 501.344360 4.109792 1.000000
-366.334229 501.344360 3.503754 1.000000
-366.334198 501.344360 2.900963 1.000000
-366.334229 501.344360 2.300106 1.000000
-366.334229 501.344360 1.699893 1.000000
-366.334229 501.344360 1.099037 1.000000
-366.334229 501.344360 0.496245 1.000000
-367.244843 501.058441 0.000012 0.525261
-370.967865 499.889496 0.000009 0.558083
-373.344604 499.143250 -0.000008 0.336629
-374.996643 498.624512 0.000003 0.341146
-376.213715 498.242371 -0.000008 0.345464
nan nan nan 0.000000
-366.592102 501.395905 5.911248 1.000000
-366.592102 501.395905 5.295110 1.000000
-366.592102 501.395905 4.686271 1.000000
-366.592102 501.395905 4.083314 1.000000
-366.592102 501.395905 3.484883 1.000000
-366.592102 501.395905 2.889656 1.000000
-366.592102 501.395905 2.296340 1.000000
-366.592102 501.395905 1.703660 1.000000
-366.592102 501.395905 1.110344 1.000000
-366.592102 501.395905 0.515117 1.000000
-367.281616 501.174103 0.000012 0.550210
-370.996368 499.979187 0.000010 0.547036
-373.420227 499.199524 0.010004 1.000000
-375.016235 498.686127 0.000004 0.340673
-376.230591 498.295502 -0.000007 0.339620
nan nan nan 0.000000
-366.843567 501.446198 5.862959 1.000000
-366.843597 501.446198 5.254427 1.000000
-366.843597 501.446198 4.653105 1.000000
-366.843597 501.446198 4.057593 1.000000
-366.843567 501.446198 3.466551 1.000000
-366.843597 501.446198 2.878672 1.000000
-366.843597 501.446198 2.292681 1.000000
-366.843597 501.446198 1.707319 1.000000
-366.843597 501.446198 1.121328 1.000000
-366.843567 501.446198 0.533449 1.000000
-367.319183 501.289520 0.000011 0.540124
-371.025513 500.068695 0.000009 0.511467
-373.443848 499.272125 0.010005 1.000000
-375.036224 498.747620 0.000004 0.330129
-376.247864 498.348511 -0.000006 0.340261
nan nan nan 0.000000
-367.088959 501.495239 5.816030 1.000000
-367.088959 501.495239 5.214892 1.000000
-367.088959 501.495239 4.620873 1.000000
-367.088959 501.495239 4.032597 1.000000
-367.088959 501.495239 3.448733 1.000000
-367.088959 501.495239 2.867997 1.000000
-367.088959 501.495239 2.289126 1.000000
-367.088959 501.495239 1.710874 1.000000
-367.088959 501.495239 1.132003 1.000000
-367.088959 501.495239 0.551266 1.000000
-367.357544 501.404663 0.000011 0.541924
-371.055267 500.157990 0.000009 0.528008
-373.467987 499.344543 0.010005 1.000000
-375.056671 498.808929 0.000004 0.336141
-376.265472 498.401398 -0.000005 0.342428
nan nan nan 0.000000
-367.328461 501.543091 5.770410 1.000000
-367.328461 501.543091 5.176458 1.000000
-367.328461 501.543091 4.589541 1.000000
-367.328461 501.543091 4.008297 1.000000
-367.328461 501.543091 3.431415 1.000000
-367.328461 501.543091 2.857621 1.000000
-367.328461 501.543091 2.285669 1.000000
-367.328461 501.543091 1.714331 1.000000
-367.328461 501.543091 1.142380 1.000000
-367.328461 501.543091 0.568585 1.000000
-367.396729 501.519531 0.000012 0.550759
-371.085632 500.247101 0.000009 0.553094
-373.440613 499.434753 -0.000006 0.335119
-375.077545 498.870117 0.000004 0.324559
-376.283478 498.454132 -0.000003 0.330053
nan nan nan 0.000000
-367.562317 501.589844 5.726047 1.000000
-367.562286 501.589844 5.139084 1.000000
-367.562286 501.589844 4.559073 1.000000
-367.562317 501.589844 3.984668 1.000000
-367.562286 501.589844 3.414572 1.000000
-367.562286 501.589844 2.847529 1.000000
-367.562286 501.589844 2.282308 1.000000
-367.562286 501.589844 1.717692 1.000000
-367.562286 501.589844 1.152470 1.000000
-367.562317 501.589844 0.585427 1.000000
-367.562317 501.589844 0.015332 1.000000
-371.116638 500.335968 0.000010 0.521904
-373.465912 499.507202 -0.000005 0.338079
-375.098846 498.931152 0.000004 0.328450
-376.301849 498.506775 -0.000003 0.345281
nan nan nan 0.000000
-367.790710 501.635498 5.682893 1.000000
-367.790710 501.635498 5.102728 1.000000
-367.790710 501.635498 4.529434 1.000000
-367.790710 501.635498 3.961682 1.000000
-367.790710 501.635498 3.398189 1.000000
-367.790710 501.635498 2.837714 1.000000
-367.790710 501.635498 2.279038 1.000000
-367.790710 501.635498 1.720961 1.000000
-367.790710 501.635498 1.162286 1.000000
-367.790710 501.635498 0.601810 1.000000
-367.790710 501.635498 0.038319 1.000000
-371.148285 500.424622 0.000010 0.543053
-373.491760 499.579468 0.000008 0.535531
-375.120544 498.992065 0.000004 0.343877
-376.320587 498.559265 -0.000002 0.332113
nan nan nan 0.000000
-368.013916 501.680115 5.640903 1.000000
-368.013916 501.680115 5.067352 1.000000
-368.013916 501.680115 4.500596 1.000000
-368.013916 501.680115 3.939316 1.000000
-368.013916 501.680115 3.382248 1.000000
-368.013916 501.680115 2.828163 1.000000
-368.013916 501.680115 2.275857 1.000000
-368.013916 501.680115 1.724143 1.000000
-368.013916 501.680115 1.171837 1.000000
-368.013916 501.680115 0.617752 1.000000
-368.013916 501.680115 0.060685 1.000000
-371.180511 500.513062 0.000009 0.529686
-373.518036 499.651550 0.000008 0.535637
-375.142700 499.052795 0.000004 0.343343
-376.339661 498.611633 -0.000001 0.328878
nan nan nan 0.000000
-368.232086 501.723724 5.600033 1.000000
-368.232086 501.723724 5.032921 1.000000
-368.232086 501.723724 4.472526 1.000000
-368.232086 501.723724 3.917546 1.000000
-368.232086 501.723724 3.366732 1.000000
-368.232086 501.723724 2.818866 1.000000
-368.232086 501.723724 2.272760 1.000000
-368.232086 501.723724 1.727239 1.000000
-368.232086 501.723724 1.181133 1.000000
-368.232086 501.723724 0.633268 1.000000
-368.232086 501.723724 0.082454 1.000000
-371.213379 500.601257 0.000010 0.564736
-373.544830 499.723480 0.000008 0.521202
-375.165283 499.113373 0.000004 0.328313
-376.359131 498.663879 -0.000000 0.333532
nan nan nan 0.000000
-368.445435 501.766357 5.560242 1.000000
-368.445435 501.766357 4.999397 1.000000
-368.445435 501.766357 4.445197 1.000000
-368.445435 501.766357 3.896352 1.000000
-368.445435 501.766357 3.351625 1.000000
-368.445435 501.766357 2.809816 1.000000
-368.445435 501.766357 2.269746 1.000000
-368.445435 501.766357 1.730254 1.000000
-368.445435 501.766357 1.190184 1.000000
-368.445435 501.766357 0.648374 1.000000
-368.445435 501.766357 0.103648 1.000000
-371.246857 500.689240 0.000010 0.561898
-373.572113 499.795197 0.000008 0.550393
-375.188263 499.173798 0.000004 0.337591
-376.378967 498.715973 0.000000 0.342214
nan nan nan 0.000000
-368.654144 501.808075 5.521491 1.000000
-368.654144 501.808075 4.966752 1.000000
-368.654144 501.808075 4.418582 1.000000
-368.654144 501.808075 3.875712 1.000000
-368.654144 501.808075 3.336914 1.000000
-368.654144 501.808075 2.801001 1.000000
-368.654144 501.808075 2.266810 1.000000
-368.654144 501.808075 1.733190 1.000000
-368.654144 501.808075 1.198999 1.000000
-368.654144 501.808075 0.663086 1.000000
-368.654144 501.808075 0.124289 1.000000
-371.280945 500.776978 0.000009 0.521157
-373.599915 499.866730 0.000008 0.525490
-375.211670 499.234039 0.000004 0.346166
-376.399139 498.767944 0.000001 0.346227
nan nan nan 0.000000
-368.858337 501.848877 5.483742 1.000000
-368.858337 501.848877 4.934949 1.000000
-368.858337 501.848877 4.392656 1.000000
-368.858337 501.848877 3.855604 1.000000
-368.858337 501.848877 3.322583 1.000000
-368.858337 501.848877 2.792415 1.000000
-368.858337 501.848877 2.263950 1.000000
-368.858337 501.848877 1.736050 1.000000
-368.858337 501.848877 1.207585 1.000000
-368.858337 501.848877 0.677417 1.000000
-368.858337 501.848877 0.144396 1.000000
-371.315613 500.864471 0.000009 0.533639
-373.628204 499.938049 0.000008 0.524132
-375.235504 499.294159 0.000004 0.340490
-376.419708 498.819763 0.000002 0.331624
nan nan nan 0.000000
-369.058228 501.888824 5.446960 1.000000
-369.058228 501.888824 4.903961 1.000000
-369.058228 501.888824 4.367394 1.000000
-369.058228 501.888824 3.836013 1.000000
-369.058228 501.888824 3.308619 1.000000
-369.058228 501.888824 2.784048 1.000000
-369.058228 501.888824 2.261163 1.000000
-369.058228 501.888824 1.738837 1.000000
-369.058228 501.888824 1.215951 1.000000
-369.058228 501.888824 0.691381 1.000000
-369.058228 501.888824 0.163988 1.000000
-371.350952 500.951721 0.000009 0.541787
-373.656982 500.009186 0.000008 0.539101
-375.259766 499.354065 0.000004 0.338125
-376.440613 498.871429 0.000003 0.342718
-369.253937 501.927948 5.956114 1.000000
-369.253937 501.927948 5.411111 1.000000
-369.253937 501.927948 4.873759 1.000000
-369.253937 501.927948 4.342773 1.000000
-369.253937 501.927948 3.816918 1.000000
-369.253937 501.927948 3.295009 1.000000
-369.253937 501.927948 2.775894 1.000000
-369.253937 501.927948 2.258447 1.000000
-369.253937 501.927948 1.741553 1.000000
-369.253937 501.927948 1.224105 1.000000
-369.253937 501.927948 0.704991 1.000000
-369.253937 501.927948 0.183082 1.000000
-371.386841 501.038727 0.000009 0.552544
-373.686249 500.080109 0.000008 0.537484
-375.284424 499.413818 0.000005 0.335622
-376.461884 498.922943 0.000003 0.334234
-369.445648 501.966278 5.915583 1.000000
-369.445648 501.966278 5.376163 1.000000
-369.445648 501.966278 4.844317 1.000000
-369.445648 501.966278 4.318770 1.000000
-369.445648 501.966278 3.798303 1.000000
-369.445648 501.966278 3.281742 1.000000
-369.445648 501.966278 2.767944 1.000000
-369.445648 501.966278 2.255799 1.000000
-369.445648 501.966278 1.744201 1.000000
-369.445648 501.966278 1.232055 1.000000
-369.445648 501.966278 0.718259 1.000000
-369.445648 501.966278 0.201697 1.000000
-371.423370 501.125488 0.000009 0.534493
-373.716034 500.150818 0.000008 0.551461
-375.309509 499.473419 0.000005 0.335714
-376.483521 498.974304 0.000003 0.338277
-369.633453 502.003815 5.876060 1.000000
-369.633453 502.003815 5.342086 1.000000
-369.633453 502.003815 4.815608 1.000000
-369.633453 502.003815 4.295366 1.000000
-369.633453 502.003815 3.780152 1.000000
-369.633453 502.003815 3.268804 1.000000
-369.633453 502.003815 2.760193 1.000000
-369.633453 502.003815 2.253217 1.000000
-369.633453 502.003815 1.746783 1.000000
-369.633453 502.003815 1.239806 1.000000
-369.633453 502.003815 0.731196 1.000000
-369.633453 502.003815 0.219849 1.000000
-371.460510 501.211975 0.000009 0.546365
-373.746307 500.221344 0.000008 0.526543
-375.334991 499.532806 0.000004 0.329442
-376.505493 499.025543 0.000002 0.337865
-369.817535 502.040588 5.837512 1.000000
-369.817535 502.040588 5.308847 1.000000
-369.817535 502.040588 4.787606 1.000000
-369.817535 502.040588 4.272538 1.000000
-369.817535 502.040588 3.762448 1.000000
-369.817535 502.040588 3.256186 1.000000
-369.817535 502.040588 2.752634 1.000000
-369.817535 502.040588 2.250698 1.000000
-369.817535 502.040588 1.749301 1.000000
-369.817535 502.040588 1.247367 1.000000
-369.817535 502.040588 0.743815 1.000000
-369.817535 502.040588 0.237552 1.000000
-371.498230 501.298218 0.000010 0.535729
-373.777069 500.291656 0.000008 0.539376
-375.360931 499.592041 0.000005 0.343999
-376.527832 499.076599 0.000001 0.331655
-369.997986 502.076660 5.799907 1.000000
-369.997986 502.076660 5.276424 1.000000
-369.997986 502.076660 4.760291 1.000000
-369.997986 502.076660 4.250269 1.000000
-369.997986 502.076660 3.745177 1.000000
-369.997986 502.076660 3.243876 1.000000
-369.997986 502.076660 2.745258 1.000000
-369.997986 502.076660 2.248242 1.000000
-369.997986 502.076660 1.751758 1.000000
-369.997986 502.076660 1.254742 1.000000
-369.997986 502.076660 0.756124 1.000000
-369.997986 502.076660 0.254823 1.000000
-371.536560 501.384186 0.000009 0.550546
-373.808319 500.361725 0.000008 0.531090
-375.387238 499.651093 0.000003 0.343038
-376.550537 499.127533 0.000001 0.332189
-370.174957 502.112030 5.763214 1.000000
-370.174957 502.112030 5.244784 1.000000
-370.174957 502.112030 4.733635 1.000000
-370.174957 502.112030 4.228539 1.000000
-370.174957 502.112030 3.728325 1.000000
-370.174957 502.112030 3.231864 1.000000
-370.174957 502.112030 2.738061 1.000000
-370.174957 502.112030 2.245845 1.000000
-370.174957 502.112030 1.754155 1.000000
-370.174957 502.112030 1.261938 1.000000
-370.174957 502.112030 0.768135 1.000000
-370.174957 502.112030 0.271675 1.000000
-371.575500 501.469879 0.000009 0.527672
-373.840057 500.431610 0.000008 0.538827
-375.413971 499.709961 0.000002 0.340047
-376.573578 499.178284 0.000000 0.338140
-370.348541 502.146729 5.727403 1.000000
-370.348541 502.146729 5.213907 1.000000
-370.348541 502.146729 4.707622 1.000000
-370.348541 502.146729 4.207333 1.000000
-370.348541 502.146729 3.711878 1.000000
-370.348541 502.146729 3.220141 1.000000
-370.348541 502.146729 2.731038 1.000000
-370.348541 502.146729 2.243506 1.000000
-370.348541 502.146729 1.756495 1.000000
-370.348541 502.146729 1.268962 1.000000
-370.348541 502.146729 0.779858 1.000000
-370.348541 502.146729 0.288122 1.000000
-371.615021 501.555328 0.000009 0.562646
-373.872284 500.501251 0.000008 0.526482
-375.483063 499.749054 0.009999 1.000000
-376.596985 499.228851 -0.000000 0.339040
-370.518860 502.180786 5.692443 1.000000
-370.518860 502.180786 5.183764 1.000000
-370.518860 502.180786 4.682227 1.000000
-370.518860 502.180786 4.186630 1.000000
-370.518860 502.180786 3.695822 1.000000
-370.518860 502.180786 3.208698 1.000000
-370.518860 502.180786 2.724182 1.000000
-370.518860 502.180786 2.241222 1.000000
-370.518860 502.180786 1.758778 1.000000
-370.518860 502.180786 1.275818 1.000000
-370.518860 502.180786 0.791302 1.000000
-370.518860 502.180786 0.304178 1.000000
-371.655151 501.640472 0.000009 0.547127
-373.904968 500.570648 0.000008 0.544854
-375.510498 499.807220 0.010004 1.000000
-376.620758 499.279297 -0.000000 0.332876
-370.686035 502.214203 5.658311 1.000000
-370.686035 502.214203 5.154335 1.000000
-370.686035 502.214203 4.657434 1.000000
-370.686035 502.214203 4.166417 1.000000
-370.686035 502.214203 3.680147 1.000000
-370.686035 502.214203 3.197525 1.000000
-370.686035 502.214203 2.717488 1.000000
-370.686035 502.214203 2.238992 1.000000
-370.686035 502.214203 1.761008 1.000000
-370.686035 502.214203 1.282512 1.000000
-370.686035 502.214203 0.802474 1.000000
-370.686035 502.214203 0.319854 1.000000
-371.695862 501.725311 0.000009 0.553933
-373.938171 500.639832 0.000008 0.557916
-375.538330 499.865204 0.010008 1.000000
-376.644867 499.329559 -0.000002 0.337057
-370.850128 502.246979 5.624980 1.000000
-370.850128 502.246979 5.125594 1.000000
-370.850128 502.246979 4.633221 1.000000
-370.850128 502.246979 4.146679 1.000000
-370.850128 502.246979 3.664839 1.000000
-370.850128 502.246979 3.186614 1.000000
-370.850128 502.246979 2.710950 1.000000
-370.850128 502.246979 2.236814 1.000000
-370.850128 502.246979 1.763186 1.000000
-370.850128 502.246979 1.289049 1.000000
-370.850128 502.246979 0.813385 1.000000
-370.850128 502.246979 0.335162 1.000000
-371.737183 501.809906 0.000009 0.549462
-373.971863 500.708801 0.000008 0.554635
-375.566559 499.923004 0.010007 1.000000
-376.669312 499.379639 -0.000001 0.329473
-371.011292 502.279205 5.592424 1.000000
-371.011292 502.279205 5.097523 1.000000
-371.011292 502.279205 4.609572 1.000000
-371.011292 502.279205 4.127399 1.000000
-371.011292 502.279205 3.649887 1.000000
-371.011292 502.279205 3.175957 1.000000
-371.011292 502.279205 2.704566 1.000000
-371.011292 502.279205 2.234687 1.000000
-371.011292 502.279205 1.765313 1.000000
-371.011292 502.279205 1.295435 1.000000
-371.011292 502.279205 0.824043 1.000000
-371.011292 502.279205 0.350113 1.000000
-371.779083 501.894196 0.000009 0.525216
-374.006012 500.777496 0.000008 0.538827
-375.553772 500.001373 -0.000006 0.333837
-376.694122 499.429535 -0.000003 0.330312
-371.169586 502.310852 5.560619 1.000000
-371.169586 502.310852 5.070101 1.000000
-371.169586 502.310852 4.586469 1.000000
-371.169586 502.310852 4.108565 1.000000
-371.169586 502.310852 3.635280 1.000000
-371.169586 502.310852 3.165546 1.000000
-371.169586 502.310852 2.698328 1.000000
-371.169586 502.310852 2.232610 1.000000
-371.169586 502.310852 1.767390 1.000000
-371.169586 502.310852 1.301672 1.000000
-371.169586 502.310852 0.834454 1.000000
-371.169586 502.310852 0.364720 1.000000
-371.821564 501.978180 0.000009 0.548913
-374.040649 500.845978 0.000008 0.557595
-375.582947 500.059082 -0.000007 0.340536
-376.719299 499.479279 -0.000003 0.339193
-371.325104 502.341919 5.529543 1.000000
-371.325104 502.341919 5.043305 1.000000
-371.325104 502.341919 4.563894 1.000000
-371.325104 502.341919 4.090162 1.000000
-371.325104 502.341919 3.621007 1.000000
-371.325104 502.341919 3.155374 1.000000
-371.325104 502.341919 2.692233 1.000000
-371.325104 502.341919 2.230580 1.000000
-371.325104 502.341919 1.769421 1.000000
-371.325104 502.341919 1.307767 1.000000
-371.325104 502.341919 0.844626 1.000000
-371.325104 502.341919 0.378993 1.000000
-371.864624 502.061890 0.000009 0.526497
-374.075775 500.914215 0.000008 0.540932
-375.612518 500.116577 -0.000009 0.338918
-376.744812 499.528870 -0.000004 0.330922
-371.477936 502.372467 5.499174 1.000000
-371.477936 502.372467 5.017120 1.000000
-371.477936 502.372467 4.541835 1.000000
-371.477936 502.372467 4.072178 1.000000
-371.477936 502.372467 3.607060 1.000000
-371.477936 502.372467 3.145432 1.000000
-371.477936 502.372467 2.686276 1.000000
-371.477936 502.372467 2.228595 1.000000
-371.477936 502.372467 1.771404 1.000000
-371.477936 502.372467 1.313723 1.000000
-371.477936 502.372467 0.854567 1.000000
-371.477936 502.372467 0.392940 1.000000
-371.908295 502.145264 0.000009 0.555184
-374.111359 500.982178 0.000008 0.528450
-375.642548 500.173798 0.000006 0.545327
-376.770660 499.578247 -0.000004 0.332723
-371.628174 502.402496 5.469490 1.000000
-371.628174 502.402496 4.991526 1.000000
-371.628174 502.402496 4.520272 1.000000
-371.628174 502.402496 4.054599 1.000000
-371.628174 502.402496 3.593427 1.000000
-371.628174 502.402496 3.135716 1.000000
-371.628174 502.402496 2.680455 1.000000
-371.628174 502.402496 2.226656 1.000000
-371.628174 502.402496 1.773344 1.000000
-371.628174 502.402496 1.319545 1.000000
-371.628174 502.402496 0.864284 1.000000
-371.628174 502.402496 0.406573 1.000000
-371.952515 502.228363 0.000009 0.519219
-374.147400 501.049927 0.000008 0.515587
-375.672943 500.230865 0.000006 0.533974
-376.796844 499.627441 -0.000005 0.337011
-371.775909 502.432037 5.440473 1.000000
-371.775909 502.432037 4.966505 1.000000
-371.775909 502.432037 4.499193 1.000000
-371.775909 502.432037 4.037416 1.000000
-371.775909 502.432037 3.580100 1.000000
-371.775909 502.432037 3.126217 1.000000
-371.775909 502.432037 2.674764 1.000000
-371.775909 502.432037 2.224761 1.000000
-371.775909 502.432037 1.775239 1.000000
-371.775909 502.432037 1.325236 1.000000
-371.775909 502.432037 0.873783 1.000000
-371.775909 502.432037 0.419900 1.000000
-371.997345 502.311127 0.000009 0.522606
-374.183929 501.117401 0.000008 0.575204
-375.703705 500.287720 0.000007 0.527169
-376.823364 499.676453 -0.000005 0.350881
-371.921173 502.461060 5.412101 1.000000
-371.921173 502.461060 4.942042 1.000000
-371.921173 502.461060 4.478583 1.000000
-371.921173 502.461060 4.020614 1.000000
-371.921173 502.461060 3.567071 1.000000
-371.921173 502.461060 3.116930 1.000000
-371.921173 502.461060 2.669200 1.000000
-371.921173 502.461060 2.222907 1.000000
-371.921173 502.461060 1.777093 1.000000
-371.921173 502.461060 1.330800 1.000000
-371.921173 502.461060 0.883070 1.000000
-371.921173 502.461060 0.432930 1.000000
-372.042725 502.393585 0.000009 0.538567
-374.220947 501.184631 0.000007 0.532967
-375.734894 500.344360 0.000006 0.547662
-376.850250 499.725311 -0.000005 0.338430
-372.064087 502.489624 5.384358 1.000000
-372.064087 502.489624 4.918121 1.000000
-372.064087 502.489624 4.458430 1.000000
-372.064087 502.489624 4.004185 1.000000
-372.064087 502.489624 3.554328 1.000000
-372.064087 502.489624 3.107848 1.000000
-372.064087 502.489624 2.663759 1.000000
-372.064087 502.489624 2.221094 1.000000
-372.064087 502.489624 1.778905 1.000000
-372.064087 502.489624 1.336241 1.000000
-372.064087 502.489624 0.892151 1.000000
-372.064087 502.489624 0.445672 1.000000
-372.088684 502.475739 0.000009 0.534874
-374.258423 501.251587 0.000007 0.523445
-375.766449 500.400757 0.000006 0.545815
-376.877472 499.773926 -0.000005 0.343008
-372.204681 502.517731 5.357224 1.000000
-372.204681 502.517731 4.894726 1.000000
-372.204681 502.517731 4.438721 1.000000
-372.204681 502.517731 3.988116 1.000000
-372.204681 502.517731 3.541867 1.000000
-372.204681 502.517731 3.098966 1.000000
-372.204681 502.517731 2.658437 1.000000
-372.204681 502.517731 2.219322 1.000000
-372.204681 502.517731 1.780678 1.000000
-372.204681 502.517731 1.341563 1.000000
-372.204681 502.517731 0.901034 1.000000
-372.204681 502.517731 0.458133 1.000000
-372.204681 502.517731 0.011884 1.000000
-374.296356 501.318298 0.000008 0.546334
-375.798431 500.456970 0.000006 0.520363
-376.905060 499.822388 -0.000004 0.339483
-372.343048 502.545380 5.330682 1.000000
-372.343079 502.545380 4.871840 1.000000
-372.343048 502.545380 4.419440 1.000000
-372.343048 502.545380 3.972399 1.000000
-372.343048 502.545380 3.529677 1.000000
-372.343048 502.545380 3.090278 1.000000
-372.343048 502.545380 2.653231 1.000000
-372.343048 502.545380 2.217588 1.000000
-372.343048 502.545380 1.782412 1.000000
-372.343048 502.545380 1.346769 1.000000
-372.343048 502.545380 0.909722 1.000000
-372.343079 502.545380 0.470323 1.000000
-372.343048 502.545380 0.027601 1.000000
-374.334747 501.384735 0.000007 0.529839
-375.830780 500.512939 0.000006 0.548150
-376.932953 499.870636 -0.000003 0.329229
-372.479279 502.572601 5.304717 1.000000
-372.479279 502.572601 4.849453 1.000000
-372.479279 502.572601 4.400579 1.000000
-372.479279 502.572632 3.957022 1.000000
-372.479279 502.572601 3.517752 1.000000
-372.479279 502.572601 3.081778 1.000000
-372.479279 502.572601 2.648139 1.000000
-372.479279 502.572601 2.215892 1.000000
-372.479279 502.572601 1.784108 1.000000
-372.479279 502.572601 1.351861 1.000000
-372.479279 502.572601 0.918222 1.000000
-372.479279 502.572601 0.482248 1.000000
-372.479279 502.572601 0.042978 1.000000
-374.373627 501.450897 0.000007 0.530449
-375.863525 500.568665 0.000006 0.546471
-376.961182 499.918701 -0.000002 0.333806
-372.613373 502.599426 5.279313 1.000000
-372.613373 502.599426 4.827548 1.000000
-372.613373 502.599426 4.382125 1.000000
-372.613373 502.599426 3.941978 1.000000
-372.613373 502.599426 3.506084 1.000000
-372.613373 502.599426 3.073462 1.000000
-372.613373 502.599426 2.643156 1.000000
-372.613373 502.599426 2.214232 1.000000
-372.613373 502.599426 1.785768 1.000000
-372.613373 502.599426 1.356843 1.000000
-372.613373 502.599426 0.926538 1.000000
-372.613373 502.599426 0.493915 1.000000
-372.613373 502.599426 0.058022 1.000000
-374.412964 501.516785 0.000008 0.545434
-375.896667 500.624176 0.000007 0.555856
-376.989746 499.966583 -0.000001 0.342901
-372.745453 502.625824 5.254453 1.000000
-372.745453 502.625824 4.806112 1.000000
-372.745453 502.625824 4.364067 1.000000
-372.745453 502.625824 3.927256 1.000000
-372.745453 502.625824 3.494668 1.000000
-372.745453 502.625824 3.065325 1.000000
-372.745453 502.625824 2.638281 1.000000
-372.745453 502.625824 2.212608 1.000000
-372.745453 502.625824 1.787392 1.000000
-372.745453 502.625824 1.361719 1.000000
-372.745453 502.625824 0.934675 1.000000
-372.745453 502.625824 0.505333 1.000000
-372.745453 502.625824 0.072744 1.000000
-374.452759 501.582397 0.000007 0.565240
-375.930176 500.679474 0.000006 0.532387
-377.018646 500.014221 0.000000 0.335958
-372.875549 502.651825 5.230124 1.000000
-372.875549 502.651825 4.785134 1.000000
-372.875549 502.651825 4.346394 1.000000
-372.875549 502.651825 3.912848 1.000000
-372.875549 502.651825 3.483494 1.000000
-372.875549 502.651825 3.057360 1.000000
-372.875549 502.651825 2.633509 1.000000
-372.875549 502.651825 2.211019 1.000000
-372.875549 502.651825 1.788981 1.000000
-372.875549 502.651825 1.366491 1.000000
-372.875549 502.651825 0.942639 1.000000
-372.875549 502.651825 0.516507 1.000000
-372.875549 502.651825 0.087152 1.000000
-374.492981 501.647736 0.000007 0.551659
-375.964081 500.734497 0.000006 0.529625
-377.081787 500.040649 0.009990 1.000000
-373.003723 502.677429 5.206310 1.000000
-373.003723 502.677429 4.764602 1.000000
-373.003723 502.677429 4.329095 1.000000
-373.003723 502.677429 3.898746 1.000000
-373.003723 502.677429 3.472557 1.000000
-373.003723 502.677429 3.049565 1.000000
-373.003723 502.677429 2.628839 1.000000
-373.003723 502.677429 2.209463 1.000000
-373.003723 502.677429 1.790537 1.000000
-373.003723 502.677429 1.371161 1.000000
-373.003723 502.677429 0.950434 1.000000
-373.003723 502.677429 0.527443 1.000000
-373.003723 502.677429 0.101254 1.000000
-374.533691 501.712799 0.000007 0.548837
-375.998383 500.789307 0.000006 0.530495
-377.111206 500.087677 0.009993 1.000000
-373.130005 502.702698 5.183000 1.000000
-373.130005 502.702698 4.744503 1.000000
-373.130005 502.702667 4.312162 1.000000
-373.130005 502.702667 3.884942 1.000000
-373.130005 502.702698 3.461852 1.000000
-373.130005 502.702698 3.041935 1.000000
-373.130005 502.702667 2.624267 1.000000
-373.130005 502.702698 2.207941 1.000000
-373.130005 502.702698 1.792059 1.000000
-373.130005 502.702667 1.375733 1.000000
-373.130005 502.702698 0.958065 1.000000
-373.130005 502.702698 0.538149 1.000000
-373.130005 502.702667 0.115059 1.000000
-374.574860 501.777557 0.000008 0.530190
-376.033051 500.843872 0.000006 0.543587
-377.140961 500.134491 0.009996 1.000000
-373.254486 502.727570 5.160178 1.000000
-373.254486 502.727570 4.724826 1.000000
-373.254486 502.727570 4.295585 1.000000
-373.254486 502.727570 3.871428 1.000000
-373.254486 502.727570 3.451370 1.000000
-373.254486 502.727570 3.034464 1.000000
-373.254486 502.727570 2.619791 1.000000
-373.254486 502.727570 2.206449 1.000000
-373.254486 502.727570 1.793551 1.000000
-373.254486 502.727570 1.380209 1.000000
-373.254486 502.727570 0.965535 1.000000
-373.254486 502.727570 0.548630 1.000000
-373.254486 502.727570 0.128573 1.000000
-374.616455 501.842041 0.000007 0.525887
-376.068085 500.898193 0.000006 0.533196
-377.171051 500.181061 0.010000 1.000000
-373.377197 502.752075 5.137835 1.000000
-373.377197 502.752075 4.705560 1.000000
-373.377197 502.752075 4.279353 1.000000
-373.377197 502.752075 3.858196 1.000000
-373.377197 502.752075 3.441108 1.000000
-373.377197 502.752075 3.027150 1.000000
-373.377197 502.752075 2.615409 1.000000
-373.377197 502.752075 2.204989 1.000000
-373.377197 502.752075 1.795010 1.000000
-373.377197 502.752075 1.384591 1.000000
-373.377197 502.752075 0.972850 1.000000
-373.377197 502.752075 0.558892 1.000000
-373.377197 502.752075 0.141805 1.000000
-374.658508 501.906219 0.000007 0.539117
-376.103516 500.952271 0.000006 0.564614
-377.201447 500.227448 0.010005 1.000000
-373.498199 502.776276 5.115954 1.000000
-373.498199 502.776276 4.686693 1.000000
-373.498199 502.776276 4.263459 1.000000
-373.498199 502.776276 3.845239 1.000000
-373.498199 502.776276 3.431059 1.000000
-373.498199 502.776276 3.019988 1.000000
-373.498199 502.776276 2.611118 1.000000
-373.498199 502.776276 2.203560 1.000000
-373.498199 502.776276 1.796440 1.000000
-373.498199 502.776276 1.388882 1.000000
-373.498199 502.776276 0.980012 1.000000
-373.498199 502.776276 0.568941 1.000000
-373.498199 502.776276 0.154762 1.000000
-374.700989 501.970123 0.000007 0.506523
-376.139313 501.006104 0.000006 0.549523
-377.199005 500.295868 0.000007 0.337911
-373.617523 502.800110 5.094526 1.000000
-373.617523 502.800110 4.668218 1.000000
-373.617523 502.800110 4.247894 1.000000
-373.617523 502.800110 3.832550 1.000000
-373.617523 502.800110 3.421218 1.000000
-373.617523 502.800110 3.012974 1.000000
-373.617523 502.800110 2.606915 1.000000
-373.617523 502.800110 2.202161 1.000000
-373.617523 502.800110 1.797839 1.000000
-373.617523 502.800110 1.393085 1.000000
-373.617523 502.800110 0.987026 1.000000
-373.617523 502.800110 0.578782 1.000000
-373.617523 502.800110 0.167451 1.000000
-374.743958 502.033722 0.000007 0.514000
-376.175507 501.059692 0.000006 0.531731
-377.230225 500.342041 0.000008 0.330556
-373.735229 502.823639 5.073542 1.000000
-373.735229 502.823639 4.650124 1.000000
-373.735229 502.823639 4.232650 1.000000
-373.735229 502.823639 3.820121 1.000000
-373.735229 502.823639 3.411580 1.000000
-373.735229 502.823639 3.006104 1.000000
-373.735229 502.823639 2.602799 1.000000
-373.735229 502.823639 2.200789 1.000000
-373.735229 502.823639 1.799210 1.000000
-373.735229 502.823639 1.397201 1.000000
