# This PCD file was generated using the MATLABÂ® pcwrite function
# from Computer Vision ToolboxÂ®.
# .PCD v.7 - Point Cloud Data file format
VERSION .7
FIELDS x y z intensity
SIZE 4 4 4 4
TYPE F F F F
COUNT 1 1 1 1
WIDTH 1165
HEIGHT 1
VIEWPOINT 0 0 0 1 0 0 0
POINTS 1165
DATA ascii
227.451202 -437.843384 4.037890 1.000000
227.451202 -437.843384 3.452506 1.000000
227.451202 -437.843384 2.870258 1.000000
227.451202 -437.843384 2.289879 1.000000
227.451202 -437.843384 1.710121 1.000000
227.451202 -437.843384 1.129742 1.000000
227.451202 -437.843384 0.547493 1.000000
227.159363 -437.996552 0.000026 0.520455
223.704056 -439.809753 0.000020 0.559564
221.498138 -440.967316 0.000016 0.519844
219.964935 -441.771881 0.000013 0.561807
218.835327 -442.364655 0.000012 0.582025
227.518356 -437.947906 6.440091 1.000000
227.518356 -437.947906 5.828414 1.000000
227.518356 -437.947906 5.225326 1.000000
227.518356 -437.947906 4.629379 1.000000
227.518356 -437.947906 4.039194 1.000000
227.518356 -437.947906 3.453436 1.000000
227.518356 -437.947906 2.870814 1.000000
227.518356 -437.947906 2.290064 1.000000
227.518356 -437.947906 1.709936 1.000000
227.518356 -437.947906 1.129185 1.000000
227.518356 -437.947906 0.546563 1.000000
227.215378 -438.104218 0.000026 0.529625
223.747498 -439.893250 0.000020 0.556741
221.533554 -441.035400 0.000016 0.522591
219.994766 -441.829224 0.000014 0.565698
218.861053 -442.414093 0.000012 0.539254
227.585602 -438.052551 6.443152 1.000000
227.585602 -438.052551 5.831053 1.000000
227.585602 -438.052551 5.227549 1.000000
227.585602 -438.052551 4.631192 1.000000
227.585602 -438.052551 4.040599 1.000000
227.585602 -438.052551 3.454438 1.000000
227.585602 -438.052551 2.871414 1.000000
227.585602 -438.052551 2.290264 1.000000
227.585602 -438.052551 1.709736 1.000000
227.585602 -438.052551 1.128585 1.000000
227.585602 -438.052551 0.545561 1.000000
227.270645 -438.212280 0.000026 0.534722
223.790375 -439.977051 0.000020 0.551873
221.568497 -441.103699 0.000016 0.549874
220.024200 -441.886780 0.000014 0.561395
218.886444 -442.463715 0.000012 0.512337
227.652954 -438.157349 6.446434 1.000000
227.652954 -438.157349 5.833882 1.000000
227.652954 -438.157349 5.229932 1.000000
227.652954 -438.157349 4.633136 1.000000
227.652954 -438.157349 4.042106 1.000000
227.652954 -438.157349 3.455512 1.000000
227.652954 -438.157349 2.872058 1.000000
227.652954 -438.157349 2.290478 1.000000
227.652954 -438.157349 1.709522 1.000000
227.652954 -438.157349 1.127941 1.000000
227.652954 -438.157349 0.544488 1.000000
227.325150 -438.320709 0.000027 0.517266
223.832642 -440.061157 0.000020 0.550057
221.602966 -441.172272 0.000017 0.547097
220.053238 -441.944550 0.000014 0.492226
218.911484 -442.513519 0.000012 0.541970
227.720398 -438.262299 6.449937 1.000000
227.720398 -438.262299 5.836903 1.000000
227.720398 -438.262299 5.232478 1.000000
227.720398 -438.262299 4.635210 1.000000
227.720398 -438.262299 4.043715 1.000000
227.720398 -438.262299 3.456659 1.000000
227.720398 -438.262299 2.872746 1.000000
227.720398 -438.262299 2.290708 1.000000
227.720398 -438.262299 1.709292 1.000000
227.720398 -438.262299 1.127254 1.000000
227.720398 -438.262299 0.543341 1.000000
227.378906 -438.429535 0.000026 0.536171
223.874329 -440.145538 0.000020 0.534707
221.636948 -441.241058 0.000017 0.519081
220.081879 -442.002502 0.000014 0.554437
218.936172 -442.563507 0.000012 0.553353
227.787949 -438.367432 6.453662 1.000000
227.787949 -438.367432 5.840117 1.000000
227.787949 -438.367432 5.235184 1.000000
227.787949 -438.367432 4.637417 1.000000
227.787949 -438.367432 4.045426 1.000000
227.787949 -438.367432 3.457879 1.000000
227.787949 -438.367432 2.873476 1.000000
227.787949 -438.367432 2.290951 1.000000
227.787949 -438.367432 1.709049 1.000000
227.787949 -438.367432 1.126523 1.000000
227.787964 -438.367432 0.542121 1.000000
227.431900 -438.538696 0.000026 0.543481
223.915436 -440.230225 0.000020 0.523659
221.670441 -441.310120 0.000017 0.535027
220.110107 -442.060669 0.000014 0.501076
218.960510 -442.613647 0.000012 0.547616
227.855621 -438.472748 6.457613 1.000000
227.855621 -438.472748 5.843523 1.000000
227.855621 -438.472748 5.238053 1.000000
227.855621 -438.472748 4.639755 1.000000
227.855621 -438.472748 4.047240 1.000000
227.855637 -438.472748 3.459171 1.000000
227.855621 -438.472748 2.874251 1.000000
227.855621 -438.472748 2.291209 1.000000
227.855621 -438.472748 1.708791 1.000000
227.855621 -438.472748 1.125749 1.000000
227.855637 -438.472748 0.540828 1.000000
227.484131 -438.648254 0.000026 0.537438
223.955933 -440.315186 0.000020 0.549187
221.703476 -441.379364 0.000017 0.548562
220.137924 -442.119019 0.000014 0.517205
218.984497 -442.663971 0.000012 0.587686
227.923431 -438.578247 6.461787 1.000000
227.923431 -438.578247 5.847121 1.000000
227.923431 -438.578247 5.241086 1.000000
227.923431 -438.578247 4.642228 1.000000
227.923431 -438.578247 4.049158 1.000000
227.923431 -438.578247 3.460538 1.000000
227.923416 -438.578247 2.875069 1.000000
227.923431 -438.578247 2.291482 1.000000
227.923431 -438.578247 1.708519 1.000000
227.923416 -438.578247 1.124930 1.000000
227.923431 -438.578247 0.539461 1.000000
227.535583 -438.758179 0.000026 0.526421
223.995850 -440.400421 0.000020 0.551034
221.736008 -441.448883 0.000017 0.516854
220.165329 -442.177582 0.000014 0.545907
219.008133 -442.714447 0.000012 0.551904
227.991348 -438.683960 6.466188 1.000000
227.991348 -438.683960 5.850916 1.000000
227.991348 -438.683960 5.244282 1.000000
227.991348 -438.683960 4.644835 1.000000
227.991348 -438.683960 4.051179 1.000000
227.991348 -438.683960 3.461978 1.000000
227.991348 -438.683960 2.875933 1.000000
227.991348 -438.683960 2.291769 1.000000
227.991348 -438.683960 1.708231 1.000000
227.991348 -438.683960 1.124067 1.000000
227.991348 -438.683960 0.538021 1.000000
227.586288 -438.868469 0.000026 0.543832
224.035156 -440.485962 0.000020 0.553521
221.768066 -441.518585 0.000016 0.551385
220.192337 -442.236298 0.000014 0.508476
219.031403 -442.765106 0.000012 0.557275
228.059418 -438.789886 6.470814 1.000000
228.059418 -438.789886 5.854905 1.000000
228.059418 -438.789886 5.247643 1.000000
228.059418 -438.789886 4.647573 1.000000
228.059418 -438.789886 4.053303 1.000000
228.059418 -438.789886 3.463492 1.000000
228.059418 -438.789886 2.876840 1.000000
228.059418 -438.789886 2.292071 1.000000
228.059418 -438.789886 1.707929 1.000000
228.059418 -438.789886 1.123160 1.000000
228.059418 -438.789886 0.536507 1.000000
227.636215 -438.979095 0.000026 0.578286
224.073883 -440.571747 0.000020 0.551812
221.799622 -441.588531 0.000017 0.549569
220.218933 -442.295227 0.000014 0.533684
219.054337 -442.815918 0.000012 0.498466
228.127625 -438.896027 6.475668 1.000000
228.127625 -438.896027 5.859092 1.000000
228.127625 -438.896027 5.251171 1.000000
228.127625 -438.896027 4.650449 1.000000
228.127625 -438.896027 4.055533 1.000000
228.127625 -438.896027 3.465081 1.000000
228.127625 -438.896027 2.877792 1.000000
228.127625 -438.896027 2.292388 1.000000
228.127625 -438.896027 1.707612 1.000000
228.127625 -438.896027 1.122207 1.000000
228.127625 -438.896027 0.534918 1.000000
227.685364 -439.090057 0.000026 0.538521
224.112000 -440.657806 0.000021 0.545907
221.830704 -441.658691 0.000017 0.531334
220.245102 -442.354340 0.000015 0.531395
219.076904 -442.866882 0.000012 0.536553
228.195984 -439.002411 6.480753 1.000000
228.195984 -439.002411 5.863475 1.000000
228.195984 -439.002411 5.254862 1.000000
228.195984 -439.002411 4.653459 1.000000
228.195984 -439.002411 4.057868 1.000000
228.195984 -439.002411 3.466747 1.000000
228.195984 -439.002411 2.878789 1.000000
228.195984 -439.002411 2.292721 1.000000
228.195984 -439.002411 1.707279 1.000000
228.195984 -439.002411 1.121210 1.000000
228.195984 -439.002411 0.533253 1.000000
227.733734 -439.201355 0.000026 0.543908
224.149506 -440.744141 0.000021 0.562219
221.861282 -441.729065 0.000017 0.568734
220.270874 -442.413635 0.000015 0.538933
219.099121 -442.917999 0.000012 0.539635
228.264511 -439.109039 6.486069 1.000000
228.264511 -439.109039 5.868057 1.000000
228.264511 -439.109039 5.258724 1.000000
228.264511 -439.109039 4.656607 1.000000
228.264511 -439.109039 4.060310 1.000000
228.264511 -439.109039 3.468486 1.000000
228.264511 -439.109039 2.879832 1.000000
228.264511 -439.109039 2.293068 1.000000
228.264511 -439.109039 1.706932 1.000000
228.264511 -439.109039 1.120168 1.000000
228.264511 -439.109039 0.531513 1.000000
227.781326 -439.313019 0.000026 0.549142
224.186432 -440.830719 0.000021 0.547906
221.891373 -441.799652 0.000017 0.524834
220.296219 -442.473114 0.000014 0.510781
219.120987 -442.969269 0.000013 0.563241
228.333191 -439.215912 6.491615 1.000000
228.333191 -439.215912 5.872840 1.000000
228.333191 -439.215912 5.262753 1.000000
228.333191 -439.215912 4.659892 1.000000
228.333191 -439.215912 4.062857 1.000000
228.333191 -439.215912 3.470302 1.000000
228.333191 -439.215912 2.880920 1.000000
228.333191 -439.215912 2.293430 1.000000
228.333191 -439.215912 1.706570 1.000000
228.333191 -439.215912 1.119080 1.000000
228.333191 -439.215912 0.529698 1.000000
227.828156 -439.424988 0.000026 0.551263
224.222733 -440.917572 0.000021 0.544778
221.920975 -441.870453 0.000017 0.528435
220.321152 -442.532745 0.000015 0.543236
219.142487 -443.020691 0.000013 0.552026
228.402054 -439.323059 6.497394 1.000000
228.402054 -439.323059 5.877823 1.000000
228.402054 -439.323059 5.266951 1.000000
228.402054 -439.323059 4.663314 1.000000
228.402054 -439.323059 4.065512 1.000000
228.402054 -439.323059 3.472193 1.000000
228.402054 -439.323059 2.882053 1.000000
228.402054 -439.323059 2.293808 1.000000
228.402054 -439.323059 1.706192 1.000000
228.402054 -439.323059 1.117947 1.000000
228.402054 -439.323059 0.527806 1.000000
227.874176 -439.537292 0.000026 0.531319
224.258438 -441.004669 0.000021 0.528771
221.950073 -441.941467 0.000017 0.517403
220.345673 -442.592560 0.000014 0.513756
219.163620 -443.072266 0.000013 0.554406
228.471085 -439.430511 6.503407 1.000000
228.471100 -439.430511 5.883009 1.000000
228.471085 -439.430511 5.271320 1.000000
228.471100 -439.430511 4.666875 1.000000
228.471100 -439.430511 4.068273 1.000000
228.471085 -439.430511 3.474163 1.000000
228.471100 -439.430511 2.883233 1.000000
228.471100 -439.430511 2.294200 1.000000
228.471100 -439.430511 1.705799 1.000000
228.471100 -439.430511 1.116767 1.000000
228.471100 -439.430511 0.525837 1.000000
227.919434 -439.649902 0.000026 0.535012
224.293518 -441.092010 0.000021 0.538827
221.978683 -442.012665 0.000017 0.528222
220.369781 -442.652557 0.000015 0.554482
219.184402 -443.123993 0.000013 0.536751
228.540314 -439.538239 6.509658 1.000000
228.540314 -439.538239 5.888399 1.000000
228.540314 -439.538239 5.275860 1.000000
228.540314 -439.538239 4.670576 1.000000
228.540314 -439.538239 4.071144 1.000000
228.540314 -439.538239 3.476208 1.000000
228.540314 -439.538239 2.884459 1.000000
228.540329 -439.538239 2.294609 1.000000
228.540329 -439.538239 1.705391 1.000000
228.540314 -439.538239 1.115541 1.000000
228.540329 -439.538239 0.523791 1.000000
227.963882 -439.762848 0.000026 0.526802
224.328003 -441.179596 0.000021 0.544442
222.006790 -442.084076 0.000017 0.552804
220.393463 -442.712708 0.000014 0.564416
219.204819 -443.175873 0.000013 0.610193
228.609741 -439.646271 6.516147 1.000000
228.609741 -439.646271 5.893992 1.000000
228.609741 -439.646271 5.280573 1.000000
228.609741 -439.646271 4.674420 1.000000
228.609741 -439.646271 4.074123 1.000000
228.609741 -439.646271 3.478333 1.000000
228.609741 -439.646271 2.885731 1.000000
228.609741 -439.646271 2.295033 1.000000
228.609741 -439.646271 1.704967 1.000000
228.609741 -439.646271 1.114269 1.000000
228.609741 -439.646271 0.521667 1.000000
228.007553 -439.876099 0.000026 0.538125
224.361877 -441.267426 0.000021 0.555749
222.034409 -442.155670 0.000017 0.528099
220.416718 -442.773041 0.000015 0.548470
219.224884 -443.227875 0.000013 0.488029
228.679367 -439.754639 6.522875 1.000000
228.679367 -439.754639 5.899794 1.000000
228.679367 -439.754639 5.285460 1.000000
228.679367 -439.754639 4.678403 1.000000
228.679367 -439.754639 4.077213 1.000000
228.679367 -439.754639 3.480534 1.000000
228.679367 -439.754639 2.887050 1.000000
228.679367 -439.754639 2.295472 1.000000
228.679367 -439.754639 1.704528 1.000000
228.679367 -439.754639 1.112949 1.000000
228.679382 -439.754639 0.519465 1.000000
228.050430 -439.989624 0.000026 0.534539
224.395126 -441.355469 0.000021 0.541497
222.061508 -442.227448 0.000017 0.521660
220.439560 -442.833496 0.000014 0.497765
219.244568 -443.280029 0.000013 0.517983
228.749207 -439.863312 6.529844 1.000000
228.749207 -439.863312 5.905802 1.000000
228.749207 -439.863312 5.290523 1.000000
228.749207 -439.863312 4.682530 1.000000
228.749207 -439.863312 4.080415 1.000000
228.749207 -439.863312 3.482815 1.000000
228.749207 -439.863312 2.888417 1.000000
228.749207 -439.863312 2.295927 1.000000
228.749207 -439.863312 1.704072 1.000000
228.749207 -439.863312 1.111583 1.000000
228.749207 -439.863312 0.517184 1.000000
228.092529 -440.103485 0.000026 0.532708
224.427765 -441.443756 0.000021 0.545769
222.088120 -442.299438 0.000017 0.514733
220.461975 -442.894135 0.000015 0.543770
219.263901 -443.332306 0.000013 0.547997
228.819275 -439.972321 6.537055 1.000000
228.819275 -439.972321 5.912021 1.000000
228.819275 -439.972321 5.295761 1.000000
228.819275 -439.972321 4.686801 1.000000
228.819275 -439.972321 4.083726 1.000000
228.819275 -439.972321 3.485176 1.000000
228.819275 -439.972321 2.889832 1.000000
228.819275 -439.972321 2.296399 1.000000
228.819275 -439.972321 1.703601 1.000000
228.819275 -439.972321 1.110168 1.000000
228.819275 -439.972321 0.514823 1.000000
228.133804 -440.217590 0.000026 0.534432
224.459793 -441.532288 0.000021 0.530175
222.114227 -442.371582 0.000017 0.559075
220.483963 -442.954926 0.000015 0.544366
nan nan nan 0.000000
228.889557 -440.081696 6.544513 1.000000
228.889557 -440.081696 5.918449 1.000000
228.889557 -440.081696 5.301178 1.000000
228.889557 -440.081696 4.691216 1.000000
228.889557 -440.081696 4.087150 1.000000
228.889557 -440.081696 3.487617 1.000000
228.889557 -440.081696 2.891294 1.000000
228.889557 -440.081696 2.296886 1.000000
228.889557 -440.081696 1.703114 1.000000
228.889557 -440.081696 1.108706 1.000000
228.889557 -440.081696 0.512382 1.000000
228.174301 -440.332031 0.000026 0.549889
224.491196 -441.621002 0.000021 0.548699
222.139832 -442.443909 0.000017 0.541039
220.505539 -443.015869 0.000015 0.573007
nan nan nan 0.000000
228.960068 -440.191437 6.552215 1.000000
228.960068 -440.191437 5.925093 1.000000
228.960068 -440.191437 5.306774 1.000000
228.960068 -440.191437 4.695779 1.000000
228.960068 -440.191437 4.090689 1.000000
228.960068 -440.191437 3.490139 1.000000
228.960068 -440.191437 2.892805 1.000000
228.960068 -440.191437 2.297389 1.000000
228.960068 -440.191437 1.702611 1.000000
228.960083 -440.191437 1.107195 1.000000
228.960083 -440.191437 0.509860 1.000000
228.213989 -440.446716 0.000026 0.553552
224.521973 -441.709961 0.000021 0.548821
222.164917 -442.516449 0.000018 0.519600
220.526672 -443.076965 0.000015 0.540215
219.319687 -443.489960 0.000013 0.566079
229.030838 -440.301544 6.560168 1.000000
229.030838 -440.301544 5.931949 1.000000
229.030838 -440.301544 5.312551 1.000000
229.030838 -440.301544 4.700488 1.000000
229.030838 -440.301544 4.094341 1.000000
229.030838 -440.301544 3.492742 1.000000
229.030838 -440.301544 2.894364 1.000000
229.030838 -440.301544 2.297909 1.000000
229.030838 -440.301544 1.702091 1.000000
229.030838 -440.301544 1.105635 1.000000
229.030838 -440.301544 0.507257 1.000000
228.252869 -440.561676 0.000027 0.551324
224.552124 -441.799133 0.000021 0.537041
222.189514 -442.589142 0.000017 0.535790
220.547394 -443.138214 0.000015 0.518181
219.337555 -443.542755 0.000013 0.557046
229.101852 -440.412079 6.568371 1.000000
229.101852 -440.412079 5.939022 1.000000
229.101852 -440.412079 5.318509 1.000000
229.101852 -440.412079 4.705346 1.000000
229.101852 -440.412048 4.098108 1.000000
229.101852 -440.412048 3.495428 1.000000
229.101837 -440.412079 2.895973 1.000000
229.101852 -440.412048 2.298445 1.000000
229.101852 -440.412048 1.701555 1.000000
229.101852 -440.412079 1.104026 1.000000
229.101852 -440.412048 0.504572 1.000000
228.290970 -440.676910 0.000026 0.541161
224.581665 -441.888489 0.000021 0.533623
222.213593 -442.661987 0.000017 0.517906
220.567673 -443.199585 0.000015 0.548638
219.355042 -443.595673 0.000013 0.531945
229.173126 -440.522980 6.576827 1.000000
229.173126 -440.522980 5.946314 1.000000
229.173126 -440.522980 5.324652 1.000000
229.173126 -440.522980 4.710354 1.000000
229.173126 -440.522980 4.101992 1.000000
229.173126 -440.522980 3.498196 1.000000
229.173126 -440.522980 2.897632 1.000000
229.173126 -440.522980 2.298997 1.000000
229.173126 -440.522980 1.701003 1.000000
229.173126 -440.522980 1.102368 1.000000
229.173126 -440.522980 0.501804 1.000000
228.328247 -440.792419 0.000027 0.551431
224.610580 -441.978088 0.000021 0.521126
222.237152 -442.735016 0.000017 0.546456
220.587540 -443.261108 0.000015 0.571069
219.372162 -443.648712 0.000013 0.516594
229.244659 -440.634308 6.585539 1.000000
229.244659 -440.634308 5.953824 1.000000
229.244659 -440.634308 5.330981 1.000000
229.244659 -440.634308 4.715512 1.000000
229.244659 -440.634308 4.105993 1.000000
229.244659 -440.634308 3.501047 1.000000
229.244659 -440.634308 2.899341 1.000000
229.244659 -440.634308 2.299566 1.000000
229.244659 -440.634308 1.700434 1.000000
229.244675 -440.634308 1.100659 1.000000
229.244659 -440.634308 0.498952 1.000000
228.364716 -440.908173 0.000026 0.540200
224.638870 -442.067841 0.000021 0.570108
222.260223 -442.808197 0.000017 0.535119
220.606964 -443.322784 0.000015 0.573327
219.388916 -443.701874 0.000013 0.513695
229.316483 -440.746063 6.594508 1.000000
229.316483 -440.746063 5.961558 1.000000
229.316483 -440.746063 5.337496 1.000000
229.316483 -440.746063 4.720823 1.000000
229.316483 -440.746063 4.110112 1.000000
229.316483 -440.746063 3.503983 1.000000
229.316483 -440.746063 2.901099 1.000000
229.316483 -440.746063 2.300152 1.000000
229.316483 -440.746063 1.699848 1.000000
229.316483 -440.746063 1.098900 1.000000
229.316483 -440.746063 0.496016 1.000000
228.400391 -441.024200 0.000026 0.532341
224.666519 -442.157837 0.000021 0.534752
222.282776 -442.881561 0.000017 0.564004
220.625961 -443.384552 0.000015 0.543282
219.405289 -443.755157 0.000013 0.507286
229.388580 -440.858276 6.603736 1.000000
229.388580 -440.858276 5.969516 1.000000
229.388580 -440.858276 5.344199 1.000000
229.388580 -440.858276 4.726288 1.000000
229.388580 -440.858276 4.114351 1.000000
229.388580 -440.858276 3.507004 1.000000
229.388580 -440.858276 2.902910 1.000000
229.388580 -440.858276 2.300755 1.000000
229.388580 -440.858276 1.699245 1.000000
229.388580 -440.858276 1.097090 1.000000
229.388580 -440.858276 0.492995 1.000000
228.435242 -441.140442 0.000026 0.536858
224.693558 -442.247986 0.000021 0.540108
222.304810 -442.955048 0.000017 0.547616
220.644531 -443.446503 0.000014 0.536477
219.421310 -443.808563 0.000013 0.546853
229.460983 -440.970917 6.613228 1.000000
229.460983 -440.970917 5.977699 1.000000
229.460983 -440.970917 5.351094 1.000000
229.460983 -440.970917 4.731910 1.000000
229.460983 -440.970917 4.118710 1.000000
229.460983 -440.970917 3.510111 1.000000
229.460983 -440.970917 2.904771 1.000000
229.460983 -440.970917 2.301375 1.000000
229.460983 -440.970917 1.698625 1.000000
229.460983 -440.970917 1.095229 1.000000
229.460983 -440.970917 0.489888 1.000000
228.469284 -441.256958 0.000026 0.551003
224.719955 -442.338318 0.000021 0.558358
222.326324 -443.028717 0.000017 0.555917
220.662659 -443.508545 0.000015 0.522545
219.436935 -443.862061 0.000013 0.523949
229.533676 -441.084045 6.622984 1.000000
229.533676 -441.084045 5.986112 1.000000
229.533676 -441.084045 5.358181 1.000000
229.533676 -441.084045 4.737687 1.000000
229.533676 -441.084045 4.123191 1.000000
229.533676 -441.084045 3.513305 1.000000
229.533676 -441.084045 2.906684 1.000000
229.533676 -441.084045 2.302013 1.000000
229.533676 -441.084045 1.697988 1.000000
229.533676 -441.084045 1.093315 1.000000
229.533676 -441.084045 0.486694 1.000000
228.502502 -441.373688 0.000026 0.548241
224.745728 -442.428864 0.000020 0.545510
222.347336 -443.102509 0.000017 0.529503
220.680359 -443.570709 0.000015 0.493553
219.452194 -443.915680 0.000013 0.543282
229.606689 -441.197662 6.633008 1.000000
229.606689 -441.197662 5.994755 1.000000
229.606689 -441.197662 5.365463 1.000000
229.606689 -441.197662 4.743624 1.000000
229.606689 -441.197662 4.127794 1.000000
229.606689 -441.197662 3.516586 1.000000
229.606689 -441.197662 2.908650 1.000000
229.606689 -441.197662 2.302667 1.000000
229.606689 -441.197662 1.697333 1.000000
229.606689 -441.197662 1.091349 1.000000
229.606689 -441.197662 0.483413 1.000000
228.534912 -441.490631 0.000026 0.539330
224.770859 -442.519562 0.000021 0.532891
222.367828 -443.176453 0.000018 0.541039
220.697617 -443.633026 0.000015 0.556420
219.467087 -443.969391 0.000013 0.512688
229.680023 -441.311798 6.643302 1.000000
229.680023 -441.311798 6.003632 1.000000
229.680023 -441.311798 5.372941 1.000000
229.680023 -441.311798 4.749721 1.000000
229.680023 -441.311798 4.132523 1.000000
229.680023 -441.311798 3.519956 1.000000
229.680023 -441.311798 2.910670 1.000000
229.680023 -441.311798 2.303340 1.000000
229.680023 -441.311798 1.696660 1.000000
229.680023 -441.311798 1.089330 1.000000
229.680023 -441.311798 0.480044 1.000000
228.566513 -441.607819 0.000026 0.524926
224.795364 -442.610443 0.000021 0.517067
222.387802 -443.250549 0.000018 0.561929
220.714447 -443.695435 0.000015 0.549264
219.481598 -444.023224 0.000014 0.544289
229.753677 -441.426422 6.653872 1.000000
229.753677 -441.426422 6.012743 1.000000
229.753677 -441.426422 5.380618 1.000000
229.753677 -441.426422 4.755978 1.000000
229.753677 -441.426422 4.137376 1.000000
229.753677 -441.426422 3.523415 1.000000
229.753677 -441.426422 2.912742 1.000000
229.753677 -441.426422 2.304030 1.000000
229.753677 -441.426422 1.695970 1.000000
229.753677 -441.426422 1.087258 1.000000
229.753677 -441.426422 0.476584 1.000000
228.597290 -441.725220 0.000026 0.550164
224.819229 -442.701508 0.000021 0.555367
222.407257 -443.324768 0.000018 0.544182
220.730835 -443.757965 0.000016 0.526879
219.495728 -444.077148 0.000014 0.567147
229.827682 -441.541565 6.664716 1.000000
229.827682 -441.541565 6.022094 1.000000
229.827682 -441.541565 5.388494 1.000000
229.827682 -441.541565 4.762400 1.000000
229.827682 -441.541565 4.142357 1.000000
229.827682 -441.541565 3.526965 1.000000
229.827682 -441.541565 2.914869 1.000000
229.827682 -441.541565 2.304739 1.000000
229.827682 -441.541565 1.695262 1.000000
229.827682 -441.541565 1.085131 1.000000
229.827682 -441.541565 0.473035 1.000000
228.627243 -441.842834 0.000026 0.544442
224.842468 -442.792725 0.000021 0.533288
222.426193 -443.399139 0.000018 0.523522
220.746796 -443.820618 0.000015 0.542382
219.509491 -444.131165 0.000014 0.557855
229.902039 -441.657257 6.675838 1.000000
229.902039 -441.657288 6.031683 1.000000
229.902039 -441.657288 5.396574 1.000000
229.902039 -441.657257 4.768987 1.000000
229.902039 -441.657288 4.147464 1.000000
229.902039 -441.657288 3.530606 1.000000
229.902039 -441.657257 2.917050 1.000000
229.902039 -441.657257 2.305465 1.000000
229.902039 -441.657257 1.694535 1.000000
229.902039 -441.657257 1.082949 1.000000
229.902039 -441.657288 0.469394 1.000000
228.656372 -441.960663 0.000026 0.535561
224.865067 -442.884094 0.000021 0.544152
222.444611 -443.473633 0.000017 0.486976
220.762314 -443.883392 0.000015 0.524987
219.522858 -444.185272 0.000013 0.522972
229.976746 -441.773529 6.687242 1.000000
229.976746 -441.773529 6.041517 1.000000
229.976746 -441.773529 5.404858 1.000000
229.976746 -441.773529 4.775741 1.000000
229.976746 -441.773529 4.152702 1.000000
229.976746 -441.773529 3.534339 1.000000
229.976746 -441.773529 2.919287 1.000000
229.976746 -441.773529 2.306211 1.000000
229.976746 -441.773529 1.693790 1.000000
229.976746 -441.773529 1.080712 1.000000
229.976746 -441.773529 0.465660 1.000000
228.684692 -442.078705 0.000026 0.529290
224.887009 -442.975616 0.000021 0.533425
222.462509 -443.548248 0.000017 0.567758
220.777390 -443.946259 0.000015 0.536675
219.535873 -444.239471 0.000013 0.553399
230.051819 -441.890350 6.698933 1.000000
230.051819 -441.890381 6.051597 1.000000
230.051819 -441.890350 5.413351 1.000000
230.051819 -441.890350 4.782663 1.000000
230.051819 -441.890350 4.158072 1.000000
230.051819 -441.890350 3.538166 1.000000
230.051819 -441.890350 2.921580 1.000000
230.051819 -441.890350 2.306974 1.000000
230.051819 -441.890350 1.693026 1.000000
230.051819 -441.890350 1.078420 1.000000
230.051819 -441.890350 0.461833 1.000000
228.712173 -442.196899 0.000026 0.531304
224.908325 -443.067322 0.000021 0.528344
222.479889 -443.622986 0.000017 0.563531
220.792038 -444.009216 0.000015 0.550774
219.548492 -444.293762 0.000013 0.565942
230.127274 -442.007782 6.710912 1.000000
230.127274 -442.007782 6.061926 1.000000
230.127274 -442.007782 5.422052 1.000000
230.127274 -442.007782 4.789757 1.000000
230.127274 -442.007782 4.163573 1.000000
230.127274 -442.007782 3.542087 1.000000
230.127274 -442.007782 2.923929 1.000000
230.127274 -442.007782 2.307757 1.000000
230.127274 -442.007782 1.692244 1.000000
230.127289 -442.007782 1.076070 1.000000
230.127289 -442.007782 0.457912 1.000000
228.738831 -442.315308 0.000026 0.546456
224.929001 -443.159149 0.000021 0.537606
222.496750 -443.697845 0.000018 0.515618
220.806229 -444.072266 0.000015 0.547585
219.560730 -444.348145 0.000014 0.549554
230.203125 -442.125824 6.723183 1.000000
230.203125 -442.125824 6.072506 1.000000
230.203125 -442.125824 5.430966 1.000000
230.203125 -442.125824 4.797023 1.000000
230.203125 -442.125824 4.169209 1.000000
230.203125 -442.125824 3.546104 1.000000
230.203125 -442.125824 2.926336 1.000000
230.203125 -442.125824 2.308558 1.000000
230.203125 -442.125824 1.691442 1.000000
230.203125 -442.125824 1.073663 1.000000
230.203125 -442.125824 0.453895 1.000000
228.764664 -442.433899 0.000026 0.529915
224.949036 -443.251099 0.000021 0.523262
222.513077 -443.772827 0.000018 0.561059
220.819992 -444.135437 0.000015 0.524559
219.572601 -444.402618 0.000014 0.529000
230.279373 -442.244476 6.735749 1.000000
230.279373 -442.244476 6.083343 1.000000
230.279373 -442.244476 5.440094 1.000000
230.279373 -442.244476 4.804465 1.000000
230.279373 -442.244476 4.174980 1.000000
230.279373 -442.244476 3.550217 1.000000
230.279373 -442.244476 2.928801 1.000000
230.279373 -442.244476 2.309379 1.000000
230.279373 -442.244476 1.690621 1.000000
230.279373 -442.244476 1.071199 1.000000
230.279373 -442.244476 0.449782 1.000000
228.789673 -442.552673 0.000026 0.551110
224.968430 -443.343231 0.000021 0.520500
222.528885 -443.847931 0.000018 0.542260
220.833313 -444.198700 0.000015 0.547127
219.584076 -444.457153 0.000014 0.582284
230.356018 -442.363770 6.748613 1.000000
230.356018 -442.363770 6.094434 1.000000
230.356018 -442.363770 5.449439 1.000000
230.356033 -442.363770 4.812084 1.000000
230.356033 -442.363770 4.180888 1.000000
230.356033 -442.363770 3.554429 1.000000
230.356033 -442.363770 2.931323 1.000000
230.356033 -442.363770 2.310219 1.000000
230.356033 -442.363770 1.689780 1.000000
230.356033 -442.363770 1.068676 1.000000
230.356033 -442.363770 0.445570 1.000000
228.813843 -442.671600 0.000026 0.534356
224.987183 -443.435455 0.000021 0.531014
222.544174 -443.923126 0.000018 0.548989
220.846191 -444.262054 0.000015 0.561929
219.595184 -444.511780 0.000014 0.546960
230.433105 -442.483704 6.761783 1.000000
230.433105 -442.483704 6.105789 1.000000
230.433105 -442.483704 5.459005 1.000000
230.433105 -442.483704 4.819882 1.000000
230.433105 -442.483704 4.186936 1.000000
230.433105 -442.483704 3.558739 1.000000
230.433105 -442.483704 2.933906 1.000000
230.433105 -442.483704 2.311080 1.000000
230.433105 -442.483704 1.688920 1.000000
230.433105 -442.483704 1.066093 1.000000
230.433105 -442.483704 0.441260 1.000000
228.837189 -442.790710 0.000026 0.533730
225.005280 -443.527832 0.000021 0.552163
222.558929 -443.998413 0.000018 0.530327
220.858612 -444.325500 0.000015 0.535607
219.605896 -444.566467 0.000014 0.521172
230.510620 -442.604340 6.775257 1.000000
230.510620 -442.604340 6.117408 1.000000
230.510620 -442.604340 5.468794 1.000000
230.510620 -442.604340 4.827862 1.000000
230.510620 -442.604340 4.193125 1.000000
230.510620 -442.604340 3.563150 1.000000
230.510620 -442.604340 2.936549 1.000000
230.510620 -442.604340 2.311960 1.000000
230.510620 -442.604340 1.688040 1.000000
230.510620 -442.604340 1.063451 1.000000
230.510620 -442.604340 0.436849 1.000000
228.859695 -442.909973 0.000026 0.535439
225.022736 -443.620331 0.000021 0.536004
222.573166 -444.073822 0.000018 0.566735
220.870605 -444.389038 0.000015 0.558282
219.616241 -444.621246 0.000014 0.541268
230.588577 -442.725647 6.789043 1.000000
230.588577 -442.725647 6.129294 1.000000
230.588577 -442.725647 5.478807 1.000000
230.588577 -442.725647 4.836026 1.000000
230.588577 -442.725647 4.199456 1.000000
230.588577 -442.725647 3.567663 1.000000
230.588577 -442.725647 2.939253 1.000000
230.588577 -442.725647 2.312860 1.000000
230.588577 -442.725647 1.687139 1.000000
230.588577 -442.725647 1.060747 1.000000
230.588577 -442.725647 0.432336 1.000000
228.881378 -443.029388 0.000026 0.554299
225.039551 -443.712952 0.000021 0.550423
222.586868 -444.149323 0.000017 0.548302
220.882156 -444.452637 0.000015 0.540810
219.626190 -444.676086 0.000014 0.538460
230.666992 -442.847656 6.803144 1.000000
230.666992 -442.847656 6.141452 1.000000
230.666977 -442.847656 5.489050 1.000000
230.666992 -442.847656 4.844376 1.000000
230.666977 -442.847656 4.205932 1.000000
230.666977 -442.847656 3.572278 1.000000
230.666977 -442.847656 2.942018 1.000000
230.666992 -442.847656 2.313781 1.000000
230.666992 -442.847656 1.686218 1.000000
230.666992 -442.847656 1.057982 1.000000
230.666992 -442.847656 0.427721 1.000000
228.902206 -443.148956 0.000026 0.530449
225.055725 -443.805664 0.000020 0.541939
222.600037 -444.224915 0.000018 0.505730
220.893250 -444.516327 0.000015 0.537408
219.635773 -444.731018 0.000014 0.545861
230.745865 -442.970398 6.817563 1.000000
230.745865 -442.970398 6.153884 1.000000
230.745865 -442.970398 5.499525 1.000000
230.745865 -442.970398 4.852915 1.000000
230.745865 -442.970398 4.212554 1.000000
230.745865 -442.970398 3.576998 1.000000
230.745865 -442.970398 2.944846 1.000000
230.745865 -442.970398 2.314724 1.000000
230.745865 -442.970398 1.685276 1.000000
230.745865 -442.970398 1.055154 1.000000
230.745865 -442.970398 0.423001 1.000000
228.922226 -443.268677 0.000026 0.542901
225.071228 -443.898499 0.000021 0.544823
222.612701 -444.300598 0.000017 0.528969
220.903915 -444.580078 0.000015 0.544137
219.644958 -444.785980 0.000014 0.510033
230.825226 -443.093903 6.832306 1.000000
230.825226 -443.093903 6.166595 1.000000
230.825226 -443.093903 5.510233 1.000000
230.825226 -443.093903 4.861645 1.000000
230.825226 -443.093903 4.219325 1.000000
230.825226 -443.093903 3.581825 1.000000
230.825226 -443.093903 2.947737 1.000000
230.825226 -443.093903 2.315687 1.000000
230.825226 -443.093903 1.684313 1.000000
230.825226 -443.093903 1.052262 1.000000
230.825226 -443.093903 0.418175 1.000000
228.941406 -443.388519 0.000026 0.551873
225.086105 -443.991455 0.000021 0.529809
222.624817 -444.376373 0.000018 0.503029
220.914124 -444.643921 0.000015 0.530861
219.653763 -444.841034 0.000013 0.521996
230.905060 -443.218140 6.847373 1.000000
230.905060 -443.218140 6.179590 1.000000
230.905060 -443.218140 5.521179 1.000000
230.905060 -443.218140 4.870569 1.000000
230.905060 -443.218140 4.226246 1.000000
230.905060 -443.218140 3.586757 1.000000
230.905060 -443.218140 2.950693 1.000000
230.905060 -443.218140 2.316671 1.000000
230.905060 -443.218140 1.683329 1.000000
230.905060 -443.218140 1.049307 1.000000
230.905075 -443.218140 0.413242 1.000000
228.959732 -443.508484 0.000026 0.537102
225.100327 -444.084503 0.000021 0.567102
222.636414 -444.452240 0.000018 0.504723
220.923889 -444.707825 0.000015 0.520043
219.662186 -444.896118 0.000014 0.515465
230.985413 -443.343201 6.862775 1.000000
230.985413 -443.343201 6.192868 1.000000
230.985413 -443.343201 5.532367 1.000000
230.985413 -443.343201 4.879689 1.000000
230.985413 -443.343201 4.233319 1.000000
230.985413 -443.343201 3.591799 1.000000
230.985413 -443.343201 2.953714 1.000000
230.985413 -443.343201 2.317677 1.000000
230.985413 -443.343201 1.682322 1.000000
230.985413 -443.343201 1.046286 1.000000
230.985428 -443.343201 0.408200 1.000000
228.977234 -443.628601 0.000026 0.549981
225.113892 -444.177643 0.000021 0.538674
222.647476 -444.528168 0.000018 0.521538
220.933212 -444.771790 0.000015 0.516854
219.670227 -444.951294 0.000013 0.532891
231.066284 -443.469025 6.878514 1.000000
231.066284 -443.469025 6.206439 1.000000
231.066284 -443.469025 5.543799 1.000000
231.066284 -443.469025 4.889009 1.000000
231.066284 -443.469025 4.240547 1.000000
231.066284 -443.469025 3.596951 1.000000
231.066284 -443.469025 2.956800 1.000000
231.066284 -443.469025 2.318706 1.000000
231.066284 -443.469025 1.681294 1.000000
231.066284 -443.469025 1.043199 1.000000
231.066284 -443.469025 0.403049 1.000000
228.993881 -443.748810 0.000026 0.543099
225.126816 -444.270874 0.000021 0.552239
222.658005 -444.604187 0.000018 0.517586
220.942078 -444.835846 0.000015 0.563302
219.677872 -445.006500 0.000014 0.540185
231.147675 -443.595703 6.894594 1.000000
231.147675 -443.595703 6.220303 1.000000
231.147675 -443.595703 5.555481 1.000000
231.147675 -443.595703 4.898532 1.000000
231.147675 -443.595703 4.247933 1.000000
231.147675 -443.595703 3.602214 1.000000
231.147675 -443.595703 2.959954 1.000000
231.147675 -443.595703 2.319756 1.000000
231.147675 -443.595703 1.680244 1.000000
231.147675 -443.595703 1.040046 1.000000
231.147690 -443.595703 0.397785 1.000000
229.009705 -443.869141 0.000026 0.547814
225.139084 -444.364197 0.000020 0.559945
222.667999 -444.680267 0.000017 0.546181
220.950500 -444.899933 0.000015 0.551934
219.685135 -445.061768 0.000014 0.530892
231.229614 -443.723206 6.911020 1.000000
231.229614 -443.723206 6.234467 1.000000
231.229614 -443.723206 5.567413 1.000000
231.229614 -443.723206 4.908259 1.000000
231.229614 -443.723206 4.255476 1.000000
231.229614 -443.723206 3.607591 1.000000
231.229614 -443.723206 2.963175 1.000000
231.229614 -443.723206 2.320829 1.000000
231.229614 -443.723206 1.679171 1.000000
231.229614 -443.723206 1.036824 1.000000
231.229614 -443.723206 0.392408 1.000000
229.024673 -443.989594 0.000026 0.543572
225.150696 -444.457611 0.000021 0.553979
222.677475 -444.756409 0.000017 0.538674
220.958481 -444.964081 0.000015 0.530037
219.692017 -445.117096 0.000014 0.549569
231.312103 -443.851563 6.927797 1.000000
231.312103 -443.851563 6.248933 1.000000
231.312103 -443.851563 5.579599 1.000000
231.312119 -443.851563 4.918195 1.000000
231.312119 -443.851563 4.263182 1.000000
231.312119 -443.851563 3.613084 1.000000
231.312103 -443.851563 2.966466 1.000000
231.312119 -443.851563 2.321925 1.000000
231.312119 -443.851563 1.678075 1.000000
231.312103 -443.851563 1.033534 1.000000
231.312119 -443.851563 0.386916 1.000000
229.038818 -444.110138 0.000025 0.548730
225.161652 -444.551086 0.000021 0.530907
222.686417 -444.832611 0.000018 0.528313
220.966019 -445.028290 0.000015 0.563088
219.698502 -445.172455 0.000014 0.537301
231.395172 -443.980835 6.944932 1.000000
231.395172 -443.980835 6.263707 1.000000
231.395172 -443.980835 5.592047 1.000000
231.395172 -443.980835 4.928341 1.000000
231.395172 -443.980835 4.271051 1.000000
231.395172 -443.980835 3.618692 1.000000
231.395172 -443.980835 2.969827 1.000000
231.395172 -443.980835 2.323044 1.000000
231.395172 -443.980835 1.676956 1.000000
231.395172 -443.980835 1.030173 1.000000
231.395172 -443.980835 0.381307 1.000000
229.052109 -444.230774 0.000026 0.540764
225.171967 -444.644653 0.000021 0.543008
222.694824 -444.908905 0.000018 0.516991
220.973099 -445.092560 0.000015 0.548684
219.704605 -445.227844 0.000014 0.540719
231.478821 -444.110992 6.962429 1.000000
231.478821 -444.110992 6.278794 1.000000
231.478821 -444.110992 5.604757 1.000000
231.478821 -444.110992 4.938704 1.000000
231.478821 -444.110992 4.279087 1.000000
231.478821 -444.110992 3.624420 1.000000
231.478821 -444.110992 2.973258 1.000000
231.478821 -444.110992 2.324188 1.000000
231.478821 -444.110992 1.675812 1.000000
231.478821 -444.110992 1.026742 1.000000
231.478821 -444.110992 0.375579 1.000000
229.064575 -444.351501 0.000025 0.527504
225.181625 -444.738281 0.000021 0.548150
222.702682 -444.985229 0.000018 0.557275
220.979736 -445.156860 0.000015 0.548241
219.710327 -445.283295 0.000014 0.518898
231.563080 -444.242096 6.980295 1.000000
231.563065 -444.242096 6.294198 1.000000
231.563065 -444.242096 5.617734 1.000000
231.563065 -444.242096 4.949282 1.000000
231.563065 -444.242096 4.287292 1.000000
231.563080 -444.242096 3.630268 1.000000
231.563065 -444.242096 2.976762 1.000000
231.563065 -444.242096 2.325355 1.000000
231.563065 -444.242096 1.674645 1.000000
231.563065 -444.242096 1.023238 1.000000
231.563080 -444.242096 0.369732 1.000000
229.076172 -444.472321 0.000025 0.559869
225.190628 -444.831970 0.000021 0.533471
222.710022 -445.061615 0.000018 0.532753
220.985916 -445.221191 0.000015 0.540154
219.715668 -445.338776 0.000014 0.549111
231.647919 -444.374146 6.998532 1.000000
231.647919 -444.374146 6.309923 1.000000
231.647919 -444.374146 5.630981 1.000000
231.647934 -444.374146 4.960084 1.000000
231.647934 -444.374146 4.295668 1.000000
231.647934 -444.374146 3.636237 1.000000
231.647934 -444.374146 2.980339 1.000000
231.647934 -444.374146 2.326546 1.000000
231.647934 -444.374146 1.673454 1.000000
231.647934 -444.374146 1.019661 1.000000
231.647934 -444.374146 0.363761 1.000000
229.086945 -444.593201 0.000026 0.542779
225.198975 -444.925751 0.000021 0.561471
222.716827 -445.138031 0.000018 0.554147
220.991638 -445.285583 0.000016 0.513130
219.720612 -445.394318 0.000014 0.551385
231.733414 -444.507172 7.017150 1.000000
231.733414 -444.507172 6.325978 1.000000
231.733414 -444.507172 5.644507 1.000000
231.733414 -444.507172 4.971109 1.000000
231.733414 -444.507172 4.304219 1.000000
231.733414 -444.507172 3.642333 1.000000
231.733414 -444.507172 2.983990 1.000000
231.733414 -444.507172 2.327763 1.000000
231.733414 -444.507172 1.672237 1.000000
231.733414 -444.507172 1.016009 1.000000
231.733414 -444.507172 0.357667 1.000000
229.096863 -444.714172 0.000026 0.538582
225.206665 -445.019562 0.000021 0.531746
222.723114 -445.214508 0.000018 0.536767
220.996933 -445.350037 0.000016 0.548150
219.725159 -445.449860 0.000014 0.502312
231.819550 -444.641205 7.036155 1.000000
231.819550 -444.641205 6.342363 1.000000
231.819550 -444.641205 5.658313 1.000000
231.819550 -444.641205 4.982363 1.000000
231.819550 -444.641205 4.312947 1.000000
231.819550 -444.641205 3.648553 1.000000
231.819550 -444.641205 2.987718 1.000000
231.819550 -444.641205 2.329005 1.000000
231.819550 -444.641205 1.670996 1.000000
231.819550 -444.641205 1.012282 1.000000
231.819550 -444.641205 0.351446 1.000000
229.105942 -444.835205 0.000026 0.544045
225.213715 -445.113403 0.000021 0.544396
222.728851 -445.291046 0.000018 0.552697
221.001770 -445.414490 0.000016 0.560204
219.729324 -445.505463 0.000014 0.543343
231.906326 -444.776276 7.055550 1.000000
231.906326 -444.776276 6.359086 1.000000
231.906342 -444.776276 5.672401 1.000000
231.906326 -444.776276 4.993848 1.000000
231.906326 -444.776276 4.321855 1.000000
231.906342 -444.776276 3.654902 1.000000
231.906326 -444.776276 2.991521 1.000000
231.906342 -444.776276 2.330271 1.000000
231.906342 -444.776276 1.669729 1.000000
231.906326 -444.776276 1.008479 1.000000
231.906342 -444.776276 0.345097 1.000000
229.114166 -444.956268 0.000026 0.544274
225.220093 -445.207336 0.000020 0.511406
222.734055 -445.367584 0.000018 0.546456
221.006149 -445.479004 0.000016 0.536217
219.733109 -445.561066 0.000014 0.509789
231.993805 -444.912384 7.075343 1.000000
231.993805 -444.912384 6.376153 1.000000
231.993805 -444.912384 5.686778 1.000000
231.993805 -444.912384 5.005570 1.000000
231.993805 -444.912384 4.330945 1.000000
231.993805 -444.912384 3.661381 1.000000
231.993805 -444.912384 2.995403 1.000000
231.993805 -444.912384 2.331564 1.000000
231.993805 -444.912384 1.668436 1.000000
231.993805 -444.912384 1.004596 1.000000
231.993805 -444.912384 0.338618 1.000000
229.121552 -445.077423 0.000025 0.543175
225.225830 -445.301270 0.000020 0.520989
222.738724 -445.444183 0.000018 0.540719
221.010086 -445.543518 0.000016 0.542290
219.736496 -445.616699 0.000014 0.552544
232.081955 -445.049561 7.095543 1.000000
232.081955 -445.049561 6.393569 1.000000
232.081955 -445.049561 5.701451 1.000000
232.081955 -445.049561 5.017531 1.000000
232.081955 -445.049561 4.340221 1.000000
232.081955 -445.049561 3.667993 1.000000
232.081955 -445.049561 2.999365 1.000000
232.081955 -445.049561 2.332883 1.000000
232.081955 -445.049561 1.667116 1.000000
232.081955 -445.049561 1.000635 1.000000
232.081970 -445.049561 0.332006 1.000000
229.128098 -445.198608 0.000025 0.530709
225.230896 -445.395264 0.000021 0.536751
222.742859 -445.520813 0.000018 0.552956
221.013565 -445.608063 0.000016 0.543145
219.739502 -445.672363 0.000014 0.580362
232.170822 -445.187866 7.116152 1.000000
232.170822 -445.187866 6.411340 1.000000
232.170822 -445.187866 5.716424 1.000000
232.170822 -445.187866 5.029737 1.000000
232.170822 -445.187866 4.349687 1.000000
232.170822 -445.187866 3.674740 1.000000
232.170822 -445.187866 3.003407 1.000000
232.170822 -445.187866 2.334231 1.000000
232.170822 -445.187866 1.665770 1.000000
232.170822 -445.187866 0.996592 1.000000
232.170822 -445.187866 0.325259 1.000000
229.133789 -445.319855 0.000025 0.533852
225.235306 -445.489288 0.000021 0.558450
222.746460 -445.597473 0.000017 0.559838
221.016602 -445.672638 0.000015 0.546227
219.742126 -445.728027 0.000014 0.559686
232.260406 -445.327271 7.137182 1.000000
232.260406 -445.327271 6.429472 1.000000
232.260406 -445.327271 5.731698 1.000000
232.260406 -445.327271 5.042191 1.000000
232.260406 -445.327271 4.359345 1.000000
232.260406 -445.327271 3.681624 1.000000
232.260406 -445.327271 3.007532 1.000000
232.260406 -445.327271 2.335604 1.000000
232.260422 -445.327271 1.664396 1.000000
232.260406 -445.327271 0.992468 1.000000
232.260422 -445.327271 0.318375 1.000000
229.138641 -445.441132 0.000025 0.526604
225.239059 -445.583344 0.000020 0.577981
222.749512 -445.674133 0.000018 0.559792
221.019180 -445.737244 0.000015 0.517540
219.744339 -445.783752 0.000014 0.551522
232.350739 -445.467865 7.158636 1.000000
232.350739 -445.467865 6.447971 1.000000
232.350754 -445.467865 5.747284 1.000000
232.350754 -445.467865 5.054895 1.000000
232.350739 -445.467865 4.369199 1.000000
232.350754 -445.467865 3.688647 1.000000
232.350754 -445.467865 3.011739 1.000000
232.350754 -445.467865 2.337005 1.000000
232.350754 -445.467865 1.662994 1.000000
232.350754 -445.467865 0.988260 1.000000
232.350754 -445.467865 0.311352 1.000000
229.142639 -445.562439 0.000025 0.548943
225.242172 -445.677429 0.000020 0.542611
222.752045 -445.750824 0.000017 0.530083
221.021317 -445.801849 0.000016 0.562219
219.746185 -445.839447 0.000015 0.574792
232.441849 -445.609619 7.180524 1.000000
232.441849 -445.609619 6.466845 1.000000
232.441849 -445.609619 5.763185 1.000000
232.441849 -445.609619 5.067858 1.000000
232.441849 -445.609619 4.379251 1.000000
232.441849 -445.609619 3.695812 1.000000
232.441849 -445.609619 3.016032 1.000000
232.441849 -445.609619 2.338435 1.000000
232.441849 -445.609619 1.661564 1.000000
232.441849 -445.609619 0.983967 1.000000
232.441849 -445.609619 0.304187 1.000000
229.145782 -445.683746 0.000025 0.536858
225.244614 -445.771515 0.000020 0.545129
222.754044 -445.827545 0.000018 0.551705
221.022995 -445.866486 0.000015 0.547662
219.747635 -445.895172 0.000015 0.585504
232.533722 -445.752594 7.202856 1.000000
232.533722 -445.752594 6.486097 1.000000
232.533722 -445.752594 5.779404 1.000000
232.533722 -445.752594 5.081081 1.000000
232.533722 -445.752594 4.389507 1.000000
232.533722 -445.752594 3.703122 1.000000
232.533722 -445.752594 3.020411 1.000000
232.533722 -445.752594 2.339895 1.000000
232.533722 -445.752594 1.660106 1.000000
232.533722 -445.752594 0.979588 1.000000
232.533722 -445.752594 0.296878 1.000000
229.148102 -445.805115 0.000025 0.529961
225.246399 -445.865631 0.000021 0.534600
222.755493 -445.904266 0.000017 0.527764
221.024216 -445.931122 0.000016 0.580514
219.748688 -445.950897 0.000015 0.571252
232.626404 -445.896820 7.225635 1.000000
232.626404 -445.896820 6.505739 1.000000
232.626404 -445.896820 5.795951 1.000000
232.626404 -445.896820 5.094571 1.000000
232.626404 -445.896820 4.399968 1.000000
232.626404 -445.896820 3.710578 1.000000
232.626404 -445.896820 3.024879 1.000000
232.626404 -445.896820 2.341383 1.000000
232.626404 -445.896820 1.658617 1.000000
232.626404 -445.896820 0.975120 1.000000
232.626404 -445.896820 0.289421 1.000000
229.149551 -445.926483 0.000025 0.563226
225.247543 -445.959747 0.000020 0.525826
222.756424 -445.980988 0.000018 0.527718
221.024994 -445.995758 0.000015 0.555581
219.749359 -446.006653 0.000014 0.511040
232.719894 -446.042297 7.248870 1.000000
232.719894 -446.042297 6.525773 1.000000
232.719894 -446.042297 5.812830 1.000000
232.719894 -446.042297 5.108331 1.000000
232.719894 -446.042297 4.410640 1.000000
232.719894 -446.042297 3.718184 1.000000
232.719910 -446.042297 3.029436 1.000000
232.719894 -446.042297 2.342901 1.000000
232.719894 -446.042297 1.657099 1.000000
232.719910 -446.042297 0.970563 1.000000
232.719910 -446.042297 0.281815 1.000000
229.150162 -446.047821 0.000025 0.533349
225.248016 -446.053864 0.000020 0.541421
222.756805 -446.057739 0.000018 0.529351
221.025330 -446.060394 0.000015 0.538552
219.749634 -446.062378 0.000014 0.521981
232.814240 -446.189117 7.272573 1.000000
232.814240 -446.189117 6.546210 1.000000
232.814240 -446.189117 5.830048 1.000000
232.814240 -446.189117 5.122368 1.000000
232.814240 -446.189117 4.421526 1.000000
232.814240 -446.189117 3.725943 1.000000
232.814240 -446.189117 3.034085 1.000000
232.814240 -446.189117 2.344449 1.000000
232.814240 -446.189117 1.655551 1.000000
232.814240 -446.189117 0.965914 1.000000
232.814240 -446.189117 0.274056 1.000000
229.149933 -446.169220 0.000025 0.513634
225.247833 -446.148010 0.000020 0.551629
222.756653 -446.134460 0.000018 0.520516
221.025192 -446.125061 0.000016 0.585321
219.749527 -446.118134 0.000014 0.528618
232.909439 -446.337250 7.296749 1.000000
232.909439 -446.337250 6.567057 1.000000
232.909439 -446.337250 5.847610 1.000000
232.909439 -446.337250 5.136684 1.000000
232.909439 -446.337250 4.432629 1.000000
232.909439 -446.337250 3.733857 1.000000
232.909439 -446.337250 3.038826 1.000000
232.909439 -446.337250 2.346028 1.000000
232.909439 -446.337250 1.653972 1.000000
232.909439 -446.337250 0.961173 1.000000
232.909439 -446.337250 0.266142 1.000000
229.148849 -446.290558 0.000025 0.532326
225.246994 -446.242126 0.000020 0.530144
222.755981 -446.211182 0.000017 0.514824
nan nan nan 0.000000
219.749039 -446.173859 0.000014 0.499306
233.005524 -446.486786 7.321408 1.000000
233.005524 -446.486786 6.588319 1.000000
233.005524 -446.486786 5.865523 1.000000
233.005524 -446.486786 5.151288 1.000000
233.005524 -446.486786 4.443954 1.000000
233.005524 -446.486786 3.741929 1.000000
233.005524 -446.486786 3.043663 1.000000
233.005524 -446.486786 2.347639 1.000000
233.005524 -446.486786 1.652361 1.000000
233.005524 -446.486786 0.956337 1.000000
233.005524 -446.486786 0.258070 1.000000
229.146912 -446.411926 0.000025 0.548592
225.245483 -446.336243 0.000020 0.526497
222.754761 -446.287933 0.000017 0.552819
221.023590 -446.254333 0.000015 0.550088
219.748154 -446.229584 0.000015 0.580652
233.102493 -446.637695 7.346560 1.000000
