# This PCD file was generated using the MATLABÂ® pcwrite function
# from Computer Vision ToolboxÂ®.
# .PCD v.7 - Point Cloud Data file format
VERSION .7
FIELDS x y z intensity
SIZE 4 4 4 4
TYPE F F F F
COUNT 1 1 1 1
WIDTH 1189
HEIGHT 1
VIEWPOINT 0 0 0 1 0 0 0
POINTS 1189
DATA ascii
324.833374 -345.158112 0.000003 0.556649
326.631927 -346.881866 0.000003 0.567758
327.882019 -348.079956 0.000002 0.518181
328.803040 -348.962646 0.000002 0.518654
324.788422 -344.983185 5.415815 1.000000
324.788422 -344.983185 4.945245 1.000000
324.788422 -344.983185 4.481281 1.000000
324.788422 -344.983185 4.022813 1.000000
324.788422 -344.983185 3.568776 1.000000
324.788422 -344.983185 3.118145 1.000000
324.788422 -344.983185 2.669928 1.000000
324.788422 -344.983185 2.223150 1.000000
324.788422 -344.983185 1.776850 1.000000
324.788422 -344.983185 1.330072 1.000000
324.788422 -344.983185 0.881854 1.000000
324.788422 -344.983185 0.431224 1.000000
324.898743 -345.090363 0.000004 0.578058
326.685242 -346.826660 0.000003 0.486076
327.926910 -348.033447 0.000002 0.514748
328.841736 -348.922546 0.000002 0.507103
324.754089 -344.815674 5.451310 1.000000
324.754089 -344.815674 4.975850 1.000000
324.754089 -344.815674 4.507065 1.000000
324.754089 -344.815674 4.043833 1.000000
324.754089 -344.815674 3.585077 1.000000
324.754089 -344.815674 3.129764 1.000000
324.754089 -344.815674 2.676889 1.000000
324.754089 -344.815674 2.225469 1.000000
324.754089 -344.815674 1.774531 1.000000
324.754089 -344.815674 1.323111 1.000000
324.754089 -344.815674 0.870236 1.000000
324.754089 -344.815674 0.414923 1.000000
324.964569 -345.023102 0.000004 0.552087
326.738892 -346.771820 0.000002 0.562890
327.972137 -347.987244 0.000002 0.529351
328.880737 -348.882690 0.000002 0.535973
324.719025 -344.644623 5.487721 1.000000
324.719025 -344.644623 5.007245 1.000000
324.719025 -344.644623 4.533515 1.000000
324.719025 -344.644623 4.065395 1.000000
324.719025 -344.644623 3.601800 1.000000
324.719025 -344.644623 3.141683 1.000000
324.719025 -344.644623 2.684031 1.000000
324.719025 -344.644623 2.227847 1.000000
324.719025 -344.644623 1.772153 1.000000
324.719025 -344.644653 1.315970 1.000000
324.719025 -344.644623 0.858317 1.000000
324.719025 -344.644623 0.398200 1.000000
325.030884 -344.956299 0.000003 0.574960
326.792969 -346.717346 0.000003 0.532631
328.017670 -347.941345 0.000002 0.525063
328.919983 -348.843140 0.000002 0.551232
324.683228 -344.469940 5.525082 1.000000
324.683228 -344.469940 5.039459 1.000000
324.683228 -344.469940 4.560654 1.000000
324.683228 -344.469940 4.087520 1.000000
324.683228 -344.469940 3.618958 1.000000
324.683228 -344.469940 3.153913 1.000000
324.683228 -344.469940 2.691358 1.000000
324.683228 -344.469940 2.230288 1.000000
324.683228 -344.469940 1.769712 1.000000
324.683228 -344.469940 1.308642 1.000000
324.683228 -344.469940 0.846087 1.000000
324.683228 -344.469940 0.381042 1.000000
325.097656 -344.889954 0.000003 0.510979
326.847382 -346.663269 0.000003 0.541482
328.063538 -347.895782 0.000002 0.514611
328.959534 -348.803864 0.000002 0.513787
324.646637 -344.291473 5.563428 1.000000
324.646637 -344.291473 5.072521 1.000000
324.646637 -344.291473 4.588509 1.000000
324.646637 -344.291473 4.110228 1.000000
324.646637 -344.291473 3.636569 1.000000
324.646637 -344.291473 3.166465 1.000000
324.646637 -344.291473 2.698879 1.000000
324.646637 -344.291473 2.232793 1.000000
324.646637 -344.291473 1.767207 1.000000
324.646637 -344.291473 1.301121 1.000000
324.646637 -344.291473 0.833534 1.000000
324.646637 -344.291473 0.363431 1.000000
325.164886 -344.824066 0.000004 0.558404
326.902191 -346.609558 0.000003 0.552621
328.109711 -347.850525 0.000002 0.576486
328.999359 -348.764832 0.000002 0.541955
324.609253 -344.109070 5.602796 1.000000
324.609253 -344.109070 5.106465 1.000000
324.609253 -344.109070 4.617105 1.000000
324.609253 -344.109070 4.133541 1.000000
324.609253 -344.109070 3.654650 1.000000
324.609253 -344.109070 3.179352 1.000000
324.609253 -344.109070 2.706599 1.000000
324.609253 -344.109070 2.235365 1.000000
324.609253 -344.109070 1.764635 1.000000
324.609253 -344.109070 1.293401 1.000000
324.609253 -344.109070 0.820648 1.000000
324.609253 -344.109070 0.345351 1.000000
325.232574 -344.758667 0.000003 0.522225
326.957397 -346.556244 0.000003 0.537194
328.156189 -347.805603 0.000002 0.542519
329.039429 -348.726105 0.000002 0.571435
324.571014 -343.922546 5.643221 1.000000
324.571014 -343.922546 5.141323 1.000000
324.571014 -343.922546 4.646471 1.000000
324.571014 -343.922546 4.157481 1.000000
324.571014 -343.922546 3.673216 1.000000
324.571014 -343.922546 3.192585 1.000000
324.571014 -343.922546 2.714528 1.000000
324.571014 -343.922546 2.238006 1.000000
324.571014 -343.922577 1.761994 1.000000
324.571014 -343.922546 1.285472 1.000000
324.571014 -343.922577 0.807415 1.000000
324.571014 -343.922577 0.326784 1.000000
325.300720 -344.693726 0.000003 0.543984
327.012939 -346.503296 0.000003 0.536751
328.203003 -347.761017 0.000002 0.547112
329.079803 -348.687653 0.000001 0.556512
324.531921 -343.731812 5.684746 1.000000
324.531921 -343.731812 5.177127 1.000000
324.531921 -343.731812 4.676635 1.000000
324.531921 -343.731812 4.182072 1.000000
324.531921 -343.731812 3.692287 1.000000
324.531921 -343.731812 3.206179 1.000000
324.531921 -343.731812 2.722672 1.000000
324.531921 -343.731812 2.240719 1.000000
324.531921 -343.731812 1.759281 1.000000
324.531921 -343.731812 1.277328 1.000000
324.531921 -343.731812 0.793822 1.000000
324.531921 -343.731812 0.307713 1.000000
325.369324 -344.629272 0.000004 0.566003
327.068878 -346.450745 0.000003 0.555367
328.250122 -347.716766 0.000002 0.554314
329.120422 -348.649475 0.000002 0.531868
324.491943 -343.536682 5.727412 1.000000
324.491913 -343.536682 5.213917 1.000000
324.491943 -343.536682 4.707629 1.000000
324.491913 -343.536682 4.207339 1.000000
324.491913 -343.536682 3.711883 1.000000
324.491943 -343.536682 3.220145 1.000000
324.491943 -343.536682 2.731040 1.000000
324.491913 -343.536682 2.243506 1.000000
324.491913 -343.536682 1.756494 1.000000
324.491943 -343.536682 1.268960 1.000000
324.491943 -343.536682 0.779855 1.000000
324.491943 -343.536682 0.288117 1.000000
325.438354 -344.565308 0.000003 0.537026
327.125153 -346.398590 0.000003 0.516014
328.297546 -347.672821 0.000002 0.509911
329.161316 -348.611603 0.000002 0.570932
324.450989 -343.336945 5.771264 1.000000
324.450989 -343.336945 5.251727 1.000000
324.450989 -343.336945 4.739483 1.000000
324.450989 -343.336945 4.233307 1.000000
324.450989 -343.336945 3.732023 1.000000
324.450989 -343.336945 3.234499 1.000000
324.450989 -343.336945 2.739640 1.000000
324.450989 -343.336945 2.246371 1.000000
324.450989 -343.336945 1.753629 1.000000
324.450989 -343.336945 1.260359 1.000000
324.450989 -343.336945 0.765500 1.000000
324.450989 -343.336945 0.267978 1.000000
325.507843 -344.501801 0.000003 0.552987
327.181793 -346.346832 0.000003 0.501854
328.345276 -347.629211 0.000002 0.514488
329.202454 -348.574005 0.000002 0.548455
324.409058 -343.132446 5.816349 1.000000
324.409058 -343.132446 5.290600 1.000000
324.409058 -343.132446 4.772233 1.000000
324.409058 -343.132446 4.260005 1.000000
324.409088 -343.132446 3.752728 1.000000
324.409058 -343.132446 3.249258 1.000000
324.409058 -343.132446 2.748482 1.000000
324.409058 -343.132446 2.249316 1.000000
324.409058 -343.132446 1.750684 1.000000
324.409058 -343.132446 1.251517 1.000000
324.409088 -343.132446 0.750742 1.000000
324.409088 -343.132446 0.247272 1.000000
325.577789 -344.438812 0.000003 0.549874
327.238831 -346.295471 0.000003 0.531273
328.393311 -347.585938 0.000002 0.552285
329.243866 -348.536682 0.000002 0.590082
324.366150 -342.923004 5.862715 1.000000
324.366150 -342.923004 5.330579 1.000000
324.366150 -342.923004 4.805914 1.000000
324.366150 -342.923004 4.287463 1.000000
324.366150 -342.923004 3.774023 1.000000
324.366150 -342.923004 3.264435 1.000000
324.366150 -342.923004 2.757576 1.000000
324.366150 -342.923004 2.252345 1.000000
324.366150 -342.923004 1.747655 1.000000
324.366150 -342.923004 1.242424 1.000000
324.366150 -342.923004 0.735565 1.000000
324.366150 -342.923004 0.225978 1.000000
325.648163 -344.376282 0.000004 0.537896
327.296173 -346.244507 0.000003 0.557076
328.441620 -347.542999 0.000002 0.553323
329.285553 -348.499664 0.000001 0.515694
324.431763 -342.834412 5.868572 1.000000
324.431763 -342.834412 5.335629 1.000000
324.431763 -342.834412 4.810168 1.000000
324.431763 -342.834412 4.290931 1.000000
324.431793 -342.834412 3.776712 1.000000
324.431763 -342.834412 3.266352 1.000000
324.431763 -342.834412 2.758725 1.000000
324.431793 -342.834412 2.252728 1.000000
324.431793 -342.834412 1.747272 1.000000
324.431793 -342.834412 1.241275 1.000000
324.431793 -342.834412 0.733647 1.000000
324.431793 -342.834412 0.223288 1.000000
325.718964 -344.314270 0.000004 0.548074
327.353912 -346.193939 0.000003 0.562417
328.490265 -347.500397 0.000002 0.537972
329.327484 -348.462921 0.000001 0.539117
324.552246 -342.809235 5.853621 1.000000
324.552246 -342.809265 5.322737 1.000000
324.552246 -342.809265 4.799307 1.000000
324.552246 -342.809265 4.282077 1.000000
324.552246 -342.809265 3.769846 1.000000
324.552246 -342.809265 3.261458 1.000000
324.552246 -342.809265 2.755793 1.000000
324.552246 -342.809265 2.251751 1.000000
324.552246 -342.809265 1.748249 1.000000
324.552246 -342.809265 1.244207 1.000000
324.552246 -342.809265 0.738542 1.000000
324.552246 -342.809265 0.230154 1.000000
325.790192 -344.252747 0.000003 0.531731
327.411987 -346.143799 0.000003 0.537331
328.539185 -347.458160 0.000002 0.530098
329.369659 -348.426514 0.000002 0.538277
324.671783 -342.784271 5.838970 1.000000
324.671783 -342.784271 5.310105 1.000000
324.671783 -342.784271 4.788666 1.000000
324.671783 -342.784271 4.273401 1.000000
324.671783 -342.784271 3.763118 1.000000
324.671783 -342.784271 3.256662 1.000000
324.671783 -342.784271 2.752919 1.000000
324.671783 -342.784271 2.250794 1.000000
324.671783 -342.784271 1.749206 1.000000
324.671783 -342.784271 1.247081 1.000000
324.671783 -342.784271 0.743337 1.000000
324.671783 -342.784271 0.236883 1.000000
325.861847 -344.191711 0.000004 0.532555
327.470398 -346.094055 0.000003 0.556512
328.588409 -347.416229 0.000002 0.551629
329.412109 -348.390350 0.000002 0.531228
324.790405 -342.759491 5.824616 1.000000
324.790405 -342.759491 5.297729 1.000000
324.790405 -342.759491 4.778238 1.000000
324.790405 -342.759491 4.264902 1.000000
324.790405 -342.759491 3.756526 1.000000
324.790405 -342.759491 3.251964 1.000000
324.790405 -342.759491 2.750104 1.000000
324.790405 -342.759491 2.249856 1.000000
324.790405 -342.759491 1.750144 1.000000
324.790405 -342.759491 1.249896 1.000000
324.790405 -342.759491 0.748036 1.000000
324.790405 -342.759491 0.243475 1.000000
325.933960 -344.131195 0.000004 0.525109
327.529175 -346.044708 0.000003 0.527321
328.637909 -347.374664 0.000002 0.576135
329.454773 -348.354523 0.000002 0.528664
324.908173 -342.734894 5.810555 1.000000
324.908173 -342.734894 5.285604 1.000000
324.908173 -342.734894 4.768025 1.000000
324.908173 -342.734894 4.256575 1.000000
324.908173 -342.734894 3.750068 1.000000
324.908173 -342.734894 3.247361 1.000000
324.908173 -342.734894 2.747346 1.000000
324.908173 -342.734894 2.248938 1.000000
324.908173 -342.734894 1.751062 1.000000
324.908173 -342.734894 1.252654 1.000000
324.908173 -342.734894 0.752639 1.000000
324.908173 -342.734894 0.249932 1.000000
326.006470 -344.071167 0.000004 0.536828
327.588287 -345.995758 0.000003 0.542931
328.687714 -347.333435 0.000002 0.542794
329.497742 -348.318970 0.000002 0.510628
325.025055 -342.710449 5.796782 1.000000
325.025055 -342.710449 5.273728 1.000000
325.025055 -342.710449 4.758019 1.000000
325.025055 -342.710449 4.248418 1.000000
325.025055 -342.710449 3.743742 1.000000
325.025055 -342.710449 3.242852 1.000000
325.025055 -342.710449 2.744645 1.000000
325.025055 -342.710449 2.248038 1.000000
325.025055 -342.710449 1.751962 1.000000
325.025055 -342.710480 1.255355 1.000000
325.025055 -342.710449 0.757147 1.000000
325.025055 -342.710480 0.256258 1.000000
326.079376 -344.011658 0.000004 0.530556
327.647736 -345.947266 0.000003 0.532692
328.737793 -347.292572 0.000002 0.569955
329.540924 -348.283722 0.000002 0.570962
325.141113 -342.686218 5.783291 1.000000
325.141113 -342.686218 5.262096 1.000000
325.141113 -342.686218 4.748219 1.000000
325.141144 -342.686218 4.240428 1.000000
325.141113 -342.686218 3.737545 1.000000
325.141144 -342.686218 3.238436 1.000000
325.141144 -342.686218 2.741999 1.000000
325.141113 -342.686218 2.247156 1.000000
325.141113 -342.686218 1.752843 1.000000
325.141144 -342.686218 1.258001 1.000000
325.141144 -342.686218 0.761564 1.000000
325.141144 -342.686218 0.262455 1.000000
326.152710 -343.952667 0.000004 0.567605
327.707520 -345.899139 0.000003 0.552712
328.788177 -347.252045 0.000002 0.513497
329.584351 -348.248779 0.000002 0.510369
325.256378 -342.662140 5.770078 1.000000
325.256378 -342.662140 5.250704 1.000000
325.256378 -342.662140 4.738622 1.000000
325.256378 -342.662140 4.232604 1.000000
325.256378 -342.662140 3.731477 1.000000
325.256378 -342.662140 3.234111 1.000000
325.256378 -342.662140 2.739408 1.000000
325.256378 -342.662140 2.246294 1.000000
325.256378 -342.662140 1.753707 1.000000
325.256378 -342.662140 1.260592 1.000000
325.256378 -342.662140 0.765888 1.000000
325.256378 -342.662140 0.268523 1.000000
326.226471 -343.894165 0.000004 0.551553
327.767639 -345.851471 0.000003 0.576455
328.838837 -347.211884 0.000002 0.512810
329.628021 -348.214142 0.000002 0.557839
325.370819 -342.638214 5.757141 1.000000
325.370819 -342.638214 5.239548 1.000000
325.370819 -342.638214 4.729223 1.000000
325.370819 -342.638214 4.224943 1.000000
325.370819 -342.638214 3.725535 1.000000
325.370819 -342.638214 3.229876 1.000000
325.370819 -342.638214 2.736870 1.000000
325.370819 -342.638214 2.245448 1.000000
325.370819 -342.638214 1.754552 1.000000
325.370819 -342.638214 1.263130 1.000000
325.370819 -342.638214 0.770124 1.000000
325.370819 -342.638214 0.274465 1.000000
326.300629 -343.836182 0.000003 0.525567
327.828094 -345.804199 0.000003 0.534936
328.889771 -347.172058 0.000002 0.507103
329.671936 -348.179810 0.000002 0.582376
325.484497 -342.614471 5.744472 1.000000
325.484497 -342.614471 5.228625 1.000000
325.484497 -342.614471 4.720021 1.000000
325.484497 -342.614471 4.217441 1.000000
325.484497 -342.614471 3.719718 1.000000
325.484497 -342.614471 3.225729 1.000000
325.484497 -342.614471 2.734386 1.000000
325.484497 -342.614471 2.244620 1.000000
325.484497 -342.614471 1.755379 1.000000
325.484497 -342.614471 1.265614 1.000000
325.484497 -342.614471 0.774271 1.000000
325.484497 -342.614471 0.280282 1.000000
326.375183 -343.778748 0.000004 0.538705
327.888885 -345.757385 0.000003 0.565133
328.940979 -347.132599 0.000002 0.548028
329.716095 -348.145813 0.000002 0.501823
325.597412 -342.590881 5.732072 1.000000
325.597412 -342.590881 5.217933 1.000000
325.597412 -342.590881 4.711013 1.000000
325.597412 -342.590881 4.210097 1.000000
325.597412 -342.590881 3.714022 1.000000
325.597412 -342.590881 3.221670 1.000000
325.597412 -342.590881 2.731954 1.000000
325.597412 -342.590881 2.243810 1.000000
325.597412 -342.590881 1.756190 1.000000
325.597412 -342.590881 1.268046 1.000000
325.597412 -342.590881 0.778330 1.000000
325.597412 -342.590881 0.285978 1.000000
326.450134 -343.721802 0.000004 0.510704
327.949982 -345.710968 0.000003 0.528847
328.992462 -347.093506 0.000003 0.542443
329.760468 -348.112091 0.000002 0.518288
325.709595 -342.567444 5.719933 1.000000
325.709595 -342.567444 5.207467 1.000000
325.709595 -342.567444 4.702195 1.000000
325.709595 -342.567444 4.202909 1.000000
325.709595 -342.567444 3.708447 1.000000
325.709595 -342.567444 3.217696 1.000000
325.709595 -342.567444 2.729573 1.000000
325.709595 -342.567444 2.243017 1.000000
325.709595 -342.567444 1.756983 1.000000
325.709595 -342.567444 1.270427 1.000000
325.709595 -342.567444 0.782303 1.000000
325.709595 -342.567444 0.291553 1.000000
326.525513 -343.665405 0.000003 0.558083
328.011414 -345.664978 0.000003 0.518944
329.044189 -347.054749 0.000002 0.525353
329.805115 -348.078674 0.000002 0.554665
325.821045 -342.544159 5.708053 1.000000
325.821045 -342.544159 5.197223 1.000000
325.821045 -342.544159 4.693565 1.000000
325.821045 -342.544159 4.195873 1.000000
325.821045 -342.544159 3.702991 1.000000
325.821045 -342.544159 3.213807 1.000000
325.821045 -342.544159 2.727243 1.000000
325.821045 -342.544159 2.242241 1.000000
325.821045 -342.544159 1.757759 1.000000
325.821045 -342.544159 1.272757 1.000000
325.821045 -342.544159 0.786192 1.000000
325.821045 -342.544159 0.297009 1.000000
326.601257 -343.609528 0.000004 0.554208
328.073181 -345.619415 0.000003 0.545830
329.096222 -347.016388 0.000002 0.530922
329.849976 -348.045593 0.000002 0.499535
325.931793 -342.521027 5.696428 1.000000
325.931793 -342.521027 5.187200 1.000000
325.931793 -342.521027 4.685121 1.000000
325.931793 -342.521027 4.188989 1.000000
325.931793 -342.521027 3.697652 1.000000
325.931793 -342.521027 3.210002 1.000000
325.931793 -342.521027 2.724963 1.000000
325.931793 -342.521027 2.241482 1.000000
325.931793 -342.521027 1.758518 1.000000
325.931793 -342.521027 1.275037 1.000000
325.931793 -342.521027 0.789997 1.000000
325.931793 -342.521027 0.302348 1.000000
326.677368 -343.554169 0.000003 0.534829
328.135254 -345.574310 0.000003 0.539590
329.148529 -346.978363 0.000002 0.513344
329.895050 -348.012817 0.000002 0.498009
326.041870 -342.498016 5.685055 1.000000
326.041870 -342.498016 5.177393 1.000000
326.041870 -342.498016 4.676860 1.000000
326.041870 -342.498016 4.182255 1.000000
326.041870 -342.498016 3.692429 1.000000
326.041840 -342.498016 3.206279 1.000000
326.041840 -342.498016 2.722733 1.000000
326.041870 -342.498016 2.240739 1.000000
326.041870 -342.498016 1.759261 1.000000
326.041840 -342.498016 1.277267 1.000000
326.041840 -342.498016 0.793720 1.000000
326.041870 -342.498016 0.307571 1.000000
326.753906 -343.499359 0.000004 0.543709
328.197632 -345.529602 0.000003 0.562448
329.201080 -346.940704 0.000002 0.533059
329.940369 -347.980347 0.000002 0.557473
326.151245 -342.475159 5.673930 1.000000
326.151245 -342.475159 5.167802 1.000000
326.151245 -342.475189 4.668778 1.000000
326.151245 -342.475189 4.175667 1.000000
326.151245 -342.475189 3.687320 1.000000
326.151245 -342.475159 3.202638 1.000000
326.151245 -342.475159 2.720551 1.000000
326.151245 -342.475159 2.240012 1.000000
326.151245 -342.475159 1.759988 1.000000
326.151245 -342.475159 1.279449 1.000000
326.151245 -342.475159 0.797362 1.000000
326.151245 -342.475189 0.312680 1.000000
326.830811 -343.445068 0.000004 0.523445
328.260315 -345.485352 0.000003 0.542168
329.253876 -346.903442 0.000002 0.544945
329.985901 -347.948212 0.000001 0.567391
326.128601 -342.262146 5.720980 1.000000
326.128601 -342.262146 5.208369 1.000000
326.128601 -342.262146 4.702956 1.000000
326.128601 -342.262146 4.203528 1.000000
326.128601 -342.262146 3.708928 1.000000
326.128601 -342.262146 3.218039 1.000000
326.128601 -342.262146 2.729778 1.000000
326.128601 -342.262146 2.243086 1.000000
326.128601 -342.262146 1.756914 1.000000
326.128601 -342.262146 1.270222 1.000000
326.128601 -342.262146 0.781960 1.000000
326.128601 -342.262146 0.291072 1.000000
326.908081 -343.391327 0.000004 0.532860
328.323303 -345.441559 0.000003 0.535546
329.306946 -346.866516 0.000002 0.543496
330.031677 -347.916382 0.000002 0.492668
326.074432 -341.998047 5.783224 1.000000
326.074432 -341.998047 5.262038 1.000000
326.074432 -341.998047 4.748171 1.000000
326.074432 -341.998047 4.240389 1.000000
326.074432 -341.998047 3.737515 1.000000
326.074432 -341.998047 3.238414 1.000000
326.074432 -341.998047 2.741986 1.000000
326.074432 -341.998047 2.247152 1.000000
326.074432 -341.998047 1.752848 1.000000
326.074432 -341.998047 1.258014 1.000000
326.074432 -341.998047 0.761585 1.000000
326.074432 -341.998047 0.262485 1.000000
326.985718 -343.338135 0.000003 0.530297
328.386627 -345.398163 0.000003 0.561135
329.360291 -346.829987 0.000002 0.537362
330.077637 -347.884888 0.000002 0.529793
326.018402 -341.724945 5.847777 1.000000
326.018402 -341.724945 5.317698 1.000000
326.018402 -341.724945 4.795063 1.000000
326.018402 -341.724945 4.278617 1.000000
326.018402 -341.724945 3.767163 1.000000
326.018402 -341.724945 3.259545 1.000000
326.018402 -341.724945 2.754646 1.000000
326.018402 -341.724945 2.251369 1.000000
326.018402 -341.724945 1.748631 1.000000
326.018402 -341.724945 1.245353 1.000000
326.018402 -341.724945 0.740454 1.000000
326.018402 -341.724945 0.232837 1.000000
327.063751 -343.285461 0.000004 0.555535
328.450226 -345.355255 0.000003 0.549599
329.413879 -346.793823 0.000002 0.530465
330.123840 -347.853699 0.000002 0.551720
325.960419 -341.442322 5.914766 1.000000
325.960419 -341.442322 5.375459 1.000000
325.960419 -341.442322 4.843724 1.000000
325.960419 -341.442322 4.318287 1.000000
325.960419 -341.442352 3.797928 1.000000
325.960419 -341.442322 3.281474 1.000000
325.960419 -341.442322 2.767785 1.000000
325.960419 -341.442322 2.255745 1.000000
325.960419 -341.442322 1.744254 1.000000
325.960419 -341.442322 1.232215 1.000000
325.960419 -341.442322 0.718526 1.000000
325.960419 -341.442352 0.202072 1.000000
327.142151 -343.233368 0.000004 0.526574
328.514130 -345.312775 0.000003 0.539879
329.467712 -346.758026 0.000002 0.557931
330.170258 -347.822845 0.000002 0.522118
325.900391 -341.149719 5.984326 1.000000
325.900391 -341.149719 5.435436 1.000000
325.900391 -341.149719 4.894253 1.000000
325.900391 -341.149719 4.359480 1.000000
325.900391 -341.149719 3.829875 1.000000
325.900391 -341.149719 3.304244 1.000000
325.900391 -341.149719 2.781427 1.000000
325.900391 -341.149719 2.260290 1.000000
325.900391 -341.149719 1.739710 1.000000
325.900391 -341.149719 1.218573 1.000000
325.900391 -341.149719 0.695756 1.000000
325.900391 -341.149719 0.170125 1.000000
327.220886 -343.181793 0.000004 0.517311
328.578339 -345.270721 0.000003 0.513802
329.521790 -346.722626 0.000002 0.506371
330.216888 -347.792297 0.000002 0.552193
325.838196 -340.846497 6.056603 1.000000
325.838196 -340.846497 5.497757 1.000000
325.838165 -340.846497 4.946757 1.000000
325.838196 -340.846497 4.402282 1.000000
325.838196 -340.846497 3.863070 1.000000
325.838196 -340.846497 3.327904 1.000000
325.838196 -340.846497 2.795602 1.000000
325.838196 -340.846497 2.265011 1.000000
325.838196 -340.846497 1.734988 1.000000
325.838196 -340.846497 1.204397 1.000000
325.838196 -340.846497 0.672096 1.000000
325.838196 -340.846497 0.136930 1.000000
327.299988 -343.130768 0.000004 0.482353
328.642822 -345.229126 0.000003 0.549172
329.576141 -346.687561 0.000002 0.502312
330.263763 -347.762085 0.000002 0.516320
325.773682 -340.532043 6.131758 1.000000
325.773682 -340.532043 5.562559 1.000000
325.773682 -340.532043 5.001349 1.000000
325.773682 -340.532043 4.446787 1.000000
325.773682 -340.532043 3.897586 1.000000
325.773682 -340.532043 3.352504 1.000000
325.773682 -340.532043 2.810343 1.000000
325.773682 -340.532043 2.269922 1.000000
325.773682 -340.532043 1.730079 1.000000
325.773682 -340.532043 1.189657 1.000000
325.773682 -340.532043 0.647495 1.000000
325.773682 -340.532043 0.102414 1.000000
327.379456 -343.080322 0.000004 0.555886
328.707581 -345.187988 0.000003 0.543847
329.630707 -346.652924 0.000002 0.550530
330.310791 -347.732208 0.000002 0.567559
325.706726 -340.205688 6.209958 1.000000
325.706726 -340.205688 5.629986 1.000000
325.706726 -340.205719 5.058155 1.000000
325.706726 -340.205688 4.493097 1.000000
325.706726 -340.205688 3.933501 1.000000
325.706726 -340.205719 3.378103 1.000000
325.706726 -340.205688 2.825680 1.000000
325.706726 -340.205719 2.275030 1.000000
325.706726 -340.205719 1.724970 1.000000
325.706726 -340.205688 1.174320 1.000000
325.706726 -340.205719 0.621897 1.000000
325.706726 -340.205688 0.066499 1.000000
327.459259 -343.030426 0.000004 0.558755
328.772644 -345.147308 0.000003 0.534646
329.685516 -346.618652 0.000002 0.507607
330.358063 -347.702637 0.000002 0.540230
325.637177 -339.866760 6.291390 1.000000
325.637177 -339.866760 5.700198 1.000000
325.637177 -339.866760 5.117307 1.000000
325.637177 -339.866760 4.541320 1.000000
325.637177 -339.866760 3.970899 1.000000
325.637177 -339.866760 3.404759 1.000000
325.637177 -339.866760 2.841650 1.000000
325.637177 -339.866760 2.280350 1.000000
325.637177 -339.866760 1.719650 1.000000
325.637177 -339.866760 1.158350 1.000000
325.637177 -339.866760 0.595240 1.000000
325.637177 -339.866760 0.029101 1.000000
327.539429 -342.981079 0.000004 0.551598
328.838013 -345.107086 0.000003 0.524224
329.740570 -346.584747 0.000002 0.540078
330.405548 -347.673431 0.000002 0.554513
325.564911 -339.514435 6.376250 1.000000
325.564911 -339.514435 5.773369 1.000000
325.564911 -339.514435 5.178951 1.000000
325.564911 -339.514435 4.591574 1.000000
325.564911 -339.514435 4.009873 1.000000
325.564911 -339.514435 3.432538 1.000000
325.564911 -339.514435 2.858293 1.000000
325.564911 -339.514435 2.285894 1.000000
325.564911 -339.514435 1.714106 1.000000
325.564911 -339.514435 1.141706 1.000000
325.564911 -339.514435 0.567462 1.000000
325.609131 -339.588013 0.000005 0.542809
327.619934 -342.932281 0.000003 0.534646
328.903625 -345.067322 0.000003 0.556664
329.795868 -346.551239 0.000002 0.569940
330.453217 -347.644531 0.000002 0.560906
325.489685 -339.147858 6.464756 1.000000
325.489685 -339.147858 5.849682 1.000000
325.489685 -339.147858 5.243242 1.000000
325.489685 -339.147858 4.643986 1.000000
325.489685 -339.147858 4.050521 1.000000
325.489685 -339.147858 3.461510 1.000000
325.489685 -339.147858 2.875651 1.000000
325.489685 -339.147858 2.291676 1.000000
325.489685 -339.147858 1.708325 1.000000
325.489685 -339.147858 1.124348 1.000000
325.489685 -339.147858 0.538490 1.000000
325.713379 -339.525848 0.000005 0.534066
327.700745 -342.884064 0.000004 0.546441
328.969543 -345.028015 0.000003 0.548928
329.851379 -346.518127 0.000002 0.545174
330.501068 -347.615967 0.000002 0.519722
325.411377 -338.766144 6.557145 1.000000
325.411377 -338.766144 5.929342 1.000000
325.411377 -338.766144 5.310354 1.000000
325.411377 -338.766144 4.698697 1.000000
325.411377 -338.766144 4.092953 1.000000
325.411377 -338.766144 3.491752 1.000000
325.411377 -338.766144 2.893771 1.000000
325.411377 -338.766144 2.297711 1.000000
325.411377 -338.766144 1.702289 1.000000
325.411377 -338.766144 1.106228 1.000000
325.411377 -338.766144 0.508247 1.000000
325.818054 -339.464386 0.000005 0.525231
327.781921 -342.836395 0.000003 0.544823
329.035706 -344.989166 0.000003 0.535180
329.907135 -346.485413 0.000002 0.525795
330.549133 -347.587769 0.000002 0.563485
325.329742 -338.368286 6.653667 1.000000
325.329773 -338.368286 6.012567 1.000000
325.329773 -338.368286 5.380468 1.000000
325.329773 -338.368286 4.755857 1.000000
325.329773 -338.368286 4.137282 1.000000
325.329773 -338.368286 3.523348 1.000000
325.329773 -338.368286 2.912701 1.000000
325.329773 -338.368286 2.304017 1.000000
325.329773 -338.368286 1.695984 1.000000
325.329773 -338.368286 1.087298 1.000000
325.329773 -338.368286 0.476652 1.000000
325.923126 -339.403687 0.000005 0.532387
327.863434 -342.789337 0.000004 0.570748
329.102142 -344.950775 0.000003 0.567102
329.963104 -346.453064 0.000002 0.554086
330.597412 -347.559875 0.000002 0.521202
325.244598 -337.953186 6.754602 1.000000
325.244598 -337.953186 6.099597 1.000000
325.244598 -337.953186 5.453790 1.000000
325.244598 -337.953186 4.815629 1.000000
325.244598 -337.953186 4.183639 1.000000
325.244598 -337.953186 3.556389 1.000000
325.244598 -337.953186 2.932498 1.000000
325.244598 -337.953186 2.310610 1.000000
325.244598 -337.953186 1.689389 1.000000
325.244598 -337.953186 1.067502 1.000000
325.244598 -337.953186 0.443611 1.000000
326.028656 -339.343689 0.000005 0.537652
327.945251 -342.742798 0.000004 0.561090
329.168854 -344.912842 0.000003 0.585916
330.019318 -346.421112 0.000003 0.553277
330.645874 -347.532318 0.000002 0.500847
325.155640 -337.519623 6.860260 1.000000
325.155640 -337.519623 6.190699 1.000000
325.155640 -337.519623 5.530540 1.000000
325.155640 -337.519653 4.878199 1.000000
325.155640 -337.519623 4.232163 1.000000
325.155640 -337.519653 3.590975 1.000000
325.155640 -337.519653 2.953220 1.000000
325.155640 -337.519653 2.317513 1.000000
325.155640 -337.519653 1.682487 1.000000
325.155640 -337.519653 1.046780 1.000000
325.155640 -337.519653 0.409025 1.000000
326.134583 -339.284454 0.000005 0.540291
328.027405 -342.696869 0.000004 0.552911
329.235840 -344.875397 0.000003 0.548486
330.075714 -346.389557 0.000002 0.513939
330.694519 -347.505127 0.000002 0.527703
325.062653 -337.066376 6.970965 1.000000
325.062653 -337.066376 6.286152 1.000000
325.062653 -337.066376 5.610957 1.000000
325.062653 -337.066376 4.943757 1.000000
325.062653 -337.066376 4.283007 1.000000
325.062653 -337.066376 3.627213 1.000000
325.062653 -337.066376 2.974932 1.000000
325.062653 -337.066376 2.324745 1.000000
325.062653 -337.066376 1.675255 1.000000
325.062653 -337.066376 1.025068 1.000000
325.062653 -337.066376 0.372786 1.000000
326.240906 -339.225952 0.000005 0.548394
328.109894 -342.651489 0.000004 0.563180
329.303070 -344.838409 0.000003 0.522560
330.132355 -346.358398 0.000002 0.550301
330.743347 -347.478241 0.000002 0.553002
324.965332 -336.591949 7.087083 1.000000
324.965332 -336.591949 6.386275 1.000000
324.965332 -336.591949 5.695307 1.000000
324.965332 -336.591949 5.012522 1.000000
324.965332 -336.591949 4.336336 1.000000
324.965332 -336.591949 3.665224 1.000000
324.965332 -336.591949 2.997706 1.000000
324.965332 -336.591980 2.332331 1.000000
324.965332 -336.591980 1.667669 1.000000
324.965332 -336.591949 1.002294 1.000000
324.965332 -336.591980 0.334776 1.000000
326.347656 -339.168182 0.000005 0.545525
328.192688 -342.606689 0.000003 0.523476
329.370544 -344.801880 0.000003 0.568612
330.189240 -346.327637 0.000002 0.602228
330.792389 -347.451721 0.000002 0.505394
324.863342 -336.094818 7.209017 1.000000
324.863342 -336.094818 6.491412 1.000000
324.863342 -336.094818 5.783881 1.000000
324.863342 -336.094818 5.084730 1.000000
324.863342 -336.094818 4.392337 1.000000
324.863342 -336.094818 3.705139 1.000000
324.863342 -336.094818 3.021620 1.000000
324.863342 -336.094818 2.340297 1.000000
324.863342 -336.094818 1.659703 1.000000
324.863342 -336.094818 0.978380 1.000000
324.863342 -336.094818 0.294861 1.000000
326.454803 -339.111176 0.000005 0.552209
328.275757 -342.562469 0.000004 0.536599
329.438293 -344.765839 0.000003 0.540978
330.246307 -346.297272 0.000002 0.510887
330.841614 -347.425537 0.000002 0.482506
324.756317 -335.573242 7.337208 1.000000
324.756317 -335.573242 6.601943 1.000000
324.756317 -335.573242 5.877001 1.000000
324.756317 -335.573242 5.160643 1.000000
324.756317 -335.573242 4.451211 1.000000
324.756348 -335.573242 3.747101 1.000000
324.756348 -335.573242 3.046762 1.000000
324.756348 -335.573242 2.348672 1.000000
324.756348 -335.573242 1.651329 1.000000
324.756348 -335.573242 0.953238 1.000000
324.756348 -335.573242 0.252898 1.000000
326.562347 -339.054932 0.000005 0.534630
328.359192 -342.518860 0.000004 0.541588
329.506287 -344.730286 0.000003 0.539071
330.303589 -346.267303 0.000002 0.561395
330.890991 -347.399719 0.000002 0.568597
324.643921 -335.025299 7.472139 1.000000
324.643921 -335.025330 6.718284 1.000000
324.643921 -335.025330 5.975015 1.000000
324.643921 -335.025330 5.240548 1.000000
324.643921 -335.025330 4.513181 1.000000
324.643921 -335.025330 3.791270 1.000000
324.643921 -335.025330 3.073225 1.000000
324.643921 -335.025330 2.357486 1.000000
324.643921 -335.025330 1.642514 1.000000
324.643921 -335.025330 0.926775 1.000000
324.643921 -335.025330 0.208730 1.000000
326.670288 -338.999420 0.000005 0.544503
328.442871 -342.475800 0.000004 0.540642
329.574524 -344.695160 0.000003 0.509148
330.361084 -346.237732 0.000002 0.541588
330.940552 -347.374207 0.000002 0.542504
324.525665 -334.448944 7.614352 1.000000
324.525665 -334.448944 6.840905 1.000000
324.525665 -334.448944 6.078320 1.000000
324.525665 -334.448944 5.324764 1.000000
324.525665 -334.448944 4.578493 1.000000
324.525665 -334.448944 3.837822 1.000000
324.525665 -334.448944 3.101116 1.000000
324.525665 -334.448944 2.366776 1.000000
324.525665 -334.448944 1.633223 1.000000
324.525665 -334.448944 0.898884 1.000000
324.525665 -334.448944 0.162178 1.000000
326.778595 -338.944641 0.000005 0.545998
328.526886 -342.433319 0.000004 0.526406
329.643005 -344.660553 0.000003 0.540093
330.418762 -346.208557 0.000002 0.526787
330.990295 -347.349060 0.000002 0.507851
324.401093 -333.841766 7.764438 1.000000
324.401093 -333.841766 6.970316 1.000000
324.401123 -333.841766 6.187344 1.000000
324.401093 -333.841766 5.413646 1.000000
324.401123 -333.841766 4.647424 1.000000
324.401093 -333.841766 3.886951 1.000000
324.401123 -333.841766 3.130552 1.000000
324.401123 -333.841766 2.376582 1.000000
324.401123 -333.841766 1.623418 1.000000
324.401123 -333.841766 0.869448 1.000000
324.401123 -333.841766 0.113048 1.000000
326.887299 -338.890656 0.000005 0.538369
328.611176 -342.391449 0.000004 0.517296
329.711731 -344.626404 0.000003 0.523156
330.476654 -346.179810 0.000002 0.531258
331.040222 -347.324249 0.000002 0.528252
324.269684 -333.201233 7.923070 1.000000
324.269684 -333.201202 7.107095 1.000000
324.269684 -333.201233 6.302575 1.000000
324.269684 -333.201233 5.507586 1.000000
324.269684 -333.201233 4.720278 1.000000
324.269684 -333.201233 3.938879 1.000000
324.269684 -333.201233 3.161664 1.000000
324.269684 -333.201233 2.386945 1.000000
324.269684 -333.201233 1.613055 1.000000
324.269684 -333.201233 0.838336 1.000000
324.269684 -333.201233 0.061121 1.000000
326.996368 -338.837402 0.000005 0.535531
328.695770 -342.350159 0.000004 0.539513
329.780701 -344.592773 0.000003 0.538766
330.534760 -346.151428 0.000002 0.543053
331.090332 -347.299805 0.000002 0.558846
324.130829 -332.524384 8.090982 1.000000
324.130829 -332.524384 7.251875 1.000000
324.130829 -332.524384 6.424550 1.000000
324.130829 -332.524384 5.607021 1.000000
324.130829 -332.524384 4.797396 1.000000
324.130829 -332.524384 3.993845 1.000000
324.130829 -332.524384 3.194596 1.000000
324.130829 -332.524384 2.397914 1.000000
324.130829 -332.524384 1.602086 1.000000
324.130829 -332.524384 0.805404 1.000000
324.130829 -332.524384 0.006155 1.000000
327.105804 -338.784943 0.000005 0.543023
328.780640 -342.309479 0.000004 0.537194
329.849884 -344.559570 0.000003 0.522316
330.593048 -346.123505 0.000002 0.544045
331.140594 -347.275726 0.000002 0.508263
323.983856 -331.808014 8.269009 1.000000
323.983856 -331.808014 7.405375 1.000000
323.983856 -331.808014 6.553869 1.000000
323.983856 -331.808014 5.712447 1.000000
323.983856 -331.808014 4.879156 1.000000
323.983856 -331.808014 4.052120 1.000000
323.983856 -331.808014 3.229511 1.000000
323.983856 -331.808014 2.409544 1.000000
323.983856 -331.808014 1.590455 1.000000
323.983856 -331.808014 0.770488 1.000000
324.252716 -332.384125 0.000007 0.540124
327.215607 -338.733246 0.000005 0.543755
328.865814 -342.269379 0.000004 0.549630
329.919312 -344.526886 0.000003 0.546197
330.651550 -346.095947 0.000002 0.552300
331.191010 -347.251953 0.000002 0.557351
323.828033 -331.048462 8.458080 1.000000
323.828033 -331.048462 7.568401 1.000000
323.828033 -331.048462 6.691214 1.000000
323.828033 -331.048462 5.824414 1.000000
323.828033 -331.048462 4.965992 1.000000
323.828033 -331.048462 4.114012 1.000000
323.828033 -331.048462 3.266594 1.000000
323.828033 -331.048462 2.421896 1.000000
323.828033 -331.048462 1.578104 1.000000
323.828033 -331.048462 0.733406 1.000000
324.407288 -332.312653 0.000007 0.522225
327.325775 -338.682281 0.000005 0.550851
328.951233 -342.229858 0.000003 0.520073
329.988953 -344.494690 0.000003 0.552010
330.710205 -346.068817 0.000002 0.509194
331.241608 -347.228577 0.000002 0.503105
323.662506 -330.241638 8.659245 1.000000
323.662506 -330.241638 7.741853 1.000000
323.662506 -330.241638 6.837341 1.000000
323.662506 -330.241638 5.943542 1.000000
323.662506 -330.241638 5.058381 1.000000
323.662506 -330.241638 4.179862 1.000000
323.662506 -330.241638 3.306047 1.000000
323.662506 -330.241638 2.435038 1.000000
323.662506 -330.241638 1.564962 1.000000
323.662506 -330.241638 0.693953 1.000000
324.562317 -332.242249 0.000007 0.544747
327.436310 -338.632111 0.000005 0.535943
329.036957 -342.190948 0.000003 0.541466
330.058838 -344.462952 0.000003 0.502861
330.769073 -346.042084 0.000002 0.539498
331.292358 -347.205536 0.000002 0.562310
323.486328 -329.382874 8.873692 1.000000
323.486328 -329.382874 7.926756 1.000000
323.486328 -329.382874 6.993116 1.000000
323.486328 -329.382874 6.070535 1.000000
323.486328 -329.382874 5.156870 1.000000
323.486328 -329.382874 4.250059 1.000000
323.486328 -329.382874 3.348105 1.000000
323.486328 -329.382904 2.449047 1.000000
323.486328 -329.382904 1.550953 1.000000
323.486328 -329.382904 0.651895 1.000000
324.717865 -332.172943 0.000007 0.532372
327.547150 -338.582733 0.000005 0.541604
329.122925 -342.152649 0.000004 0.528206
330.128937 -344.431732 0.000003 0.540825
330.828125 -346.015778 0.000002 0.549599
331.343292 -347.182831 0.000002 0.527672
323.298431 -328.466949 9.102765 1.000000
323.298401 -328.466949 8.124273 1.000000
323.298401 -328.466949 7.159519 1.000000
323.298401 -328.466919 6.206192 1.000000
323.298401 -328.466949 5.262076 1.000000
323.298401 -328.466949 4.325046 1.000000
323.298401 -328.466949 3.393032 1.000000
323.298401 -328.466949 2.464012 1.000000
323.298401 -328.466949 1.535988 1.000000
323.298431 -328.466949 0.606967 1.000000
324.873901 -332.104736 0.000006 0.549035
327.658356 -338.534088 0.000005 0.530159
329.209167 -342.114929 0.000003 0.522698
330.199249 -344.401001 0.000003 0.568475
330.887360 -345.989868 0.000002 0.538079
331.394348 -347.160522 0.000002 0.531838
323.097534 -327.487793 9.348001 1.000000
323.097534 -327.487793 8.335727 1.000000
323.097534 -327.487793 7.337662 1.000000
323.097534 -327.487793 6.351419 1.000000
323.097534 -327.487793 5.374706 1.000000
323.097534 -327.487793 4.405322 1.000000
323.097534 -327.487793 3.441130 1.000000
323.097534 -327.487793 2.480033 1.000000
323.097534 -327.487793 1.519966 1.000000
323.097534 -327.487793 0.558870 1.000000
325.030396 -332.037598 0.000006 0.537087
327.769897 -338.486267 0.000005 0.552789
329.295685 -342.077820 0.000004 0.536812
330.269775 -344.370728 0.000003 0.541741
330.946777 -345.964386 0.000002 0.557656
331.445587 -347.138550 0.000002 0.561517
322.882294 -326.438568 9.611166 1.000000
322.882263 -326.438568 8.562636 1.000000
322.882263 -326.438568 7.528827 1.000000
322.882263 -326.438568 6.507261 1.000000
322.882263 -326.438568 5.495569 1.000000
322.882263 -326.438568 4.491467 1.000000
322.882263 -326.438568 3.492743 1.000000
322.882263 -326.438568 2.497226 1.000000
322.882263 -326.438568 1.502775 1.000000
322.882294 -326.438568 0.507257 1.000000
325.187347 -331.971558 0.000007 0.523812
327.881775 -338.439178 0.000005 0.545205
329.382446 -342.041321 0.000004 0.512474
330.340485 -344.340973 0.000003 0.552148
331.006378 -345.939331 0.000002 0.537484
331.496948 -347.116913 0.000002 0.546990
322.651001 -325.311340 9.894283 1.000000
322.651001 -325.311340 8.806749 1.000000
322.651001 -325.311340 7.734484 1.000000
322.651001 -325.311310 6.674919 1.000000
322.651001 -325.311340 5.625594 1.000000
322.651001 -325.311310 4.584143 1.000000
322.651001 -325.311340 3.548268 1.000000
322.651001 -325.311340 2.515721 1.000000
322.651001 -325.311340 1.484279 1.000000
322.651001 -325.311340 0.451730 1.000000
325.344757 -331.906616 0.000006 0.534859
327.993988 -338.392914 0.000005 0.536477
329.469452 -342.005432 0.000004 0.530434
330.411438 -344.311707 0.000003 0.517983
331.066132 -345.914673 0.000002 0.544717
331.548492 -347.095673 0.000002 0.543618
322.401886 -324.096924 10.199687 1.000000
322.401886 -324.096924 9.070078 1.000000
322.401886 -324.096924 7.956332 1.000000
322.401886 -324.096924 6.855776 1.000000
322.401855 -324.096924 5.765859 1.000000
322.401855 -324.096924 4.684116 1.000000
322.401855 -324.096924 3.608167 1.000000
322.401855 -324.096924 2.535673 1.000000
322.401855 -324.096924 1.464327 1.000000
322.401886 -324.096924 0.391833 1.000000
325.502625 -331.842773 0.000006 0.537957
328.106506 -338.347412 0.000005 0.544244
329.556732 -341.970154 0.000004 0.519493
330.482574 -344.282959 0.000003 0.531472
331.126068 -345.890442 0.000002 0.540398
331.600159 -347.074768 0.000002 0.534783
nan nan nan 0.000000
nan nan nan 0.000000
nan nan nan 0.000000
nan nan nan 0.000000
315.726837 -306.453064 7.935771 1.000000
315.726837 -306.453064 6.230721 1.000000
315.726837 -306.453064 4.534803 1.000000
315.726837 -306.453064 2.844330 1.000000
315.726837 -306.453064 1.155669 1.000000
319.702362 -316.588654 0.000058 0.338643
325.660950 -331.780060 0.000007 0.548043
328.219330 -338.302704 0.000005 0.531167
329.644226 -341.935455 0.000004 0.517739
330.553894 -344.254669 0.000003 0.552880
331.186157 -345.866638 0.000003 0.533761
331.651978 -347.054230 0.000002 0.550439
nan nan nan 0.000000
nan nan nan 0.000000
nan nan nan 0.000000
nan nan nan 0.000000
316.085449 -306.382111 7.928449 1.000000
316.085449 -306.382111 6.225504 1.000000
316.085449 -306.382111 4.531677 1.000000
316.085449 -306.382111 2.843289 1.000000
316.085449 -306.382111 1.156711 1.000000
319.967316 -316.485901 0.000063 0.337865
325.819672 -331.718445 0.000007 0.532616
328.332489 -338.258759 0.000005 0.539513
329.731995 -341.901398 0.000004 0.568200
330.625458 -344.226898 0.000003 0.530007
331.246429 -345.843231 0.000002 0.532876
331.703949 -347.034058 0.000002 0.539315
nan nan nan 0.000000
nan nan nan 0.000000
nan nan nan 0.000000
nan nan nan 0.000000
316.443207 -306.311310 7.921435 1.000000
316.443207 -306.311310 6.220506 1.000000
316.443207 -306.311310 4.528681 1.000000
316.443207 -306.311310 2.842292 1.000000
316.443207 -306.311310 1.157708 1.000000
320.232727 -316.384247 0.000029 0.337972
325.978851 -331.657898 0.000007 0.540825
328.445923 -338.215637 0.000005 0.542443
329.819977 -341.867950 0.000004 0.558190
330.697174 -344.199646 0.000003 0.533059
331.306854 -345.820251 0.000003 0.581033
331.756042 -347.014252 0.000002 0.545052
nan nan nan 0.000000
nan nan nan 0.000000
nan nan nan 0.000000
nan nan nan 0.000000
316.800140 -306.240692 7.914726 1.000000
316.800140 -306.240692 6.215722 1.000000
316.800140 -306.240692 4.525815 1.000000
316.800140 -306.240692 2.841337 1.000000
316.800140 -306.240692 1.158663 1.000000
320.498901 -316.284576 0.000001 0.338491
326.138428 -331.598511 0.000007 0.543999
328.559662 -338.173309 0.000005 0.523400
329.908173 -341.835114 0.000004 0.513893
330.769073 -344.172882 0.000003 0.502129
331.367462 -345.797699 0.000003 0.560311
331.808289 -346.994812 0.000002 0.542046
nan nan nan 0.000000
nan nan nan 0.000000
nan nan nan 0.000000
nan nan nan 0.000000
317.156250 -306.170227 7.908318 1.000000
317.156250 -306.170227 6.211156 1.000000
317.156250 -306.170227 4.523080 1.000000
317.156250 -306.170227 2.840425 1.000000
317.156250 -306.170227 1.159574 1.000000
320.765900 -316.187134 -0.000006 0.339178
326.298431 -331.540222 0.000007 0.538674
328.673706 -338.131744 0.000005 0.545434
329.996613 -341.802887 0.000004 0.540383
330.841187 -344.146606 0.000003 0.512078
331.428192 -345.775574 0.000002 0.538170
331.860657 -346.975708 0.000002 0.557153
nan nan nan 0.000000
nan nan nan 0.000000
nan nan nan 0.000000
nan nan nan 0.000000
317.511627 -306.099884 7.902215 1.000000
317.511627 -306.099884 6.206805 1.000000
317.511658 -306.099884 4.520474 1.000000
317.511658 -306.099915 2.839557 1.000000
317.511658 -306.099915 1.160443 1.000000
321.033600 -316.091675 -0.000008 0.337682
326.458832 -331.483063 0.000007 0.528099
328.788025 -338.091003 0.000005 0.529595
330.085297 -341.771301 0.000004 0.536675
330.913483 -344.120850 0.000003 0.557626
331.489075 -345.753876 0.000002 0.545464
331.913177 -346.957001 0.000002 0.535164
nan nan nan 0.000000
nan nan nan 0.000000
nan nan nan 0.000000
nan nan nan 0.000000
317.866302 -306.029724 7.896409 1.000000
317.866302 -306.029724 6.202667 1.000000
317.866302 -306.029724 4.517994 1.000000
317.866302 -306.029724 2.838733 1.000000
317.866302 -306.029724 1.161268 1.000000
321.302216 -315.998779 0.000026 0.338262
326.619629 -331.427002 0.000007 0.535927
328.902649 -338.051056 0.000005 0.539712
330.174164 -341.740295 0.000004 0.500618
330.985931 -344.095581 0.000003 0.536721
331.550140 -345.732605 0.000002 0.571588
331.965820 -346.938660 0.000002 0.530709
nan nan nan 0.000000
nan nan nan 0.000000
nan nan nan 0.000000
nan nan nan 0.000000
318.220306 -305.959656 7.890900 1.000000
318.220306 -305.959656 6.198740 1.000000
318.220306 -305.959656 4.515643 1.000000
318.220306 -305.959656 2.837948 1.000000
318.220306 -305.959656 1.162051 1.000000
321.571228 -315.907135 0.000027 0.338491
326.780823 -331.372070 0.000007 0.529946
329.017517 -338.011902 0.000005 0.539239
330.263275 -341.709961 0.000004 0.532921
331.058563 -344.070831 0.000003 0.567666
331.611328 -345.711731 0.000002 0.546593
332.018585 -346.920685 0.000002 0.528771
nan nan nan 0.000000
nan nan nan 0.000000
nan nan nan 0.000000
nan nan nan 0.000000
318.573639 -305.889740 7.885692 1.000000
318.573639 -305.889740 6.195028 1.000000
318.573639 -305.889740 4.513416 1.000000
318.573639 -305.889740 2.837206 1.000000
318.573639 -305.889740 1.162792 1.000000
321.840759 -315.816986 0.000008 0.338109
326.942383 -331.318298 0.000007 0.535515
329.132690 -337.973572 0.000005 0.527489
330.352570 -341.680206 0.000004 0.534539
331.131378 -344.046600 0.000003 0.517784
331.672668 -345.691315 0.000002 0.562921
332.071472 -346.903076 0.000002 0.547601
nan nan nan 0.000000
nan nan nan 0.000000
nan nan nan 0.000000
nan nan nan 0.000000
318.926392 -305.819946 7.880774 1.000000
318.926361 -305.819946 6.191525 1.000000
318.926361 -305.819946 4.511318 1.000000
318.926392 -305.819946 2.836509 1.000000
318.926392 -305.819946 1.163491 1.000000
322.110931 -315.728699 -0.000010 0.338216
327.104309 -331.265625 0.000007 0.534813
329.248108 -337.936035 0.000005 0.539818
330.442078 -341.651093 0.000004 0.540978
331.204346 -344.022858 0.000003 0.533257
331.734131 -345.671326 0.000002 0.568444
332.124481 -346.885834 0.000002 0.531533
nan nan nan 0.000000
nan nan nan 0.000000
nan nan nan 0.000000
nan nan nan 0.000000
319.278534 -305.750275 7.876153 1.000000
319.278534 -305.750275 6.188231 1.000000
319.278534 -305.750244 4.509344 1.000000
319.278534 -305.750275 2.835850 1.000000
319.278534 -305.750275 1.164149 1.000000
322.381714 -315.642395 -0.000026 0.338262
327.266602 -331.214081 0.000007 0.533196
329.363770 -337.899292 0.000005 0.526574
330.531799 -341.622620 0.000003 0.531350
331.277466 -343.999634 0.000003 0.543908
331.795746 -345.651764 0.000002 0.521904
332.177612 -346.868958 0.000002 0.487938
nan nan nan 0.000000
nan nan nan 0.000000
nan nan nan 0.000000
nan nan nan 0.000000
319.630157 -305.680695 7.871828 1.000000
319.630157 -305.680695 6.185146 1.000000
319.630157 -305.680695 4.507496 1.000000
319.630157 -305.680695 2.835235 1.000000
319.630157 -305.680695 1.164764 1.000000
322.653137 -315.558044 -0.000036 0.338964
327.429260 -331.163666 0.000007 0.545129
329.479706 -337.863373 0.000005 0.540566
330.621704 -341.594757 0.000004 0.530236
331.350769 -343.976929 0.000003 0.541268
331.857513 -345.632629 0.000002 0.529137
332.230835 -346.852448 0.000002 0.549294
nan nan nan 0.000000
nan nan nan 0.000000
nan nan nan 0.000000
nan nan nan 0.000000
319.981293 -305.611206 7.867792 1.000000
319.981293 -305.611206 6.182271 1.000000
319.981293 -305.611206 4.505773 1.000000
319.981293 -305.611206 2.834661 1.000000
319.981293 -305.611206 1.165339 1.000000
322.925232 -315.475830 -0.000036 0.337865
327.592285 -331.114410 0.000007 0.543236
329.595886 -337.828247 0.000005 0.551247
330.711823 -341.567505 0.000004 0.537179
331.424225 -343.954712 0.000003 0.538827
331.919403 -345.613922 0.000002 0.536706
332.284210 -346.836334 0.000002 0.554864
nan nan nan 0.000000
