# This PCD file was generated using the MATLABÂ® pcwrite function
# from Computer Vision ToolboxÂ®.
# .PCD v.7 - Point Cloud Data file format
VERSION .7
FIELDS x y z intensity
SIZE 4 4 4 4
TYPE F F F F
COUNT 1 1 1 1
WIDTH 1167
HEIGHT 1
VIEWPOINT 0 0 0 1 0 0 0
POINTS 1167
DATA ascii
190.146255 -381.061615 11.564646 1.000000
190.146255 -381.061615 8.817206 1.000000
190.146255 -381.061615 6.084475 1.000000
190.146255 -381.061615 3.360518 1.000000
190.146255 -381.061615 0.639480 1.000000
205.292313 -420.695709 -0.000046 0.540520
211.118179 -435.940796 0.000008 0.338247
213.619308 -442.485748 0.000020 0.338277
215.012192 -446.130646 -0.000012 0.336446
215.901520 -448.457825 -0.000000 0.337560
216.519608 -450.075256 -0.000004 0.337331
216.975006 -451.266907 -0.000003 0.334478
190.648575 -380.747803 22.854851 1.000000
190.648575 -380.747803 19.981836 1.000000
190.648575 -380.747803 17.149168 1.000000
190.648575 -380.747803 14.350042 1.000000
190.648575 -380.747803 11.577972 1.000000
190.648575 -380.747803 8.826702 1.000000
190.648575 -380.747803 6.090164 1.000000
190.648575 -380.747833 3.362414 1.000000
190.648575 -380.747833 0.637586 1.000000
205.558151 -420.595184 -0.000046 0.540108
211.277451 -435.880554 0.000007 0.337362
213.732834 -442.442810 0.000020 0.336614
215.100235 -446.097351 -0.000012 0.333028
215.973297 -448.430695 -0.000000 0.342489
216.580078 -450.052368 -0.000005 0.337774
217.027145 -451.247192 -0.000003 0.335744
191.152328 -380.433136 22.884960 1.000000
191.152328 -380.433136 20.007803 1.000000
191.152328 -380.433136 17.171040 1.000000
191.152328 -380.433136 14.367878 1.000000
191.152328 -380.433136 11.591803 1.000000
191.152328 -380.433136 8.836557 1.000000
191.152328 -380.433136 6.096071 1.000000
191.152328 -380.433136 3.364380 1.000000
191.152328 -380.433136 0.635618 1.000000
205.824707 -420.496490 -0.000046 0.539727
211.479095 -435.936005 0.010012 1.000000
213.846649 -442.400665 0.000021 0.337438
215.188507 -446.064667 -0.000012 0.336797
216.045258 -448.404053 -0.000000 0.341436
216.640701 -450.029938 -0.000004 0.336904
217.079422 -451.227844 -0.000002 0.329061
191.657562 -380.117554 22.916180 1.000000
191.657562 -380.117554 20.034721 1.000000
191.657562 -380.117554 17.193718 1.000000
191.657562 -380.117523 14.386363 1.000000
191.657562 -380.117523 11.606143 1.000000
191.657562 -380.117554 8.846780 1.000000
191.657562 -380.117523 6.102195 1.000000
191.657562 -380.117523 3.366422 1.000000
191.657562 -380.117523 0.633578 1.000000
206.091934 -420.399689 -0.000046 0.539422
211.597229 -435.763397 0.000005 0.337652
213.960770 -442.359314 0.000020 0.338384
215.277008 -446.032593 -0.000012 0.338003
216.117416 -448.377899 0.000000 0.338399
216.701492 -450.007904 -0.000004 0.334676
217.131821 -451.208862 -0.000002 0.338094
192.164322 -379.800964 22.948523 1.000000
192.164322 -379.800964 20.062609 1.000000
192.164322 -379.800964 17.217209 1.000000
192.164322 -379.800964 14.405514 1.000000
192.164337 -379.800964 11.620991 1.000000
192.164322 -379.800964 8.857365 1.000000
192.164322 -379.800964 6.108538 1.000000
192.164322 -379.800964 3.368534 1.000000
192.164322 -379.800964 0.631466 1.000000
206.359833 -420.304749 -0.000046 0.541466
211.757614 -435.706146 -0.000027 0.545663
214.075165 -442.318787 0.000021 0.336904
215.365738 -446.001160 -0.000011 0.336080
216.189743 -448.352264 0.000000 0.328145
216.762421 -449.986328 -0.000004 0.336233
217.184372 -451.190216 -0.000002 0.338186
192.672684 -379.483398 22.981983 1.000000
192.672684 -379.483398 20.091463 1.000000
192.672684 -379.483398 17.241516 1.000000
192.672684 -379.483398 14.425332 1.000000
192.672684 -379.483398 11.636363 1.000000
192.672684 -379.483398 8.868320 1.000000
192.672684 -379.483398 6.115100 1.000000
192.672684 -379.483398 3.370719 1.000000
192.672684 -379.483398 0.629279 1.000000
206.628372 -420.211670 -0.000046 0.544152
211.918503 -435.650391 -0.000027 0.543572
214.189835 -442.279053 0.000021 0.336492
215.454681 -445.970337 -0.000011 0.336629
216.262238 -448.327148 0.000000 0.333211
216.823502 -449.965149 -0.000004 0.338460
217.237030 -451.171967 -0.000002 0.339559
193.182709 -379.164795 23.016581 1.000000
193.182709 -379.164795 20.121288 1.000000
193.182709 -379.164825 17.266649 1.000000
193.182709 -379.164825 14.445818 1.000000
196.924896 -390.339813 10.296504 1.000000
196.924896 -390.339844 7.913335 1.000000
196.924881 -390.339813 5.542927 1.000000
196.924881 -390.339783 3.180133 1.000000
196.924881 -390.339783 0.819867 1.000000
206.897568 -420.120483 -0.000046 0.545724
212.079788 -435.595764 -0.000027 0.537987
214.304794 -442.240112 0.000021 0.337804
215.543823 -445.940155 -0.000011 0.342229
216.334915 -448.302521 0.000000 0.337453
216.884735 -449.944397 -0.000004 0.332174
217.289825 -451.154083 -0.000002 0.334752
193.694427 -378.845154 23.052319 1.000000
193.694427 -378.845154 20.152105 1.000000
193.694427 -378.845154 17.292604 1.000000
193.694427 -378.845154 14.466981 1.000000
198.003876 -392.018890 10.074120 1.000000
198.003891 -392.018921 7.754830 1.000000
198.003876 -392.018890 5.447961 1.000000
198.003876 -392.018860 3.148499 1.000000
198.003876 -392.018860 0.851501 1.000000
207.167404 -420.031189 -0.000046 0.532845
212.241455 -435.542236 -0.000028 0.536126
214.420013 -442.201965 0.000021 0.340917
215.633194 -445.910583 -0.000010 0.338888
216.407776 -448.278412 0.000000 0.332830
216.946106 -449.924103 -0.000004 0.337896
217.342743 -451.136566 -0.000002 0.342840
194.207916 -378.524384 23.089209 1.000000
194.207916 -378.524384 20.183914 1.000000
194.207916 -378.524384 17.319407 1.000000
194.207916 -378.524384 14.488831 1.000000
199.026611 -393.610413 9.863716 1.000000
199.026596 -393.610382 7.604868 1.000000
199.026596 -393.610382 5.358112 1.000000
199.026596 -393.610382 3.118572 1.000000
199.026596 -393.610382 0.881428 1.000000
207.437836 -419.943726 -0.000046 0.539010
212.403488 -435.489868 -0.000028 0.545541
214.535507 -442.164642 0.000021 0.335866
215.722763 -445.881622 -0.000010 0.338262
216.480789 -448.254822 0.000000 0.331807
217.007629 -449.904205 -0.000004 0.337285
217.395782 -451.119415 -0.000002 0.333318
194.723236 -378.202454 23.127260 1.000000
194.723236 -378.202484 20.216717 1.000000
194.723236 -378.202484 17.347048 1.000000
199.997406 -395.121094 11.882603 1.000000
199.997406 -395.121124 9.664368 1.000000
199.997406 -395.121094 7.462781 1.000000
199.997406 -395.121094 5.272982 1.000000
199.997406 -395.121094 3.090214 1.000000
199.997406 -395.121094 0.909785 1.000000
207.708878 -419.858215 -0.000046 0.544228
212.565872 -435.438629 -0.000028 0.541207
214.651245 -442.128113 0.000021 0.337041
215.812515 -445.853302 -0.000010 0.338521
216.553970 -448.231720 0.000000 0.334340
217.069275 -449.884766 -0.000003 0.337209
217.448944 -451.102661 -0.000002 0.335637
195.240433 -377.879395 23.166481 1.000000
195.240448 -377.879395 20.250538 1.000000
195.240448 -377.879395 17.375538 1.000000
200.920258 -396.557220 11.638723 1.000000
200.920258 -396.557220 9.475233 1.000000
200.920258 -396.557220 7.327972 1.000000
200.920258 -396.557190 5.192213 1.000000
200.920258 -396.557190 3.063311 1.000000
200.920258 -396.557190 0.936689 1.000000
207.980515 -419.774567 -0.000046 0.538384
212.728622 -435.388519 -0.000027 0.547967
214.767242 -442.092407 0.000021 0.338537
215.902481 -445.825592 -0.000009 0.331029
216.627304 -448.209137 -0.000000 0.338018
217.131058 -449.865723 -0.000003 0.332219
217.502213 -451.086243 -0.000002 0.336278
195.759598 -377.555084 23.206881 1.000000
195.759598 -377.555084 20.285376 1.000000
195.759598 -377.555084 17.404888 1.000000
201.798706 -397.924194 11.407038 1.000000
201.798691 -397.924194 9.295551 1.000000
201.798706 -397.924194 7.199906 1.000000
201.798706 -397.924194 5.115482 1.000000
201.798691 -397.924194 3.037754 1.000000
201.798691 -397.924194 0.962248 1.000000
208.252731 -419.692841 -0.000045 0.537377
212.891724 -435.339539 -0.000028 0.548882
214.883484 -442.057495 0.000021 0.336492
215.992630 -445.798523 -0.000009 0.337194
216.700790 -448.187073 0.000000 0.331518
217.192978 -449.847137 -0.000003 0.335439
217.555603 -451.070221 -0.000002 0.340139
196.280762 -377.229523 23.248480 1.000000
196.280762 -377.229523 20.321239 1.000000
196.280762 -377.229523 17.435102 1.000000
202.635941 -399.227081 11.186669 1.000000
202.635941 -399.227081 9.124645 1.000000
202.635941 -399.227081 7.078093 1.000000
202.635941 -399.227081 5.042499 1.000000
202.635941 -399.227081 3.013443 1.000000
202.635941 -399.227081 0.986557 1.000000
208.525513 -419.613007 -0.000045 0.540856
213.055145 -435.291687 -0.000028 0.534188
214.999969 -442.023407 0.000022 0.337072
216.082977 -445.772095 -0.000009 0.339574
216.774445 -448.165527 0.000000 0.328191
217.255020 -449.828979 -0.000003 0.324697
217.609100 -451.054565 -0.000002 0.333257
196.804001 -376.902679 23.291273 1.000000
196.804001 -376.902679 20.358139 1.000000
196.804001 -376.902679 17.466190 1.000000
203.434891 -400.470367 10.976818 1.000000
203.434891 -400.470367 8.961896 1.000000
203.434891 -400.470367 6.962092 1.000000
203.434891 -400.470367 4.972999 1.000000
203.434891 -400.470337 2.990293 1.000000
203.434891 -400.470337 1.009708 1.000000
208.798843 -419.535065 -0.000046 0.539773
213.218903 -435.244995 -0.000028 0.542550
215.116684 -441.990112 0.000022 0.336751
216.173492 -445.746277 -0.000008 0.336751
216.848236 -448.144470 0.000000 0.334874
217.317200 -449.811249 -0.000003 0.336187
217.662704 -451.039276 -0.000002 0.338094
197.329391 -376.574463 23.335287 1.000000
197.329391 -376.574463 20.396090 1.000000
197.329391 -376.574463 17.498163 1.000000
204.198212 -401.658234 10.776749 1.000000
204.198212 -401.658203 8.806734 1.000000
204.198212 -401.658203 6.851501 1.000000
204.198212 -401.658203 4.906739 1.000000
204.198212 -401.658203 2.968221 1.000000
204.198212 -401.658203 1.031779 1.000000
209.072708 -419.459045 -0.000046 0.540032
213.382996 -435.199463 -0.000028 0.543481
215.233627 -441.957672 0.000022 0.332097
216.264191 -445.721100 -0.000008 0.340246
216.922180 -448.123932 0.000000 0.333532
217.379486 -449.793945 -0.000003 0.343297
217.716415 -451.024353 -0.000002 0.343938
197.856964 -376.244934 23.380520 1.000000
197.856964 -376.244904 20.435099 1.000000
197.856964 -376.244904 17.531025 1.000000
204.928253 -402.794250 10.585825 1.000000
204.928253 -402.794250 8.658665 1.000000
204.928253 -402.794250 6.745965 1.000000
204.928253 -402.794250 4.843508 1.000000
204.928253 -402.794250 2.947160 1.000000
204.928253 -402.794250 1.052841 1.000000
209.347092 -419.384949 -0.000046 0.540566
213.547394 -435.155060 -0.000027 0.532601
215.373138 -442.009888 0.010006 1.000000
216.355072 -445.696564 -0.000008 0.333654
216.996262 -448.103943 0.000000 0.339101
217.441895 -449.777100 -0.000003 0.340398
217.770233 -451.009827 -0.000001 0.344137
198.386810 -375.913940 23.427006 1.000000
198.386810 -375.913940 20.475172 1.000000
198.386810 -375.913910 17.564787 1.000000
205.627258 -403.882019 10.403423 1.000000
205.627258 -403.882019 8.517206 1.000000
205.627258 -403.882019 6.645140 1.000000
205.627258 -403.882019 4.783100 1.000000
205.627258 -403.882019 2.927036 1.000000
205.627258 -403.882019 1.072963 1.000000
209.621994 -419.312744 -0.000046 0.538903
213.712097 -435.111816 -0.000028 0.543984
215.489899 -441.979034 0.009987 1.000000
216.446106 -445.672668 -0.000007 0.333608
217.070480 -448.084442 0.000000 0.340215
217.504425 -449.760681 -0.000002 0.340383
217.824142 -450.995667 -0.000001 0.331258
nan nan nan 0.000000
nan nan nan 0.000000
nan nan nan 0.000000
206.297226 -404.924591 10.229003 1.000000
206.297226 -404.924591 8.381933 1.000000
206.297226 -404.924591 6.548725 1.000000
206.297226 -404.924591 4.725333 1.000000
206.297226 -404.924561 2.907796 1.000000
206.297226 -404.924561 1.092205 1.000000
209.897400 -419.242462 -0.000046 0.539727
213.877090 -435.069702 -0.000027 0.546639
215.585800 -441.865173 0.000022 0.336599
216.537323 -445.649384 -0.000007 0.334493
217.144836 -448.065460 -0.000000 0.339055
217.567078 -449.744690 -0.000003 0.337087
217.878159 -450.981903 -0.000001 0.336568
nan nan nan 0.000000
nan nan nan 0.000000
206.939957 -405.924774 11.889324 1.000000
206.939957 -405.924774 10.062064 1.000000
206.939957 -405.924805 8.252466 1.000000
206.939957 -405.924774 6.456450 1.000000
206.939957 -405.924774 4.670044 1.000000
206.939957 -405.924774 2.889380 1.000000
206.939957 -405.924774 1.110621 1.000000
210.173279 -419.174133 -0.000045 0.540948
214.042389 -435.028748 -0.000027 0.548257
215.703522 -441.835632 -0.000019 0.535821
216.628693 -445.626770 -0.000006 0.343893
217.219315 -448.047028 0.000000 0.341817
217.629822 -449.729156 -0.000002 0.340017
217.932266 -450.968506 -0.000001 0.329015
nan nan nan 0.000000
nan nan nan 0.000000
207.557175 -406.885284 11.693147 1.000000
207.557175 -406.885284 9.902138 1.000000
207.557175 -406.885284 8.128438 1.000000
207.557175 -406.885284 6.368046 1.000000
207.557175 -406.885254 4.617079 1.000000
207.557175 -406.885254 2.871738 1.000000
207.557175 -406.885254 1.128263 1.000000
210.449646 -419.107727 -0.000045 0.541146
214.207962 -434.988953 -0.000027 0.567437
215.821533 -441.807281 -0.000019 0.539376
216.720215 -445.604767 -0.000006 0.334600
217.293930 -448.029083 -0.000000 0.335851
217.692673 -449.714050 -0.000002 0.338140
217.986465 -450.955475 -0.000002 0.341283
nan nan nan 0.000000
nan nan nan 0.000000
208.150391 -407.808411 11.505067 1.000000
208.150406 -407.808411 9.748806 1.000000
208.150391 -407.808411 8.009524 1.000000
208.150391 -407.808411 6.283290 1.000000
208.150391 -407.808411 4.566298 1.000000
208.150406 -407.808411 2.854822 1.000000
208.150406 -407.808411 1.145178 1.000000
210.726440 -419.043213 -0.000045 0.538567
214.373810 -434.950317 -0.000027 0.545373
215.939743 -441.779755 -0.000019 0.550240
216.811890 -445.583405 -0.000006 0.338399
217.368668 -448.011688 -0.000000 0.334813
217.755646 -449.699371 -0.000003 0.335866
218.040756 -450.942810 -0.000001 0.339513
nan nan nan 0.000000
nan nan nan 0.000000
208.721069 -408.696472 11.324585 1.000000
208.721069 -408.696472 9.601676 1.000000
208.721069 -408.696472 7.895417 1.000000
208.721069 -408.696472 6.201961 1.000000
208.721069 -408.696472 4.517570 1.000000
208.721069 -408.696472 2.838592 1.000000
208.721069 -408.696472 1.161409 1.000000
211.003708 -418.980682 -0.000046 0.540887
214.539917 -434.912842 -0.000027 0.531136
216.058136 -441.753052 -0.000019 0.530694
216.903702 -445.562683 -0.000006 0.337865
217.443527 -447.994781 0.000000 0.341329
217.818710 -449.685150 -0.000002 0.339544
218.095123 -450.930542 -0.000001 0.338293
nan nan nan 0.000000
nan nan nan 0.000000
209.270493 -409.551453 11.151272 1.000000
209.270493 -409.551453 9.460384 1.000000
209.270493 -409.551453 7.785839 1.000000
209.270493 -409.551453 6.123859 1.000000
209.270493 -409.551453 4.470778 1.000000
209.270493 -409.551453 2.823004 1.000000
209.270493 -409.551453 1.176996 1.000000
211.281387 -418.920074 -0.000045 0.542840
214.706284 -434.876526 -0.000027 0.529198
216.176712 -441.727142 -0.000019 0.525948
216.995667 -445.542603 -0.000006 0.334371
217.518494 -447.978424 -0.000000 0.338766
217.881866 -449.671356 -0.000002 0.341176
218.149582 -450.918671 -0.000001 0.345312
nan nan nan 0.000000
nan nan nan 0.000000
209.799896 -410.375275 10.984714 1.000000
209.799896 -410.375305 9.324600 1.000000
209.799896 -410.375275 7.680535 1.000000
209.799896 -410.375275 6.048802 1.000000
209.799896 -410.375275 4.425808 1.000000
209.799896 -410.375275 2.808026 1.000000
209.799896 -410.375275 1.191975 1.000000
211.559479 -418.861389 -0.000045 0.539406
214.872910 -434.841370 -0.000027 0.542458
216.295471 -441.702087 -0.000019 0.544137
217.087769 -445.523193 -0.000004 0.339513
217.593567 -447.962585 -0.000000 0.340414
217.945114 -449.658020 -0.000002 0.339193
218.204132 -450.907166 -0.000001 0.335760
nan nan nan 0.000000
nan nan nan 0.000000
210.310394 -411.169708 10.824532 1.000000
210.310394 -411.169708 9.194016 1.000000
210.310394 -411.169678 7.579259 1.000000
210.310394 -411.169678 5.976620 1.000000
210.310394 -411.169678 4.382559 1.000000
210.310394 -411.169678 2.793618 1.000000
210.310394 -411.169678 1.206381 1.000000
211.837982 -418.804657 -0.000045 0.544045
215.039764 -434.807373 -0.000027 0.533364
216.414398 -441.677856 -0.000019 0.539452
217.180008 -445.504395 -0.000004 0.335058
217.668762 -447.947266 -0.000000 0.344457
218.008469 -449.645111 -0.000002 0.336400
218.258743 -450.896027 -0.000001 0.334722
nan nan nan 0.000000
nan nan nan 0.000000
210.803040 -411.936340 10.670372 1.000000
210.803040 -411.936340 9.068342 1.000000
210.803040 -411.936340 7.481792 1.000000
210.803040 -411.936340 5.907151 1.000000
210.803040 -411.936340 4.340937 1.000000
210.803040 -411.936340 2.779755 1.000000
210.803040 -411.936340 1.220245 1.000000
212.116882 -418.749908 -0.000044 0.540749
215.206863 -434.774567 -0.000027 0.532509
216.533493 -441.654480 -0.000019 0.544945
217.272369 -445.486267 -0.000004 0.340536
217.744064 -447.932465 0.000000 0.336583
218.071899 -449.632660 -0.000002 0.338369
218.313446 -450.885284 -0.000001 0.342061
nan nan nan 0.000000
nan nan nan 0.000000
211.278778 -412.676666 10.521923 1.000000
211.278778 -412.676666 8.947320 1.000000
211.278778 -412.676666 7.387935 1.000000
211.278778 -412.676666 5.840253 1.000000
211.278778 -412.676666 4.300857 1.000000
211.278778 -412.676636 2.766404 1.000000
211.278778 -412.676636 1.233595 1.000000
212.396149 -418.697052 -0.000044 0.539986
215.374176 -434.742889 -0.000027 0.541360
216.652756 -441.631897 -0.000019 0.534920
217.364853 -445.468750 -0.000004 0.335119
217.819458 -447.918213 0.000000 0.344594
218.135422 -449.620636 -0.000002 0.336934
218.368210 -450.874908 -0.000000 0.344717
nan nan nan 0.000000
211.738541 -413.392120 11.945590 1.000000
211.738541 -413.392120 10.378863 1.000000
211.738541 -413.392090 8.830696 1.000000
211.738541 -413.392120 7.297489 1.000000
211.738541 -413.392090 5.775787 1.000000
211.738541 -413.392120 4.262233 1.000000
211.738541 -413.392120 2.753539 1.000000
211.738541 -413.392120 1.246461 1.000000
212.675781 -418.646179 -0.000044 0.539773
215.541718 -434.712402 -0.000027 0.530205
216.772156 -441.610168 -0.000018 0.547326
217.457458 -445.451904 -0.000003 0.341405
217.894958 -447.904480 0.000000 0.337316
218.199020 -449.609070 -0.000002 0.339757
218.423050 -450.864929 -0.000001 0.336858
nan nan nan 0.000000
212.183121 -414.083954 11.781865 1.000000
212.183121 -414.083954 10.240932 1.000000
212.183121 -414.083954 8.718246 1.000000
212.183121 -414.083954 7.210280 1.000000
212.183121 -414.083954 5.713630 1.000000
212.183121 -414.083954 4.224992 1.000000
212.183121 -414.083954 2.741133 1.000000
212.183121 -414.083954 1.258866 1.000000
212.955750 -418.597229 -0.000044 0.545846
215.709457 -434.683105 -0.000027 0.532265
216.891724 -441.589294 -0.000019 0.546044
217.561569 -445.502197 0.010002 1.000000
217.970551 -447.891266 0.000000 0.336355
218.262711 -449.597931 -0.000001 0.336599
218.477966 -450.855347 -0.000000 0.339071
nan nan nan 0.000000
212.613342 -414.753448 11.623899 1.000000
212.613342 -414.753448 10.107851 1.000000
212.613342 -414.753448 8.609755 1.000000
212.613342 -414.753448 7.126141 1.000000
212.613342 -414.753448 5.653658 1.000000
212.613342 -414.753448 4.189061 1.000000
212.613342 -414.753418 2.729167 1.000000
212.613342 -414.753418 1.270834 1.000000
213.236053 -418.550232 -0.000044 0.539284
215.877411 -434.654938 -0.000026 0.546242
217.011429 -441.569214 -0.000019 0.524819
217.653931 -445.486664 0.009996 1.000000
218.046234 -447.878571 0.000000 0.333242
218.326462 -449.587250 -0.000002 0.341451
218.532944 -450.846130 -0.000001 0.338704
nan nan nan 0.000000
213.029907 -415.401672 11.471409 1.000000
213.029907 -415.401672 9.979382 1.000000
213.029907 -415.401672 8.505026 1.000000
213.029907 -415.401672 7.044918 1.000000
213.029907 -415.401672 5.595767 1.000000
213.029907 -415.401672 4.154375 1.000000
213.029907 -415.401672 2.717612 1.000000
213.029907 -415.401672 1.282388 1.000000
213.516693 -418.505219 -0.000044 0.538247
216.045547 -434.627960 -0.000027 0.538918
217.131271 -441.549988 -0.000019 0.557015
217.735962 -445.405243 -0.000002 0.342199
218.121994 -447.866425 0.000000 0.335927
218.390305 -449.576996 -0.000002 0.338750
218.587982 -450.837311 -0.000001 0.341756
nan nan nan 0.000000
213.433487 -416.029724 11.324126 1.000000
213.433487 -416.029724 9.855299 1.000000
213.433487 -416.029694 8.403872 1.000000
213.433487 -416.029724 6.966468 1.000000
213.433487 -416.029694 5.539851 1.000000
213.433487 -416.029694 4.120874 1.000000
213.433487 -416.029694 2.706453 1.000000
213.433487 -416.029694 1.293547 1.000000
213.797638 -418.462158 -0.000044 0.542733
216.213867 -434.602173 -0.000027 0.536690
217.251236 -441.531616 -0.000019 0.531289
217.829010 -445.390991 -0.000002 0.336583
218.197845 -447.854797 0.000001 0.336004
218.454208 -449.567200 -0.000002 0.341344
218.643082 -450.828857 -0.000000 0.344884
nan nan nan 0.000000
213.824738 -416.638550 11.181791 1.000000
213.824738 -416.638550 9.735386 1.000000
213.824738 -416.638550 8.306114 1.000000
213.824738 -416.638550 6.890654 1.000000
213.824738 -416.638550 5.485815 1.000000
213.824738 -416.638550 4.088499 1.000000
213.824738 -416.638550 2.695668 1.000000
213.824738 -416.638550 1.304331 1.000000
214.078873 -418.421051 -0.000044 0.540398
216.382370 -434.577545 -0.000026 0.546761
217.371338 -441.514038 -0.000019 0.559091
217.922134 -445.377289 -0.000014 0.535027
218.273773 -447.843689 0.000000 0.339895
218.518173 -449.557861 -0.000002 0.335561
218.698227 -450.820801 -0.000000 0.330922
nan nan nan 0.000000
214.204224 -417.229095 11.044175 1.000000
214.204224 -417.229095 9.619448 1.000000
214.204224 -417.229095 8.211597 1.000000
214.204224 -417.229095 6.817353 1.000000
214.204224 -417.229095 5.433569 1.000000
214.204224 -417.229095 4.057196 1.000000
214.204224 -417.229095 2.685243 1.000000
214.204224 -417.229095 1.314757 1.000000
214.360382 -418.381927 -0.000044 0.542458
216.551041 -434.554108 -0.000026 0.540520
217.491547 -441.497345 -0.000019 0.544213
218.015366 -445.364319 -0.000014 0.536034
218.349777 -447.833130 0.000000 0.336828
218.582199 -449.548950 -0.000001 0.336767
218.753448 -450.813110 0.000000 0.335576
nan nan nan 0.000000
214.572525 -417.802216 10.911050 1.000000
214.572525 -417.802216 9.507296 1.000000
214.572525 -417.802216 8.120169 1.000000
214.572525 -417.802216 6.746445 1.000000
214.572525 -417.802216 5.383029 1.000000
214.572525 -417.802216 4.026915 1.000000
214.572525 -417.802216 2.675156 1.000000
214.572525 -417.802216 1.324844 1.000000
214.642166 -418.344757 -0.000044 0.540581
216.719864 -434.531860 -0.000026 0.548333
217.611877 -441.481476 -0.000018 0.551797
218.108688 -445.352020 -0.000015 0.543038
218.425858 -447.823090 0.000000 0.340017
218.646301 -449.540497 -0.000001 0.336278
218.808701 -450.805847 -0.000000 0.336934
nan nan nan 0.000000
214.930161 -418.358765 10.782207 1.000000
214.930161 -418.358765 9.398748 1.000000
214.930161 -418.358765 8.031675 1.000000
214.930161 -418.358765 6.677817 1.000000
214.930161 -418.358765 5.334115 1.000000
214.930161 -418.358765 3.997608 1.000000
214.930161 -418.358765 2.665393 1.000000
214.930161 -418.358765 1.334606 1.000000
214.930161 -418.358765 0.002391 1.000000
216.888840 -434.510742 -0.000026 0.547509
217.732315 -441.466431 -0.000018 0.519448
218.202087 -445.340363 -0.000014 0.538796
218.501999 -447.813599 0.000001 0.336172
218.710449 -449.532501 -0.000001 0.327947
218.864014 -450.798920 0.000000 0.338262
nan nan nan 0.000000
215.277634 -418.899475 10.657452 1.000000
215.277634 -418.899475 9.293646 1.000000
215.277634 -418.899475 7.945994 1.000000
215.277618 -418.899475 6.611367 1.000000
215.277618 -418.899475 5.286754 1.000000
215.277634 -418.899475 3.969231 1.000000
215.277634 -418.899475 2.655941 1.000000
215.277634 -418.899445 1.344058 1.000000
215.277634 -418.899475 0.030768 1.000000
217.057953 -434.490845 -0.000026 0.534997
217.852859 -441.452240 -0.000018 0.539635
218.295578 -445.329376 -0.000014 0.531090
218.578217 -447.804626 0.000001 0.338003
218.774658 -449.524933 -0.000001 0.333654
218.919373 -450.792419 0.000000 0.339284
215.615372 -419.425049 11.900523 1.000000
215.615372 -419.425049 10.536605 1.000000
215.615372 -419.425049 9.191835 1.000000
215.615372 -419.425049 7.862995 1.000000
215.615372 -419.425049 6.546998 1.000000
215.615372 -419.425049 5.240873 1.000000
215.615372 -419.425049 3.941744 1.000000
215.615372 -419.425049 2.646785 1.000000
215.615372 -419.425049 1.353215 1.000000
215.615372 -419.425018 0.058256 1.000000
217.227203 -434.472107 -0.000026 0.539467
217.973495 -441.438904 -0.000019 0.549584
218.389130 -445.319000 -0.000014 0.529915
218.654480 -447.796173 0.000001 0.338048
218.838913 -449.517822 -0.000001 0.334142
218.974777 -450.786285 0.000000 0.326802
215.943832 -419.936188 11.764694 1.000000
215.943832 -419.936188 10.419488 1.000000
215.943832 -419.936188 9.093168 1.000000
215.943832 -419.936188 7.782558 1.000000
215.943832 -419.936188 6.484614 1.000000
215.943832 -419.936157 5.196410 1.000000
215.943832 -419.936157 3.915104 1.000000
215.943832 -419.936157 2.637913 1.000000
215.943832 -419.936157 1.362088 1.000000
215.943832 -419.936157 0.084895 1.000000
217.396591 -434.454559 -0.000026 0.547219
218.094223 -441.426392 -0.000018 0.539178
218.482758 -445.309326 -0.000013 0.518181
218.730804 -447.788269 0.000001 0.339223
218.903214 -449.511169 -0.000001 0.336263
219.030228 -450.780548 0.000000 0.342748
216.263412 -420.433502 11.633004 1.000000
216.263412 -420.433502 10.305942 1.000000
216.263412 -420.433502 8.997509 1.000000
216.263412 -420.433502 7.704574 1.000000
216.263412 -420.433472 6.424135 1.000000
216.263412 -420.433502 5.153304 1.000000
216.263412 -420.433472 3.889277 1.000000
216.263412 -420.433502 2.629309 1.000000
216.263412 -420.433502 1.370691 1.000000
216.263412 -420.433472 0.110723 1.000000
217.566086 -434.438202 -0.000026 0.550118
218.215027 -441.414734 -0.000018 0.543923
218.576447 -445.300262 -0.000014 0.527535
218.807190 -447.780914 0.000001 0.336217
218.967560 -449.504974 -0.000001 0.323064
219.085709 -450.775177 0.000000 0.330602
216.574509 -420.917603 11.505275 1.000000
216.574509 -420.917603 10.195807 1.000000
216.574509 -420.917603 8.904724 1.000000
216.574509 -420.917603 7.628936 1.000000
216.574509 -420.917603 6.365474 1.000000
216.574509 -420.917603 5.111491 1.000000
216.574509 -420.917603 3.864226 1.000000
216.574509 -420.917603 2.620964 1.000000
216.574509 -420.917603 1.379035 1.000000
216.574509 -420.917603 0.135774 1.000000
217.735703 -434.423035 -0.000026 0.550546
218.335922 -441.403900 -0.000018 0.548898
218.670212 -445.291870 -0.000014 0.548241
218.883621 -447.774048 0.000001 0.337621
219.031952 -449.499207 -0.000001 0.330541
219.141235 -450.770203 0.000000 0.340291
216.877472 -421.389069 11.381346 1.000000
216.877472 -421.389069 10.088951 1.000000
216.877472 -421.389069 8.814702 1.000000
216.877472 -421.389069 7.555545 1.000000
216.877472 -421.389038 6.308557 1.000000
216.877472 -421.389069 5.070925 1.000000
216.877472 -421.389038 3.839920 1.000000
216.877472 -421.389038 2.612869 1.000000
216.877472 -421.389038 1.387131 1.000000
216.877472 -421.389038 0.160079 1.000000
217.905411 -434.409027 -0.000026 0.536263
218.456879 -441.393951 -0.000018 0.541558
218.764008 -445.284149 -0.000014 0.518395
218.960098 -447.767761 0.000001 0.344396
219.096375 -449.493896 -0.000000 0.339223
219.196777 -450.765625 0.000000 0.341115
217.172653 -421.848419 11.261048 1.000000
217.172653 -421.848419 9.985226 1.000000
217.172653 -421.848419 8.727318 1.000000
217.172653 -421.848419 7.484303 1.000000
217.172653 -421.848389 6.253307 1.000000
217.172653 -421.848419 5.031546 1.000000
217.172653 -421.848389 3.816327 1.000000
217.172653 -421.848389 2.605011 1.000000
217.172653 -421.848389 1.394990 1.000000
217.172653 -421.848389 0.183673 1.000000
218.075211 -434.396240 -0.000025 0.523125
218.577911 -441.384827 -0.000018 0.537240
218.857880 -445.277069 -0.000013 0.531182
219.040558 -447.816772 0.009995 1.000000
219.160843 -449.489014 -0.000000 0.339437
219.252365 -450.761444 0.000001 0.336370
217.460373 -422.296143 11.144238 1.000000
217.460373 -422.296143 9.884508 1.000000
217.460373 -422.296143 8.642466 1.000000
217.460373 -422.296143 7.415132 1.000000
217.460373 -422.296143 6.199661 1.000000
217.460373 -422.296143 4.993309 1.000000
217.460373 -422.296143 3.793417 1.000000
217.460373 -422.296143 2.597379 1.000000
217.460373 -422.296143 1.402621 1.000000
217.460373 -422.296143 0.206582 1.000000
218.245102 -434.384613 -0.000026 0.532097
218.698990 -441.376526 -0.000018 0.546349
218.951782 -445.270630 -0.000014 0.533379
219.116730 -447.811584 0.010001 1.000000
219.225342 -449.484619 -0.000000 0.331090
219.307983 -450.757629 0.000001 0.339437
217.740936 -422.732758 11.030769 1.000000
217.740936 -422.732758 9.786671 1.000000
217.740936 -422.732758 8.560039 1.000000
217.740936 -422.732758 7.347936 1.000000
217.740936 -422.732758 6.147547 1.000000
217.740936 -422.732758 4.956164 1.000000
217.740936 -422.732758 3.771163 1.000000
217.740936 -422.732758 2.589966 1.000000
217.740936 -422.732758 1.410034 1.000000
217.740936 -422.732758 0.228836 1.000000
218.415070 -434.374176 -0.000025 0.540673
218.820145 -441.369080 -0.000018 0.540124
219.045731 -445.264862 -0.000013 0.524956
219.192947 -447.806915 0.010005 1.000000
219.289871 -449.480652 -0.000000 0.337011
219.363617 -450.754211 0.000001 0.332494
218.014648 -423.158691 10.920512 1.000000
218.014648 -423.158691 9.691604 1.000000
218.014648 -423.158691 8.479948 1.000000
218.014648 -423.158691 7.282643 1.000000
218.014648 -423.158691 6.096910 1.000000
218.014648 -423.158661 4.920074 1.000000
218.014648 -423.158691 3.749539 1.000000
218.014648 -423.158691 2.582762 1.000000
218.014648 -423.158691 1.417237 1.000000
218.014648 -423.158691 0.250461 1.000000
218.585114 -434.364929 -0.000025 0.528298
218.941330 -441.362488 -0.000018 0.538262
219.139725 -445.259766 -0.000013 0.514519
219.266388 -447.747864 0.000001 0.342947
219.354416 -449.477142 -0.000000 0.333059
219.419281 -450.751190 0.000000 0.337881
218.281754 -423.574341 10.813342 1.000000
218.281754 -423.574341 9.599197 1.000000
218.281754 -423.574341 8.402098 1.000000
218.281754 -423.574341 7.219177 1.000000
218.281754 -423.574341 6.047689 1.000000
218.281754 -423.574341 4.884992 1.000000
218.281754 -423.574341 3.728520 1.000000
218.281754 -423.574341 2.575762 1.000000
218.281754 -423.574341 1.424238 1.000000
218.281754 -423.574341 0.271480 1.000000
218.755203 -434.356873 -0.000025 0.556588
219.062561 -441.356750 -0.000018 0.544350
219.233749 -445.255310 -0.000013 0.506584
219.343033 -447.744232 0.000001 0.336172
219.418991 -449.474091 -0.000000 0.336431
219.474960 -450.748535 0.000000 0.336629
218.542542 -423.980164 10.709134 1.000000
218.542542 -423.980164 9.509344 1.000000
218.542542 -423.980164 8.326399 1.000000
218.542542 -423.980164 7.157468 1.000000
218.542542 -423.980164 5.999830 1.000000
218.542542 -423.980164 4.850880 1.000000
218.542542 -423.980164 3.708083 1.000000
218.542542 -423.980164 2.568954 1.000000
218.542542 -423.980164 1.431046 1.000000
218.542542 -423.980164 0.291917 1.000000
218.925354 -434.349976 -0.000025 0.547387
219.183838 -441.351837 -0.000017 0.538705
219.327805 -445.251495 -0.000014 0.535821
219.419708 -447.741089 -0.000010 0.533272
219.483597 -449.471466 -0.000000 0.333562
219.530655 -450.746307 0.000001 0.342672
218.797241 -424.376526 10.607776 1.000000
218.797241 -424.376526 9.421950 1.000000
218.797241 -424.376526 8.252773 1.000000
218.797226 -424.376526 7.097444 1.000000
218.797241 -424.376526 5.953280 1.000000
218.797241 -424.376495 4.817701 1.000000
218.797241 -424.376526 3.688203 1.000000
218.797241 -424.376526 2.562332 1.000000
218.797241 -424.376526 1.437667 1.000000
218.797241 -424.376495 0.311796 1.000000
219.095551 -434.344299 -0.000025 0.543587
219.305145 -441.347809 -0.000017 0.545342
219.421875 -445.248352 -0.000013 0.529015
219.496399 -447.738525 -0.000010 0.558587
219.548203 -449.469299 -0.000000 0.333867
219.586365 -450.744446 0.000001 0.332830
219.046097 -424.763763 10.509159 1.000000
219.046097 -424.763763 9.336920 1.000000
219.046097 -424.763763 8.181137 1.000000
219.046097 -424.763763 7.039045 1.000000
219.046097 -424.763763 5.907990 1.000000
219.046097 -424.763763 4.785421 1.000000
219.046097 -424.763763 3.668862 1.000000
219.046097 -424.763763 2.555890 1.000000
219.046097 -424.763763 1.444110 1.000000
219.046097 -424.763763 0.331137 1.000000
219.265778 -434.339783 -0.000024 0.536950
219.426468 -441.344574 -0.000017 0.545159
219.515976 -445.245850 -0.000013 0.511131
219.573120 -447.736481 -0.000010 0.536751
219.612823 -449.467590 0.000000 0.345327
219.642090 -450.742981 0.000001 0.339956
219.289322 -425.142273 10.413186 1.000000
219.289322 -425.142273 9.254165 1.000000
219.289322 -425.142273 8.111420 1.000000
219.289322 -425.142273 6.982209 1.000000
219.289322 -425.142273 5.863911 1.000000
219.289322 -425.142273 4.754004 1.000000
219.289322 -425.142273 3.650039 1.000000
219.289322 -425.142273 2.549621 1.000000
219.289322 -425.142242 1.450380 1.000000
219.289322 -425.142273 0.349961 1.000000
219.436035 -434.336487 -0.000024 0.538659
219.547821 -441.342224 -0.000018 0.542626
219.610092 -445.244049 -0.000013 0.553750
219.649841 -447.734985 -0.000010 0.544488
219.677460 -449.466339 0.000000 0.337713
219.697815 -450.741882 0.000001 0.334096
219.527130 -425.512329 10.319751 1.000000
219.527130 -425.512329 9.173602 1.000000
219.527130 -425.512329 8.043547 1.000000
219.527130 -425.512329 6.926877 1.000000
219.527130 -425.512329 5.820997 1.000000
219.527130 -425.512329 4.723417 1.000000
219.527130 -425.512329 3.631714 1.000000
219.527130 -425.512329 2.543517 1.000000
219.527130 -425.512329 1.456483 1.000000
219.527130 -425.512329 0.368286 1.000000
219.606308 -434.334351 -0.000024 0.539788
219.669189 -441.340729 -0.000017 0.534798
219.704208 -445.242859 -0.000013 0.534951
219.726563 -447.734039 -0.000010 0.575357
219.742111 -449.465546 0.000000 0.343954
219.753555 -450.741180 0.000001 0.347539
219.759720 -425.874298 10.228765 1.000000
219.759735 -425.874298 9.095150 1.000000
219.759735 -425.874298 7.977455 1.000000
219.759720 -425.874298 6.872997 1.000000
219.759720 -425.874298 5.779213 1.000000
219.759735 -425.874298 4.693634 1.000000
219.759720 -425.874298 3.613870 1.000000
219.759735 -425.874298 2.537573 1.000000
219.759735 -425.874298 1.462427 1.000000
219.759720 -425.874298 0.386130 1.000000
219.776596 -434.333435 -0.000025 0.540337
219.790558 -441.340057 -0.000017 0.538323
219.798340 -445.242340 -0.000013 0.541482
219.803299 -447.733612 -0.000010 0.539818
219.806747 -449.465179 0.000000 0.334096
219.809296 -450.740875 0.000001 0.339498
219.987305 -426.228455 10.140142 1.000000
219.987305 -426.228455 9.018736 1.000000
219.987305 -426.228455 7.913078 1.000000
219.987305 -426.228455 6.820515 1.000000
219.987305 -426.228455 5.738511 1.000000
219.987305 -426.228455 4.664623 1.000000
219.987305 -426.228455 3.596488 1.000000
219.987305 -426.228455 2.531783 1.000000
219.987305 -426.228455 1.468218 1.000000
219.987305 -426.228455 0.403511 1.000000
219.946884 -434.333679 -0.000024 0.541314
219.911926 -441.340240 -0.000017 0.528054
219.892471 -445.242493 -0.000013 0.536400
219.880035 -447.733734 -0.000010 0.572351
219.871399 -449.465271 0.000001 0.337240
219.865036 -450.740967 0.000001 0.344976
220.210037 -426.575073 10.053794 1.000000
220.210052 -426.575073 8.944285 1.000000
220.210052 -426.575073 7.850355 1.000000
220.210052 -426.575073 6.769381 1.000000
220.210052 -426.575073 5.698853 1.000000
220.210052 -426.575043 4.636359 1.000000
220.210052 -426.575043 3.579554 1.000000
220.210052 -426.575073 2.526142 1.000000
220.210052 -426.575073 1.473858 1.000000
220.210052 -426.575043 0.420446 1.000000
220.117157 -434.335144 -0.000025 0.545708
220.033295 -441.341278 -0.000016 0.547799
219.986588 -445.243286 -0.000013 0.549615
219.956772 -447.734375 -0.000010 0.534798
219.936050 -449.465820 0.000000 0.329778
219.920776 -450.741455 0.000001 0.341985
220.428116 -426.914429 9.969643 1.000000
220.428116 -426.914429 8.871727 1.000000
220.428116 -426.914429 7.789227 1.000000
220.428116 -426.914429 6.719547 1.000000
220.428116 -426.914429 5.660205 1.000000
220.428116 -426.914429 4.608812 1.000000
220.428116 -426.914429 3.563049 1.000000
220.428116 -426.914398 2.520644 1.000000
220.428116 -426.914398 1.479356 1.000000
220.428116 -426.914429 0.436951 1.000000
220.287430 -434.337769 -0.000023 0.539498
220.154648 -441.343140 -0.000016 0.539025
220.080704 -445.244751 -0.000013 0.536934
220.033493 -447.735565 -0.000010 0.525521
220.000687 -449.466827 0.000000 0.333349
219.976517 -450.742310 0.000001 0.338430
220.641693 -427.246765 9.887615 1.000000
220.641693 -427.246765 8.800999 1.000000
220.641693 -427.246765 7.729642 1.000000
220.641693 -427.246765 6.670971 1.000000
220.641693 -427.246765 5.622533 1.000000
220.641693 -427.246765 4.581961 1.000000
220.641693 -427.246765 3.546961 1.000000
220.641693 -427.246765 2.515286 1.000000
220.641693 -427.246765 1.484714 1.000000
220.641693 -427.246765 0.453038 1.000000
220.457672 -434.341583 -0.000024 0.529610
220.276001 -441.345856 -0.000016 0.541787
220.174805 -445.246857 -0.000012 0.538064
220.110214 -447.737305 -0.000010 0.536538
220.065323 -449.468292 0.000001 0.328984
220.032242 -450.743561 0.000002 0.343801
220.850922 -427.572388 9.807632 1.000000
220.850922 -427.572388 8.732035 1.000000
220.850922 -427.572357 7.671541 1.000000
220.850937 -427.572388 6.623606 1.000000
220.850922 -427.572357 5.585799 1.000000
220.850937 -427.572388 4.555779 1.000000
220.850922 -427.572357 3.531275 1.000000
220.850922 -427.572357 2.510061 1.000000
220.850922 -427.572357 1.489939 1.000000
220.850922 -427.572357 0.468725 1.000000
220.627884 -434.346619 -0.000024 0.530419
220.397308 -441.349426 -0.000016 0.537118
220.268906 -445.249634 -0.000012 0.547662
220.186920 -447.739563 -0.000010 0.516472
220.128418 -449.516449 0.010000 1.000000
220.087952 -450.745178 0.000001 0.329976
221.055969 -427.891449 9.729631 1.000000
221.055969 -427.891449 8.664780 1.000000
221.055969 -427.891449 7.614880 1.000000
221.055969 -427.891449 6.577415 1.000000
221.055969 -427.891449 5.549975 1.000000
221.055969 -427.891449 4.530245 1.000000
221.055969 -427.891449 3.515977 1.000000
221.055969 -427.891449 2.504964 1.000000
221.055969 -427.891449 1.495035 1.000000
221.055969 -427.891449 0.484023 1.000000
220.798065 -434.352814 -0.000023 0.534447
220.518600 -441.353851 -0.000017 0.543664
220.362961 -445.253052 -0.000012 0.573541
220.263611 -447.742340 -0.000010 0.517418
220.192703 -449.518799 0.009999 1.000000
220.143661 -450.747223 0.000002 0.332052
221.256958 -428.204224 9.653541 1.000000
221.256958 -428.204224 8.599172 1.000000
221.256958 -428.204224 7.559607 1.000000
221.256958 -428.204224 6.532354 1.000000
221.256958 -428.204224 5.515029 1.000000
221.256958 -428.204224 4.505339 1.000000
221.256958 -428.204224 3.501053 1.000000
221.256958 -428.204224 2.499994 1.000000
221.256958 -428.204224 1.500006 1.000000
221.256958 -428.204224 0.498946 1.000000
220.968185 -434.360199 -0.000023 0.544747
220.639862 -441.359131 -0.000017 0.542611
220.457001 -445.257141 -0.000012 0.558328
220.340271 -447.745667 -0.000010 0.561334
220.256958 -449.521606 0.010004 1.000000
220.199356 -450.749634 0.000001 0.332341
221.454056 -428.510925 9.579298 1.000000
221.454056 -428.510925 8.535157 1.000000
221.454056 -428.510925 7.505679 1.000000
221.454056 -428.510925 6.488389 1.000000
221.454056 -428.510925 5.480933 1.000000
221.454056 -428.510925 4.481036 1.000000
221.454056 -428.510925 3.486493 1.000000
221.454056 -428.510925 2.495143 1.000000
221.454056 -428.510925 1.504856 1.000000
221.454056 -428.510925 0.513507 1.000000
221.138260 -434.368774 -0.000023 0.546563
220.761078 -441.365234 -0.000016 0.527718
220.551010 -445.261871 -0.000012 0.528237
220.416901 -447.749542 -0.000009 0.528984
220.323700 -449.478607 0.000001 0.342687
220.255020 -450.752441 0.000002 0.351293
221.647354 -428.811737 9.506845 1.000000
221.647354 -428.811737 8.472689 1.000000
221.647354 -428.811737 7.453047 1.000000
221.647354 -428.811737 6.445483 1.000000
221.647354 -428.811737 5.447658 1.000000
221.647354 -428.811737 4.457319 1.000000
221.647354 -428.811737 3.472283 1.000000
221.647354 -428.811737 2.490411 1.000000
221.647354 -428.811737 1.509589 1.000000
221.647354 -428.811737 0.527716 1.000000
221.308258 -434.378510 -0.000023 0.535012
220.882263 -441.372192 -0.000016 0.542626
220.644989 -445.267273 -0.000012 0.551019
220.493515 -447.753937 -0.000009 0.544701
220.388229 -449.482300 0.000001 0.335592
220.310669 -450.755646 0.000002 0.335546
221.837021 -429.106873 9.436127 1.000000
221.837021 -429.106873 8.411709 1.000000
221.837021 -429.106873 7.401674 1.000000
221.837021 -429.106873 6.403604 1.000000
221.837021 -429.106873 5.415177 1.000000
221.837021 -429.106873 4.434169 1.000000
221.837021 -429.106873 3.458413 1.000000
221.837021 -429.106873 2.485791 1.000000
221.837021 -429.106873 1.514209 1.000000
221.837021 -429.106873 0.541586 1.000000
221.478195 -434.389465 -0.000023 0.547021
221.003372 -441.380005 -0.000016 0.556054
220.738922 -445.273315 -0.000012 0.547997
220.570099 -447.758881 -0.000009 0.537514
220.452759 -449.486450 0.000001 0.336431
220.366302 -450.759216 0.000002 0.346685
222.023148 -429.396515 9.367081 1.000000
222.023148 -429.396515 8.352177 1.000000
222.023148 -429.396515 7.351520 1.000000
222.023148 -429.396515 6.362715 1.000000
222.023132 -429.396515 5.383467 1.000000
222.023148 -429.396515 4.411568 1.000000
222.023148 -429.396515 3.444871 1.000000
222.023148 -429.396515 2.481279 1.000000
222.023148 -429.396515 1.518720 1.000000
222.023148 -429.396515 0.555128 1.000000
221.648056 -434.401611 -0.000023 0.541894
221.124435 -441.388641 -0.000016 0.510246
220.832809 -445.280029 -0.000012 0.516106
220.646637 -447.764343 -0.000009 0.556237
220.517242 -449.491028 -0.000007 0.560021
220.421906 -450.763184 0.000001 0.334447
222.205856 -429.680847 9.299659 1.000000
222.205856 -429.680847 8.294043 1.000000
222.205856 -429.680847 7.302544 1.000000
222.205856 -429.680847 6.322790 1.000000
222.205856 -429.680847 5.352503 1.000000
222.205856 -429.680847 4.389498 1.000000
222.205856 -429.680847 3.431648 1.000000
222.205856 -429.680847 2.476876 1.000000
222.205856 -429.680847 1.523125 1.000000
222.205856 -429.680847 0.568351 1.000000
221.817825 -434.414917 -0.000023 0.546365
221.245438 -441.398132 -0.000015 0.538369
220.926651 -445.287384 -0.000012 0.542504
220.723145 -447.770355 -0.000009 0.561746
220.581680 -449.496094 -0.000007 0.557488
220.477478 -450.767548 0.000002 0.345754
222.385254 -429.960022 9.233810 1.000000
222.385254 -429.960022 8.237265 1.000000
222.385254 -429.960022 7.254711 1.000000
222.385254 -429.960022 6.283793 1.000000
222.385254 -429.960022 5.322261 1.000000
222.385254 -429.960022 4.367942 1.000000
222.385254 -429.960022 3.418734 1.000000
222.385254 -429.960022 2.472574 1.000000
222.385254 -429.960022 1.527426 1.000000
222.385254 -429.960022 0.581266 1.000000
221.987488 -434.429443 -0.000023 0.539834
221.366364 -441.408478 -0.000015 0.519265
221.020447 -445.295410 -0.000011 0.531228
220.799591 -447.776886 -0.000009 0.554070
220.646103 -449.501587 -0.000007 0.581231
220.533005 -450.772308 0.000002 0.337011
222.561462 -430.234222 9.169483 1.000000
222.561462 -430.234222 8.181799 1.000000
222.561462 -430.234222 7.207984 1.000000
222.561462 -430.234222 6.245700 1.000000
222.561462 -430.234222 5.292718 1.000000
222.561462 -430.234222 4.346885 1.000000
222.561462 -430.234222 3.406118 1.000000
222.561462 -430.234222 2.468371 1.000000
222.561462 -430.234222 1.531629 1.000000
222.561462 -430.234222 0.593882 1.000000
222.157043 -434.445129 -0.000023 0.538567
221.487228 -441.419647 -0.000016 0.551064
221.114166 -445.304077 -0.000011 0.557900
220.876007 -447.783936 -0.000009 0.511711
220.710480 -449.507538 -0.000007 0.536004
220.588516 -450.777435 0.000002 0.342641
222.734573 -430.503601 9.106634 1.000000
222.734573 -430.503601 8.127607 1.000000
222.734573 -430.503601 7.162327 1.000000
222.734573 -430.503601 6.208480 1.000000
222.734573 -430.503601 5.263852 1.000000
222.734573 -430.503601 4.326311 1.000000
222.734573 -430.503601 3.393791 1.000000
222.734573 -430.503601 2.464265 1.000000
222.734573 -430.503601 1.535735 1.000000
222.734573 -430.503601 0.606208 1.000000
222.326508 -434.461975 -0.000022 0.540398
221.608002 -441.431671 -0.000016 0.546609
221.207840 -445.313416 -0.000011 0.520424
220.952362 -447.791565 -0.000009 0.559258
220.774811 -449.513947 -0.000007 0.514611
220.643982 -450.782959 0.000002 0.332494
222.904678 -430.768311 9.045216 1.000000
222.904678 -430.768311 8.074652 1.000000
222.904678 -430.768311 7.117714 1.000000
222.904678 -430.768311 6.172111 1.000000
222.904678 -430.768311 5.235645 1.000000
222.904678 -430.768311 4.306208 1.000000
222.904678 -430.768311 3.381746 1.000000
222.904678 -430.768311 2.460253 1.000000
222.904678 -430.768311 1.539747 1.000000
222.904678 -430.768311 0.618254 1.000000
222.495834 -434.480042 -0.000022 0.528496
221.728683 -441.444550 -0.000016 0.537163
221.301437 -445.323395 -0.000011 0.536110
221.028671 -447.799683 -0.000009 0.546441
220.839096 -449.520813 -0.000007 0.587198
220.699417 -450.788879 0.000002 0.328756
223.071869 -431.028503 8.985189 1.000000
223.071869 -431.028503 8.022898 1.000000
223.071869 -431.028503 7.074111 1.000000
223.071869 -431.028503 6.136565 1.000000
223.071869 -431.028503 5.208077 1.000000
223.071869 -431.028503 4.286558 1.000000
223.071869 -431.028503 3.369973 1.000000
223.071869 -431.028503 2.456331 1.000000
223.071869 -431.028503 1.543668 1.000000
223.071869 -431.028503 0.630026 1.000000
222.665024 -434.499298 -0.000022 0.550469
221.849289 -441.458252 -0.000015 0.549950
221.394958 -445.334015 -0.000011 0.503426
221.104919 -447.808350 -0.000008 0.534447
220.903320 -449.528107 -0.000006 0.505760
220.754791 -450.795166 0.000002 0.335912
223.236252 -431.284302 8.926512 1.000000
223.236267 -431.284302 7.972301 1.000000
223.236252 -431.284302 7.031486 1.000000
223.236267 -431.284302 6.101815 1.000000
223.236267 -431.284302 5.181129 1.000000
223.236252 -431.284302 4.267350 1.000000
223.236252 -431.284302 3.358465 1.000000
223.236252 -431.284302 2.452498 1.000000
223.236252 -431.284302 1.547502 1.000000
223.236252 -431.284302 0.641535 1.000000
222.834091 -434.519714 -0.000022 0.550210
221.969772 -441.472809 -0.000015 0.540597
221.488403 -445.345306 -0.000011 0.558297
221.181091 -447.817566 -0.000008 0.501762
220.967499 -449.535858 -0.000007 0.547860
220.810135 -450.801849 0.000002 0.348119
223.397903 -431.535858 8.869146 1.000000
223.397903 -431.535858 7.922838 1.000000
223.397903 -431.535858 6.989815 1.000000
223.397903 -431.535858 6.067843 1.000000
223.397903 -431.535858 5.154781 1.000000
223.397903 -431.535858 4.248571 1.000000
223.397903 -431.535858 3.347214 1.000000
223.397903 -431.535858 2.448750 1.000000
223.397903 -431.535858 1.551250 1.000000
223.397903 -431.535858 0.652786 1.000000
223.002991 -434.541290 -0.000021 0.537621
222.090164 -441.488220 -0.000015 0.532036
221.581772 -445.357239 -0.000011 0.542931
221.257217 -447.827301 -0.000008 0.558541
221.031631 -449.544067 -0.000006 0.503151
220.865433 -450.808929 0.000002 0.340093
223.556915 -431.783295 8.813050 1.000000
223.556915 -431.783295 7.874469 1.000000
223.556915 -431.783295 6.949067 1.000000
223.556915 -431.783295 6.034623 1.000000
223.556915 -431.783295 5.129019 1.000000
223.556915 -431.783295 4.230208 1.000000
223.556915 -431.783295 3.336212 1.000000
223.556915 -431.783295 2.445086 1.000000
223.556915 -431.783295 1.554914 1.000000
223.556915 -431.783295 0.663788 1.000000
223.171753 -434.564087 -0.000022 0.548699
222.210449 -441.504456 -0.000015 0.525109
221.675064 -445.369843 -0.000011 0.537942
221.333267 -447.837555 -0.000008 0.527687
221.095703 -449.552704 -0.000006 0.513054
220.915192 -450.855927 0.010002 1.000000
223.713348 -432.026733 8.758188 1.000000
223.713348 -432.026733 7.827164 1.000000
223.713348 -432.026733 6.909214 1.000000
