# This PCD file was generated using the MATLABÂ® pcwrite function
# from Computer Vision ToolboxÂ®.
# .PCD v.7 - Point Cloud Data file format
VERSION .7
FIELDS x y z intensity
SIZE 4 4 4 4
TYPE F F F F
COUNT 1 1 1 1
WIDTH 1198
HEIGHT 1
VIEWPOINT 0 0 0 1 0 0 0
POINTS 1198
DATA ascii
254.285614 -611.178223 -0.000008 0.548699
255.060150 -612.191895 -0.000006 0.517220
243.280045 -596.456970 8.923513 1.000000
243.280045 -596.456970 7.969714 1.000000
243.280045 -596.456970 7.029307 1.000000
243.280045 -596.456970 6.100039 1.000000
243.280045 -596.456970 5.179750 1.000000
243.280045 -596.456970 4.266368 1.000000
243.280045 -596.456970 3.357877 1.000000
243.280045 -596.456970 2.452302 1.000000
243.280045 -596.456970 1.547698 1.000000
243.280029 -596.456970 0.642123 1.000000
245.234222 -599.051819 -0.000015 0.337758
249.449219 -604.648743 -0.000015 0.545632
251.796768 -607.765930 -0.000011 0.541222
253.295471 -609.755981 -0.000009 0.517845
254.337112 -611.139160 -0.000008 0.518227
255.104568 -612.158203 -0.000006 0.512001
243.410858 -596.309448 8.933489 1.000000
243.410858 -596.309448 7.978316 1.000000
243.410858 -596.309448 7.036555 1.000000
243.410858 -596.309448 6.105947 1.000000
243.410858 -596.309448 5.184333 1.000000
243.410843 -596.309448 4.269635 1.000000
243.410843 -596.309448 3.359833 1.000000
243.410843 -596.309448 2.452954 1.000000
243.410843 -596.309448 1.547046 1.000000
243.410843 -596.309448 0.640166 1.000000
245.370621 -598.949890 -0.000013 0.337514
249.546417 -604.576050 -0.000015 0.540307
251.872147 -607.709595 -0.000012 0.580102
253.356918 -609.710083 -0.000009 0.539605
254.388901 -611.100464 -0.000008 0.552865
255.149200 -612.124878 -0.000006 0.539483
243.542053 -596.161499 8.943832 1.000000
243.542053 -596.161499 7.987236 1.000000
243.542038 -596.161499 7.044069 1.000000
243.542038 -596.161499 6.112072 1.000000
243.542038 -596.161499 5.189083 1.000000
243.542038 -596.161499 4.273021 1.000000
243.542038 -596.161499 3.361861 1.000000
243.542038 -596.161499 2.453629 1.000000
243.542038 -596.161499 1.546370 1.000000
243.542038 -596.161499 0.638137 1.000000
245.507721 -598.848938 -0.000011 0.336507
249.644135 -604.504089 -0.000015 0.548730
251.947937 -607.653748 -0.000011 0.506172
253.418701 -609.664551 -0.000009 0.539422
254.440948 -611.062134 -0.000007 0.536126
255.194077 -612.091797 -0.000006 0.510201
243.673630 -596.013062 8.954551 1.000000
243.673630 -596.013062 7.996477 1.000000
243.673630 -596.013062 7.051852 1.000000
243.673630 -596.013062 6.118418 1.000000
243.673630 -596.013062 5.194005 1.000000
243.673630 -596.013062 4.276527 1.000000
243.673630 -596.013062 3.363964 1.000000
243.673630 -596.013062 2.454330 1.000000
243.673630 -596.013062 1.545670 1.000000
243.673630 -596.013062 0.636036 1.000000
245.645538 -598.748901 -0.000009 0.337469
249.742355 -604.432739 -0.000015 0.545113
252.024109 -607.598450 -0.000011 0.542794
253.480804 -609.619446 -0.000009 0.510475
254.493256 -611.024109 -0.000007 0.541039
255.239182 -612.059021 -0.000006 0.532128
243.805634 -595.864197 8.965637 1.000000
243.805634 -595.864197 8.006037 1.000000
243.805634 -595.864197 7.059908 1.000000
243.805634 -595.864197 6.124985 1.000000
243.805634 -595.864197 5.199099 1.000000
243.805634 -595.864197 4.280158 1.000000
243.805634 -595.864197 3.366138 1.000000
243.805634 -595.864197 2.455054 1.000000
243.805634 -595.864197 1.544946 1.000000
243.805634 -595.864197 0.633861 1.000000
245.784042 -598.649841 -0.000006 0.337652
249.841064 -604.362122 -0.000015 0.541939
252.100647 -607.543701 -0.000011 0.548424
253.543198 -609.574829 -0.000009 0.545510
254.545837 -610.986511 -0.000007 0.529076
255.284515 -612.026611 -0.000006 0.520470
243.938065 -595.714844 8.977104 1.000000
243.938065 -595.714844 8.015923 1.000000
243.938065 -595.714844 7.068236 1.000000
243.938065 -595.714844 6.131774 1.000000
243.938065 -595.714844 5.204363 1.000000
243.938065 -595.714844 4.283912 1.000000
243.938065 -595.714844 3.368387 1.000000
243.938065 -595.714844 2.455804 1.000000
243.938065 -595.714844 1.544197 1.000000
243.938065 -595.714844 0.631613 1.000000
245.923233 -598.551697 -0.000004 0.339834
249.940262 -604.292236 -0.000015 0.529809
252.177582 -607.489441 -0.000011 0.541695
253.605927 -609.530579 -0.000008 0.531014
254.598663 -610.949280 -0.000007 0.538170
255.330078 -611.994507 -0.000006 0.574807
244.070938 -595.565002 8.988947 1.000000
244.070938 -595.565002 8.026134 1.000000
244.070938 -595.565002 7.076839 1.000000
244.070938 -595.565002 6.138789 1.000000
244.070938 -595.565002 5.209802 1.000000
244.070938 -595.565002 4.287788 1.000000
244.070938 -595.565002 3.370709 1.000000
244.070938 -595.565002 2.456577 1.000000
244.070938 -595.565002 1.543423 1.000000
244.070938 -595.565002 0.629290 1.000000
246.063110 -598.454590 -0.000002 0.337942
250.039948 -604.222961 -0.000015 0.542824
252.254898 -607.435730 -0.000011 0.547509
253.668945 -609.486816 -0.000009 0.532113
254.651764 -610.912354 -0.000007 0.540658
255.375854 -611.962646 -0.000006 0.540627
244.204269 -595.414612 9.001171 1.000000
244.204269 -595.414612 8.036674 1.000000
244.204285 -595.414612 7.085719 1.000000
244.204269 -595.414612 6.146028 1.000000
244.204269 -595.414612 5.215418 1.000000
244.204269 -595.414612 4.291790 1.000000
244.204269 -595.414612 3.373107 1.000000
244.204269 -595.414612 2.457376 1.000000
244.204269 -595.414612 1.542624 1.000000
244.204269 -595.414612 0.626892 1.000000
246.203659 -598.358459 0.000000 0.335637
250.140106 -604.154419 -0.000015 0.540658
252.332581 -607.382568 -0.000011 0.544045
253.732269 -609.443481 -0.000009 0.516442
254.705124 -610.875854 -0.000007 0.526833
255.421860 -611.931213 -0.000006 0.560571
nan nan nan 0.000000
244.338089 -595.263672 8.047548 1.000000
244.338074 -595.263672 7.094881 1.000000
244.338074 -595.263672 6.153496 1.000000
244.338074 -595.263672 5.221210 1.000000
244.338074 -595.263672 4.295918 1.000000
244.338074 -595.263672 3.375580 1.000000
244.338074 -595.263672 2.458200 1.000000
244.338074 -595.263672 1.541801 1.000000
244.338074 -595.263672 0.624418 1.000000
246.344864 -598.263306 0.000002 0.339178
250.240753 -604.086609 -0.000015 0.537331
252.410629 -607.329956 -0.000011 0.544533
253.795914 -609.400574 -0.000009 0.505959
254.758728 -610.839722 -0.000007 0.555322
255.468079 -611.900024 -0.000006 0.515923
nan nan nan 0.000000
244.472382 -595.112244 8.058758 1.000000
244.472382 -595.112244 7.104324 1.000000
244.472382 -595.112244 6.161195 1.000000
244.472382 -595.112244 5.227180 1.000000
244.472382 -595.112244 4.300173 1.000000
244.472382 -595.112244 3.378129 1.000000
244.472366 -595.112244 2.459049 1.000000
244.472366 -595.112244 1.540951 1.000000
244.472382 -595.112244 0.621869 1.000000
246.486740 -598.169128 0.000004 0.339055
250.341858 -604.019470 -0.000015 0.529030
252.489044 -607.277893 -0.000011 0.561975
253.859833 -609.358154 -0.000009 0.505577
254.812576 -610.803955 -0.000007 0.534325
255.514526 -611.869202 -0.000006 0.528664
nan nan nan 0.000000
244.607178 -594.960205 8.070303 1.000000
244.607178 -594.960205 7.114052 1.000000
244.607178 -594.960205 6.169124 1.000000
244.607178 -594.960205 5.233330 1.000000
244.607178 -594.960205 4.304557 1.000000
244.607178 -594.960205 3.380757 1.000000
244.607178 -594.960205 2.459923 1.000000
244.607178 -594.960205 1.540076 1.000000
244.607178 -594.960205 0.619243 1.000000
246.629272 -598.075928 0.000006 0.337697
250.443436 -603.953003 -0.000015 0.546822
252.567825 -607.226379 -0.000010 0.537881
253.924057 -609.316162 -0.000009 0.519814
254.866684 -610.768616 -0.000007 0.520790
255.561172 -611.838684 -0.000006 0.513573
nan nan nan 0.000000
244.742493 -594.807556 8.082193 1.000000
244.742493 -594.807556 7.124067 1.000000
244.742493 -594.807556 6.177289 1.000000
244.742493 -594.807556 5.239662 1.000000
244.742493 -594.807556 4.309070 1.000000
244.742493 -594.807556 3.383461 1.000000
244.742493 -594.807556 2.460825 1.000000
244.742493 -594.807556 1.539176 1.000000
244.742493 -594.807556 0.616539 1.000000
246.772446 -597.983765 0.000008 0.337652
250.545486 -603.887329 -0.000015 0.550195
252.646957 -607.175415 -0.000011 0.537362
253.988571 -609.274597 -0.000009 0.557809
254.921036 -610.733582 -0.000007 0.486549
255.608032 -611.808533 -0.000006 0.491371
nan nan nan 0.000000
244.878357 -594.654358 8.094423 1.000000
244.878357 -594.654358 7.134372 1.000000
244.878357 -594.654358 6.185691 1.000000
244.878357 -594.654358 5.246178 1.000000
244.878357 -594.654358 4.313714 1.000000
244.878357 -594.654358 3.386243 1.000000
244.878357 -594.654358 2.461751 1.000000
244.878357 -594.654358 1.538249 1.000000
244.878357 -594.654358 0.613756 1.000000
246.916275 -597.892578 0.000011 0.337713
250.647980 -603.822327 -0.000015 0.530709
252.726456 -607.125000 -0.000011 0.561883
254.053375 -609.233521 -0.000009 0.548196
254.975632 -610.698975 -0.000007 0.543801
255.655121 -611.778687 -0.000006 0.557855
nan nan nan 0.000000
245.014771 -594.500488 8.107004 1.000000
245.014771 -594.500488 7.144971 1.000000
245.014771 -594.500488 6.194331 1.000000
245.014771 -594.500488 5.252878 1.000000
245.014771 -594.500488 4.318490 1.000000
245.014771 -594.500488 3.389105 1.000000
245.014771 -594.500488 2.462705 1.000000
245.014771 -594.500488 1.537296 1.000000
245.014771 -594.500488 0.610895 1.000000
247.060715 -597.802429 0.000012 0.337240
250.750931 -603.757996 -0.000014 0.535271
252.806290 -607.075134 -0.000011 0.541527
254.118469 -609.192871 -0.000009 0.521950
255.030472 -610.664734 -0.000007 0.506661
255.702393 -611.749146 -0.000005 0.569085
nan nan nan 0.000000
245.151764 -594.346008 8.119935 1.000000
245.151764 -594.346008 7.155864 1.000000
245.151764 -594.346008 6.203210 1.000000
245.151764 -594.346008 5.259766 1.000000
245.151764 -594.346008 4.323399 1.000000
245.151764 -594.346008 3.392046 1.000000
245.151764 -594.346008 2.463684 1.000000
245.151764 -594.346008 1.536316 1.000000
245.151764 -594.346008 0.607954 1.000000
247.205765 -597.713196 0.000011 0.337682
250.854324 -603.694458 -0.000015 0.532830
252.886475 -607.025818 -0.000011 0.559869
254.183838 -609.152649 -0.000009 0.550210
255.085541 -610.630859 -0.000007 0.512688
255.749878 -611.719971 -0.000006 0.583169
nan nan nan 0.000000
245.289337 -594.190857 8.133221 1.000000
245.289337 -594.190857 7.167056 1.000000
245.289337 -594.190857 6.212334 1.000000
245.289337 -594.190857 5.266841 1.000000
245.289337 -594.190796 4.328443 1.000000
245.289337 -594.190796 3.395068 1.000000
245.289337 -594.190796 2.464691 1.000000
245.289337 -594.190796 1.535310 1.000000
245.289337 -594.190796 0.604932 1.000000
247.351440 -597.625000 0.000010 0.339284
250.958160 -603.631592 -0.000014 0.541451
252.967010 -606.977112 -0.000011 0.522057
254.249481 -609.112915 -0.000009 0.562448
255.140854 -610.597412 -0.000007 0.529519
255.797562 -611.691101 -0.000006 0.542855
nan nan nan 0.000000
245.427521 -594.034973 8.146862 1.000000
245.427505 -594.034973 7.178551 1.000000
245.427521 -594.034973 6.221705 1.000000
245.427521 -594.034973 5.274109 1.000000
245.427505 -594.034973 4.333622 1.000000
245.427505 -594.034973 3.398171 1.000000
245.427505 -594.034973 2.465724 1.000000
245.427505 -594.034973 1.534276 1.000000
245.427505 -594.034973 0.601828 1.000000
247.497726 -597.537842 0.000008 0.337255
251.062439 -603.569458 -0.000015 0.538720
253.047882 -606.928955 -0.000010 0.534874
254.315414 -609.073669 -0.000008 0.528405
255.196396 -610.564331 -0.000006 0.555337
255.845459 -611.662537 -0.000005 0.537011
nan nan nan 0.000000
245.566315 -593.878418 8.160866 1.000000
245.566315 -593.878418 7.190349 1.000000
245.566315 -593.878418 6.231324 1.000000
245.566315 -593.878418 5.281569 1.000000
245.566315 -593.878418 4.338939 1.000000
245.566315 -593.878418 3.401357 1.000000
245.566315 -593.878418 2.466785 1.000000
245.566315 -593.878418 1.533215 1.000000
245.566315 -593.878418 0.598643 1.000000
247.644623 -597.451721 0.000008 0.338811
251.167130 -603.508118 -0.000015 0.574289
253.129074 -606.881348 -0.000011 0.524117
254.381607 -609.034851 -0.000008 0.524254
255.252167 -610.531616 -0.000007 0.564645
255.893539 -611.634338 -0.000005 0.551186
nan nan nan 0.000000
245.705765 -593.721191 8.175238 1.000000
245.705765 -593.721191 7.202455 1.000000
245.705750 -593.721191 6.241194 1.000000
245.705765 -593.721191 5.289222 1.000000
245.705750 -593.721191 4.344394 1.000000
245.705750 -593.721191 3.404625 1.000000
245.705750 -593.721191 2.467874 1.000000
245.705750 -593.721191 1.532126 1.000000
245.705750 -593.721191 0.595374 1.000000
247.792099 -597.366638 0.000007 0.337652
251.272263 -603.447449 -0.000014 0.545480
253.210602 -606.834290 -0.000011 0.532433
254.448074 -608.996521 -0.000008 0.533272
255.308151 -610.499329 -0.000007 0.541146
255.941818 -611.606506 -0.000005 0.545769
nan nan nan 0.000000
245.845856 -593.563171 8.189980 1.000000
245.845856 -593.563171 7.214872 1.000000
245.845856 -593.563171 6.251318 1.000000
245.845856 -593.563171 5.297074 1.000000
245.845856 -593.563171 4.349991 1.000000
245.845856 -593.563171 3.407978 1.000000
245.845856 -593.563171 2.468991 1.000000
245.845856 -593.563171 1.531009 1.000000
245.845856 -593.563171 0.592021 1.000000
247.940201 -597.282532 0.000007 0.337224
251.377808 -603.387512 -0.000014 0.534325
253.292465 -606.787842 -0.000010 0.524056
254.514801 -608.958618 -0.000008 0.512886
255.364380 -610.467407 -0.000007 0.547509
255.990295 -611.578979 -0.000005 0.534096
nan nan nan 0.000000
245.986633 -593.404358 8.205091 1.000000
245.986633 -593.404358 7.227607 1.000000
245.986633 -593.404358 6.261698 1.000000
245.986633 -593.404358 5.305124 1.000000
245.986633 -593.404358 4.355728 1.000000
245.986633 -593.404358 3.411415 1.000000
245.986633 -593.404358 2.470136 1.000000
245.986633 -593.404358 1.529864 1.000000
245.986633 -593.404358 0.588584 1.000000
248.088867 -597.199524 0.000007 0.339574
251.483780 -603.328369 -0.000014 0.542275
253.374649 -606.741943 -0.000011 0.533410
254.581802 -608.921204 -0.000008 0.560479
255.420822 -610.435852 -0.000007 0.541604
256.038971 -611.551819 -0.000005 0.524605
nan nan nan 0.000000
246.128113 -593.244812 8.220583 1.000000
246.128113 -593.244812 7.240657 1.000000
246.128113 -593.244812 6.272336 1.000000
246.128113 -593.244812 5.313375 1.000000
246.128113 -593.244812 4.361609 1.000000
246.128113 -593.244812 3.414940 1.000000
246.128113 -593.244812 2.471309 1.000000
246.128113 -593.244812 1.528690 1.000000
246.128113 -593.244812 0.585060 1.000000
248.238113 -597.117554 0.000007 0.339406
251.590149 -603.269897 -0.000014 0.532403
253.457138 -606.696594 -0.000010 0.514366
254.649063 -608.884216 -0.000008 0.567956
255.477478 -610.404724 -0.000007 0.544091
256.087830 -611.524963 -0.000005 0.562585
nan nan nan 0.000000
246.270309 -593.084473 8.236457 1.000000
246.270309 -593.084473 7.254031 1.000000
246.270294 -593.084473 6.283240 1.000000
246.270309 -593.084473 5.321830 1.000000
246.270309 -593.084473 4.367636 1.000000
246.270309 -593.084473 3.418551 1.000000
246.270294 -593.084473 2.472512 1.000000
246.270294 -593.084473 1.527488 1.000000
246.270294 -593.084473 0.581449 1.000000
248.387924 -597.036560 0.000007 0.339239
251.696930 -603.212219 -0.000014 0.541131
253.539963 -606.651855 -0.000011 0.524575
254.716568 -608.847778 -0.000008 0.505821
255.534363 -610.374023 -0.000006 0.546609
256.136871 -611.498474 -0.000005 0.536675
nan nan nan 0.000000
246.413223 -592.923279 8.252718 1.000000
246.413223 -592.923279 7.267729 1.000000
246.413223 -592.923279 6.294407 1.000000
246.413223 -592.923279 5.330492 1.000000
246.413223 -592.923279 4.373809 1.000000
246.413223 -592.923279 3.422249 1.000000
246.413223 -592.923279 2.473745 1.000000
246.413223 -592.923279 1.526256 1.000000
246.413223 -592.923218 0.577750 1.000000
248.538300 -596.956665 0.000008 0.337621
251.804123 -603.155273 -0.000014 0.533700
253.623077 -606.607666 -0.000010 0.530983
254.784332 -608.811768 -0.000008 0.540841
255.591446 -610.343689 -0.000006 0.502037
256.186096 -611.472290 -0.000005 0.542473
nan nan nan 0.000000
246.556915 -592.761230 8.269369 1.000000
246.556915 -592.761230 7.281759 1.000000
246.556900 -592.761230 6.305845 1.000000
246.556915 -592.761230 5.339362 1.000000
246.556900 -592.761230 4.380131 1.000000
246.556900 -592.761230 3.426037 1.000000
246.556900 -592.761230 2.475005 1.000000
246.556900 -592.761230 1.524994 1.000000
246.556900 -592.761230 0.573963 1.000000
248.689240 -596.877869 0.000008 0.337148
251.911697 -603.099060 -0.000014 0.547936
253.706512 -606.564087 -0.000010 0.559945
254.852356 -608.776245 -0.000008 0.523018
255.648743 -610.313721 -0.000006 0.585107
256.235504 -611.446533 -0.000005 0.552605
nan nan nan 0.000000
246.701355 -592.598267 8.286419 1.000000
246.701355 -592.598267 7.296122 1.000000
246.701355 -592.598267 6.317554 1.000000
246.701355 -592.598267 5.348443 1.000000
246.701355 -592.598267 4.386603 1.000000
246.701355 -592.598267 3.429914 1.000000
246.701355 -592.598267 2.476298 1.000000
246.701355 -592.598267 1.523702 1.000000
246.701355 -592.598267 0.570085 1.000000
248.840714 -596.800049 0.000008 0.337407
252.019669 -603.043640 -0.000014 0.539895
253.790253 -606.521118 -0.000010 0.547906
254.920609 -608.741150 -0.000008 0.504219
255.706253 -610.284180 -0.000006 0.553017
256.285095 -611.421021 -0.000005 0.531029
nan nan nan 0.000000
246.846603 -592.434509 8.303866 1.000000
246.846603 -592.434448 7.310822 1.000000
246.846603 -592.434448 6.329538 1.000000
246.846603 -592.434448 5.357737 1.000000
246.846603 -592.434448 4.393227 1.000000
246.846603 -592.434448 3.433884 1.000000
246.846603 -592.434448 2.477619 1.000000
246.846603 -592.434448 1.522380 1.000000
246.846603 -592.434448 0.566116 1.000000
248.992737 -596.723328 0.000008 0.338170
252.128006 -602.988892 -0.000014 0.535576
253.874283 -606.478699 -0.000010 0.549615
254.989120 -608.706604 -0.000008 0.548348
255.763962 -610.255066 -0.000006 0.556374
256.334839 -611.395935 -0.000005 0.537789
nan nan nan 0.000000
246.992676 -592.269714 8.321723 1.000000
246.992676 -592.269714 7.325865 1.000000
246.992676 -592.269714 6.341801 1.000000
246.992676 -592.269714 5.367248 1.000000
246.992661 -592.269714 4.400007 1.000000
246.992676 -592.269714 3.437945 1.000000
246.992676 -592.269714 2.478972 1.000000
246.992676 -592.269714 1.521027 1.000000
246.992661 -592.269714 0.562055 1.000000
249.145279 -596.647644 0.000008 0.335821
252.236740 -602.934998 -0.000014 0.558206
253.958603 -606.436890 -0.000010 0.555184
255.057861 -608.672485 -0.000008 0.571191
255.821884 -610.226318 -0.000006 0.533089
256.384766 -611.371155 -0.000005 0.519554
nan nan nan 0.000000
247.139572 -592.104065 8.339991 1.000000
247.139572 -592.104065 7.341253 1.000000
247.139572 -592.104065 6.354346 1.000000
247.139572 -592.104065 5.376976 1.000000
247.139572 -592.104065 4.406941 1.000000
247.139572 -592.104065 3.442100 1.000000
247.139572 -592.104065 2.480356 1.000000
247.139572 -592.104065 1.519643 1.000000
247.139572 -592.104065 0.557899 1.000000
249.298355 -596.573059 0.000008 0.338201
252.345840 -602.881836 -0.000014 0.524941
254.043213 -606.395630 -0.000010 0.542046
255.126846 -608.638855 -0.000008 0.556222
255.879990 -610.197998 -0.000006 0.537606
256.434875 -611.346741 -0.000005 0.586130
nan nan nan 0.000000
247.287338 -591.937439 8.358673 1.000000
247.287323 -591.937378 7.356995 1.000000
247.287323 -591.937378 6.367178 1.000000
247.287323 -591.937378 5.386930 1.000000
247.287323 -591.937378 4.414035 1.000000
247.287323 -591.937378 3.446350 1.000000
247.287323 -591.937378 2.481772 1.000000
247.287323 -591.937378 1.518228 1.000000
247.287323 -591.937378 0.553650 1.000000
249.451935 -596.499512 0.000008 0.336507
252.455322 -602.829407 -0.000014 0.526650
254.128113 -606.354980 -0.000010 0.538308
255.196045 -608.605774 -0.000008 0.539361
255.938309 -610.170105 -0.000006 0.500771
256.485168 -611.322632 -0.000005 0.521126
nan nan nan 0.000000
247.435974 -591.769775 8.377779 1.000000
247.435974 -591.769775 7.373090 1.000000
247.435974 -591.769775 6.380301 1.000000
247.435974 -591.769775 5.397105 1.000000
247.435974 -591.769775 4.421288 1.000000
247.435974 -591.769775 3.450695 1.000000
247.435974 -591.769775 2.483219 1.000000
247.435974 -591.769775 1.516780 1.000000
247.435974 -591.769775 0.549304 1.000000
249.606049 -596.427063 0.000010 0.337407
252.565155 -602.777771 -0.000014 0.537911
254.213303 -606.314941 -0.000010 0.545510
255.265503 -608.573120 -0.000008 0.556970
255.996811 -610.142578 -0.000006 0.545266
256.535614 -611.298950 -0.000005 0.564034
nan nan nan 0.000000
247.585510 -591.601074 8.397313 1.000000
247.585510 -591.601074 7.389547 1.000000
247.585510 -591.601074 6.393716 1.000000
247.585510 -591.601074 5.407510 1.000000
247.585510 -591.601135 4.428703 1.000000
247.585510 -591.601074 3.455138 1.000000
247.585510 -591.601074 2.484699 1.000000
247.585510 -591.601074 1.515300 1.000000
247.585510 -591.601074 0.544861 1.000000
249.760651 -596.355713 0.000010 0.338582
252.675354 -602.726868 -0.000014 0.534951
254.298767 -606.275452 -0.000010 0.558465
255.335159 -608.540955 -0.000008 0.544656
256.055511 -610.115479 -0.000006 0.539162
256.586212 -611.275574 -0.000005 0.557641
nan nan nan 0.000000
247.735992 -591.431396 8.417278 1.000000
247.735992 -591.431396 7.406367 1.000000
247.735977 -591.431396 6.407429 1.000000
247.735977 -591.431396 5.418145 1.000000
247.735977 -591.431396 4.436285 1.000000
247.735977 -591.431396 3.459680 1.000000
247.735977 -591.431396 2.486213 1.000000
247.735977 -591.431396 1.513787 1.000000
247.735977 -591.431396 0.540319 1.000000
249.915741 -596.285400 0.000010 0.336828
252.785889 -602.676758 -0.000014 0.516670
254.384491 -606.236633 -0.000010 0.512062
255.405060 -608.509277 -0.000007 0.598520
256.114380 -610.088806 -0.000005 0.543420
256.636993 -611.252563 -0.000005 0.540047
nan nan nan 0.000000
247.887405 -591.260620 8.437689 1.000000
247.887405 -591.260620 7.423561 1.000000
247.887405 -591.260620 6.421445 1.000000
247.887405 -591.260620 5.429015 1.000000
247.887405 -591.260620 4.444031 1.000000
247.887405 -591.260620 3.464321 1.000000
247.887405 -591.260620 2.487758 1.000000
247.887405 -591.260620 1.512242 1.000000
247.887405 -591.260620 0.535677 1.000000
250.071335 -596.216187 0.000010 0.337240
252.896790 -602.627441 -0.000014 0.546944
254.470490 -606.198364 -0.000010 0.530694
255.475174 -608.478027 -0.000007 0.570184
256.173462 -610.062561 -0.000005 0.545327
256.687927 -611.229919 -0.000005 0.548302
nan nan nan 0.000000
248.039795 -591.088745 8.458540 1.000000
248.039795 -591.088745 7.441128 1.000000
248.039795 -591.088745 6.435767 1.000000
248.039795 -591.088745 5.440121 1.000000
248.039795 -591.088745 4.451947 1.000000
248.039795 -591.088745 3.469065 1.000000
248.039795 -591.088745 2.489338 1.000000
248.039795 -591.088745 1.510661 1.000000
248.039795 -591.088745 0.530934 1.000000
250.227402 -596.148071 0.000011 0.335973
253.008026 -602.578857 -0.000013 0.540993
254.556763 -606.160706 -0.000010 0.522240
255.545502 -608.447327 -0.000007 0.541802
256.232697 -610.036682 -0.000006 0.533150
256.739014 -611.207581 -0.000004 0.500328
nan nan nan 0.000000
248.193192 -590.915771 8.479844 1.000000
248.193192 -590.915771 7.459077 1.000000
248.193192 -590.915771 6.450399 1.000000
248.193192 -590.915771 5.451470 1.000000
248.193176 -590.915771 4.460037 1.000000
248.193192 -590.915771 3.473912 1.000000
248.193176 -590.915771 2.490953 1.000000
248.193176 -590.915771 1.509047 1.000000
248.193176 -590.915771 0.526088 1.000000
250.383942 -596.081055 0.000011 0.336385
253.119598 -602.531128 -0.000013 0.545907
254.643295 -606.123657 -0.000010 0.558038
255.616028 -608.417175 -0.000007 0.526711
256.292114 -610.011230 -0.000006 0.518944
256.790253 -611.185669 -0.000004 0.529625
nan nan nan 0.000000
248.347595 -590.741577 8.501610 1.000000
248.347595 -590.741577 7.477414 1.000000
248.347595 -590.741577 6.465348 1.000000
248.347595 -590.741577 5.463064 1.000000
248.347595 -590.741577 4.468300 1.000000
248.347595 -590.741577 3.478862 1.000000
248.347595 -590.741577 2.492603 1.000000
248.347595 -590.741577 1.507398 1.000000
248.347595 -590.741577 0.521137 1.000000
250.540939 -596.015137 0.000013 0.337865
253.231506 -602.484131 -0.000013 0.548989
254.730072 -606.087158 -0.000010 0.517845
255.686783 -608.387451 -0.000007 0.549462
256.351746 -609.986206 -0.000006 0.536217
256.841644 -611.164063 -0.000004 0.530983
nan nan nan 0.000000
248.503067 -590.566284 8.523841 1.000000
248.503067 -590.566284 7.496141 1.000000
248.503067 -590.566284 6.480614 1.000000
248.503067 -590.566284 5.474903 1.000000
248.503067 -590.566284 4.476738 1.000000
248.503052 -590.566223 3.483919 1.000000
248.503052 -590.566223 2.494286 1.000000
248.503052 -590.566223 1.505713 1.000000
248.503052 -590.566223 0.516081 1.000000
250.698395 -595.950256 0.000014 0.338521
253.343719 -602.437866 -0.000013 0.536080
254.817108 -606.051331 -0.000010 0.542489
255.757736 -608.358215 -0.000007 0.565499
256.411499 -609.961548 -0.000006 0.541955
256.893188 -611.142822 -0.000005 0.568353
nan nan nan 0.000000
248.659592 -590.389709 8.546543 1.000000
248.659592 -590.389709 7.515269 1.000000
248.659592 -590.389709 6.496208 1.000000
248.659592 -590.389709 5.486997 1.000000
248.659592 -590.389709 4.485358 1.000000
248.659592 -590.389709 3.489082 1.000000
248.659592 -590.389709 2.496006 1.000000
248.659592 -590.389709 1.503994 1.000000
248.659592 -590.389709 0.510917 1.000000
250.856308 -595.886536 0.000015 0.338369
253.456268 -602.392456 -0.000013 0.541451
254.904404 -606.016113 -0.000010 0.538170
255.828903 -608.329468 -0.000007 0.535958
256.471466 -609.937378 -0.000005 0.535882
256.944855 -611.122009 -0.000004 0.534249
nan nan nan 0.000000
248.817230 -590.211914 8.569725 1.000000
248.817230 -590.211914 7.534798 1.000000
248.817230 -590.211914 6.512129 1.000000
248.817230 -590.211914 5.499345 1.000000
248.817230 -590.211914 4.494159 1.000000
248.817230 -590.211914 3.494355 1.000000
248.817230 -590.211914 2.497763 1.000000
248.817230 -590.211914 1.502237 1.000000
248.817230 -590.211914 0.505644 1.000000
251.014664 -595.823914 0.000017 0.336263
253.569138 -602.347778 -0.000013 0.548470
254.991928 -605.981506 -0.000009 0.547417
255.900253 -608.301270 -0.000007 0.505791
256.531586 -609.913574 -0.000005 0.517815
256.996704 -611.101501 -0.000004 0.536629
nan nan nan 0.000000
248.975998 -590.032837 8.593393 1.000000
248.975998 -590.032837 7.554739 1.000000
248.975998 -590.032837 6.528387 1.000000
248.975998 -590.032837 5.511952 1.000000
248.975998 -590.032837 4.503145 1.000000
248.975998 -590.032837 3.499739 1.000000
248.975998 -590.032837 2.499556 1.000000
248.975998 -590.032837 1.500444 1.000000
248.975998 -590.032837 0.500259 1.000000
251.173447 -595.762390 0.000018 0.339117
253.682312 -602.303955 -0.000013 0.549279
255.079697 -605.947449 -0.000009 0.552605
255.971802 -608.273560 -0.000007 0.521340
256.591858 -609.890259 -0.000005 0.541985
257.048676 -611.081360 -0.000004 0.538979
nan nan nan 0.000000
249.135925 -589.852478 8.617559 1.000000
249.135925 -589.852478 7.575098 1.000000
249.135925 -589.852478 6.544982 1.000000
249.135925 -589.852478 5.524823 1.000000
249.135925 -589.852478 4.512319 1.000000
249.135925 -589.852478 3.505236 1.000000
249.135925 -589.852478 2.501387 1.000000
249.135925 -589.852478 1.498613 1.000000
249.135925 -589.852478 0.494764 1.000000
251.332657 -595.702026 0.000021 0.338613
253.795776 -602.260864 -0.000012 0.537835
255.167694 -605.914063 -0.000009 0.546349
256.043549 -608.246277 -0.000007 0.529671
256.652283 -609.867310 -0.000005 0.549950
257.100800 -611.061584 -0.000004 0.546105
nan nan nan 0.000000
249.297028 -589.670776 8.642227 1.000000
249.297028 -589.670776 7.595880 1.000000
249.297028 -589.670776 6.561925 1.000000
249.297028 -589.670776 5.537963 1.000000
249.297028 -589.670776 4.521684 1.000000
249.297028 -589.670776 3.510846 1.000000
249.297028 -589.670776 2.503256 1.000000
249.297028 -589.670776 1.496744 1.000000
249.297028 -589.670776 0.489152 1.000000
251.492279 -595.642700 0.000022 0.336950
253.909546 -602.218628 -0.000013 0.527306
255.255936 -605.881287 -0.000009 0.525505
256.115479 -608.219604 -0.000007 0.548638
256.712891 -609.844788 -0.000005 0.525246
257.153046 -611.042175 -0.000004 0.537804
nan nan nan 0.000000
249.459351 -589.487732 8.667406 1.000000
249.459351 -589.487732 7.617091 1.000000
249.459351 -589.487732 6.579218 1.000000
249.459351 -589.487732 5.551375 1.000000
249.459351 -589.487732 4.531243 1.000000
249.459351 -589.487732 3.516574 1.000000
249.459351 -589.487732 2.505163 1.000000
249.459351 -589.487732 1.494836 1.000000
249.459351 -589.487732 0.483425 1.000000
251.652328 -595.584534 0.000023 0.336355
254.023621 -602.177124 -0.000013 0.534203
255.344391 -605.849121 -0.000009 0.527092
256.187592 -608.193359 -0.000007 0.555474
256.773651 -609.822693 -0.000005 0.555718
257.205444 -611.023071 -0.000004 0.556909
nan nan nan 0.000000
249.622910 -589.303223 8.693103 1.000000
249.622910 -589.303223 7.638741 1.000000
249.622910 -589.303223 6.596866 1.000000
249.622910 -589.303223 5.565061 1.000000
249.622910 -589.303223 4.540998 1.000000
249.622910 -589.303223 3.522419 1.000000
249.622910 -589.303223 2.507111 1.000000
249.622910 -589.303223 1.492889 1.000000
249.622910 -589.303223 0.477580 1.000000
251.812759 -595.527466 0.000025 0.340581
254.137970 -602.136475 -0.000013 0.524376
255.433075 -605.817566 -0.000009 0.535668
256.259888 -608.167603 -0.000006 0.509422
256.834564 -609.801025 -0.000005 0.537820
257.257935 -611.004395 -0.000004 0.502083
nan nan nan 0.000000
249.787750 -589.117310 8.719328 1.000000
249.787750 -589.117371 7.660834 1.000000
249.787750 -589.117310 6.614877 1.000000
249.787750 -589.117310 5.579030 1.000000
249.787750 -589.117310 4.550955 1.000000
249.787750 -589.117310 3.528385 1.000000
249.787750 -589.117310 2.509098 1.000000
249.787750 -589.117310 1.490903 1.000000
249.787750 -589.117310 0.471615 1.000000
251.973587 -595.471497 0.000023 0.338521
254.252594 -602.096558 -0.000013 0.533104
255.521973 -605.786621 -0.000009 0.524224
256.332367 -608.142395 -0.000006 0.533257
256.895630 -609.779785 -0.000005 0.503731
257.310608 -610.986084 -0.000004 0.572335
nan nan nan 0.000000
249.953888 -588.929932 8.746090 1.000000
249.953888 -588.929932 7.683380 1.000000
249.953888 -588.929932 6.633258 1.000000
249.953888 -588.929932 5.593286 1.000000
249.953888 -588.929932 4.561113 1.000000
249.953888 -588.929932 3.534471 1.000000
249.953888 -588.929932 2.511125 1.000000
249.953888 -588.929932 1.488875 1.000000
249.953888 -588.929932 0.465528 1.000000
252.134796 -595.416687 0.000021 0.337728
254.367508 -602.057495 -0.000013 0.544228
255.611099 -605.756348 -0.000009 0.529885
256.405029 -608.117737 -0.000006 0.527520
256.956818 -609.758972 -0.000005 0.556023
257.363373 -610.968140 -0.000004 0.537789
nan nan nan 0.000000
250.121368 -588.741089 8.773397 1.000000
250.121368 -588.741089 7.706384 1.000000
250.121368 -588.741089 6.652011 1.000000
250.121368 -588.741089 5.607830 1.000000
250.121368 -588.741089 4.571481 1.000000
250.121368 -588.741089 3.540682 1.000000
250.121368 -588.741089 2.513194 1.000000
250.121368 -588.741089 1.486806 1.000000
250.121368 -588.741089 0.459316 1.000000
252.296371 -595.362915 0.000020 0.336248
254.482681 -602.019226 -0.000012 0.547814
255.700424 -605.726624 -0.000009 0.541543
256.477844 -608.093506 -0.000006 0.538567
257.018158 -609.738586 -0.000005 0.530983
257.416260 -610.950562 -0.000004 0.519860
nan nan nan 0.000000
250.290222 -588.550659 8.801258 1.000000
250.290222 -588.550659 7.729856 1.000000
250.290222 -588.550659 6.671147 1.000000
250.290207 -588.550659 5.622669 1.000000
250.290207 -588.550659 4.582058 1.000000
250.290207 -588.550659 3.547020 1.000000
250.290207 -588.550598 2.515305 1.000000
250.290207 -588.550598 1.484695 1.000000
250.290207 -588.550598 0.452979 1.000000
252.458344 -595.310364 0.000018 0.335943
254.598129 -601.981750 -0.000012 0.547509
255.789948 -605.697571 -0.000009 0.548272
256.550842 -608.069824 -0.000006 0.539895
257.079651 -609.718628 -0.000005 0.512154
257.469299 -610.933350 -0.000003 0.575204
nan nan nan 0.000000
250.460464 -588.358643 8.829681 1.000000
250.460464 -588.358643 7.753806 1.000000
250.460464 -588.358643 6.690670 1.000000
250.460464 -588.358643 5.637810 1.000000
250.460464 -588.358643 4.592851 1.000000
250.460464 -588.358643 3.553486 1.000000
250.460464 -588.358643 2.517458 1.000000
250.460464 -588.358643 1.482541 1.000000
250.460464 -588.358643 0.446514 1.000000
252.620651 -595.258911 0.000016 0.336324
254.713837 -601.945068 -0.000012 0.543954
255.879684 -605.669128 -0.000009 0.534524
256.623993 -608.046631 -0.000006 0.550546
257.141296 -609.699097 -0.000004 0.555200
257.522430 -610.916504 -0.000003 0.539879
nan nan nan 0.000000
250.632156 -588.164978 8.858683 1.000000
250.632156 -588.164978 7.778237 1.000000
250.632156 -588.164978 6.710588 1.000000
250.632156 -588.164978 5.653258 1.000000
250.632156 -588.164978 4.603861 1.000000
250.632156 -588.164978 3.560082 1.000000
250.632156 -588.164978 2.519656 1.000000
250.632156 -588.164978 1.480344 1.000000
250.632156 -588.164978 0.439917 1.000000
nan nan nan 0.000000
254.829788 -601.909241 -0.000012 0.527749
255.969604 -605.641357 -0.000008 0.557168
256.697296 -608.023987 -0.000006 0.533394
257.203064 -609.679993 -0.000004 0.511818
257.575684 -610.900024 -0.000003 0.548898
nan nan nan 0.000000
250.805313 -587.969666 8.888268 1.000000
250.805313 -587.969666 7.803163 1.000000
250.805313 -587.969666 6.730907 1.000000
250.805313 -587.969666 5.669016 1.000000
250.805313 -587.969666 4.615092 1.000000
250.805313 -587.969666 3.566812 1.000000
250.805313 -587.969666 2.521897 1.000000
250.805313 -587.969666 1.478102 1.000000
250.805313 -587.969666 0.433187 1.000000
252.946350 -595.159363 0.000012 0.337652
254.945984 -601.874207 -0.000012 0.543389
256.059723 -605.614136 -0.000008 0.531106
256.770752 -608.001831 -0.000006 0.538338
257.264954 -609.661316 -0.000004 0.528817
257.629028 -610.883972 -0.000003 0.519005
nan nan nan 0.000000
250.979980 -587.772705 8.918447 1.000000
250.979980 -587.772705 7.828586 1.000000
250.979980 -587.772705 6.751635 1.000000
250.979980 -587.772705 5.685091 1.000000
250.979980 -587.772705 4.626550 1.000000
250.979980 -587.772705 3.573677 1.000000
250.979980 -587.772705 2.524185 1.000000
250.979980 -587.772705 1.475816 1.000000
250.979980 -587.772705 0.426323 1.000000
253.109726 -595.111328 0.000010 0.337499
255.062439 -601.839966 -0.000012 0.527428
256.150024 -605.587585 -0.000008 0.524132
256.844391 -607.980164 -0.000006 0.547890
257.326965 -609.643066 -0.000004 0.539513
257.682526 -610.868225 -0.000003 0.518334
nan nan nan 0.000000
251.156204 -587.573914 8.949234 1.000000
251.156204 -587.573914 7.854522 1.000000
251.156204 -587.573975 6.772778 1.000000
251.156204 -587.573914 5.701489 1.000000
251.156204 -587.573914 4.638237 1.000000
251.156204 -587.573914 3.580679 1.000000
251.156204 -587.573914 2.526516 1.000000
251.156204 -587.573914 1.473483 1.000000
251.156204 -587.573914 0.419320 1.000000
253.273422 -595.064392 0.000009 0.339635
255.179108 -601.806519 -0.000012 0.530587
256.240540 -605.561707 -0.000008 0.526925
256.918152 -607.959045 -0.000006 0.582177
257.389130 -609.625305 -0.000004 0.549386
257.736115 -610.852905 -0.000003 0.562325
nan nan nan 0.000000
251.334000 -587.373413 8.980635 1.000000
251.334000 -587.373413 7.880980 1.000000
251.334000 -587.373413 6.794347 1.000000
251.334000 -587.373413 5.718215 1.000000
251.334000 -587.373413 4.650159 1.000000
251.334000 -587.373413 3.587821 1.000000
251.334000 -587.373413 2.528896 1.000000
251.334000 -587.373413 1.471104 1.000000
251.334000 -587.373413 0.412178 1.000000
253.437439 -595.018616 0.000007 0.337881
255.296021 -601.773926 -0.000011 0.536873
256.331207 -605.536438 -0.000008 0.544961
256.992065 -607.938416 -0.000005 0.538628
257.451385 -609.607910 -0.000004 0.552132
257.789795 -610.837891 -0.000003 0.527565
nan nan nan 0.000000
nan nan nan 0.000000
251.513428 -587.171082 7.907964 1.000000
251.513428 -587.171082 6.816345 1.000000
251.513428 -587.171082 5.735276 1.000000
251.513428 -587.171021 4.662320 1.000000
251.513428 -587.171021 3.595108 1.000000
251.513428 -587.171021 2.531323 1.000000
251.513428 -587.171021 1.468677 1.000000
251.513428 -587.171021 0.404891 1.000000
253.601776 -594.973999 0.000005 0.336767
255.413162 -601.742126 -0.000012 0.537484
256.422028 -605.511780 -0.000008 0.525979
257.066132 -607.918335 -0.000005 0.562112
257.513794 -609.591003 -0.000004 0.510094
257.843597 -610.823303 -0.000003 0.564858
nan nan nan 0.000000
nan nan nan 0.000000
251.694504 -586.966797 7.935488 1.000000
251.694504 -586.966797 6.838785 1.000000
251.694504 -586.966797 5.752678 1.000000
251.694504 -586.966797 4.674723 1.000000
251.694504 -586.966797 3.602538 1.000000
251.694504 -586.966797 2.533798 1.000000
251.694504 -586.966797 1.466202 1.000000
251.694504 -586.966797 0.397460 1.000000
253.766418 -594.930603 0.000006 0.339178
255.530518 -601.711182 -0.000011 0.547997
256.513062 -605.487732 -0.000008 0.546166
257.140320 -607.898743 -0.000005 0.547723
257.576294 -609.574463 -0.000004 0.546578
257.897491 -610.809082 -0.000003 0.521584
nan nan nan 0.000000
nan nan nan 0.000000
251.877304 -586.760681 7.963563 1.000000
251.877304 -586.760681 6.861671 1.000000
251.877304 -586.760681 5.770430 1.000000
251.877304 -586.760681 4.687374 1.000000
251.877289 -586.760620 3.610119 1.000000
251.877304 -586.760620 2.536322 1.000000
251.877304 -586.760620 1.463677 1.000000
251.877289 -586.760620 0.389880 1.000000
253.931366 -594.888306 0.000007 0.337072
255.648087 -601.681030 -0.000012 0.552636
256.604218 -605.464355 -0.000007 0.554330
257.214661 -607.879700 -0.000005 0.541039
257.638916 -609.558411 -0.000004 0.540627
257.951477 -610.795227 -0.000002 0.538491
nan nan nan 0.000000
nan nan nan 0.000000
252.061844 -586.552551 7.992198 1.000000
252.061844 -586.552551 6.885015 1.000000
252.061844 -586.552551 5.788532 1.000000
252.061844 -586.552551 4.700277 1.000000
252.061829 -586.552490 3.617851 1.000000
252.061829 -586.552490 2.538899 1.000000
252.061829 -586.552490 1.461102 1.000000
252.061829 -586.552490 0.382149 1.000000
254.096619 -594.847168 0.000007 0.338628
255.765854 -601.651672 -0.000011 0.541176
256.695557 -605.441589 -0.000008 0.541070
257.289124 -607.861145 -0.000005 0.563577
257.701660 -609.542786 -0.000003 0.531441
258.005585 -610.781799 -0.000002 0.538308
nan nan nan 0.000000
nan nan nan 0.000000
252.248169 -586.342407 8.021402 1.000000
252.248154 -586.342407 6.908824 1.000000
252.248169 -586.342407 5.806997 1.000000
252.248154 -586.342407 4.713439 1.000000
252.248154 -586.342407 3.625735 1.000000
252.248154 -586.342407 2.541524 1.000000
252.248154 -586.342407 1.458475 1.000000
252.248154 -586.342346 0.374264 1.000000
254.262131 -594.807190 0.000008 0.337530
nan nan nan 0.000000
256.787079 -605.419495 -0.000007 0.517449
257.363708 -607.843140 -0.000005 0.564614
257.764496 -609.527649 -0.000003 0.561898
258.059753 -610.768677 -0.000002 0.545373
nan nan nan 0.000000
nan nan nan 0.000000
252.436325 -586.130188 8.051191 1.000000
252.436325 -586.130188 6.933108 1.000000
252.436325 -586.130188 5.825831 1.000000
252.436325 -586.130188 4.726862 1.000000
252.436325 -586.130188 3.633778 1.000000
252.436325 -586.130127 2.544204 1.000000
252.436325 -586.130127 1.455796 1.000000
252.436325 -586.130127 0.366222 1.000000
254.427933 -594.768372 0.000009 0.336294
nan nan nan 0.000000
256.878723 -605.398010 -0.000007 0.555749
257.438416 -607.825623 -0.000005 0.552880
257.827423 -609.512878 -0.000003 0.528450
258.114044 -610.755981 -0.000002 0.517052
nan nan nan 0.000000
nan nan nan 0.000000
252.626358 -585.915833 8.081573 1.000000
252.626358 -585.915833 6.957876 1.000000
252.626358 -585.915833 5.845040 1.000000
252.626358 -585.915833 4.740554 1.000000
252.626358 -585.915833 3.641981 1.000000
252.626358 -585.915833 2.546936 1.000000
252.626358 -585.915833 1.453064 1.000000
252.626358 -585.915833 0.358019 1.000000
254.594009 -594.730652 0.000010 0.337911
256.120361 -601.568665 -0.000011 0.534752
256.970520 -605.377197 -0.000007 0.527138
257.513245 -607.808655 -0.000005 0.531350
257.890472 -609.498596 -0.000003 0.528161
258.168396 -610.743652 -0.000002 0.550225
nan nan nan 0.000000
nan nan nan 0.000000
252.818329 -585.699341 8.112560 1.000000
252.818329 -585.699341 6.983140 1.000000
252.818329 -585.699341 5.864631 1.000000
252.818329 -585.699341 4.754517 1.000000
252.818329 -585.699341 3.650348 1.000000
252.818329 -585.699341 2.549723 1.000000
252.818329 -585.699341 1.450277 1.000000
252.818329 -585.699341 0.349652 1.000000
254.760330 -594.694153 0.000011 0.338201
256.238922 -601.542603 -0.000011 0.541863
257.062439 -605.357056 -0.000007 0.535485
257.588196 -607.792175 -0.000005 0.535668
257.953613 -609.484741 -0.000003 0.560678
258.222839 -610.731689 -0.000002 0.548592
nan nan nan 0.000000
nan nan nan 0.000000
253.012283 -585.480591 8.144167 1.000000
253.012283 -585.480591 7.008906 1.000000
253.012283 -585.480591 5.884616 1.000000
253.012283 -585.480591 4.768760 1.000000
253.012283 -585.480591 3.658880 1.000000
253.012268 -585.480591 2.552566 1.000000
253.012268 -585.480591 1.447434 1.000000
253.012268 -585.480591 0.341118 1.000000
254.926895 -594.658813 0.000012 0.336934
256.357635 -601.517456 -0.000011 0.546044
257.154510 -605.337463 -0.000007 0.517052
257.663269 -607.776245 -0.000004 0.533867
258.016846 -609.471313 -0.000003 0.540429
258.277374 -610.720093 -0.000002 0.576883
nan nan nan 0.000000
nan nan nan 0.000000
253.208252 -585.259583 8.176407 1.000000
253.208252 -585.259583 7.035188 1.000000
253.208252 -585.259521 5.904999 1.000000
253.208252 -585.259583 4.783287 1.000000
253.208252 -585.259521 3.667584 1.000000
253.208252 -585.259521 2.555464 1.000000
253.208252 -585.259521 1.444535 1.000000
253.208252 -585.259521 0.332414 1.000000
255.093719 -594.624634 0.000012 0.338720
256.476532 -601.493042 -0.000010 0.546899
257.246735 -605.318604 -0.000007 0.523674
257.738434 -607.760864 -0.000005 0.560159
258.080200 -609.458313 -0.000003 0.554910
258.331970 -610.708923 -0.000002 0.562264
nan nan nan 0.000000
nan nan nan 0.000000
253.406296 -585.036194 8.209288 1.000000
253.406296 -585.036194 7.061994 1.000000
253.406296 -585.036194 5.925787 1.000000
253.406296 -585.036194 4.798105 1.000000
253.406296 -585.036194 3.676464 1.000000
253.406296 -585.036194 2.558422 1.000000
253.406296 -585.036194 1.441578 1.000000
253.406296 -585.036194 0.323536 1.000000
255.260773 -594.591614 0.000013 0.337774
256.595612 -601.469543 -0.000011 0.539651
257.339081 -605.300354 -0.000007 0.520470
257.813721 -607.745972 -0.000004 0.535760
258.143616 -609.445801 -0.000003 0.526146
258.386658 -610.698120 -0.000002 0.510948
nan nan nan 0.000000
nan nan nan 0.000000
253.606476 -584.810425 8.242828 1.000000
253.606476 -584.810425 7.089337 1.000000
253.606476 -584.810425 5.946993 1.000000
253.606476 -584.810425 4.813220 1.000000
253.606476 -584.810425 3.685519 1.000000
253.606476 -584.810425 2.561439 1.000000
253.606476 -584.810425 1.438561 1.000000
253.606476 -584.810425 0.314481 1.000000
255.428055 -594.559753 0.000014 0.339254
256.714844 -601.446838 -0.000010 0.545815
257.431549 -605.282715 -0.000007 0.522728
257.889099 -607.731628 -0.000004 0.569055
258.207123 -609.433655 -0.000003 0.515862
258.441406 -610.687683 -0.000001 0.569696
nan nan nan 0.000000
nan nan nan 0.000000
253.808838 -584.582214 8.277040 1.000000
253.808838 -584.582214 7.117227 1.000000
253.808838 -584.582214 5.968624 1.000000
253.808838 -584.582214 4.828637 1.000000
253.808838 -584.582214 3.694756 1.000000
253.808838 -584.582214 2.564515 1.000000
253.808838 -584.582214 1.435485 1.000000
253.808838 -584.582153 0.305244 1.000000
255.595551 -594.529114 0.000015 0.338552
256.834229 -601.424927 -0.000010 0.548440
257.524139 -605.265747 -0.000007 0.535439
257.964569 -607.717773 -0.000004 0.479942
258.270721 -609.422058 -0.000002 0.551858
258.496246 -610.677612 -0.000001 0.500557
nan nan nan 0.000000
nan nan nan 0.000000
254.013428 -584.351440 8.311939 1.000000
254.013428 -584.351440 7.145678 1.000000
254.013428 -584.351440 5.990687 1.000000
254.013428 -584.351440 4.844364 1.000000
254.013428 -584.351440 3.704177 1.000000
254.013428 -584.351440 2.567653 1.000000
254.013428 -584.351440 1.432347 1.000000
254.013428 -584.351440 0.295821 1.000000
255.763260 -594.499573 0.000016 0.337713
256.953766 -601.403931 -0.000010 0.531594
257.616852 -605.249451 -0.000006 0.536019
258.040161 -607.704468 -0.000004 0.534874
258.334381 -609.410828 -0.000002 0.545419
258.551147 -610.667969 -0.000001 0.574685
nan nan nan 0.000000
nan nan nan 0.000000
254.220337 -584.118103 8.347538 1.000000
254.220337 -584.118103 7.174699 1.000000
254.220337 -584.118103 6.013195 1.000000
254.220337 -584.118103 4.860406 1.000000
254.220337 -584.118103 3.713789 1.000000
254.220337 -584.118103 2.570855 1.000000
254.220337 -584.118103 1.429144 1.000000
254.220337 -584.118103 0.286210 1.000000
255.931168 -594.471252 0.000016 0.336751
257.073425 -601.383728 -0.000009 0.535882
257.709656 -605.233765 -0.000006 0.548638
258.115814 -607.691711 -0.000004 0.525490
258.398132 -609.400085 -0.000002 0.557733
258.606110 -610.658691 -0.000001 0.529625
nan nan nan 0.000000
nan nan nan 0.000000
254.429596 -583.882080 8.383854 1.000000
254.429596 -583.882080 7.204307 1.000000
254.429596 -583.882080 6.036155 1.000000
254.429596 -583.882080 4.876771 1.000000
254.429596 -583.882080 3.723594 1.000000
254.429581 -583.882080 2.574121 1.000000
254.429581 -583.882080 1.425879 1.000000
254.429581 -583.882080 0.276404 1.000000
256.099274 -594.444092 0.000018 0.339620
257.193268 -601.364319 -0.000009 0.541497
257.802582 -605.218750 -0.000006 0.523110
258.191559 -607.679443 -0.000004 0.527504
258.461945 -609.389771 -0.000002 0.541131
258.661133 -610.649780 -0.000001 0.548821
nan nan nan 0.000000
nan nan nan 0.000000
254.641266 -583.643372 8.420904 1.000000
254.641266 -583.643372 7.234508 1.000000
254.641266 -583.643372 6.059579 1.000000
254.641266 -583.643311 4.893467 1.000000
254.641266 -583.643372 3.733597 1.000000
254.641266 -583.643311 2.577453 1.000000
254.641266 -583.643311 1.422547 1.000000
254.641266 -583.643311 0.266402 1.000000
256.267548 -594.418091 0.000019 0.339178
257.313202 -601.345825 -0.000010 0.544396
257.895599 -605.204346 -0.000006 0.538735
258.267395 -607.667725 -0.000004 0.548135
258.525818 -609.379883 -0.000002 0.538460
258.716217 -610.641296 -0.000001 0.519814
nan nan nan 0.000000
nan nan nan 0.000000
254.855423 -583.401794 8.458702 1.000000
254.855423 -583.401794 7.265322 1.000000
254.855423 -583.401794 6.083477 1.000000
254.855423 -583.401794 4.910500 1.000000
254.855423 -583.401794 3.743802 1.000000
254.855423 -583.401794 2.580852 1.000000
254.855423 -583.401794 1.419147 1.000000
254.855423 -583.401794 0.256196 1.000000
256.436035 -594.393250 0.000019 0.337102
257.433289 -601.328125 -0.000009 0.549615
257.988708 -605.190674 -0.000006 0.533639
258.343323 -607.656555 -0.000003 0.510353
258.589783 -609.370422 -0.000002 0.559655
258.771362 -610.633179 -0.000001 0.536217
nan nan nan 0.000000
nan nan nan 0.000000
255.072128 -583.157410 8.497266 1.000000
255.072128 -583.157410 7.296761 1.000000
255.072128 -583.157410 6.107859 1.000000
255.072128 -583.157410 4.927877 1.000000
255.072128 -583.157410 3.754216 1.000000
255.072128 -583.157410 2.584321 1.000000
255.072128 -583.157410 1.415679 1.000000
255.072128 -583.157410 0.245784 1.000000
256.604675 -594.369629 0.000020 0.338277
257.553467 -601.311279 -0.000009 0.533639
258.081940 -605.177612 -0.000006 0.514763
258.419312 -607.645874 -0.000003 0.523537
258.653809 -609.361450 -0.000002 0.548699
258.826569 -610.625427 -0.000001 0.519844
nan nan nan 0.000000
nan nan nan 0.000000
255.291443 -582.910034 8.536614 1.000000
255.291443 -582.910034 7.328839 1.000000
255.291443 -582.910034 6.132738 1.000000
255.291443 -582.910034 4.945610 1.000000
255.291443 -582.910034 3.764838 1.000000
255.291443 -582.910034 2.587860 1.000000
255.291443 -582.910034 1.412140 1.000000
255.291443 -582.910034 0.235161 1.000000
256.773468 -594.347168 0.000021 0.335058
257.673767 -601.295227 -0.000009 0.527977
