# This PCD file was generated using the MATLABÂ® pcwrite function
# from Computer Vision System ToolboxÂ®.
# .PCD v.7 - Point Cloud Data file format
VERSION .7
FIELDS x y z intensity
SIZE 4 4 4 4
TYPE F F F F
COUNT 1 1 1 1
WIDTH 1192
HEIGHT 1
VIEWPOINT 0 0 0 1 0 0 0
POINTS 1192
DATA ascii
283.443787 150.600098 0.431241 0.677943
283.443787 150.600098 0.166241 0.768521
283.968872 151.639099 0.000030 0.463508
285.117065 153.911102 0.000029 0.451240
285.995850 155.650009 0.000028 0.440970
286.690338 157.024170 0.000027 0.424170
287.253113 158.137802 0.000026 0.445441
287.718597 159.058868 0.000026 0.509941
288.110107 159.833572 0.000025 0.480735
288.444092 160.494446 0.000025 0.455817
288.732452 161.065063 0.000024 0.443900
288.984039 161.562866 0.000023 0.461357
289.205505 162.001099 0.000023 0.339406
289.402039 162.389999 0.000023 0.443076
289.577698 162.737549 0.000023 0.514305
289.735657 163.050110 0.000022 0.453117
283.220947 150.600098 6.906548 0.640436
283.180725 150.522446 6.645850 0.517174
283.138153 150.440186 6.385757 0.502525
283.138153 150.440186 6.104505 0.533547
283.138153 150.440186 5.824864 0.631128
283.138153 150.440186 5.546725 0.676692
283.220947 150.600098 5.237821 0.491051
283.220947 150.600098 4.964796 0.525261
283.220947 150.600098 4.692949 0.524269
283.220947 150.600098 4.422178 0.546761
283.220947 150.600098 4.152385 0.516930
283.220947 150.600098 3.883475 0.522087
283.220947 150.600098 3.615351 0.481437
283.220947 150.600098 3.347916 0.483452
283.220947 150.600098 3.081077 0.646723
283.220947 150.600098 2.814743 0.717525
283.220947 150.600098 2.548820 0.651438
283.220947 150.600098 2.283215 0.719890
283.220947 150.600098 2.017838 0.655955
283.220947 150.600098 1.752598 0.724880
283.220947 150.600098 1.487402 0.624170
283.220947 150.600098 1.222162 0.730007
283.220947 150.600098 0.956785 0.651164
283.220947 150.600098 0.691180 0.754574
283.220947 150.600098 0.425257 0.726665
283.220947 150.600098 0.158922 0.708583
283.802856 151.724030 0.000031 0.448096
284.973328 153.984650 0.000029 0.473945
285.869141 155.714844 0.000028 0.444022
286.577057 157.082123 0.000028 0.489677
287.150757 158.190170 0.000027 0.504555
287.625244 159.106613 0.000026 0.428244
288.024353 159.877441 0.000026 0.444144
288.364807 160.535019 0.000025 0.371649
288.658752 161.102753 0.000025 0.409583
288.915222 161.598068 0.000024 0.430838
289.140991 162.034119 0.000023 0.441932
289.341339 162.421066 0.000023 0.459968
289.520355 162.766861 0.000023 0.558236
289.681396 163.077866 0.000023 0.382605
282.995819 150.600098 6.933814 0.594278
282.995819 150.600098 6.650058 0.656596
282.995819 150.600098 6.368130 0.642832
282.995819 150.600098 6.087917 0.661021
282.995819 150.600098 5.809312 0.663310
282.995819 150.600098 5.532202 0.632044
282.995819 150.600098 5.256481 0.660044
282.995819 150.600098 4.982048 0.593759
282.995819 150.600098 4.708799 0.671534
282.995819 150.600098 4.436630 0.677302
282.995819 150.600098 4.165446 0.647059
282.995819 150.600098 3.895149 0.709804
282.995819 150.600098 3.625642 0.706981
282.995819 150.600098 3.356828 0.678431
282.995819 150.600098 3.088613 0.549020
282.995819 150.600098 2.820906 0.628275
282.995819 150.600098 2.553610 0.532479
282.995819 150.600098 2.286636 0.664744
282.995819 150.600098 2.019890 0.508644
282.995819 150.600098 1.753282 0.675395
282.995819 150.600098 1.486718 0.610452
282.995819 150.600098 1.220109 0.678431
282.995819 150.600098 0.953364 0.617838
282.995819 150.600098 0.686389 0.690196
282.995819 150.600098 0.419094 0.605249
282.995819 150.600098 0.151386 0.629084
283.637695 151.810577 0.000032 0.441337
284.830292 154.059601 0.000030 0.394003
285.743042 155.780930 0.000029 0.475364
286.464355 157.141190 0.000028 0.475807
287.048920 158.243546 0.000027 0.465934
287.532379 159.155289 0.000027 0.422904
287.939026 159.922150 0.000026 0.468742
288.285919 160.576355 0.000026 0.481346
288.585449 161.141190 0.000026 0.440879
288.846741 161.633957 0.000025 0.453285
289.076782 162.067764 0.000024 0.412436
289.280914 162.452728 0.000024 0.446403
289.463348 162.796753 0.000023 0.339925
289.627411 163.106155 0.000023 0.441855
282.768341 150.600098 6.961882 0.541527
282.768341 150.600098 6.676626 0.501183
282.768341 150.600098 6.393209 0.561456
282.768341 150.600098 6.111516 0.629068
282.768341 150.600098 5.831439 0.622217
282.768341 150.600098 5.552864 0.647059
282.768341 150.600098 5.275689 0.647013
282.768341 150.600098 4.999804 0.678431
282.768341 150.600098 4.725113 0.678431
282.768341 150.600098 4.451507 0.647059
282.768341 150.600098 4.178891 0.646143
282.768341 150.600098 3.907167 0.677577
282.768341 150.600098 3.636235 0.654841
282.768341 150.600098 3.366002 0.616419
282.768341 150.600098 3.096371 0.564874
282.768341 150.600098 2.827249 0.694377
282.768341 150.600098 2.558542 0.586969
282.768341 150.600098 2.290157 0.675944
282.768341 150.600098 2.022002 0.611948
282.768341 150.600098 1.753985 0.721065
282.768341 150.600098 1.486014 0.565805
282.768341 150.600098 1.217997 0.647059
282.768341 150.600098 0.949843 0.522774
282.768341 150.600098 0.681458 0.683482
282.768341 150.600098 0.412751 0.643519
282.768341 150.600098 0.143629 0.661555
283.473389 151.898743 0.000032 0.448066
284.687988 154.135956 0.000031 0.413703
285.617615 155.848236 0.000030 0.423987
286.352264 157.201340 0.000029 0.447349
286.947601 158.297913 0.000028 0.441596
287.440002 159.204865 0.000027 0.367681
287.854156 159.967697 0.000027 0.390921
288.207458 160.618469 0.000026 0.451514
288.512512 161.180328 0.000026 0.552377
288.778625 161.670517 0.000026 0.569909
289.012909 162.102036 0.000025 0.450782
289.220795 162.484970 0.000024 0.445060
289.406616 162.827194 0.000024 0.322026
289.573700 163.134979 0.000024 0.393484
282.538422 150.600098 6.990765 0.634562
282.538422 150.600098 6.703968 0.619883
282.538422 150.600098 6.419017 0.626993
282.538422 150.600098 6.135804 0.550118
282.538422 150.600098 5.854211 0.414069
282.538422 150.600098 5.574131 0.477424
282.538422 150.600098 5.295455 0.418280
282.538422 150.600098 5.018080 0.678431
282.538422 150.600098 4.741903 0.678431
282.538422 150.600098 4.466817 0.678431
282.538422 150.600098 4.192728 0.665934
282.538422 150.600098 3.919532 0.681682
282.538422 150.600098 3.647137 0.678431
282.538422 150.600098 3.375443 0.678431
282.538422 150.600098 3.104353 0.618997
282.538422 150.600098 2.833776 0.736522
282.538422 150.600098 2.563617 0.613046
282.538422 150.600098 2.293780 0.709804
282.538422 150.600098 2.024175 0.546792
282.538422 150.600098 1.754710 0.707301
282.538422 150.600098 1.485290 0.591241
282.538422 150.600098 1.215824 0.741176
282.538422 150.600098 0.946219 0.597574
282.538422 150.600098 0.676384 0.722637
282.538422 150.600098 0.406223 0.727947
282.538422 150.600098 0.135646 0.730144
283.309967 151.988525 0.000033 0.465354
284.546478 154.213699 0.000032 0.404501
285.492859 155.916763 0.000030 0.440253
286.240723 157.262604 0.000030 0.398413
286.846802 158.353271 0.000029 0.394507
287.348083 159.255341 0.000028 0.374228
287.769714 160.014084 0.000028 0.514076
288.129395 160.661346 0.000027 0.439811
288.439941 161.220184 0.000027 0.366400
288.710876 161.707733 0.000026 0.389181
288.949371 162.136932 0.000026 0.470893
289.161041 162.517822 0.000025 0.494774
289.350189 162.858200 0.000025 0.421714
289.520294 163.164322 0.000024 0.524453
282.305969 150.600098 7.020488 0.459297
282.305969 150.600098 6.732103 0.534279
282.306000 150.600098 6.445577 0.484108
282.305969 150.600098 6.160794 0.601267
282.305969 150.600098 5.877645 0.668833
282.305969 150.600098 5.596013 0.623102
282.305969 150.600098 5.315796 0.439994
282.305969 150.600098 5.036886 0.428702
282.305969 150.600098 4.759179 0.389364
282.305969 150.600098 4.482573 0.438819
282.305969 150.600098 4.206966 0.678431
282.305969 150.600098 3.932259 0.595148
282.305969 150.600098 3.658356 0.580392
282.306000 150.600098 3.385157 0.614694
282.305969 150.600098 3.112568 0.609491
282.305969 150.600098 2.840494 0.750408
282.305969 150.600098 2.568839 0.532906
282.305969 150.600098 2.297510 0.651469
282.305969 150.600098 2.026412 0.499870
282.305969 150.600098 1.755455 0.589700
282.305969 150.600098 1.484545 0.640650
282.305969 150.600098 1.213587 0.689219
282.305969 150.600098 0.942490 0.544991
282.305969 150.600098 0.671161 0.656413
282.305969 150.600098 0.399506 0.698039
282.305969 150.600098 0.127432 0.728222
283.147430 152.079910 0.000033 0.467399
284.405731 154.292831 0.000032 0.421805
285.368774 155.986526 0.000031 0.472496
286.129822 157.324951 0.000031 0.435203
286.746582 158.409622 0.000030 0.409125
287.256683 159.306732 0.000029 0.406882
287.685760 160.061295 0.000028 0.424765
288.051758 160.704987 0.000028 0.424613
288.367767 161.260757 0.000027 0.470314
288.643463 161.745605 0.000026 0.429435
288.886200 162.172455 0.000026 0.509087
289.101563 162.551239 0.000026 0.440452
289.294037 162.889755 0.000025 0.459693
289.467163 163.194183 0.000025 0.322744
282.070923 150.600098 7.051066 0.678431
282.070923 150.600098 6.761049 0.648096
282.070923 150.600098 6.472900 0.487739
282.070923 150.600098 6.186505 0.463340
282.070923 150.600098 5.901752 0.498131
282.070923 150.600098 5.618526 0.626322
282.070923 150.600098 5.336722 0.601572
282.070923 150.600098 5.056234 0.678431
282.070923 150.600098 4.776954 0.494789
282.070923 150.600098 4.498780 0.448875
282.070923 150.600098 4.221613 0.440986
282.070923 150.600098 3.945352 0.454170
282.070923 150.600098 3.669897 0.396658
282.070923 150.600098 3.395152 0.456001
282.070923 150.600098 3.121019 0.583520
282.070923 150.600098 2.847404 0.671824
282.070923 150.600098 2.574211 0.547768
282.070923 150.600098 2.301346 0.578851
282.070923 150.600098 2.028714 0.575113
282.070923 150.600098 1.756222 0.707988
282.070923 150.600098 1.483777 0.576837
282.070923 150.600098 1.211286 0.661524
282.070923 150.600098 0.938654 0.630533
282.070923 150.600098 0.665789 0.687587
282.070923 150.600098 0.392596 0.692836
282.070923 150.600098 0.118980 0.711604
282.985779 152.172882 0.000034 0.433753
284.265747 154.373337 0.000033 0.407568
285.245392 156.057495 0.000032 0.458579
286.019531 157.388397 0.000031 0.437232
286.646912 158.466949 0.000030 0.446876
287.165802 159.359009 0.000030 0.503212
287.602234 160.109314 0.000029 0.426001
287.974548 160.749390 0.000028 0.350408
288.296021 161.302032 0.000028 0.535775
288.576477 161.784164 0.000027 0.406775
288.823364 162.208603 0.000027 0.474327
289.042450 162.585251 0.000026 0.440803
289.238251 162.921860 0.000026 0.485344
289.414337 163.224579 0.000026 0.384726
281.833191 150.600098 7.082524 0.571603
281.833191 150.600098 6.790827 0.678431
281.833191 150.600098 6.501008 0.709804
281.833191 150.600098 6.212955 0.678431
281.833191 150.600098 5.926551 0.434714
281.833191 150.600098 5.641687 0.556985
281.833191 150.600098 5.358250 0.597208
281.833191 150.600098 5.076137 0.678431
281.833191 150.600098 4.795240 0.678431
281.833191 150.600098 4.515455 0.647059
281.833191 150.600098 4.236683 0.547768
281.833191 150.600098 3.958820 0.543999
281.833191 150.600098 3.681771 0.532998
281.833191 150.600098 3.405434 0.532097
281.833191 150.600098 3.129713 0.600717
281.833191 150.600098 2.854513 0.749325
281.833191 150.600098 2.579738 0.568200
281.833191 150.600098 2.305292 0.690608
281.833191 150.600098 2.031081 0.524666
281.833191 150.600098 1.757012 0.691783
281.833191 150.600098 1.482988 0.612039
281.833191 150.600098 1.208919 0.698039
281.833191 150.600098 0.934708 0.634073
281.833191 150.600098 0.660262 0.656733
281.833191 150.600098 0.385486 0.690196
281.833191 150.600098 0.110286 0.726848
282.825073 152.267426 0.000035 0.451423
284.126587 154.455231 0.000034 0.423880
285.122711 156.129684 0.000033 0.424720
285.909882 157.452911 0.000031 0.422080
286.547821 158.525253 0.000031 0.440131
287.075439 159.412170 0.000030 0.389593
287.519226 160.158157 0.000029 0.470039
287.897797 160.794556 0.000029 0.437232
288.224670 161.344009 0.000028 0.492683
288.509827 161.823364 0.000028 0.435325
288.760864 162.245361 0.000028 0.490791
288.983643 162.619843 0.000027 0.364889
289.182739 162.954498 0.000027 0.601938
289.361786 163.255478 0.000026 0.379705
281.592651 150.600098 7.114882 0.678431
281.592651 150.600098 6.821456 0.404990
281.592651 150.600098 6.529921 0.686275
281.592651 150.600098 6.240161 0.702937
281.592651 150.600098 5.952060 0.717403
281.592651 150.600098 5.665508 0.560143
281.592651 150.600098 5.380392 0.549111
281.592651 150.600098 5.096609 0.660685
281.592651 150.600098 4.814048 0.662989
281.592651 150.600098 4.532606 0.705577
281.592651 150.600098 4.252182 0.701961
281.592651 150.600098 3.972674 0.709804
281.592651 150.600098 3.693983 0.722972
281.592651 150.600098 3.416010 0.550393
281.592651 150.600098 3.138656 0.571969
281.592651 150.600098 2.861826 0.680888
281.592651 150.600098 2.585423 0.567773
281.592651 150.600098 2.309351 0.651301
281.592651 150.600098 2.033516 0.507012
281.592651 150.600098 1.757823 0.685908
281.592651 150.600098 1.482177 0.555581
281.592651 150.600098 1.206483 0.655024
281.592651 150.600098 0.930648 0.506523
281.592651 150.600098 0.654577 0.652369
281.592651 150.600098 0.378174 0.669612
281.592651 150.600098 0.101344 0.674510
282.665283 152.363556 0.000036 0.452354
283.988220 154.538467 0.000034 0.436576
285.000732 156.203064 0.000033 0.452873
285.800842 157.518494 0.000032 0.462150
286.449280 158.584534 0.000031 0.488609
286.985596 159.466217 0.000031 0.498833
287.436676 160.207825 0.000030 0.430488
287.821503 160.840454 0.000030 0.412116
288.153748 161.386673 0.000029 0.541436
288.443604 161.863205 0.000029 0.496422
288.698761 162.282730 0.000028 0.440070
288.925201 162.654999 0.000028 0.458869
289.127563 162.987686 0.000027 0.392370
289.309570 163.286896 0.000027 0.589105
281.349213 150.600098 7.148160 0.512169
281.349213 150.600098 6.852956 0.669612
281.349213 150.600098 6.559656 0.653284
281.349213 150.600098 6.268141 0.491859
281.349213 150.600098 5.978297 0.578225
281.349213 150.600098 5.690009 0.677577
281.349213 150.600098 5.403167 0.672389
281.349213 150.600098 5.117663 0.605585
281.349213 150.600098 4.833392 0.559503
281.349213 150.600098 4.550246 0.611673
281.349213 150.600098 4.268123 0.508583
281.349213 150.600098 3.986923 0.703670
281.349213 150.600098 3.706544 0.648096
281.349213 150.600098 3.426887 0.678431
281.349213 150.600098 3.147854 0.565927
281.349213 150.600098 2.869346 0.674220
281.349213 150.600098 2.591270 0.545983
281.349213 150.600098 2.313526 0.673045
281.349213 150.600098 2.036020 0.488792
281.349213 150.600098 1.758657 0.589990
281.349213 150.600098 1.481342 0.574090
281.349213 150.600098 1.203979 0.657252
281.349213 150.600098 0.926474 0.486992
281.349213 150.600098 0.648730 0.644602
281.349213 150.600098 0.370653 0.673747
281.349213 150.600098 0.092146 0.610178
282.506470 152.461243 0.000036 0.429923
283.850677 154.623062 0.000035 0.406821
284.879486 156.277634 0.000034 0.451102
285.692474 157.585159 0.000033 0.430350
286.351349 158.644775 0.000032 0.436866
286.896271 159.521149 0.000031 0.464225
287.354614 160.258286 0.000031 0.410346
287.745636 160.887115 0.000031 0.464195
288.083221 161.430054 0.000030 0.411490
288.377747 161.903717 0.000029 0.489693
288.637024 162.320694 0.000028 0.454002
288.867096 162.690735 0.000028 0.531853
289.072723 163.021423 0.000028 0.473106
289.257660 163.318832 0.000028 0.362142
281.102783 150.600098 7.182384 0.678798
281.102783 150.600098 6.885353 0.551049
281.102783 150.600098 6.590236 0.580560
281.102783 150.600098 6.296918 0.709804
281.102783 150.600098 6.005278 0.608057
281.102783 150.600098 5.715206 0.532891
281.102783 150.600098 5.426588 0.678279
281.102783 150.600098 5.139317 0.672358
281.102783 150.600098 4.853285 0.636301
281.102783 150.600098 4.568385 0.609674
281.102783 150.600098 4.284516 0.580301
281.102783 150.600098 4.001575 0.462852
281.102783 150.600098 3.719461 0.540917
281.102783 150.600098 3.438073 0.678431
281.102783 150.600098 3.157312 0.602594
281.102783 150.600098 2.877082 0.745861
281.102783 150.600098 2.597283 0.616449
281.102783 150.600098 2.317819 0.688060
281.102783 150.600098 2.038595 0.605234
281.102783 150.600098 1.759516 0.731579
281.102783 150.600098 1.480484 0.590768
281.102783 150.600098 1.201404 0.705821
281.102783 150.600098 0.922180 0.570031
281.102783 150.600098 0.642717 0.687083
281.102783 150.600098 0.362918 0.718654
281.102783 150.600098 0.082688 0.675624
282.348602 152.560486 0.000037 0.429557
283.713959 154.709015 0.000035 0.475929
284.758972 156.353409 0.000034 0.413794
285.584778 157.652878 0.000033 0.504921
286.253998 158.705963 0.000033 0.400412
286.807526 159.576965 0.000032 0.407950
287.273071 160.309555 0.000031 0.441978
287.670227 160.934525 0.000031 0.506676
288.013123 161.474106 0.000030 0.558022
288.312286 161.944855 0.000030 0.426703
288.575653 162.359283 0.000029 0.422415
288.809357 162.727036 0.000029 0.338247
289.018219 163.055695 0.000029 0.532418
289.206055 163.351273 0.000028 0.392996
280.853271 150.600098 7.217575 0.543832
280.853271 150.600098 6.918666 0.709804
280.853271 150.600098 6.621682 0.652506
280.853271 150.600098 6.326508 0.556558
280.853271 150.600098 6.033021 0.637385
280.853271 150.600098 5.741114 0.673075
280.853271 150.600098 5.450671 0.542275
280.853271 150.600098 5.161582 0.599802
280.853271 150.600098 4.873741 0.589563
280.853271 150.600098 4.587040 0.707134
280.853271 150.600098 4.301375 0.659251
280.853271 150.600098 4.016644 0.551415
280.853271 150.600098 3.732744 0.558343
280.853271 150.600098 3.449576 0.577203
280.853271 150.600098 3.167038 0.658808
280.853271 150.600098 2.885035 0.759075
280.853271 150.600098 2.603466 0.659800
280.853271 150.600098 2.322234 0.776471
280.853271 150.600098 2.041244 0.629801
280.853271 150.600098 1.760399 0.762127
280.853271 150.600098 1.479601 0.682231
280.853271 150.600098 1.198755 0.807843
280.853271 150.600098 0.917765 0.696422
280.853271 150.600098 0.636534 0.788754
280.853271 150.600098 0.354965 0.762127
280.853271 150.600098 0.072961 0.719478
282.191711 152.661285 0.000037 0.462333
283.578125 154.796280 0.000036 0.453956
284.639191 156.430344 0.000035 0.438911
285.477722 157.721649 0.000034 0.454276
286.157257 158.768112 0.000033 0.417441
286.719299 159.633636 0.000032 0.401389
287.192017 160.361633 0.000032 0.481041
287.595306 160.982651 0.000032 0.479606
287.943481 161.518860 0.000031 0.378393
288.247253 161.986649 0.000030 0.365377
288.514679 162.398468 0.000030 0.544778
288.751984 162.763901 0.000030 0.436423
288.964050 163.090500 0.000029 0.403113
289.154785 163.384216 0.000029 0.558709
280.600555 150.600098 7.253762 0.678431
280.600555 150.600098 6.952920 0.525490
280.600555 150.600098 6.654017 0.613016
280.600555 150.600098 6.356932 0.677928
280.600555 150.600098 6.061551 0.543008
280.600555 150.600098 5.767756 0.588052
280.600555 150.600098 5.475435 0.678431
280.600555 150.600098 5.184477 0.585077
280.600555 150.600098 4.894775 0.540093
280.600555 150.600098 4.606220 0.628244
280.600555 150.600098 4.318709 0.678431
280.600555 150.600098 4.032136 0.611704
280.600555 150.600098 3.746402 0.567285
280.600555 150.600098 3.461403 0.498054
280.600555 150.600098 3.177040 0.650095
280.600555 150.600098 2.893212 0.644846
280.600555 150.600098 2.609823 0.598596
280.600555 150.600098 2.326774 0.670253
280.600555 150.600098 2.043967 0.508858
280.600555 150.600098 1.761307 0.647334
280.600555 150.600098 1.478693 0.604181
280.600555 150.600098 1.196032 0.684245
280.600555 150.600098 0.913226 0.619058
280.600555 150.600098 0.630176 0.683619
280.600555 150.600098 0.346787 0.622614
280.600555 150.600098 0.062960 0.657923
282.035828 152.763611 0.000038 0.455879
283.443115 154.884903 0.000037 0.433051
284.520203 156.508453 0.000036 0.390280
285.371368 157.791458 0.000035 0.445548
286.061157 158.831207 0.000034 0.424750
286.631653 159.691177 0.000033 0.472770
287.111511 160.414490 0.000033 0.385580
287.520844 161.031525 0.000032 0.416556
287.874298 161.564285 0.000032 0.432303
288.182617 162.029068 0.000031 0.518425
288.454071 162.438232 0.000030 0.386191
288.694946 162.801331 0.000030 0.459510
288.910217 163.125824 0.000030 0.561090
289.103821 163.417664 0.000029 0.455985
280.344513 150.600098 7.290970 0.557595
280.344513 150.600098 6.988141 0.616434
280.344513 150.600098 6.687264 0.629633
280.344513 150.600098 6.388217 0.572244
280.344513 150.600098 6.090886 0.629877
280.344513 150.600098 5.795149 0.525017
280.344513 150.600098 5.500897 0.519921
280.344513 150.600098 5.208019 0.678431
280.344513 150.600098 4.916404 0.551385
280.344513 150.600098 4.625943 0.504234
280.344513 150.600098 4.336532 0.631464
280.344513 150.600098 4.048068 0.645029
280.344513 150.600098 3.760446 0.592508
280.344513 150.600098 3.473564 0.579675
280.344513 150.600098 3.187323 0.647990
280.344513 150.600098 2.901621 0.690990
280.344513 150.600098 2.616361 0.599634
280.344513 150.600098 2.331442 0.647730
280.344513 150.600098 2.046768 0.580697
280.344513 150.600098 1.762240 0.683543
280.344513 150.600098 1.477760 0.591196
280.344513 150.600098 1.193232 0.656245
280.344513 150.600098 0.908558 0.595712
280.344513 150.600098 0.623639 0.656077
280.344513 150.600098 0.338378 0.686305
280.344513 150.600098 0.052677 0.680354
281.880951 152.867462 0.000039 0.437049
283.309021 154.974823 0.000038 0.485176
284.401978 156.587738 0.000036 0.419974
285.265686 157.862320 0.000035 0.438285
285.965637 158.895248 0.000034 0.462242
286.544556 159.749573 0.000034 0.492424
287.031494 160.468140 0.000033 0.481010
287.446899 161.081131 0.000033 0.420584
287.805542 161.610382 0.000032 0.484627
288.118408 162.072128 0.000032 0.441245
288.393860 162.478607 0.000031 0.565423
288.638306 162.839325 0.000031 0.514611
288.856750 163.161682 0.000030 0.346670
289.053223 163.451599 0.000030 0.451606
280.085052 150.600098 7.329225 0.669871
280.085052 150.600098 7.024354 0.596704
280.085052 150.600098 6.721448 0.678431
280.085052 150.600098 6.420384 0.647059
280.085052 150.600098 6.121047 0.411078
280.085052 150.600098 5.823315 0.620523
280.085052 150.600098 5.527078 0.602762
280.085052 150.600098 5.232224 0.506020
280.085052 150.600098 4.938641 0.676982
280.085052 150.600098 4.646221 0.573831
280.085052 150.600098 4.354858 0.552804
280.085052 150.600098 4.064447 0.629648
280.085052 150.600098 3.774885 0.623194
280.085052 150.600098 3.486068 0.639765
280.085052 150.600098 3.197896 0.699580
280.085052 150.600098 2.910267 0.807843
280.085052 150.600098 2.623082 0.662165
280.085052 150.600098 2.336241 0.757168
280.085052 150.600098 2.049646 0.633921
280.085052 150.600098 1.763199 0.720226
280.085052 150.600098 1.476800 0.660075
280.085052 150.600098 1.190353 0.775647
280.085052 150.600098 0.903758 0.693019
280.085052 150.600098 0.616918 0.724361
280.085052 150.600098 0.329732 0.789212
280.085052 150.600098 0.042103 0.694179
281.727112 152.972824 0.000040 0.464683
283.175781 155.066071 0.000038 0.444327
284.284546 156.668167 0.000037 0.417288
285.160706 157.934219 0.000036 0.508980
285.870789 158.960220 0.000035 0.477760
286.458069 159.808807 0.000035 0.448508
286.952026 160.522568 0.000034 0.451011
287.373413 161.131454 0.000033 0.397925
287.737244 161.657166 0.000033 0.452232
288.054626 162.115799 0.000032 0.337499
288.334076 162.519562 0.000032 0.510033
288.582031 162.877869 0.000031 0.459251
288.803619 163.198059 0.000031 0.401144
289.002930 163.486038 0.000031 0.420279
279.822021 150.600098 7.368563 0.655329
279.822021 150.600098 7.061588 0.678431
279.822021 150.600098 6.756596 0.678431
279.822021 150.600098 6.453458 0.643275
279.822021 150.600098 6.152057 0.611765
279.822021 150.600098 5.852275 0.392187
279.822021 150.600098 5.553997 0.647059
279.822021 150.600098 5.257111 0.678431
279.822021 150.600098 4.961506 0.512993
279.822021 150.600098 4.667071 0.678431
279.822021 150.600098 4.373700 0.608576
279.822021 150.600098 4.081289 0.590829
279.822021 150.600098 3.789732 0.590921
279.822021 150.600098 3.498925 0.587747
279.822021 150.600098 3.208767 0.693385
279.822021 150.600098 2.919157 0.647059
279.822021 150.600098 2.629993 0.682857
279.822021 150.600098 2.341177 0.609064
279.822021 150.600098 2.052607 0.572366
279.822021 150.600098 1.764185 0.699458
279.822021 150.600098 1.475814 0.585107
279.822021 150.600098 1.187393 0.670771
279.822021 150.600098 0.898824 0.672251
279.822021 150.600098 0.610007 0.698039
279.822021 150.600098 0.320843 0.657557
279.822021 150.600098 0.031232 0.693294
281.574310 153.079697 0.000040 0.443290
283.043457 155.158615 0.000039 0.428992
284.167877 156.749756 0.000037 0.450889
285.056458 158.007141 0.000036 0.462074
285.776550 159.026123 0.000036 0.514946
286.372131 159.868912 0.000035 0.454139
286.873077 160.577774 0.000034 0.482567
287.300415 161.182495 0.000034 0.462928
287.669403 161.704605 0.000033 0.454551
287.991302 162.160110 0.000033 0.361746
288.274658 162.561111 0.000032 0.409583
288.526123 162.916962 0.000032 0.258305
288.750885 163.234970 0.000031 0.409918
288.952972 163.520966 0.000031 0.429236
279.555328 150.600098 7.409003 0.678431
279.555328 150.600098 7.099871 0.678325
279.555328 150.600098 6.792731 0.677928
279.555328 150.600098 6.487463 0.709804
279.555359 150.600098 6.183940 0.676097
279.555359 150.600098 5.882050 0.678431
279.555359 150.600098 5.581672 0.426825
279.555359 150.600098 5.282698 0.647059
279.555328 150.600098 4.985013 0.678431
279.555328 150.600098 4.688507 0.484169
279.555328 150.600098 4.393072 0.709804
279.555328 150.600098 4.098604 0.676616
279.555359 150.600098 3.804996 0.549584
279.555328 150.600098 3.512143 0.576654
279.555328 150.600098 3.219944 0.660594
279.555328 150.600098 2.928296 0.736126
279.555328 150.600098 2.637099 0.640772
279.555328 150.600098 2.346250 0.690089
279.555328 150.600098 2.055650 0.591211
279.555328 150.600098 1.765200 0.691341
279.555328 150.600098 1.474800 0.601785
279.555328 150.600098 1.184350 0.693385
279.555328 150.600098 0.893750 0.666667
279.555328 150.600098 0.602901 0.638651
279.555328 150.600098 0.311703 0.759548
279.555328 150.600098 0.020056 0.694118
281.422577 153.188065 0.000041 0.445075
282.912048 155.252457 0.000039 0.399130
284.052032 156.832474 0.000038 0.398093
284.952911 158.081070 0.000037 0.459312
285.682983 159.092941 0.000036 0.394064
286.286804 159.929840 0.000036 0.493523
286.794678 160.633759 0.000035 0.474937
287.227936 161.234253 0.000034 0.447929
287.602020 161.752716 0.000034 0.395300
287.928375 162.205032 0.000034 0.522393
288.215668 162.603241 0.000033 0.391318
288.470642 162.956589 0.000033 0.528176
288.698486 163.272385 0.000032 0.444282
288.903381 163.556381 0.000032 0.354604
279.284851 150.600098 7.450583 0.668681
279.284851 150.600098 7.139231 0.678431
279.284851 150.600098 6.829885 0.508873
279.284851 150.600098 6.522424 0.705943
279.284851 150.600098 6.216722 0.670344
279.284851 150.600098 5.912661 0.668864
279.284851 150.600098 5.610127 0.647059
279.284851 150.600098 5.309004 0.514031
279.284851 150.600098 5.009183 0.673625
279.284851 150.600098 4.710547 0.678431
279.284851 150.600098 4.412991 0.485328
279.284851 150.600098 4.116407 0.592157
279.284851 150.600098 3.820690 0.622889
279.284851 150.600098 3.525734 0.590478
279.284851 150.600098 3.231436 0.702892
279.284851 150.600098 2.937693 0.705089
279.284851 150.600098 2.644404 0.674601
279.284851 150.600098 2.351466 0.699748
279.284851 150.600098 2.058779 0.594583
279.284851 150.600098 1.766243 0.727352
279.284851 150.600098 1.473757 0.597620
279.284851 150.600098 1.181221 0.659754
279.284851 150.600098 0.888534 0.568627
279.284851 150.600098 0.595596 0.702892
279.284851 150.600098 0.302307 0.705394
279.284851 150.600098 0.008564 0.689921
281.271912 153.297913 0.000041 0.437324
282.781586 155.347580 0.000039 0.457267
283.937012 156.916336 0.000038 0.476356
284.850098 158.156036 0.000038 0.435477
285.590057 159.160675 0.000037 0.467674
286.202087 159.991608 0.000036 0.353079
286.716858 160.690506 0.000036 0.415412
287.155975 161.286713 0.000035 0.426307
287.535126 161.801483 0.000034 0.427466
287.865906 162.250580 0.000034 0.446387
288.157104 162.645935 0.000033 0.457130
288.415527 162.996780 0.000033 0.323796
288.646454 163.310318 0.000032 0.467491
288.854126 163.592285 0.000032 0.556283
279.010406 150.600098 7.493338 0.541146
279.010406 150.600098 7.179700 0.699016
279.010406 150.600082 6.868089 0.625315
279.010406 150.600098 6.558371 0.618021
279.010406 150.600098 6.250428 0.579492
279.010406 150.600098 5.944138 0.596536
279.010406 150.600098 5.639386 0.633951
279.010406 150.600098 5.336055 0.664454
279.010406 150.600098 5.034034 0.457023
279.010406 150.600098 4.733208 0.678431
279.010406 150.600098 4.433470 0.647059
279.010406 150.600098 4.134712 0.500801
279.010406 150.600098 3.836827 0.678431
279.010406 150.600082 3.539709 0.600610
279.010406 150.600082 3.243252 0.683085
279.010406 150.600098 2.947356 0.693980
279.010406 150.600098 2.651916 0.686488
279.010406 150.600098 2.356829 0.701244
279.010406 150.600098 2.061996 0.610056
279.010406 150.600098 1.767316 0.701411
279.010406 150.600098 1.472684 0.626841
279.010406 150.600098 1.178003 0.670039
279.010406 150.600098 0.883170 0.653681
279.010406 150.600098 0.588084 0.656062
279.010406 150.600098 0.292644 0.709560
279.037872 150.636612 0.000043 0.451072
281.122314 153.409225 0.000041 0.435447
282.652039 155.444000 0.000040 0.421683
283.822815 157.001312 0.000039 0.416175
284.748047 158.231995 0.000038 0.435615
285.497833 159.229324 0.000037 0.468528
286.117981 160.054199 0.000037 0.553643
286.639587 160.748016 0.000036 0.446815
287.084534 161.339890 0.000036 0.479026
287.468719 161.850906 0.000035 0.441901
287.803894 162.296738 0.000034 0.346914
288.098969 162.689209 0.000034 0.395789
288.360809 163.037491 0.000033 0.438575
288.594788 163.348755 0.000033 0.576776
288.805237 163.628677 0.000032 0.325963
278.731903 150.600098 7.537294 0.678431
278.731903 150.600082 7.221312 0.525490
278.731903 150.600098 6.907366 0.649119
278.731903 150.600082 6.595332 0.577996
278.731903 150.600098 6.285084 0.657237
278.731903 150.600098 5.976502 0.570901
278.731903 150.600098 5.669468 0.538094
278.731903 150.600098 5.363868 0.666773
278.731903 150.600098 5.059587 0.611765
278.731903 150.600082 4.756509 0.400702
278.731903 150.600098 4.454528 0.678431
278.731903 150.600098 4.153533 0.469947
278.731903 150.600098 3.853419 0.678431
278.731903 150.600098 3.554076 0.666728
278.731903 150.600082 3.255401 0.732113
278.731903 150.600098 2.957290 0.732113
278.731903 150.600098 2.659639 0.693690
278.731903 150.600082 2.362344 0.756374
278.731903 150.600098 2.065304 0.665522
278.731903 150.600098 1.768418 0.723125
278.731903 150.600098 1.471582 0.626749
278.731903 150.600098 1.174695 0.642008
278.731903 150.600098 0.877656 0.728740
278.731903 150.600098 0.580361 0.720348
278.731903 150.600098 0.282710 0.737163
278.862274 150.769989 0.000044 0.438041
280.973816 153.522018 0.000042 0.436576
282.523438 155.541656 0.000041 0.415015
283.709473 157.087418 0.000040 0.411826
284.646729 158.308945 0.000039 0.449302
285.406281 159.298874 0.000038 0.437385
286.034485 160.117630 0.000037 0.379187
286.562866 160.806290 0.000037 0.390967
287.013611 161.393753 0.000036 0.466224
287.402802 161.900986 0.000036 0.475807
287.742340 162.343491 0.000035 0.365377
288.041229 162.733063 0.000034 0.463416
288.306488 163.078751 0.000034 0.510277
288.543518 163.387695 0.000034 0.444755
288.756714 163.665543 0.000033 0.470954
278.449158 150.600082 7.582497 0.678431
278.449158 150.600082 7.264100 0.536858
278.449158 150.600082 6.947756 0.502876
278.449158 150.600082 6.633337 0.678431
278.449158 150.600098 6.320719 0.439765
278.449158 150.600098 6.009781 0.404761
278.449158 150.600098 5.700401 0.656596
278.449158 150.600098 5.392467 0.591653
278.449158 150.600098 5.085861 0.568948
278.449158 150.600082 4.780469 0.506767
278.449158 150.600098 4.476180 0.678431
278.449158 150.600098 4.172887 0.647059
278.449158 150.600082 3.870480 0.360967
278.449158 150.600098 3.568850 0.485863
278.449158 150.600082 3.267894 0.655390
278.449158 150.600082 2.967505 0.696773
278.449158 150.600082 2.667581 0.646036
278.449158 150.600098 2.368015 0.648524
278.449158 150.600098 2.068706 0.581704
278.449158 150.600098 1.769552 0.651652
278.449158 150.600098 1.470448 0.608759
278.449158 150.600098 1.171293 0.678431
278.449158 150.600098 0.871985 0.686519
278.449158 150.600098 0.572420 0.678431
278.449158 150.600082 0.272494 0.682597
278.687988 150.905106 0.000044 0.444114
280.826447 153.636261 0.000043 0.461769
282.395813 155.640594 0.000041 0.430640
283.596954 157.174622 0.000040 0.461479
284.546173 158.386902 0.000039 0.479545
285.315399 159.369324 0.000038 0.459815
285.951599 160.181870 0.000038 0.442084
286.486725 160.865295 0.000037 0.480293
286.943237 161.448318 0.000037 0.481209
287.337372 161.951706 0.000036 0.460060
287.681244 162.390854 0.000035 0.446143
287.983948 162.777466 0.000035 0.431037
288.252563 163.120544 0.000035 0.406714
288.492645 163.427139 0.000034 0.307362
288.708527 163.702881 0.000034 0.505699
278.162018 150.600082 7.628978 0.439811
278.162018 150.600082 7.308098 0.678431
278.162018 150.600082 6.989288 0.608820
278.162018 150.600082 6.672419 0.536736
278.162018 150.600082 6.357364 0.678431
278.162018 150.600082 6.044001 0.621347
278.162018 150.600098 5.732210 0.615839
278.162018 150.600098 5.421875 0.658885
278.162018 150.600098 5.112877 0.596368
278.162018 150.600082 4.805106 0.614466
278.162018 150.600082 4.498446 0.479652
278.162018 150.600082 4.192788 0.678431
278.162018 150.600082 3.888022 0.678431
278.162018 150.600082 3.584042 0.538949
278.162018 150.600082 3.280740 0.756939
278.162018 150.600082 2.978010 0.763836
278.162018 150.600082 2.675747 0.693156
278.162018 150.600082 2.373846 0.740307
278.162018 150.600082 2.072204 0.679408
278.162018 150.600082 1.770717 0.782055
278.162018 150.600082 1.469282 0.726574
278.162018 150.600082 1.167795 0.753491
278.162018 150.600082 0.866153 0.756939
278.162018 150.600082 0.564253 0.704524
278.162018 150.600082 0.261990 0.756848
278.515015 151.041901 0.000045 0.458030
280.680206 153.751938 0.000043 0.424292
282.269165 155.740753 0.000042 0.448722
283.485321 157.262939 0.000041 0.448432
284.446381 158.465820 0.000040 0.389578
285.225220 159.440643 0.000039 0.416968
285.869385 160.246902 0.000039 0.483330
286.411194 160.925064 0.000038 0.525277
286.873383 161.503571 0.000037 0.434852
287.272461 162.003052 0.000036 0.393088
287.620605 162.438812 0.000036 0.392920
287.927094 162.822433 0.000036 0.422827
288.199066 163.162857 0.000035 0.288060
288.442139 163.467087 0.000035 0.427909
288.660736 163.740692 0.000034 0.555108
277.870361 150.600082 7.676775 0.678431
277.870361 150.600082 7.353345 0.499840
277.870361 150.600082 7.031999 0.678431
277.870361 150.600082 6.712608 0.678431
277.870361 150.600082 6.395048 0.534737
277.870361 150.600098 6.079192 0.528817
277.870361 150.600098 5.764921 0.567864
277.870361 150.600098 5.452116 0.509804
277.870361 150.600098 5.140663 0.668376
277.870361 150.600098 4.830441 0.561715
277.870361 150.600098 4.521342 0.672175
277.870361 150.600098 4.213253 0.484276
277.870361 150.600098 3.906064 0.678431
277.870361 150.600082 3.599665 0.478248
277.870361 150.600082 3.293950 0.738445
277.870361 150.600082 2.988812 0.722271
277.870361 150.600082 2.684145 0.731151
277.870361 150.600082 2.379842 0.755978
277.870361 150.600098 2.075801 0.683772
277.870361 150.600098 1.771917 0.729488
277.870361 150.600098 1.468083 0.722576
277.870361 150.600098 1.164199 0.764004
277.870361 150.600082 0.860157 0.709499
277.870361 150.600082 0.555855 0.658427
277.870361 150.600098 0.251188 0.731487
278.343414 151.180405 0.000046 0.438895
280.535095 153.869049 0.000044 0.431922
282.143524 155.842178 0.000042 0.432517
283.374542 157.352341 0.000041 0.458473
284.347351 158.545731 0.000040 0.445167
285.135742 159.512863 0.000040 0.476112
285.787781 160.312759 0.000039 0.417777
286.336212 160.985565 0.000039 0.403265
286.804077 161.559509 0.000038 0.370184
287.208038 162.055054 0.000037 0.393317
287.560455 162.487366 0.000036 0.427115
287.870697 162.867966 0.000036 0.421180
288.145996 163.205688 0.000036 0.410574
288.392029 163.507523 0.000035 0.511818
288.613312 163.778976 0.000035 0.444465
277.574005 150.600082 7.725934 0.694270
277.574005 150.600082 7.399879 0.670970
277.574005 150.600082 7.075923 0.459770
277.573975 150.600082 6.753942 0.678431
277.574005 150.600082 6.433803 0.647059
277.574005 150.600082 6.115384 0.510124
277.574005 150.600082 5.798563 0.553384
277.574005 150.600082 5.483220 0.689708
277.574005 150.600082 5.169236 0.482353
277.574005 150.600082 4.856498 0.635431
277.574005 150.600082 4.544890 0.589761
277.574005 150.600082 4.234301 0.508400
277.574005 150.600082 3.924618 0.668116
277.574005 150.600082 3.615732 0.648096
277.574005 150.600082 3.307536 0.692348
277.574005 150.600082 2.999922 0.685603
277.574005 150.600082 2.692782 0.672419
277.574005 150.600082 2.386010 0.662547
277.574005 150.600082 2.079500 0.682063
277.574005 150.600082 1.773149 0.713970
277.574005 150.600082 1.466850 0.639338
277.574005 150.600082 1.160499 0.613504
277.574005 150.600082 0.853990 0.661936
277.574005 150.600082 0.547218 0.642786
277.574005 150.600082 0.240078 0.687938
278.173187 151.320587 0.000046 0.470542
280.391144 153.987579 0.000044 0.448585
282.018860 155.944824 0.000043 0.438773
283.264679 157.442825 0.000042 0.482155
284.249146 158.626602 0.000041 0.404456
285.046967 159.585953 0.000040 0.414450
285.706848 160.379410 0.000039 0.421912
286.261871 161.046783 0.000039 0.511955
286.735321 161.616119 0.000038 0.378042
287.144135 162.107666 0.000037 0.422934
287.500763 162.536499 0.000037 0.448890
287.814728 162.914032 0.000036 0.504189
288.093353 163.249054 0.000036 0.384176
288.342346 163.548447 0.000036 0.450523
288.566254 163.817703 0.000035 0.405707
277.272736 150.600082 7.776495 0.549935
277.272736 150.600082 7.447740 0.650126
277.272736 150.600082 7.121101 0.637690
277.272736 150.600082 6.796454 0.482322
277.272736 150.600082 6.473665 0.381720
277.272736 150.600098 6.152608 0.619379
277.272736 150.600082 5.833164 0.524300
277.272736 150.600098 5.515209 0.574639
277.272736 150.600098 5.198627 0.678431
277.272736 150.600082 4.883299 0.495933
277.272736 150.600082 4.569111 0.498802
277.272736 150.600098 4.255949 0.709804
277.272736 150.600098 3.943702 0.395041
277.272736 150.600082 3.632259 0.563684
277.272736 150.600082 3.321510 0.690761
277.272736 150.600082 3.011349 0.726925
277.272736 150.600082 2.701665 0.710658
277.272736 150.600082 2.392353 0.721263
277.272736 150.600082 2.083305 0.709743
277.272736 150.600082 1.774418 0.724636
277.272736 150.600082 1.465582 0.672297
277.272736 150.600082 1.156694 0.705394
277.272736 150.600082 0.847647 0.654902
277.272736 150.600082 0.538335 0.681239
277.272736 150.600082 0.228651 0.738720
278.004333 151.462433 0.000047 0.446128
280.248383 154.107513 0.000045 0.453468
281.895233 156.048691 0.000044 0.442817
283.155670 157.534378 0.000042 0.454932
284.151733 158.708450 0.000041 0.454765
284.958923 159.659912 0.000041 0.466819
285.626556 160.446854 0.000040 0.423728
286.188110 161.108749 0.000039 0.452430
286.667145 161.673401 0.000039 0.465965
287.080750 162.160919 0.000038 0.501213
287.441559 162.586227 0.000037 0.398062
287.759216 162.960663 0.000037 0.368368
288.041107 163.292923 0.000037 0.418082
288.293030 163.589859 0.000036 0.339208
288.519592 163.856918 0.000036 0.476448
276.966431 150.600082 7.828506 0.497002
276.966431 150.600082 7.496972 0.573938
276.966431 150.600082 7.167575 0.555795
276.966431 150.600082 6.840184 0.691402
276.966431 150.600082 6.514668 0.709133
276.966431 150.600082 6.190900 0.441733
276.966431 150.600082 5.868756 0.688045
276.966431 150.600082 5.548116 0.677882
276.966431 150.600082 5.228858 0.517601
276.966431 150.600082 4.910866 0.511391
276.966431 150.600082 4.594024 0.707729
276.966431 150.600082 4.278216 0.567697
276.966431 150.600082 3.963333 0.709804
276.966431 150.600082 3.649258 0.674983
276.966431 150.600082 3.335884 0.608667
276.966431 150.600082 3.023103 0.721569
276.966431 150.600082 2.710803 0.743008
276.966431 150.600082 2.398878 0.736889
276.966431 150.600082 2.087219 0.648035
276.966431 150.600082 1.775722 0.709804
276.966431 150.600082 1.464278 0.669795
276.966431 150.600082 1.152780 0.635294
276.966431 150.600082 0.841122 0.741176
276.966431 150.600082 0.529197 0.651865
276.966431 150.600082 0.216897 0.793866
277.836884 151.605911 0.000047 0.409216
280.106781 154.228836 0.000045 0.433783
281.772614 156.153748 0.000044 0.419226
283.047577 157.626999 0.000043 0.428031
284.055115 158.791229 0.000042 0.436149
284.871613 159.734726 0.000041 0.476097
285.546936 160.515076 0.000040 0.452491
286.114960 161.171432 0.000040 0.430137
286.599518 161.731339 0.000039 0.458259
287.017883 162.214783 0.000039 0.472267
287.382874 162.636536 0.000038 0.459739
287.704193 163.007828 0.000038 0.397375
287.989319 163.337311 0.000037 0.369757
288.244141 163.631760 0.000037 0.380392
288.473328 163.896576 0.000036 0.432456
276.654877 150.600082 7.882010 0.622980
276.654877 150.600082 7.547618 0.625467
276.654877 150.600082 7.215384 0.573816
276.654877 150.600082 6.885170 0.557534
276.654877 150.600082 6.556850 0.596414
276.654877 150.600082 6.230292 0.678431
276.654877 150.600082 5.905372 0.528801
276.654877 150.600082 5.581968 0.479912
276.654877 150.600082 5.259960 0.678431
276.654877 150.600082 4.939227 0.668971
276.654877 150.600082 4.619654 0.545068
276.654877 150.600082 4.301125 0.626032
276.654877 150.600082 3.983527 0.647883
276.654877 150.600082 3.666746 0.432410
276.654877 150.600082 3.350672 0.677165
276.654877 150.600082 3.035194 0.671855
276.654877 150.600082 2.720204 0.730877
276.654877 150.600082 2.405590 0.703929
276.654877 150.600082 2.091246 0.689769
276.654877 150.600082 1.777064 0.705333
276.654877 150.600082 1.462936 0.656535
276.654877 150.600082 1.148753 0.735851
276.654877 150.600082 0.834410 0.697063
276.654877 150.600082 0.519797 0.635904
276.654877 150.600082 0.204806 0.719112
277.670837 151.751038 0.000047 0.445747
279.966400 154.351563 0.000046 0.452476
281.651031 156.260025 0.000044 0.434424
282.940399 157.720688 0.000044 0.404105
283.959320 158.874969 0.000043 0.428794
284.785034 159.810394 0.000042 0.494530
285.467987 160.584076 0.000041 0.493080
286.042419 161.234818 0.000040 0.467689
286.532440 161.789948 0.000039 0.451453
286.955536 162.269257 0.000039 0.548226
287.324646 162.687408 0.000039 0.358312
287.649597 163.055527 0.000038 0.448600
287.937958 163.382202 0.000038 0.317571
288.195679 163.674133 0.000037 0.492424
288.427429 163.936676 0.000037 0.384405
276.337860 150.600082 7.937058 0.709804
276.337860 150.600067 7.599730 0.678431
276.337860 150.600082 7.264571 0.652491
276.337860 150.600082 6.931457 0.627176
276.337860 150.600082 6.600250 0.523812
276.337860 150.600082 6.270820 0.557809
276.337860 150.600082 5.943043 0.551186
276.337860 150.600082 5.616797 0.679240
276.337860 150.600082 5.291959 0.678431
276.337860 150.600082 4.968407 0.542168
276.337860 150.600082 4.646023 0.672190
276.337860 150.600082 4.324695 0.707134
276.337860 150.600082 4.004305 0.618173
276.337860 150.600082 3.684739 0.515373
276.337860 150.600082 3.365885 0.628824
276.337860 150.600082 3.047635 0.630701
276.337860 150.600082 2.729875 0.669535
276.337860 150.600082 2.412496 0.686275
276.337860 150.600082 2.095388 0.666194
276.337860 150.600082 1.778445 0.731121
276.337860 150.600082 1.461555 0.546929
276.337860 150.600082 1.144611 0.653696
276.337860 150.600082 0.827504 0.658900
276.337860 150.600082 0.510125 0.619837
276.337860 150.600082 0.192365 0.704417
277.506256 151.897797 0.000048 0.443702
279.827209 154.475647 0.000046 0.418738
281.530518 156.367477 0.000045 0.503319
282.834167 157.815414 0.000044 0.450736
283.864349 158.959641 0.000043 0.425864
284.699219 159.886917 0.000042 0.457511
285.389740 160.653854 0.000041 0.464836
285.970520 161.298920 0.000041 0.416434
286.465973 161.849228 0.000040 0.423331
286.893768 162.324341 0.000040 0.433997
287.266968 162.738861 0.000039 0.327810
287.595520 163.103760 0.000038 0.510704
287.887054 163.427582 0.000038 0.354421
288.147614 163.716980 0.000037 0.476234
288.381927 163.977234 0.000037 0.377981
276.015198 150.600082 7.993702 0.524590
276.015198 150.600082 7.653347 0.678431
276.015198 150.600082 7.315187 0.611719
276.015198 150.600082 6.979083 0.670100
276.015198 150.600082 6.644907 0.536553
276.015198 150.600082 6.312523 0.692012
276.015198 150.600082 5.981808 0.526558
276.015198 150.600082 5.652637 0.436713
276.015198 150.600082 5.324885 0.678431
276.015198 150.600082 4.998431 0.616754
276.015198 150.600082 4.673158 0.578317
276.015198 150.600082 4.348948 0.498619
276.015198 150.600082 4.025685 0.513069
276.015198 150.600082 3.703253 0.694728
276.015198 150.600082 3.381541 0.524590
276.015198 150.600082 3.060437 0.638086
276.015198 150.600082 2.739827 0.729168
276.015198 150.600082 2.419602 0.761563
276.015198 150.600082 2.099651 0.633509
276.015198 150.600082 1.779865 0.716411
276.015198 150.600082 1.460134 0.694987
276.015198 150.600082 1.140348 0.722377
276.015198 150.600082 0.820398 0.714900
276.015198 150.600082 0.500173 0.623453
276.015198 150.600082 0.179563 0.729168
277.343109 152.046143 0.000049 0.425483
279.689240 154.601089 0.000047 0.433906
281.411041 156.476105 0.000045 0.453742
282.728851 157.911179 0.000044 0.437751
283.770233 159.045227 0.000043 0.465232
284.614166 159.964264 0.000042 0.446036
285.312164 160.724396 0.000042 0.401083
285.899261 161.363739 0.000041 0.464546
286.400085 161.909134 0.000041 0.547738
286.832520 162.380035 0.000040 0.365454
287.209778 162.790863 0.000040 0.345235
287.541870 163.152527 0.000039 0.339879
287.836578 163.473480 0.000038 0.509194
288.099976 163.760300 0.000038 0.443534
288.336853 164.018250 0.000038 0.404395
275.686676 150.600082 8.051997 0.485908
275.686676 150.600082 7.708530 0.453986
275.686676 150.600082 7.367276 0.472419
275.686646 150.600082 7.028100 0.622400
275.686676 150.600082 6.690866 0.647059
275.686676 150.600082 6.355442 0.647059
275.686676 150.600082 6.021702 0.678431
275.686676 150.600082 5.689519 0.678431
275.686676 150.600082 5.358769 0.678431
275.686676 150.600082 5.029329 0.463233
275.686676 150.600082 4.701082 0.602411
275.686676 150.600082 4.373906 0.647059
275.686676 150.600082 4.047687 0.647059
275.686676 150.600082 3.722307 0.593713
275.686676 150.600082 3.397653 0.487892
275.686676 150.600082 3.073611 0.673961
275.686676 150.600082 2.750070 0.761990
275.686676 150.600082 2.426916 0.712749
275.686676 150.600082 2.104038 0.628473
275.686676 150.600082 1.781328 0.741176
275.686676 150.600082 1.458672 0.683513
275.686676 150.600082 1.135961 0.698039
275.686676 150.600082 0.813084 0.737133
275.686676 150.600082 0.489931 0.623529
275.686676 150.600082 0.166389 0.748211
277.181396 152.196106 0.000049 0.453162
279.552521 154.727890 0.000047 0.423011
281.292664 156.585907 0.000046 0.456199
282.624481 158.007980 0.000045 0.451286
283.676941 159.131744 0.000044 0.426871
284.529846 160.042450 0.000043 0.428397
285.235291 160.795685 0.000042 0.530480
285.828613 161.429230 0.000042 0.432639
286.334778 161.969696 0.000041 0.467948
286.771820 162.436340 0.000040 0.503288
287.153076 162.843430 0.000040 0.408896
287.488739 163.201828 0.000040 0.326345
287.786591 163.519852 0.000039 0.538766
288.052765 163.804077 0.000039 0.252399
288.292145 164.059692 0.000038 0.438254
275.352051 150.600082 8.112000 0.408103
275.352051 150.600082 7.765327 0.572824
275.352051 150.600082 7.420890 0.586130
275.352051 150.600082 7.078548 0.407706
275.352051 150.600082 6.738170 0.418723
275.352051 150.600082 6.399618 0.580026
275.352051 150.600082 6.062763 0.473960
275.352051 150.600082 5.727482 0.486946
275.352051 150.600082 5.393647 0.575860
275.352051 150.600098 5.061134 0.556374
275.352051 150.600082 4.729825 0.678431
275.352051 150.600082 4.399596 0.495583
275.352051 150.600082 4.070334 0.565911
275.352051 150.600082 3.741918 0.440879
275.352051 150.600082 3.414235 0.440864
275.352051 150.600082 3.087171 0.579522
