# This PCD file was generated using the MATLAB® pcwrite function
# from Computer Vision Toolbox®.
# .PCD v.7 - Point Cloud Data file format
VERSION .7
FIELDS x y z intensity
SIZE 4 4 4 4
TYPE F F F F
COUNT 1 1 1 1
WIDTH 1178
HEIGHT 1
VIEWPOINT 0 0 0 1 0 0 0
POINTS 1178
DATA ascii
123.295227 -275.180298 7.723706 0.732108
123.295776 -275.182953 6.079354 0.505760
123.296326 -275.185577 4.443980 0.694240
123.296860 -275.188110 2.814035 0.693627
123.297394 -275.190674 1.186007 0.687745
125.146790 -284.032654 0.000055 0.228662
128.487610 -300.005127 -0.000006 0.333333
129.922119 -306.863556 0.000031 0.216936
130.734772 -310.748840 0.009996 1.000000
131.231003 -313.121307 -0.000005 0.332108
131.585495 -314.816132 -0.000006 0.337623
131.846680 -316.064850 -0.000003 0.332843
nan nan nan 0.000000
123.605331 -274.961151 12.778660 1.000000
123.605881 -274.963837 11.080198 0.661642
123.606422 -274.966522 9.402039 0.554902
123.606964 -274.969177 7.740282 0.663971
123.607483 -274.971802 6.091166 0.723039
123.608017 -274.974426 4.451058 0.663848
123.608536 -274.976990 2.816393 0.726103
123.609062 -274.979584 1.183651 0.658088
125.425690 -283.977936 0.000178 0.221165
128.654419 -299.970917 -0.000003 0.333088
130.041077 -306.839417 0.000068 0.233852
130.826508 -310.729980 0.009995 1.000000
131.306168 -313.105865 -0.000005 0.332475
131.648819 -314.803131 -0.000006 0.334436
131.901276 -316.053650 -0.000003 0.331005
nan nan nan 0.000000
123.918922 -274.748688 12.810497 1.000000
123.919456 -274.751434 11.107019 0.734436
123.919983 -274.754120 9.423898 0.234314
123.932457 -274.818237 7.750032 0.627696
123.933662 -274.824402 6.097820 0.755760
123.934860 -274.830597 4.454866 0.596814
123.936058 -274.836731 2.817601 0.716176
123.937248 -274.842865 1.182500 0.720221
125.704163 -283.921204 0.000107 0.229912
128.821442 -299.937775 -0.000005 0.333211
130.160004 -306.815247 -0.000002 0.227413
130.905502 -310.645569 -0.000009 0.333088
131.381439 -313.090942 -0.000006 0.338725
131.712234 -314.790588 -0.000005 0.325980
131.955963 -316.042786 -0.000003 0.331005
nan nan nan 0.000000
124.234398 -274.534943 12.843060 0.906740
124.234909 -274.537720 11.134446 0.741912
124.235428 -274.540466 9.446253 0.761152
124.426247 -275.558746 7.655697 0.749020
124.427383 -275.564789 6.030594 0.754657
124.428497 -275.570770 4.414599 0.750123
124.585625 -276.409241 2.790333 0.654902
124.391327 -275.372375 1.192405 0.617770
125.983154 -283.866974 0.000061 0.220973
128.988708 -299.905762 -0.000009 0.334314
130.279144 -306.792023 -0.000052 0.208189
130.997864 -310.627411 -0.000082 0.224529
131.456818 -313.076569 -0.000006 0.330882
131.775726 -314.778442 -0.000006 0.329412
132.010712 -316.032349 -0.000003 0.341544
nan nan nan 0.000000
124.551788 -274.319916 12.876349 0.867892
124.552277 -274.322662 11.162491 0.610172
124.552780 -274.325470 9.469112 0.683578
124.904129 -276.275482 7.564663 0.701103
124.905174 -276.281281 5.965732 0.723039
124.906204 -276.287048 4.375750 0.730882
124.907257 -276.292786 2.791255 0.702941
124.908279 -276.298553 1.208841 0.692524
126.263138 -283.818176 0.000188 0.225971
129.156189 -299.875000 -0.000007 0.332721
130.398712 -306.771149 0.000072 0.218378
131.090591 -310.611237 0.000042 0.253652
131.532288 -313.062683 -0.000005 0.333946
131.839325 -314.766785 -0.000006 0.332108
132.065521 -316.022278 -0.000003 0.338113
nan nan nan 0.000000
124.871140 -274.103546 12.910376 0.864828
124.871628 -274.106323 11.191153 0.596936
125.387085 -277.086273 9.044300 0.597181
125.366867 -276.969391 7.476793 0.713848
125.367844 -276.975037 5.903115 0.745711
125.368805 -276.980621 4.338243 0.752083
125.369781 -276.986237 2.778764 0.720343
125.370743 -276.991821 1.221329 0.716299
126.542824 -283.767761 0.000139 0.227220
129.323883 -299.845398 -0.000007 0.332843
130.518158 -306.749634 0.000024 0.238370
131.183228 -310.594543 -0.000005 0.229719
131.607849 -313.049316 -0.000006 0.338113
131.902985 -314.755524 -0.000006 0.332108
132.120422 -316.012573 -0.000003 0.340931
nan nan nan 0.000000
125.192520 -273.885834 12.945147 0.757475
125.192993 -273.888611 11.220442 0.610784
125.824364 -277.696777 8.944180 0.604657
125.815254 -277.641815 7.391908 0.496201
125.816162 -277.647308 5.842626 0.748407
125.817078 -277.652802 4.302007 0.569363
125.817963 -277.658173 2.766698 0.740441
125.818863 -277.663635 1.233392 0.611152
126.822784 -283.718842 0.000066 0.230488
129.491776 -299.816956 -0.000007 0.333946
130.637787 -306.729187 0.000004 0.223568
131.276047 -310.578918 0.000009 0.267686
131.683517 -313.036530 -0.000006 0.330270
131.966736 -314.744720 -0.000005 0.324510
132.175385 -316.003265 -0.000003 0.329779
nan nan nan 0.000000
125.515976 -273.666656 12.980683 0.912868
125.516418 -273.669495 11.250374 0.597059
126.249123 -278.288422 8.847459 0.761520
126.249977 -278.293823 7.309863 0.284804
126.250816 -278.299133 5.784163 0.742279
126.251648 -278.304382 4.266990 0.261397
126.252487 -278.309692 2.755036 0.742402
126.253326 -278.314972 1.245051 0.241422
127.103745 -283.675964 0.000197 0.226067
129.659866 -299.789703 -0.000007 0.333456
130.757767 -306.710876 0.000133 0.219146
131.369110 -310.564697 0.000139 0.226836
131.759262 -313.024231 -0.000006 0.334926
132.030533 -314.734375 -0.000005 0.335172
132.230408 -315.994324 -0.000003 0.327328
nan nan nan 0.000000
nan nan nan 0.000000
125.841980 -273.448975 11.280956 0.813358
126.670891 -278.921051 8.745141 0.725735
126.671677 -278.926239 7.230536 0.610784
126.672462 -278.931396 5.727635 0.691667
126.673241 -278.936584 4.233126 0.607353
126.674019 -278.941681 2.743759 0.711275
126.674789 -278.946777 1.256325 0.582108
127.384438 -283.631500 0.000152 0.227893
129.828140 -299.763580 -0.000007 0.332721
130.877640 -306.691925 0.000088 0.220108
131.462067 -310.549957 0.000089 0.216359
131.835098 -313.012482 -0.000006 0.334804
132.094421 -314.724457 -0.000005 0.335417
132.285477 -315.985779 -0.000003 0.343750
nan nan nan 0.000000
nan nan nan 0.000000
126.169708 -273.226959 11.312194 0.912010
127.080261 -279.535004 8.646160 0.719608
127.080978 -279.540039 7.153791 0.703799
127.081711 -279.545074 5.672947 0.694853
127.082428 -279.550079 4.200368 0.720833
127.083153 -279.555084 2.732850 0.697917
127.083878 -279.560059 1.267232 0.709436
127.665428 -283.588959 0.000104 0.226259
129.996597 -299.738678 -0.000007 0.332843
130.997650 -306.673737 0.000041 0.225779
131.555115 -310.535736 0.000024 0.245963
131.910995 -313.001221 -0.000006 0.336152
132.158371 -314.714996 -0.000005 0.340809
132.340637 -315.977631 -0.000001 0.330270
nan nan nan 0.000000
nan nan nan 0.000000
126.499680 -273.003418 11.344101 0.797426
127.477814 -280.131287 8.550357 0.721324
127.478485 -280.136139 7.079510 0.488725
127.479156 -280.141083 5.620014 0.695956
127.479820 -280.145935 4.168660 0.569853
127.480484 -280.150787 2.722290 0.697917
127.481148 -280.155609 1.277789 0.637010
127.946449 -283.546387 -0.000043 0.222030
130.165222 -299.714966 -0.000007 0.331863
131.117691 -306.655792 -0.000076 0.239812
131.648315 -310.522522 0.000007 0.242791
131.986984 -312.990570 -0.000006 0.334191
132.222397 -314.705994 -0.000005 0.324632
132.395828 -315.969879 -0.000001 0.335417
131.709900 -310.266418 5.438820 0.412500
131.704803 -310.227203 4.973618 0.354167
126.831909 -272.778320 11.376687 0.914093
127.864075 -280.710602 8.457586 0.719608
127.864693 -280.715363 7.007576 0.512990
127.865318 -280.720123 5.568756 0.706127
127.865929 -280.724884 4.137957 0.460662
127.866539 -280.729553 2.712065 0.715074
127.867157 -280.734283 1.288012 0.437132
128.228516 -283.511444 0.000092 0.225298
130.333984 -299.692322 -0.000013 0.331863
131.238144 -306.640839 0.000054 0.223087
131.741714 -310.510925 0.000136 0.244617
132.063034 -312.980377 -0.000006 0.332966
132.286469 -314.697418 -0.000005 0.314951
132.451080 -315.962494 -0.000002 0.333088
nan nan nan 0.000000
131.801056 -310.222412 4.972036 0.386275
127.166504 -272.551605 11.409965 0.746691
128.239563 -281.273773 8.367712 0.710539
128.240143 -281.278442 6.937886 0.756373
128.240723 -281.283081 5.519095 0.716054
128.241287 -281.287659 4.108212 0.746324
128.241852 -281.292236 2.702160 0.724142
128.242401 -281.296814 1.297916 0.728799
128.510361 -283.474792 0.000043 0.224241
130.502930 -299.670959 -0.000011 0.331618
131.358490 -306.625153 0.000004 0.216551
131.835129 -310.499329 0.000172 0.240484
132.145889 -313.025299 0.009996 1.000000
132.350616 -314.689301 -0.000005 0.333578
132.506378 -315.955475 -0.000002 0.338725
131.900848 -310.248993 5.437315 0.353431
131.897125 -310.216888 4.970761 0.417525
127.503494 -272.323334 11.443934 0.916054
128.604782 -281.821564 8.280603 0.660907
128.605301 -281.826080 6.870345 0.654657
128.605835 -281.830597 5.470968 0.718750
128.606339 -281.835022 4.079384 0.618015
128.606857 -281.839478 2.692559 0.726961
128.607376 -281.843964 1.307514 0.650245
128.792435 -283.440063 -0.000007 0.227893
130.672012 -299.650757 -0.000010 0.333946
131.478958 -306.610352 -0.000045 0.216071
131.928543 -310.487823 0.000124 0.204056
132.221695 -313.016235 0.009996 1.000000
132.414795 -314.681641 -0.000005 0.328554
132.561722 -315.948853 -0.000001 0.337500
131.996475 -310.242188 5.436328 0.406495
nan nan nan 0.000000
127.842941 -272.093353 11.478616 0.775735
128.960144 -282.354523 8.196150 0.523039
128.960632 -282.358948 6.804862 0.745466
128.961105 -282.363403 5.424299 0.728309
128.961594 -282.367706 4.051429 0.416054
128.962051 -282.372070 2.683249 0.737990
128.962524 -282.376404 1.316822 0.380882
129.074768 -283.407318 -0.000055 0.225202
130.841248 -299.631775 -0.000006 0.334314
131.599609 -306.597076 -0.000011 0.227797
132.022034 -310.477020 0.000076 0.229335
132.291626 -312.953064 -0.000007 0.334681
132.479034 -314.674408 -0.000004 0.341054
132.617126 -315.942657 -0.000001 0.337868
132.091629 -310.231232 5.436563 0.349877
nan nan nan 0.000000
128.184906 -271.861694 11.514022 0.899020
129.306091 -282.873444 8.114227 0.720098
129.306534 -282.877747 6.741342 0.730270
129.306976 -282.882019 5.379038 0.734804
129.307404 -282.886230 4.024315 0.729902
129.307831 -282.890442 2.674221 0.736887
129.308258 -282.894714 1.325849 0.729902
129.357712 -283.380341 0.000083 0.227028
131.010590 -299.613983 -0.000003 0.331495
131.720428 -306.585510 0.000124 0.207997
132.115784 -310.468506 0.000277 0.200115
132.367935 -312.945038 -0.000007 0.336765
132.543335 -314.667664 -0.000004 0.337255
132.672562 -315.936798 -0.000001 0.328309
nan nan nan 0.000000
nan nan nan 0.000000
128.529449 -271.628265 11.550160 0.886520
129.643036 -283.378784 8.034733 0.358088
129.643433 -283.382935 6.679709 0.717892
129.643829 -283.387085 5.335120 0.713848
129.644226 -283.391296 3.998005 0.362377
129.644608 -283.395386 2.665459 0.717770
129.645004 -283.399475 1.334609 0.376348
129.645401 -283.403625 0.002605 1.000000
131.180054 -299.597290 -0.000006 0.330637
131.841171 -306.573242 0.000075 0.217032
132.209412 -310.458954 0.000227 0.236255
132.444366 -312.938110 0.000097 0.205113
132.607666 -314.661346 -0.000004 0.335539
132.728027 -315.931366 -0.000001 0.337500
132.385803 -311.392548 5.140001 0.388725
132.282715 -310.217621 4.962170 0.366299
128.876633 -271.393066 11.587042 0.820833
129.971344 -283.871155 7.957573 0.703186
129.971695 -283.875275 6.619874 0.704412
129.972061 -283.879303 5.292481 0.700735
129.972412 -283.883362 3.972464 0.710417
129.972763 -283.887421 2.656952 0.703064
129.973114 -283.891418 1.343113 0.730025
129.973480 -283.895447 0.028131 1.000000
131.349640 -299.581818 -0.000008 0.333701
131.962143 -306.563568 0.000234 0.226932
132.303131 -310.450226 0.000203 0.248943
132.520752 -312.931000 0.000074 0.240869
132.672058 -314.655457 -0.000004 0.334804
132.783554 -315.926300 -0.000001 0.331618
132.463562 -311.268219 5.169402 0.353186
132.393402 -310.398834 4.921164 0.405515
nan nan nan 0.000000
130.291382 -284.351135 7.882643 0.672917
130.291702 -284.355133 6.561773 0.684436
130.292023 -284.359131 5.251075 0.747672
130.292343 -284.363068 3.947662 0.687132
130.292664 -284.366974 2.648693 0.725735
130.292969 -284.370911 1.351371 0.709436
130.293289 -284.374847 0.052918 1.000000
131.519333 -299.567535 -0.000006 0.332598
132.083054 -306.552979 0.000183 0.215494
132.396835 -310.441315 0.000051 0.217993
132.597244 -312.924713 0.000102 0.236832
132.736481 -314.650024 -0.000004 0.335539
132.839081 -315.921600 -0.000001 0.311397
132.542999 -311.144318 5.198818 0.357598
nan nan nan 0.000000
130.614471 -284.968414 9.099424 1.000000
130.603470 -284.819244 7.809845 0.732966
130.603760 -284.823151 6.505327 0.724510
130.604050 -284.827026 5.210855 0.730270
130.604340 -284.830872 3.923569 0.655025
130.604614 -284.834717 2.640668 0.714583
130.604889 -284.838531 1.359394 0.693015
130.605179 -284.842346 0.076996 1.000000
131.689117 -299.554474 -0.000001 0.331863
132.204132 -306.544861 0.000328 0.223856
132.490753 -310.434998 0.000192 0.257305
132.673798 -312.919525 0.000239 0.200884
132.800919 -314.645050 -0.000004 0.331250
132.894669 -315.917328 -0.000002 0.337132
132.624161 -311.021271 5.228135 0.371078
132.583069 -310.404785 4.916868 0.370098
130.895447 -285.088074 9.074133 0.601593
130.895493 -285.088959 7.766905 0.728676
130.895554 -285.089844 6.472376 0.725000
130.895599 -285.090668 5.187616 0.776226
130.895660 -285.091522 3.909794 0.731740
130.895721 -285.092377 2.636130 0.732966
130.895782 -285.093231 1.363885 0.718750
130.895844 -285.094055 0.090330 0.744976
131.858978 -299.542542 -0.000001 0.332843
132.325165 -306.535980 0.000282 0.233756
132.584610 -310.428101 0.000143 0.221742
132.750275 -312.913300 0.000077 0.227028
132.865417 -314.640533 -0.000003 0.336520
132.950272 -315.913422 -0.000002 0.336152
132.651382 -309.966888 5.491301 0.350490
nan nan nan 0.000000
132.677658 -310.407104 4.455868 0.364828
131.156631 -284.908691 7.791154 0.710417
131.156693 -284.909546 6.491179 0.688725
131.156738 -284.910431 5.201019 0.796569
131.156799 -284.911285 3.917823 0.689828
131.156845 -284.912140 2.638804 0.763358
131.156891 -284.912994 1.361211 0.705882
131.156937 -284.913818 0.082302 0.758701
132.028915 -299.531830 -0.000001 0.334436
132.446213 -306.527161 0.000147 0.208285
132.678574 -310.422577 0.000202 0.216359
132.826859 -312.908325 0.000052 0.219819
132.929932 -314.636475 -0.000003 0.335784
133.005905 -315.909882 -0.000001 0.343015
132.810471 -311.137848 5.196212 0.350490
132.755356 -310.090881 4.982326 0.405392
131.419952 -284.726044 9.134203 0.887623
131.419983 -284.726868 7.815890 0.792034
131.420044 -284.727753 6.510363 0.693627
131.420090 -284.728638 5.214689 0.745833
131.420135 -284.729492 3.926013 0.705760
131.420181 -284.730408 2.641531 0.740196
131.420227 -284.731262 1.358482 0.709069
131.420273 -284.732056 0.074113 0.698652
132.198944 -299.522278 -0.000002 0.333578
132.567368 -306.520050 0.000112 0.214821
132.772537 -310.417053 0.000167 0.263745
132.903488 -312.904297 0.000101 0.241349
132.994476 -314.632843 -0.000003 0.326348
133.061554 -315.906769 -0.000002 0.334314
132.849442 -310.037933 5.470909 0.374265
132.870636 -310.502167 4.892385 0.447426
131.685593 -284.542633 9.165159 0.891422
132.835114 -309.723785 4.102092 0.467157
131.685669 -284.544403 6.529931 0.271446
131.685715 -284.545288 5.228638 0.230882
131.685745 -284.546173 3.934368 0.744485
131.685791 -284.547058 2.644314 0.775858
131.685837 -284.547913 1.355700 0.753431
131.685867 -284.548737 0.065757 0.796936
132.369019 -299.513885 -0.000003 0.333578
132.688568 -306.513885 0.000088 0.229815
132.866486 -310.411438 0.000020 0.241253
132.980118 -312.900360 0.000071 0.236448
133.061157 -314.675934 0.010000 1.000000
133.117233 -315.904022 -0.000001 0.332108
132.996140 -311.328613 5.146355 0.355515
132.964294 -310.504730 4.890977 0.367279
132.933426 -309.706238 4.580962 0.355637
131.953583 -284.358551 7.866863 0.786642
131.953629 -284.359436 6.549892 0.528064
131.953659 -284.360321 5.242864 0.531495
131.953690 -284.361206 3.942892 0.707230
131.953735 -284.362122 2.647154 0.758946
131.953766 -284.362976 1.352861 0.757353
131.953796 -284.363831 0.057235 0.737868
132.539154 -299.506653 -0.000009 0.331005
132.809906 -306.510651 0.000302 0.231065
132.960571 -310.408417 0.000162 0.216071
133.056824 -312.898346 0.000293 0.236736
133.125443 -314.673218 0.009999 1.000000
133.172928 -315.901703 -0.000002 0.331005
nan nan nan 0.000000
133.063232 -310.676605 4.853131 0.394975
132.223907 -284.171021 9.228943 0.908211
133.058945 -310.541351 3.979621 0.343505
132.223969 -284.172821 6.570254 0.510294
132.223999 -284.173706 5.257376 0.516422
132.224030 -284.174622 3.951586 0.678309
132.224045 -284.175537 2.650050 0.693750
132.224091 -284.176392 1.349964 0.733333
132.224106 -284.177246 0.048542 0.630147
132.709335 -299.500671 -0.000010 0.334191
132.931168 -306.506226 0.000281 0.212995
133.054657 -310.405487 0.000218 0.220684
133.133499 -312.895538 0.000272 0.220780
133.189728 -314.670959 0.009999 1.000000
133.228622 -315.899750 -0.000002 0.324877
nan nan nan 0.000000
133.149933 -310.451569 4.901185 0.362868
133.145447 -310.269775 4.477252 0.353186
133.151566 -310.518005 3.982695 0.348407
133.142532 -310.151703 3.579817 0.379044
132.496765 -283.985443 5.272180 0.227451
132.496796 -283.986359 3.960455 0.750735
132.496811 -283.987244 2.653004 0.766299
132.496841 -283.988129 1.347011 0.710539
132.496857 -283.989014 0.039675 0.698897
132.879547 -299.495819 -0.000013 0.334191
133.052460 -306.502380 0.000236 0.236351
133.148712 -310.402527 0.000170 0.234141
133.210175 -312.892456 0.000103 0.243464
133.254028 -314.669128 0.009999 1.000000
133.284348 -315.898163 -0.000001 0.314216
nan nan nan 0.000000
133.243195 -310.421295 4.907294 0.364828
133.240784 -310.285461 4.474030 0.463603
133.234955 -309.955902 4.065799 0.422794
132.772034 -283.794495 6.612211 0.500858
132.772049 -283.795410 5.287279 0.506373
132.772064 -283.796326 3.969501 0.677941
132.772095 -283.797241 2.656017 0.771201
132.772095 -283.798157 1.343998 0.753064
132.772110 -283.798981 0.030629 0.719118
133.049805 -299.492218 -0.000015 0.332475
133.173767 -306.498596 0.000096 0.231065
133.242813 -310.400360 0.000146 0.230873
133.286880 -312.890686 0.000079 0.232122
133.317505 -314.621490 -0.000002 0.331250
133.340073 -315.896973 -0.000002 0.318750
nan nan nan 0.000000
133.338272 -310.525024 4.884610 0.356618
133.332001 -309.938507 4.536920 0.378064
133.341370 -310.812836 3.938474 0.358578
133.340134 -310.698090 3.516563 0.456373
133.049896 -283.603607 5.302682 0.444363
133.049911 -283.604553 3.978728 0.707843
133.049927 -283.605469 2.659090 0.769730
133.049927 -283.606354 1.340925 0.673529
133.049942 -283.607239 0.021403 0.786765
133.220078 -299.489807 -0.000013 0.332721
133.295120 -306.496460 0.000049 0.233468
133.336929 -310.399231 0.000175 0.221742
133.363602 -312.889740 0.000105 0.254806
133.382141 -314.620575 -0.000002 0.340074
133.395813 -315.896210 -0.000001 0.320833
nan nan nan 0.000000
133.431595 -310.545227 4.880095 0.374755
133.430740 -310.314453 4.468384 0.387868
133.432526 -310.793823 3.941191 0.381863
133.330383 -283.409058 6.655859 0.708456
133.330383 -283.410004 5.318388 0.665686
133.330383 -283.410950 3.988139 0.736274
133.330383 -283.411896 2.662224 0.648652
133.330383 -283.412811 1.337790 0.754902
133.330399 -283.413666 0.011994 0.658088
133.390350 -299.488586 -0.000011 0.334926
133.416489 -306.495392 0.000025 0.210015
133.431046 -310.398438 0.000155 0.248078
133.440338 -312.889099 0.000090 0.203095
133.446793 -314.619629 -0.000102 0.250096
133.451553 -315.895782 -0.000002 0.325245
nan nan nan 0.000000
133.529724 -308.995026 5.214901 0.380147
133.526215 -310.076874 4.511613 0.423652
133.523941 -310.777100 3.943672 0.374020
133.524399 -310.634094 3.523852 0.378922
133.613556 -283.214539 5.334411 0.804902
133.613541 -283.215515 3.997737 0.702941
133.613541 -283.216431 2.665422 0.748039
133.613541 -283.217346 1.334593 0.728554
133.613541 -283.218262 0.002396 0.754779
133.560638 -299.488556 -0.000009 0.332108
133.537857 -306.497559 0.000278 0.228278
133.525162 -310.398743 0.000206 0.271050
133.517059 -312.889374 0.000139 0.297386
133.511429 -314.620728 0.000138 0.230584
133.507294 -315.895752 -0.000001 0.344363
nan nan nan 0.000000
133.622360 -310.098297 4.976759 0.350123
133.619812 -310.347473 4.462491 0.388235
133.899506 -283.015259 8.062058 0.726593
133.617294 -310.594360 3.528490 0.412500
133.899475 -283.017151 5.350752 0.751348
133.899475 -283.018158 4.007528 0.731250
133.899460 -283.019104 2.668683 0.719975
133.899460 -283.019989 1.331332 0.759681
133.899445 -283.020905 -0.007393 0.715809
133.730927 -299.489746 -0.000008 0.331618
133.659210 -306.498169 0.000256 0.222414
133.619293 -310.399231 0.000182 0.248078
133.593796 -312.890137 0.000190 0.226547
133.576096 -314.621094 0.000124 0.200788
133.563034 -315.896149 -0.000001 0.332108
nan nan nan 0.000000
nan nan nan 0.000000
133.714081 -310.361206 4.460227 0.354289
133.707550 -310.740295 3.949406 0.335662
133.719040 -310.072968 3.588631 0.415441
134.188248 -282.817841 5.367419 0.769730
134.188217 -282.818817 4.017514 0.685417
134.188202 -282.819763 2.672008 0.765564
134.188202 -282.820709 1.328006 0.674632
134.182053 -283.177643 0.000115 0.230296
133.901184 -299.492096 -0.000006 0.331985
133.780579 -306.498566 0.000110 0.212514
133.713394 -310.400879 0.000235 0.234141
133.670517 -312.891052 0.000168 0.241542
133.640717 -314.622192 0.000167 0.263552
133.618774 -315.896912 -0.000002 0.338113
nan nan nan 0.000000
133.795288 -310.907013 4.802757 0.349265
133.808151 -310.374969 4.458074 0.345588
133.811035 -310.256531 4.021470 0.368873
133.838013 -309.141449 3.696052 0.365319
134.479919 -282.616486 5.384419 0.712623
134.479889 -282.617523 4.027699 0.690441
134.479858 -282.618469 2.675401 0.711887
134.479843 -282.619415 1.324615 0.674877
134.466202 -283.183075 0.000094 0.221357
134.071442 -299.495636 -0.000006 0.332966
133.901917 -306.500885 0.000090 0.221934
133.807495 -310.402679 0.000215 0.204441
133.747253 -312.891876 0.000027 0.240773
133.705368 -314.622833 0.000022 0.245579
133.674500 -315.898071 -0.000001 0.340809
nan nan nan 0.000000
133.882813 -311.007141 4.781662 0.401348
133.937439 -309.255371 4.662373 0.381250
133.903976 -310.328094 4.011240 0.450245
133.898911 -310.490845 3.541067 0.455760
134.774551 -282.413116 5.401758 0.764583
134.774521 -282.414124 4.038087 0.739338
134.774490 -282.415100 2.678861 0.719240
134.774460 -282.416046 1.321155 0.727083
134.750305 -283.190491 0.000072 0.227124
134.241653 -299.500336 -0.000006 0.332230
134.023239 -306.504089 0.000069 0.222895
133.901596 -310.404327 0.000075 0.223376
133.823944 -312.894348 0.000087 0.221838
133.769958 -314.625580 0.000223 0.206555
133.730225 -315.899628 -0.000001 0.335907
133.953979 -311.499603 5.103436 0.341176
133.974548 -310.960907 4.792329 0.347549
133.995590 -310.409607 4.452840 0.418015
133.985031 -310.686218 3.958565 0.355270
133.993988 -310.451660 3.545952 0.420098
135.072235 -282.207642 5.419444 0.774632
135.072205 -282.208649 4.048682 0.688603
135.072159 -282.209625 2.682390 0.732843
135.072128 -282.210571 1.317626 0.704167
135.034363 -283.199921 0.000051 0.229815
134.411850 -299.506226 -0.000007 0.333333
134.144516 -306.508728 0.000122 0.233180
133.995682 -310.407440 0.000051 0.249423
133.900635 -312.896881 0.000064 0.229143
133.834564 -314.627747 0.000210 0.213283
133.785934 -315.901520 -0.000001 0.335172
134.039383 -311.525787 5.097774 0.361642
134.063599 -310.989868 4.786876 0.377819
134.102127 -310.136658 4.503266 0.387377
134.104553 -310.083038 4.048701 0.354289
134.089676 -310.412384 3.550926 0.409681
135.373047 -282.000000 5.437481 0.677696
135.373016 -282.001007 4.059488 0.722181
135.372955 -282.002014 2.685990 0.645343
135.372925 -282.002960 1.314026 0.746691
135.318344 -283.211334 0.000030 0.232026
134.581985 -299.513306 -0.000008 0.332475
134.265778 -306.513580 0.000098 0.208285
134.089706 -310.411713 0.000103 0.221069
133.977295 -312.900360 0.000116 0.240869
133.899185 -314.629761 0.000065 0.209919
133.841629 -315.903870 -0.000001 0.344363
134.250183 -309.142181 5.696698 0.371446
134.169800 -310.683105 4.854172 0.396446
134.244324 -309.254669 4.664823 0.366176
134.258514 -308.982361 4.212887 0.423162
134.201202 -310.081024 3.589622 0.345956
135.677078 -281.790131 5.455881 0.776348
135.677017 -281.791168 4.070512 0.772059
135.676971 -281.792175 2.689661 0.707598
135.676926 -281.793152 1.310354 0.765441
135.602234 -283.224701 0.000008 0.224914
134.752075 -299.521576 -0.000008 0.333824
134.386978 -306.520050 0.000162 0.217128
134.183716 -310.416168 0.000088 0.256248
134.053970 -312.903320 -0.000028 0.243080
133.963730 -314.633209 0.000126 0.196463
133.895233 -315.946442 0.009997 1.000000
134.346359 -309.261200 5.668273 0.383701
134.253159 -310.836151 4.822167 0.353186
134.290405 -310.206787 4.492314 0.404167
134.297653 -310.084198 4.050022 0.411029
135.984451 -281.576935 6.875109 0.725735
135.984390 -281.578003 5.474648 0.746078
135.984314 -281.579041 4.081756 0.743873
135.984268 -281.580048 2.693407 0.736029
135.984207 -281.581024 1.306610 0.676961
135.885712 -283.245667 0.000261 0.228181
134.922089 -299.531097 -0.000005 0.333211
134.508057 -306.528320 0.000340 0.211073
134.277679 -310.421814 0.000148 0.249039
134.130539 -312.908539 0.000152 0.227797
134.028275 -314.637024 0.000178 0.219435
133.950607 -315.949554 0.010003 1.000000
134.342834 -310.862518 5.267894 0.411765
134.340881 -310.892059 4.811300 0.516299
134.448929 -309.259460 4.666147 0.341176
134.394211 -310.086151 4.050627 0.362868
134.396317 -310.054321 3.594017 0.443260
136.295059 -281.363525 5.493792 0.723652
136.294983 -281.364594 4.093225 0.318505
136.294922 -281.365631 2.697227 0.672549
136.294861 -281.366638 1.302790 0.671078
136.169586 -283.259491 0.000068 0.231257
135.092041 -299.541748 -0.000003 0.334314
134.629272 -306.534302 0.000151 0.228950
134.371658 -310.426910 0.000029 0.274510
134.207169 -312.912689 0.000033 0.240100
134.092819 -314.640533 0.000060 0.268454
134.005951 -315.953003 0.009997 1.000000
134.610916 -308.447754 5.875968 0.371201
134.483719 -310.185333 4.965718 0.423407
134.477051 -310.276459 4.481904 0.433333
134.490845 -310.088135 4.051332 0.387132
134.485123 -310.166260 3.581883 0.470833
134.529953 -309.553864 3.177835 0.404167
136.609131 -281.147736 4.104927 0.259436
136.609039 -281.148804 2.701123 0.724632
136.608963 -281.149811 1.298893 0.757353
136.452835 -283.282898 0.000249 0.222318
135.261917 -299.553619 -0.000003 0.333333
134.750320 -306.543213 0.000203 0.225971
134.465485 -310.434662 0.000206 0.211073
134.283691 -312.918427 0.000101 0.265763
134.157242 -314.645844 0.000235 0.263552
134.061279 -315.956879 0.010004 1.000000
134.614166 -309.758148 5.548745 0.362132
134.514114 -311.005341 4.789628 0.348652
134.560165 -310.431274 4.454977 0.441912
134.673325 -309.020721 4.211274 0.363725
134.587692 -310.088135 3.591744 0.361275
136.926880 -280.927399 5.533239 0.724877
136.926804 -280.928436 4.116861 0.738848
136.926712 -280.929535 2.705099 0.748162
136.926636 -280.930573 1.294918 0.712990
136.736603 -283.299469 -0.000007 0.331863
135.431702 -299.566620 -0.000003 0.332843
134.871307 -306.552521 0.000209 0.219243
134.559280 -310.442474 0.000299 0.211649
134.360184 -312.924316 0.000107 0.230488
134.221649 -314.651154 0.000323 0.206940
134.119781 -315.921295 -0.000002 0.341667
134.538116 -311.767731 5.045539 0.402206
134.770309 -309.106445 5.202941 0.353554
134.749924 -309.340179 4.655694 0.478309
134.794235 -308.832153 4.240642 0.359069
134.770294 -309.106598 3.706021 0.381985
134.730026 -309.568207 3.177974 0.348162
137.248108 -280.706635 4.129037 0.724265
137.248016 -280.707764 2.709154 0.737500
137.247925 -280.708801 1.290864 0.618505
137.019821 -283.323181 -0.000006 0.333211
135.601395 -299.580780 -0.000008 0.333578
134.992203 -306.563110 0.000261 0.211553
134.653076 -310.450073 0.000266 0.229335
134.436554 -312.931732 0.000294 0.206459
134.286133 -314.655853 0.000164 0.260092
134.175339 -315.925964 -0.000001 0.323775
134.620026 -311.803131 5.038563 0.342770
134.695313 -311.004761 4.793159 0.416544
134.967117 -308.122070 4.880004 0.369240
134.900040 -308.833496 4.241867 0.424020
134.781418 -310.091522 3.593292 0.420221
134.827881 -309.598633 3.176213 0.415931
137.573151 -280.482269 4.141458 0.757475
137.573044 -280.483398 2.713291 0.709681
137.572952 -280.484467 1.286726 0.658824
137.302887 -283.348785 -0.000012 0.331618
135.770981 -299.596130 -0.000011 0.335294
135.113068 -306.574127 0.000268 0.201653
134.746887 -310.457794 0.000149 0.235006
134.513031 -312.938019 0.000174 0.237793
134.350479 -314.662140 0.000262 0.250384
134.230835 -315.931000 -0.000002 0.327574
134.701721 -311.836914 5.032131 0.439583
134.782227 -311.042603 4.786851 0.338848
137.902481 -280.250916 9.979271 0.752574
137.902374 -280.252014 8.504771 0.767402
134.959259 -309.295502 3.686425 0.432966
134.876556 -310.111755 3.134727 0.468382
137.902039 -280.255280 4.154130 0.762010
137.901932 -280.256378 2.717513 0.769608
137.901825 -280.257446 1.282506 0.723529
137.585754 -283.376434 -0.000012 0.332475
135.940475 -299.612701 -0.000011 0.333211
135.233948 -306.584930 0.000149 0.225971
134.840515 -310.467468 0.000221 0.235198
134.589355 -312.945984 0.000265 0.229815
134.414856 -314.667877 0.000141 0.215013
134.286316 -315.936401 -0.000001 0.333088
134.771530 -311.977264 4.998991 0.358578
134.869293 -311.075226 4.781799 0.454902
135.190109 -308.115540 4.885276 0.374387
135.114746 -308.810791 4.248426 0.370833
138.235077 -280.023346 7.074874 0.683211
134.967056 -310.173340 3.130482 0.468627
138.234848 -280.025574 4.167059 0.726961
138.234726 -280.026672 2.721818 0.721936
138.234604 -280.027771 1.278200 0.630637
137.868439 -283.406036 -0.000014 0.332966
136.109818 -299.630463 -0.000011 0.334191
135.354660 -306.597412 0.000132 0.228662
134.934128 -310.477142 0.000200 0.198097
134.665665 -312.953918 0.000250 0.213860
134.479126 -314.674866 0.000200 0.276624
134.341690 -315.942810 0.000143 0.269992
134.896423 -311.624298 5.090335 0.336887
134.955856 -311.109467 4.776535 0.353064
135.162476 -309.319977 4.666920 0.446814
135.049652 -310.297089 4.028247 0.438235
135.180771 -309.161560 3.704491 0.349877
135.060867 -310.199982 3.129164 0.465196
138.571701 -279.793030 4.180251 0.747917
138.571564 -279.794159 2.726212 0.696936
138.571426 -279.795258 1.273805 0.720221
138.150894 -283.437622 -0.000015 0.331495
136.279053 -299.649414 -0.000010 0.335049
135.475189 -306.611542 0.000204 0.201845
135.027740 -310.486969 0.000103 0.213476
134.741867 -312.962830 0.000321 0.238274
134.543320 -314.682434 0.000282 0.262591
134.397125 -315.948608 0.000049 0.226644
134.944427 -311.940735 5.013050 0.360662
134.960327 -311.810852 4.626224 0.385539
135.041977 -311.144592 4.334658 0.334191
135.141190 -310.334991 4.024271 0.453554
135.283310 -309.175262 3.704319 0.359436
135.218994 -309.700043 3.171403 0.463358
135.140076 -310.343994 2.669964 0.439583
138.912537 -279.558777 2.730696 0.758824
135.148163 -310.278076 1.775751 0.495711
135.145294 -310.301483 1.327932 0.441789
135.141403 -310.333160 0.880900 0.427328
135.141739 -310.330414 0.429565 0.429902
135.121140 -310.498596 0.000183 0.195117
134.818115 -312.971375 0.000225 0.213572
134.607574 -314.689545 0.000161 0.243176
134.452438 -315.955505 0.000118 0.232122
135.043213 -311.831879 5.043198 0.337377
135.062225 -311.685181 4.655913 0.397549
135.231522 -310.379242 4.477136 0.467524
135.229813 -310.392395 4.017465 0.470098
135.238159 -310.328003 3.572098 0.440564
135.229645 -310.393677 3.115084 0.434436
135.227875 -310.407349 2.667417 0.453064
135.229675 -310.393372 2.222544 0.449755
135.229141 -310.397522 1.777524 0.439583
135.228119 -310.405396 1.332487 0.449755
135.225998 -310.421875 0.887246 0.471569
135.226395 -310.418762 0.438430 0.439216
135.214508 -310.510406 0.000188 0.200211
134.894196 -312.981384 0.000302 0.193676
134.671661 -314.698029 0.000255 0.259996
134.507690 -315.962891 0.000220 0.196271
135.125488 -311.856140 5.039888 0.345711
135.100159 -312.041382 4.580731 0.380392
135.263000 -310.850433 4.392903 0.450735
139.608017 -279.074585 8.708134 0.782353
135.335297 -310.321777 3.574283 0.437377
135.324203 -310.402954 3.115354 0.447426
135.326401 -310.386902 2.669050 0.434926
135.322189 -310.417694 2.222350 0.432230
135.321457 -310.422974 1.777738 0.376593
135.320648 -310.428925 1.333033 0.392279
135.318710 -310.443085 0.887967 0.438235
135.318481 -310.444794 0.440001 0.421936
135.307907 -310.522186 0.000090 0.219050
134.970337 -312.990875 0.000187 0.226259
134.735794 -314.706024 0.000135 0.204056
134.562927 -315.970367 0.000254 0.184833
135.185425 -312.034576 4.997712 0.345098
135.326675 -311.052765 4.798980 0.364338
nan nan nan 0.000000
139.962143 -278.830078 8.751345 0.751716
135.434326 -310.304382 3.577849 0.452819
139.961807 -278.832428 5.731730 0.730882
139.961639 -278.833618 4.235777 0.767402
135.427704 -310.350433 2.223679 0.445221
135.423553 -310.379272 1.776798 0.431250
135.422668 -310.385406 1.330218 0.470588
135.420609 -310.399750 0.883286 0.430392
135.420303 -310.401764 0.433470 0.510049
135.400879 -310.536835 0.000323 0.233372
135.046249 -313.002045 0.000279 0.271722
134.799759 -314.715485 0.000237 0.220108
134.618073 -315.978394 0.000323 0.213668
135.336716 -311.592163 5.112872 0.452328
135.384201 -311.277649 4.752736 0.366544
135.376633 -311.327820 4.309869 0.446691
135.780075 -308.655853 4.283915 0.389583
135.469315 -310.713928 3.531826 0.435172
140.320526 -278.584839 5.756105 0.686152
135.567886 -310.061188 2.686580 0.434926
140.320160 -278.587189 2.749572 0.711765
140.319977 -278.588379 1.250448 0.680270
139.558868 -283.629211 0.000181 0.226740
137.123001 -299.761780 -0.000013 0.332843
136.076782 -306.690826 0.000106 0.213956
135.494171 -310.549347 0.000141 0.192330
135.122406 -313.011536 -0.000036 0.200980
134.863922 -314.723511 -0.000072 0.268358
134.673355 -315.985626 0.000103 0.235486
135.396072 -311.772278 5.070563 0.442034
135.451630 -311.420959 4.724380 0.362745
135.468674 -311.313263 4.315048 0.412377
135.591827 -310.534424 4.004257 0.364338
135.650970 -310.160400 3.597950 0.461029
140.683975 -278.333923 5.780987 0.746691
135.663712 -310.079834 2.686393 0.439951
140.683594 -278.336365 2.754537 0.707598
140.683395 -278.337524 1.245482 0.746936
139.840118 -283.670135 0.000060 0.231353
137.291290 -299.787781 -0.000013 0.331618
136.196701 -306.709473 0.000121 0.216167
135.587112 -310.564209 0.000211 0.202422
135.198242 -313.023285 -0.000025 0.212322
134.927734 -314.733734 0.000007 0.267205
134.728485 -315.993835 0.000020 0.211842
nan nan nan 0.000000
135.537430 -311.441833 4.722882 0.362255
135.767883 -310.047729 4.551054 0.410784
135.610565 -310.999481 3.936601 0.368137
141.052490 -278.078491 7.340566 0.746201
135.773468 -310.013916 3.152399 0.373897
135.773361 -310.014557 2.690418 0.445588
136.840683 -303.557800 2.337067 1.000000
136.840683 -303.557800 1.662933 1.000000
136.840683 -303.557800 0.988077 1.000000
136.840683 -303.557800 0.311047 1.000000
136.316650 -306.727997 0.000021 0.228470
135.680099 -310.578766 0.000144 0.248847
135.273880 -313.036255 0.000102 0.188966
134.991470 -314.744598 0.000128 0.273260
134.783447 -316.003113 0.000116 0.221261
nan nan nan 0.000000
nan nan nan 0.000000
nan nan nan 0.000000
135.855698 -310.114502 4.072098 0.423284
141.425812 -277.820770 7.376952 0.714828
141.425598 -277.822021 5.832319 0.743995
141.425400 -277.823242 4.296042 0.731740
136.956863 -303.730225 2.334601 1.000000
136.956863 -303.730225 1.665399 1.000000
136.956879 -303.730225 0.995479 1.000000
136.956863 -303.730225 0.323400 1.000000
136.436310 -306.748291 0.000034 0.227413
135.772827 -310.594940 0.000223 0.271338
135.349457 -313.049438 0.000179 0.225682
135.055313 -314.754822 0.000007 0.208766
134.838425 -316.012268 0.000094 0.254229
nan nan nan 0.000000
135.705429 -311.502289 4.716186 0.429167
135.738022 -311.320770 4.321863 0.334191
135.803101 -310.958618 3.947431 0.414951
141.804291 -277.559509 7.414102 0.686397
135.968842 -310.036163 3.153323 0.411397
141.803833 -277.562012 4.311905 0.768015
137.071381 -303.900146 2.332187 1.000000
137.071381 -303.900146 1.667812 1.000000
137.071381 -303.900146 1.002724 1.000000
137.071381 -303.900146 0.335493 1.000000
136.555679 -306.770233 0.000135 0.214245
135.865479 -310.611450 0.000251 0.215110
135.425125 -313.062195 0.000080 0.211842
135.118881 -314.766602 0.000134 0.190600
134.893250 -316.022308 0.000186 0.201653
136.051239 -310.129822 5.503932 0.366054
135.830490 -311.310913 4.761705 0.333946
135.832993 -311.297607 4.329123 0.346324
135.862335 -311.140594 3.922463 0.454902
136.004364 -310.380676 3.579887 0.348162
147.645676 -248.093292 8.321770 0.404534
146.821655 -252.502319 5.567286 0.416054
137.184250 -304.067627 2.329825 1.000000
137.184250 -304.067627 1.670175 1.000000
137.184235 -304.067627 1.009818 1.000000
137.184250 -304.067627 0.347333 1.000000
136.675156 -306.791534 0.000068 0.246924
135.958130 -310.628052 0.000190 0.217705
135.500458 -313.076782 0.000212 0.226836
135.182327 -314.778992 0.000293 0.269992
134.948120 -316.032166 0.000130 0.197424
136.179062 -309.983887 5.545828 0.466422
135.934723 -311.242462 4.780444 0.369608
136.046951 -310.664337 4.449599 0.365686
136.042145 -310.689056 3.993249 0.356373
136.230942 -309.716644 3.659805 0.386520
136.164154 -310.060608 3.154294 0.344976
137.295532 -304.232758 2.983235 1.000000
137.295532 -304.232758 2.327511 1.000000
137.295532 -304.232758 1.672489 1.000000
137.295532 -304.232758 1.016764 1.000000
137.295532 -304.232758 0.358927 1.000000
136.794312 -306.814606 0.000112 0.231065
136.050461 -310.646301 0.000288 0.262880
135.575928 -313.090637 0.000121 0.202134
135.245911 -314.790619 0.000193 0.192907
135.002869 -316.042572 0.000135 0.207228
132.064957 -330.913300 3.797069 0.357598
132.087326 -330.802277 3.525043 0.403922
131.973572 -331.367157 3.389653 0.411029
127.965637 -351.268860 6.144292 0.664828
131.693283 -332.758911 3.041922 0.397672
127.966164 -351.266296 4.290615 0.753186
127.966415 -351.265015 3.372340 0.718015
127.966667 -351.263794 2.457099 0.766789
127.966919 -351.262512 1.542922 0.669240
127.967178 -351.261230 0.627849 0.740441
128.665863 -347.791840 -0.000007 0.332843
130.049103 -340.923218 -0.000007 0.332475
130.819519 -337.097687 0.000008 0.229719
131.311554 -334.654419 0.000203 0.254806
131.653259 -332.957672 0.000091 0.197520
131.905212 -331.706635 0.000224 0.217993
131.989487 -331.029846 3.829470 0.393260
132.062958 -330.677765 3.499756 0.404902
132.087738 -330.558960 3.241413 0.404902
127.732986 -351.428955 6.174487 0.700858
127.733261 -351.427643 5.237334 0.791544
127.733536 -351.426331 4.307302 0.696936
127.733803 -351.425049 3.382337 0.788113
127.734070 -351.423767 2.460428 0.762868
127.734337 -351.422485 1.539593 0.805147
127.734604 -351.421204 0.617855 0.771569
128.499054 -347.757629 -0.000008 0.332843
129.930206 -340.898834 -0.000008 0.333456
130.727325 -337.078674 0.000025 0.200788
131.236420 -334.638885 0.000225 0.238274
131.589951 -332.944611 0.000108 0.205786
131.850662 -331.695160 0.000293 0.188101
131.718994 -332.040802 4.091253 0.404044
131.801193 -331.660217 3.719059 0.395833
131.657745 -332.324402 3.571896 0.405515
127.496918 -351.591370 6.205328 0.746936
127.497200 -351.590057 5.261252 0.703431
127.497482 -351.588745 4.324348 0.734436
127.497765 -351.587433 3.392549 0.768260
127.498047 -351.586151 2.463829 0.765564
127.498322 -351.584869 1.536192 0.783824
127.498604 -351.583557 0.607646 0.812010
128.332458 -347.722290 -0.000010 0.335172
129.811478 -340.873627 -0.000007 0.334926
130.635574 -337.057617 0.000251 0.221453
131.161377 -334.622864 0.000243 0.268262
131.526840 -332.930664 0.000226 0.223760
131.795975 -331.684326 0.000098 0.281430
127.256401 -351.760345 9.155571 0.670711
131.796967 -331.424072 3.669445 0.400123
131.634644 -332.151154 3.542010 0.394118
131.558838 -332.490662 3.308691 0.393505
127.257614 -351.754883 5.285686 0.570956
127.257904 -351.753571 4.341762 0.678676
127.258209 -351.752228 3.402981 0.706373
127.258499 -351.750946 2.467304 0.744118
127.258789 -351.749634 1.532718 0.796814
127.259087 -351.748322 0.597216 0.723529
128.166138 -347.685791 -0.000011 0.333701
129.692947 -340.847595 -0.000007 0.333333
130.543839 -337.036621 0.000376 0.214821
131.086670 -334.605377 0.000433 0.213187
131.463867 -332.916016 0.000398 0.231642
131.741699 -331.671722 0.000270 0.190984
131.604752 -332.017517 4.091794 0.380760
131.917862 -330.659790 3.502689 0.389583
131.577652 -332.135010 3.541439 0.389461
127.014084 -351.923615 6.269032 0.731373
127.014397 -351.922241 5.310652 0.730515
127.014709 -351.920898 4.359555 0.720833
127.015015 -351.919556 3.413641 0.714583
127.015320 -351.918243 2.470855 0.725123
127.015625 -351.916901 1.529168 0.698652
127.015930 -351.915558 0.586559 0.715564
128.000092 -347.648071 -0.000007 0.330515
129.574570 -340.820740 -0.000007 0.332843
130.451859 -337.016663 0.000241 0.199346
131.011688 -334.589111 0.000301 0.229431
131.400696 -332.902283 0.000268 0.229047
131.687286 -331.659576 0.000216 0.275855
131.806122 -330.919464 3.812491 0.402083
131.530930 -332.075897 3.819539 0.395098
131.520523 -332.119598 3.541081 0.397181
126.767120 -352.093536 6.301934 0.758333
126.767441 -352.092163 5.336164 0.703431
126.767769 -352.090790 4.377737 0.739093
126.768089 -352.089447 3.424533 0.763113
126.768417 -352.088074 2.474483 0.751716
126.768730 -352.086761 1.525540 0.704289
126.769051 -352.085388 0.575670 0.715809
127.834290 -347.609253 -0.000009 0.334191
129.456406 -340.793060 -0.000006 0.335784
130.360260 -336.995056 0.000262 0.252307
130.936737 -334.572693 0.000100 0.241638
131.337814 -332.887360 0.000309 0.218474
131.632904 -331.647369 0.000088 0.255286
131.765121 -330.874603 3.803981 0.395098
131.756866 -330.908203 3.562932 0.391176
126.515953 -352.267517 7.318470 0.761765
126.516296 -352.266144 6.335557 0.775245
126.516640 -352.264709 5.362239 0.671446
126.516975 -352.263336 4.396319 0.764583
126.517319 -352.261963 3.435666 0.775613
126.517654 -352.260590 2.478190 0.737255
126.517990 -352.259216 1.521832 0.722672
126.518326 -352.257874 0.564541 0.650368
127.668770 -347.569244 -0.000009 0.333701
129.338440 -340.764526 -0.000006 0.330760
130.269104 -336.971558 0.000474 0.208285
130.862350 -334.553833 0.000256 0.213668
131.275192 -332.871307 0.000503 0.272011
131.578888 -331.633575 0.000268 0.190696
126.260414 -352.445770 9.380377 0.692157
131.693619 -330.952332 3.575479 0.406250
126.261154 -352.442871 7.360632 0.707966
126.261513 -352.441437 6.369925 0.722549
126.261879 -352.440033 5.388890 0.731250
126.262230 -352.438599 4.415314 0.741054
126.262581 -352.437225 3.447045 0.817034
126.262932 -352.435822 2.481981 0.725735
126.263290 -352.434448 1.518043 0.775123
126.263634 -352.433075 0.553165 0.765564
127.503540 -347.528046 -0.000005 0.332230
129.220657 -340.735199 -0.000006 0.329044
130.177383 -336.950439 0.000226 0.200884
130.787415 -334.537231 -0.000109 0.204056
131.212082 -332.857239 0.000158 0.254325
131.524734 -331.620392 0.000195 0.254806
126.001495 -352.623962 9.439726 0.674387
131.546967 -331.313629 3.658936 0.401225
126.002274 -352.621002 7.403734 0.684559
126.002647 -352.619537 6.405059 0.667525
126.003021 -352.618103 5.416136 0.704657
126.003387 -352.616699 4.434731 0.760417
126.003761 -352.615265 3.458677 0.703676
126.004128 -352.613861 2.485855 0.679657
126.004494 -352.612457 1.514169 0.770711
126.004852 -352.611023 0.541536 0.800000
127.338600 -347.485718 -0.000004 0.332721
129.103088 -340.705048 -0.000005 0.332843
130.085999 -336.927917 0.000094 0.229239
130.713425 -334.516785 0.000147 0.207228
131.149506 -332.841034 0.000194 0.246348
131.470779 -331.606384 0.000232 0.210015
125.738380 -352.805023 9.500402 0.685417
125.738777 -352.803528 8.466795 0.679534
125.739182 -352.802032 7.447801 0.646446
125.739571 -352.800568 6.440981 0.671814
125.739960 -352.799103 5.443993 0.702696
125.740356 -352.797668 4.454582 0.782843
125.740738 -352.796204 3.470570 0.746691
125.741112 -352.794800 2.489816 0.788725
125.741501 -352.793396 1.510208 0.796691
125.741875 -352.791931 0.529647 0.762132
127.173943 -347.442291 -0.000007 0.332843
128.985748 -340.674072 -0.000005 0.331863
129.995071 -336.903625 0.000137 0.287389
130.639282 -334.497040 0.000177 0.260381
131.086868 -332.825073 0.000068 0.256920
131.416779 -331.592621 0.000112 0.202614
125.470909 -352.989136 9.562450 0.749020
125.471329 -352.987579 8.520289 0.746691
125.471748 -352.986053 7.492864 0.745711
125.472160 -352.984589 6.477713 0.753554
125.472565 -352.983093 5.472476 0.767892
125.472969 -352.981598 4.474883 0.775245
125.473373 -352.980133 3.482732 0.720833
125.473770 -352.978729 2.493866 0.804289
125.474167 -352.977264 1.506158 0.792402
125.474564 -352.975800 0.517488 0.783211
127.009613 -347.397644 -0.000004 0.333946
128.868607 -340.642273 -0.000004 0.331373
129.904495 -336.877991 0.000286 0.195021
130.565292 -334.476746 0.000217 0.221742
131.024734 -332.807190 0.000276 0.267782
131.363205 -331.577271 0.000313 0.221549
125.198967 -353.176270 9.625910 0.715196
125.199402 -353.174713 8.575000 0.700980
125.199837 -353.173157 7.538951 0.720711
125.200264 -353.171631 6.515280 0.741667
125.200684 -353.170166 5.501609 0.726716
125.201111 -353.168640 4.495646 0.782966
125.201538 -353.167175 3.495170 0.706740
125.201950 -353.165710 2.498009 0.705024
125.202362 -353.164215 1.502016 0.735784
125.202774 -353.162750 0.505054 0.782230
126.845596 -347.351837 -0.000001 0.333456
128.775360 -340.526031 0.009995 1.000000
129.813599 -336.853546 0.000154 0.203768
130.491455 -334.455872 0.000264 0.265763
130.962524 -332.789673 0.000315 0.202422
131.309372 -331.562805 0.000180 0.226163
124.922409 -353.366577 9.690821 0.728799
124.922867 -353.365021 8.630960 0.702819
124.923317 -353.363464 7.586092 0.700980
124.923767 -353.361908 6.553707 0.719975
124.924210 -353.360382 5.531407 0.747426
124.924652 -353.358856 4.516882 0.728922
124.925087 -353.357361 3.507893 0.729044
124.925514 -353.355896 2.502246 0.737010
124.925949 -353.354401 1.497779 0.774265
124.926384 -353.352875 0.492336 0.794363
126.681892 -347.304993 -0.000004 0.332966
128.659256 -340.492737 0.009995 1.000000
129.723190 -336.827423 0.000188 0.215013
130.417480 -334.435486 0.000123 0.186178
130.899902 -332.773499 -0.000052 0.270569
131.255829 -331.547302 0.000217 0.218570
124.641083 -353.560181 9.757227 0.767157
124.641563 -353.558594 8.688211 0.806005
124.642036 -353.557007 7.634319 0.800613
124.642502 -353.555450 6.593019 0.794853
124.642967 -353.553894 5.561893 0.788725
124.643425 -353.552338 4.538608 0.766912
124.643875 -353.550812 3.520908 0.767157
124.644325 -353.549316 2.506582 0.771078
124.644775 -353.547821 1.493444 0.770956
124.645233 -353.546265 0.479324 0.718995
126.518509 -347.256989 -0.000008 0.333824
128.518585 -340.541992 -0.000002 0.332230
129.632904 -336.800812 0.000197 0.205210
130.343857 -334.413879 0.000115 0.250000
130.838242 -332.754059 0.000216 0.261053
131.202438 -331.531311 0.000290 0.223376
124.354851 -353.757172 9.825172 0.746201
124.355347 -353.755554 8.746792 0.726593
131.040771 -331.869781 3.520067 0.400858
124.356323 -353.752380 6.633245 0.698162
124.356796 -353.750793 5.593085 0.698407
124.357285 -353.749207 4.560838 0.698407
124.357765 -353.747650 3.534225 0.728922
124.358223 -353.746155 2.511017 0.737010
124.358688 -353.744598 1.489009 0.744730
124.359161 -353.743042 0.466010 0.753676
126.355469 -347.207855 -0.000011 0.332966
128.402390 -340.506927 -0.000003 0.334681
129.542526 -336.774506 0.000060 0.244137
130.270477 -334.391449 0.000166 0.269127
130.776184 -332.735901 0.000098 0.223952
131.148926 -331.515686 0.000160 0.199827
nan nan nan 0.000000
nan nan nan 0.000000
130.986130 -331.849060 3.519404 0.345833
119.183037 -369.544464 9.097948 1.000000
119.183037 -369.544464 7.504754 1.000000
119.183037 -369.544464 5.923515 1.000000
119.183029 -369.544464 4.350743 1.000000
119.183044 -369.544464 2.783021 1.000000
119.183037 -369.544464 1.216979 1.000000
121.317368 -362.728088 0.000156 0.229239
126.192787 -347.157532 -0.000010 0.334314
128.287308 -340.468292 0.000330 0.236544
129.452682 -336.746429 0.000100 0.242118
130.196960 -334.369476 0.000038 0.270857
