# This PCD file was generated using the MATLABÂ® pcwrite function
# from Computer Vision ToolboxÂ®.
# .PCD v.7 - Point Cloud Data file format
VERSION .7
FIELDS x y z intensity
SIZE 4 4 4 4
TYPE F F F F
COUNT 1 1 1 1
WIDTH 1162
HEIGHT 1
VIEWPOINT 0 0 0 1 0 0 0
POINTS 1162
DATA ascii
-104.821564 -11.534586 1.148237 1.000000
-104.821564 -11.534586 0.804963 1.000000
-104.821564 -11.534586 0.459093 1.000000
-104.821564 -11.534586 0.109849 1.000000
-105.949760 -11.573215 0.000229 0.219723
-107.225121 -11.616884 0.000366 0.279700
-104.833397 -11.607455 4.598523 1.000000
-104.833389 -11.607455 4.240545 1.000000
-104.833397 -11.607455 3.887593 1.000000
-104.833397 -11.607455 3.538821 1.000000
-104.833397 -11.607455 3.193419 1.000000
-104.833389 -11.607455 2.850610 1.000000
-104.833397 -11.607455 2.509636 1.000000
-104.833397 -11.607455 2.169758 1.000000
-104.833397 -11.607455 1.830242 1.000000
-104.833397 -11.607455 1.490363 1.000000
-104.833389 -11.607455 1.149390 1.000000
-104.833397 -11.607455 0.806580 1.000000
-104.833389 -11.607455 0.461179 1.000000
-104.833397 -11.607455 0.112407 1.000000
-105.948090 -11.637834 0.000297 0.242407
-107.223755 -11.672600 0.000453 0.245771
-104.845184 -11.680132 4.595137 1.000000
-104.845184 -11.680132 4.237626 1.000000
-104.845184 -11.680132 3.885134 1.000000
-104.845184 -11.680133 3.536816 1.000000
-104.845184 -11.680132 3.191864 1.000000
-104.845184 -11.680132 2.849502 1.000000
-104.845184 -11.680132 2.508972 1.000000
-104.845184 -11.680132 2.169536 1.000000
-104.845184 -11.680132 1.830464 1.000000
-104.845184 -11.680132 1.491028 1.000000
-104.845184 -11.680132 1.150498 1.000000
-104.845184 -11.680132 0.808135 1.000000
-104.845184 -11.680133 0.463184 1.000000
-104.845184 -11.680132 0.114866 1.000000
-105.944740 -11.702417 -0.000096 0.242503
-107.220871 -11.728281 0.000063 0.211169
-104.856949 -11.752623 4.591887 1.000000
-104.856949 -11.752623 4.234823 1.000000
-104.856949 -11.752623 3.882771 1.000000
-104.856949 -11.752623 3.534890 1.000000
-104.856949 -11.752623 3.190371 1.000000
-104.856949 -11.752623 2.848438 1.000000
-104.856949 -11.752623 2.508335 1.000000
-104.856949 -11.752623 2.169324 1.000000
-104.856949 -11.752623 1.830676 1.000000
-104.856949 -11.752623 1.491665 1.000000
-104.856949 -11.752623 1.151562 1.000000
-104.856949 -11.752623 0.809628 1.000000
-104.856949 -11.752623 0.465110 1.000000
-104.856949 -11.752623 0.117228 1.000000
-105.944199 -11.767067 0.000022 0.230200
-107.220497 -11.784020 0.000202 0.211842
-104.868690 -11.824937 4.588770 1.000000
-104.868683 -11.824937 4.232135 1.000000
-104.868683 -11.824937 3.880507 1.000000
-104.868683 -11.824937 3.533045 1.000000
-104.868683 -11.824937 3.188940 1.000000
-104.868683 -11.824937 2.847417 1.000000
-104.868683 -11.824937 2.507724 1.000000
-104.868683 -11.824936 2.169120 1.000000
-104.868683 -11.824937 1.830880 1.000000
-104.868683 -11.824937 1.492277 1.000000
-104.868683 -11.824937 1.152582 1.000000
-104.868683 -11.824937 0.811060 1.000000
-104.868683 -11.824937 0.466955 1.000000
-104.868683 -11.824937 0.119492 1.000000
-105.943909 -11.831713 0.000096 0.233852
-107.220207 -11.839755 0.000268 0.224241
-104.880394 -11.897080 4.585786 1.000000
-104.880394 -11.897080 4.229562 1.000000
-104.880394 -11.897080 3.878340 1.000000
-104.880394 -11.897080 3.531278 1.000000
-104.880394 -11.897080 3.187570 1.000000
-104.880394 -11.897080 2.846441 1.000000
-104.880394 -11.897080 2.507138 1.000000
-104.880394 -11.897080 2.168926 1.000000
-104.880394 -11.897080 1.831075 1.000000
-104.880394 -11.897080 1.492862 1.000000
-104.880394 -11.897080 1.153559 1.000000
-104.880394 -11.897080 0.812430 1.000000
-104.880394 -11.897080 0.468722 1.000000
-104.880394 -11.897080 0.121660 1.000000
-105.943977 -11.896358 0.000150 0.246636
-107.220284 -11.895491 0.000325 0.263745
-104.892075 -11.969061 4.582935 1.000000
-104.892075 -11.969061 4.227105 1.000000
-104.892075 -11.969061 3.876269 1.000000
-104.892075 -11.969061 3.529589 1.000000
-104.892075 -11.969061 3.186260 1.000000
-104.892075 -11.969061 2.845507 1.000000
-104.892075 -11.969061 2.506579 1.000000
-104.892075 -11.969061 2.168739 1.000000
-104.892075 -11.969061 1.831261 1.000000
-104.892075 -11.969061 1.493421 1.000000
-104.892075 -11.969061 1.154492 1.000000
-104.892075 -11.969061 0.813740 1.000000
-104.892075 -11.969061 0.470410 1.000000
-104.892075 -11.969061 0.123731 1.000000
-105.944519 -11.960998 0.000209 0.222895
-107.220680 -11.951221 0.000367 0.308439
-104.903732 -12.040886 4.580215 1.000000
-104.903732 -12.040886 4.224760 1.000000
-104.903732 -12.040885 3.874294 1.000000
-104.903732 -12.040886 3.527979 1.000000
-104.903732 -12.040886 3.185011 1.000000
-104.903732 -12.040886 2.844617 1.000000
-104.903732 -12.040885 2.506046 1.000000
-104.903732 -12.040885 2.168561 1.000000
-104.903732 -12.040885 1.831439 1.000000
-104.903732 -12.040886 1.493954 1.000000
-104.903732 -12.040886 1.155382 1.000000
-104.903732 -12.040886 0.814989 1.000000
-104.903740 -12.040886 0.472021 1.000000
-104.903732 -12.040886 0.125706 1.000000
-105.945488 -12.025632 0.000261 0.198385
-107.221550 -12.006946 0.000429 0.201557
-104.915367 -12.112564 4.577628 1.000000
-104.915367 -12.112564 4.222528 1.000000
-104.915367 -12.112564 3.872414 1.000000
-104.915367 -12.112563 3.526447 1.000000
-104.915367 -12.112564 3.183823 1.000000
-104.915367 -12.112564 2.843770 1.000000
-104.915367 -12.112564 2.505538 1.000000
-104.915367 -12.112563 2.168392 1.000000
-104.915367 -12.112563 1.831608 1.000000
-104.915367 -12.112563 1.494462 1.000000
-104.915367 -12.112563 1.156229 1.000000
-104.915367 -12.112564 0.816177 1.000000
-104.915367 -12.112563 0.473553 1.000000
-104.915367 -12.112563 0.127586 1.000000
-105.946907 -12.090255 0.000316 0.267397
-107.222816 -12.062661 0.000492 0.210977
-104.926971 -12.184101 4.575171 1.000000
-104.926971 -12.184101 4.220409 1.000000
-104.926971 -12.184101 3.870629 1.000000
-104.926971 -12.184101 3.524992 1.000000
-104.926971 -12.184101 3.182694 1.000000
-104.926971 -12.184101 2.842966 1.000000
-104.926971 -12.184101 2.505056 1.000000
-104.926971 -12.184101 2.168232 1.000000
-104.926971 -12.184101 1.831768 1.000000
-104.926971 -12.184101 1.494943 1.000000
-104.926971 -12.184101 1.157034 1.000000
-104.926971 -12.184101 0.817306 1.000000
-104.926971 -12.184101 0.475008 1.000000
-104.926971 -12.184101 0.129370 1.000000
-105.948723 -12.154866 0.000358 0.255479
-107.224350 -12.118367 0.000527 0.303729
-104.938560 -12.255506 4.572844 1.000000
-104.938560 -12.255506 4.218403 1.000000
-104.938560 -12.255507 3.868938 1.000000
-104.938560 -12.255506 3.523613 1.000000
-104.938560 -12.255507 3.181626 1.000000
-104.938560 -12.255506 2.842204 1.000000
-104.938560 -12.255506 2.504600 1.000000
-104.938560 -12.255506 2.168080 1.000000
-104.938560 -12.255506 1.831920 1.000000
-104.938560 -12.255506 1.495400 1.000000
-104.938560 -12.255506 1.157796 1.000000
-104.938560 -12.255507 0.818374 1.000000
-104.938560 -12.255506 0.476387 1.000000
-104.938560 -12.255506 0.131061 1.000000
-105.948936 -12.219536 -0.000045 0.228278
-107.224602 -12.174121 0.000140 0.217128
-104.950134 -12.326786 4.570645 1.000000
-104.950134 -12.326785 4.216507 1.000000
-104.950134 -12.326785 3.867342 1.000000
-104.950134 -12.326785 3.522312 1.000000
-104.950134 -12.326786 3.180616 1.000000
-104.950134 -12.326786 2.841485 1.000000
-104.950134 -12.326786 2.504169 1.000000
-104.950134 -12.326786 2.167936 1.000000
-104.950134 -12.326785 1.832064 1.000000
-104.950134 -12.326786 1.495831 1.000000
-104.950134 -12.326785 1.158515 1.000000
-104.950134 -12.326786 0.819384 1.000000
-104.950134 -12.326785 0.477688 1.000000
-104.950134 -12.326785 0.132658 1.000000
-105.951836 -12.284121 0.000036 0.204825
-107.225601 -12.229866 -0.000154 0.202422
-104.961685 -12.397947 4.568576 1.000000
-104.961685 -12.397947 4.214724 1.000000
-104.961685 -12.397947 3.865839 1.000000
-104.961685 -12.397946 3.521086 1.000000
-104.961685 -12.397947 3.179666 1.000000
-104.961685 -12.397947 2.840807 1.000000
-104.961685 -12.397947 2.503763 1.000000
-104.961685 -12.397947 2.167801 1.000000
-104.961685 -12.397947 1.832199 1.000000
-104.961685 -12.397947 1.496237 1.000000
-104.961685 -12.397946 1.159192 1.000000
-104.961685 -12.397947 0.820334 1.000000
-104.961685 -12.397947 0.478913 1.000000
-104.961685 -12.397947 0.134161 1.000000
-105.955009 -12.348689 0.000077 0.220108
-107.228340 -12.285545 -0.000110 0.207324
-104.973213 -12.468996 4.566636 1.000000
-104.973213 -12.468997 4.213050 1.000000
-104.973213 -12.468996 3.864429 1.000000
-104.973213 -12.468996 3.519937 1.000000
-104.973213 -12.468996 3.178774 1.000000
-104.973213 -12.468996 2.840172 1.000000
-104.973213 -12.468996 2.503382 1.000000
-104.973213 -12.468996 2.167674 1.000000
-104.973213 -12.468996 1.832326 1.000000
-104.973213 -12.468996 1.496618 1.000000
-104.973213 -12.468996 1.159828 1.000000
-104.973213 -12.468996 0.821225 1.000000
-104.973213 -12.468996 0.480062 1.000000
-104.973213 -12.468996 0.135571 1.000000
-105.959061 -12.413207 0.000214 0.257882
-107.231537 -12.341197 -0.000051 0.236544
-104.984726 -12.539943 4.564823 1.000000
-104.984726 -12.539943 4.211487 1.000000
-104.984726 -12.539943 3.863112 1.000000
-104.984726 -12.539943 3.518864 1.000000
-104.984726 -12.539943 3.177942 1.000000
-104.984726 -12.539943 2.839579 1.000000
-104.984726 -12.539943 2.503027 1.000000
-104.984726 -12.539943 2.167556 1.000000
-104.984726 -12.539943 1.832444 1.000000
-104.984726 -12.539943 1.496973 1.000000
-104.984726 -12.539943 1.160421 1.000000
-104.984726 -12.539943 0.822058 1.000000
-104.984726 -12.539943 0.481137 1.000000
-104.984726 -12.539943 0.136888 1.000000
-105.963295 -12.477709 0.000289 0.219531
-107.235100 -12.396826 0.000005 0.296905
-104.996223 -12.610793 4.563137 1.000000
-104.996223 -12.610792 4.210033 1.000000
-104.996223 -12.610793 3.861887 1.000000
-104.996223 -12.610792 3.517865 1.000000
-104.996223 -12.610793 3.177168 1.000000
-104.996223 -12.610792 2.839026 1.000000
-104.996223 -12.610793 2.502696 1.000000
-104.996223 -12.610792 2.167446 1.000000
-104.996223 -12.610792 1.832554 1.000000
-104.996223 -12.610793 1.497304 1.000000
-104.996223 -12.610792 1.160973 1.000000
-104.996223 -12.610792 0.822832 1.000000
-104.996223 -12.610792 0.482135 1.000000
-104.996223 -12.610793 0.138112 1.000000
-105.967850 -12.542188 0.000339 0.218570
-107.239067 -12.452427 0.000064 0.285563
-105.007713 -12.681553 4.561578 1.000000
-105.007713 -12.681553 4.208690 1.000000
-105.007713 -12.681553 3.860755 1.000000
-105.007713 -12.681553 3.516943 1.000000
-105.007713 -12.681553 3.176452 1.000000
-105.007713 -12.681553 2.838516 1.000000
-105.007713 -12.681553 2.502390 1.000000
-105.007713 -12.681553 2.167344 1.000000
-105.007713 -12.681553 1.832656 1.000000
-105.007713 -12.681553 1.497609 1.000000
-105.007713 -12.681553 1.161483 1.000000
-105.007713 -12.681553 0.823548 1.000000
-105.007713 -12.681553 0.483057 1.000000
-105.007713 -12.681553 0.139244 1.000000
-105.972855 -12.606629 0.000389 0.249519
-107.243370 -12.507999 0.000109 0.229431
-105.019180 -12.752231 4.560147 1.000000
-105.019180 -12.752230 4.207455 1.000000
-105.019180 -12.752231 3.859715 1.000000
-105.019180 -12.752230 3.516094 1.000000
-105.019180 -12.752231 3.175794 1.000000
-105.019180 -12.752230 2.838048 1.000000
-105.019180 -12.752230 2.502110 1.000000
-105.019180 -12.752231 2.167250 1.000000
-105.019180 -12.752231 1.832750 1.000000
-105.019180 -12.752231 1.497890 1.000000
-105.019180 -12.752230 1.161952 1.000000
-105.019180 -12.752231 0.824206 1.000000
-105.019180 -12.752230 0.483906 1.000000
-105.019180 -12.752231 0.140284 1.000000
-105.978485 -12.671019 0.000476 0.213572
-107.248215 -12.563528 0.000193 0.217128
-105.030640 -12.822832 4.558841 1.000000
-105.030640 -12.822832 4.206329 1.000000
-105.030640 -12.822832 3.858767 1.000000
-105.030640 -12.822832 3.515321 1.000000
-105.030640 -12.822832 3.175195 1.000000
-105.030640 -12.822832 2.837620 1.000000
-105.030640 -12.822832 2.501853 1.000000
-105.030640 -12.822832 2.167165 1.000000
-105.030640 -12.822832 1.832835 1.000000
-105.030640 -12.822832 1.498146 1.000000
-105.030640 -12.822832 1.162379 1.000000
-105.030640 -12.822832 0.824805 1.000000
-105.030640 -12.822832 0.484679 1.000000
-105.030640 -12.822832 0.141233 1.000000
-105.982231 -12.735578 0.000057 0.215206
-107.251442 -12.619202 -0.000226 0.298347
-105.042084 -12.893366 4.557661 1.000000
-105.042084 -12.893366 4.205312 1.000000
-105.042084 -12.893366 3.857910 1.000000
-105.042084 -12.893366 3.514622 1.000000
-105.042084 -12.893366 3.174653 1.000000
-105.042084 -12.893366 2.837234 1.000000
-105.042084 -12.893366 2.501622 1.000000
-105.042084 -12.893367 2.167088 1.000000
-105.042084 -12.893367 1.832912 1.000000
-105.042084 -12.893366 1.498378 1.000000
-105.042084 -12.893366 1.162766 1.000000
-105.042084 -12.893366 0.825347 1.000000
-105.042084 -12.893366 0.485378 1.000000
-105.042084 -12.893366 0.142090 1.000000
-105.988594 -12.799911 0.000107 0.197616
-107.256943 -12.674678 -0.000171 0.197616
-105.053520 -12.963838 4.556607 1.000000
-105.053528 -12.963838 4.204403 1.000000
-105.053520 -12.963838 3.857144 1.000000
-105.053520 -12.963838 3.513998 1.000000
-105.053528 -12.963838 3.174169 1.000000
-105.053528 -12.963838 2.836889 1.000000
-105.053528 -12.963838 2.501415 1.000000
-105.053520 -12.963838 2.167019 1.000000
-105.053520 -12.963838 1.832981 1.000000
-105.053528 -12.963838 1.498585 1.000000
-105.053528 -12.963838 1.163111 1.000000
-105.053528 -12.963838 0.825831 1.000000
-105.053520 -12.963838 0.486002 1.000000
-105.053520 -12.963838 0.142856 1.000000
-105.995567 -12.864177 0.000196 0.217416
-107.262863 -12.730107 -0.000106 0.194444
-105.064949 -13.034255 4.555678 1.000000
-105.064949 -13.034255 4.203602 1.000000
-105.064949 -13.034255 3.856469 1.000000
-105.064949 -13.034255 3.513448 1.000000
-105.064949 -13.034255 3.173742 1.000000
-105.064949 -13.034255 2.836585 1.000000
-105.064949 -13.034255 2.501234 1.000000
-105.064949 -13.034255 2.166959 1.000000
-105.064949 -13.034255 1.833042 1.000000
-105.064949 -13.034255 1.498767 1.000000
-105.064949 -13.034255 1.163415 1.000000
-105.064949 -13.034255 0.826258 1.000000
-105.064949 -13.034255 0.486552 1.000000
-105.064949 -13.034255 0.143531 1.000000
-106.002762 -12.928417 0.000232 0.241734
-107.269150 -12.785498 -0.000051 0.185794
-105.076378 -13.104624 4.554874 1.000000
-105.076370 -13.104624 4.202909 1.000000
-105.076378 -13.104624 3.855886 1.000000
-105.076370 -13.104624 3.512972 1.000000
-105.076370 -13.104624 3.173373 1.000000
-105.076378 -13.104624 2.836322 1.000000
-105.076370 -13.104624 2.501076 1.000000
-105.076370 -13.104624 2.166906 1.000000
-105.076370 -13.104624 1.833094 1.000000
-105.076370 -13.104624 1.498924 1.000000
-105.076378 -13.104624 1.163678 1.000000
-105.076370 -13.104624 0.826627 1.000000
-105.076378 -13.104624 0.487028 1.000000
-105.076370 -13.104624 0.144114 1.000000
-106.010475 -12.992597 0.000282 0.244425
-107.275818 -12.840841 0.000005 0.226067
-105.087784 -13.174953 4.554195 1.000000
-105.087784 -13.174953 4.202324 1.000000
-105.087791 -13.174953 3.855392 1.000000
-105.087791 -13.174953 3.512570 1.000000
-105.087784 -13.174953 3.173061 1.000000
-105.087784 -13.174953 2.836100 1.000000
-105.087784 -13.174953 2.500942 1.000000
-105.087784 -13.174953 2.166862 1.000000
-105.087784 -13.174953 1.833138 1.000000
-105.087784 -13.174953 1.499057 1.000000
-105.087784 -13.174953 1.163900 1.000000
-105.087784 -13.174953 0.826939 1.000000
-105.087784 -13.174953 0.487429 1.000000
-105.087791 -13.174953 0.144608 1.000000
-106.018730 -13.056704 0.000357 0.215110
-107.282898 -12.896131 0.000069 0.197520
-105.099190 -13.245247 4.553642 1.000000
-105.099197 -13.245246 4.201846 1.000000
-105.099197 -13.245247 3.854990 1.000000
-105.099190 -13.245247 3.512243 1.000000
-105.099190 -13.245247 3.172807 1.000000
-105.099190 -13.245247 2.835919 1.000000
-105.099190 -13.245247 2.500834 1.000000
-105.099190 -13.245247 2.166825 1.000000
-105.099190 -13.245247 1.833175 1.000000
-105.099197 -13.245247 1.499166 1.000000
-105.099197 -13.245247 1.164081 1.000000
-105.099197 -13.245247 0.827193 1.000000
-105.099190 -13.245247 0.487757 1.000000
-105.099197 -13.245247 0.145010 1.000000
-106.025787 -13.120972 0.000070 0.206555
-107.289024 -12.951547 -0.000207 0.238466
-105.110596 -13.315515 4.553213 1.000000
-105.110596 -13.315515 4.201476 1.000000
-105.110596 -13.315515 3.854679 1.000000
-105.110596 -13.315515 3.511988 1.000000
-105.110596 -13.315515 3.172609 1.000000
-105.110596 -13.315515 2.835778 1.000000
-105.110596 -13.315515 2.500749 1.000000
-105.110596 -13.315515 2.166797 1.000000
-105.110596 -13.315515 1.833203 1.000000
-105.110596 -13.315515 1.499250 1.000000
-105.110596 -13.315515 1.164222 1.000000
-105.110596 -13.315515 0.827390 1.000000
-105.110596 -13.315515 0.488012 1.000000
-105.110596 -13.315515 0.145321 1.000000
-106.034882 -13.184974 0.000132 0.273164
-107.296783 -13.006751 -0.000166 0.205113
-105.121994 -13.385762 4.552908 1.000000
-105.121994 -13.385762 4.201214 1.000000
-105.122002 -13.385761 3.854456 1.000000
-105.121994 -13.385762 3.511808 1.000000
-105.121994 -13.385762 3.172470 1.000000
-105.121994 -13.385762 2.835678 1.000000
-105.121994 -13.385762 2.500690 1.000000
-105.121994 -13.385762 2.166777 1.000000
-105.121994 -13.385762 1.833223 1.000000
-105.121994 -13.385762 1.499310 1.000000
-105.121994 -13.385762 1.164322 1.000000
-105.121994 -13.385762 0.827530 1.000000
-105.121994 -13.385762 0.488192 1.000000
-105.121994 -13.385762 0.145543 1.000000
-106.044479 -13.248900 0.000205 0.258939
-107.305077 -13.061876 -0.000088 0.208285
-105.133400 -13.455997 4.552728 1.000000
-105.133400 -13.455997 4.201058 1.000000
-105.133400 -13.455997 3.854327 1.000000
-105.133400 -13.455997 3.511701 1.000000
-105.133400 -13.455997 3.172387 1.000000
-105.133400 -13.455997 2.835619 1.000000
-105.133400 -13.455997 2.500655 1.000000
-105.133400 -13.455997 2.166766 1.000000
-105.133400 -13.455997 1.833234 1.000000
-105.133400 -13.455997 1.499345 1.000000
-105.133400 -13.455997 1.164381 1.000000
-105.133400 -13.455997 0.827613 1.000000
-105.133400 -13.455997 0.488299 1.000000
-105.133400 -13.455997 0.145673 1.000000
-106.054375 -13.312782 0.000243 0.247020
-107.313667 -13.116955 -0.000033 0.231065
-105.144798 -13.526223 4.552672 1.000000
-105.144798 -13.526223 4.201010 1.000000
-105.144798 -13.526223 3.854286 1.000000
-105.144798 -13.526223 3.511668 1.000000
-105.144798 -13.526223 3.172362 1.000000
-105.144798 -13.526223 2.835601 1.000000
-105.144798 -13.526223 2.500643 1.000000
-105.144798 -13.526223 2.166762 1.000000
-105.144798 -13.526223 1.833238 1.000000
-105.144798 -13.526223 1.499356 1.000000
-105.144798 -13.526223 1.164399 1.000000
-105.144798 -13.526223 0.827638 1.000000
-105.144798 -13.526223 0.488332 1.000000
-105.144798 -13.526223 0.145714 1.000000
-106.064804 -13.376573 0.000305 0.197424
-107.322586 -13.171979 0.000008 0.232411
-105.156197 -13.596452 4.552741 1.000000
-105.156189 -13.596452 4.201070 1.000000
-105.156189 -13.596452 3.854336 1.000000
-105.156189 -13.596452 3.511708 1.000000
-105.156189 -13.596452 3.172393 1.000000
-105.156197 -13.596452 2.835623 1.000000
-105.156189 -13.596452 2.500657 1.000000
-105.156197 -13.596452 2.166767 1.000000
-105.156197 -13.596452 1.833233 1.000000
-105.156189 -13.596452 1.499343 1.000000
-105.156197 -13.596452 1.164376 1.000000
-105.156189 -13.596452 0.827607 1.000000
-105.156189 -13.596452 0.488292 1.000000
-105.156189 -13.596452 0.145664 1.000000
-106.075745 -13.440280 0.000378 0.195117
-107.332039 -13.226914 0.000085 0.220588
-105.167587 -13.666687 4.552934 1.000000
-105.167587 -13.666687 4.201236 1.000000
-105.167587 -13.666687 3.854476 1.000000
-105.167587 -13.666686 3.511822 1.000000
-105.167587 -13.666687 3.172482 1.000000
-105.167587 -13.666687 2.835686 1.000000
-105.167587 -13.666687 2.500695 1.000000
-105.167587 -13.666687 2.166779 1.000000
-105.167587 -13.666687 1.833221 1.000000
-105.167587 -13.666687 1.499305 1.000000
-105.167587 -13.666687 1.164313 1.000000
-105.167587 -13.666686 0.827519 1.000000
-105.167587 -13.666686 0.488177 1.000000
-105.167587 -13.666687 0.145524 1.000000
-106.086952 -13.503934 0.000415 0.205402
-107.341774 -13.281796 0.000139 0.250288
-105.178993 -13.736937 4.553252 1.000000
-105.178993 -13.736937 4.201510 1.000000
-105.178993 -13.736937 3.854706 1.000000
-105.178993 -13.736937 3.512011 1.000000
-105.178993 -13.736937 3.172627 1.000000
-105.178993 -13.736937 2.835791 1.000000
-105.178993 -13.736937 2.500757 1.000000
-105.178993 -13.736937 2.166800 1.000000
-105.178993 -13.736937 1.833200 1.000000
-105.178993 -13.736937 1.499243 1.000000
-105.178993 -13.736937 1.164209 1.000000
-105.178993 -13.736937 0.827373 1.000000
-105.178993 -13.736937 0.487989 1.000000
-105.178993 -13.736937 0.145293 1.000000
-106.096672 -13.567866 0.000027 0.237024
-107.350197 -13.336922 -0.000241 0.206171
-105.190399 -13.807206 4.553693 1.000000
-105.190399 -13.807206 4.201891 1.000000
-105.190399 -13.807205 3.855027 1.000000
-105.190399 -13.807206 3.512273 1.000000
-105.190399 -13.807205 3.172831 1.000000
-105.190399 -13.807206 2.835935 1.000000
-105.190399 -13.807206 2.500844 1.000000
-105.190399 -13.807206 2.166829 1.000000
-105.190399 -13.807206 1.833171 1.000000
-105.190399 -13.807205 1.499156 1.000000
-105.190399 -13.807206 1.164064 1.000000
-105.190399 -13.807205 0.827170 1.000000
-105.190399 -13.807206 0.487727 1.000000
-105.190399 -13.807205 0.144972 1.000000
-106.108940 -13.631337 0.000100 0.211842
-107.360748 -13.391661 -0.000173 0.239235
-105.201805 -13.877504 4.554260 1.000000
-105.201805 -13.877504 4.202379 1.000000
-105.201805 -13.877504 3.855439 1.000000
-105.201805 -13.877504 3.512608 1.000000
-105.201805 -13.877504 3.173091 1.000000
-105.201805 -13.877504 2.836121 1.000000
-105.201805 -13.877504 2.500955 1.000000
-105.201805 -13.877504 2.166866 1.000000
-105.201805 -13.877504 1.833134 1.000000
-105.201805 -13.877504 1.499045 1.000000
-105.201805 -13.877504 1.163879 1.000000
-105.201805 -13.877504 0.826909 1.000000
-105.201805 -13.877504 0.487392 1.000000
-105.201805 -13.877504 0.144561 1.000000
-106.121544 -13.694742 0.000149 0.221357
-107.371605 -13.446341 -0.000127 0.257882
-105.213219 -13.947836 4.554952 1.000000
-105.213219 -13.947837 4.202976 1.000000
-105.213219 -13.947837 3.855942 1.000000
-105.213219 -13.947838 3.513018 1.000000
-105.213219 -13.947836 3.173408 1.000000
-105.213219 -13.947838 2.836347 1.000000
-105.213219 -13.947837 2.501091 1.000000
-105.213219 -13.947837 2.166911 1.000000
-105.213219 -13.947837 1.833089 1.000000
-105.213219 -13.947837 1.498909 1.000000
-105.213219 -13.947837 1.163652 1.000000
-105.213219 -13.947836 0.826592 1.000000
-105.213219 -13.947837 0.486982 1.000000
-105.213219 -13.947837 0.144058 1.000000
-106.134590 -13.758055 0.000198 0.242983
-107.382889 -13.500932 -0.000069 0.197040
-105.224640 -14.018212 4.555768 1.000000
-105.224640 -14.018211 4.203680 1.000000
-105.224640 -14.018211 3.856535 1.000000
-105.224640 -14.018211 3.513501 1.000000
-105.224640 -14.018211 3.173783 1.000000
-105.224640 -14.018211 2.836614 1.000000
-105.224640 -14.018211 2.501251 1.000000
-105.224640 -14.018211 2.166964 1.000000
-105.224640 -14.018211 1.833036 1.000000
-105.224640 -14.018211 1.498749 1.000000
-105.224640 -14.018211 1.163385 1.000000
-105.224640 -14.018211 0.826216 1.000000
-105.224640 -14.018211 0.486498 1.000000
-105.224640 -14.018211 0.143465 1.000000
-106.148079 -13.821274 0.000248 0.224721
-107.394501 -13.555452 -0.000024 0.197232
-105.236069 -14.088634 4.556709 1.000000
-105.236069 -14.088634 4.204492 1.000000
-105.236069 -14.088634 3.857219 1.000000
-105.236069 -14.088634 3.514059 1.000000
-105.236069 -14.088634 3.174216 1.000000
-105.236069 -14.088634 2.836923 1.000000
-105.236069 -14.088634 2.501436 1.000000
-105.236069 -14.088634 2.167026 1.000000
-105.236069 -14.088634 1.832974 1.000000
-105.236069 -14.088634 1.498564 1.000000
-105.236069 -14.088634 1.163077 1.000000
-105.236069 -14.088634 0.825784 1.000000
-105.236069 -14.088634 0.485941 1.000000
-105.236069 -14.088634 0.142781 1.000000
-106.161705 -13.884460 0.000232 0.195406
-107.406578 -13.609871 0.000043 0.219339
-105.247505 -14.159112 4.557777 1.000000
-105.247505 -14.159112 4.205412 1.000000
-105.247505 -14.159112 3.857994 1.000000
-105.247505 -14.159112 3.514691 1.000000
-105.247505 -14.159112 3.174706 1.000000
-105.247505 -14.159112 2.837272 1.000000
-105.247505 -14.159112 2.501645 1.000000
-105.247505 -14.159112 2.167095 1.000000
-105.247505 -14.159112 1.832905 1.000000
-105.247505 -14.159112 1.498355 1.000000
-105.247505 -14.159112 1.162728 1.000000
-105.247505 -14.159112 0.825294 1.000000
-105.247505 -14.159112 0.485309 1.000000
-105.247505 -14.159112 0.142006 1.000000
-106.176033 -13.947492 0.000274 0.240100
-107.418945 -13.664223 0.000086 0.272684
-105.258949 -14.229651 4.558969 1.000000
-105.258949 -14.229651 4.206440 1.000000
-105.258949 -14.229651 3.858860 1.000000
-105.258949 -14.229651 3.515398 1.000000
-105.258949 -14.229651 3.175254 1.000000
-105.258949 -14.229651 2.837662 1.000000
-105.258949 -14.229652 2.501879 1.000000
-105.258949 -14.229651 2.167173 1.000000
-105.258949 -14.229651 1.832826 1.000000
-105.258949 -14.229651 1.498121 1.000000
-105.258949 -14.229651 1.162337 1.000000
-105.258949 -14.229651 0.824746 1.000000
-105.258949 -14.229651 0.484603 1.000000
-105.258949 -14.229651 0.141140 1.000000
-106.190865 -14.010406 0.000328 0.204344
-107.433105 -13.718150 0.000495 0.204921
-105.270416 -14.300261 4.560287 1.000000
-105.270409 -14.300261 4.207577 1.000000
-105.270409 -14.300261 3.859818 1.000000
-105.270409 -14.300261 3.516179 1.000000
-105.270409 -14.300261 3.175859 1.000000
-105.270409 -14.300261 2.838094 1.000000
-105.270409 -14.300261 2.502137 1.000000
-105.270409 -14.300261 2.167259 1.000000
-105.270409 -14.300261 1.832740 1.000000
-105.270409 -14.300261 1.497862 1.000000
-105.270409 -14.300261 1.161906 1.000000
-105.270409 -14.300261 0.824141 1.000000
-105.270416 -14.300261 0.483822 1.000000
-105.270409 -14.300261 0.140181 1.000000
-106.204224 -14.073677 -0.000041 0.240965
-107.444687 -13.772686 0.000141 0.257978
-105.281891 -14.370946 4.561733 1.000000
-105.281891 -14.370946 4.208823 1.000000
-105.281891 -14.370947 3.860868 1.000000
-105.281891 -14.370947 3.517034 1.000000
-105.281891 -14.370947 3.176523 1.000000
-105.281891 -14.370946 2.838567 1.000000
-105.281891 -14.370947 2.502421 1.000000
-105.281891 -14.370947 2.167354 1.000000
-105.281891 -14.370947 1.832646 1.000000
-105.281891 -14.370947 1.497579 1.000000
-105.281891 -14.370947 1.161433 1.000000
-105.281891 -14.370947 0.823477 1.000000
-105.281891 -14.370947 0.482966 1.000000
-105.281891 -14.370947 0.139132 1.000000
-106.219879 -14.136402 0.000001 0.251826
-107.458153 -13.826773 0.000176 0.216744
-105.293373 -14.441714 4.563305 1.000000
-105.293373 -14.441714 4.210178 1.000000
-105.293365 -14.441715 3.862010 1.000000
-105.293373 -14.441714 3.517965 1.000000
-105.293365 -14.441715 3.177245 1.000000
-105.293373 -14.441714 2.839082 1.000000
-105.293373 -14.441714 2.502729 1.000000
-105.293373 -14.441715 2.167456 1.000000
-105.293373 -14.441715 1.832543 1.000000
-105.293373 -14.441714 1.497271 1.000000
-105.293365 -14.441715 1.160918 1.000000
-105.293365 -14.441715 0.822755 1.000000
-105.293373 -14.441714 0.482035 1.000000
-105.293365 -14.441715 0.137990 1.000000
-106.236023 -14.199000 0.000055 0.226547
-107.472099 -13.880733 0.000238 0.249327
-105.304871 -14.512574 4.565004 1.000000
-105.304878 -14.512574 4.211643 1.000000
-105.304878 -14.512574 3.863244 1.000000
-105.304878 -14.512574 3.518970 1.000000
-105.304871 -14.512574 3.178025 1.000000
-105.304878 -14.512574 2.839637 1.000000
-105.304878 -14.512574 2.503062 1.000000
-105.304871 -14.512574 2.167567 1.000000
-105.304871 -14.512574 1.832432 1.000000
-105.304878 -14.512574 1.496938 1.000000
-105.304871 -14.512574 1.160362 1.000000
-105.304878 -14.512574 0.821975 1.000000
-105.304878 -14.512574 0.481030 1.000000
-105.304878 -14.512574 0.136757 1.000000
-106.252739 -14.261447 0.000141 0.197809
-107.486389 -13.934606 0.000292 0.209631
-105.316391 -14.583531 4.566830 1.000000
-105.316391 -14.583531 4.213217 1.000000
-105.316391 -14.583531 3.864570 1.000000
-105.316391 -14.583531 3.520052 1.000000
-105.316391 -14.583531 3.178864 1.000000
-105.316391 -14.583531 2.840235 1.000000
-105.316391 -14.583531 2.503420 1.000000
-105.316391 -14.583531 2.167687 1.000000
-105.316391 -14.583531 1.832313 1.000000
-105.316391 -14.583531 1.496580 1.000000
-105.316391 -14.583531 1.159764 1.000000
-105.316391 -14.583531 0.821136 1.000000
-105.316391 -14.583531 0.479948 1.000000
-105.316391 -14.583530 0.135430 1.000000
-106.269730 -14.323819 0.000188 0.224625
-107.501099 -13.988365 0.000355 0.236832
-105.327919 -14.654592 4.568784 1.000000
-105.327919 -14.654592 4.214902 1.000000
-105.327919 -14.654592 3.865989 1.000000
-105.327919 -14.654592 3.521209 1.000000
-105.327919 -14.654592 3.179761 1.000000
-105.327919 -14.654593 2.840875 1.000000
-105.327919 -14.654592 2.503804 1.000000
-105.327919 -14.654592 2.167814 1.000000
-105.327919 -14.654592 1.832186 1.000000
-105.327919 -14.654592 1.496196 1.000000
-105.327919 -14.654593 1.159124 1.000000
-105.327919 -14.654592 0.820239 1.000000
-105.327919 -14.654592 0.478791 1.000000
-105.327919 -14.654592 0.134011 1.000000
-106.287231 -14.386045 0.000253 0.219243
-107.516136 -14.042027 0.000409 0.197232
-105.339470 -14.725765 4.570867 1.000000
-105.339470 -14.725765 4.216698 1.000000
-105.339470 -14.725765 3.867502 1.000000
-105.339470 -14.725764 3.522442 1.000000
-105.339470 -14.725765 3.180717 1.000000
-105.339470 -14.725765 2.841557 1.000000
-105.339470 -14.725765 2.504212 1.000000
-105.339470 -14.725764 2.167950 1.000000
-105.339470 -14.725764 1.832049 1.000000
-105.339470 -14.725765 1.495788 1.000000
-105.339470 -14.725765 1.158443 1.000000
-105.339470 -14.725765 0.819283 1.000000
-105.339470 -14.725764 0.477558 1.000000
-105.339470 -14.725765 0.132498 1.000000
-106.305107 -14.448163 0.000307 0.224529
-107.531631 -14.095563 0.000480 0.216359
-105.351044 -14.797058 4.573077 1.000000
-105.351036 -14.797058 4.218605 1.000000
-105.351036 -14.797058 3.869109 1.000000
-105.351036 -14.797058 3.523752 1.000000
-105.351036 -14.797058 3.181733 1.000000
-105.351036 -14.797058 2.842280 1.000000
-105.351036 -14.797058 2.504645 1.000000
-105.351036 -14.797058 2.168095 1.000000
-105.351036 -14.797058 1.831905 1.000000
-105.351036 -14.797058 1.495354 1.000000
-105.351036 -14.797058 1.157719 1.000000
-105.351036 -14.797058 0.818267 1.000000
-105.351036 -14.797058 0.476248 1.000000
-105.351036 -14.797058 0.130891 1.000000
-106.323097 -14.510248 0.000287 0.233564
-107.547020 -14.149124 0.000430 0.203960
-105.362633 -14.868475 4.575418 1.000000
-105.362625 -14.868475 4.220623 1.000000
-105.362633 -14.868475 3.870809 1.000000
-105.362625 -14.868475 3.525138 1.000000
-105.362633 -14.868475 3.182808 1.000000
-105.362633 -14.868475 2.843047 1.000000
-105.362633 -14.868475 2.505105 1.000000
-105.362625 -14.868475 2.168248 1.000000
-105.362625 -14.868475 1.831752 1.000000
-105.362633 -14.868475 1.494895 1.000000
-105.362633 -14.868475 1.156953 1.000000
-105.362633 -14.868475 0.817192 1.000000
-105.362625 -14.868475 0.474862 1.000000
-105.362633 -14.868475 0.129191 1.000000
-106.339890 -14.572698 -0.000099 0.211842
-107.561554 -14.202951 0.000058 0.218954
-105.374245 -14.940029 4.577889 1.000000
-105.374245 -14.940028 4.222753 1.000000
-105.374245 -14.940028 3.872603 1.000000
-105.374245 -14.940028 3.526601 1.000000
-105.374245 -14.940028 3.183943 1.000000
-105.374245 -14.940028 2.843855 1.000000
-105.374245 -14.940028 2.505589 1.000000
-105.374245 -14.940028 2.168409 1.000000
-105.374245 -14.940028 1.831591 1.000000
-105.374245 -14.940028 1.494411 1.000000
-105.374245 -14.940028 1.156144 1.000000
-105.374245 -14.940029 0.816057 1.000000
-105.374245 -14.940028 0.473399 1.000000
-105.374245 -14.940029 0.127396 1.000000
-106.359207 -14.634398 -0.000015 0.268358
-107.578125 -14.256171 0.000120 0.225586
-105.385880 -15.011722 4.580491 1.000000
-105.385880 -15.011722 4.224997 1.000000
-105.385880 -15.011722 3.874493 1.000000
-105.385880 -15.011722 3.528142 1.000000
-105.385880 -15.011722 3.185138 1.000000
-105.385880 -15.011722 2.844707 1.000000
-105.385880 -15.011721 2.506099 1.000000
-105.385880 -15.011722 2.168579 1.000000
-105.385880 -15.011722 1.831421 1.000000
-105.385880 -15.011721 1.493900 1.000000
-105.385880 -15.011722 1.155293 1.000000
-105.385880 -15.011722 0.814862 1.000000
-105.385880 -15.011721 0.471858 1.000000
-105.385880 -15.011722 0.125507 1.000000
-106.379234 -14.695867 0.000133 0.242887
-107.595512 -14.309132 0.000300 0.187332
-105.397537 -15.083561 4.583223 1.000000
-105.397537 -15.083561 4.227352 1.000000
-105.397537 -15.083561 3.876478 1.000000
-105.397537 -15.083561 3.529760 1.000000
-105.397537 -15.083561 3.186393 1.000000
-105.397537 -15.083561 2.845601 1.000000
-105.397537 -15.083561 2.506635 1.000000
-105.397537 -15.083561 2.168758 1.000000
-105.397537 -15.083561 1.831242 1.000000
-105.397537 -15.083561 1.493364 1.000000
-105.397537 -15.083561 1.154398 1.000000
-105.397537 -15.083561 0.813607 1.000000
-105.397537 -15.083561 0.470240 1.000000
-105.397537 -15.083561 0.123522 1.000000
-106.399239 -14.757337 0.000178 0.190600
-107.612770 -14.362125 0.000348 0.282007
-105.409225 -15.155558 4.586087 1.000000
-105.409225 -15.155558 4.229822 1.000000
-105.409225 -15.155559 3.878560 1.000000
-105.409225 -15.155557 3.531456 1.000000
-105.409225 -15.155559 3.187708 1.000000
-105.409225 -15.155558 2.846539 1.000000
-105.409225 -15.155558 2.507197 1.000000
-105.409225 -15.155558 2.168945 1.000000
-105.409225 -15.155558 1.831055 1.000000
-105.409225 -15.155558 1.492803 1.000000
-105.409225 -15.155558 1.153460 1.000000
-105.409225 -15.155559 0.812292 1.000000
-105.409225 -15.155557 0.468544 1.000000
-105.409225 -15.155558 0.121441 1.000000
-106.419754 -14.818638 0.000242 0.268743
-107.630409 -14.414990 0.000400 0.213283
-105.420929 -15.227719 4.589085 1.000000
-105.420929 -15.227719 4.232408 1.000000
-105.420929 -15.227719 3.880737 1.000000
-105.420929 -15.227719 3.533231 1.000000
-105.420937 -15.227718 3.189085 1.000000
-105.420929 -15.227719 2.847521 1.000000
-105.420937 -15.227718 2.507785 1.000000
-105.420937 -15.227718 2.169141 1.000000
-105.420937 -15.227718 1.830859 1.000000
-105.420937 -15.227718 1.492215 1.000000
-105.420929 -15.227719 1.152479 1.000000
-105.420929 -15.227719 0.810915 1.000000
-105.420937 -15.227718 0.466769 1.000000
-105.420929 -15.227719 0.119263 1.000000
-106.440605 -14.879821 0.000287 0.201557
-107.648041 -14.467860 0.000353 0.270185
-105.432671 -15.300049 4.592216 1.000000
-105.432671 -15.300049 4.235106 1.000000
-105.432671 -15.300049 3.883011 1.000000
-105.432671 -15.300049 3.535085 1.000000
-105.432671 -15.300050 3.190523 1.000000
-105.432671 -15.300050 2.848546 1.000000
-105.432671 -15.300049 2.508399 1.000000
-105.432671 -15.300049 2.169345 1.000000
-105.432671 -15.300049 1.830655 1.000000
-105.432671 -15.300049 1.491601 1.000000
-105.432671 -15.300049 1.151454 1.000000
-105.432671 -15.300049 0.809477 1.000000
-105.432671 -15.300049 0.464915 1.000000
-105.432671 -15.300049 0.116989 1.000000
-106.459740 -14.941603 -0.000159 0.222991
-107.664825 -14.521029 -0.000016 0.251346
-105.444443 -15.372560 4.595481 1.000000
-105.444443 -15.372560 4.237922 1.000000
-105.444443 -15.372560 3.885383 1.000000
-105.444443 -15.372560 3.537019 1.000000
-105.444443 -15.372560 3.192022 1.000000
-105.444443 -15.372559 2.849614 1.000000
-105.444443 -15.372559 2.509039 1.000000
-105.444443 -15.372560 2.169559 1.000000
-105.444443 -15.372560 1.830441 1.000000
-105.444443 -15.372559 1.490960 1.000000
-105.444443 -15.372559 1.150386 1.000000
-105.444443 -15.372560 0.807978 1.000000
-105.444443 -15.372559 0.462981 1.000000
-105.444443 -15.372559 0.114618 1.000000
-106.481567 -15.002462 -0.000090 0.237601
-107.683723 -14.573473 0.000073 0.234621
-105.456238 -15.445255 4.598880 1.000000
-105.456238 -15.445256 4.240853 1.000000
-105.456238 -15.445256 3.887852 1.000000
-105.456238 -15.445255 3.539032 1.000000
-105.456238 -15.445255 3.193583 1.000000
-105.456238 -15.445255 2.850727 1.000000
-105.456238 -15.445255 2.509706 1.000000
-105.456238 -15.445255 2.169780 1.000000
-105.456238 -15.445255 1.830219 1.000000
-105.456238 -15.445255 1.490294 1.000000
-105.456238 -15.445255 1.149273 1.000000
-105.456238 -15.445255 0.806417 1.000000
-105.456238 -15.445255 0.460968 1.000000
-105.456238 -15.445255 0.112148 1.000000
-106.503647 -15.063225 -0.000057 0.217801
-107.702805 -14.625842 0.000120 0.207901
-105.468063 -15.518147 4.602416 1.000000
-105.468063 -15.518147 4.243902 1.000000
-105.468063 -15.518147 3.890420 1.000000
-105.468063 -15.518147 3.541126 1.000000
-105.468063 -15.518147 3.195208 1.000000
-105.468063 -15.518147 2.851885 1.000000
-105.468063 -15.518147 2.510400 1.000000
-105.468063 -15.518147 2.170012 1.000000
-105.468063 -15.518147 1.829988 1.000000
-105.468063 -15.518147 1.489600 1.000000
-105.468063 -15.518147 1.148115 1.000000
-105.468063 -15.518147 0.804793 1.000000
-105.468063 -15.518147 0.458874 1.000000
-105.468063 -15.518147 0.109579 1.000000
-106.526711 -15.123621 0.000105 0.199154
-107.722351 -14.678041 0.000190 0.219339
-105.479927 -15.591240 4.606090 1.000000
-105.479927 -15.591240 4.247069 1.000000
-105.479927 -15.591240 3.893089 1.000000
-105.479927 -15.591240 3.543301 1.000000
-105.479927 -15.591239 3.196894 1.000000
-105.479927 -15.591239 2.853086 1.000000
-105.479927 -15.591240 2.511120 1.000000
-105.479927 -15.591239 2.170252 1.000000
-105.479927 -15.591240 1.829748 1.000000
-105.479927 -15.591240 1.488880 1.000000
-105.479927 -15.591239 1.146913 1.000000
-105.479927 -15.591239 0.803106 1.000000
-105.479927 -15.591239 0.456699 1.000000
-105.479935 -15.591239 0.106911 1.000000
-106.549767 -15.184014 0.000167 0.252403
-107.742256 -14.730104 0.000258 0.201077
-105.491829 -15.664541 4.609900 1.000000
-105.491829 -15.664542 4.250355 1.000000
-105.491829 -15.664541 3.895856 1.000000
-105.491829 -15.664541 3.545558 1.000000
-105.491829 -15.664541 3.198644 1.000000
-105.491829 -15.664541 2.854334 1.000000
-105.491829 -15.664541 2.511868 1.000000
-105.491829 -15.664541 2.170501 1.000000
-105.491829 -15.664541 1.829499 1.000000
-105.491829 -15.664541 1.488132 1.000000
-105.491829 -15.664541 1.145666 1.000000
-105.491829 -15.664541 0.801356 1.000000
-105.491829 -15.664541 0.454442 1.000000
-105.491829 -15.664541 0.104143 1.000000
-106.571098 -15.245078 -0.000269 0.269992
-107.761017 -14.782606 -0.000076 0.211361
-105.503761 -15.738065 4.613849 1.000000
-105.503761 -15.738064 4.253759 1.000000
-105.503761 -15.738064 3.898726 1.000000
-105.503761 -15.738065 3.547897 1.000000
-105.503761 -15.738064 3.200459 1.000000
-105.503761 -15.738065 2.855627 1.000000
-105.503761 -15.738064 2.512642 1.000000
-105.503761 -15.738065 2.170759 1.000000
-105.503761 -15.738065 1.829241 1.000000
-105.503761 -15.738064 1.487358 1.000000
-105.503761 -15.738064 1.144373 1.000000
-105.503761 -15.738065 0.799542 1.000000
-105.503761 -15.738064 0.452103 1.000000
-105.503761 -15.738065 0.101274 1.000000
-106.594963 -15.305170 -0.000215 0.212322
-107.781563 -14.834427 -0.000031 0.195117
-105.515724 -15.811811 4.617939 1.000000
-105.515724 -15.811811 4.257286 1.000000
-105.515724 -15.811811 3.901696 1.000000
-105.515724 -15.811811 3.550318 1.000000
-105.515724 -15.811810 3.202336 1.000000
-105.515724 -15.811811 2.856966 1.000000
-105.515724 -15.811811 2.513444 1.000000
-105.515724 -15.811811 2.171026 1.000000
-105.515724 -15.811811 1.828974 1.000000
-105.515724 -15.811811 1.486556 1.000000
-105.515724 -15.811811 1.143034 1.000000
-105.515724 -15.811811 0.797664 1.000000
-105.515724 -15.811811 0.449682 1.000000
-105.515724 -15.811811 0.098303 1.000000
-106.619827 -15.364854 -0.000025 0.266820
-107.802559 -14.886063 0.000040 0.262303
-105.527733 -15.885794 4.622168 1.000000
-105.527733 -15.885795 4.260933 1.000000
-105.527733 -15.885795 3.904768 1.000000
-105.527733 -15.885795 3.552823 1.000000
-105.527733 -15.885795 3.204279 1.000000
-105.527733 -15.885795 2.858350 1.000000
-105.527733 -15.885795 2.514274 1.000000
-105.527733 -15.885795 2.171302 1.000000
-105.527733 -15.885794 1.828698 1.000000
-105.527733 -15.885795 1.485726 1.000000
-105.527733 -15.885795 1.141649 1.000000
-105.527725 -15.885795 0.795721 1.000000
-105.527733 -15.885794 0.447177 1.000000
-105.527733 -15.885795 0.095231 1.000000
-106.644440 -15.424631 0.000011 0.221549
-107.823853 -14.937578 0.000092 0.203960
-105.539780 -15.960019 4.626540 1.000000
-105.539780 -15.960019 4.264702 1.000000
-105.539780 -15.960019 3.907944 1.000000
-105.539780 -15.960019 3.555412 1.000000
-105.539780 -15.960019 3.206286 1.000000
-105.539780 -15.960019 2.859781 1.000000
-105.539780 -15.960019 2.515131 1.000000
-105.539780 -15.960019 2.171587 1.000000
-105.539780 -15.960019 1.828412 1.000000
-105.539780 -15.960019 1.484869 1.000000
-105.539780 -15.960019 1.140218 1.000000
-105.539780 -15.960019 0.793713 1.000000
-105.539780 -15.960019 0.444588 1.000000
-105.539780 -15.960019 0.092056 1.000000
-106.669334 -15.484296 0.000012 0.230488
-107.845581 -14.988905 0.000168 0.222222
-105.551865 -16.034496 4.631055 1.000000
-105.551865 -16.034496 4.268595 1.000000
-105.551865 -16.034496 3.911224 1.000000
-105.551865 -16.034496 3.558085 1.000000
-105.551865 -16.034496 3.208360 1.000000
-105.551865 -16.034496 2.861259 1.000000
-105.551865 -16.034496 2.516016 1.000000
-105.551865 -16.034496 2.171883 1.000000
-105.551865 -16.034496 1.828117 1.000000
-105.551865 -16.034496 1.483984 1.000000
-105.551865 -16.034496 1.138741 1.000000
-105.551865 -16.034496 0.791640 1.000000
-105.551865 -16.034496 0.441915 1.000000
-105.551865 -16.034496 0.088777 1.000000
-106.694878 -15.543684 0.000068 0.237793
-107.867554 -15.040129 0.000211 0.234333
-105.563995 -16.109234 4.635714 1.000000
-105.563995 -16.109234 4.272613 1.000000
-105.563995 -16.109234 3.914608 1.000000
-105.563995 -16.109234 3.560844 1.000000
-105.563995 -16.109234 3.210500 1.000000
-105.563995 -16.109234 2.862784 1.000000
-105.563995 -16.109232 2.516930 1.000000
-105.563995 -16.109232 2.172187 1.000000
-105.563995 -16.109232 1.827813 1.000000
-105.563995 -16.109232 1.483070 1.000000
-105.563995 -16.109234 1.137215 1.000000
-105.563995 -16.109234 0.789500 1.000000
-105.563995 -16.109234 0.439155 1.000000
-105.563995 -16.109234 0.085391 1.000000
-106.719528 -15.603457 -0.000181 0.251250
-107.889793 -15.091235 0.000229 0.197905
-105.576164 -16.184238 4.640518 1.000000
-105.576164 -16.184238 4.276755 1.000000
-105.576164 -16.184238 3.918098 1.000000
-105.576164 -16.184238 3.563689 1.000000
-105.576164 -16.184238 3.212706 1.000000
-105.576164 -16.184238 2.864357 1.000000
-105.576164 -16.184238 2.517873 1.000000
-105.576164 -16.184238 2.172501 1.000000
-105.576164 -16.184238 1.827499 1.000000
-105.576164 -16.184238 1.482127 1.000000
-105.576164 -16.184238 1.135643 1.000000
-105.576164 -16.184238 0.787294 1.000000
-105.576164 -16.184238 0.436311 1.000000
-105.576164 -16.184238 0.081902 1.000000
-106.745880 -15.662497 -0.000129 0.200115
-107.912560 -15.142109 0.000295 0.243560
-105.588387 -16.259521 4.645470 1.000000
-105.588394 -16.259521 4.281024 1.000000
-105.588387 -16.259521 3.921695 1.000000
-105.588387 -16.259521 3.566622 1.000000
-105.588387 -16.259521 3.214981 1.000000
-105.588394 -16.259521 2.865978 1.000000
-105.588387 -16.259521 2.518844 1.000000
-105.588387 -16.259521 2.172825 1.000000
-105.588387 -16.259521 1.827176 1.000000
-105.588387 -16.259521 1.481156 1.000000
-105.588394 -16.259521 1.134022 1.000000
-105.588387 -16.259521 0.785020 1.000000
-105.588394 -16.259521 0.433378 1.000000
-105.588394 -16.259521 0.078305 1.000000
-106.773987 -15.720738 0.000242 0.184929
-107.935669 -15.192825 0.000357 0.225490
-105.600647 -16.335094 4.650569 1.000000
-105.600647 -16.335094 4.285420 1.000000
-105.600647 -16.335094 3.925399 1.000000
-105.600647 -16.335094 3.569642 1.000000
-105.600655 -16.335093 3.217322 1.000000
-105.600655 -16.335093 2.867647 1.000000
-105.600647 -16.335094 2.519844 1.000000
-105.600647 -16.335094 2.173157 1.000000
-105.600655 -16.335093 1.826843 1.000000
-105.600647 -16.335093 1.480156 1.000000
-105.600647 -16.335094 1.132353 1.000000
-105.600655 -16.335093 0.782678 1.000000
-105.600647 -16.335094 0.430358 1.000000
-105.600647 -16.335094 0.074601 1.000000
-106.799904 -15.779976 -0.000005 0.250096
-107.957726 -15.244029 0.000033 0.258939
-105.612961 -16.410959 4.655818 1.000000
-105.612961 -16.410959 4.289947 1.000000
-105.612961 -16.410959 3.929212 1.000000
-105.612961 -16.410959 3.572750 1.000000
-105.612968 -16.410957 3.219733 1.000000
-105.612968 -16.410957 2.869365 1.000000
-105.612968 -16.410957 2.520873 1.000000
-105.612961 -16.410959 2.173501 1.000000
-105.612961 -16.410959 1.826500 1.000000
-105.612968 -16.410957 1.479127 1.000000
-105.612968 -16.410957 1.130635 1.000000
-105.612968 -16.410957 0.780267 1.000000
-105.612968 -16.410957 0.427250 1.000000
-105.612968 -16.410957 0.070788 1.000000
-106.827469 -15.838445 0.000046 0.266148
-107.981529 -15.294431 0.000091 0.253172
-105.625328 -16.487129 4.661218 1.000000
-105.625328 -16.487129 4.294602 1.000000
-105.625328 -16.487127 3.933134 1.000000
-105.625328 -16.487129 3.575947 1.000000
-105.625328 -16.487127 3.222213 1.000000
-105.625328 -16.487127 2.871132 1.000000
-105.625328 -16.487127 2.521932 1.000000
-105.625328 -16.487129 2.173853 1.000000
-105.625328 -16.487129 1.826147 1.000000
-105.625328 -16.487127 1.478068 1.000000
-105.625328 -16.487127 1.128867 1.000000
-105.625328 -16.487129 0.777787 1.000000
-105.625328 -16.487129 0.424053 1.000000
-105.625328 -16.487129 0.066866 1.000000
-106.855919 -15.896502 0.000207 0.244906
-108.006111 -15.344456 0.000270 0.214917
-105.637733 -16.563616 4.666769 1.000000
-105.637733 -16.563614 4.299389 1.000000
-105.637733 -16.563616 3.937166 1.000000
-105.637733 -16.563616 3.579235 1.000000
-105.637733 -16.563616 3.224762 1.000000
-105.637733 -16.563614 2.872950 1.000000
-105.637733 -16.563614 2.523021 1.000000
-105.637733 -16.563614 2.174216 1.000000
-105.637733 -16.563614 1.825784 1.000000
-105.637733 -16.563614 1.476979 1.000000
-105.637733 -16.563614 1.127050 1.000000
-105.637733 -16.563616 0.775237 1.000000
-105.637733 -16.563616 0.420765 1.000000
-105.637733 -16.563614 0.062833 1.000000
-106.885445 -15.954018 0.000533 0.227316
-108.030273 -15.394686 0.000233 0.208093
-105.650208 -16.640423 4.672475 1.000000
-105.650208 -16.640423 4.304308 1.000000
-105.650208 -16.640423 3.941312 1.000000
-105.650208 -16.640423 3.582614 1.000000
-105.650208 -16.640423 3.227383 1.000000
-105.650208 -16.640423 2.874818 1.000000
-105.650208 -16.640423 2.524140 1.000000
-105.650208 -16.640423 2.174589 1.000000
-105.650208 -16.640423 1.825412 1.000000
-105.650208 -16.640423 1.475860 1.000000
-105.650208 -16.640423 1.125182 1.000000
-105.650208 -16.640423 0.772617 1.000000
-105.650208 -16.640423 0.417386 1.000000
-105.650208 -16.640423 0.058688 1.000000
-106.913109 -16.012440 0.000314 0.204729
-108.054024 -15.445120 -0.000016 0.210592
-105.662727 -16.717564 4.678334 1.000000
-105.662727 -16.717566 4.309361 1.000000
-105.662727 -16.717566 3.945569 1.000000
-105.662727 -16.717566 3.586084 1.000000
-105.662727 -16.717566 3.230075 1.000000
-105.662727 -16.717564 2.876736 1.000000
-105.662727 -16.717566 2.525289 1.000000
-105.662727 -16.717566 2.174972 1.000000
-105.662727 -16.717564 1.825029 1.000000
-105.662727 -16.717564 1.474710 1.000000
-105.662727 -16.717564 1.123264 1.000000
-105.662727 -16.717564 0.769926 1.000000
-105.662727 -16.717566 0.413916 1.000000
-105.662727 -16.717564 0.054431 1.000000
-106.942345 -16.070087 0.000376 0.240677
-108.079369 -15.494769 0.000082 0.203479
-105.675301 -16.795048 4.684352 1.000000
-105.675301 -16.795048 4.314550 1.000000
-105.675301 -16.795048 3.949940 1.000000
-105.675301 -16.795048 3.589648 1.000000
