# This PCD file was generated using the MATLABÂ® pcwrite function
# from Computer Vision ToolboxÂ®.
# .PCD v.7 - Point Cloud Data file format
VERSION .7
FIELDS x y z intensity
SIZE 4 4 4 4
TYPE F F F F
COUNT 1 1 1 1
WIDTH 1162
HEIGHT 1
VIEWPOINT 0 0 0 1 0 0 0
POINTS 1162
DATA ascii
189.552032 -426.199707 2.688181 0.606495
189.552032 -426.199707 2.229230 0.548652
189.552032 -426.199707 1.770770 0.566176
189.552032 -426.199707 1.311819 0.527696
189.552032 -426.199707 0.851390 0.545098
189.552032 -426.199707 0.388480 0.528554
189.577286 -425.675476 -0.000072 0.222318
189.697174 -423.186279 0.000055 0.209631
189.780426 -421.457886 -0.000169 0.315648
189.841827 -420.183014 -0.000037 0.241349
189.461899 -426.058228 5.474661 0.471936
189.461899 -426.058228 4.995984 0.565196
189.461899 -426.058228 4.524028 0.800613
189.461899 -426.058228 4.057661 0.563971
189.461884 -426.058228 3.595802 0.584804
189.461899 -426.058228 3.137408 0.782108
189.461884 -426.058228 2.681469 0.564706
189.461884 -426.058228 2.226994 0.536765
189.461884 -426.058258 1.773006 0.069118
189.461884 -426.058228 1.318531 0.617647
189.461899 -426.058228 0.862592 0.581250
189.461884 -426.058228 0.404198 0.561152
189.483276 -425.670654 -0.000081 0.255383
189.620544 -423.182434 0.000040 0.234045
189.715897 -421.453705 0.000011 0.255190
189.786163 -420.180176 -0.000045 0.287101
189.373489 -425.919495 5.441267 0.608088
189.373505 -425.919495 4.967190 0.513971
189.373489 -425.919495 4.499770 0.565931
189.373505 -425.919495 4.037885 0.552574
189.373489 -425.919495 3.580465 0.585662
189.373489 -425.919495 3.126478 0.578799
189.373489 -425.919495 2.674920 0.611520
189.373489 -425.919495 2.224813 0.523039
189.373489 -425.919525 1.775187 0.054657
189.373489 -425.919495 1.325080 0.598652
189.373505 -425.919495 0.873523 0.621446
189.373489 -425.919495 0.419535 0.527941
189.389313 -425.665039 -0.000062 0.206747
189.543945 -423.177795 0.000060 0.258843
189.651382 -421.449860 0.000020 0.199923
189.730499 -420.177032 -0.000073 0.193003
189.286774 -425.783386 5.408672 0.660417
189.286774 -425.783386 4.939086 0.598162
189.286758 -425.783386 4.476093 0.712377
189.286758 -425.783386 4.018584 0.567034
189.286758 -425.783447 3.565497 0.601348
189.286758 -425.783447 3.115808 0.691422
189.286758 -425.783447 2.668528 0.570098
189.286758 -425.783447 2.222684 0.568137
189.286774 -425.783447 1.777316 0.048897
189.286758 -425.783447 1.331472 0.641667
189.286774 -425.783386 0.884192 0.737745
189.286774 -425.783386 0.434505 0.554902
189.295471 -425.657623 0.000116 0.265667
189.467361 -423.172882 0.000046 0.244714
189.586868 -421.445709 0.000009 0.216936
189.674927 -420.172699 0.000100 0.276240
189.201675 -425.649841 5.376854 0.479902
189.201675 -425.649872 4.911652 0.510294
189.201675 -425.649872 4.452981 0.489093
189.201660 -425.649872 3.999742 0.604657
189.201660 -425.649872 3.550883 0.610049
189.201660 -425.649872 3.105393 0.591422
189.201660 -425.649902 2.662288 0.544608
189.201660 -425.649902 2.220605 0.508824
189.201660 -425.649902 1.779395 0.044485
189.201660 -425.649902 1.337712 0.532598
189.201675 -425.649872 0.894608 0.573039
189.201675 -425.649841 0.449118 0.515564
189.201660 -425.649841 0.000260 1.000000
189.390839 -423.167267 0.000049 0.210592
189.522385 -421.440979 0.000014 0.232122
189.619339 -420.168640 0.000101 0.245098
189.118134 -425.518799 5.345786 0.678186
189.118134 -425.518799 4.884864 0.583456
189.118134 -425.518799 4.430413 0.525245
189.118134 -425.518799 3.981344 0.612010
189.118134 -425.518799 3.536615 0.663113
189.118134 -425.518799 3.095223 0.565319
189.118134 -425.518799 2.656194 0.468505
189.118134 -425.518799 2.218575 0.604412
189.118134 -425.518799 1.781425 0.647672
189.118134 -425.518799 1.343805 0.504657
189.118134 -425.518799 0.904778 0.555515
189.118134 -425.518738 0.463387 0.583088
189.118134 -425.518799 0.018658 1.000000
189.314362 -423.161102 0.000068 0.249616
189.457947 -421.435883 0.000008 0.226932
189.563782 -420.164185 0.000108 0.217128
189.036118 -425.390106 5.315448 0.740931
189.036118 -425.390106 4.858705 0.723407
189.036118 -425.390106 4.408373 0.664828
189.036118 -425.390106 3.963377 0.569730
189.036118 -425.390106 3.522680 0.558946
189.036118 -425.390106 3.085290 0.572059
189.036118 -425.390106 2.650243 0.591422
189.036118 -425.390106 2.216593 0.466422
189.036118 -425.390106 1.783407 0.596446
189.036118 -425.390106 1.349757 0.556618
189.036118 -425.390106 0.914709 0.581985
189.036133 -425.390076 0.477322 0.473162
189.036133 -425.390076 0.036626 1.000000
189.237900 -423.154510 0.000057 0.206267
189.393524 -421.430420 -0.000015 0.260765
189.508240 -420.159546 0.000062 0.237601
188.955582 -425.263702 5.285808 0.482353
188.955582 -425.263702 4.833147 0.524387
188.955582 -425.263702 4.386844 0.519118
188.955582 -425.263702 3.945824 0.763971
188.955566 -425.263672 3.509067 0.550735
188.955582 -425.263672 3.075587 0.728799
188.951050 -425.310181 2.646726 0.786274
188.951050 -425.310181 2.215421 0.717157
188.951050 -425.310181 1.784579 0.691299
188.951050 -425.310181 1.353274 0.683946
188.951050 -425.310181 0.920580 0.669240
188.951050 -425.310181 0.485557 0.643750
188.951050 -425.310181 0.047246 0.561520
189.161499 -423.147369 0.000053 0.275471
189.329163 -421.424286 -0.000001 0.219243
189.452744 -420.154266 0.000079 0.249231
188.876465 -425.139496 5.256850 0.492770
188.876465 -425.139496 4.808179 0.521814
188.876465 -425.139496 4.365808 0.478554
188.876450 -425.139496 3.928675 0.566176
188.876465 -425.139496 3.495767 0.507353
188.876465 -425.139496 3.066108 0.676225
188.859772 -425.299438 2.646648 0.897549
188.859772 -425.299438 2.215396 0.701961
188.859772 -425.299438 1.784604 0.664706
188.859772 -425.299438 1.353351 0.665441
188.859772 -425.299408 0.920709 0.645588
188.859772 -425.299408 0.485738 0.611765
188.859772 -425.299408 0.047478 0.649632
189.085159 -423.139679 0.000055 0.253845
189.264908 -421.417145 0.000142 0.231738
189.397339 -420.148102 0.000223 0.187812
188.798737 -425.017517 5.228554 0.361275
188.798737 -425.017517 4.783782 0.271814
188.798721 -425.017517 4.345253 0.309191
188.798737 -425.017517 3.911919 0.620833
188.798721 -425.017517 3.482772 0.606863
188.798721 -425.017517 3.056846 0.542892
188.781067 -425.175903 2.641031 0.750735
188.781067 -425.175903 2.213524 0.717647
188.781067 -425.175903 1.786476 0.689216
188.781082 -425.175903 1.358969 0.682353
188.781067 -425.175903 0.930086 0.666667
188.781082 -425.175903 0.498894 0.642402
188.781067 -425.175903 0.064441 0.644975
189.008865 -423.131470 0.000049 0.232603
189.200638 -421.410217 0.000139 0.242311
189.341919 -420.142273 0.000187 0.227701
188.722321 -424.897614 5.200902 0.359681
188.722321 -424.897614 4.759939 0.247794
188.722321 -424.897614 4.325167 0.277941
188.722321 -424.897614 3.895544 0.585049
188.722321 -424.897614 3.470072 0.567770
188.722321 -424.897614 3.047795 0.655147
188.703735 -425.054504 2.635540 0.738725
188.703735 -425.054504 2.211695 0.717647
188.703735 -425.054504 1.788304 0.690319
188.703735 -425.054504 1.364460 0.678431
188.703735 -425.054504 0.939249 0.665074
188.703735 -425.054504 0.511750 0.637377
188.703735 -425.054504 0.081019 0.611765
188.932602 -423.122925 0.000005 0.213764
189.136383 -421.403107 0.000084 0.210592
189.286514 -420.136108 0.000135 0.289792
188.647217 -424.779755 5.173871 0.356863
188.647202 -424.779755 4.736631 0.232721
188.647202 -424.779755 4.305531 0.242279
188.647217 -424.779755 3.879536 0.563603
188.647217 -424.779755 3.457658 0.671936
188.647217 -424.779755 3.038947 0.527451
188.627686 -424.935181 2.630173 0.721569
188.627686 -424.935181 2.209908 0.718260
188.627686 -424.935181 1.790092 0.698039
188.627686 -424.935181 1.369827 0.690931
188.627686 -424.935181 0.948207 0.666667
188.627686 -424.935181 0.524318 0.632598
188.627686 -424.935181 0.097224 0.613848
188.856537 -423.112823 0.000156 0.223568
189.072205 -421.395355 0.000062 0.257305
189.231171 -420.129456 0.000109 0.287197
188.573349 -424.663818 5.147447 0.581985
188.573349 -424.663818 4.713847 0.488358
188.573349 -424.663818 4.286336 0.472794
188.573349 -424.663818 3.863887 0.623652
188.573349 -424.663818 3.445523 0.618750
188.573349 -424.663818 3.030297 0.625368
188.552917 -424.817871 2.624927 0.722549
188.552933 -424.817871 2.208160 0.671814
188.552933 -424.817871 1.791840 0.684926
188.552917 -424.817871 1.375073 0.668627
188.552917 -424.817871 0.956964 0.659559
188.552917 -424.817871 0.536604 0.641176
188.552917 -424.817841 0.113066 0.563725
188.780334 -423.103821 0.000008 0.288351
189.008087 -421.387085 0.000063 0.314206
189.175903 -420.122314 0.000110 0.272395
188.500717 -424.549835 5.121608 0.904657
188.500717 -424.549835 4.691568 0.727941
188.500717 -424.549835 4.267567 0.681250
188.500717 -424.549835 3.848587 0.556863
188.500717 -424.549835 3.433656 0.546078
188.500717 -424.549835 3.021839 0.621936
188.479370 -424.702423 2.619797 0.725490
188.479370 -424.702423 2.206451 0.717647
188.479370 -424.702423 1.793549 0.705882
188.479370 -424.702423 1.380203 0.682843
188.479370 -424.702423 0.965526 0.685172
188.479370 -424.702423 0.548617 0.659314
188.479370 -424.702423 0.128556 0.632843
188.704254 -423.093719 -0.000039 0.237024
188.944000 -421.378601 0.000010 0.201653
189.120636 -420.114990 0.000061 0.259612
188.429260 -424.437683 5.096341 0.530147
188.429260 -424.437683 4.669782 0.596814
188.429260 -424.437683 4.249212 0.576593
188.429260 -424.437683 3.833624 0.484314
188.429260 -424.437683 3.422052 0.510417
188.429245 -424.437714 3.013568 0.530025
188.407028 -424.588898 2.614780 0.811152
188.407028 -424.588898 2.204780 0.725490
188.407028 -424.588898 1.795220 0.701961
188.407028 -424.588898 1.385220 0.690074
188.407028 -424.588898 0.973900 0.672549
188.407028 -424.588898 0.560365 0.654902
188.407028 -424.588898 0.143704 0.635539
188.628281 -423.082947 -0.000061 0.218281
188.880005 -421.369507 -0.000007 0.249712
189.065369 -420.107727 -0.000104 0.223472
188.358948 -424.327332 5.071631 0.479657
188.358948 -424.327332 4.648476 0.645588
188.358948 -424.327332 4.231262 0.653676
188.358948 -424.327332 3.818990 0.593137
188.358948 -424.327332 3.410703 0.666544
188.358932 -424.327362 3.005479 0.615441
188.335846 -424.477203 2.609873 0.863971
188.335846 -424.477203 2.203146 0.722181
188.335846 -424.477203 1.796854 0.709804
188.335846 -424.477203 1.390127 0.674142
188.335846 -424.477203 0.982089 0.675123
188.335846 -424.477203 0.571855 0.656863
188.335846 -424.477203 0.158519 0.647059
188.552490 -423.070862 0.000059 0.247116
188.816162 -421.359344 0.000108 0.223664
189.010315 -420.098969 0.000014 0.246924
188.289734 -424.218750 5.047458 0.560662
188.289734 -424.218750 4.627633 0.488113
188.289734 -424.218750 4.213703 0.597304
188.289734 -424.218750 3.804675 0.517892
188.289734 -424.218750 3.399601 0.491176
188.289719 -424.218750 2.997566 0.609559
188.265793 -424.367249 2.605073 0.173284
188.265793 -424.367249 2.201547 0.705515
188.265793 -424.367249 1.798453 0.701716
188.265793 -424.367249 1.394927 0.693627
188.265793 -424.367249 0.990100 0.669730
188.265793 -424.367249 0.583095 0.632230
188.265793 -424.367249 0.173012 0.632843
188.476837 -423.058105 0.000209 0.193483
188.752411 -421.348633 0.000256 0.237505
188.955338 -420.089752 0.000155 0.259804
188.221603 -424.111816 5.023808 0.658333
188.221603 -424.111816 4.607242 0.543137
188.221603 -424.111816 4.196523 0.509314
188.221603 -424.111816 3.790670 0.512132
188.221603 -424.111816 3.388739 0.597059
188.221588 -424.111816 2.989825 0.510539
188.196808 -424.259003 2.600377 0.152083
188.196808 -424.259003 2.199983 0.701961
188.196808 -424.259003 1.800017 0.701593
188.196823 -424.259003 1.399622 0.685539
188.196808 -424.259003 0.997938 0.674142
188.196808 -424.259003 0.594091 0.651471
188.196808 -424.259003 0.187191 0.638358
188.401062 -423.045929 0.000155 0.235486
188.688583 -421.338318 0.000207 0.221646
188.900314 -420.080872 0.000106 0.191945
188.154526 -424.006561 5.000669 0.461275
188.154510 -424.006561 4.587289 0.581618
188.154510 -424.006561 4.179714 0.484804
188.154526 -424.006561 3.776968 0.409926
188.154526 -424.006561 3.378113 0.588480
188.150101 -424.031708 2.984343 0.633824
188.128906 -424.152435 2.595783 0.176103
188.128906 -424.152435 2.198452 0.687377
188.128906 -424.152435 1.801548 0.673162
188.128922 -424.152435 1.404217 0.666299
188.128922 -424.152435 1.005606 0.649632
188.128922 -424.152435 0.604851 0.637623
188.128906 -424.152435 0.201064 0.633946
188.325394 -423.033295 0.000088 0.256824
188.624832 -421.327728 0.000131 0.219435
188.845306 -420.071808 0.000006 0.206363
188.088440 -423.902893 4.978024 0.700000
188.088455 -423.902893 4.567766 0.544976
188.088455 -423.902893 4.163268 0.642157
188.088455 -423.902893 3.763560 0.706250
188.088455 -423.902893 3.367713 0.516789
188.067612 -424.016937 2.984343 0.641054
188.062027 -424.047455 2.591286 0.178431
188.062027 -424.047455 2.196955 0.698162
188.062027 -424.047455 1.803045 0.691176
188.062027 -424.047455 1.408713 0.691299
188.062027 -424.047455 1.013111 0.643015
188.062027 -424.047455 0.615379 0.654289
188.062027 -424.047455 0.214640 0.617402
188.249878 -423.019623 0.000109 0.250384
188.561172 -421.316406 0.000114 0.262880
188.790558 -420.061401 0.000152 0.268551
188.023361 -423.800781 4.955865 0.485172
188.023361 -423.800781 4.548658 0.646569
188.023361 -423.800781 4.147168 0.639828
188.023361 -423.800781 3.750434 0.528554
188.023361 -423.800781 3.357535 0.618995
187.996140 -423.944061 2.979544 0.414583
187.996140 -423.944061 2.586886 0.308701
187.996140 -423.944061 2.195489 0.688971
187.996140 -423.944061 1.804511 0.688971
187.996140 -423.944061 1.413114 0.691422
187.996140 -423.944061 1.020456 0.651226
187.996140 -423.944061 0.625684 0.660294
187.996140 -423.944061 0.227928 0.633088
188.174377 -423.005951 0.000040 0.237216
188.497696 -421.304169 0.000206 0.199827
188.735703 -420.051483 0.000081 0.226836
187.959244 -423.700134 4.934171 0.650490
187.959244 -423.700134 4.529953 0.617770
187.959244 -423.700134 4.131410 0.704044
187.959244 -423.700134 3.737587 0.655882
187.959244 -423.700134 3.347572 0.620343
187.931229 -423.842194 2.972355 0.486520
187.931229 -423.842194 2.582579 0.291544
187.931229 -423.842194 2.194054 0.709069
187.931229 -423.842194 1.805946 0.705882
187.931229 -423.842194 1.417421 0.690196
187.931229 -423.842194 1.027645 0.668015
187.931229 -423.842194 0.635771 0.652328
187.931229 -423.842194 0.240933 0.640074
188.099014 -422.991486 0.000019 0.202807
188.434113 -421.292480 0.000067 0.207324
188.680939 -420.041046 0.000040 0.225394
187.896057 -423.600952 4.912933 0.534191
187.896057 -423.600952 4.511642 0.509436
187.896057 -423.600952 4.115983 0.509681
187.896057 -423.600952 3.725011 0.563971
187.896057 -423.600952 3.337819 0.517647
187.867249 -423.741791 2.965317 0.464093
187.867249 -423.741791 2.578362 0.540564
187.867249 -423.741791 2.192650 0.713235
187.867249 -423.741791 1.807350 0.709069
187.867249 -423.741791 1.421638 0.694118
187.867249 -423.741791 1.034682 0.674510
187.867249 -423.741791 0.645644 0.666667
187.867249 -423.741791 0.253665 0.640809
188.023895 -422.975861 0.000112 0.218474
188.370667 -421.280121 -0.000010 0.302960
188.626236 -420.030365 -0.000031 0.214725
187.833771 -423.503204 4.892142 0.712010
187.833771 -423.503204 4.493713 0.694608
187.833771 -423.503204 4.100880 0.604412
187.833771 -423.503204 3.712699 0.570833
187.833771 -423.503204 3.328270 0.512868
187.804199 -423.642853 2.958427 0.410417
187.804199 -423.642853 2.574234 0.711520
187.804199 -423.642853 2.191275 0.711029
187.804199 -423.642853 1.808725 0.701961
187.804199 -423.642853 1.425766 0.693627
187.804199 -423.642853 1.041572 0.680637
187.804199 -423.642853 0.655311 0.658211
187.804199 -423.642853 0.266130 0.646324
187.948700 -422.960541 0.000052 0.211361
188.307281 -421.267365 -0.000106 0.233276
188.571732 -420.018646 0.000054 0.206363
187.772369 -423.406860 4.871783 0.500858
187.772369 -423.406860 4.476160 0.487623
187.772369 -423.406860 4.086091 0.624510
187.772369 -423.406860 3.700644 0.508578
187.772369 -423.406860 3.318921 0.574265
187.742035 -423.545288 2.951681 0.281495
187.742035 -423.545288 2.570192 0.715931
187.742035 -423.545288 2.189928 0.692770
187.742035 -423.545288 1.810072 0.701471
187.742035 -423.545288 1.429808 0.681495
187.742035 -423.545288 1.048319 0.672794
187.742035 -423.545288 0.664777 0.660417
187.742035 -423.545288 0.278334 0.647181
187.873611 -422.944733 -0.000013 0.280565
188.244202 -421.253265 0.000001 0.183295
188.517181 -420.007263 -0.000033 0.207805
198.452744 -375.872803 11.331781 1.000000
198.452744 -375.872803 10.046213 1.000000
198.452744 -375.872803 8.778696 1.000000
198.452744 -375.872803 7.526192 1.000000
198.452744 -375.872803 6.285792 1.000000
198.452744 -375.872833 5.054699 1.000000
198.452744 -375.872772 3.830199 1.000000
198.452744 -375.872803 2.609631 1.000000
198.452744 -375.872803 1.390369 1.000000
198.452744 -375.872772 0.169800 1.000000
195.611801 -388.420227 0.000171 0.222222
194.064987 -395.252014 0.000035 0.218666
193.203049 -399.058899 0.000196 0.215110
192.653015 -401.488190 0.000154 0.213476
192.270782 -403.176422 0.000066 0.238466
191.988998 -404.420990 0.000169 0.252115
195.648544 -389.011078 7.967098 0.555515
195.647659 -389.014893 7.144208 0.511275
195.646774 -389.018677 6.333139 0.503799
195.645905 -389.022400 5.531935 0.524142
195.645035 -389.026062 4.738726 0.452696
195.644196 -389.029724 3.951720 0.501348
195.643341 -389.033356 3.169174 0.576226
195.642487 -389.036987 2.389385 0.488603
195.641647 -389.040619 1.610675 0.616544
195.640793 -389.044220 0.831374 0.581373
195.777908 -388.457672 0.000110 0.224337
194.183395 -395.278687 -0.000025 0.247597
193.294922 -399.079437 0.000105 0.239043
192.727921 -401.504944 0.000065 0.240484
192.333878 -403.190491 -0.000027 0.229815
192.043350 -404.433319 0.000129 0.257209
195.772903 -389.204803 7.927074 0.619485
195.772003 -389.208588 7.109709 0.558578
195.771103 -389.212280 6.304083 0.436765
195.770203 -389.215973 5.508255 0.640441
195.769348 -389.219604 4.720368 0.705882
195.768463 -389.223206 3.938639 0.551716
195.767609 -389.226807 3.161339 0.644730
195.766754 -389.230347 2.386776 0.533211
195.765884 -389.233948 1.613284 0.587868
195.765015 -389.237488 0.839202 0.613113
195.764145 -389.241119 0.062871 1.000000
194.301514 -395.306610 -0.000040 0.220396
193.386642 -399.100525 0.000006 0.245771
192.802429 -401.523224 0.000173 0.225490
192.396912 -403.204834 -0.000159 0.212226
192.097656 -404.445892 0.000046 0.200980
195.895599 -389.396027 7.887866 0.530025
195.894684 -389.399719 7.075914 0.542279
195.893768 -389.403381 6.275620 0.600858
195.892868 -389.406982 5.485059 0.566054
195.891983 -389.410583 4.702385 0.579779
195.891113 -389.414124 3.925825 0.607230
195.890228 -389.417664 3.153664 0.609069
195.889359 -389.421173 2.384221 0.548162
195.888474 -389.424683 1.615839 0.552696
195.887604 -389.428192 0.846870 0.562500
195.886719 -389.431763 0.075664 1.000000
194.418976 -395.337189 0.000162 0.203191
193.478043 -399.122955 0.000018 0.201077
192.876968 -401.541382 0.000159 0.195790
192.459641 -403.220551 -0.000089 0.206747
192.151810 -404.459076 0.000027 0.180508
196.016708 -389.584656 7.849459 0.564461
196.015762 -389.588348 7.042809 0.583333
196.014832 -389.591919 6.247740 0.495098
196.013931 -389.595520 5.462336 0.565564
196.013016 -389.599030 4.684767 0.693627
196.012131 -389.602509 3.913273 0.603186
196.011246 -389.605988 3.146146 0.504044
196.010361 -389.609467 2.381717 0.744608
196.009476 -389.612915 1.618341 0.702083
196.008591 -389.616394 0.854381 0.524510
196.007690 -389.619904 0.088197 1.000000
194.536636 -395.366882 0.000163 0.234525
193.569351 -399.145874 -0.000001 0.199635
192.951416 -401.559998 0.000127 0.199827
192.522354 -403.236206 -0.000116 0.246732
192.205933 -404.472443 -0.000040 0.241157
196.136230 -389.770905 7.811832 0.523162
196.135284 -389.774536 7.010375 0.524142
196.134354 -389.778076 6.220424 0.557230
196.133408 -389.781586 5.440075 0.515931
196.132492 -389.785065 4.667507 0.570588
196.131592 -389.788513 3.900975 0.592402
196.130692 -389.791931 3.138780 0.467892
196.129791 -389.795349 2.379264 0.560907
196.128891 -389.798767 1.620793 0.586765
196.127991 -389.802155 0.861740 0.500245
196.127090 -389.805603 0.100475 1.000000
194.653839 -395.398407 0.000283 0.243656
193.660110 -399.170837 0.000196 0.246059
193.025543 -401.579834 0.000233 0.229335
192.584808 -403.252930 -0.000015 0.217416
192.259781 -404.486847 0.000064 0.196175
196.254242 -389.954803 7.774966 0.538113
196.253281 -389.958313 6.978599 0.519485
196.252319 -389.961853 6.193660 0.645098
196.251389 -389.965302 5.418263 0.529167
196.250458 -389.968719 4.650597 0.524510
196.249542 -389.972137 3.888925 0.574632
196.248627 -389.975494 3.131562 0.530515
196.247711 -389.978882 2.376861 0.528431
196.246811 -389.982239 1.623196 0.678431
196.245895 -389.985596 0.868951 0.594363
196.244980 -389.988953 0.112506 1.000000
194.771088 -395.429718 0.000285 0.231353
193.751114 -399.194885 0.000161 0.204441
193.099655 -401.599670 0.000236 0.236063
192.646820 -403.271332 0.000369 0.220012
192.313568 -404.501495 0.000129 0.212514
196.370758 -390.136353 7.738843 0.601471
196.369797 -390.139832 6.947463 0.599265
196.368835 -390.143280 6.167437 0.507230
196.367889 -390.146729 5.396890 0.579167
196.366943 -390.150085 4.634027 0.661274
196.366013 -390.153442 3.877119 0.500858
196.365082 -390.156769 3.124491 0.571324
196.364151 -390.160095 2.374506 0.590196
196.363235 -390.163391 1.625550 0.590686
196.362305 -390.166718 0.876016 0.604289
196.361389 -390.170044 0.124294 1.000000
194.888336 -395.461060 0.000187 0.203383
193.841980 -399.219391 0.000095 0.216167
193.173660 -401.619965 0.000229 0.293733
192.709244 -403.288086 0.000284 0.235198
192.367462 -404.515717 -0.000013 0.196271
196.485855 -390.315613 7.703446 0.570956
196.484879 -390.319092 6.916951 0.586152
196.483887 -390.322510 6.141740 0.530882
196.482925 -390.325867 5.375949 0.605882
196.481979 -390.329193 4.617791 0.469240
196.481033 -390.332489 3.865549 0.523284
196.480103 -390.335785 3.117561 0.596569
196.479156 -390.339081 2.372199 0.478554
196.478226 -390.342316 1.627857 0.558333
196.477295 -390.345581 0.882940 0.674755
196.476349 -390.348877 0.135845 1.000000
195.005203 -395.493744 0.000155 0.221934
193.932648 -399.244720 0.000060 0.230200
193.247559 -401.640594 0.000190 0.235102
192.771500 -403.305450 0.000248 0.191657
192.421143 -404.530731 -0.000050 0.216647
196.599548 -390.492737 7.668759 0.626838
196.598541 -390.496155 6.887051 0.591422
196.597549 -390.499512 6.116559 0.660907
196.596573 -390.502838 5.355426 0.532966
196.595612 -390.506104 4.601879 0.603064
196.594650 -390.509369 3.854211 0.459191
196.593704 -390.512634 3.110770 0.491789
196.592758 -390.515839 2.369937 0.537255
196.591827 -390.519073 1.630117 0.526348
196.590866 -390.522278 0.889725 0.563358
196.589920 -390.525513 0.147166 1.000000
195.121765 -395.527557 0.000158 0.221165
194.023117 -399.270721 0.000029 0.232507
193.321304 -401.661774 0.000159 0.241157
192.833511 -403.323700 0.000300 0.222126
192.474487 -404.546906 0.000129 0.253364
196.711853 -390.667725 7.634763 0.491299
196.710831 -390.671112 6.857748 0.640931
196.709839 -390.674408 6.091879 0.603431
196.708847 -390.677673 5.335313 0.505882
196.707886 -390.680908 4.586285 0.645833
196.706909 -390.684143 3.843100 0.445221
196.705948 -390.687317 3.104115 0.503799
196.704987 -390.690521 2.367721 0.502574
196.704041 -390.693695 1.632333 0.555760
196.703079 -390.696869 0.896374 0.412868
196.702118 -390.700043 0.158261 1.000000
195.238205 -395.561798 0.000120 0.223664
194.113358 -399.297516 0.000023 0.245098
193.394897 -401.683502 0.000134 0.204825
192.895523 -403.341980 0.000274 0.193003
192.527939 -404.562714 0.000110 0.197328
196.822815 -390.840637 7.601445 0.626225
196.821793 -390.843964 6.829029 0.564951
196.820786 -390.847198 6.067691 0.565196
196.819794 -390.850433 5.315599 0.652206
196.818802 -390.853638 4.571002 0.462990
196.817841 -390.856812 3.832210 0.568627
196.816864 -390.859955 3.097592 0.624265
196.815887 -390.863098 2.365549 0.564583
196.814926 -390.866241 1.634505 0.545098
196.813950 -390.869385 0.902891 0.655147
196.813004 -390.872467 0.169135 1.000000
195.354263 -395.597260 0.000128 0.221549
194.203430 -399.324799 -0.000000 0.211842
193.468369 -401.705658 0.000088 0.212707
192.957397 -403.360657 0.000233 0.199154
192.581192 -404.579132 0.000155 0.206651
196.932510 -391.011505 7.568789 0.554902
196.931473 -391.014801 6.800879 0.671691
196.930466 -391.018005 6.043985 0.461275
196.929443 -391.021179 5.296279 0.520833
196.928452 -391.024323 4.556022 0.675000
196.927460 -391.027466 3.821536 0.566299
196.926468 -391.030548 3.091199 0.562990
196.925507 -391.033661 2.363420 0.527819
196.924515 -391.036743 1.636633 0.570343
196.923538 -391.039856 0.909279 0.674510
196.922577 -391.042908 0.179794 1.000000
195.469955 -395.633911 0.000180 0.204825
194.293335 -399.352661 -0.000034 0.202999
193.541626 -401.728455 0.000069 0.230008
193.019135 -403.379822 0.000208 0.256344
192.634445 -404.595642 0.000119 0.251442
197.040924 -391.180420 7.536779 0.210662
197.039871 -391.183655 6.773288 0.220588
197.038834 -391.186798 6.020747 0.219853
197.037827 -391.189941 5.277340 0.215319
197.036835 -391.193054 4.541339 0.212868
197.035828 -391.196136 3.811075 0.216912
197.034836 -391.199188 3.084933 0.193750
197.033844 -391.202240 2.361334 0.207353
197.032852 -391.205292 1.638719 0.210294
197.031876 -391.208344 0.915540 0.211765
197.030869 -391.211395 0.190241 0.226225
195.585602 -395.670776 0.000161 0.234621
194.383026 -399.381256 -0.000054 0.227124
193.614746 -401.751740 0.000051 0.193099
193.080750 -403.399384 0.000167 0.199154
192.687317 -404.613281 0.000288 0.240581
197.148102 -391.347412 7.505396 0.602696
197.147034 -391.350586 6.746238 0.678431
197.145996 -391.353699 5.997965 0.758088
197.144974 -391.356812 5.258776 0.603431
197.143967 -391.359863 4.526944 0.548162
197.142960 -391.362885 3.800817 0.538725
197.141937 -391.365906 3.078789 0.650000
197.140945 -391.368958 2.359288 0.591176
197.139938 -391.371948 1.640764 0.533946
197.138962 -391.374939 0.921677 0.547917
197.137955 -391.377960 0.200484 1.000000
195.700989 -395.708344 0.000133 0.198289
194.471863 -399.412384 0.000230 0.244906
193.687698 -401.775513 0.000025 0.267493
193.142227 -403.419342 0.000131 0.251538
192.740311 -404.630524 0.000253 0.249231
197.254059 -391.512512 7.474638 0.459559
197.253006 -391.515656 6.719724 0.617157
197.251953 -391.518738 5.975634 0.507598
197.250916 -391.521790 5.240576 0.628309
197.249878 -391.524780 4.512834 0.419485
197.248871 -391.527802 3.790764 0.528676
197.247849 -391.530792 3.072767 0.644975
197.246857 -391.533752 2.357282 0.484436
197.245850 -391.536713 1.642769 0.563603
197.244843 -391.539703 0.927695 0.533456
197.243835 -391.542664 0.210523 1.000000
195.816040 -395.746979 0.000131 0.232891
194.561157 -399.442169 0.000202 0.232315
193.760376 -401.800140 0.000063 0.245675
193.203430 -403.440125 0.000178 0.230969
192.793182 -404.648163 0.000229 0.261822
197.358871 -391.675781 7.444489 0.567157
197.357788 -391.678894 6.693731 0.529779
197.356750 -391.681946 5.953743 0.556250
197.355682 -391.684937 5.222733 0.674387
197.354660 -391.687927 4.499002 0.582108
197.353622 -391.690887 3.780907 0.527206
197.352600 -391.693848 3.066863 0.581250
197.351578 -391.696747 2.355317 0.524632
197.350571 -391.699677 1.644734 0.537132
197.349548 -391.702637 0.933593 0.504167
197.348526 -391.705536 0.220364 1.000000
195.930710 -395.786713 0.000170 0.216359
194.649994 -399.473206 0.000274 0.204152
193.832870 -401.825317 0.000107 0.214629
193.264496 -403.461304 0.000220 0.240677
192.845795 -404.666565 0.000306 0.252691
197.462524 -391.837311 7.414927 0.567279
197.461456 -391.840332 6.668257 0.590319
197.460388 -391.843323 5.932290 0.680025
197.459320 -391.846313 5.205247 0.612010
197.458267 -391.849274 4.485441 0.618750
197.457230 -391.852203 3.771245 0.517034
197.456207 -391.855072 3.061076 0.593750
197.455170 -391.858002 2.353389 0.660049
197.454163 -391.860870 1.646661 0.451716
197.453125 -391.863770 0.939376 0.641054
197.452103 -391.866638 0.230012 1.000000
196.045197 -395.826935 0.000170 0.219050
194.738876 -399.504181 0.000237 0.228758
193.905258 -401.850708 0.000104 0.204248
193.325577 -403.482513 0.000173 0.204441
192.898407 -404.684937 0.000283 0.183679
197.565079 -391.997070 7.385941 0.613725
197.563980 -392.000092 6.643273 0.484681
197.562912 -392.003021 5.911247 0.605270
197.561844 -392.005951 5.188103 0.524265
197.560791 -392.008850 4.472153 0.635172
197.559753 -392.011719 3.761776 0.698529
197.558701 -392.014587 3.055403 0.554902
197.557648 -392.017487 2.351500 0.527819
197.556610 -392.020325 1.648550 0.564461
197.555603 -392.023163 0.945045 0.576593
197.554550 -392.026001 0.239470 1.000000
196.159576 -395.867554 0.000119 0.249712
194.827469 -399.535919 0.000228 0.241542
193.977585 -401.876404 0.000054 0.253364
193.386398 -403.504395 0.000171 0.210208
192.950882 -404.703735 0.000269 0.217032
197.666534 -392.155151 7.357530 0.465441
197.665436 -392.158112 6.618778 0.712990
197.664337 -392.161041 5.890615 0.707230
197.663269 -392.163940 5.171287 0.624877
197.662201 -392.166809 4.459114 0.587500
197.661163 -392.169617 3.752488 0.612745
197.660126 -392.172424 3.049842 0.564583
197.659073 -392.175232 2.349648 0.730025
197.658020 -392.178070 1.650401 0.702206
197.656967 -392.180878 0.950602 0.616544
197.655945 -392.183685 0.248744 1.000000
196.273483 -395.909424 0.000126 0.235679
194.915924 -399.568115 0.000192 0.215302
194.049683 -401.902649 0.000016 0.253845
193.447174 -403.526459 0.000124 0.202614
193.003250 -404.722839 0.000237 0.226932
197.766922 -392.311554 7.329677 0.553309
197.765808 -392.314484 6.594770 0.451961
197.764725 -392.317383 5.870396 0.479167
197.763641 -392.320221 5.154807 0.462255
197.762573 -392.323029 4.446337 0.638603
197.761520 -392.325836 3.743384 0.606127
197.760468 -392.328613 3.044389 0.522304
197.759415 -392.331390 2.347832 0.486152
197.758347 -392.334198 1.652217 0.497304
197.757294 -392.336975 0.956051 0.633333
197.756241 -392.339722 0.257836 1.000000
196.387909 -395.949951 -0.000132 0.236159
195.004730 -399.599335 -0.000098 0.234621
194.122025 -401.928314 -0.000232 0.226932
193.508133 -403.547974 -0.000150 0.216263
193.055832 -404.741333 -0.000045 0.202518
197.866302 -392.466339 7.302370 0.463725
197.865173 -392.469238 6.571232 0.396936
197.864075 -392.472107 5.850572 0.538358
197.862991 -392.474915 5.138650 0.506373
197.861908 -392.477692 4.433810 0.540074
197.860855 -392.480469 3.734457 0.571569
197.859787 -392.483185 3.039042 0.537500
197.858734 -392.485931 2.346052 0.524632
197.857651 -392.488708 1.653997 0.467279
197.856583 -392.491455 0.961393 0.598039
197.855530 -392.494171 0.266750 1.000000
196.501160 -395.993652 -0.000097 0.208285
195.092484 -399.633423 -0.000030 0.229047
194.193146 -401.957153 0.000040 0.225779
193.568466 -403.571228 -0.000120 0.271819
193.107834 -404.761414 -0.000012 0.200019
197.964661 -392.619568 7.275598 0.431127
197.963531 -392.622437 6.548155 0.358088
197.962418 -392.625244 5.831135 0.296446
197.961319 -392.628021 5.122810 0.323407
197.960220 -392.630768 4.421530 0.504779
197.959167 -392.633484 3.725706 0.622794
197.958099 -392.636200 3.033800 0.709069
197.957016 -392.638916 2.344306 0.260294
197.955948 -392.641632 1.655742 0.306127
197.954865 -392.644348 0.966631 0.570833
197.953796 -392.647064 0.275489 1.000000
196.613953 -396.038452 -0.000023 0.211169
195.180054 -399.667969 0.000008 0.257017
194.264526 -401.985321 0.000082 0.207228
193.628479 -403.595276 0.000001 0.235967
193.159698 -404.781830 0.000027 0.218185
198.062042 -392.771240 7.249350 0.588480
198.060898 -392.774078 6.525530 0.326838
198.059769 -392.776886 5.812079 0.212623
198.058685 -392.779602 5.107280 0.298162
198.057587 -392.782318 4.409489 0.496446
198.056488 -392.785004 3.717126 0.655882
198.055420 -392.787659 3.028661 0.563971
198.054337 -392.790375 2.342595 0.267402
198.053253 -392.793060 1.657453 0.218137
198.052170 -392.795746 0.971766 0.512010
198.051102 -392.798370 0.284057 1.000000
196.726883 -396.082977 -0.000082 0.221646
195.267517 -399.702728 -0.000010 0.239619
194.335846 -402.013611 0.000056 0.261630
193.688538 -403.619202 -0.000010 0.243464
193.211426 -404.802612 0.000059 0.222799
198.158463 -392.921448 7.223614 0.477696
198.157318 -392.924225 6.503347 0.352819
198.156189 -392.926971 5.793396 0.266544
198.155060 -392.929688 5.092053 0.381863
198.153961 -392.932373 4.397682 0.605025
198.152878 -392.935028 3.708713 0.514828
198.151794 -392.937653 3.023622 0.601348
198.150696 -392.940308 2.340917 0.275245
198.149597 -392.942993 1.659131 0.235294
198.148514 -392.945648 0.976801 0.491667
198.147446 -392.948242 0.292458 1.000000
196.839035 -396.129333 -0.000005 0.221646
195.354385 -399.739044 0.000115 0.245675
194.406616 -402.043243 0.000195 0.228854
193.748352 -403.643707 0.000026 0.230584
193.262970 -404.823792 0.000099 0.247309
198.253937 -393.070190 7.198382 0.456863
198.252777 -393.072937 6.481596 0.358088
198.251648 -393.075653 5.775079 0.191176
198.250519 -393.078339 5.077124 0.589216
198.249420 -393.080963 4.386107 0.673897
198.248322 -393.083588 3.700465 0.514461
198.247238 -393.086212 3.018682 0.538725
198.246124 -393.088837 2.339271 0.291422
198.245026 -393.091461 1.660775 0.267157
198.243927 -393.094055 0.981737 0.565074
198.242844 -393.096649 0.300695 1.000000
196.951172 -396.175812 -0.000020 0.244425
195.441330 -399.775085 0.000104 0.231546
194.477600 -402.072418 0.000139 0.184256
193.808136 -403.668304 -0.000032 0.259612
193.314545 -404.844940 0.000035 0.215398
198.348511 -393.217529 7.173645 0.705392
198.347351 -393.220215 6.460273 0.501593
198.346207 -393.222900 5.757119 0.494118
198.345078 -393.225525 5.062487 0.708456
198.343964 -393.228149 4.374759 0.581740
198.342850 -393.230743 3.692379 0.493873
198.341736 -393.233307 3.013838 0.649387
198.340637 -393.235901 2.337659 0.607108
198.339523 -393.238525 1.662388 0.480515
198.338425 -393.241089 0.986577 0.639828
198.337326 -393.243652 0.308771 1.000000
197.062485 -396.224213 0.000113 0.221261
195.527863 -399.812073 0.000152 0.250769
194.548126 -402.102661 0.000201 0.257593
193.867630 -403.693634 -0.000002 0.252307
193.365814 -404.866852 0.000080 0.281719
198.442200 -393.363434 7.149393 0.599755
198.441025 -393.366089 6.439368 0.925123
198.439865 -393.368744 5.739512 0.737255
198.438736 -393.371368 5.048138 0.669608
198.437622 -393.373932 4.363633 0.692524
198.436493 -393.376526 3.684451 0.562990
198.435379 -393.379028 3.009089 0.647304
198.434265 -393.381622 2.336077 0.885294
198.433151 -393.384186 1.663968 0.740686
198.432037 -393.386719 0.991322 0.517402
198.430939 -393.389221 0.316688 1.000000
197.173950 -396.272156 0.000094 0.226644
195.614334 -399.849213 0.000127 0.212226
194.618652 -402.132874 0.000161 0.272299
193.926987 -403.719238 -0.000008 0.256920
193.417053 -404.888794 0.000034 0.216167
198.535019 -393.507996 7.125616 0.537377
198.533813 -393.510651 6.418871 0.625490
198.532669 -393.513275 5.722249 0.550245
198.531525 -393.515839 5.034069 0.569363
198.530380 -393.518402 4.352725 0.525490
198.529266 -393.520905 3.676678 0.529902
198.528137 -393.523438 3.004433 0.671936
198.527023 -393.525940 2.334527 0.557598
198.525894 -393.528473 1.665519 0.513113
198.524780 -393.531006 0.995974 0.646324
198.523666 -393.533508 0.324451 1.000000
197.284897 -396.321381 0.000134 0.225202
195.700363 -399.887390 0.000166 0.257401
194.688782 -402.163971 0.000199 0.245675
193.985611 -403.746521 0.000281 0.241734
193.467987 -404.911438 0.000096 0.236544
198.626968 -393.651215 7.102308 0.550123
198.625778 -393.653839 6.398779 0.553064
198.624603 -393.656433 5.705323 0.717402
198.623459 -393.658997 5.020273 0.510662
198.622314 -393.661499 4.342031 0.595588
198.621185 -393.664001 3.669058 0.554902
198.620071 -393.666473 2.999868 0.615686
198.618927 -393.668976 2.333007 0.579289
198.617813 -393.671478 1.667038 0.498039
198.616669 -393.673981 1.000535 0.600368
198.615555 -393.676453 0.332061 1.000000
197.396637 -396.368866 -0.000143 0.232507
195.787018 -399.924194 -0.000110 0.215879
194.759430 -402.194000 -0.000077 0.245675
194.045197 -403.771637 -0.000037 0.255959
193.519302 -404.933258 -0.000187 0.215110
198.718109 -393.793152 7.079456 0.464216
198.716919 -393.795746 6.379082 0.514951
198.715729 -393.798340 5.688734 0.618015
198.714569 -393.800842 5.006750 0.490686
198.713409 -393.803314 4.331545 0.541422
198.712280 -393.805817 3.661586 0.474877
198.711151 -393.808258 2.995394 0.534436
198.710022 -393.810699 2.331517 0.543873
198.708878 -393.813202 1.668528 0.512500
198.707733 -393.815674 1.005007 0.525858
198.706619 -393.818115 0.339522 1.000000
197.506790 -396.419800 -0.000078 0.265186
195.872543 -399.963501 -0.000080 0.242695
194.829147 -402.226044 -0.000045 0.214917
194.103851 -403.798798 0.000040 0.232987
193.569824 -404.956787 -0.000087 0.207228
198.808441 -393.933868 7.057047 0.548407
198.807236 -393.936432 6.359769 0.608456
198.806046 -393.938934 5.672470 0.526471
198.804871 -393.941437 4.993495 0.505024
198.803711 -393.943909 4.321267 0.611642
198.802567 -393.946350 3.654262 0.594608
198.801437 -393.948761 2.991006 0.478186
198.800293 -393.951202 2.330056 0.621691
198.799164 -393.953644 1.669988 0.433946
198.798004 -393.956085 1.009390 0.710907
198.796875 -393.958496 0.346837 1.000000
197.616714 -396.471283 -0.000045 0.230200
195.957703 -400.003662 -0.000008 0.212803
194.898560 -402.258789 0.000023 0.206844
194.162231 -403.826538 0.000150 0.222511
193.620316 -404.980438 -0.000049 0.224241
198.897964 -394.073334 7.035085 0.456740
198.896759 -394.075867 6.340834 0.510539
198.895584 -394.078369 5.656524 0.504044
198.894394 -394.080811 4.980501 0.471936
198.893234 -394.083252 4.311191 0.546078
198.892075 -394.085693 3.647082 0.612500
198.890930 -394.088074 2.986706 0.559314
198.889786 -394.090454 2.328624 0.553922
198.888641 -394.092834 1.671420 0.515196
198.887482 -394.095276 1.013686 0.646446
198.886337 -394.097656 0.354007 1.000000
197.726151 -396.523773 0.000020 0.220396
196.042557 -400.044403 0.000058 0.231930
194.967834 -402.291779 0.000052 0.196847
194.220596 -403.854370 0.000181 0.240292
193.670578 -405.004486 0.000005 0.224433
198.986725 -394.211609 7.013556 0.529902
198.985519 -394.214081 6.322276 0.562132
198.984314 -394.216553 5.640890 0.569485
198.983139 -394.218994 4.967761 0.500000
198.981979 -394.221405 4.301315 0.548162
198.980804 -394.223785 3.640045 0.551471
198.979660 -394.226166 2.982490 0.535662
198.978500 -394.228516 2.327220 0.573407
198.977356 -394.230896 1.672823 0.528064
198.976196 -394.233276 1.017898 0.614461
198.975037 -394.235626 0.361036 1.000000
197.835510 -396.576385 0.000006 0.222030
196.127502 -400.084930 0.000001 0.205210
195.036987 -402.325043 0.000035 0.230681
194.278839 -403.882385 0.000165 0.275855
193.720901 -405.028503 -0.000055 0.209439
199.074753 -394.348694 6.992452 0.634069
199.073517 -394.351166 6.304084 0.519730
199.072327 -394.353607 5.625568 0.697181
199.071136 -394.356018 4.955271 0.636887
199.069962 -394.358368 4.291633 0.578309
199.068802 -394.360718 3.633146 0.557598
199.067627 -394.363068 2.978358 0.530392
199.066467 -394.365387 2.325844 0.561397
199.065308 -394.367737 1.674199 0.555637
199.064148 -394.370087 1.022027 0.593015
199.062988 -394.372437 0.367926 1.000000
197.945404 -396.628021 -0.000241 0.224529
196.212585 -400.125244 -0.000201 0.239812
195.105576 -402.359436 0.000151 0.196463
194.336807 -403.911011 0.000192 0.215398
193.770416 -405.054108 0.000233 0.194829
199.162033 -394.484650 6.971766 0.540196
199.160797 -394.487061 6.286254 0.585662
199.159592 -394.489502 5.610551 0.607598
199.158401 -394.491852 4.943031 0.557843
199.157196 -394.494232 4.282140 0.586520
199.156036 -394.496521 3.626383 0.441422
199.154877 -394.498840 2.974308 0.602696
199.153702 -394.501160 2.324495 0.583946
199.152542 -394.503448 1.675547 0.616054
199.151367 -394.505798 1.026074 0.581618
199.150192 -394.508118 0.374679 1.000000
198.053665 -396.682892 -0.000161 0.249423
196.295868 -400.169159 0.000107 0.267974
195.174011 -402.394135 0.000229 0.241253
194.394547 -403.940033 0.000229 0.254421
193.820221 -405.079132 0.000261 0.231930
199.248611 -394.619476 6.951492 0.508211
199.247360 -394.621887 6.268777 0.555392
199.246140 -394.624268 5.595831 0.543750
199.244934 -394.626617 4.931035 0.491544
199.243744 -394.628967 4.272839 0.580147
199.242569 -394.631256 3.619753 0.550245
199.241394 -394.633545 2.970336 0.535539
199.240234 -394.635834 2.323173 0.616054
199.239059 -394.638062 1.676869 0.544118
199.237885 -394.640350 1.030040 0.575490
199.236694 -394.642700 0.381299 1.000000
198.161606 -396.738403 -0.000096 0.228758
196.379562 -400.212219 0.000170 0.215975
195.242355 -402.429016 0.000249 0.231738
194.452026 -403.969635 0.000298 0.206747
193.869766 -405.104645 0.000330 0.228181
199.334473 -394.753235 6.931623 0.532353
199.333221 -394.755615 6.251649 0.617770
199.332001 -394.757965 5.581406 0.596078
199.330795 -394.760284 4.919278 0.475368
199.329590 -394.762573 4.263722 0.568015
199.328400 -394.764893 3.613258 0.589828
199.327225 -394.767151 2.966445 0.628309
199.326035 -394.769379 2.321877 0.627328
199.324860 -394.771606 1.678165 0.575613
199.323700 -394.773865 1.033928 0.624020
199.322510 -394.776154 0.387786 1.000000
198.268524 -396.795868 0.000125 0.223952
196.463028 -400.255707 0.000210 0.214533
195.310516 -402.464233 0.000244 0.248943
194.509552 -403.999115 0.000240 0.181949
193.919373 -405.130096 0.000279 0.229623
199.419662 -394.885895 6.912149 0.702819
199.418396 -394.888275 6.234861 0.762868
199.417160 -394.890594 5.567265 0.725980
199.415939 -394.892914 4.907751 0.477819
199.414734 -394.895203 4.254786 0.537010
199.413544 -394.897400 3.606891 0.632230
199.412354 -394.899658 2.962632 0.551716
199.411179 -394.901855 2.320606 0.749877
199.410004 -394.904083 1.679434 0.707966
199.408829 -394.906311 1.037738 0.484069
199.407623 -394.908569 0.394144 1.000000
198.375626 -396.852966 0.000195 0.235582
196.546127 -400.299896 0.000269 0.251346
195.378357 -402.500122 0.000272 0.210977
194.566620 -404.029480 0.000303 0.200788
193.968491 -405.156403 0.000388 0.229527
199.504181 -395.017548 6.893065 0.634436
199.502914 -395.019867 6.218414 0.492279
199.501663 -395.022217 5.553411 0.483701
199.500443 -395.024475 4.896460 0.528186
199.499237 -395.026733 4.246032 0.541054
199.498032 -395.028931 3.600653 0.508456
199.496841 -395.031158 2.958895 0.589093
199.495667 -395.033325 2.319363 0.476593
199.494476 -395.035522 1.680678 0.521446
199.493286 -395.037720 1.041471 0.532721
199.492081 -395.039948 0.400374 1.000000
198.483109 -396.909302 0.000076 0.231353
196.629456 -400.343658 0.000160 0.208766
195.446320 -402.535706 0.000147 0.202134
194.623932 -404.059357 0.000153 0.189446
194.017838 -405.182312 0.000275 0.256920
199.588043 -395.148163 6.874366 0.530147
199.586777 -395.150482 6.202297 0.568137
199.585526 -395.152771 5.539837 0.543015
199.584290 -395.155029 4.885396 0.460172
199.583084 -395.157257 4.237454 0.505637
199.581863 -395.159424 3.594541 0.539706
199.580673 -395.161621 2.955234 0.599755
199.579483 -395.163818 2.318143 0.536642
199.578293 -395.165955 1.681897 0.528676
199.577103 -395.168121 1.045130 0.614828
199.575897 -395.170349 0.406478 1.000000
198.589462 -396.967773 0.000137 0.225394
196.712051 -400.388794 0.000188 0.239235
195.513596 -402.572601 0.000188 0.223856
194.680603 -404.090454 0.000205 0.227605
194.066742 -405.209045 0.000300 0.216167
199.671280 -395.277832 6.856045 0.538603
199.670013 -395.280090 6.186506 0.293750
199.668762 -395.282349 5.526537 0.317034
199.667511 -395.284607 4.874558 0.668873
199.666275 -395.286804 4.229050 0.723284
199.665070 -395.288940 3.588552 0.548407
199.663864 -395.291107 2.951646 0.513235
199.662674 -395.293243 2.316949 0.273162
199.661469 -395.295380 1.683091 0.311274
199.660278 -395.297546 1.048714 0.620343
199.659058 -395.299744 0.412459 1.000000
198.695862 -397.026154 0.000088 0.221261
196.794449 -400.434265 0.000171 0.224433
195.580780 -402.609680 0.000172 0.213956
194.737076 -404.121918 0.000244 0.264129
194.115524 -405.235992 0.000289 0.191465
199.753891 -395.406525 6.838098 0.768873
199.752625 -395.408752 6.171034 0.276348
199.751358 -395.410980 5.513508 0.298652
199.750122 -395.413177 4.863938 0.622672
199.748886 -395.415375 4.220816 0.710294
199.747665 -395.417511 3.582685 0.542279
199.746445 -395.419617 2.948132 0.513603
199.745239 -395.421753 2.315779 0.274510
199.744049 -395.423889 1.684261 0.226838
199.742844 -395.425995 1.052227 0.628064
199.741623 -395.428162 0.418319 1.000000
198.801315 -397.086243 0.000162 0.239331
196.876251 -400.480835 0.000242 0.242118
195.647583 -402.647400 0.000195 0.262495
194.793320 -404.153809 0.000291 0.227509
194.164047 -405.263397 0.000316 0.201942
199.835907 -395.534241 6.820515 0.541176
199.834641 -395.536469 6.155878 0.248407
199.833374 -395.538666 5.500744 0.237132
199.832108 -395.540833 4.853536 0.527941
199.830872 -395.542999 4.212750 0.610417
199.829636 -395.545105 3.576937 0.567034
199.828430 -395.547211 2.944690 0.534069
199.827225 -395.549316 2.314632 0.231863
199.826019 -395.551422 1.685407 0.229044
199.824814 -395.553497 1.055666 0.626225
199.823578 -395.555664 0.424059 1.000000
198.907639 -397.144836 -0.000056 0.232507
196.958801 -400.526093 -0.000009 0.207612
195.714798 -402.684448 -0.000021 0.188485
194.849930 -404.185028 0.000070 0.215686
194.212921 -405.290222 0.000075 0.235871
199.917313 -395.661072 6.803294 0.500980
199.916046 -395.663269 6.141034 0.198897
199.914780 -395.665436 5.488243 0.242279
199.913528 -395.667572 4.843347 0.574387
199.912277 -395.669678 4.204851 0.542525
199.911041 -395.671814 3.571308 0.640564
199.909821 -395.673889 2.941318 0.521936
199.908600 -395.675964 2.313509 0.238358
199.907379 -395.678040 1.686530 0.234804
199.906189 -395.680115 1.059036 0.664338
199.904938 -395.682220 0.429681 1.000000
199.012039 -397.206696 0.000065 0.237024
197.039978 -400.573730 0.000053 0.224721
195.780945 -402.723328 0.000048 0.230969
194.905731 -404.217651 0.000113 0.202038
194.260956 -405.318512 0.000151 0.260477
199.998169 -395.786987 6.786428 0.519240
199.996872 -395.789185 6.126495 0.194608
199.995605 -395.791290 5.475999 0.258211
199.994354 -395.793396 4.833368 0.613603
199.993088 -395.795532 4.197114 0.596569
199.991867 -395.797607 3.565795 0.583333
199.990631 -395.799652 2.938016 0.566422
199.989410 -395.801727 2.312410 0.285662
199.988190 -395.803741 1.687629 0.288480
199.986969 -395.805817 1.062335 0.676961
199.985733 -395.807922 0.435188 1.000000
199.115860 -397.269592 0.000220 0.229335
197.120468 -400.622528 0.000215 0.273356
195.846680 -402.762939 0.000172 0.247116
194.961060 -404.251068 0.000257 0.224433
194.308731 -405.347229 0.000259 0.213572
200.078461 -395.912048 6.769913 0.591176
200.077164 -395.914185 6.112258 0.552083
200.075882 -395.916321 5.464007 0.467279
200.074615 -395.918396 4.823597 0.462868
200.073364 -395.920471 4.189538 0.530760
200.072113 -395.922516 3.560396 0.654167
200.070877 -395.924561 2.934782 0.610049
200.069656 -395.926605 2.311332 0.581618
200.068420 -395.928619 1.688706 0.487623
200.067200 -395.930664 1.065567 0.672549
200.065948 -395.932739 0.440580 1.000000
199.219604 -397.332550 0.000293 0.211265
197.201050 -400.671143 0.000252 0.239619
195.912262 -402.802795 0.000253 0.191945
195.016403 -404.284485 0.000289 0.224048
194.356369 -405.376160 0.000337 0.252980
200.158188 -396.036255 6.753740 0.590319
200.156891 -396.038361 6.098319 0.757598
200.155609 -396.040436 5.452268 0.695098
200.154327 -396.042511 4.814029 0.624142
200.153091 -396.044556 4.182119 0.549142
200.151825 -396.046600 3.555110 0.554657
200.150589 -396.048615 2.931615 0.578799
200.149353 -396.050598 2.310278 0.866544
200.148132 -396.052612 1.689760 0.707721
200.146896 -396.054626 1.068731 0.657966
200.145645 -396.056671 0.445859 1.000000
199.324234 -397.394043 0.000070 0.242887
197.282196 -400.718872 0.000033 0.237985
195.978271 -402.841888 0.000082 0.208958
195.072128 -404.317261 0.000075 0.249423
194.404510 -405.404266 0.000077 0.264321
