# This PCD file was generated using the MATLABÂ® pcwrite function
# from Computer Vision ToolboxÂ®.
# .PCD v.7 - Point Cloud Data file format
VERSION .7
FIELDS x y z intensity
SIZE 4 4 4 4
TYPE F F F F
COUNT 1 1 1 1
WIDTH 1160
HEIGHT 1
VIEWPOINT 0 0 0 1 0 0 0
POINTS 1160
DATA ascii
363.514374 -598.698730 -0.000005 0.321324
365.230347 -550.523926 16.074764 0.581127
365.224457 -550.694885 14.098851 0.552328
365.218689 -550.862366 12.162427 0.611642
365.212982 -551.026855 10.260285 0.590074
365.207428 -551.188904 8.387550 0.600613
365.201904 -551.348694 6.539615 0.581005
365.196442 -551.506836 4.712101 0.593015
365.191040 -551.663574 2.900821 0.481373
365.185699 -551.819275 1.101728 0.515441
364.697510 -565.985962 -0.000365 0.227124
364.135254 -582.300598 -0.000201 0.217705
363.893921 -589.304382 -0.000114 0.224529
363.759521 -593.204346 -0.000134 0.216936
363.671783 -595.749939 0.009995 1.000000
363.614014 -597.425537 -0.000008 0.338113
363.570099 -598.700439 -0.000005 0.336397
365.550720 -552.266174 15.641698 0.594240
365.544067 -552.426819 13.727674 0.591667
365.537567 -552.584167 11.851553 0.594363
365.531128 -552.738708 10.008326 0.578922
365.524841 -552.891113 8.193251 0.595221
365.518585 -553.041321 6.401911 0.601225
365.512451 -553.189758 4.630069 0.246691
365.506348 -553.337158 2.873650 0.543750
365.500244 -553.483521 1.128747 0.534559
364.981720 -565.993408 -0.000531 0.226644
364.305542 -582.304993 -0.000367 0.236063
364.015289 -589.306580 -0.000386 0.236544
363.853607 -593.207336 -0.000224 0.202903
363.750366 -595.697937 -0.000006 0.335662
363.678650 -597.427917 -0.000008 0.332721
363.625793 -598.702515 -0.000005 0.348162
365.852020 -553.904541 15.235113 0.574142
365.844666 -554.055603 13.379144 0.585662
365.837494 -554.203735 11.559608 0.593750
365.830444 -554.349304 9.771654 0.585417
365.823486 -554.492676 8.010730 0.606618
365.816650 -554.634155 6.272535 0.588971
365.809875 -554.774170 4.552969 0.574020
365.803162 -554.912964 2.848108 0.535907
365.796478 -555.050720 1.154149 0.544608
365.265686 -566.006653 -0.000507 0.231930
364.475677 -582.312988 -0.000343 0.227701
364.136536 -589.312195 -0.000365 0.210977
363.947693 -593.210144 -0.000439 0.230777
363.827026 -595.701355 -0.000007 0.337500
363.743225 -597.430847 -0.000008 0.334314
363.681488 -598.705078 -0.000005 0.329534
366.135864 -555.448120 14.852679 0.549387
366.127960 -555.590576 13.051248 0.573284
366.120209 -555.730225 11.284899 0.587010
366.112610 -555.867310 9.548946 0.596446
366.105103 -556.002563 7.838948 0.600123
366.097717 -556.135986 6.150750 0.602328
366.090393 -556.268127 4.480391 0.568995
366.083130 -556.399109 2.824059 0.419240
366.075928 -556.529175 1.178071 0.546936
365.549469 -566.023438 -0.000407 0.229239
364.645782 -582.320801 -0.000424 0.226547
364.257721 -589.319458 -0.000259 0.220588
364.041718 -593.215149 -0.000415 0.228758
363.903748 -595.703430 -0.000356 0.212034
363.807770 -597.434143 -0.000008 0.335907
363.737152 -598.707947 -0.000005 0.338358
366.403809 -556.904846 14.492370 0.566912
366.395386 -557.039307 12.742289 0.559804
366.388763 -557.145508 11.030705 0.592647
366.379730 -557.289917 9.340623 0.540686
366.371429 -557.423218 7.677594 0.540319
366.363190 -557.554810 6.035896 0.604534
366.355072 -557.684998 4.411667 0.602941
366.347015 -557.814087 2.801199 0.596078
366.338989 -557.942383 1.200904 0.579044
365.833221 -566.040649 -0.000382 0.229815
364.815796 -582.331116 -0.000397 0.223376
364.378906 -589.326782 -0.000234 0.226547
364.135681 -593.221375 -0.000314 0.233276
363.980347 -595.708496 -0.000255 0.201942
363.872314 -597.437988 -0.000007 0.335294
363.792786 -598.711182 -0.000005 0.320343
366.656860 -558.285950 14.151331 0.569975
366.647644 -558.418640 12.448610 0.580515
366.638580 -558.548767 10.778906 0.582475
366.629700 -558.676697 9.137808 0.539216
366.620972 -558.802673 7.521137 0.535417
366.612335 -558.927063 5.924970 0.590319
366.603638 -559.052063 4.345458 1.000000
366.595276 -559.172241 2.779289 0.231250
366.586884 -559.293396 1.222698 0.579534
366.116821 -566.059814 -0.000357 0.225106
364.985687 -582.343567 -0.000298 0.229239
364.500092 -589.334106 -0.000314 0.245483
364.229645 -593.226990 -0.000400 0.200404
364.056946 -595.713135 -0.000337 0.196655
363.936829 -597.442261 -0.000007 0.331373
363.848419 -598.714905 -0.000005 0.328064
366.894531 -559.619263 13.822574 0.590074
366.884949 -559.744812 12.166678 0.557353
366.875519 -559.867920 10.542661 0.577696
366.866272 -559.988892 8.946223 0.561887
366.857147 -560.108215 7.373320 0.528554
366.848114 -560.226074 5.820148 0.575980
366.839203 -560.342529 4.283072 0.275123
366.830383 -560.458069 2.758584 0.273407
366.821594 -560.572876 1.243301 0.565809
366.400299 -566.080994 -0.000333 0.218378
365.155518 -582.356140 -0.000279 0.232315
364.621063 -589.343750 -0.000215 0.233948
364.323517 -593.233948 -0.000380 0.217224
364.133453 -595.719177 -0.000238 0.213283
363.997772 -597.493103 0.009994 1.000000
363.904022 -598.718933 -0.000005 0.338603
367.119720 -560.882141 13.511744 0.575490
367.109802 -561.001221 11.900057 0.778799
367.100037 -561.117920 10.319186 0.590931
367.090454 -561.232727 8.764963 0.608578
367.080994 -561.345764 7.233453 0.580637
367.071686 -561.457397 5.720963 0.532843
367.062439 -561.567871 4.223938 0.589461
367.053314 -561.677429 2.738985 0.549265
367.044220 -561.786377 1.262804 0.531985
366.683502 -566.105957 -0.000224 0.228374
365.325256 -582.370117 -0.000251 0.227028
364.742035 -589.353699 -0.000188 0.236736
364.417297 -593.242249 -0.000262 0.257978
364.209930 -595.725464 -0.000209 0.212803
364.061890 -597.498230 0.009995 1.000000
363.959564 -598.723389 -0.000006 0.337990
367.333374 -562.080505 13.217345 0.612377
367.323151 -562.193420 11.647528 0.582108
367.313141 -562.304138 10.107519 0.551348
367.303284 -562.413086 8.593269 0.574877
367.293549 -562.520386 7.100958 0.588726
367.283966 -562.626404 5.626982 0.559804
367.274475 -562.731262 4.167902 0.208333
367.265015 -562.835449 2.720407 0.312990
367.255646 -562.938904 1.281293 0.535662
366.966583 -566.131104 -0.000196 0.225971
365.494812 -582.386292 -0.000135 0.245290
364.862885 -589.365112 -0.000086 0.240292
364.511017 -593.251099 -0.000160 0.245675
364.286346 -595.732727 -0.000106 0.201461
364.125977 -597.503845 0.009995 1.000000
364.015106 -598.728271 -0.000006 0.331985
367.536377 -563.219116 12.938153 0.674142
367.525909 -563.326355 11.408010 0.564461
367.515625 -563.431580 9.906727 0.608088
367.505524 -563.535095 8.430365 0.578799
367.495605 -563.637207 6.975224 0.610662
367.485748 -563.737915 5.537792 0.575858
367.476013 -563.837646 4.114716 0.575858
367.466370 -563.936646 2.702774 0.586765
367.456757 -564.035034 1.298844 0.574142
367.249908 -566.154480 -0.000356 0.226836
365.664520 -582.400208 -0.000299 0.229719
364.983856 -589.375122 -0.000246 0.233948
364.604950 -593.258118 -0.000437 0.195502
364.362885 -595.738464 -0.000363 0.264898
364.194519 -597.463806 -0.000007 0.345833
364.070618 -598.733459 -0.000007 0.327941
367.729553 -564.302307 12.673071 0.578431
367.718872 -564.404297 11.180559 0.571569
367.708405 -564.504639 9.715998 0.589093
367.698059 -564.603088 8.275620 0.545711
367.687897 -564.700195 6.855776 0.551716
367.677887 -564.796082 5.453050 0.639216
367.667938 -564.891113 4.064174 0.246936
367.658081 -564.985352 2.686015 0.265564
367.648254 -565.079102 1.315526 0.594975
367.532684 -566.183716 -0.000326 0.230873
365.834076 -582.416443 -0.000378 0.228854
365.104706 -589.386658 -0.000321 0.222222
364.698578 -593.267761 -0.000407 0.230777
364.439178 -595.746765 -0.000256 0.226163
364.258850 -597.470276 -0.000007 0.336029
364.126068 -598.739075 -0.000007 0.339583
367.913574 -565.334290 12.421021 0.429289
367.902710 -565.431580 10.964252 0.595221
367.892059 -565.527039 9.534636 0.626593
367.881561 -565.620911 8.128445 0.601593
367.871216 -565.713440 6.742150 0.528922
367.861023 -565.804871 5.372426 0.518260
367.850891 -565.895508 4.016087 0.557843
367.840881 -565.985291 2.670069 0.532108
367.830902 -566.074585 1.331401 0.554779
367.815491 -566.212402 -0.000419 0.231161
366.003387 -582.434998 -0.000357 0.221646
365.225281 -589.400513 -0.000225 0.217897
364.792084 -593.278564 -0.000299 0.251922
364.515533 -595.754578 -0.000345 0.242599
364.323120 -597.477234 -0.000006 0.339583
364.181488 -598.744995 -0.000008 0.335784
368.089172 -566.318726 12.181094 0.562377
368.078156 -566.411438 10.758347 0.559069
368.067322 -566.502502 9.361962 0.559069
368.056671 -566.592041 7.988312 0.598897
368.046173 -566.680359 6.633955 0.588848
368.035828 -566.767639 5.295644 0.390931
368.025574 -566.854065 3.970283 0.376226
368.015350 -566.939819 2.654879 0.302328
368.005249 -567.025024 1.346525 0.547672
368.097839 -566.245544 -0.000388 0.227797
366.172546 -582.454895 -0.000326 0.231353
365.345856 -589.414734 -0.000192 0.247885
364.885681 -593.288879 -0.000377 0.244617
364.591705 -595.763916 -0.000237 0.210015
364.387512 -597.483154 -0.000334 0.173875
364.236847 -598.751465 -0.000008 0.345098
361.511505 -620.851196 5.577661 0.641054
361.511505 -620.851196 5.084793 0.557353
361.511505 -620.851135 4.598846 0.674142
361.511505 -620.851196 4.118656 0.552206
361.511505 -620.851135 3.643106 0.629289
361.511505 -620.851196 3.171124 0.185294
361.511505 -620.851135 2.701670 0.676225
361.511505 -620.851196 2.233723 0.315931
361.511505 -620.851196 1.766277 0.894118
361.511505 -620.851196 1.298330 0.894118
361.511505 -620.851135 0.828876 0.815686
361.511505 -620.851135 0.356894 0.815686
361.611694 -620.055237 0.000336 0.196559
361.922760 -617.583679 0.000380 0.231834
362.138885 -615.866455 0.000303 0.220877
362.298187 -614.600769 0.000346 0.220780
361.409576 -620.861206 5.583434 0.623162
361.409576 -620.861206 5.089771 0.615686
361.409576 -620.861206 4.603042 0.589583
361.409576 -620.861206 4.122076 0.623897
361.409576 -620.861206 3.645758 0.706740
361.409576 -620.861206 3.173014 0.382353
361.409576 -620.861206 2.702802 0.774510
361.409576 -620.861206 2.234100 0.262623
361.409576 -620.861206 1.765900 0.894118
361.409576 -620.861206 1.297198 0.894118
361.409576 -620.861206 0.826985 0.815686
361.409576 -620.861206 0.354242 0.815686
361.518219 -620.044189 0.000190 0.225586
361.846558 -617.574646 0.000236 0.228758
362.074646 -615.859253 0.000056 0.241926
362.242889 -614.593872 0.000284 0.231546
361.307312 -620.871338 5.589402 0.646569
361.307312 -620.871338 5.094918 0.651103
361.307312 -620.871338 4.607375 0.744853
361.307312 -620.871338 4.125609 0.615196
361.307312 -620.871338 3.648499 0.615686
361.307312 -620.871338 3.174968 0.403431
361.307312 -620.871338 2.703972 0.773775
361.307312 -620.871338 2.234490 0.330760
361.307312 -620.871338 1.765510 0.894118
361.307312 -620.871338 1.296027 0.894118
361.307312 -620.871338 0.825032 0.815686
361.307312 -620.871338 0.351502 0.815686
361.424805 -620.032532 0.000031 0.203383
361.770569 -617.564087 0.000274 0.192426
362.010590 -615.850403 0.000077 0.220684
362.187592 -614.586853 0.000145 0.195694
361.204712 -620.881470 5.595565 0.612500
361.204712 -620.881470 5.100231 0.589461
361.204712 -620.881470 4.611853 0.585539
361.204712 -620.881470 4.129258 0.615686
361.204712 -620.881470 3.651329 0.659804
361.204712 -620.881470 3.176985 0.374265
361.204712 -620.881470 2.705181 0.794240
361.204712 -620.881470 2.234892 0.391544
361.204712 -620.881470 1.765108 0.894118
361.204712 -620.881470 1.294819 0.894118
361.204712 -620.881470 0.823015 0.815686
361.204712 -620.881470 0.348671 0.815686
361.331665 -620.018860 0.000077 0.244521
361.694580 -617.553528 0.000210 0.231449
361.946686 -615.840698 0.000206 0.214629
362.132446 -614.578735 0.000191 0.221646
361.096985 -620.922302 5.609693 0.668137
361.101746 -620.891602 5.105715 0.573775
361.101746 -620.891541 4.616471 0.612745
361.101746 -620.891602 4.133025 0.576226
361.101746 -620.891541 3.654249 0.615686
361.101746 -620.891602 3.179067 0.399020
361.101746 -620.891602 2.706429 0.833456
361.101746 -620.891541 2.235308 0.261152
361.101746 -620.891541 1.764692 0.894118
361.101746 -620.891602 1.293571 0.894118
361.101746 -620.891541 0.820933 0.815686
361.101746 -620.891541 0.345751 0.815686
361.238739 -620.003906 0.000215 0.245386
361.618713 -617.541870 0.000250 0.189927
361.882690 -615.831665 0.000066 0.218858
362.077332 -614.570496 0.000184 0.197905
360.973267 -621.057556 5.648003 0.657843
360.998413 -620.901794 5.111370 0.571324
360.998413 -620.901794 4.621236 0.541544
360.998413 -620.901794 4.136909 0.662255
360.998413 -620.901794 3.657262 0.629534
360.998413 -620.901794 3.181214 0.363971
360.998413 -620.901794 2.707715 0.866544
360.998413 -620.901794 2.235737 0.866667
360.998413 -620.901794 1.764264 0.894118
360.998413 -620.901794 1.292285 0.815686
360.998413 -620.901794 0.818786 0.815686
360.998413 -620.901794 0.342738 0.815686
361.145813 -619.988953 0.000247 0.205978
361.543030 -617.529175 0.000374 0.220588
361.818909 -615.821045 0.000183 0.183872
362.022308 -614.561584 0.000227 0.252307
360.846161 -621.199524 5.688277 0.665074
360.894684 -620.912048 5.117200 0.617402
360.894684 -620.912048 4.626147 0.696691
360.894684 -620.912048 4.140912 0.615074
360.894684 -620.911987 3.660366 0.762868
360.894684 -620.912048 3.183426 0.556250
360.894684 -620.912048 2.709040 0.818260
360.894684 -620.912048 2.236178 0.815686
360.894684 -620.911987 1.763822 0.815686
360.894684 -620.911987 1.290959 0.685049
360.894684 -620.912048 0.816573 0.815686
360.894684 -620.911987 0.339634 0.737255
361.052979 -619.973389 0.000288 0.217897
361.467316 -617.516907 0.000337 0.234429
361.755157 -615.810364 0.000223 0.264898
361.967346 -614.552307 0.000278 0.264994
360.715637 -621.348389 5.730572 0.660294
360.790558 -620.922302 5.123200 0.594975
360.790558 -620.922302 4.631204 0.612500
360.790558 -620.922302 4.145034 0.680760
360.790558 -620.922302 3.663563 0.694730
360.790558 -620.922302 3.185705 0.278064
360.790558 -620.922302 2.710406 0.739706
360.790558 -620.922302 2.236633 0.735417
360.790558 -620.922302 1.763367 0.737377
360.790558 -620.922302 1.289594 0.737255
360.790558 -620.922302 0.814295 0.737255
360.790558 -620.922302 0.336437 0.709681
360.960327 -619.957031 0.000350 0.210496
361.391632 -617.504211 0.000278 0.202134
361.691345 -615.800049 0.000073 0.203672
361.912354 -614.543152 0.000209 0.228854
359.909149 -625.176575 6.710100 0.735049
360.686066 -620.932556 5.129377 0.694118
360.686066 -620.932556 4.636408 0.623529
360.686066 -620.932556 4.149277 0.643382
360.686035 -620.932556 3.666854 0.643873
360.686035 -620.932556 3.188050 0.531985
360.686066 -620.932556 2.711811 0.402083
360.686066 -620.932556 2.237101 0.513480
360.686035 -620.932556 1.762899 0.404534
360.686035 -620.932556 1.288189 0.380392
360.686035 -620.932556 0.811950 0.437377
360.686035 -620.932556 0.333147 0.380392
360.867249 -619.942749 -0.000014 0.281815
361.315979 -617.491516 0.000116 0.215782
361.627838 -615.787842 0.000249 0.268070
361.857452 -614.533569 0.000138 0.229143
359.781311 -625.146179 6.708484 0.748407
359.781311 -625.146179 6.059833 0.731250
359.781311 -625.146179 5.420288 0.726471
359.781311 -625.146179 4.788320 0.702941
359.781311 -625.146179 4.162458 0.691299
359.781311 -625.146179 3.541292 0.690931
359.781311 -625.146179 2.923453 0.666789
359.781311 -625.146179 2.307598 0.659436
359.781311 -625.146179 1.692402 0.615931
359.781311 -625.146179 1.076547 0.637868
359.781311 -625.146179 0.458707 0.433701
360.045715 -623.756714 0.000254 0.236640
360.774902 -619.924622 0.000118 0.271722
361.240692 -617.476746 0.000256 0.236063
361.564423 -615.775391 0.000383 0.236159
361.802704 -614.523193 0.000168 0.211553
359.653564 -625.115784 6.707099 0.756005
359.653564 -625.115784 6.058640 0.732721
359.653564 -625.115784 5.419283 0.728064
359.653564 -625.115784 4.787499 0.718873
359.653564 -625.115784 4.161822 0.721446
359.653564 -625.115784 3.540839 0.710417
359.653564 -625.115784 2.923182 0.687377
359.653564 -625.115784 2.307507 0.664706
359.653564 -625.115784 1.692492 0.632721
359.653564 -625.115784 1.076818 0.643015
359.653564 -625.115784 0.459161 0.394485
359.926483 -623.734009 0.000211 0.225682
360.682434 -619.906921 0.000086 0.261342
361.165314 -617.462280 0.000219 0.199250
361.500763 -615.764099 0.000154 0.231353
361.747864 -614.513184 0.000028 0.247693
359.525879 -625.085388 6.705945 0.725980
359.525879 -625.085388 6.057644 0.713848
359.525879 -625.085388 5.418444 0.706005
359.525879 -625.085388 4.786815 0.686520
359.525879 -625.085388 4.161292 0.662990
359.525879 -625.085388 3.540461 0.652451
359.525879 -625.085388 2.922955 0.651226
359.525879 -625.085388 2.307432 0.623652
359.525879 -625.085388 1.692568 0.607966
359.525879 -625.085388 1.077045 0.611029
359.525879 -625.085388 0.459539 0.517034
359.807617 -623.709534 0.000272 0.233276
360.590332 -619.887451 0.000220 0.227028
361.089996 -617.447632 0.000137 0.211745
361.437500 -615.750793 0.000280 0.234621
361.693329 -614.501648 0.000163 0.226067
359.398224 -625.054993 6.705020 0.753676
359.398224 -625.054993 6.056845 0.741176
359.398224 -625.054993 5.417772 0.735294
359.398224 -625.054993 4.786268 0.712500
359.398224 -625.054993 4.160867 0.697672
359.398224 -625.054993 3.540158 0.697059
359.398224 -625.054993 2.922774 0.650735
359.398224 -625.054993 2.307371 0.658701
359.398224 -625.054993 1.692629 0.645588
359.398224 -625.054993 1.077226 0.652206
359.398224 -625.054993 0.459841 0.475000
359.689087 -623.683594 0.000411 0.252595
360.497986 -619.869263 0.000065 0.225010
361.015076 -617.431091 0.000296 0.213187
361.374298 -615.737305 0.000336 0.249519
361.638794 -614.490051 0.000205 0.230873
359.270630 -625.024658 6.704325 0.765686
359.270630 -625.024597 6.056246 0.749877
359.270630 -625.024658 5.417267 0.743137
359.270630 -625.024597 4.785855 0.738235
359.270630 -625.024658 4.160547 0.729412
359.270630 -625.024597 3.539931 0.705760
359.270630 -625.024658 2.922637 0.671201
359.270630 -625.024658 2.307326 0.651471
359.270630 -625.024658 1.692674 0.639706
359.270630 -625.024597 1.077363 0.658701
359.270630 -625.024597 0.460069 0.460294
359.570404 -623.658264 0.000381 0.212995
360.405945 -619.849731 0.000024 0.201365
360.940063 -617.415100 0.000260 0.197905
361.310944 -615.724365 0.000182 0.203191
361.584167 -614.478943 0.000045 0.277201
359.143066 -624.994263 6.703857 0.757598
359.143066 -624.994263 6.055844 0.741299
359.143066 -624.994263 5.416928 0.733456
359.143066 -624.994263 4.785581 0.727206
359.143066 -624.994263 4.160333 0.725490
359.143066 -624.994263 3.539778 0.699755
359.143066 -624.994263 2.922546 0.690319
359.143066 -624.994263 2.307296 0.660784
359.143066 -624.994263 1.692704 0.662377
359.143066 -624.994263 1.077454 0.658211
359.143066 -624.994263 0.460221 0.478922
359.451813 -623.632446 0.000310 0.223952
360.314270 -619.828308 0.000170 0.205594
360.865204 -617.398132 0.000313 0.224337
361.248016 -615.709717 0.000318 0.212803
361.529816 -614.466614 0.000097 0.206555
359.015533 -624.963928 6.703621 0.769363
359.015533 -624.963928 6.055640 0.747059
359.015533 -624.963928 5.416757 0.738113
359.015533 -624.963928 4.785440 0.726716
359.015533 -624.963928 4.160224 0.713726
359.015533 -624.963928 3.539701 0.700368
359.015533 -624.963928 2.922500 0.690074
359.015533 -624.963928 2.307280 0.665686
359.015533 -624.963928 1.692720 0.658701
359.015533 -624.963928 1.077501 0.666176
359.015533 -624.963928 0.460299 0.466667
359.333252 -623.606567 0.000143 0.231546
360.222443 -619.807678 0.000091 0.225106
360.790070 -617.382568 0.000008 0.214629
361.184845 -615.695923 0.000159 0.267397
361.475677 -614.453369 0.000281 0.205498
358.888000 -624.933533 6.703615 0.757230
358.888000 -624.933533 6.055634 0.752941
358.888000 -624.933533 5.416752 0.745343
358.888000 -624.933533 4.785435 0.729412
358.888000 -624.933533 4.160222 0.705882
358.888000 -624.933533 3.539698 0.709804
358.888000 -624.933533 2.922498 0.694363
358.888000 -624.933533 2.307280 0.674877
358.888000 -624.933533 1.692720 0.654902
358.888000 -624.933533 1.077502 0.679167
358.888000 -624.933533 0.460302 0.442770
359.215088 -623.578857 0.000109 0.221165
360.130829 -619.786072 0.000063 0.236640
360.715515 -617.364441 0.000074 0.232026
361.122009 -615.680725 0.000214 0.227893
361.421326 -614.441101 0.000129 0.194637
358.760468 -624.903259 6.703837 0.776593
358.760468 -624.903259 6.055825 0.752941
358.760468 -624.903259 5.416913 0.749020
358.760468 -624.903259 4.785567 0.733333
358.760468 -624.903259 4.160323 0.713726
358.760468 -624.903259 3.539771 0.713726
358.760468 -624.903259 2.922542 0.702083
358.760468 -624.903259 2.307294 0.702451
358.760468 -624.903259 1.692706 0.670466
358.760468 -624.903259 1.077458 0.661642
358.760468 -624.903259 0.460229 0.447549
359.097351 -623.549438 0.000165 0.213956
360.039581 -619.762939 0.000175 0.226259
360.641052 -617.345825 0.000136 0.186082
361.059143 -615.665710 0.000124 0.251442
361.367310 -614.427246 0.000269 0.271050
358.632904 -624.872864 6.704287 0.749020
358.632904 -624.872864 6.056214 0.752941
358.632904 -624.872864 5.417240 0.745098
358.632904 -624.872864 4.785834 0.733333
358.632904 -624.872864 4.160531 0.721569
358.632904 -624.872864 3.539919 0.712132
358.632904 -624.872864 2.922630 0.701961
358.632904 -624.872864 2.307324 0.678431
358.632904 -624.872864 1.692676 0.563725
358.632904 -624.872864 1.077370 0.673897
358.632904 -624.872864 0.460081 0.443382
358.980011 -623.518494 0.000316 0.226644
359.948425 -619.739441 0.000240 0.231449
360.566742 -617.326782 0.000186 0.238466
360.996552 -615.649597 0.000194 0.251634
361.313324 -614.413391 0.000323 0.212995
358.505341 -624.842529 6.704968 0.753431
358.505341 -624.842529 6.056800 0.749020
358.505341 -624.842529 5.417734 0.741176
358.505341 -624.842529 4.786238 0.733333
358.505341 -624.842529 4.160843 0.721569
358.505341 -624.842529 3.540142 0.711887
358.505341 -624.842529 2.922764 0.697672
358.505341 -624.842529 2.307368 0.685049
358.505341 -624.842529 1.692632 0.675123
358.505341 -624.842529 1.077236 0.666422
358.505341 -624.842529 0.459858 0.447794
358.862488 -623.488220 0.000280 0.252211
359.857422 -619.715454 0.000291 0.205594
360.492218 -617.308411 0.000008 0.206171
360.933899 -615.633545 0.000150 0.225202
361.259460 -614.399170 0.000388 0.272876
358.377716 -624.812134 6.705879 0.743260
358.377716 -624.812134 6.057586 0.772672
358.377716 -624.812134 5.418396 0.752941
358.377716 -624.812134 4.786777 0.755024
358.377716 -624.812134 4.161261 0.735172
358.377716 -624.812134 3.540440 0.735172
358.377716 -624.812134 2.922942 0.723774
358.377716 -624.812134 2.307427 0.693627
358.377716 -624.812134 1.692572 0.680025
358.377716 -624.812134 1.077058 0.688603
358.377716 -624.812134 0.459560 0.483088
358.745392 -623.456238 0.000354 0.242887
359.766632 -619.690735 0.000357 0.220588
360.418213 -617.288208 0.000080 0.211553
360.871674 -615.616028 0.000320 0.181565
361.205444 -614.385376 0.000231 0.221838
358.250031 -624.781738 6.707018 0.751593
358.250031 -624.781738 6.058569 0.744730
358.250031 -624.781738 5.419224 0.743505
358.250031 -624.781738 4.787452 0.734559
358.250031 -624.781738 4.161785 0.709314
358.250031 -624.781738 3.540813 0.721936
358.250031 -624.781738 2.923165 0.692892
358.250031 -624.781738 2.307502 0.696691
358.250031 -624.781738 1.692498 0.666176
358.250031 -624.781738 1.076834 0.671446
358.250031 -624.781738 0.459187 0.467770
358.628540 -623.423584 0.000415 0.227797
359.675995 -619.665405 0.000415 0.254133
360.344269 -617.267578 0.000137 0.249039
360.809143 -615.599670 0.000148 0.246828
361.151855 -614.370117 0.000359 0.257401
358.122253 -624.751282 6.708389 0.773284
358.122253 -624.751343 6.059752 0.775735
358.122284 -624.751282 5.420219 0.775368
358.122284 -624.751282 4.788263 0.748162
358.122284 -624.751282 4.162414 0.740564
358.122253 -624.751343 3.541262 0.702941
358.122253 -624.751282 2.923434 0.747426
358.122284 -624.751282 2.307592 0.722917
358.122284 -624.751282 1.692408 0.709804
358.122284 -624.751282 1.076566 0.636397
358.122253 -624.751282 0.458738 0.431127
358.511688 -623.390808 0.000390 0.267782
359.585571 -619.639343 0.000479 0.230681
360.270538 -617.246399 0.000198 0.241734
360.747009 -615.581909 0.000203 0.211169
361.098206 -614.355042 0.000343 0.210111
357.994415 -624.720947 6.709990 0.504167
357.994415 -624.720947 6.061131 0.585172
357.994415 -624.720947 5.421383 0.600980
357.994415 -624.720947 4.789211 0.573529
357.994415 -624.720947 4.163150 0.572304
357.994415 -624.720947 3.541785 0.491667
357.994415 -624.720947 2.923748 0.428186
357.994415 -624.720947 2.307696 0.478676
357.994415 -624.720947 1.692304 0.452696
357.994415 -624.720947 1.076252 0.458088
357.994415 -624.720947 0.458214 0.261520
358.394958 -623.357666 0.000308 0.219243
359.495300 -619.612732 0.000549 0.221742
360.196930 -617.224792 0.000248 0.175125
360.685028 -615.563599 0.000272 0.246348
361.044586 -614.339783 0.000269 0.231642
357.866486 -624.690430 6.711821 0.433333
357.866486 -624.690430 6.062710 0.504167
357.866486 -624.690430 5.422713 0.530515
357.866486 -624.690430 4.790296 0.424020
357.866486 -624.690430 4.163990 0.436029
357.866486 -624.690430 3.542384 0.459681
357.866486 -624.690430 2.924107 0.492647
357.866486 -624.690430 2.307816 0.518382
357.866486 -624.690430 1.692184 0.518382
357.866486 -624.690430 1.075892 0.498774
357.866486 -624.690430 0.457615 0.235417
358.277985 -623.325317 0.000039 0.235198
359.404297 -619.588562 0.000131 0.215686
360.122742 -617.204956 -0.000156 0.231161
360.622864 -615.545837 0.000113 0.201653
360.990997 -614.324463 0.000113 0.204633
357.738464 -624.659973 6.713883 0.465196
357.738464 -624.659973 6.064488 0.507966
357.738464 -624.659973 5.424211 0.526593
357.738464 -624.659973 4.791516 0.438603
357.738464 -624.659973 4.164937 0.402696
357.738464 -624.659973 3.543059 0.456985
357.738464 -624.659973 2.924512 0.373039
357.738464 -624.659973 2.307950 0.367157
357.738464 -624.659973 1.692049 0.421446
357.738464 -624.659973 1.075488 0.406495
357.738464 -624.659973 0.456940 0.212500
358.162079 -623.289307 0.000101 0.229239
359.314423 -619.560608 0.000204 0.228181
360.049927 -617.180664 0.000208 0.250673
360.560760 -615.527771 -0.000071 0.199058
360.937714 -614.308044 0.000156 0.219915
357.610291 -624.629456 6.716177 0.493750
357.610291 -624.629456 6.066467 0.486275
357.610291 -624.629456 5.425878 0.533701
357.610291 -624.629456 4.792875 0.455025
357.610291 -624.629456 4.165991 0.387990
357.610291 -624.629456 3.543811 0.395466
357.610291 -624.629456 2.924962 0.329779
357.610291 -624.629456 2.308100 0.356005
357.610291 -624.629456 1.691900 0.370833
357.610291 -624.629456 1.075038 0.443505
357.610291 -624.629456 0.456189 0.232475
358.046661 -623.251770 0.000265 0.224817
359.224701 -619.532104 0.000266 0.214725
359.976807 -617.157471 0.000264 0.247116
360.499268 -615.507813 0.000069 0.196463
360.884460 -614.291687 0.000080 0.267878
357.482025 -624.598938 6.718705 0.500123
357.482025 -624.598938 6.068645 0.528064
357.482025 -624.598938 5.427712 0.520711
357.482025 -624.598938 4.794373 0.440809
357.482025 -624.598938 4.167151 0.351348
357.482025 -624.598938 3.544638 0.374020
357.482025 -624.598938 2.925457 0.369853
357.482025 -624.598938 2.308266 0.376471
357.482025 -624.598938 1.691734 0.322917
357.482025 -624.598938 1.074542 0.376593
357.482025 -624.598938 0.455362 0.228064
357.931000 -623.214966 0.000232 0.242887
359.135010 -619.503601 0.000232 0.227028
359.903870 -617.133667 0.000336 0.234910
360.437683 -615.488159 0.000064 0.193964
360.831421 -614.274414 0.000146 0.204537
357.353607 -624.568359 6.721464 0.478431
357.353607 -624.568359 6.071025 0.525613
357.353607 -624.568359 5.429718 0.549755
357.353607 -624.568359 4.796007 0.506495
357.353607 -624.568359 4.168419 0.395711
357.353607 -624.568359 3.545541 0.383701
357.353607 -624.568359 2.925999 0.418750
357.353607 -624.568359 2.308445 0.395956
357.353607 -624.568359 1.691554 0.340196
357.353607 -624.568359 1.074001 0.279289
357.353607 -624.568359 0.454459 0.256863
357.815918 -623.176575 0.000301 0.245002
359.045959 -619.473206 0.000392 0.253941
359.831207 -617.108948 0.000480 0.209919
360.376495 -615.467285 0.000214 0.259323
360.778534 -614.256897 0.000192 0.246540
357.225006 -624.537781 6.724457 0.441299
357.225006 -624.537781 6.073605 0.466667
357.225006 -624.537781 5.431892 0.480760
357.225006 -624.537781 4.797778 0.450490
357.225006 -624.537781 4.169794 0.425368
357.225006 -624.537781 3.546521 0.450000
357.225006 -624.537781 2.926586 0.399020
357.225006 -624.537781 2.308641 0.387500
357.225006 -624.537781 1.691359 0.352574
357.225006 -624.537781 1.073414 0.325613
357.225006 -624.537781 0.453478 0.285417
357.701050 -623.137390 0.000366 0.220396
358.956909 -619.442749 0.000469 0.216744
359.758667 -617.084106 0.000568 0.221453
360.315308 -615.446472 0.000272 0.214629
360.725800 -614.238831 0.000276 0.202807
357.096252 -624.507141 6.727685 0.405515
357.096252 -624.507202 6.076389 0.537132
357.096252 -624.507141 5.434237 0.482108
357.096252 -624.507202 4.799690 0.451716
357.096252 -624.507141 4.171276 0.372304
357.096252 -624.507202 3.547577 0.437255
357.096252 -624.507141 2.927219 0.339216
357.096252 -624.507141 2.308852 0.373652
357.096252 -624.507141 1.691148 0.383578
357.096252 -624.507141 1.072781 0.316667
357.096252 -624.507141 0.452422 0.286397
357.586243 -623.098083 0.000348 0.211169
358.867523 -619.413269 0.000293 0.257978
359.685577 -617.060669 0.000283 0.235486
360.254150 -615.425537 0.000260 0.231930
360.673187 -614.220459 0.000334 0.301519
356.967346 -624.476501 6.731148 0.519240
356.967346 -624.476501 6.079374 0.514461
356.967346 -624.476501 5.436752 0.508578
356.967346 -624.476501 4.801741 0.449755
356.967346 -624.476501 4.172867 0.394118
356.967346 -624.476501 3.548711 0.419485
356.967346 -624.476501 2.927898 0.382230
356.967346 -624.476501 2.309078 0.420956
356.967346 -624.476501 1.690921 0.414951
356.967346 -624.476501 1.072102 0.373652
356.967346 -624.476501 0.451288 0.284436
357.471497 -623.058594 0.000256 0.220300
358.778900 -619.381653 0.000358 0.254806
359.613342 -617.034729 0.000365 0.200404
360.193512 -615.403137 0.000471 0.242983
360.620392 -614.202637 0.000164 0.248654
356.838196 -624.445740 6.734847 0.286152
356.838196 -624.445740 6.082564 0.530270
356.838196 -624.445740 5.439439 0.553064
356.838196 -624.445740 4.803931 0.459069
356.838196 -624.445740 4.174565 0.456373
356.838196 -624.445740 3.549922 0.420956
356.838196 -624.445740 2.928624 0.376593
356.838196 -624.445740 2.309320 0.433088
356.838196 -624.445740 1.690680 0.387500
356.838196 -624.445740 1.071376 0.365809
356.838196 -624.445740 0.450078 0.282721
357.357208 -623.017700 0.000229 0.231930
358.690247 -619.349915 0.000338 0.208478
359.541321 -617.008423 0.000437 0.257209
360.132629 -615.381409 0.000439 0.210688
360.567932 -614.183777 0.000156 0.190504
356.708832 -624.414917 6.738783 0.271936
356.708832 -624.414917 6.085958 0.545956
356.708832 -624.414917 5.442298 0.532230
356.708832 -624.414917 4.806262 0.494118
356.708832 -624.414917 4.176373 0.415074
356.708832 -624.414917 3.551211 0.445343
356.708832 -624.414917 2.929395 0.364951
356.708832 -624.414917 2.309577 0.476348
356.708832 -624.414917 1.690423 0.381373
356.708832 -624.414917 1.070604 0.350858
356.708832 -624.414917 0.448789 0.268137
357.242737 -622.977417 0.000039 0.231930
358.601471 -619.318665 0.000149 0.240100
359.468903 -616.982971 0.000240 0.244425
360.071686 -615.359863 0.000266 0.232122
360.515442 -614.164978 0.000050 0.220108
356.579285 -624.384155 6.742957 0.257230
356.579285 -624.384155 6.089557 0.498774
356.579285 -624.384155 5.445330 0.495466
356.579285 -624.384155 4.808734 0.493137
356.579285 -624.384155 4.178291 0.447059
356.579285 -624.384155 3.552576 0.455760
356.579285 -624.384155 2.930214 0.358088
356.579285 -624.384155 2.309850 0.417402
356.579285 -624.384155 1.690150 0.416054
356.579285 -624.384155 1.069785 0.352083
356.579285 -624.384155 0.447423 0.263235
357.129333 -622.934143 0.000115 0.232122
358.513306 -619.285828 0.000120 0.227605
359.397064 -616.956116 0.000225 0.196847
360.011261 -615.336914 0.000326 0.257113
360.463379 -614.145020 0.000129 0.205594
356.449493 -624.353271 6.747370 0.283824
356.449493 -624.353271 6.093361 0.489461
356.449493 -624.353271 5.448536 0.492525
356.449493 -624.353271 4.811347 0.505392
356.449493 -624.353271 4.180316 0.413235
356.449493 -624.353271 3.554021 0.460172
356.449493 -624.353271 2.931079 0.400980
356.449493 -624.353271 2.310138 0.414828
356.449493 -624.353271 1.689862 0.386152
356.449493 -624.353271 1.068920 0.368505
356.449493 -624.353271 0.445978 0.274510
357.016205 -622.890137 0.000185 0.236640
358.425842 -619.251038 0.000286 0.226644
359.325531 -616.928284 0.000297 0.206555
359.950775 -615.314148 0.000234 0.257593
360.411072 -614.125854 -0.000061 0.240292
356.319458 -624.322266 6.752021 0.304534
356.319458 -624.322266 6.097373 0.562132
356.319458 -624.322266 5.451915 0.528676
356.319458 -624.322266 4.814102 0.490319
356.319458 -624.322266 4.182453 0.441667
356.319458 -624.322266 3.555544 0.470833
356.319458 -624.322266 2.931992 0.443750
356.319458 -624.322266 2.310442 0.448897
356.319458 -624.322266 1.689558 0.429902
356.319458 -624.322266 1.068008 0.370711
356.319458 -624.322266 0.444455 0.271446
356.903168 -622.846069 0.000167 0.204729
358.338135 -619.216858 0.000266 0.205498
359.253723 -616.901245 0.000117 0.243752
359.890533 -615.290649 0.000223 0.255286
360.359100 -614.105591 -0.000082 0.230584
356.189148 -624.291260 6.756917 0.379044
356.189148 -624.291260 6.101593 0.625490
356.189148 -624.291260 5.455471 0.479902
356.189148 -624.291260 4.817000 0.486887
356.189148 -624.291260 4.184701 0.453309
356.189148 -624.291260 3.557147 0.474510
356.189148 -624.291260 2.932952 0.398529
356.189148 -624.291260 2.310762 0.399755
356.189148 -624.291260 1.689238 0.396569
356.189148 -624.291260 1.067048 0.351593
356.189148 -624.291260 0.442853 0.271324
356.790680 -622.800537 0.000231 0.227124
358.250244 -619.183167 0.000071 0.207805
359.182617 -616.872437 0.000180 0.270473
359.830627 -615.266418 0.000282 0.237216
360.308044 -614.083130 0.000385 0.233083
356.058563 -624.260193 6.762053 0.541544
356.058563 -624.260193 6.106021 0.603064
356.058563 -624.260193 5.459202 0.479534
356.058563 -624.260193 4.820042 0.461887
356.058563 -624.260193 4.187060 0.418627
356.058563 -624.260193 3.558827 0.469853
356.058563 -624.260193 2.933959 0.385294
356.058563 -624.260193 2.311097 0.401471
356.058563 -624.260193 1.688903 0.389338
356.058563 -624.260193 1.066041 0.342034
356.058563 -624.260193 0.441172 0.258333
356.678223 -622.754822 0.000213 0.211361
358.163025 -619.147766 0.000054 0.265186
359.111725 -616.843079 0.000258 0.205306
359.770721 -615.242126 0.000265 0.241542
360.256531 -614.061890 0.000450 0.200596
355.927704 -624.229065 6.767433 0.538603
355.927704 -624.229065 6.110660 0.596201
355.927704 -624.229065 5.463109 0.507475
355.927704 -624.229065 4.823228 0.492770
355.927704 -624.229065 4.189530 0.447059
355.927704 -624.229065 3.560588 0.448407
355.927704 -624.229065 2.935014 0.403799
355.927704 -624.229065 2.311449 0.459436
355.927704 -624.229065 1.688551 0.429779
355.927704 -624.229065 1.064986 0.346569
355.927704 -624.229065 0.439411 0.261642
356.566406 -622.707703 0.000283 0.220492
358.076294 -619.111145 0.000126 0.210592
359.041016 -616.813232 0.000324 0.204441
359.711334 -615.216614 0.000423 0.227220
360.205200 -614.040222 0.000530 0.241542
355.796509 -624.197876 6.773057 0.548774
355.796509 -624.197876 6.115511 0.500735
355.796509 -624.197876 5.467196 0.535907
355.796509 -624.197876 4.826559 0.489093
355.796509 -624.197876 4.192115 0.503799
355.796509 -624.197876 3.562430 0.494240
355.796509 -624.197876 2.936117 0.396814
355.796509 -624.197876 2.311816 0.466422
355.796509 -624.197876 1.688184 0.426961
355.796509 -624.197876 1.063882 0.424142
355.796509 -624.197876 0.437570 0.263358
356.454926 -622.659790 0.000354 0.212803
357.990082 -619.073425 0.000290 0.209343
358.970551 -616.782959 0.000406 0.210015
359.651978 -615.191040 0.000504 0.225875
360.153595 -614.019165 0.000340 0.218666
355.665039 -624.166565 6.778929 0.539093
355.665039 -624.166565 6.120574 0.574387
355.665039 -624.166565 5.471461 0.558333
355.665039 -624.166565 4.830037 0.486642
355.665039 -624.166565 4.194811 0.508211
355.665039 -624.166565 3.564353 0.565931
355.665039 -624.166565 2.937269 0.449877
355.665039 -624.166565 2.312200 0.443015
355.665039 -624.166565 1.687800 0.436152
355.665039 -624.166565 1.062731 0.500490
355.665039 -624.166565 0.435648 0.200490
356.342865 -622.613220 0.000163 0.228566
357.903625 -619.036194 0.000272 0.254325
358.900085 -616.752563 0.000387 0.211842
359.592285 -615.166199 0.000308 0.261822
360.102417 -613.997070 0.000325 0.183679
355.533234 -624.135193 6.785049 0.515809
355.533234 -624.135193 6.125850 0.563971
355.533234 -624.135193 5.475906 0.529779
355.533234 -624.135193 4.833660 0.532843
355.533234 -624.135193 4.197621 0.513603
355.533234 -624.135193 3.566356 0.606863
355.533234 -624.135193 2.938469 0.458946
355.533234 -624.135193 2.312600 0.464093
355.533234 -624.135193 1.687400 0.452941
355.533234 -624.135193 1.061531 0.421078
355.533234 -624.135193 0.433645 0.226471
356.232056 -622.563599 0.000241 0.225106
357.817719 -618.997803 0.000345 0.226547
358.829651 -616.722229 0.000282 0.195598
359.533325 -615.139709 0.000404 0.198385
360.051697 -613.974060 0.000486 0.236448
355.401062 -624.103760 6.791418 0.541667
355.401062 -624.103760 6.131341 0.589951
355.401062 -624.103760 5.480533 0.546569
355.401062 -624.103760 4.837432 0.558824
355.401062 -624.103760 4.200546 0.513971
355.401062 -624.103760 3.568440 0.566544
355.401062 -624.103760 2.939719 0.448162
355.401062 -624.103760 2.313015 0.500000
355.401062 -624.103760 1.686984 0.488113
355.401062 -624.103760 1.060281 0.493750
355.401062 -624.103760 0.431559 0.270833
356.120270 -622.516296 -0.000061 0.216167
357.731323 -618.960449 0.000155 0.234910
358.759003 -616.692200 -0.000008 0.210784
359.473724 -615.114624 0.000090 0.188005
360.000397 -613.952209 0.000211 0.238178
355.268555 -624.072144 6.798039 0.573407
355.268555 -624.072144 6.137050 0.619853
355.268555 -624.072144 5.485342 0.512132
355.268555 -624.072144 4.841352 0.522917
355.268555 -624.072144 4.203587 0.584069
355.268555 -624.072144 3.570607 0.561029
355.268555 -624.072144 2.941017 0.531005
355.268555 -624.072144 2.313448 0.484559
355.268555 -624.072144 1.686552 0.473039
355.268555 -624.072144 1.058983 0.435539
355.268555 -624.072144 0.429393 0.317770
356.010162 -622.465210 0.000021 0.231738
357.645905 -618.920898 0.000220 0.251730
358.689331 -616.659973 0.000059 0.246251
359.415344 -615.086914 0.000280 0.207901
359.949799 -613.928772 0.000288 0.225394
355.135620 -624.040527 6.804911 0.537745
355.135620 -624.040527 6.142976 0.586520
355.135651 -624.040527 5.490334 0.476103
355.135651 -624.040527 4.845422 0.495588
355.135620 -624.040527 4.206744 0.505515
355.135620 -624.040527 3.572857 0.474755
355.135651 -624.040527 2.942365 0.524510
355.135620 -624.040527 2.313898 0.470466
355.135620 -624.040527 1.686103 0.453922
355.135651 -624.040527 1.057635 0.409926
355.135651 -624.040527 0.427142 0.285662
355.900055 -622.414185 -0.000004 0.218954
357.560547 -618.881287 0.000201 0.250384
358.619995 -616.627197 0.000141 0.256248
359.356659 -615.059753 0.000247 0.217705
359.898956 -613.905945 0.000085 0.229527
355.002380 -624.008850 6.812039 0.824387
355.002380 -624.008850 6.149122 0.768505
355.002380 -624.008850 5.495512 0.754657
355.002380 -624.008850 4.849644 0.792647
355.002380 -624.008850 4.210017 0.774142
355.002380 -624.008850 3.575190 0.706618
355.002380 -624.008850 2.943763 0.538235
355.002380 -624.008850 2.314363 0.494118
355.002380 -624.008850 1.685637 0.501716
355.002380 -624.008850 1.056237 0.471324
355.002380 -624.008850 0.424809 0.285294
355.790710 -622.361511 0.000074 0.237120
357.474945 -618.842102 0.000011 0.201557
358.550842 -616.593872 0.000221 0.261438
359.298431 -615.031738 0.000331 0.238370
359.848724 -613.881775 0.000170 0.244906
354.868713 -623.977051 6.819422 0.854044
354.868683 -623.977051 6.155488 0.918260
354.868713 -623.977051 5.500875 0.842770
354.868713 -623.977051 4.854016 0.750368
354.868713 -623.977051 4.213408 0.650858
354.868683 -623.977051 3.577608 0.683701
354.868683 -623.977051 2.945211 0.490196
354.868683 -623.977051 2.314845 0.509926
354.868683 -623.977051 1.685155 0.488848
354.868713 -623.977051 1.054789 0.457843
354.868713 -623.977051 0.422392 0.265196
355.681305 -622.308960 0.000050 0.236063
357.390106 -618.801270 -0.000010 0.230488
358.481720 -616.560608 0.000208 0.193772
359.240173 -615.003723 0.000312 0.215110
359.798676 -613.857300 0.000241 0.180219
354.734589 -623.945129 6.827066 0.880760
354.734589 -623.945129 6.162078 0.824387
354.734589 -623.945129 5.506428 0.852451
354.734558 -623.945068 4.858541 0.765809
354.734589 -623.945129 4.216919 0.751225
354.734558 -623.945129 3.580109 0.737377
354.734558 -623.945129 2.946710 0.476961
354.734558 -623.945068 2.315344 0.464093
354.734558 -623.945068 1.684655 0.422304
354.734558 -623.945129 1.053290 0.428309
354.734558 -623.945129 0.419890 0.262623
355.573059 -622.254089 0.000219 0.219627
357.305847 -618.759399 0.000054 0.213956
358.412994 -616.526428 0.000266 0.247116
359.182312 -614.974915 0.000377 0.238562
359.748779 -613.832458 0.000319 0.255479
354.600037 -623.913086 6.834968 0.893137
354.600037 -623.913086 6.168893 0.924877
354.600037 -623.913086 5.512168 0.839338
354.600037 -623.913086 4.863223 0.765196
354.600037 -623.913086 4.220548 0.747794
354.600037 -623.913086 3.582696 0.773284
354.600037 -623.913086 2.948260 0.478186
354.600037 -623.913086 2.315861 0.429167
354.600037 -623.913086 1.684139 0.364706
354.600037 -623.913086 1.051740 0.447059
354.600037 -623.913086 0.417303 0.304657
355.464447 -622.199951 0.000204 0.243945
357.221924 -618.716797 0.000139 0.195502
358.344299 -616.492249 0.000247 0.253268
359.124084 -614.946777 0.000185 0.247597
359.698914 -613.807556 0.000301 0.173779
354.465057 -623.880920 6.843133 0.839338
354.465057 -623.880920 6.175932 0.839828
354.465057 -623.880920 5.518099 0.841176
354.465057 -623.880920 4.868057 0.744730
354.465057 -623.880920 4.224298 0.683333
354.465057 -623.880920 3.585369 0.763358
354.465057 -623.880920 2.949861 0.437868
354.465057 -623.880920 2.316394 0.430025
354.465057 -623.880920 1.683606 0.414583
354.465057 -623.880920 1.050139 0.367402
354.465057 -623.880920 0.414631 0.335662
355.356598 -622.144348 0.000275 0.238370
357.138245 -618.673645 0.000208 0.239331
358.276398 -616.456604 0.000424 0.289408
359.066650 -614.917114 0.000264 0.255286
359.649567 -613.781677 0.000476 0.193003
354.329620 -623.848755 6.851563 0.807843
354.329620 -623.848755 6.183201 0.862745
354.329620 -623.848755 5.524221 0.823775
354.329620 -623.848755 4.873050 0.733456
354.329620 -623.848755 4.228169 0.735049
354.329620 -623.848755 3.588128 0.740441
354.329620 -623.848755 2.951514 0.427574
354.329620 -623.848755 2.316945 0.442402
354.329620 -623.848755 1.683055 0.452696
354.329620 -623.848755 1.048486 0.471936
354.329620 -623.848755 0.411871 0.384681
355.248749 -622.088623 0.000262 0.211169
357.054596 -618.630493 0.000188 0.235102
358.208252 -616.421326 0.000418 0.215879
359.009430 -614.887085 0.000353 0.283256
359.600067 -613.756042 0.000470 0.205402
354.193695 -623.816345 6.860259 0.807476
354.193695 -623.816345 6.190698 0.820833
354.193695 -623.816345 5.530539 0.801348
354.193695 -623.816345 4.878200 0.761275
354.193695 -623.816345 4.232162 0.766912
354.193695 -623.816345 3.590975 0.739093
354.193695 -623.816345 2.953220 0.441789
354.193695 -623.816345 2.317513 0.443137
354.193695 -623.816345 1.682487 0.474265
354.193695 -623.816345 1.046780 0.384559
354.193695 -623.816345 0.409025 0.379779
355.140961 -622.032837 0.000159 0.218666
356.971893 -618.585571 0.000364 0.214052
358.139862 -616.386536 0.000220 0.222414
358.952423 -614.856628 0.000437 0.195502
359.550507 -613.730469 0.000351 0.227028
354.057281 -623.783936 6.869223 0.839951
354.057251 -623.783936 6.198430 0.854657
354.057281 -623.783936 5.537051 0.852451
354.057251 -623.783936 4.883509 0.846201
354.057281 -623.783936 4.236280 0.767279
354.057281 -623.783936 3.593910 0.753676
354.057281 -623.783936 2.954978 0.454167
354.057281 -623.783936 2.318099 0.421324
354.057281 -623.783936 1.681901 0.425368
354.057281 -623.783936 1.045022 0.435417
354.057281 -623.783936 0.406090 0.351103
355.033875 -621.975708 0.000137 0.228758
356.888885 -618.541321 0.000347 0.207516
358.072174 -616.350403 0.000202 0.253652
358.895386 -614.826172 0.000414 0.188005
359.501373 -613.704224 0.000341 0.178970
353.920319 -623.751343 6.878461 0.839461
353.920319 -623.751343 6.206394 0.892034
353.920319 -623.751343 5.543762 0.837377
353.920319 -623.751343 4.888978 0.862132
353.920349 -623.751343 4.240522 0.716054
353.920349 -623.751343 3.596933 0.742157
353.920349 -623.751343 2.956789 0.466422
353.920319 -623.751343 2.318702 0.407353
353.920349 -623.751343 1.681298 0.427083
353.920349 -623.751343 1.043211 0.472672
353.920349 -623.751343 0.403067 0.380025
354.926361 -621.919373 -0.000084 0.207997
356.805542 -618.497498 0.000144 0.218954
358.004211 -616.314758 -0.000014 0.229047
358.838165 -614.796082 0.000208 0.191273
359.452026 -613.678284 0.000129 0.247116
353.782898 -623.718628 6.887971 0.862132
353.782898 -623.718628 6.214593 0.906495
353.782898 -623.718628 5.550670 0.889338
353.782898 -623.718628 4.894609 0.899020
353.782898 -623.718628 4.244890 0.696324
353.782898 -623.718628 3.600046 0.769730
353.782898 -623.718628 2.958655 0.422304
353.782898 -623.718628 2.319323 0.414338
353.782898 -623.718628 1.680677 0.452328
353.782898 -623.718628 1.041345 0.449387
353.782898 -623.718628 0.399953 0.383333
354.820099 -621.860779 -0.000109 0.226644
356.723114 -618.451965 0.000118 0.225394
357.937286 -616.277161 0.000070 0.192810
358.781586 -614.764893 0.000189 0.234333
359.403259 -613.651306 0.000123 0.235582
353.644897 -623.685791 6.897758 0.852696
353.644897 -623.685791 6.223032 0.831495
353.644897 -623.685791 5.557779 0.811642
353.644897 -623.685791 4.900406 0.926716
353.644897 -623.685791 4.249385 0.724387
353.644897 -623.685791 3.603250 0.758088
353.644897 -623.685791 2.960574 0.406740
353.644897 -623.685791 2.319963 0.403554
353.644897 -623.685791 1.680037 0.390809
353.644897 -623.685791 1.039425 0.448284
353.644897 -623.685791 0.396750 0.371569
354.714264 -621.801331 -0.000126 0.208766
356.641083 -618.405884 0.000111 0.230777
357.870392 -616.239624 0.000051 0.216744
358.724792 -614.734009 -0.000020 0.197712
359.354614 -613.624084 0.000098 0.202614
353.506317 -623.652771 6.907823 0.742647
353.506317 -623.652771 6.231711 0.783333
353.506317 -623.652771 5.565091 0.667034
353.506317 -623.652771 4.906366 0.842770
353.506317 -623.652771 4.254008 0.747917
353.506317 -623.652771 3.606545 0.735784
353.506317 -623.652771 2.962548 0.399632
353.506317 -623.652771 2.320620 0.371936
353.506317 -623.652771 1.679380 0.368627
353.506317 -623.652771 1.037452 0.449632
353.506317 -623.652771 0.393455 0.331495
354.609283 -621.740417 -0.000039 0.217705
356.559662 -618.358704 0.000188 0.237793
357.803986 -616.201111 0.000127 0.236351
358.668884 -614.701538 0.000068 0.272107
359.306641 -613.595764 0.000287 0.240581
353.367188 -623.619751 6.918171 0.685907
353.367188 -623.619751 6.240633 0.721569
353.367188 -623.619751 5.572607 0.715931
353.367188 -623.619751 4.912494 0.751103
353.367188 -623.619751 4.258759 0.771936
353.367188 -623.619751 3.609932 0.768137
353.367188 -623.619751 2.964577 0.449877
353.367188 -623.619751 2.321296 0.427328
353.367188 -623.619751 1.678704 0.374632
353.367188 -623.619751 1.035422 0.443505
353.367188 -623.619751 0.390068 0.358701
354.504639 -621.678894 0.000032 0.227797
356.478546 -618.310974 0.000263 0.199635
357.738159 -616.161743 0.000301 0.211649
358.613373 -614.668335 0.000239 0.230777
359.258606 -613.567505 0.000365 0.195982
353.227448 -623.586426 6.928801 0.762868
353.227448 -623.586426 6.249800 0.752696
353.227448 -623.586426 5.580329 0.752574
353.227448 -623.586426 4.918789 0.712377
353.227448 -623.586426 4.263642 0.767892
353.227448 -623.586426 3.613412 0.721691
353.227448 -623.586426 2.966662 0.421569
