# This PCD file was generated using the MATLABÂ® pcwrite function
# from Computer Vision ToolboxÂ®.
# .PCD v.7 - Point Cloud Data file format
VERSION .7
FIELDS x y z intensity
SIZE 4 4 4 4
TYPE F F F F
COUNT 1 1 1 1
WIDTH 1240
HEIGHT 1
VIEWPOINT 0 0 0 1 0 0 0
POINTS 1240
DATA ascii
-18.430870 -20.931654 -0.000012 0.229047
-14.946301 -36.874752 -0.000008 0.235390
-13.450243 -43.719734 -0.000001 0.217897
-12.617018 -47.532032 0.000006 0.212899
-12.085152 -49.965496 -0.000054 0.203479
-11.715412 -51.657188 -0.000039 0.264994
-11.443020 -52.903477 -0.000042 0.237505
nan nan nan 0.000000
-18.482250 -19.313419 11.136807 1.000000
-18.482246 -19.313427 9.697489 1.000000
-18.482246 -19.313427 8.275217 1.000000
-18.482248 -19.313435 6.866692 1.000000
-18.482265 -19.313349 5.468742 1.000000
-18.482262 -19.313358 4.078269 1.000000
-18.482258 -19.313377 2.692262 1.000000
-18.482254 -19.313389 1.307739 1.000000
-18.153133 -20.871292 -0.000045 0.228566
-14.779902 -36.838577 -0.000041 0.227605
-13.331646 -43.693932 -0.000036 0.251538
-12.525023 -47.512108 -0.000016 0.229143
-12.010117 -49.949425 -0.000044 0.260092
-11.652241 -51.643440 -0.000075 0.232699
-11.388462 -52.892044 0.000028 0.263456
nan nan nan 0.000000
-18.348719 -18.490339 11.305002 1.000000
-18.348717 -18.490353 9.839188 1.000000
-18.348721 -18.490337 8.390738 1.000000
-18.348717 -18.490349 6.956283 1.000000
-18.348738 -18.490250 5.532598 1.000000
-18.348730 -18.490292 4.116527 1.000000
-18.348728 -18.490295 2.705005 1.000000
-18.348724 -18.490314 1.294995 1.000000
-17.874767 -20.813900 -0.000025 0.227701
-14.613121 -36.804192 -0.000021 0.231642
-13.212756 -43.669506 -0.000007 0.267109
-12.432835 -47.493092 0.000002 0.214629
-11.934963 -49.933914 -0.000028 0.218474
-11.588915 -51.630421 -0.000048 0.246251
-11.333896 -52.880653 0.000014 0.262303
nan nan nan 0.000000
-18.210159 -17.636417 11.479961 1.000000
-18.210159 -17.636423 9.986586 1.000000
-18.210159 -17.636417 8.510899 1.000000
-18.210159 -17.636423 7.049472 1.000000
-18.210190 -17.636269 5.599025 1.000000
-18.210175 -17.636353 4.156323 1.000000
-18.210171 -17.636372 2.718261 1.000000
-18.210167 -17.636375 1.281739 1.000000
-17.596027 -20.758358 -0.000011 0.227797
-14.446136 -36.770813 -0.000015 0.234814
-13.093740 -43.645714 -0.000001 0.220684
-12.340542 -47.474586 0.000000 0.218089
-11.859743 -49.918724 -0.000050 0.251730
-11.525579 -51.617443 -0.000110 0.197232
-11.279202 -52.869896 0.000063 0.224241
nan nan nan 0.000000
-18.066299 -16.749660 11.662121 1.000000
-18.066299 -16.749653 10.140049 1.000000
-18.066296 -16.749668 8.636005 1.000000
-18.066298 -16.749657 7.146499 1.000000
-18.066296 -16.749662 5.668169 1.000000
-18.066307 -16.749611 4.197757 1.000000
-18.066305 -16.749628 2.732063 1.000000
-18.066303 -16.749630 1.267938 1.000000
-17.316898 -20.704838 0.000007 0.229815
-14.278881 -36.738827 0.000010 0.221357
-12.974545 -43.622833 0.000014 0.237216
-12.248171 -47.456474 -0.000041 0.220204
-11.784384 -49.904243 -0.000036 0.241349
-11.462080 -51.605289 -0.000086 0.269896
-11.224483 -52.859280 0.000050 0.227701
nan nan nan 0.000000
-17.916777 -15.828177 11.851892 1.000000
-17.916779 -15.828176 10.299927 1.000000
-17.916779 -15.828181 8.766342 1.000000
-17.916779 -15.828181 7.247581 1.000000
-17.916775 -15.828187 5.740212 1.000000
-17.916796 -15.828088 4.240923 1.000000
-17.916792 -15.828106 2.746441 1.000000
-17.916786 -15.828121 1.253560 1.000000
-17.037590 -20.652225 -0.000026 0.222895
-14.111532 -36.707333 -0.000022 0.215686
-12.855366 -43.599842 -0.000082 0.227316
-12.155670 -47.439034 -0.000077 0.242599
-11.708961 -49.890091 -0.000061 0.219339
-11.398413 -51.594055 0.000040 0.201749
-11.169651 -52.849262 0.000093 0.252307
nan nan nan 0.000000
nan nan nan 0.000000
-17.761272 -14.869664 10.466640 1.000000
-17.761272 -14.869674 8.902251 1.000000
-17.761274 -14.869668 7.352984 1.000000
-17.761272 -14.869668 5.815340 1.000000
-17.761288 -14.869585 4.285934 1.000000
-17.761280 -14.869609 2.761433 1.000000
-17.761280 -14.869623 1.238566 1.000000
-16.757750 -20.602552 -0.000011 0.228854
-13.943872 -36.677544 -0.000009 0.233756
-12.735863 -43.578609 -0.000068 0.235775
-12.062978 -47.422638 -0.000053 0.224145
-11.633403 -49.876694 -0.000042 0.246155
-11.334778 -51.582661 0.000035 0.209631
-11.114828 -52.839191 0.000024 0.207901
nan nan nan 0.000000
nan nan nan 0.000000
-17.599369 -13.871873 10.640605 1.000000
-17.599369 -13.871873 9.044074 1.000000
-17.599369 -13.871873 7.462974 1.000000
-17.599369 -13.871869 5.893735 1.000000
-17.599369 -13.871873 4.332900 1.000000
-17.599377 -13.871827 2.777080 1.000000
-17.599377 -13.871836 1.222922 1.000000
-16.477573 -20.554777 0.000002 0.224625
-13.776014 -36.648880 0.000000 0.216263
-12.616219 -43.558182 -0.000058 0.221549
-11.970194 -47.406773 -0.000047 0.242311
-11.557756 -49.863804 -0.000028 0.207036
-11.271086 -51.571590 0.000003 0.203576
-11.059903 -52.829681 0.000001 0.261150
nan nan nan 0.000000
nan nan nan 0.000000
-17.430668 -12.832155 10.822314 1.000000
-17.430668 -12.832164 9.192205 1.000000
-17.430664 -12.832165 7.577855 1.000000
-17.430664 -12.832165 5.975618 1.000000
-17.430683 -12.832076 4.381965 1.000000
-17.430689 -12.832021 2.793423 1.000000
-17.430685 -12.832044 1.206579 1.000000
-16.197081 -20.508949 0.000014 0.229815
-13.607956 -36.621445 0.000015 0.218666
-12.496418 -43.538704 -0.000036 0.226067
-11.877286 -47.391655 -0.000026 0.221357
-11.482023 -49.851421 -0.000018 0.247405
-11.207277 -51.561214 0.000026 0.242503
-11.004880 -52.820759 0.000031 0.223568
nan nan nan 0.000000
nan nan nan 0.000000
-17.254726 -11.747594 11.012296 1.000000
-17.254726 -11.747599 9.347086 1.000000
-17.254723 -11.747608 7.697971 1.000000
-17.254726 -11.747607 6.061229 1.000000
-17.254742 -11.747492 4.433260 1.000000
-17.254726 -11.747594 2.810505 1.000000
-17.254726 -11.747613 1.189495 1.000000
-15.916409 -20.464195 -0.000018 0.225875
-13.439903 -36.593922 -0.000076 0.232699
-12.376561 -43.519569 -0.000070 0.208670
-11.784330 -47.376823 -0.000058 0.231642
-11.406178 -49.839767 0.000030 0.241349
-11.143435 -51.551041 -0.000005 0.222511
-10.949826 -52.812031 0.000011 0.203864
nan nan nan 0.000000
nan nan nan 0.000000
-17.071014 -10.615396 11.211070 1.000000
-17.071014 -10.615396 9.509134 1.000000
-17.071014 -10.615396 7.823647 1.000000
-17.071014 -10.615405 6.150804 1.000000
-17.071012 -10.615406 4.486921 1.000000
-17.071026 -10.615340 2.828383 1.000000
-17.071020 -10.615376 1.171617 1.000000
-15.635292 -20.422359 -0.000002 0.221646
-13.271467 -36.568863 -0.000060 0.220012
-12.256507 -43.501720 -0.000052 0.230969
-11.691228 -47.362953 -0.000046 0.206363
-11.330235 -49.828770 0.000100 0.247405
-11.079422 -51.541996 0.000114 0.199827
-10.894661 -52.804039 0.000081 0.237313
nan nan nan 0.000000
nan nan nan 0.000000
-16.879005 -9.432043 11.419290 1.000000
-16.879004 -9.432048 9.678878 1.000000
-16.879002 -9.432053 7.955290 1.000000
-16.879004 -9.432056 6.244634 1.000000
-16.879004 -9.432056 4.543138 1.000000
-16.879026 -9.431882 2.847110 1.000000
-16.879019 -9.431928 1.152890 1.000000
-15.353995 -20.381691 -0.000026 0.225202
-13.102930 -36.544476 -0.000085 0.234333
-12.136385 -43.484310 -0.000081 0.225779
-11.598065 -47.349483 -0.000069 0.205017
-11.254290 -49.817802 0.000078 0.230296
-11.015447 -51.532715 0.000083 0.192522
-10.839469 -52.796246 0.000103 0.207612
nan nan nan 0.000000
nan nan nan 0.000000
-16.678118 -8.193789 11.637634 1.000000
-16.678118 -8.193792 9.856882 1.000000
-16.678116 -8.193793 8.093339 1.000000
-16.678118 -8.193797 6.343029 1.000000
-16.678116 -8.193793 4.602090 1.000000
-16.678127 -8.193706 2.866747 1.000000
-16.678122 -8.193751 1.133255 1.000000
-15.072328 -20.343685 -0.000015 0.220204
-12.934168 -36.521683 -0.000076 0.222895
-12.016092 -43.468132 -0.000064 0.233948
-11.504778 -47.336903 -0.000058 0.219627
-11.178247 -49.807537 0.000088 0.180123
-10.951378 -51.524097 0.000099 0.236351
-10.784233 -52.788769 0.000107 0.258747
nan nan nan 0.000000
nan nan nan 0.000000
-16.467678 -6.896734 11.866831 1.000000
-16.467678 -6.896748 10.043726 1.000000
-16.467678 -6.896743 8.238246 1.000000
-16.467678 -6.896766 6.446310 1.000000
-16.467678 -6.896757 4.663971 1.000000
-16.467693 -6.896646 2.887359 1.000000
-16.467688 -6.896679 1.112642 1.000000
-14.790507 -20.306831 -0.000044 0.227028
-12.765303 -36.499687 -0.000099 0.228374
-11.895739 -43.452412 -0.000092 0.224721
-11.411286 -47.325935 0.000098 0.224241
-11.102129 -49.797844 0.000106 0.255286
-10.887283 -51.515678 0.000062 0.195598
-10.728969 -52.781509 0.000070 0.208766
nan nan nan 0.000000
nan nan nan 0.000000
nan nan nan 0.000000
-16.246981 -5.536445 10.240087 1.000000
-16.246981 -5.536446 8.390531 1.000000
-16.246981 -5.536445 6.554851 1.000000
-16.246979 -5.536450 4.729004 1.000000
-16.246986 -5.536381 2.909018 1.000000
-16.246981 -5.536419 1.090981 1.000000
-14.508316 -20.272959 -0.000024 0.227509
-12.596226 -36.479385 -0.000079 0.220684
-11.775232 -43.437920 -0.000075 0.231930
-11.317869 -47.314423 0.000074 0.250192
-11.025976 -49.788437 0.000077 0.220684
-10.823120 -51.507793 0.000044 0.225682
-10.673646 -52.774704 0.000049 0.227797
nan nan nan 0.000000
nan nan nan 0.000000
nan nan nan 0.000000
-16.015213 -4.108066 10.446684 1.000000
-16.015211 -4.108061 8.550756 1.000000
-16.015211 -4.108061 6.669054 1.000000
-16.015209 -4.108075 4.797426 1.000000
-16.015223 -4.107979 2.931811 1.000000
-16.015215 -4.108033 1.068190 1.000000
-14.225889 -20.241077 -0.000003 0.230584
-12.427004 -36.460304 -0.000055 0.224241
-11.654575 -43.424721 -0.000005 0.244233
-11.224375 -47.303539 0.000047 0.202422
-10.949755 -49.779575 0.000053 0.240773
-10.758905 -51.500324 0.000017 0.218570
-10.618278 -52.768265 0.000024 0.219531
nan nan nan 0.000000
nan nan nan 0.000000
nan nan nan 0.000000
-15.771524 -2.606082 10.664351 1.000000
-15.771523 -2.606078 8.719566 1.000000
-15.771523 -2.606087 6.789371 1.000000
-15.771523 -2.606082 4.869514 1.000000
-15.771523 -2.606095 2.955822 1.000000
-15.771534 -2.605977 1.044177 1.000000
-13.943357 -20.210178 -0.000031 0.227893
-12.257721 -36.441811 -0.000082 0.227701
-11.533880 -43.411949 0.000017 0.224721
-11.130804 -47.293324 0.000023 0.240484
-10.873497 -49.771023 -0.000013 0.236544
-10.694639 -51.493320 -0.000005 0.275663
-10.562865 -52.762222 0.000001 0.208958
nan nan nan 0.000000
nan nan nan 0.000000
nan nan nan 0.000000
-15.514931 -1.024508 10.893988 1.000000
-15.514931 -1.024503 8.897657 1.000000
-15.514929 -1.024499 6.916306 1.000000
-15.514931 -1.024512 4.945566 1.000000
-15.514929 -1.024512 2.981153 1.000000
-15.514935 -1.024453 1.018846 1.000000
-13.660517 -20.182238 -0.000009 0.227893
-12.088253 -36.425076 -0.000060 0.210304
-11.413061 -43.400402 0.000082 0.230008
-11.037104 -47.284370 0.000088 0.201269
-10.797109 -49.763729 0.000053 0.252307
-10.630287 -51.487144 0.000055 0.277874
-10.507379 -52.756889 0.000059 0.255863
nan nan nan 0.000000
nan nan nan 0.000000
nan nan nan 0.000000
-15.244349 0.643225 11.136575 1.000000
-15.244349 0.643212 9.085793 1.000000
-15.244349 0.643217 7.050403 1.000000
-15.244349 0.643221 5.025908 1.000000
-15.244349 0.643200 3.007915 1.000000
-15.244349 0.643193 0.992084 1.000000
-13.377571 -20.155338 -0.000034 0.229719
-11.918724 -36.408985 -0.000082 0.219531
-11.292236 -43.388943 0.000061 0.239235
-10.943403 -47.275444 0.000061 0.215302
-10.720720 -49.756439 0.000025 0.234717
-10.565927 -51.481068 0.000040 0.193483
-10.451887 -52.751633 0.000039 0.238274
nan nan nan 0.000000
nan nan nan 0.000000
nan nan nan 0.000000
-14.958572 2.404478 11.393227 1.000000
-14.958572 2.404477 9.284839 1.000000
-14.958574 2.404479 7.192270 1.000000
-14.958570 2.404473 5.110907 1.000000
-14.958570 2.404469 3.036227 1.000000
-14.958584 2.404635 0.963769 1.000000
-13.094359 -20.131422 -0.000009 0.226932
-11.748999 -36.395107 -0.000020 0.223568
-11.171337 -43.378288 0.000034 0.213187
-10.849640 -47.267189 0.000036 0.205402
-10.644279 -49.749733 0.000004 0.229143
-10.501528 -51.475399 0.000015 0.244329
-10.396358 -52.746769 0.000020 0.194348
nan nan nan 0.000000
nan nan nan 0.000000
nan nan nan 0.000000
-14.656271 4.267753 11.665216 1.000000
-14.656269 4.267731 9.495773 1.000000
-14.656271 4.267732 7.342615 1.000000
-14.656271 4.267749 5.200985 1.000000
-14.656269 4.267731 3.066233 1.000000
-14.656275 4.267807 0.933766 1.000000
-12.810992 -20.109524 0.000017 0.229623
-11.579165 -36.382683 0.000064 0.214725
-11.050329 -43.368938 0.000062 0.214437
-10.755810 -47.259720 0.000030 0.192810
-10.567770 -49.743839 0.000034 0.217416
-10.437076 -51.470394 0.000036 0.207805
-10.340786 -52.742439 0.000038 0.198097
nan nan nan 0.000000
nan nan nan 0.000000
nan nan nan 0.000000
-14.335920 6.242222 11.953919 1.000000
-14.335922 6.242205 9.719679 1.000000
-14.335922 6.242227 7.502203 1.000000
-14.335924 6.242209 5.296601 1.000000
-14.335922 6.242201 3.098083 1.000000
-14.335932 6.242339 0.901915 1.000000
-12.527545 -20.088634 -0.000003 0.221357
-11.409319 -36.370544 0.000074 0.218762
-10.929272 -43.360279 0.000070 0.236928
-10.661922 -47.253014 0.000041 0.221069
-10.491230 -49.738377 0.000045 0.239619
-10.372595 -51.465767 0.000043 0.251634
-10.285183 -52.738529 0.000064 0.184833
nan nan nan 0.000000
nan nan nan 0.000000
nan nan nan 0.000000
nan nan nan 0.000000
-13.995821 8.338282 9.957759 1.000000
-13.995819 8.338272 7.671893 1.000000
-13.995821 8.338285 5.398271 1.000000
-13.995819 8.338263 3.131947 1.000000
-13.995832 8.338464 0.868049 1.000000
-12.243955 -20.069736 -0.000023 0.228662
-11.239416 -36.359207 0.000052 0.225586
-10.808172 -43.352203 0.000050 0.240581
-10.568005 -47.246742 0.000018 0.223280
-10.414668 -49.733231 0.000016 0.223664
-10.308078 -51.461678 0.000067 0.222511
-10.229565 -52.734829 0.000045 0.238081
nan nan nan 0.000000
nan nan nan 0.000000
nan nan nan 0.000000
nan nan nan 0.000000
-13.634064 10.567941 10.211410 1.000000
-13.634068 10.567915 7.852683 1.000000
-13.634066 10.567914 5.506590 1.000000
-13.634066 10.567914 3.168027 1.000000
-13.634066 10.567909 0.831973 1.000000
-11.960179 -20.053967 0.000013 0.230104
-11.069402 -36.349724 0.000085 0.215782
-10.686996 -43.345406 0.000078 0.220973
-10.474007 -47.241825 0.000100 0.243656
-10.338039 -49.729198 0.000093 0.228470
-10.243535 -51.458050 0.000094 0.239812
-10.173914 -52.731667 0.000065 0.219339
nan nan nan 0.000000
nan nan nan 0.000000
nan nan nan 0.000000
nan nan nan 0.000000
-13.248474 12.944696 10.482213 1.000000
-13.248472 12.944695 8.045701 1.000000
-13.248474 12.944696 5.622233 1.000000
-13.248472 12.944704 3.206548 1.000000
-13.248472 12.944704 0.793452 1.000000
-11.676262 -20.040977 0.000088 0.231642
-10.899358 -36.340794 0.000066 0.224433
-10.565799 -43.338985 0.000054 0.224433
-10.380013 -47.236874 0.000079 0.217224
-10.261410 -49.725189 0.000078 0.189542
-10.178984 -51.454529 0.000047 0.197136
-10.118252 -52.728745 0.000045 0.184064
nan nan nan 0.000000
nan nan nan 0.000000
nan nan nan 0.000000
nan nan nan 0.000000
nan nan nan 0.000000
nan nan nan 0.000000
nan nan nan 0.000000
nan nan nan 0.000000
-13.013363 19.831175 0.681041 1.000000
-11.392353 -20.027981 0.000066 0.225010
-10.729263 -36.332745 0.000022 0.223087
-10.444555 -43.333473 0.000035 0.236832
-10.285984 -47.232586 0.000059 0.210977
-10.184756 -49.721691 0.000057 0.219435
-10.114404 -51.451588 0.000028 0.218474
-10.062567 -52.726227 0.000031 0.222511
-10.543598 -36.786694 7.994359 0.449755
-10.543596 -36.786690 7.168563 0.505760
-10.543597 -36.786690 6.354362 0.458333
-10.543598 -36.786690 5.549802 0.557230
-10.543596 -36.786690 4.753019 0.483824
-10.543596 -36.786690 3.962215 0.546569
-10.543598 -36.786694 3.175646 0.513480
-10.543597 -36.786697 2.391602 0.432966
-10.543598 -36.786694 1.608398 0.574632
-10.543598 -36.786694 0.824354 0.485417
-10.543598 -36.786709 0.037785 0.543627
-10.323261 -43.329239 0.000067 0.249519
-10.191916 -47.229321 0.000093 0.223568
-10.108070 -49.718987 0.000084 0.203287
-10.049796 -51.449352 0.000064 0.207036
-10.006860 -52.724274 0.000061 0.237985
-10.375719 -36.814899 7.986028 0.395466
-10.375719 -36.814903 7.161379 0.485907
-10.375719 -36.814899 6.348309 0.463113
-10.375719 -36.814888 5.544870 0.602819
-10.375718 -36.814896 4.749194 0.396324
-10.375718 -36.814896 3.959488 0.567402
-10.375719 -36.814896 3.174012 0.447672
-10.375718 -36.814888 2.391058 0.421691
-10.375718 -36.814888 1.608942 0.157966
-10.375719 -36.814892 0.825987 0.126961
-10.375717 -36.814911 0.040512 0.555637
-10.201954 -43.325409 0.000047 0.216263
-10.097840 -47.226311 0.000068 0.196943
-10.031378 -49.716530 0.000058 0.207420
-9.985184 -51.447296 0.000041 0.222222
-9.951148 -52.722492 0.000036 0.202807
-10.208296 -36.843029 7.978011 0.419240
-10.208296 -36.843029 7.154467 0.504167
-10.208295 -36.843029 6.342486 0.388480
-10.208296 -36.843029 5.540122 0.405882
-10.208296 -36.843025 4.745512 0.483946
-10.208295 -36.843029 3.956864 0.530270
-10.208296 -36.843025 3.172440 0.426348
-10.208296 -36.843018 2.390534 0.389951
-10.208296 -36.843025 1.609466 0.461029
-10.208296 -36.843025 0.827560 0.162132
-10.208296 -36.843044 0.043136 0.530270
-10.080621 -43.322460 0.000032 0.220396
-10.003742 -47.224033 0.000054 0.237313
-9.954664 -49.714661 0.000042 0.247405
-9.920555 -51.445728 0.000025 0.192714
-9.895424 -52.721123 0.000017 0.201749
-10.041315 -36.871086 7.970306 0.439461
-10.041315 -36.871086 7.147823 0.463235
-10.041315 -36.871086 6.336889 0.410294
-10.041314 -36.871082 5.535559 0.372426
-10.041314 -36.871082 4.741973 0.419240
-10.041314 -36.871078 3.954343 0.592034
-10.041313 -36.871078 3.170928 0.427941
-10.041315 -36.871075 2.390031 0.420466
-10.041315 -36.871078 1.609969 0.487010
-10.041314 -36.871082 0.829071 0.184314
-10.041315 -36.871094 0.045658 0.591544
-9.959264 -43.320873 0.000076 0.228278
-9.909626 -47.222786 0.000096 0.225586
-9.877938 -49.713573 0.000070 0.229335
-9.855914 -51.444847 0.000062 0.241253
-9.839688 -52.720371 0.000055 0.210688
-9.874754 -36.899075 7.962909 0.364093
-9.874754 -36.899075 7.141447 0.467892
-9.874754 -36.899075 6.331516 0.434926
-9.874754 -36.899071 5.531179 0.378186
-9.874754 -36.899071 4.738576 0.257721
-9.874754 -36.899063 3.951922 0.632230
-9.874755 -36.899063 3.169478 0.458088
-9.874755 -36.899059 2.389547 0.409681
-9.874754 -36.899063 1.610452 0.205025
-9.874756 -36.899071 0.830521 0.160417
-9.874754 -36.899078 0.048079 0.619363
-9.837904 -43.319519 0.000048 0.219339
-9.815506 -47.221703 0.000064 0.272011
-9.801209 -49.712742 0.000048 0.193387
-9.791272 -51.444126 0.000036 0.252307
-9.783951 -52.719696 0.000015 0.201557
-9.708597 -36.926991 7.955825 0.390441
-9.708597 -36.926994 7.135337 0.513726
-9.708597 -36.926991 6.326369 0.433946
-9.708597 -36.926991 5.526982 0.474265
-9.708598 -36.926991 4.735322 0.490196
-9.708599 -36.926987 3.949601 0.519363
-9.708598 -36.926991 3.168088 0.469730
-9.708597 -36.926979 2.389085 0.447917
-9.708598 -36.926991 1.610915 0.530270
-9.708598 -36.926991 0.831911 0.175123
-9.708598 -36.927002 0.050399 0.519730
-9.716537 -43.319584 0.000087 0.221549
-9.721382 -47.221767 0.000104 0.235679
-9.724476 -49.712791 0.000087 0.241349
-9.726626 -51.444141 0.000070 0.292868
-9.728209 -52.719730 0.000054 0.221357
-9.542828 -36.954849 7.949042 0.395221
-9.542828 -36.954842 7.129490 0.412255
-9.542828 -36.954838 6.321444 0.453309
-9.542828 -36.954838 5.522967 0.463971
-9.542828 -36.954838 4.732208 0.481495
-9.542828 -36.954838 3.947382 0.493015
-9.542828 -36.954838 3.166759 0.383946
-9.542828 -36.954834 2.388642 0.468750
-9.542828 -36.954838 1.611358 0.566789
-9.542828 -36.954838 0.833242 0.163235
-9.542828 -36.954857 0.052619 0.509191
-9.595169 -43.319954 0.000064 0.216455
-9.627258 -47.222054 0.000081 0.228758
-9.647743 -49.713028 0.000065 0.226932
-9.661980 -51.444283 0.000035 0.236255
-9.672471 -52.720078 0.000076 0.232122
-9.377426 -36.982635 7.942569 0.389706
-9.377426 -36.982635 7.123907 0.462745
-9.377426 -36.982635 6.316740 0.500368
-9.377426 -36.982635 5.519133 0.413358
-9.377426 -36.982628 4.729234 0.515441
-9.377425 -36.982628 3.945263 0.485294
-9.377426 -36.982628 3.165488 0.477206
-9.377426 -36.982628 2.388219 0.508456
-9.377426 -36.982635 1.611781 0.596201
-9.377426 -36.982635 0.834512 0.162255
-9.377426 -36.982643 0.054738 0.487377
-9.473807 -43.321098 0.000032 0.244425
-9.533138 -47.223015 0.000060 0.221069
-9.571012 -49.713787 0.000039 0.219915
-9.597336 -51.444981 0.000021 0.194252
-9.616734 -52.720673 0.000060 0.219435
-9.212377 -37.010368 7.936395 0.469485
-9.212377 -37.010368 7.118585 0.412500
-9.212377 -37.010368 6.312255 0.510049
-9.212377 -37.010368 5.515478 0.363235
-9.212376 -37.010368 4.726398 0.506618
-9.212377 -37.010365 3.943242 0.508824
-9.212376 -37.010361 3.164278 0.451716
-9.212376 -37.010361 2.387816 0.513113
-9.212377 -37.010368 1.612185 0.607721
-9.212377 -37.010368 0.835722 0.167770
-9.212378 -37.010376 0.056759 0.512255
-9.352465 -43.323616 0.000061 0.214629
-9.439034 -47.224960 0.000087 0.217609
-9.494293 -49.715351 0.000063 0.204921
-9.532702 -51.446285 0.000042 0.208478
-9.561005 -52.721817 0.000087 0.218954
-9.047663 -37.038048 7.930524 0.499755
-9.047663 -37.038040 7.113523 0.403922
-9.047663 -37.038040 6.307991 0.458211
-9.047663 -37.038040 5.512001 0.394975
-9.047663 -37.038040 4.723702 0.456005
-9.047663 -37.038036 3.941321 0.541422
-9.047663 -37.038036 3.163126 0.429044
-9.047663 -37.038033 2.387432 0.452941
-9.047663 -37.038040 1.612568 0.622917
-9.047663 -37.038040 0.836873 0.172672
-9.047663 -37.038052 0.058681 0.534191
-9.231133 -43.326557 0.000041 0.238466
-9.344925 -47.226841 0.000008 0.219627
-9.417583 -49.717251 0.000051 0.223664
-9.468083 -51.448158 0.000088 0.213668
-9.505281 -52.723156 0.000062 0.194444
-8.883266 -37.065674 7.924953 0.545711
-8.883266 -37.065666 7.108720 0.444853
-8.883266 -37.065666 6.303945 0.469608
-8.883265 -37.065666 5.508701 0.359314
-8.883266 -37.065666 4.721145 0.473407
-8.883265 -37.065662 3.939497 0.565319
-8.883265 -37.065659 3.162034 0.416667
-8.883265 -37.065659 2.387068 0.503186
-8.883266 -37.065670 1.612932 0.425123
-8.883266 -37.065670 0.837966 0.174387
-8.883266 -37.065674 0.060504 0.548162
-9.109838 -43.330784 0.000071 0.217993
-9.250853 -47.230057 0.000030 0.196943
-9.340895 -49.719849 0.000067 0.227220
-9.403478 -51.450401 0.000117 0.233276
-9.449576 -52.725094 0.000093 0.219339
-8.719169 -37.093239 7.919683 0.457353
-8.719169 -37.093243 7.104172 0.493382
-8.719169 -37.093235 6.300115 0.451348
-8.719168 -37.093235 5.505580 0.394485
-8.719168 -37.093235 4.718723 0.486152
-8.719168 -37.093227 3.937771 0.446078
-8.719169 -37.093231 3.160999 0.467892
-8.719168 -37.093227 2.386724 0.438358
-8.719169 -37.093239 1.613277 0.585907
-8.719169 -37.093239 0.839000 0.177696
-8.719169 -37.093243 0.062230 0.445466
-8.988560 -43.335426 0.000052 0.233564
-9.156795 -47.233692 0.000015 0.229239
-9.264217 -49.722820 0.000054 0.201653
-9.338881 -51.452900 0.000103 0.204921
-9.393877 -52.727238 0.000076 0.194829
-8.555357 -37.120766 7.914705 0.439216
-8.555357 -37.120766 7.099883 0.458946
-8.555357 -37.120766 6.296501 0.455147
-8.555357 -37.120758 5.502633 0.335049
-8.555357 -37.120758 4.716438 0.447059
-8.555355 -37.120754 3.936142 0.469118
-8.555355 -37.120754 3.160025 0.483578
-8.555356 -37.120754 2.386398 0.423407
-8.555358 -37.120766 1.613601 0.592157
-8.555357 -37.120766 0.839976 0.163113
-8.555357 -37.120770 0.063859 0.437990
-8.867311 -43.340820 0.000022 0.217513
-9.062757 -47.237823 -0.000022 0.219723
-9.187559 -49.726231 0.000024 0.239139
-9.274298 -51.455719 0.000062 0.213764
-9.338190 -52.729664 0.000033 0.204056
-8.391810 -37.148239 7.910028 0.401103
-8.391811 -37.148239 7.095850 0.504167
-8.391810 -37.148239 6.293103 0.441789
-8.391809 -37.148239 5.499864 0.371324
-8.391809 -37.148239 4.714290 0.459804
-8.391810 -37.148239 3.934611 0.436397
-8.391809 -37.148232 3.159107 0.590686
-8.391810 -37.148232 2.386093 0.390686
-8.391811 -37.148247 1.613907 0.615319
-8.391809 -37.148247 0.840893 0.175368
-8.391810 -37.148251 0.065390 0.400858
-8.746132 -43.347618 0.000056 0.223760
-8.968785 -47.243252 0.000034 0.254902
-9.110947 -49.730572 0.000067 0.192426
-9.209758 -51.459412 0.000111 0.310650
-9.282538 -52.732819 0.000076 0.174260
-8.228515 -37.175678 7.905644 0.422304
-8.228515 -37.175678 7.092069 0.549265
-8.228515 -37.175678 6.289918 0.531495
-8.228513 -37.175674 5.497267 0.414216
-8.228515 -37.175671 4.712277 0.463480
-8.228514 -37.175671 3.933176 0.439461
-8.228514 -37.175671 3.158247 0.554289
-8.228514 -37.175671 2.385807 0.457721
-8.228514 -37.175690 1.614194 0.614951
-8.228515 -37.175686 0.841753 0.169240
-8.228515 -37.175686 0.066824 0.421814
-8.624875 -43.353218 -0.000146 0.235006
-8.874817 -47.248737 0.000002 0.219915
-9.034336 -49.734943 0.000016 0.208958
-9.145222 -51.463177 0.000079 0.295559
-9.226892 -52.736065 0.000043 0.259996
-8.065454 -37.203075 7.901555 0.405147
-8.065454 -37.203079 7.088543 0.502696
-8.065454 -37.203079 6.286948 0.515196
-8.065453 -37.203072 5.494845 0.489706
-8.065454 -37.203072 4.710398 0.492034
-8.065454 -37.203072 3.931837 0.424632
-8.065453 -37.203072 3.157445 0.523652
-8.065453 -37.203068 2.385540 0.414093
-8.065454 -37.203083 1.614461 0.400368
-8.065454 -37.203087 0.842556 0.169975
-8.065454 -37.203079 0.068163 0.388971
-8.503767 -43.361343 -0.000154 0.256055
-8.780896 -47.254986 -0.000013 0.221934
-8.957768 -49.740025 -0.000002 0.224817
-9.080721 -51.467499 0.000070 0.201557
-9.171273 -52.739750 0.000023 0.194733
-7.902610 -37.230446 7.897758 0.448407
-7.902609 -37.230446 7.085269 0.545466
-7.902610 -37.230438 6.284189 0.506250
-7.902610 -37.230434 5.492597 0.410172
-7.902609 -37.230438 4.708654 0.545711
-7.902609 -37.230434 3.930594 0.466912
-7.902608 -37.230434 3.156700 0.544118
-7.902609 -37.230431 2.385292 0.369118
-7.902611 -37.230446 1.614709 0.405760
-7.902609 -37.230450 0.843301 0.171814
-7.902610 -37.230446 0.069406 0.397672
-8.382736 -43.370541 -0.000136 0.229239
-8.687040 -47.262150 0.000010 0.217609
-8.881255 -49.745857 0.000020 0.217320
-9.016259 -51.472370 0.000082 0.261150
-9.115694 -52.743992 0.000046 0.207612
-7.739968 -37.257771 7.894252 0.524020
-7.739967 -37.257763 7.082250 0.482353
-7.739967 -37.257763 6.281644 0.516054
-7.739966 -37.257767 5.490520 0.552328
-7.739967 -37.257759 4.707045 0.483946
-7.739968 -37.257763 3.929447 0.522426
-7.739968 -37.257759 3.156013 0.496446
-7.739967 -37.257759 2.385063 0.412255
-7.739968 -37.257774 1.614938 0.321201
-7.739968 -37.257774 0.843988 0.182843
-7.739968 -37.257774 0.070553 0.506863
-8.261866 -43.381664 0.000007 0.237313
-8.593226 -47.269829 0.000012 0.239908
-8.804775 -49.752113 0.000021 0.232699
-8.951828 -51.477623 0.000080 0.267013
-9.060141 -52.748547 0.000050 0.235679
-7.577512 -37.285069 7.891039 0.566912
-7.577511 -37.285065 7.079477 0.443750
-7.577511 -37.285061 6.279309 0.491544
-7.577511 -37.285061 5.488618 0.573529
-7.577511 -37.285061 4.705569 0.413603
-7.577510 -37.285061 3.928395 0.539338
-7.577510 -37.285053 3.155383 0.438848
-7.577511 -37.285053 2.384853 0.471324
-7.577513 -37.285076 1.615148 0.395343
-7.577512 -37.285072 0.844618 0.166054
-7.577512 -37.285072 0.071605 0.558578
-8.140863 -43.391235 -0.000127 0.252980
-8.499300 -47.276329 -0.000259 0.215686
-8.728344 -49.758942 0.000029 0.201173
-8.887443 -51.483406 0.000095 0.206651
-9.004630 -52.753605 0.000084 0.265475
-7.415225 -37.312332 7.888116 0.486152
-7.415225 -37.312332 7.076955 0.441422
-7.415224 -37.312328 6.277186 0.429902
-7.415224 -37.312328 5.486887 0.433824
-7.415224 -37.312328 4.704226 0.509681
-7.415223 -37.312325 3.927438 0.485172
-7.415224 -37.312325 3.154809 0.474020
-7.415222 -37.312317 2.384661 0.391299
-7.415225 -37.312340 1.615339 0.373529
-7.415225 -37.312340 0.845192 0.164461
-7.415225 -37.312332 0.072562 0.430882
-8.020170 -43.404133 0.000027 0.226836
-8.405803 -47.287464 0.000063 0.211073
-8.651976 -49.766430 0.000061 0.247309
-8.823096 -51.489613 0.000103 0.237120
-8.949146 -52.758934 0.000087 0.276528
-7.253091 -37.339573 7.885482 0.573529
-7.253092 -37.339573 7.074686 0.450245
-7.253091 -37.339569 6.275273 0.425980
-7.253092 -37.339573 5.485327 0.318995
-7.253091 -37.339569 4.703017 0.456373
-7.253091 -37.339565 3.926575 0.550245
-7.253090 -37.339565 3.154293 0.450980
-7.253090 -37.339565 2.384490 0.458456
-7.253093 -37.339584 1.615511 0.605147
-7.253092 -37.339581 0.845708 0.166789
-7.253091 -37.339573 0.073424 0.482108
-7.899607 -43.418133 0.000210 0.235775
-8.312184 -47.297203 0.000079 0.221357
-8.575659 -49.774414 0.000085 0.204344
-8.758756 -51.495892 0.000031 0.214725
-8.893709 -52.764725 0.000110 0.199250
-7.091093 -37.366798 7.883137 0.596691
-7.091092 -37.366791 7.072664 0.436274
-7.091093 -37.366791 6.273569 0.460417
-7.091092 -37.366791 5.483939 0.313971
-7.091092 -37.366791 4.701939 0.361275
-7.091092 -37.366791 3.925809 0.574877
-7.091092 -37.366791 3.153833 0.441667
-7.091091 -37.366783 2.384336 0.446936
-7.091093 -37.366806 1.615664 0.611765
-7.091094 -37.366806 0.846168 0.170833
-7.091092 -37.366798 0.074192 0.496691
-7.778671 -43.428730 -0.000098 0.236736
-8.218390 -47.305443 -0.000226 0.225875
-8.499363 -49.782593 0.000048 0.244425
-8.694475 -51.502773 -0.000007 0.216071
-8.838291 -52.770702 0.000081 0.215398
-6.929218 -37.393993 7.881082 0.499510
-6.929218 -37.393993 7.070890 0.517402
-6.929217 -37.393990 6.272076 0.523652
-6.929217 -37.393990 5.482721 0.383946
-6.929217 -37.393990 4.700995 0.484559
-6.929217 -37.393986 3.925135 0.472059
-6.929217 -37.393982 3.153429 0.493382
-6.929216 -37.393982 2.384202 0.472181
-6.929219 -37.394001 1.615798 0.612868
-6.929218 -37.394005 0.846571 0.156127
-6.929218 -37.393993 0.074865 0.435049
-7.658453 -43.445618 0.000225 0.238562
-8.125151 -47.318546 0.000098 0.238370
-8.423083 -49.790966 -0.000051 0.216071
-8.630259 -51.510231 -0.000019 0.212899
-8.782920 -52.777107 0.000064 0.229047
-6.767447 -37.421173 7.879312 0.531740
-6.767447 -37.421173 7.069365 0.502819
-6.767447 -37.421173 6.270791 0.590196
-6.767446 -37.421169 5.481673 0.365319
-6.767446 -37.421169 4.700182 0.495098
-6.767445 -37.421165 3.924557 0.453799
-6.767446 -37.421165 3.153083 0.495343
-6.767446 -37.421165 2.384086 0.511029
-6.767448 -37.421185 1.615914 0.227083
-6.767449 -37.421188 0.846918 0.146324
-6.767447 -37.421177 0.075444 0.480025
-7.537540 -43.456810 -0.000210 0.200884
-8.031372 -47.327229 -0.000336 0.201845
-8.346636 -49.798119 -0.000471 0.202038
-8.566114 -51.518284 0.000001 0.206651
-8.727613 -52.784046 0.000083 0.202614
-6.605763 -37.448338 7.877833 0.481373
-6.605763 -37.448338 7.068088 0.517279
-6.605763 -37.448338 6.269715 0.610662
-6.605764 -37.448338 5.480796 0.436152
-6.605762 -37.448334 4.699502 0.476716
-6.605762 -37.448330 3.924071 0.458333
-6.605762 -37.448330 3.152793 0.509191
-6.605762 -37.448334 2.383990 0.533333
-6.605766 -37.448360 1.616011 0.546936
-6.605765 -37.448357 0.847208 0.149387
-6.605763 -37.448341 0.075929 0.451593
-7.417363 -43.473907 -0.000057 0.227220
-7.938158 -47.340446 -0.000190 0.246540
-8.270678 -49.809174 -0.000275 0.200980
-8.501976 -51.526413 -0.000059 0.191849
-8.672327 -52.791142 0.000044 0.197328
-6.444156 -37.475494 7.876637 0.548897
-6.444156 -37.475494 7.067059 0.465441
-6.444155 -37.475494 6.268847 0.454412
-6.444155 -37.475494 5.480089 0.492647
-6.444155 -37.475487 4.698955 0.489093
-6.444155 -37.475483 3.923681 0.499142
-6.444155 -37.475483 3.152558 0.449142
-6.444154 -37.475483 2.383912 0.475980
-6.444159 -37.475513 1.616089 0.603431
-6.444158 -37.475510 0.847443 0.157843
-6.444156 -37.475494 0.076319 0.447917
-7.297321 -43.491859 0.000097 0.232891
-7.845098 -47.354683 0.000011 0.227989
-8.194776 -49.820545 -0.000116 0.227509
-8.437947 -51.535343 -0.000042 0.201942
-8.617122 -52.798847 0.000063 0.230296
-6.282606 -37.502644 7.875730 0.498162
-6.282605 -37.502640 7.066277 0.444363
-6.282606 -37.502640 6.268188 0.457108
-6.282605 -37.502632 5.479552 0.492034
-6.282604 -37.502632 4.698538 0.456495
-6.282605 -37.502632 3.923383 0.513235
-6.282604 -37.502628 3.152380 0.435539
-6.282603 -37.502625 2.383852 0.461520
-6.282608 -37.502655 1.616148 0.247426
-6.282608 -37.502659 0.847621 0.148529
-6.282606 -37.502644 0.076616 0.468505
-7.177048 -43.508175 -0.000036 0.238274
-7.751815 -47.367317 -0.000124 0.230873
-8.118717 -49.830807 -0.000259 0.232507
-8.373966 -51.544621 -0.000048 0.212226
-8.561926 -52.806633 0.000004 0.228374
-6.121098 -37.529781 7.875109 0.565564
-6.121097 -37.529778 7.065742 0.473529
-6.121097 -37.529778 6.267737 0.463113
-6.121097 -37.529778 5.479184 0.449387
-6.121096 -37.529766 4.698253 0.481495
-6.121097 -37.529778 3.923180 0.559191
-6.121096 -37.529766 3.152258 0.420833
-6.121095 -37.529766 2.383812 0.485907
-6.121100 -37.529797 1.616189 0.570711
-6.121099 -37.529793 0.847743 0.149142
-6.121098 -37.529785 0.076820 0.519730
-7.057089 -43.526649 -0.000015 0.209535
-7.658762 -47.381550 -0.000119 0.224529
-8.042864 -49.842476 -0.000241 0.200788
-8.309815 -51.552826 -0.000384 0.248462
-8.506795 -52.814865 -0.000039 0.223568
-5.959616 -37.556908 7.874775 0.449020
-5.959616 -37.556908 7.065454 0.468873
-5.959615 -37.556908 6.267495 0.432353
-5.959615 -37.556908 5.478987 0.440809
-5.959615 -37.556904 4.698099 0.440074
-5.959615 -37.556900 3.923070 0.443015
-5.959614 -37.556900 3.152193 0.450735
-5.959614 -37.556900 2.383790 0.456250
-5.959619 -37.556927 1.616210 0.627819
-5.959619 -37.556927 0.847808 0.154167
-5.959616 -37.556908 0.076929 0.479289
-6.937446 -43.547066 0.000135 0.243656
-7.565975 -47.397427 0.000037 0.211265
-7.967210 -49.855373 -0.000094 0.235679
-8.246076 -51.563702 -0.000235 0.210592
-8.451807 -52.824009 0.000051 0.187620
-5.798145 -37.584042 7.874727 0.460784
-5.798145 -37.584042 7.065412 0.466667
-5.798144 -37.584038 6.267460 0.473284
-5.798145 -37.584042 5.478958 0.485784
-5.798144 -37.584038 4.698077 0.460417
-5.798145 -37.584034 3.923055 0.460907
-5.798145 -37.584034 3.152183 0.453431
-5.798144 -37.584030 2.383787 0.468873
-5.798148 -37.584061 1.616214 0.634314
-5.798150 -37.584064 0.847818 0.149755
-5.798145 -37.584045 0.076945 0.432475
-6.817158 -43.563633 -0.000262 0.232218
-7.473158 -47.413067 0.000060 0.238466
-7.891517 -49.868011 -0.000092 0.242695
-8.182371 -51.574745 -0.000146 0.234910
-8.396794 -52.832989 0.000002 0.228758
-5.636668 -37.611176 7.874966 0.450123
-5.636667 -37.611172 7.065619 0.579289
-5.636666 -37.611168 6.267633 0.459681
-5.636667 -37.611168 5.479099 0.359436
-5.636667 -37.611168 4.698186 0.452941
-5.636665 -37.611160 3.923133 0.433211
-5.636664 -37.611160 3.152230 0.577696
-5.636667 -37.611168 2.383802 0.436765
-5.636671 -37.611198 1.616198 0.637255
-5.636671 -37.611191 0.847771 0.147304
-5.636667 -37.611172 0.076867 0.412745
-6.697097 -43.581802 -0.000571 0.230200
-7.380072 -47.427212 -0.000240 0.231546
-7.815692 -49.879917 -0.000323 0.263168
-8.118429 -51.584446 -0.000449 0.265379
-8.341874 -52.842529 -0.000003 0.248558
-5.475170 -37.638306 7.875492 0.404534
-5.475170 -37.638306 7.066071 0.552083
-5.475170 -37.638306 6.268015 0.501348
-5.475170 -37.638306 5.479410 0.415196
-5.475170 -37.638306 4.698429 0.449632
-5.475169 -37.638306 3.923305 0.426593
-5.475169 -37.638298 3.152333 0.552206
-5.475168 -37.638298 2.383837 0.472181
-5.475174 -37.638329 1.616163 0.618505
-5.475176 -37.638329 0.847668 0.147794
-5.475171 -37.638309 0.076695 0.395098
-6.577885 -43.604790 -0.000415 0.224048
-7.287633 -47.445034 -0.000083 0.243656
-7.740322 -49.894405 -0.000174 0.246059
-8.054930 -51.596661 -0.000299 0.244617
-8.287045 -52.852570 0.000024 0.242887
-5.313636 -37.665447 7.876304 0.441422
-5.313636 -37.665447 7.066770 0.511887
-5.313635 -37.665447 6.268604 0.491667
-5.313633 -37.665440 5.479892 0.432475
-5.313634 -37.665443 4.698801 0.436397
-5.313634 -37.665440 3.923571 0.397304
-5.313634 -37.665440 3.152492 0.513726
-5.313634 -37.665440 2.383889 0.454534
-5.313641 -37.665474 1.616111 0.601103
-5.313641 -37.665478 0.847509 0.159436
-5.313636 -37.665447 0.076429 0.436152
-6.458618 -43.627422 -0.000396 0.238081
-7.195156 -47.462605 -0.000062 0.258843
-7.664918 -49.908676 -0.000163 0.217897
-7.991389 -51.608627 -0.000301 0.242503
-8.232266 -52.862885 0.000022 0.233852
-5.152050 -37.692600 7.877399 0.407230
-5.152049 -37.692596 7.067717 0.562990
-5.152049 -37.692596 6.269402 0.539093
-5.152048 -37.692593 5.480541 0.459191
-5.152049 -37.692593 4.699305 0.495711
-5.152047 -37.692593 3.923931 0.385662
-5.152047 -37.692585 3.152708 0.567647
-5.152048 -37.692593 2.383961 0.458088
-5.152054 -37.692627 1.616039 0.518873
-5.152054 -37.692623 0.847293 0.125858
-5.152049 -37.692596 0.076069 0.396078
-6.339254 -43.649586 -0.000531 0.248654
-7.102585 -47.479721 -0.000208 0.212130
-7.589474 -49.922764 -0.000284 0.201942
-7.927808 -51.620411 -0.000441 0.202999
-8.177472 -52.873138 -0.000094 0.236832
-4.990395 -37.719765 7.878785 0.512500
-4.990395 -37.719761 7.068912 0.540564
-4.990394 -37.719757 6.270408 0.433824
-4.990394 -37.719757 5.481361 0.462623
-4.990394 -37.719757 4.699941 0.395711
-4.990394 -37.719757 3.924384 0.482108
-4.990393 -37.719753 3.152979 0.534069
-4.990395 -37.719757 2.384052 0.413113
-4.990400 -37.719788 1.615948 0.614706
-4.990400 -37.719784 0.847022 0.145098
-4.990395 -37.719761 0.075616 0.453064
-6.220541 -43.675011 -0.000381 0.229431
-7.010598 -47.499748 -0.000009 0.246155
-7.514401 -49.938705 -0.000158 0.263841
-7.864577 -51.633942 -0.000292 0.265955
-8.122967 -52.884830 0.000062 0.212130
-4.828656 -37.746944 7.880457 0.581618
-4.828655 -37.746933 7.070354 0.518627
-4.828654 -37.746933 6.271623 0.491912
-4.828653 -37.746925 5.482352 0.499632
-4.828654 -37.746933 4.700708 0.468995
-4.828653 -37.746925 3.924931 0.556863
-4.828653 -37.746925 3.153307 0.521569
-4.828654 -37.746933 2.384161 0.431863
-4.828661 -37.746967 1.615840 0.624877
-4.828661 -37.746964 0.846694 0.141422
-4.828654 -37.746933 0.075069 0.516544
-6.102023 -43.701290 -0.000226 0.220973
-6.918691 -47.520088 0.000139 0.217609
-7.439483 -49.955349 0.000001 0.198577
-7.801447 -51.647919 -0.000143 0.242022
-8.068537 -52.896851 0.000203 0.250865
-4.666816 -37.774128 7.882419 0.525858
-4.666816 -37.774128 7.072044 0.477328
-4.666817 -37.774124 6.273046 0.493015
-4.666815 -37.774124 5.483513 0.503799
-4.666816 -37.774124 4.701609 0.443505
-4.666815 -37.774124 3.925573 0.546446
-4.666815 -37.774120 3.153692 0.466422
-4.666817 -37.774128 2.384289 0.379657
-4.666823 -37.774158 1.615711 0.629412
-4.666823 -37.774158 0.846310 0.130882
-4.666817 -37.774124 0.074427 0.528186
-5.983458 -43.727299 -0.000202 0.231257
-6.826760 -47.540272 0.000166 0.232026
-7.364512 -49.971710 0.000011 0.232987
-7.738348 -51.662006 -0.000066 0.196751
-8.013741 -52.907185 -0.000185 0.240100
-4.504862 -37.801342 7.884667 0.571569
-4.504861 -37.801342 7.073982 0.480025
-4.504860 -37.801342 6.274680 0.433088
-4.504860 -37.801342 5.484844 0.368382
-4.504859 -37.801334 4.702642 0.485662
-4.504860 -37.801338 3.926309 0.563848
-4.504859 -37.801334 3.154133 0.461029
-4.504862 -37.801342 2.384436 0.446936
-4.504869 -37.801373 1.615565 0.633456
-4.504869 -37.801373 0.845869 0.126838
-4.504861 -37.801342 0.073691 0.521201
-5.864455 -43.751404 -0.000499 0.222703
-6.734474 -47.558918 -0.000139 0.207612
-7.289276 -49.986927 -0.000290 0.215494
-7.674966 -51.674843 -0.000364 0.284218
-7.959078 -52.918217 -0.000491 0.261918
-4.342774 -37.828583 7.887204 0.609436
-4.342772 -37.828579 7.076170 0.416544
-4.342773 -37.828583 6.276522 0.451838
-4.342772 -37.828575 5.486347 0.306127
-4.342771 -37.828575 4.703808 0.425368
-4.342772 -37.828575 3.927139 0.587745
-4.342771 -37.828568 3.154630 0.416176
-4.342773 -37.828583 2.384602 0.382353
-4.342780 -37.828609 1.615399 0.580882
-4.342780 -37.828606 0.845371 0.117034
-4.342772 -37.828579 0.072860 0.537623
-5.746229 -43.778996 -0.000484 0.225971
-6.642804 -47.580318 -0.000122 0.223568
-7.214604 -50.004662 -0.000220 0.276048
-7.612003 -51.689560 -0.000343 0.208189
-7.904801 -52.930973 -0.000454 0.204248
-4.180539 -37.855839 7.890030 0.604902
-4.180539 -37.855839 7.078608 0.458824
-4.180538 -37.855835 6.278576 0.469853
-4.180537 -37.855835 5.488020 0.351838
-4.180538 -37.855835 4.705105 0.312010
-4.180536 -37.855827 3.928064 0.608088
-4.180537 -37.855827 3.155185 0.465686
-4.180539 -37.855843 2.384786 0.433088
-4.180546 -37.855865 1.615214 0.361520
-4.180547 -37.855869 0.844817 0.234559
-4.180536 -37.855831 0.071935 0.536765
-5.628479 -43.808548 -0.000333 0.238466
-6.551505 -47.603256 0.000032 0.232987
-7.140178 -50.023384 -0.000061 0.225202
-7.549288 -51.705299 -0.000193 0.197616
-7.850733 -52.944588 -0.000292 0.229912
-4.018140 -37.883125 7.893147 0.508088
-4.018140 -37.883125 7.081295 0.506985
-4.018140 -37.883125 6.280840 0.539338
-4.018139 -37.883118 5.489867 0.358088
-4.018139 -37.883118 4.706537 0.495466
-4.018139 -37.883118 3.929085 0.468260
-4.018137 -37.883106 3.155796 0.475123
-4.018143 -37.883133 2.384990 0.444975
-4.018147 -37.883148 1.615010 0.480760
-4.018146 -37.883141 0.844205 0.444853
-4.018140 -37.883121 0.070915 0.454412
-5.510661 -43.837784 -0.000318 0.230584
-6.460150 -47.625931 0.000048 0.250577
-7.065702 -50.041878 -0.000043 0.202326
-7.486536 -51.720867 -0.000178 0.247116
-7.796603 -52.957932 -0.000299 0.260957
-3.855562 -37.910439 7.896554 0.520588
-3.855562 -37.910439 7.084232 0.399632
-3.855561 -37.910439 6.283316 0.568995
-3.855560 -37.910435 5.491884 0.397181
-3.855561 -37.910439 4.708101 0.463725
-3.855560 -37.910431 3.930201 0.489461
-3.855559 -37.910431 3.156464 0.397672
-3.855562 -37.910439 2.385213 0.479289
-3.855564 -37.910446 1.614787 0.502574
-3.855565 -37.910450 0.843536 0.475123
-3.855560 -37.910435 0.069799 0.501838
-5.393358 -43.869034 -0.000160 0.225298
-6.369178 -47.650097 0.000196 0.249616
-6.991521 -50.061527 0.000095 0.222607
-7.424050 -51.737473 -0.000028 0.213283
-7.742729 -52.972275 -0.000142 0.203672
-3.692789 -37.937790 7.900253 0.481495
-3.692788 -37.937786 7.087421 0.476961
-3.692788 -37.937786 6.286002 0.573284
-3.692788 -37.937786 5.494075 0.411642
-3.692787 -37.937782 4.709800 0.502696
-3.692787 -37.937782 3.931411 0.482475
-3.692786 -37.937782 3.157189 0.476838
-4.066022 -39.343349 2.361656 1.000000
-3.692790 -37.937794 1.614546 0.423529
-3.692791 -37.937798 0.842810 0.530392
-3.692788 -37.937786 0.068589 0.481495
-5.275266 -43.897247 -0.000460 0.232603
-6.277625 -47.672039 -0.000095 0.214052
-6.916889 -50.079449 -0.000190 0.202807
-7.361161 -51.752533 -0.000322 0.250673
-7.688506 -52.985283 -0.000430 0.229623
-3.529803 -37.965176 7.904246 0.499755
-3.529803 -37.965176 7.090863 0.449510
-3.529803 -37.965176 6.288902 0.487132
-3.529801 -37.965172 5.496439 0.390319
-3.529801 -37.965176 4.711634 0.501103
-3.529799 -37.965168 3.932718 0.469730
-3.529800 -37.965168 3.157972 0.448162
-4.430165 -41.262875 2.329777 1.000000
-3.529801 -37.965172 1.614285 0.393015
-3.529801 -37.965172 0.842027 0.518260
-3.529801 -37.965172 0.067281 0.492279
-5.158073 -43.928928 -0.000447 0.229431
-6.186758 -47.696613 -0.000079 0.246251
-6.842811 -50.099495 -0.000173 0.238466
-7.298749 -51.769432 -0.000303 0.255479
-7.634691 -52.999863 -0.000410 0.233948
-3.366585 -37.992599 7.908531 0.532475
-3.366587 -37.992599 7.094557 0.410539
-3.366585 -37.992599 6.292015 0.469363
-3.366584 -37.992592 5.498977 0.394485
-3.366584 -37.992592 4.713602 0.465809
-3.366584 -37.992592 3.934121 0.549510
-3.366585 -37.992596 3.158813 0.414216
-4.290616 -41.286304 2.330016 1.000000
-3.366581 -37.992584 1.614005 0.436887
-3.366582 -37.992584 0.841186 0.485417
-3.366585 -37.992596 0.065879 0.518137
-5.041547 -43.963005 -0.000245 0.225202
-6.096307 -47.722694 0.000070 0.199443
-6.769087 -50.120819 -0.000012 0.220780
-7.236623 -51.787354 -0.000152 0.227413
-7.581155 -53.015434 -0.000227 0.199539
-3.203125 -38.020065 7.913110 0.540074
-3.203125 -38.020065 7.098508 0.440686
-3.203125 -38.020061 6.295342 0.439093
-3.203124 -38.020061 5.501689 0.348775
-3.203124 -38.020061 4.715707 0.464216
-3.203124 -38.020061 3.935620 0.560539
-3.203123 -38.020054 3.159712 0.418627
-4.150858 -41.309772 2.330272 1.000000
-3.203120 -38.020042 1.613706 0.493750
-3.203120 -38.020042 0.840288 0.207108
-3.203125 -38.020061 0.064379 0.537990
-4.924818 -43.996296 -0.000233 0.239043
-6.005797 -47.748528 0.000084 0.234333
-6.695299 -50.141888 0.000003 0.222511
-7.174459 -51.805115 -0.000134 0.182718
-7.527538 -53.030701 -0.000222 0.212418
-3.039405 -38.047573 7.917987 0.435662
-3.039404 -38.047573 7.102713 0.472549
-3.039405 -38.047573 6.298883 0.472672
-3.039403 -38.047569 5.504576 0.435784
-3.039404 -38.047573 4.717944 0.491176
-3.039403 -38.047569 3.937216 0.447059
-3.039403 -38.047565 3.160668 0.471324
-4.010879 -41.333290 2.330545 1.000000
-3.039399 -38.047554 1.613387 0.567034
-3.039398 -38.047550 0.839332 0.198039
-3.039403 -38.047569 0.062783 0.437745
-4.807566 -44.027840 -0.000529 0.237697
-5.914893 -47.773033 -0.000204 0.234814
-6.621166 -50.161789 -0.000299 0.206747
-7.112254 -51.822750 -0.000242 0.242791
-7.473717 -53.045284 -0.000492 0.197809
-2.875406 -38.075130 7.923159 0.437868
-2.875405 -38.075130 7.107172 0.450858
-2.875404 -38.075123 6.302641 0.442279
-2.875403 -38.075123 5.507639 0.381373
-2.875403 -38.075123 4.720320 0.436642
-2.875404 -38.075123 3.938909 0.463113
-2.875402 -38.075115 3.161683 0.503431
-3.870661 -41.356842 2.330834 1.000000
-2.875398 -38.075104 1.613049 0.158456
-2.875398 -38.075104 0.838317 0.216544
-2.875404 -38.075123 0.061091 0.438480
-4.691312 -44.062820 -0.000510 0.229047
-5.824719 -47.800064 -0.000200 0.244329
-6.547668 -50.183884 -0.000284 0.253364
-7.050321 -51.841312 -0.000238 0.232795
-7.420310 -53.061295 -0.000488 0.215110
-2.711110 -38.102737 7.928629 0.421201
-2.711110 -38.102737 7.111888 0.441667
-2.711108 -38.102730 6.306615 0.408211
-2.711108 -38.102730 5.510880 0.356373
-2.711108 -38.102734 4.722833 0.463358
-2.711107 -38.102726 3.940700 0.438603
-2.711107 -38.102726 3.162755 0.592157
-3.588957 -40.926186 2.338923 0.790074
-2.888734 -38.674038 1.622482 1.000000
-2.711101 -38.102711 0.837244 0.233824
-2.711107 -38.102726 0.059299 0.401716
-4.575650 -44.099720 -0.000359 0.218858
-5.734230 -47.826099 -0.000449 0.226355
-6.474545 -50.207199 -0.000135 0.247789
-6.988722 -51.860962 -0.000087 0.228278
-7.367180 -53.078209 -0.000345 0.211842
-2.546504 -38.130394 7.934401 0.415196
-2.546504 -38.130394 7.116865 0.455147
-2.546503 -38.130390 6.310807 0.468137
-2.546502 -38.130386 5.514297 0.439216
-2.546503 -38.130390 4.725484 0.464461
-2.546502 -38.130386 3.942589 0.447672
-2.546501 -38.130386 3.163886 0.554779
-3.553636 -41.291653 2.333393 1.000000
-2.728277 -38.700958 1.622114 1.000000
-2.546495 -38.130367 0.836112 0.224632
-2.546502 -38.130386 0.057410 0.425123
-4.459887 -44.136250 -0.000349 0.237985
-5.644450 -47.854443 -0.000437 0.226451
-6.401369 -50.230312 -0.000121 0.211361
-6.927077 -51.880444 -0.000071 0.223664
-7.314040 -53.095070 -0.000313 0.212034
-2.381567 -38.158104 7.940474 0.390564
-2.381567 -38.158104 7.122101 0.381985
-2.381567 -38.158104 6.315217 0.413358
-2.381567 -38.158108 5.517892 0.519730
-2.381565 -38.158100 4.728271 0.495711
-2.381564 -38.158100 3.944576 0.437010
-2.381564 -38.158096 3.165078 0.521936
-2.381572 -38.158119 2.388081 0.419975
-2.381558 -38.158077 1.611918 0.522917
-2.567523 -38.728012 0.864373 1.000000
-2.381564 -38.158100 0.055423 0.403309
-4.344796 -44.174870 -0.000183 0.249135
-5.555157 -47.884296 -0.000287 0.204344
-6.328584 -50.254642 0.000028 0.206363
-6.865761 -51.900944 0.000079 0.225971
-7.261156 -53.112720 -0.000170 0.283256
-2.216285 -38.185879 7.946847 0.404289
-2.216285 -38.185879 7.127595 0.399265
-2.216284 -38.185879 6.319848 0.360417
-2.216285 -38.185879 5.521665 0.419485
-2.216284 -38.185879 4.731199 0.564338
-2.216284 -38.185879 3.946663 0.493382
-2.216284 -38.185871 3.166328 0.541544
-2.216292 -38.185898 2.388498 0.368015
-3.269658 -41.339352 1.665908 1.000000
-2.406399 -38.755016 0.863151 1.000000
-2.216284 -38.185875 0.053336 0.468873
-4.228730 -44.210518 -0.000475 0.222895
-5.465158 -47.912006 -0.000569 0.238274
-6.255235 -50.277252 -0.000249 0.198962
-6.803976 -51.920017 -0.000193 0.222511
-7.207876 -53.129169 -0.000442 0.257497
-2.050640 -38.213715 7.953525 0.419485
