# This PCD file was generated using the MATLABÂ® pcwrite function
# from Computer Vision ToolboxÂ®.
# .PCD v.7 - Point Cloud Data file format
VERSION .7
FIELDS x y z intensity
SIZE 4 4 4 4
TYPE F F F F
COUNT 1 1 1 1
WIDTH 1165
HEIGHT 1
VIEWPOINT 0 0 0 1 0 0 0
POINTS 1165
DATA ascii
433.449799 -365.752411 6.464338 0.538971
433.449982 -365.750671 5.760755 0.566544
433.450165 -365.748932 5.065616 0.546691
433.450317 -365.747223 4.377314 0.527451
433.450500 -365.745483 3.694289 0.553676
433.450684 -365.743805 3.015036 0.558946
433.450867 -365.742126 2.338076 0.542892
433.451050 -365.740417 1.661952 0.506863
433.451233 -365.738708 0.985215 0.481005
433.451416 -365.737000 0.306410 1.000000
433.793793 -362.484650 0.000089 0.248174
434.202362 -358.604004 0.000091 0.230969
434.463165 -356.126526 0.000099 0.211842
434.644440 -354.404480 0.000129 0.239812
434.778015 -353.136047 0.000075 0.273741
433.300934 -365.784973 7.189763 0.566054
433.301117 -365.783173 6.474415 0.613725
433.301331 -365.781433 5.769243 0.572549
433.301514 -365.779663 5.072533 0.596201
433.301697 -365.777924 4.382678 0.567892
433.301910 -365.776215 3.698112 0.508824
433.302094 -365.774506 3.017326 0.483578
433.302277 -365.772858 2.338840 0.592034
433.302460 -365.771149 1.661189 0.636520
433.302673 -365.769409 0.982926 0.558824
433.302856 -365.767700 0.302590 1.000000
433.673096 -362.471924 0.000039 0.227797
434.108734 -358.594177 0.000039 0.218089
434.386871 -356.118500 0.000048 0.208862
434.580170 -354.397644 0.000089 0.244137
434.722565 -353.130249 0.000024 0.280277
433.151550 -365.815887 7.201759 0.562500
433.151764 -365.814056 6.484757 0.576716
433.151978 -365.812317 5.777954 0.606618
433.152191 -365.810516 5.079632 0.617525
433.152405 -365.808807 4.388184 0.606495
433.152618 -365.807068 3.702035 0.521691
433.152832 -365.805359 3.019676 0.575368
433.153015 -365.803680 2.339622 0.555025
433.153229 -365.801941 1.660407 0.630882
433.153442 -365.800232 0.980576 0.587255
433.153625 -365.798523 0.298670 1.000000
433.552551 -362.457825 0.000054 0.227124
434.015259 -358.583221 0.000055 0.238562
434.310638 -356.109589 0.000063 0.226451
434.515961 -354.390137 0.000104 0.299692
434.667206 -353.123779 0.000036 0.282391
433.001465 -365.846924 7.214067 0.524877
433.001709 -365.845093 6.495366 0.573407
433.001923 -365.843323 5.786888 0.564583
433.002167 -365.841553 5.086915 0.563113
433.002380 -365.839813 4.393831 0.619118
433.002594 -365.838074 3.706059 0.576838
433.002808 -365.836365 3.022088 0.594363
433.003021 -365.834656 2.340424 0.567157
433.003235 -365.832947 1.659604 0.559681
433.003448 -365.831238 0.978166 0.568382
433.003693 -365.829498 0.294649 1.000000
433.432098 -362.442871 0.000073 0.208862
433.921844 -358.571625 0.000071 0.238370
434.234497 -356.100098 0.000084 0.252980
434.451843 -354.382141 0.000124 0.211938
434.611877 -353.116882 0.000056 0.294983
432.850708 -365.878143 7.226685 0.622672
432.850952 -365.876312 6.506244 0.544118
432.851196 -365.874542 5.796052 0.611642
432.851440 -365.872742 5.094383 0.619485
432.851654 -365.871002 4.399622 0.586029
432.851898 -365.869263 3.710187 0.566422
432.852112 -365.867554 3.024560 0.569118
432.852356 -365.865814 2.341248 0.598039
432.852570 -365.864136 1.658780 0.665809
432.852814 -365.862396 0.975695 0.627819
432.853027 -365.860657 0.290524 1.000000
433.311768 -362.427063 0.000088 0.222895
433.828522 -358.559357 0.000090 0.234333
434.158417 -356.090149 0.000092 0.248462
434.387726 -354.373718 0.000143 0.228085
434.556610 -353.109650 0.000071 0.244425
432.699188 -365.909485 7.239622 0.521078
432.699463 -365.907654 6.517397 0.534436
432.699707 -365.905853 5.805446 0.575000
432.699951 -365.904053 5.102040 0.637132
432.700195 -365.902313 4.405559 0.570833
432.700439 -365.900574 3.714419 0.526961
432.700684 -365.898865 3.027095 0.458088
432.700928 -365.897125 2.342092 0.560417
432.701172 -365.895386 1.657937 0.548039
432.701416 -365.893677 0.973162 0.560172
432.701660 -365.891937 0.286296 1.000000
433.191559 -362.410431 0.000104 0.229623
433.735291 -358.546417 0.000109 0.226740
434.082428 -356.079437 0.000144 0.204152
434.323700 -354.364899 0.000158 0.231161
434.501404 -353.102020 0.000083 0.203576
432.546936 -365.940979 7.252879 0.554289
432.547211 -365.939148 6.528828 0.584191
432.547455 -365.937347 5.815073 0.595466
432.547729 -365.935516 5.109886 0.549387
432.547974 -365.933777 4.411642 0.504534
432.548248 -365.932037 3.718755 0.553064
432.586975 -365.670013 3.016765 1.000000
432.572205 -365.770020 2.340334 0.491176
432.572449 -365.768280 1.659694 0.613725
432.572723 -365.766571 0.978439 0.558333
432.572968 -365.764832 0.295103 0.504657
433.071381 -362.393524 0.000057 0.221165
433.642059 -358.533325 0.000061 0.234045
434.006439 -356.068726 0.000099 0.222607
434.259705 -354.355835 0.000113 0.206844
434.446198 -353.094208 0.000044 0.248462
432.393860 -365.972656 7.266459 0.578799
432.394165 -365.970795 6.540537 0.658824
432.394440 -365.968994 5.824938 0.606618
432.394714 -365.967163 5.117925 0.584314
432.394989 -365.965393 4.417876 0.554289
432.395264 -365.963654 3.723197 0.515686
432.471497 -365.471558 3.007976 1.000000
432.420410 -365.801331 2.341213 0.597181
432.420685 -365.799622 1.658816 0.610539
432.420959 -365.797882 0.975801 0.514093
432.421234 -365.796143 0.290701 0.515319
432.951416 -362.375214 0.000071 0.207805
433.549011 -358.519135 0.000072 0.223952
433.930603 -356.057159 0.000115 0.202903
434.195740 -354.346466 0.000047 0.178105
434.391144 -353.085663 0.000094 0.256728
432.239990 -366.004486 7.280372 0.503309
432.240295 -366.002625 6.552529 0.560662
432.240570 -366.000824 5.835039 0.579167
432.240875 -365.998962 5.126159 0.702206
432.241150 -365.997192 4.424261 0.488725
432.241455 -365.995453 3.727748 0.551103
432.329315 -365.453766 3.008206 1.000000
432.242004 -365.991943 2.344751 0.325858
432.242340 -365.990204 1.655278 0.253431
432.242615 -365.988464 0.965181 0.246446
432.242889 -365.986725 0.272978 0.128676
432.831573 -362.356049 0.000090 0.244137
433.456055 -358.504303 0.000090 0.197616
433.854828 -356.045044 0.000131 0.224721
434.131897 -354.336304 0.000064 0.202134
434.336090 -353.076904 0.000110 0.187716
432.085297 -366.036469 7.294617 0.321936
432.085632 -366.034607 6.564808 0.582843
432.085938 -366.032806 5.845383 0.554412
432.086243 -366.030945 5.134590 0.711642
432.086548 -366.029175 4.430799 0.299387
432.086853 -366.027435 3.732406 0.609804
432.187164 -365.434967 3.008436 1.000000
432.087433 -366.023895 2.345680 0.313480
432.087738 -366.022156 1.654349 0.275000
432.088013 -366.020416 0.962392 0.244363
432.088318 -366.018646 0.268323 0.209314
432.711853 -362.336060 0.000108 0.218570
433.363312 -358.488495 0.000151 0.255959
433.779144 -356.032379 0.000155 0.225971
434.068115 -354.325623 0.000081 0.251057
434.281097 -353.067719 0.000128 0.266340
431.929779 -366.068665 7.309201 0.191667
431.930115 -366.066803 6.577382 0.562623
431.930450 -366.064972 5.855971 0.626961
431.930756 -366.063110 5.143221 0.660294
431.931091 -366.061340 4.437490 0.212500
431.931396 -366.059570 3.737175 0.596936
432.045135 -365.415161 3.008667 1.000000
431.932007 -366.056030 2.346631 0.287132
431.932312 -366.054260 1.653397 0.384681
431.932648 -366.052521 0.959537 0.292157
431.932953 -366.050751 0.263557 0.268750
432.592224 -362.315521 0.000092 0.224145
433.270538 -358.472565 0.000136 0.247693
433.703522 -356.019348 0.000143 0.218378
434.004395 -354.314697 0.000064 0.236448
434.226166 -353.058258 0.000110 0.204441
431.773407 -366.101074 7.324125 0.463725
431.773743 -366.099182 6.590248 0.538971
431.774078 -366.097351 5.866807 0.513113
431.774414 -366.095490 5.152052 0.656985
431.774750 -366.093689 4.444340 0.469485
431.775085 -366.091919 3.742055 0.566422
431.903229 -365.394348 3.008897 1.000000
431.775726 -366.088379 2.347605 0.322426
431.776062 -366.086609 1.652424 0.341176
431.776367 -366.084839 0.956615 0.313603
431.776703 -366.083069 0.258682 0.267402
432.472809 -362.293854 0.000110 0.213572
433.177917 -358.455750 0.000155 0.219435
433.628021 -356.005707 0.000156 0.217705
433.940796 -354.303223 0.000070 0.213860
434.171326 -353.048340 0.000126 0.240100
431.616119 -366.133606 7.339393 0.515564
431.616486 -366.131744 6.603412 0.533456
431.616821 -366.129883 5.877893 0.567402
431.617188 -366.127991 5.161088 0.540686
431.617523 -366.126190 4.451345 0.499142
431.617889 -366.124420 3.747049 0.532353
431.761414 -365.372559 3.009128 1.000000
431.618561 -366.120850 2.348601 0.264706
431.618896 -366.119080 1.651428 0.628431
431.619232 -366.117310 0.953625 0.284314
431.619568 -366.115540 0.253692 0.243260
432.353424 -362.271942 0.000060 0.248943
433.085358 -358.438782 0.000103 0.235198
433.552582 -355.991821 0.000106 0.226451
433.877197 -354.291504 0.000027 0.272972
434.116486 -353.038300 0.000075 0.204921
431.457916 -366.166351 7.355009 0.574265
431.458313 -366.164459 6.616878 0.562010
431.458679 -366.162598 5.889233 0.631495
431.459045 -366.160706 5.170334 0.649265
431.459412 -366.158905 4.458514 0.519608
431.459747 -366.157104 3.752157 0.612377
431.587189 -365.514038 3.017585 1.000000
431.491058 -365.998993 2.347042 0.616176
431.487122 -366.018982 1.652624 0.623652
431.483124 -366.039063 0.956121 0.612132
431.479126 -366.059296 0.256020 0.606250
432.234314 -362.248657 0.000073 0.214821
432.992981 -358.420685 0.000117 0.268743
433.477173 -355.977570 0.000033 0.258074
433.813751 -354.279114 0.000041 0.199250
434.061768 -353.027649 0.000066 0.206844
431.298767 -366.199280 7.370980 0.649632
431.299164 -366.197388 6.630646 0.605392
431.299561 -366.195496 5.900829 0.557721
431.299927 -366.193665 5.179793 0.578799
431.300323 -366.191803 4.465844 0.633088
431.300690 -366.190002 3.757381 0.624142
431.433014 -365.545929 3.020619 1.000000
431.334412 -366.025848 2.347980 0.561765
431.334778 -366.024078 1.652049 0.617892
431.335144 -366.022308 0.955490 0.660417
431.335510 -366.020508 0.256806 0.509804
432.115356 -362.224701 0.000063 0.233564
432.900726 -358.401978 0.000136 0.206267
433.401978 -355.962311 0.000053 0.196463
433.750458 -354.266052 0.000098 0.210111
434.007141 -353.016541 0.000088 0.201749
431.138702 -366.232391 7.387310 0.556127
431.139099 -366.230499 6.644724 0.618260
431.139496 -366.228607 5.912688 0.551225
431.139893 -366.226746 5.189458 0.633946
431.140289 -366.224915 4.473340 0.639706
431.140686 -366.223083 3.762721 0.614461
431.277924 -365.578003 3.023719 1.000000
431.141449 -366.219482 2.351728 0.566912
431.141815 -366.217682 1.648302 0.641667
431.142212 -366.215881 0.944242 0.564583
431.142578 -366.214050 0.238036 1.000000
431.996582 -362.199768 0.000078 0.225875
432.808624 -358.382568 0.000153 0.211457
433.326874 -355.946472 0.000073 0.220300
433.687195 -354.252747 0.000113 0.238370
433.952606 -353.005066 0.000107 0.181276
430.977631 -366.265717 7.404003 0.519975
430.978027 -366.263824 6.659115 0.507843
430.978455 -366.261902 5.924809 0.542279
430.978882 -366.260071 5.199339 0.510172
430.979279 -366.258209 4.481002 0.567770
430.979675 -366.256378 3.768181 0.593260
430.980072 -366.254547 3.059300 0.556005
430.980469 -366.252747 2.352817 0.576471
430.980865 -366.250946 1.647213 0.635294
430.981262 -366.249115 0.940973 0.556618
430.981659 -366.247284 0.232580 1.000000
431.877869 -362.174530 0.000025 0.228085
432.716553 -358.363037 0.000101 0.235582
433.251831 -355.930542 0.000022 0.245290
433.623962 -354.239288 0.000068 0.199154
433.898102 -352.993439 0.000060 0.212130
430.815552 -366.299255 7.421065 0.562990
430.815979 -366.297363 6.673826 0.529779
430.816406 -366.295441 5.937200 0.545711
430.816833 -366.293579 5.209437 0.565809
430.817261 -366.291718 4.488834 0.523775
430.817688 -366.289886 3.773762 0.509191
430.818085 -366.288055 3.062643 0.543260
430.818512 -366.286194 2.353931 0.506985
430.818909 -366.284393 1.646100 0.601348
430.819336 -366.282593 0.937631 0.515809
430.819763 -366.280762 0.227005 1.000000
431.759521 -362.147552 0.000080 0.207901
432.624786 -358.342102 0.000157 0.236159
433.177002 -355.913483 0.000077 0.219146
433.560913 -354.224915 0.000127 0.205498
433.843781 -352.980927 0.000151 0.253845
430.652435 -366.333038 7.438504 0.737623
430.652863 -366.331116 6.688859 0.617892
430.653320 -366.329163 5.949862 0.593873
430.653778 -366.327301 5.219758 0.526348
430.654205 -366.325439 4.496837 0.731127
430.654633 -366.323608 3.779466 0.536152
430.655060 -366.321747 3.066060 0.541667
430.655518 -366.319916 2.355068 0.583701
430.655945 -366.318085 1.644962 0.680392
430.656372 -366.316254 0.934217 0.554657
430.656799 -366.314392 0.221308 1.000000
431.641174 -362.120697 0.000028 0.236640
432.532867 -358.321808 0.000021 0.233948
433.102173 -355.896484 0.000022 0.249423
433.497864 -354.210602 0.000072 0.202134
433.789398 -352.968597 0.000098 0.302768
430.488220 -366.367004 7.456323 0.453064
430.488678 -366.365082 6.704217 0.617157
430.489166 -366.363159 5.962804 0.591544
430.489624 -366.361237 5.230304 0.601471
430.490082 -366.359375 4.505014 0.479534
430.490509 -366.357544 3.785294 0.601471
430.490967 -366.355682 3.069550 0.577819
430.491425 -366.353821 2.356231 0.583211
430.491852 -366.351990 1.643800 0.522304
430.492310 -366.350159 0.930728 0.506985
430.492737 -366.348297 0.215486 1.000000
431.523163 -362.092316 0.000054 0.234141
432.441376 -358.299805 0.000046 0.227509
433.027588 -355.878418 0.000076 0.236255
433.434998 -354.195648 0.000061 0.248654
433.735229 -352.955597 0.000117 0.253652
430.322937 -366.401215 7.474529 0.246078
430.323456 -366.399261 6.719908 0.663971
430.323914 -366.397339 5.976023 0.537500
430.324402 -366.395416 5.241077 0.603064
430.324860 -366.393555 4.513368 0.234559
430.325317 -366.391693 3.791246 0.621078
430.325806 -366.389801 3.073116 0.601716
430.326263 -366.387970 2.357419 0.595588
430.326721 -366.386108 1.642613 0.230270
430.327179 -366.384277 0.927164 0.269730
430.327637 -366.382385 0.209538 1.000000
431.405334 -362.063232 0.000067 0.214533
432.349976 -358.277283 0.000057 0.249423
432.953094 -355.860016 0.000092 0.204344
433.372253 -354.180145 0.000073 0.257401
433.681122 -352.942230 0.000131 0.201557
430.156586 -366.435669 7.493123 0.522426
430.157074 -366.433685 6.735937 0.638113
430.157593 -366.431763 5.989522 0.617157
430.158081 -366.429840 5.252081 0.617647
430.158569 -366.427948 4.521900 0.329534
430.159027 -366.426056 3.797327 0.615686
430.159515 -366.424194 3.076758 0.584069
430.160004 -366.422333 2.358632 0.563235
430.160492 -366.420471 1.641400 0.246569
430.160950 -366.418610 0.923524 0.352941
430.161438 -366.416748 0.203463 1.000000
431.287659 -362.033569 0.000054 0.227701
432.258698 -358.254272 0.000039 0.218185
432.878693 -355.841248 0.000080 0.260381
433.309570 -354.164307 0.000072 0.243368
433.627014 -352.928894 0.000044 0.219819
429.989044 -366.470367 7.512112 0.543015
429.989594 -366.468384 6.752308 0.556618
429.990082 -366.466431 6.003311 0.642647
429.990601 -366.464508 5.263320 0.607966
429.991119 -366.462616 4.530615 0.587990
429.991608 -366.460724 3.803537 0.573529
429.992096 -366.458832 3.080479 0.514216
429.992584 -366.456970 2.359871 0.562623
429.993103 -366.455078 1.640161 0.655515
429.993591 -366.453247 0.919806 0.688971
429.994080 -366.451355 0.197258 1.000000
431.170258 -362.002808 0.000070 0.235294
432.167633 -358.230438 0.000056 0.244233
432.804474 -355.821747 0.000107 0.217320
433.247040 -354.147949 0.000082 0.212226
433.573059 -352.914795 0.000057 0.237697
429.820374 -366.505280 7.531505 0.602206
429.820892 -366.503296 6.769024 0.543382
429.821442 -366.501343 6.017393 0.557966
429.821960 -366.499390 5.274798 0.519485
429.822479 -366.497498 4.539515 0.559191
429.822998 -366.495605 3.809879 0.538603
429.823517 -366.493683 3.084278 0.598284
429.824005 -366.491821 2.361136 0.535907
429.824524 -366.489929 1.638896 0.607966
429.825043 -366.488068 0.916009 0.564706
429.825562 -366.486145 0.190922 1.000000
431.053131 -361.970917 0.000126 0.224145
432.076752 -358.205933 0.000075 0.214148
432.730408 -355.801758 0.000130 0.213187
433.184662 -354.130951 0.000136 0.227893
433.519257 -352.900269 0.000072 0.276528
429.650452 -366.540436 7.551304 0.556373
429.651001 -366.538452 6.786095 0.628309
429.651550 -366.536469 6.031770 0.636397
429.652100 -366.534515 5.286516 0.651593
429.652618 -366.532623 4.548603 0.634314
429.653168 -366.530701 3.816354 0.571814
429.653687 -366.528778 3.088157 0.550858
429.654205 -366.526917 2.362428 0.613971
429.654785 -366.524994 1.637604 0.655025
429.655304 -366.523132 0.912132 0.556985
429.655853 -366.521210 0.184453 1.000000
430.936005 -361.939117 0.000073 0.210111
431.985992 -358.181000 0.000065 0.246540
432.656311 -355.781799 0.000043 0.206844
433.122253 -354.114014 0.000087 0.250769
433.465454 -352.885651 0.000030 0.218858
429.479340 -366.575867 7.571518 0.665196
429.479889 -366.573853 6.803523 0.572917
429.480469 -366.571869 6.046450 0.527206
429.481018 -366.569916 5.298481 0.598162
429.481598 -366.567993 4.557880 0.575613
429.482147 -366.566071 3.822966 0.606005
429.482697 -366.564148 3.092117 0.592034
429.483215 -366.562256 2.363747 0.581005
429.483765 -366.560333 1.636286 0.600123
429.484314 -366.558472 0.908174 0.608578
429.484863 -366.556519 0.177847 1.000000
430.819366 -361.905609 0.000126 0.234141
431.895508 -358.154999 0.000119 0.215302
432.582550 -355.760620 0.000097 0.198289
433.060150 -354.096161 0.000145 0.272587
433.411926 -352.870117 0.000118 0.188485
429.306946 -366.611542 7.592153 0.602328
429.307526 -366.609528 6.821314 0.586152
429.308136 -366.607513 6.061434 0.616054
429.308716 -366.605560 5.310695 0.596691
429.309265 -366.603638 4.567350 0.576716
429.309845 -366.601715 3.829715 0.618995
429.310425 -366.599762 3.096160 0.613971
429.310974 -366.597870 2.365093 0.557353
429.311523 -366.595947 1.634939 0.602206
429.312103 -366.594055 0.904133 0.582966
429.312683 -366.592102 0.171105 1.000000
430.702728 -361.872131 0.000080 0.224721
431.805084 -358.129059 0.000068 0.250481
432.508789 -355.739502 0.000044 0.241830
432.997986 -354.078339 0.000089 0.213764
433.358337 -352.854736 0.000066 0.246348
429.133301 -366.647461 7.613215 0.565931
429.133881 -366.645477 6.839473 0.579044
429.134491 -366.643463 6.076730 0.528554
429.135101 -366.641479 5.323162 0.596201
429.135681 -366.639526 4.577018 0.560907
429.136261 -366.637604 3.836605 0.536397
429.136871 -366.635651 3.100287 0.567279
429.137421 -366.633728 2.366468 0.576716
429.138000 -366.631836 1.633565 0.591299
429.138580 -366.629883 0.900008 0.599510
429.139191 -366.627930 0.164222 1.000000
430.586456 -361.837280 0.000097 0.222991
431.714905 -358.102020 0.000087 0.211457
432.435272 -355.717468 0.000060 0.220204
432.935974 -354.060120 0.000030 0.205594
433.304962 -352.838715 0.000092 0.188966
428.958282 -366.683685 7.634713 0.697672
428.958923 -366.681671 6.858007 0.659069
428.959534 -366.679657 6.092342 0.537745
428.960144 -366.677673 5.335888 0.568750
428.960754 -366.675720 4.586885 0.737745
428.961365 -366.673767 3.843637 0.583211
428.961975 -366.671814 3.104499 0.574142
428.962555 -366.669891 2.367870 0.543750
428.963165 -366.667969 1.632162 0.725123
428.963776 -366.666016 0.895798 0.602696
428.964386 -366.664063 0.157197 1.000000
430.470367 -361.801880 0.000084 0.213572
431.624847 -358.074615 0.000070 0.215590
432.361877 -355.695099 0.000046 0.232795
432.874115 -354.041321 0.000006 0.200115
433.251587 -352.822632 0.000041 0.251538
428.781921 -366.720184 7.656653 0.334804
428.782562 -366.718170 6.876922 0.396078
428.783203 -366.716125 6.108275 0.610662
428.783844 -366.714142 5.348874 0.495711
428.784485 -366.712158 4.596953 0.437377
428.785095 -366.710205 3.850811 0.596078
428.785706 -366.708252 3.108798 0.554902
428.786316 -366.706299 2.369302 0.629534
428.786926 -366.704376 1.630731 0.493015
428.787598 -366.702423 0.891502 0.610294
428.788208 -366.700439 0.150028 1.000000
430.354614 -361.765411 0.000103 0.246059
431.535095 -358.046295 0.000093 0.231065
432.288757 -355.671814 0.000106 0.274414
432.812500 -354.021851 0.000035 0.242311
433.198425 -352.805847 0.000057 0.173395
428.604187 -366.756989 7.679050 0.231373
428.604858 -366.754944 6.896223 0.282230
428.605530 -366.752899 6.124534 0.620833
428.606171 -366.750885 5.362125 0.651226
428.606812 -366.748901 4.607228 0.191422
428.607452 -366.746948 3.858134 0.624755
428.608093 -366.744965 3.113184 0.596078
428.608734 -366.743011 2.370762 0.578676
428.609344 -366.741058 1.629271 0.224142
428.609985 -366.739105 0.887118 0.668260
428.610626 -366.737152 0.142710 1.000000
430.238983 -361.728546 0.000072 0.205017
431.445374 -358.017822 0.000045 0.196751
432.215668 -355.648438 0.000088 0.211745
432.750916 -354.002136 0.000021 0.237889
433.145355 -352.788849 0.000050 0.194060
428.425018 -366.794098 7.701903 0.652206
428.425720 -366.792023 6.915921 0.484559
428.426392 -366.789948 6.141123 0.553922
428.427063 -366.787933 5.375648 0.624020
428.427734 -366.785950 4.617714 0.477574
428.428406 -366.783966 3.865605 0.653431
428.429047 -366.781982 3.117661 0.608456
428.429688 -366.780029 2.372254 0.612500
428.430359 -366.778076 1.627780 0.505392
428.431000 -366.776093 0.882644 0.704902
428.431671 -366.774109 0.135245 1.000000
430.123749 -361.690460 0.000090 0.228566
431.355988 -357.988281 0.000063 0.238370
432.142853 -355.624329 0.000119 0.247405
432.689575 -353.981689 0.000079 0.258554
433.092499 -352.771210 0.000113 0.203095
428.244415 -366.831482 7.725216 0.599877
428.245117 -366.829376 6.936018 0.547672
428.245819 -366.827332 6.158051 0.562745
428.246521 -366.825287 5.389445 0.536152
428.247192 -366.823273 4.628413 0.608211
428.247894 -366.821289 3.873230 0.519608
428.248566 -366.819305 3.122227 0.535784
428.249237 -366.817352 2.373775 0.576716
428.249908 -366.815369 1.626260 0.604534
428.250580 -366.813385 0.878079 0.570343
428.251251 -366.811401 0.127627 1.000000
430.008698 -361.651886 0.000075 0.231161
431.266754 -357.958313 0.000053 0.251057
432.070099 -355.599884 0.000106 0.228662
432.628296 -353.961090 0.000069 0.255671
433.039673 -352.753448 0.000104 0.263552
428.062317 -366.869171 7.749000 0.565319
428.063049 -366.867065 6.956522 0.585294
428.063782 -366.864990 6.175322 0.510049
428.064484 -366.862946 5.403525 0.506985
428.065186 -366.860931 4.639330 0.532230
428.065887 -366.858948 3.881010 0.573162
428.066559 -366.856934 3.126887 0.575123
428.067261 -366.854950 2.375327 0.546078
428.067963 -366.852966 1.624708 0.633824
428.068634 -366.850983 0.873422 0.565564
428.069336 -366.848969 0.119856 1.000000
429.894012 -361.612122 0.000099 0.215879
431.177826 -357.927521 0.000070 0.205498
431.997498 -355.575012 0.000083 0.220396
432.567200 -353.939941 0.000092 0.194733
432.986969 -352.735260 0.000108 0.261918
427.878662 -366.907196 7.773265 0.602206
427.879395 -366.905060 6.977441 0.608701
427.880157 -366.902985 6.192944 0.563725
427.880890 -366.900940 5.417889 0.597672
427.881592 -366.898895 4.650467 0.528676
427.882324 -366.896881 3.888945 0.501103
427.883026 -366.894867 3.131642 0.582108
427.883759 -366.892883 2.376910 0.628799
427.884460 -366.890869 1.623125 0.619853
427.885162 -366.888885 0.868671 0.552206
427.885895 -366.886871 0.111926 1.000000
429.779449 -361.571960 0.000077 0.227701
431.089111 -357.896088 0.000097 0.210688
431.925110 -355.549591 0.000068 0.206459
432.506165 -353.918732 0.000036 0.284218
432.934326 -352.716888 0.000066 0.218378
427.693451 -366.945526 7.798024 0.521691
427.694244 -366.943390 6.998782 0.629534
427.694977 -366.941315 6.210922 0.639828
427.695740 -366.939240 5.432542 0.607721
427.696503 -366.937195 4.661828 0.647426
427.697235 -366.935150 3.897042 0.598652
427.697968 -366.933136 3.136491 0.582966
427.698700 -366.931122 2.378525 0.570956
427.699432 -366.929138 1.621510 0.610784
427.700165 -366.927124 0.863823 0.543873
427.700897 -366.925079 0.103837 1.000000
429.665344 -361.530670 0.000098 0.241446
431.000610 -357.864044 0.000119 0.222703
431.852966 -355.523438 0.000100 0.239715
432.445374 -353.896698 0.000059 0.215590
432.881927 -352.697937 0.000090 0.228662
427.506653 -366.984192 7.823275 0.625123
427.507446 -366.982056 7.020555 0.561397
427.508240 -366.979950 6.229262 0.583333
427.509003 -366.977875 5.447488 0.603922
427.509766 -366.975800 4.673419 0.604779
427.510529 -366.973785 3.905301 0.544853
427.511292 -366.971741 3.141439 0.566054
427.512054 -366.969727 2.380173 0.569853
427.512787 -366.967712 1.619863 0.607353
427.513550 -366.965668 0.858878 0.565686
427.514282 -366.963654 0.095584 1.000000
429.551331 -361.489136 0.000052 0.228854
430.912231 -357.831665 0.000098 0.204056
431.780884 -355.497131 0.000061 0.263649
432.384674 -353.874420 0.000047 0.223472
432.829590 -352.678711 0.000072 0.289985
427.318207 -367.023193 7.849039 0.581985
427.319031 -367.021057 7.042765 0.570711
427.319824 -367.018951 6.247968 0.524020
427.320618 -367.016846 5.462736 0.578431
427.321411 -367.014771 4.685242 0.562255
427.322205 -367.012726 3.913726 0.516176
427.322968 -367.010681 3.146487 0.518505
427.323730 -367.008636 2.381854 0.574387
427.324524 -367.006622 1.618182 0.566789
427.325287 -367.004578 0.853834 0.557721
427.326050 -367.002533 0.087166 1.000000
429.437775 -361.446289 0.000066 0.208285
430.824158 -357.798401 0.000120 0.208478
431.709106 -355.470001 0.000081 0.235486
432.324280 -353.851410 0.000109 0.251634
432.777435 -352.659058 0.000087 0.232315
427.128052 -367.062531 7.875317 0.519485
427.128906 -367.060364 7.065420 0.514461
427.129730 -367.058258 6.267051 0.544976
427.130554 -367.056152 5.478289 0.546814
427.131378 -367.054108 4.697301 0.545098
427.132172 -367.052032 3.922321 0.565196
427.132965 -367.049957 3.151634 0.532598
427.133759 -367.047913 2.383568 0.488603
427.134552 -367.045868 1.616468 0.634681
427.135345 -367.043823 0.848688 0.503309
427.136139 -367.041779 0.078580 1.000000
429.324402 -361.402924 0.000050 0.244906
430.736298 -357.764740 0.000107 0.223952
431.637451 -355.442566 0.000066 0.260477
432.263916 -353.828278 0.000091 0.227893
432.725342 -352.639160 0.000062 0.256824
426.936218 -367.102173 7.902098 0.618505
426.937103 -367.099976 7.088508 0.579044
426.937927 -367.097839 6.286497 0.631985
426.938782 -367.095734 5.494140 0.538358
426.939606 -367.093628 4.709591 0.565931
426.940430 -367.091553 3.931079 0.506740
426.941223 -367.089569 3.156886 0.579167
426.942017 -367.087524 2.385317 0.638971
426.942841 -367.085449 1.614719 0.629289
426.943665 -367.083405 0.843440 0.591544
426.944489 -367.081329 0.069821 1.000000
429.211487 -361.358398 0.000073 0.228758
430.648621 -357.730469 0.000089 0.228181
431.566071 -355.414429 0.000088 0.228950
432.203766 -353.804596 0.000113 0.183391
432.673462 -352.618835 0.000061 0.256440
426.742615 -367.142242 7.929435 0.544976
426.743500 -367.140045 7.112071 0.590564
426.744385 -367.137878 6.306346 0.593382
426.745239 -367.135742 5.510318 0.581863
426.746094 -367.133636 4.722136 0.635049
426.746948 -367.131531 3.940018 0.556127
426.747772 -367.129486 3.162236 0.622794
426.748596 -367.127411 2.387099 0.614338
426.749451 -367.125366 1.612937 0.641544
426.750275 -367.123291 0.838091 0.622304
426.751099 -367.121216 0.060894 1.000000
429.098755 -361.313477 0.000057 0.232507
430.561188 -357.695618 0.000071 0.244810
431.494720 -355.386169 0.000043 0.232315
432.143677 -353.780792 0.000068 0.210784
432.621704 -352.598175 0.000043 0.200788
426.547180 -367.182678 7.957323 0.632353
426.548096 -367.180481 7.136109 0.681250
426.548981 -367.178284 6.326591 0.571936
426.549866 -367.176147 5.526820 0.597549
426.550751 -367.174011 4.734932 0.553922
426.551636 -367.171906 3.949136 0.584436
426.552490 -367.169830 3.167699 0.610784
426.553345 -367.167755 2.388918 0.555025
426.554199 -367.165680 1.611119 0.607721
426.555054 -367.163605 0.832632 0.647917
426.555908 -367.161530 0.051785 1.000000
428.986511 -361.267334 0.000089 0.232315
430.474030 -357.660065 0.000065 0.244041
431.423645 -355.357208 0.000035 0.228181
432.083801 -353.756378 0.000056 0.203095
432.570160 -352.576996 0.000075 0.238850
426.349915 -367.223511 7.985763 0.521814
426.350830 -367.221313 7.160630 0.610539
426.351776 -367.219086 6.347242 0.565196
426.352661 -367.216919 5.543650 0.569363
426.353577 -367.214783 4.747982 0.452206
426.354462 -367.212677 3.958436 0.517279
426.355347 -367.210571 3.173270 0.609681
426.356232 -367.208466 2.390773 0.599632
426.357117 -367.206390 1.609264 0.579534
426.357971 -367.204315 0.827064 0.483578
426.358856 -367.202209 0.042494 1.000000
428.874512 -361.220520 0.000106 0.238754
430.387115 -357.623901 0.000064 0.210208
431.352844 -355.327606 0.000054 0.222607
432.024109 -353.731506 0.000064 0.252691
432.518707 -352.555511 0.000089 0.198770
426.150696 -367.264740 8.014770 0.547304
426.151642 -367.262543 7.185642 0.548652
426.152588 -367.260315 6.368310 0.554167
426.153534 -367.258118 5.560819 0.518505
426.154449 -367.255951 4.761293 0.570833
426.155365 -367.253815 3.967922 0.553922
426.156281 -367.251709 3.178952 0.590441
426.157166 -367.249603 2.392666 0.508333
426.158081 -367.247498 1.607372 0.573897
426.158966 -367.245392 0.821386 0.506740
426.159882 -367.243286 0.033017 1.000000
428.762756 -361.173187 0.000094 0.239427
430.300476 -357.587189 0.000050 0.238370
431.282257 -355.297516 0.000076 0.195117
431.964569 -353.706329 0.000048 0.208862
432.467407 -352.533722 0.000087 0.215013
425.949554 -367.306366 8.044356 0.583211
425.950500 -367.304169 7.211150 0.548652
425.951477 -367.301941 6.389796 0.554044
425.952454 -367.299713 5.578333 0.558946
425.953400 -367.297516 4.774871 0.538725
425.954346 -367.295380 3.977598 0.574632
425.955292 -367.293243 3.184748 0.588235
425.956207 -367.291138 2.394596 0.615319
425.957123 -367.289001 1.605442 0.585662
425.958069 -367.286896 0.815593 0.596446
425.958984 -367.284760 0.023351 1.000000
428.651337 -361.125092 0.000079 0.239619
430.214050 -357.549866 0.000042 0.232315
431.211853 -355.267029 0.000070 0.225682
431.905243 -353.680634 0.000039 0.211553
432.416260 -352.511536 0.000100 0.205498
425.746399 -367.348419 8.074532 0.693750
425.747406 -367.346191 7.237164 0.710172
425.748383 -367.343964 6.411712 0.621691
425.749390 -367.341736 5.596196 0.580147
425.750366 -367.339539 4.788722 0.749020
425.751343 -367.337341 3.987465 0.617034
425.752289 -367.335205 3.190659 0.603799
425.753235 -367.333069 2.396564 0.547181
425.754181 -367.330933 1.603474 0.642647
425.755157 -367.328796 0.809685 0.578431
425.756104 -367.326660 0.013492 1.000000
428.540497 -361.075623 0.000135 0.238947
430.128113 -357.511475 0.000100 0.212226
431.141785 -355.235779 0.000128 0.233083
431.846161 -353.654449 0.000068 0.273549
432.365356 -352.488831 0.000157 0.217993
425.541229 -367.390869 8.105309 0.569608
425.542236 -367.388641 7.263698 0.372059
425.543243 -367.386383 6.434060 0.607353
425.544281 -367.384155 5.614410 0.560539
425.545288 -367.381958 4.802847 0.412132
425.546265 -367.379730 3.997531 0.426716
425.547272 -367.377563 3.196688 0.616299
425.548218 -367.375427 2.398572 0.610049
425.549194 -367.373291 1.601466 0.481985
425.550171 -367.371124 0.803659 0.619976
425.551147 -367.368988 0.003437 1.000000
428.429504 -361.026520 0.000054 0.205594
430.042023 -357.473389 0.000020 0.226932
431.071594 -355.204773 0.000037 0.224433
431.787109 -353.628143 0.000022 0.262880
432.314301 -352.466431 0.000033 0.235198
425.333923 -367.433746 8.136702 0.551961
425.334961 -367.431488 7.290760 0.277941
425.335999 -367.429230 6.456855 0.539216
425.337036 -367.426971 5.632989 0.552451
425.338074 -367.424744 4.817253 0.304412
425.339081 -367.422546 4.007798 0.285049
425.340118 -367.420349 3.202837 0.508211
425.341095 -367.418213 2.400621 0.557721
425.342133 -367.416046 1.599418 0.180515
425.343109 -367.413879 0.797512 0.622304
425.379456 -367.335266 0.000088 0.231642
428.319397 -360.975494 0.000113 0.220684
429.956573 -357.433868 0.000073 0.214533
431.001953 -355.172516 0.000097 0.227220
431.728516 -353.600830 0.000109 0.209631
432.263702 -352.443024 0.000082 0.249904
425.124481 -367.477112 8.168721 0.564461
425.125549 -367.474823 7.318359 0.687500
425.126617 -367.472565 6.480107 0.596936
425.127686 -367.470276 5.651940 0.658333
425.128754 -367.468018 4.831946 0.951961
425.129791 -367.465820 4.018269 0.685294
425.130829 -367.463593 3.209109 0.588971
425.131836 -367.461456 2.402710 0.644363
425.132874 -367.459290 1.597329 0.745711
425.133881 -367.457092 0.791243 0.579779
425.225067 -367.263428 0.000072 0.222030
428.209381 -360.924316 0.000099 0.228470
429.871307 -357.394104 0.000069 0.234525
430.932373 -355.140198 0.000075 0.231834
431.669922 -353.573486 0.000111 0.255286
432.213287 -352.419342 0.000120 0.226644
424.912842 -367.520905 8.201382 0.606250
424.913940 -367.518616 7.346513 0.591667
424.915009 -367.516327 6.503822 0.585417
424.916107 -367.514038 5.671269 0.507721
424.917206 -367.511780 4.846933 0.596078
424.918274 -367.509552 4.028949 0.616422
424.919342 -367.507294 3.215507 0.595711
424.920380 -367.505157 2.404840 0.544485
424.921417 -367.502960 1.595199 0.598529
424.922485 -367.500763 0.784849 0.622426
425.071198 -367.190521 0.000058 0.228470
428.099670 -360.872345 0.000085 0.215110
429.786346 -357.353577 0.000089 0.233756
430.863007 -355.107330 0.000057 0.216936
431.611420 -353.545990 0.000055 0.201845
432.162903 -352.395477 0.000105 0.260957
424.698914 -367.565186 8.234694 0.561029
424.700043 -367.562866 7.375232 0.544118
424.701172 -367.560577 6.528007 0.551593
424.702301 -367.558258 5.690985 0.550245
424.703400 -367.556000 4.862220 0.608333
424.704498 -367.553741 4.039844 0.638726
424.705597 -367.551483 3.222032 0.579902
424.706665 -367.549316 2.407013 0.568260
424.707733 -367.547119 1.593026 0.607721
424.708832 -367.544891 0.778328 0.603431
424.918030 -367.116058 0.000087 0.228758
427.990326 -360.819702 0.000059 0.224529
429.701538 -357.312683 0.000075 0.210304
430.793915 -355.074005 0.000045 0.245579
431.553192 -353.517883 0.000042 0.200115
432.112671 -352.371338 0.000066 0.219723
424.482666 -367.609955 8.268673 0.542892
424.483826 -367.607605 7.404523 0.521201
424.484985 -367.605286 6.552677 0.507721
424.486115 -367.602966 5.711094 0.546078
424.487244 -367.600677 4.877813 0.533946
424.488373 -367.598419 4.050956 0.560907
424.489502 -367.596130 3.228688 0.529902
424.490631 -367.593964 2.409230 0.582108
424.491730 -367.591736 1.590810 0.641912
424.492859 -367.589478 0.771677 0.552083
424.765228 -367.041016 0.000073 0.229335
427.881378 -360.766235 0.000043 0.236255
429.617065 -357.271149 0.000066 0.219435
430.724976 -355.040314 0.000001 0.221261
431.495178 -353.489410 0.000027 0.264321
432.062683 -352.346619 0.000090 0.228278
424.264038 -367.655151 8.303333 0.624142
424.265228 -367.652802 7.434401 0.558946
424.266418 -367.650452 6.577844 0.534804
424.267578 -367.648132 5.731608 0.569485
424.268768 -367.645844 4.893720 0.579167
424.269897 -367.643555 4.062291 0.613235
424.271088 -367.641266 3.235478 0.610417
424.272186 -367.639038 2.411492 0.616789
424.273315 -367.636810 1.588550 0.554534
424.274475 -367.634521 0.764892 0.643382
424.613281 -366.964111 0.000130 0.224433
427.773071 -360.711456 0.000094 0.245579
429.532990 -357.228912 0.000085 0.231353
430.656525 -355.005615 0.000065 0.227220
431.437561 -353.460083 0.000119 0.221838
432.012939 -352.321472 0.000145 0.263072
424.042999 -367.700928 8.338692 0.556985
424.044220 -367.698517 7.464880 0.735539
424.045441 -367.696167 6.603515 0.580760
424.046631 -367.693848 5.752533 0.582721
424.047821 -367.691528 4.909944 0.742402
424.049011 -367.689240 4.073854 0.623529
424.050201 -367.686920 3.242404 0.556250
424.051331 -367.684692 2.413798 0.575490
424.052490 -367.682434 1.586243 0.633088
424.053680 -367.680115 0.757971 0.600245
424.461487 -366.886932 0.000118 0.224625
427.664856 -360.656433 0.000081 0.236544
429.449097 -357.186218 0.000070 0.246828
430.588196 -354.970703 0.000081 0.221453
431.379974 -353.430695 0.000120 0.258074
431.963226 -352.296326 0.000104 0.205690
423.819427 -367.747192 8.374760 0.536274
423.820679 -367.744781 7.495971 0.287377
423.821930 -367.742401 6.629702 0.575613
423.823151 -367.740082 5.773882 0.652206
423.824371 -367.737732 4.926498 0.358946
423.825592 -367.735443 4.085648 0.315564
423.826813 -367.733093 3.249470 0.573407
423.827972 -367.730835 2.416151 0.568627
423.829193 -367.728546 1.583891 0.295098
423.830414 -367.726227 0.750911 0.607230
424.310272 -366.808685 0.000106 0.227028
427.557007 -360.600861 0.000043 0.242118
429.365509 -357.142914 0.000068 0.208574
430.520020 -354.935425 0.000067 0.215879
431.322540 -353.401062 0.000094 0.233564
431.913696 -352.270691 0.000092 0.231834
423.593292 -367.794006 8.411556 0.569363
423.594574 -367.791595 7.527693 0.207353
423.595856 -367.789154 6.656418 0.594485
423.597076 -367.786835 5.795659 0.570833
423.598328 -367.784485 4.943384 0.376593
423.599579 -367.782135 4.097680 0.249265
423.600830 -367.779785 3.256677 0.550000
423.602051 -367.777496 2.418551 0.585662
423.603302 -367.775177 1.581492 0.187377
423.604553 -367.772858 0.743708 0.615196
424.159576 -366.729401 0.000091 0.227413
427.449585 -360.544312 0.000033 0.219339
429.282349 -357.098846 0.000098 0.250577
430.452179 -354.899658 0.000065 0.206459
431.265320 -353.370972 0.000077 0.259035
431.864380 -352.244781 0.000065 0.244906
423.364502 -367.841339 8.449096 0.601348
423.365845 -367.838898 7.560056 0.574142
423.367157 -367.836426 6.683674 0.556740
423.368408 -367.834106 5.817876 0.581740
423.369690 -367.831726 4.960610 0.593750
423.370972 -367.829376 4.109955 0.621324
423.372253 -367.826996 3.264031 0.625980
423.373535 -367.824677 2.421000 0.618260
423.374786 -367.822327 1.579044 0.553309
423.376038 -367.820007 0.736359 0.606495
424.009308 -366.649323 0.000050 0.231546
427.342590 -360.487061 0.000020 0.255671
429.199371 -357.054443 0.000079 0.222703
430.384430 -354.863586 0.000023 0.245867
431.208282 -353.340515 0.000048 0.209823
431.815186 -352.218567 0.000030 0.231738
423.133057 -367.889252 8.487395 0.575980
423.134399 -367.886780 7.593073 0.601103
423.135742 -367.884338 6.711485 0.638358
423.137054 -367.881989 5.840543 0.636152
423.138367 -367.879578 4.978185 0.591176
423.139679 -367.877197 4.122478 0.574877
423.140991 -367.874786 3.271532 0.572672
423.142273 -367.872437 2.423497 0.588358
423.143555 -367.870117 1.576546 0.615319
423.144836 -367.867767 0.728861 0.653676
423.859924 -366.567535 0.000073 0.231161
427.236328 -360.428467 0.000082 0.226163
429.116821 -357.009216 0.000108 0.221069
430.317139 -354.826660 0.000057 0.182141
431.151672 -353.309357 0.000101 0.224433
431.766327 -352.191742 0.000061 0.250096
422.898773 -367.937744 8.526476 0.604657
422.900177 -367.935272 7.626760 0.602083
422.901581 -367.932770 6.739857 0.594485
422.902893 -367.930420 5.863672 0.596324
422.904236 -367.927979 4.996117 0.600613
422.905579 -367.925568 4.135257 0.606863
422.906921 -367.923187 3.279187 0.602574
422.908264 -367.920807 2.426047 0.586397
422.909576 -367.918457 1.573997 0.607476
422.910889 -367.916107 0.721211 0.608456
423.710938 -366.485138 0.000057 0.228085
427.130096 -360.369690 0.000068 0.235679
429.034149 -356.964172 0.000007 0.232026
430.250092 -354.789368 0.000079 0.196078
431.095123 -353.278015 0.000098 0.208093
431.717590 -352.164642 0.000084 0.166955
422.661652 -367.986816 8.566353 0.507598
422.663086 -367.984314 7.661135 0.506985
422.664520 -367.981781 6.768808 0.500368
422.665833 -367.979431 5.887270 0.483701
422.667236 -367.976959 5.014413 0.506127
422.668640 -367.974579 4.148295 0.539951
422.669983 -367.972137 3.286998 0.558333
422.669098 -367.973755 2.428722 0.618137
422.672699 -367.967407 1.571397 0.607108
422.674042 -367.965027 0.713405 0.646201
423.562531 -366.401642 0.000050 0.230969
427.024323 -360.310211 0.000056 0.230681
428.952148 -356.917999 0.000001 0.219723
430.183228 -354.751740 0.000068 0.209246
431.038696 -353.246429 0.000055 0.272395
431.669037 -352.137299 0.000073 0.280085
422.421600 -368.036530 8.607045 0.551471
422.423096 -368.033966 7.696207 0.598529
422.424561 -368.031433 6.798350 0.623162
422.425934 -368.029053 5.911351 0.620221
422.427368 -368.026550 5.033083 0.626225
422.428772 -368.024109 4.161600 0.650123
422.430176 -368.021698 3.294968 0.637990
422.532227 -367.845032 2.428009 0.519240
422.533600 -367.842621 1.572037 0.568995
422.534973 -367.840240 0.715326 0.657843
423.415405 -366.315948 0.000146 0.222991
426.919281 -360.249420 0.000115 0.241349
428.870667 -356.870850 0.000057 0.246636
430.116577 -354.713715 0.000041 0.241830
430.982727 -353.214081 0.000115 0.198962
431.620728 -352.109497 0.000106 0.232218
422.178589 -368.086853 8.648569 0.575858
422.180084 -368.084290 7.732007 0.368627
422.181580 -368.081726 6.828505 0.432230
422.182983 -368.079315 5.935924 0.564706
422.184479 -368.076782 5.052136 0.373774
422.185913 -368.074341 4.175178 0.459926
422.187347 -368.071869 3.303101 0.553064
422.188751 -368.069519 2.434012 0.369363
422.190155 -368.067078 1.566034 0.324877
422.191589 -368.064667 0.697309 0.292647
423.267944 -366.230774 0.000099 0.227509
426.814056 -360.188904 0.000042 0.252307
428.789276 -356.823578 0.000044 0.227316
430.050140 -354.675323 -0.000006 0.261726
430.926727 -353.181763 0.000059 0.210304
431.572449 -352.081604 0.000053 0.249712
421.932434 -368.137787 8.690947 0.527696
421.933960 -368.135223 7.768540 0.348162
421.935486 -368.132660 6.859282 0.272304
421.936981 -368.130157 5.960999 0.564583
421.938507 -368.127625 5.071581 0.348652
421.939972 -368.125153 4.189034 0.244118
421.941437 -368.122681 3.311400 0.581127
421.942871 -368.120300 2.436776 0.281618
421.944336 -368.117828 1.563271 0.337255
421.945801 -368.115387 0.689016 0.297549
423.121338 -366.144196 0.000087 0.231930
426.709564 -360.127167 0.000033 0.219627
428.708252 -356.775635 0.000041 0.237409
429.984161 -354.636108 0.000021 0.215686
430.871063 -353.148895 0.000044 0.205690
431.524445 -352.053314 0.000033 0.229335
421.683136 -368.189392 8.734198 0.508333
421.684662 -368.186829 7.805832 0.629902
421.686249 -368.184265 6.890693 0.559559
421.687775 -368.181702 5.986593 0.527206
421.689331 -368.179169 5.091428 0.519608
421.690826 -368.176666 4.203178 0.518873
421.692352 -368.174164 3.319872 0.547059
421.693787 -368.171783 2.439597 0.324142
421.695313 -368.169281 1.560450 0.387990
421.696808 -368.166809 0.680550 0.269975
422.975525 -366.056213 0.000111 0.225106
426.605682 -360.064484 0.000058 0.212034
428.627563 -356.727203 0.000037 0.225394
429.918488 -354.596436 0.000055 0.214821
430.815674 -353.115601 0.000046 0.235871
431.476685 -352.024597 0.000036 0.213668
421.430573 -368.241699 8.778349 0.616544
421.432190 -368.239075 7.843884 0.616299
421.433777 -368.236481 6.922746 0.605760
421.435364 -368.233917 6.012716 0.623652
421.436920 -368.231384 5.111687 0.598897
421.438446 -368.228882 4.217615 0.603676
421.440033 -368.226318 3.328519 0.592402
421.549805 -368.047913 2.439096 0.603799
421.533966 -368.073669 1.560410 0.633824
421.526215 -368.086304 0.679558 0.591054
422.830139 -365.967590 0.000098 0.225971
426.502197 -360.001007 0.000085 0.223280
428.547211 -356.678162 0.000027 0.241446
429.853088 -354.556366 0.000077 0.208478
430.760559 -353.081787 0.000075 0.188966
431.429138 -351.995453 0.000061 0.192522
421.174652 -368.294678 8.823415 0.627328
421.176331 -368.291992 7.882728 0.584069
421.177948 -368.289398 6.955463 0.636520
421.179596 -368.286774 6.039383 0.597672
421.181183 -368.284241 5.132365 0.609926
421.182739 -368.281738 4.232350 0.619363
421.184357 -368.279144 3.337346 0.590074
421.185883 -368.276703 2.445417 0.560907
421.187439 -368.274200 1.554632 0.562377
421.189026 -368.271667 0.663087 0.589583
422.685059 -365.878448 0.000041 0.229047
426.399139 -359.936859 0.000107 0.231642
428.467407 -356.628265 0.000082 0.193868
429.787964 -354.515747 0.000106 0.207324
430.705688 -353.047638 0.000098 0.243080
431.381805 -351.966034 0.000067 0.235486
420.915314 -368.348358 8.869415 1.000000
420.917023 -368.345673 7.922381 0.507475
420.918701 -368.343018 6.988863 0.552328
420.920349 -368.340424 6.066607 0.578799
420.921967 -368.337860 5.153478 0.626838
420.923584 -368.335327 4.247393 0.638235
420.925232 -368.332703 3.346356 0.630392
420.926819 -368.330231 2.448417 0.637868
420.928436 -368.327698 1.551632 0.617647
420.930054 -368.325134 0.654084 0.596691
422.540894 -365.787811 0.000029 0.228374
426.296448 -359.872253 0.000098 0.237697
428.387726 -356.578156 0.000075 0.230104
429.722900 -354.475067 0.000063 0.210496
430.650879 -353.013306 0.000059 0.219531
431.334595 -351.936401 0.000050 0.237024
420.652405 -368.402802 8.916395 1.000000
420.654205 -368.400024 7.962868 0.427206
420.655914 -368.397369 7.022964 0.477328
420.657562 -368.394775 6.094411 0.642647
420.659241 -368.392181 5.175030 0.625980
420.660919 -368.389618 4.262752 0.507475
420.662598 -368.386963 3.355556 0.614216
420.664215 -368.384460 2.451481 0.605392
420.665894 -368.381866 1.548570 0.603799
420.667542 -368.379333 0.644890 0.611765
422.397614 -365.695801 0.000053 0.219435
426.193909 -359.807281 0.000038 0.222607
428.308594 -356.527222 0.000107 0.254517
429.658325 -354.433624 0.000085 0.206940
430.596619 -352.978210 0.000134 0.229239
431.287781 -351.906158 0.000114 0.205306
420.385925 -368.457977 8.964348 1.000000
420.387756 -368.455200 8.004207 0.355147
420.389496 -368.452515 7.057787 0.224142
420.391205 -368.449921 6.122792 0.590564
420.392914 -368.447266 5.197036 0.553922
420.394623 -368.444641 4.278431 0.218382
420.396362 -368.442017 3.364950 0.589951
420.398010 -368.439484 2.454609 0.581373
420.399750 -368.436859 1.545443 0.225980
420.401428 -368.434296 0.635504 0.584069
422.254730 -365.603180 0.000037 0.227701
426.092102 -359.741241 0.000028 0.223568
428.229279 -356.476501 0.000008 0.198962
429.594055 -354.391663 0.000114 0.230969
430.542389 -352.943085 0.000112 0.237889
431.240845 -351.876099 0.000017 0.225875
nan nan nan 0.000000
420.117523 -368.511078 8.046422 0.757475
420.119293 -368.508423 7.093347 0.696201
420.121063 -368.505768 6.151773 0.527574
420.122833 -368.503113 5.219506 0.526226
420.124603 -368.500427 4.294440 0.624387
420.126343 -368.497833 3.374542 0.555270
420.128021 -368.495270 2.457803 0.575613
420.129791 -368.492615 1.542249 0.538358
420.131531 -368.489990 0.625919 0.582475
422.113037 -365.508728 0.000105 0.217513
425.990906 -359.674225 0.000052 0.235390
428.150787 -356.424530 0.000033 0.261438
429.530121 -354.349274 0.000146 0.239427
430.488251 -352.907684 0.000056 0.212514
431.194458 -351.845154 0.000087 0.197232
nan nan nan 0.000000
419.843475 -368.567810 8.089533 0.570711
419.845306 -368.565125 7.129658 0.519975
419.847107 -368.562439 6.181368 0.562745
419.848907 -368.559753 5.242455 0.485784
419.850739 -368.557068 4.310793 0.556373
419.852509 -368.554443 3.384337 0.554902
419.854248 -368.551849 2.461065 0.541544
419.856079 -368.549164 1.538988 0.507475
419.857849 -368.546539 0.616130 0.517402
421.971252 -365.414459 0.000059 0.218378
425.890015 -359.606781 0.000042 0.207228
428.072571 -356.372192 0.000028 0.223664
429.465973 -354.307190 0.000017 0.210880
430.434540 -352.871735 0.000052 0.204537
431.148071 -351.814270 0.000054 0.178489
nan nan nan 0.000000
419.565491 -368.625366 8.133570 0.580392
419.567383 -368.622620 7.166746 0.564338
419.569214 -368.619904 6.211597 0.623529
419.571075 -368.617218 5.265893 0.607230
419.572937 -368.614502 4.327496 0.620588
419.574738 -368.611816 3.394342 0.630882
419.576538 -368.609192 2.464397 0.608333
419.578400 -368.606506 1.535657 0.589461
419.580231 -368.603851 0.606133 0.561275
421.830566 -365.318512 0.000080 0.230681
425.789795 -359.538330 0.000069 0.218089
427.994873 -356.319061 0.000061 0.223087
429.402710 -354.263733 0.000083 0.265667
430.381134 -352.835266 0.000082 0.213476
431.101929 -351.782959 0.000044 0.198481
nan nan nan 0.000000
419.283417 -368.683746 8.178548 0.619853
419.285339 -368.680969 7.204628 0.580270
419.287262 -368.678223 6.242471 0.632230
419.289124 -368.675507 5.289833 0.574265
419.291016 -368.672791 4.344557 0.611029
419.292908 -368.670074 3.404561 0.649877
419.294769 -368.667419 2.467799 0.627083
419.296661 -368.664734 1.532254 0.592770
419.298553 -368.662018 0.595921 0.569485
421.690613 -365.221527 0.000107 0.219819
425.689911 -359.469391 0.000072 0.234429
427.917633 -356.265289 0.000124 0.242599
429.339600 -354.220032 0.000108 0.208381
