# This PCD file was generated using the MATLABÂ® pcwrite function
# from Computer Vision ToolboxÂ®.
# .PCD v.7 - Point Cloud Data file format
VERSION .7
FIELDS x y z intensity
SIZE 4 4 4 4
TYPE F F F F
COUNT 1 1 1 1
WIDTH 1209
HEIGHT 1
VIEWPOINT 0 0 0 1 0 0 0
POINTS 1209
DATA ascii
-101.158012 11.039386 2.611331 1.000000
-101.158012 11.039387 2.366274 1.000000
-101.158012 11.039388 2.122004 1.000000
-101.158012 11.039388 1.877996 1.000000
-101.158012 11.039387 1.633726 1.000000
-101.158012 11.039386 1.388669 1.000000
-101.158012 11.039388 1.142292 1.000000
-101.158012 11.039388 0.894054 1.000000
-101.158020 11.039389 0.643392 1.000000
-101.158012 11.039386 0.389726 1.000000
-101.158020 11.039388 0.132448 1.000000
-101.172874 10.947801 3.886746 1.000000
-101.172874 10.947801 3.626824 1.000000
-101.172874 10.947800 3.370551 1.000000
-101.172874 10.947801 3.117313 1.000000
-101.172874 10.947801 2.866523 1.000000
-101.172874 10.947801 2.617615 1.000000
-101.172874 10.947801 2.370039 1.000000
-101.172874 10.947801 2.123258 1.000000
-101.172874 10.947801 1.876742 1.000000
-101.172874 10.947801 1.629961 1.000000
-101.172874 10.947801 1.382385 1.000000
-101.172874 10.947801 1.133477 1.000000
-101.172874 10.947801 0.882687 1.000000
-101.172874 10.947800 0.629449 1.000000
-101.172874 10.947801 0.373176 1.000000
-101.172874 10.947801 0.113254 1.000000
-101.188049 10.854308 3.906433 1.000000
-101.188049 10.854308 3.643799 1.000000
-101.188049 10.854306 3.384852 1.000000
-101.188049 10.854308 3.128972 1.000000
-101.188049 10.854308 2.875564 1.000000
-101.188049 10.854308 2.624059 1.000000
-101.188049 10.854308 2.373900 1.000000
-101.188049 10.854308 2.124544 1.000000
-101.188049 10.854308 1.875456 1.000000
-101.188049 10.854308 1.626100 1.000000
-101.188049 10.854308 1.375941 1.000000
-101.188049 10.854308 1.124436 1.000000
-101.188049 10.854308 0.871029 1.000000
-101.188049 10.854306 0.615148 1.000000
-101.188049 10.854308 0.356202 1.000000
-101.188049 10.854308 0.093567 1.000000
-101.203545 10.758838 3.926630 1.000000
-101.203545 10.758838 3.661213 1.000000
-101.203545 10.758838 3.399523 1.000000
-101.203545 10.758838 3.140932 1.000000
-101.203545 10.758838 2.884840 1.000000
-101.203545 10.758838 2.630670 1.000000
-101.203545 10.758838 2.377861 1.000000
-101.203545 10.758838 2.125864 1.000000
-101.203545 10.758838 1.874136 1.000000
-101.203545 10.758838 1.622139 1.000000
-101.203545 10.758838 1.369329 1.000000
-101.203545 10.758838 1.115160 1.000000
-101.203545 10.758838 0.859068 1.000000
-101.203545 10.758838 0.600477 1.000000
-101.203545 10.758838 0.338787 1.000000
-101.203545 10.758838 0.073370 1.000000
-101.219368 10.661320 3.947356 1.000000
-101.219368 10.661320 3.679084 1.000000
-101.219368 10.661320 3.414578 1.000000
-101.219368 10.661320 3.153205 1.000000
-101.219368 10.661320 2.894359 1.000000
-101.219368 10.661320 2.637455 1.000000
-101.219368 10.661320 2.381926 1.000000
-101.219368 10.661320 2.127218 1.000000
-101.219368 10.661320 1.872782 1.000000
-101.219368 10.661320 1.618074 1.000000
-101.219368 10.661320 1.362545 1.000000
-101.219368 10.661320 1.105641 1.000000
-101.219368 10.661320 0.846795 1.000000
-101.219368 10.661320 0.585422 1.000000
-101.219368 10.661320 0.320917 1.000000
-101.219368 10.661320 0.052644 1.000000
-101.235542 10.561676 3.968628 1.000000
-101.235542 10.561675 3.697426 1.000000
-101.235542 10.561676 3.430031 1.000000
-101.235542 10.561675 3.165803 1.000000
-101.235542 10.561676 2.904129 1.000000
-101.235542 10.561675 2.644418 1.000000
-101.235542 10.561676 2.386098 1.000000
-101.235542 10.561675 2.128607 1.000000
-101.235542 10.561675 1.871393 1.000000
-101.235542 10.561676 1.613902 1.000000
-101.235542 10.561675 1.355582 1.000000
-101.235542 10.561676 1.095871 1.000000
-101.235542 10.561675 0.834197 1.000000
-101.235542 10.561676 0.569969 1.000000
-101.235542 10.561677 0.302574 1.000000
-101.235542 10.561676 0.031372 1.000000
-101.252075 10.459825 3.990470 1.000000
-101.252075 10.459826 3.716258 1.000000
-101.252075 10.459826 3.445896 1.000000
-101.252075 10.459824 3.178737 1.000000
-101.252075 10.459824 2.914160 1.000000
-101.252075 10.459824 2.651567 1.000000
-101.252075 10.459824 2.390382 1.000000
-101.252075 10.459825 2.130034 1.000000
-101.252075 10.459825 1.869966 1.000000
-101.252075 10.459824 1.609618 1.000000
-101.252075 10.459824 1.348432 1.000000
-101.252075 10.459824 1.085840 1.000000
-101.252075 10.459824 0.821263 1.000000
-101.252075 10.459826 0.554103 1.000000
-101.252075 10.459826 0.283742 1.000000
-101.252075 10.459825 0.009530 1.000000
-101.268967 10.355682 4.012900 1.000000
-101.268967 10.355680 3.735599 1.000000
-101.268967 10.355682 3.462191 1.000000
-101.268967 10.355682 3.192020 1.000000
-101.268967 10.355682 2.924461 1.000000
-101.268967 10.355683 2.658910 1.000000
-101.268967 10.355683 2.394781 1.000000
-101.268967 10.355682 2.131500 1.000000
-101.268967 10.355682 1.868500 1.000000
-101.268967 10.355683 1.605219 1.000000
-101.268967 10.355683 1.341090 1.000000
-101.268967 10.355682 1.075539 1.000000
-101.268967 10.355682 0.807980 1.000000
-101.268967 10.355682 0.537809 1.000000
-101.268967 10.355682 0.264401 1.000000
-101.268967 10.355682 -0.012900 1.000000
-101.286255 10.249162 4.035943 1.000000
-101.286255 10.249161 3.755467 1.000000
-101.286255 10.249161 3.478929 1.000000
-101.286255 10.249161 3.205666 1.000000
-101.286255 10.249161 2.935044 1.000000
-101.286255 10.249162 2.666453 1.000000
-101.286255 10.249163 2.399300 1.000000
-101.286255 10.249161 2.133005 1.000000
-101.286255 10.249161 1.866995 1.000000
-101.286255 10.249163 1.600700 1.000000
-101.286255 10.249162 1.333547 1.000000
-101.286255 10.249159 1.064956 1.000000
-101.286255 10.249161 0.794334 1.000000
-101.286255 10.249162 0.521071 1.000000
-101.286255 10.249163 0.244533 1.000000
-101.340233 10.382051 -0.000015 0.232987
-101.303947 10.140169 4.059620 1.000000
-101.303947 10.140169 3.775882 1.000000
-101.303947 10.140170 3.496128 1.000000
-101.303947 10.140171 3.219687 1.000000
-101.303947 10.140169 2.945918 1.000000
-101.303947 10.140170 2.674204 1.000000
-101.303947 10.140170 2.403944 1.000000
-101.303947 10.140170 2.134552 1.000000
-101.303947 10.140170 1.865448 1.000000
-101.303947 10.140170 1.596056 1.000000
-101.303947 10.140170 1.325796 1.000000
-101.303947 10.140169 1.054082 1.000000
-101.303947 10.140171 0.780313 1.000000
-101.303947 10.140170 0.503872 1.000000
-101.303947 10.140169 0.224118 1.000000
-101.391968 10.361307 -0.000001 0.302960
-101.322052 10.028606 4.083957 1.000000
-101.322052 10.028606 3.796866 1.000000
-101.322052 10.028605 3.513807 1.000000
-101.322052 10.028605 3.234100 1.000000
-101.322052 10.028606 2.957096 1.000000
-101.322052 10.028606 2.682170 1.000000
-101.322052 10.028606 2.408717 1.000000
-101.322052 10.028606 2.136142 1.000000
-101.322052 10.028606 1.863858 1.000000
-101.322052 10.028606 1.591283 1.000000
-101.322052 10.028606 1.317830 1.000000
-101.322052 10.028606 1.042904 1.000000
-101.322052 10.028605 0.765900 1.000000
-101.322052 10.028605 0.486193 1.000000
-101.322052 10.028606 0.203134 1.000000
-101.443840 10.340885 0.000003 0.250577
-101.340591 9.914370 4.108981 1.000000
-101.340591 9.914369 3.818443 1.000000
-101.340591 9.914369 3.531984 1.000000
-101.340591 9.914371 3.248918 1.000000
-101.340591 9.914371 2.968588 1.000000
-101.340591 9.914371 2.690361 1.000000
-101.340591 9.914371 2.413624 1.000000
-101.340591 9.914369 2.137777 1.000000
-101.340591 9.914371 1.862224 1.000000
-101.340591 9.914371 1.586375 1.000000
-101.340591 9.914371 1.309638 1.000000
-101.340591 9.914371 1.031412 1.000000
-101.340591 9.914371 0.751082 1.000000
-101.340591 9.914371 0.468016 1.000000
-101.340591 9.914369 0.181557 1.000000
-101.495850 10.320833 0.000008 0.222607
-101.359581 9.797350 4.134718 1.000000
-101.359581 9.797349 3.840634 1.000000
-101.359581 9.797351 3.550679 1.000000
-101.359581 9.797349 3.264160 1.000000
-101.359581 9.797350 2.980408 1.000000
-101.359581 9.797350 2.698786 1.000000
-101.359581 9.797350 2.418672 1.000000
-101.359581 9.797350 2.139458 1.000000
-101.359581 9.797350 1.860542 1.000000
-101.359581 9.797350 1.581328 1.000000
-101.359581 9.797350 1.301214 1.000000
-101.359581 9.797350 1.019592 1.000000
-101.359581 9.797349 0.735840 1.000000
-101.359581 9.797351 0.449321 1.000000
-101.359581 9.797349 0.159366 1.000000
-101.547981 10.301118 0.000006 0.256344
-101.379044 9.677436 4.161196 1.000000
-101.379044 9.677435 3.863465 1.000000
-101.379044 9.677436 3.569914 1.000000
-101.379044 9.677435 3.279840 1.000000
-101.379044 9.677436 2.992569 1.000000
-101.379044 9.677435 2.707454 1.000000
-101.379044 9.677437 2.423865 1.000000
-101.379044 9.677436 2.141187 1.000000
-101.379044 9.677436 1.858812 1.000000
-101.379044 9.677437 1.576135 1.000000
-101.379044 9.677435 1.292546 1.000000
-101.379044 9.677437 1.007431 1.000000
-101.379044 9.677435 0.720160 1.000000
-101.379044 9.677437 0.430086 1.000000
-101.379044 9.677436 0.136535 1.000000
-101.600227 10.281685 -0.000018 0.187332
-101.398994 9.554500 4.188449 1.000000
-101.398994 9.554500 3.886964 1.000000
-101.398994 9.554498 3.589711 1.000000
-101.398994 9.554500 3.295979 1.000000
-101.398994 9.554500 3.005085 1.000000
-101.398994 9.554499 2.716375 1.000000
-101.398994 9.554499 2.429211 1.000000
-101.398994 9.554499 2.142968 1.000000
-101.398994 9.554499 1.857032 1.000000
-101.398994 9.554499 1.570789 1.000000
-101.398994 9.554498 1.283625 1.000000
-101.398994 9.554500 0.994914 1.000000
-101.398994 9.554501 0.704021 1.000000
-101.398994 9.554499 0.410289 1.000000
-101.398994 9.554500 0.113036 1.000000
-101.652649 10.262733 -0.000011 0.234333
-101.419456 9.428418 4.216508 1.000000
-101.419456 9.428417 3.911156 1.000000
-101.419456 9.428418 3.610093 1.000000
-101.419456 9.428417 3.312595 1.000000
-101.419456 9.428418 3.017972 1.000000
-101.419456 9.428417 2.725560 1.000000
-101.419456 9.428416 2.434713 1.000000
-101.419456 9.428418 2.144801 1.000000
-101.419456 9.428418 1.855199 1.000000
-101.419456 9.428416 1.565287 1.000000
-101.419456 9.428417 1.274440 1.000000
-101.419456 9.428419 0.982028 1.000000
-101.419456 9.428418 0.687405 1.000000
-101.419456 9.428418 0.389907 1.000000
-101.419456 9.428418 0.088843 1.000000
-101.705200 10.244142 -0.000006 0.250961
-101.440453 9.299053 4.245406 1.000000
-101.440453 9.299055 3.936073 1.000000
-101.440453 9.299055 3.631084 1.000000
-101.440453 9.299054 3.329708 1.000000
-101.440453 9.299057 3.031243 1.000000
-101.440453 9.299056 2.735019 1.000000
-101.440453 9.299056 2.440381 1.000000
-101.440453 9.299055 2.146689 1.000000
-101.440453 9.299055 1.853311 1.000000
-101.440453 9.299056 1.559619 1.000000
-101.440453 9.299056 1.264981 1.000000
-101.440453 9.299057 0.968757 1.000000
-101.440453 9.299054 0.670292 1.000000
-101.440453 9.299055 0.368916 1.000000
-101.440453 9.299055 0.063927 1.000000
-101.757858 10.225862 -0.000015 0.189158
-101.461998 9.166266 4.275179 1.000000
-101.461998 9.166266 3.961746 1.000000
-101.461998 9.166267 3.652712 1.000000
-101.461998 9.166268 3.347339 1.000000
-101.461998 9.166266 3.044918 1.000000
-101.461998 9.166268 2.744765 1.000000
-101.461998 9.166267 2.446220 1.000000
-101.461998 9.166269 2.148634 1.000000
-101.461998 9.166269 1.851366 1.000000
-101.461998 9.166267 1.553780 1.000000
-101.461998 9.166269 1.255234 1.000000
-101.461998 9.166266 0.955082 1.000000
-101.461998 9.166269 0.652661 1.000000
-101.461998 9.166268 0.347288 1.000000
-101.461998 9.166267 0.038255 1.000000
-101.810646 10.207952 -0.000024 0.194252
-101.484131 9.029903 4.305867 1.000000
-101.484131 9.029904 3.988206 1.000000
-101.484131 9.029904 3.675004 1.000000
-101.484131 9.029905 3.365512 1.000000
-101.484131 9.029904 3.059012 1.000000
-101.484131 9.029904 2.754811 1.000000
-101.484131 9.029904 2.452239 1.000000
-101.484131 9.029903 2.150639 1.000000
-101.484131 9.029903 1.849361 1.000000
-101.484131 9.029905 1.547761 1.000000
-101.484131 9.029904 1.245189 1.000000
-101.484131 9.029904 0.940988 1.000000
-101.484131 9.029903 0.634487 1.000000
-101.484131 9.029904 0.324996 1.000000
-101.484131 9.029905 0.011795 1.000000
-101.863579 10.190462 -0.000019 0.226067
-101.506866 8.889807 4.337509 1.000000
-101.506866 8.889806 4.015489 1.000000
-101.506866 8.889805 3.697990 1.000000
-101.506866 8.889807 3.384251 1.000000
-101.506866 8.889805 3.073545 1.000000
-101.506866 8.889807 2.765169 1.000000
-101.506866 8.889807 2.458445 1.000000
-101.506866 8.889806 2.152706 1.000000
-101.506866 8.889806 1.847294 1.000000
-101.506866 8.889807 1.541555 1.000000
-101.506866 8.889807 1.234831 1.000000
-101.506866 8.889806 0.926456 1.000000
-101.506866 8.889807 0.615749 1.000000
-101.506866 8.889806 0.302010 1.000000
-101.528641 8.958027 -0.000022 0.241542
-101.916626 10.173342 -0.000014 0.271338
-101.530235 8.745804 4.370149 1.000000
-101.530235 8.745802 4.043633 1.000000
-101.530235 8.745804 3.721699 1.000000
-101.530235 8.745803 3.403580 1.000000
-101.530235 8.745804 3.088534 1.000000
-101.530235 8.745803 2.775853 1.000000
-101.530235 8.745804 2.464846 1.000000
-101.530235 8.745805 2.154838 1.000000
-101.530235 8.745805 1.845162 1.000000
-101.530235 8.745804 1.535154 1.000000
-101.530235 8.745803 1.224146 1.000000
-101.530235 8.745805 0.911466 1.000000
-101.530235 8.745803 0.596420 1.000000
-101.530235 8.745804 0.278301 1.000000
-101.590302 8.938579 -0.000023 0.245579
-101.969788 10.156577 -0.000014 0.237313
-101.554268 8.597713 4.403832 1.000000
-101.554268 8.597713 4.072675 1.000000
-101.554268 8.597714 3.746167 1.000000
-101.554268 8.597714 3.423527 1.000000
-101.554268 8.597715 3.104004 1.000000
-101.554268 8.597714 2.786879 1.000000
-101.554268 8.597714 2.471452 1.000000
-101.554268 8.597713 2.157039 1.000000
-101.554268 8.597714 1.842961 1.000000
-101.554268 8.597714 1.528548 1.000000
-101.554268 8.597714 1.213121 1.000000
-101.554268 8.597715 0.895996 1.000000
-101.554268 8.597714 0.576473 1.000000
-101.554268 8.597714 0.253833 1.000000
-101.652138 8.919731 0.000015 0.227605
-102.023071 10.140200 -0.000009 0.230777
-101.578995 8.445347 4.438607 1.000000
-101.578995 8.445346 4.102659 1.000000
-101.578995 8.445346 3.771428 1.000000
-101.578995 8.445347 3.444120 1.000000
-101.578995 8.445346 3.119975 1.000000
-101.578995 8.445347 2.798263 1.000000
-101.578995 8.445346 2.478273 1.000000
-101.578995 8.445348 2.159310 1.000000
-101.578995 8.445348 1.840690 1.000000
-101.578995 8.445346 1.521727 1.000000
-101.578995 8.445347 1.201737 1.000000
-101.578995 8.445346 0.880025 1.000000
-101.578995 8.445348 0.555880 1.000000
-101.578995 8.445346 0.228571 1.000000
-101.714073 8.901172 0.000020 0.256344
-102.076462 10.124192 -0.000005 0.232218
-101.604454 8.288499 4.474525 1.000000
-101.604454 8.288500 4.133629 1.000000
-101.604454 8.288500 3.797520 1.000000
-101.604454 8.288501 3.465390 1.000000
-101.604454 8.288500 3.136471 1.000000
-101.604454 8.288500 2.810020 1.000000
-101.604454 8.288499 2.485317 1.000000
-101.604454 8.288499 2.161657 1.000000
-101.604454 8.288499 1.838343 1.000000
-101.604454 8.288499 1.514683 1.000000
-101.604454 8.288500 1.189980 1.000000
-101.604454 8.288501 0.863529 1.000000
-101.604454 8.288501 0.534610 1.000000
-101.604454 8.288500 0.202480 1.000000
-101.776108 8.883012 0.000018 0.273260
-102.129951 10.108506 -0.000015 0.222703
-101.630676 8.126954 4.511642 1.000000
-101.630676 8.126953 4.165632 1.000000
-101.630676 8.126953 3.824481 1.000000
-101.630676 8.126956 3.487370 1.000000
-101.630676 8.126953 3.153517 1.000000
-101.630676 8.126953 2.822170 1.000000
-101.630676 8.126954 2.492597 1.000000
-101.630676 8.126954 2.164082 1.000000
-101.630676 8.126954 1.835918 1.000000
-101.630676 8.126954 1.507403 1.000000
-101.630676 8.126954 1.177830 1.000000
-101.630676 8.126954 0.846483 1.000000
-101.630676 8.126956 0.512630 1.000000
-101.630676 8.126953 0.175519 1.000000
-101.838272 8.865254 0.000009 0.261630
-102.183548 10.093201 -0.000022 0.208381
-101.657684 7.960478 4.550015 1.000000
-101.657684 7.960478 4.198719 1.000000
-101.657684 7.960478 3.852356 1.000000
-101.657684 7.960479 3.510095 1.000000
-101.657684 7.960479 3.171141 1.000000
-101.657684 7.960479 2.834731 1.000000
-101.657684 7.960478 2.500123 1.000000
-101.657684 7.960480 2.166589 1.000000
-101.657684 7.960480 1.833412 1.000000
-101.657684 7.960478 1.499877 1.000000
-101.657684 7.960479 1.165268 1.000000
-101.657684 7.960480 0.828859 1.000000
-101.657684 7.960480 0.489905 1.000000
-101.657684 7.960480 0.147644 1.000000
-101.900558 8.847964 0.000007 0.265571
-102.237274 10.078319 -0.000017 0.214629
-101.685539 7.788830 4.589707 1.000000
-101.685539 7.788830 4.232944 1.000000
-101.685547 7.788831 3.881188 1.000000
-101.685547 7.788831 3.533600 1.000000
-101.685547 7.788831 3.189371 1.000000
-101.685547 7.788832 2.847724 1.000000
-101.685547 7.788831 2.507907 1.000000
-101.685539 7.788830 2.169182 1.000000
-101.685539 7.788830 1.830819 1.000000
-101.685547 7.788832 1.492093 1.000000
-101.685547 7.788832 1.152276 1.000000
-101.685547 7.788831 0.810629 1.000000
-101.685547 7.788831 0.466400 1.000000
-101.685547 7.788831 0.118811 1.000000
-101.962975 8.831113 0.000006 0.244233
-102.291092 10.063787 -0.000019 0.215110
-101.714279 7.611745 4.630785 1.000000
-101.714279 7.611746 4.268362 1.000000
-101.714279 7.611744 3.911028 1.000000
-101.714279 7.611746 3.557926 1.000000
-101.714279 7.611746 3.208236 1.000000
-101.714279 7.611746 2.861171 1.000000
-101.714279 7.611745 2.515964 1.000000
-101.714279 7.611745 2.171865 1.000000
-101.714279 7.611745 1.828135 1.000000
-101.714279 7.611746 1.484036 1.000000
-101.714279 7.611746 1.138829 1.000000
-101.714279 7.611746 0.791764 1.000000
-101.714279 7.611746 0.442075 1.000000
-101.714279 7.611745 0.088972 1.000000
-102.025513 8.814694 0.000005 0.251153
-102.345032 10.049747 0.000010 0.205594
-101.743950 7.428942 4.673318 1.000000
-101.743950 7.428943 4.305036 1.000000
-101.743950 7.428943 3.941925 1.000000
-101.743950 7.428943 3.583114 1.000000
-101.743950 7.428943 3.227771 1.000000
-101.743950 7.428945 2.875093 1.000000
-101.743950 7.428943 2.524305 1.000000
-101.743950 7.428942 2.174644 1.000000
-101.743950 7.428943 1.825356 1.000000
-101.743950 7.428943 1.475694 1.000000
-101.743950 7.428945 1.124906 1.000000
-101.743950 7.428943 0.772229 1.000000
-101.743950 7.428943 0.416886 1.000000
-101.743950 7.428943 0.058075 1.000000
-102.088150 8.798738 0.000008 0.225586
-102.399048 10.035993 0.000015 0.205978
-101.774597 7.240123 4.717384 1.000000
-101.774597 7.240126 4.343031 1.000000
-101.774597 7.240125 3.973935 1.000000
-101.774597 7.240125 3.609210 1.000000
-101.774597 7.240126 3.248009 1.000000
-101.774597 7.240124 2.889518 1.000000
-101.774597 7.240125 2.532948 1.000000
-101.774597 7.240125 2.177522 1.000000
-101.774597 7.240125 1.822477 1.000000
-101.774597 7.240125 1.467052 1.000000
-101.774597 7.240125 1.110481 1.000000
-101.774597 7.240126 0.751991 1.000000
-101.774597 7.240126 0.390791 1.000000
-101.774597 7.240126 0.026065 1.000000
-102.150894 8.783159 -0.000001 0.233948
-102.453148 10.022560 0.000005 0.248654
-101.806267 7.044967 4.763064 1.000000
-101.806267 7.044966 4.382419 1.000000
-101.806267 7.044967 4.007117 1.000000
-101.806267 7.044968 3.636260 1.000000
-101.806267 7.044966 3.268988 1.000000
-101.806267 7.044968 2.904472 1.000000
-101.806267 7.044968 2.541907 1.000000
-101.806267 7.044967 2.180507 1.000000
-101.806267 7.044968 1.819493 1.000000
-101.806267 7.044968 1.458093 1.000000
-101.806267 7.044968 1.095528 1.000000
-101.806267 7.044967 0.731012 1.000000
-101.806267 7.044968 0.363740 1.000000
-101.815269 7.083029 -0.000001 0.213668
-102.213753 8.768058 -0.000002 0.247020
-102.507355 10.009561 0.000010 0.271626
-101.839027 6.843123 4.810447 1.000000
-101.839027 6.843124 4.423274 1.000000
-101.839027 6.843125 4.041535 1.000000
-101.839027 6.843124 3.664320 1.000000
-101.839027 6.843124 3.290749 1.000000
-101.839027 6.843123 2.919982 1.000000
-101.839027 6.843123 2.551199 1.000000
-101.839027 6.843124 2.183602 1.000000
-101.839027 6.843124 1.816398 1.000000
-101.839027 6.843123 1.448800 1.000000
-101.839027 6.843124 1.080018 1.000000
-101.839027 6.843125 0.709251 1.000000
-101.839027 6.843125 0.335680 1.000000
-101.890022 7.065697 0.000012 0.229335
-102.276726 8.753420 0.000002 0.198770
-102.561646 9.996918 0.000009 0.210208
-101.872925 6.634231 4.859624 1.000000
-101.872925 6.634231 4.465675 1.000000
-101.872925 6.634231 4.077258 1.000000
-101.872925 6.634232 3.693441 1.000000
-101.872925 6.634230 3.313335 1.000000
-101.872925 6.634231 2.936080 1.000000
-101.872925 6.634233 2.560844 1.000000
-101.872925 6.634232 2.186815 1.000000
-101.872925 6.634232 1.813185 1.000000
-101.872925 6.634233 1.439155 1.000000
-101.872925 6.634231 1.063920 1.000000
-101.872925 6.634230 0.686665 1.000000
-101.872925 6.634232 0.306558 1.000000
-101.964874 7.048806 0.000009 0.236736
-102.339790 8.739189 -0.000000 0.192042
-102.616013 9.984649 0.000006 0.206651
-101.908035 6.417883 4.910697 1.000000
-101.908035 6.417883 4.509712 1.000000
-101.908035 6.417884 4.114358 1.000000
-101.908035 6.417883 3.723687 1.000000
-101.908035 6.417884 3.336791 1.000000
-101.908035 6.417883 2.952798 1.000000
-101.908035 6.417884 2.570861 1.000000
-101.908035 6.417883 2.190151 1.000000
-101.908035 6.417883 1.809849 1.000000
-101.908035 6.417884 1.429138 1.000000
-101.908035 6.417883 1.047202 1.000000
-101.908035 6.417884 0.663209 1.000000
-101.908035 6.417883 0.276313 1.000000
-102.039856 7.032476 0.000013 0.212034
-102.402954 8.725429 0.000003 0.216167
-102.670479 9.972786 0.000010 0.257689
-101.944427 6.193654 4.963774 1.000000
-101.944427 6.193654 4.555479 1.000000
-101.944427 6.193653 4.152915 1.000000
-101.944427 6.193655 3.755119 1.000000
-101.944427 6.193655 3.361168 1.000000
-101.944427 6.193654 2.970173 1.000000
-101.944427 6.193655 2.581271 1.000000
-101.944427 6.193654 2.193619 1.000000
-101.944427 6.193654 1.806381 1.000000
-101.944427 6.193655 1.418728 1.000000
-101.944427 6.193655 1.029827 1.000000
-101.944427 6.193655 0.638832 1.000000
-101.944427 6.193655 0.244881 1.000000
-102.114937 7.016640 0.000012 0.247789
-102.466209 8.712088 0.000003 0.229912
-102.725021 9.961287 0.000010 0.195021
-101.982170 5.961088 5.018973 1.000000
-101.982170 5.961087 4.603073 1.000000
-101.982170 5.961088 4.193011 1.000000
-101.982170 5.961088 3.787807 1.000000
-101.982170 5.961088 3.386519 1.000000
-101.982170 5.961089 2.988242 1.000000
-101.982170 5.961089 2.592097 1.000000
-101.982170 5.961089 2.197225 1.000000
-101.982170 5.961089 1.802775 1.000000
-101.982170 5.961089 1.407903 1.000000
-101.982170 5.961090 1.011758 1.000000
-101.982170 5.961089 0.613481 1.000000
-101.982170 5.961088 0.212193 1.000000
-102.190117 7.001286 0.000003 0.235198
-102.529549 8.699159 -0.000005 0.196559
-102.779633 9.950132 0.000001 0.227893
-102.021347 5.719681 5.076421 1.000000
-102.021347 5.719682 4.652606 1.000000
-102.021347 5.719682 4.234742 1.000000
-102.021347 5.719681 3.821827 1.000000
-102.021347 5.719684 3.412902 1.000000
-102.021347 5.719684 3.007046 1.000000
-102.021347 5.719680 2.603364 1.000000
-102.021347 5.719684 2.200978 1.000000
-102.021347 5.719684 1.799022 1.000000
-102.021347 5.719680 1.396636 1.000000
-102.021347 5.719684 0.992953 1.000000
-102.021347 5.719684 0.587098 1.000000
-102.021347 5.719682 0.178173 1.000000
-102.265419 6.986532 0.000008 0.251538
-102.592987 8.686726 -0.000001 0.231834
-102.834335 9.939412 0.000006 0.277778
-102.062042 5.468894 5.136253 1.000000
-102.062042 5.468894 4.704196 1.000000
-102.062042 5.468896 4.278204 1.000000
-102.062042 5.468897 3.857259 1.000000
-102.062042 5.468894 3.440382 1.000000
-102.062042 5.468896 3.026632 1.000000
-102.062042 5.468896 2.615098 1.000000
-102.062042 5.468897 2.204886 1.000000
-102.062042 5.468897 1.795114 1.000000
-102.062042 5.468896 1.384901 1.000000
-102.062042 5.468896 0.973367 1.000000
-102.062042 5.468895 0.559618 1.000000
-102.062042 5.468897 0.142741 1.000000
-102.340813 6.972229 -0.000001 0.223376
-102.656517 8.674705 -0.000003 0.221069
-102.889099 9.928992 -0.000011 0.186755
-102.104362 5.208151 5.198617 1.000000
-102.104362 5.208152 4.757967 1.000000
-102.104362 5.208150 4.323506 1.000000
-102.104362 5.208152 3.894190 1.000000
-102.104362 5.208152 3.469023 1.000000
-102.104362 5.208150 3.047047 1.000000
-102.104362 5.208152 2.627330 1.000000
-102.104362 5.208152 2.208961 1.000000
-102.104362 5.208152 1.791040 1.000000
-102.104362 5.208152 1.372670 1.000000
-102.104362 5.208150 0.952953 1.000000
-102.104362 5.208152 0.530977 1.000000
-102.104362 5.208152 0.105810 1.000000
-102.416328 6.958555 0.000009 0.214629
-102.720123 8.663188 0.000007 0.212707
-102.943947 9.919063 -0.000000 0.263552
-102.148399 4.936808 5.263674 1.000000
-102.148399 4.936809 4.814063 1.000000
-102.148399 4.936810 4.370764 1.000000
-102.148399 4.936810 3.932716 1.000000
-102.148399 4.936809 3.498902 1.000000
-102.148399 4.936809 3.068343 1.000000
-102.148399 4.936809 2.640089 1.000000
-102.148399 4.936808 2.213211 1.000000
-102.148399 4.936808 1.786789 1.000000
-102.148399 4.936809 1.359911 1.000000
-102.148399 4.936810 0.931657 1.000000
-102.148399 4.936809 0.501098 1.000000
-102.148399 4.936810 0.067284 1.000000
-102.491913 6.945350 0.000008 0.238178
-102.783813 8.652096 0.000013 0.220492
-102.998863 9.909496 0.000005 0.217705
-102.194267 4.654188 5.331598 1.000000
-102.194267 4.654188 4.872630 1.000000
-102.194260 4.654186 4.420105 1.000000
-102.194267 4.654186 3.972940 1.000000
-102.194267 4.654187 3.530097 1.000000
-102.194267 4.654187 3.090577 1.000000
-102.194267 4.654187 2.653411 1.000000
-102.194267 4.654187 2.217648 1.000000
-102.194267 4.654187 1.782352 1.000000
-102.194267 4.654187 1.346589 1.000000
-102.194267 4.654187 0.909422 1.000000
-102.194267 4.654187 0.469903 1.000000
-102.194267 4.654187 0.027059 1.000000
-102.567589 6.932621 -0.000002 0.226355
-102.847565 8.641372 0.000003 0.237505
-103.053833 9.900260 -0.000003 0.238658
-102.242081 4.359540 5.402578 1.000000
-102.242088 4.359540 4.933831 1.000000
-102.242081 4.359540 4.471666 1.000000
-102.242081 4.359540 4.014975 1.000000
-102.242088 4.359541 3.562696 1.000000
-102.242088 4.359540 3.113812 1.000000
-102.242088 4.359542 2.667331 1.000000
-102.242081 4.359540 2.222285 1.000000
-102.242081 4.359540 1.777715 1.000000
-102.242088 4.359542 1.332668 1.000000
-102.242088 4.359540 0.886187 1.000000
-102.242088 4.359542 0.437304 1.000000
-102.257721 4.459314 0.000006 0.227509
-102.643364 6.920512 0.000004 0.230584
-102.911400 8.631168 0.000008 0.195117
-103.108879 9.891457 0.000002 0.204056
-102.291985 4.052045 5.476823 1.000000
-102.291985 4.052046 4.997848 1.000000
-102.291985 4.052047 4.525598 1.000000
-102.291985 4.052046 4.058941 1.000000
-102.291985 4.052046 3.596795 1.000000
-102.291985 4.052045 3.138116 1.000000
-102.291985 4.052046 2.681893 1.000000
-102.291985 4.052046 2.227135 1.000000
-102.291985 4.052046 1.772865 1.000000
-102.291985 4.052046 1.318107 1.000000
-102.291985 4.052045 0.861884 1.000000
-102.291985 4.052047 0.403206 1.000000
-102.350754 4.445003 -0.000004 0.245002
-102.719208 6.908845 -0.000005 0.265763
-102.975296 8.621344 0.000000 0.243080
-103.163971 9.882986 -0.000007 0.193772
-102.344124 3.730822 5.554556 1.000000
-102.344124 3.730818 5.064872 1.000000
-102.344124 3.730820 4.582064 1.000000
-102.344124 3.730820 4.104975 1.000000
-102.344124 3.730820 3.632495 1.000000
-102.344124 3.730820 3.163561 1.000000
-102.344124 3.730817 2.697138 1.000000
-102.344124 3.730821 2.232213 1.000000
-102.344124 3.730821 1.767787 1.000000
-102.344124 3.730817 1.302861 1.000000
-102.344124 3.730820 0.836438 1.000000
-102.344124 3.730821 0.367505 1.000000
-102.443901 4.431443 0.000002 0.245194
-102.795143 6.897796 0.000001 0.227316
-103.039276 8.612029 0.000005 0.202807
-103.219131 9.874952 -0.000002 0.301999
-102.398636 3.394882 5.636027 1.000000
-102.398636 3.394883 5.135118 1.000000
-102.398636 3.394885 4.641245 1.000000
-102.398636 3.394883 4.153220 1.000000
-102.398636 3.394883 3.669912 1.000000
-102.398636 3.394883 3.190230 1.000000
-102.398636 3.394883 2.713117 1.000000
-102.398636 3.394883 2.237536 1.000000
-102.398636 3.394883 1.762464 1.000000
-102.398636 3.394883 1.286883 1.000000
-102.398636 3.394883 0.809769 1.000000
-102.398636 3.394883 0.330088 1.000000
-102.537140 4.418533 0.000007 0.223856
-102.871155 6.887264 0.000005 0.215302
-103.103310 8.603163 0.000010 0.205786
-103.274345 9.867310 0.000003 0.270088
-102.455719 3.043164 5.721506 1.000000
-102.455719 3.043169 5.208821 1.000000
-102.455719 3.043168 4.703338 1.000000
-102.455719 3.043168 4.203840 1.000000
-102.455719 3.043167 3.709170 1.000000
-102.455719 3.043169 3.218211 1.000000
-102.455719 3.043169 2.729881 1.000000
-102.455719 3.043169 2.243120 1.000000
-102.455719 3.043169 1.756880 1.000000
-102.455719 3.043169 1.270118 1.000000
-102.455719 3.043169 0.781789 1.000000
-102.455719 3.043167 0.290830 1.000000
-102.630455 4.406202 0.000002 0.214341
-102.947227 6.877213 -0.000000 0.243849
-103.167404 8.594696 0.000005 0.212707
-103.329613 9.860031 0.000004 0.307574
-102.515556 2.674499 5.811289 1.000000
-102.515556 2.674497 5.286238 1.000000
-102.515556 2.674501 4.768557 1.000000
-102.515556 2.674499 4.257010 1.000000
-102.515556 2.674499 3.750405 1.000000
-102.515556 2.674501 3.247601 1.000000
-102.515556 2.674501 2.747490 1.000000
-102.515556 2.674499 2.248986 1.000000
-102.515556 2.674499 1.751015 1.000000
-102.515556 2.674501 1.252509 1.000000
-102.515556 2.674501 0.752398 1.000000
-102.515556 2.674499 0.249595 1.000000
-102.723862 4.394597 0.000008 0.243464
-103.023376 6.867750 0.000005 0.251922
-103.231560 8.586725 0.000011 0.273260
-103.384933 9.853158 0.000010 0.264802
-102.578339 2.287583 5.905708 1.000000
-102.578346 2.287584 5.367649 1.000000
-102.578346 2.287584 4.837144 1.000000
-102.578339 2.287582 4.312923 1.000000
-102.578346 2.287583 3.793768 1.000000
-102.578346 2.287584 3.278508 1.000000
-102.578346 2.287584 2.766008 1.000000
-102.578346 2.287583 2.255154 1.000000
-102.578346 2.287584 1.744846 1.000000
-102.578346 2.287585 1.233992 1.000000
-102.578346 2.287584 0.721491 1.000000
-102.578346 2.287583 0.206232 1.000000
-102.817337 4.383551 -0.000001 0.228374
-103.099579 6.858745 -0.000004 0.206171
-103.295753 8.579107 -0.000004 0.242215
-103.440285 9.846612 0.000000 0.229912
-102.644325 1.880992 6.005123 1.000000
-102.644325 1.880991 5.453368 1.000000
-102.644325 1.880992 4.909360 1.000000
-102.644325 1.880989 4.371796 1.000000
-102.644325 1.880992 3.839426 1.000000
-102.644325 1.880993 3.311051 1.000000
-102.644325 1.880991 2.785506 1.000000
-102.644325 1.880992 2.261649 1.000000
-102.644325 1.880992 1.738352 1.000000
-102.644325 1.880991 1.214494 1.000000
-102.644325 1.880993 0.688948 1.000000
-102.644325 1.880992 0.160574 1.000000
-102.910904 4.373244 0.000004 0.215686
-103.175858 6.850347 0.000002 0.263841
-103.360016 8.572031 0.000001 0.238562
-103.495689 9.840513 0.000006 0.238178
-102.713768 1.453135 6.109938 1.000000
-102.713768 1.453137 5.543743 1.000000
-102.713768 1.453135 4.985499 1.000000
-102.713768 1.453135 4.433866 1.000000
-102.713768 1.453135 3.887565 1.000000
-102.713768 1.453135 3.345362 1.000000
-102.713768 1.453137 2.806063 1.000000
-102.713768 1.453135 2.268496 1.000000
-102.713768 1.453135 1.731504 1.000000
-102.713768 1.453137 1.193937 1.000000
-102.713768 1.453135 0.654638 1.000000
-102.713768 1.453137 0.112436 1.000000
-103.004532 4.363555 0.000003 0.231930
-103.252182 6.842400 -0.000007 0.211457
-103.424309 8.565341 -0.000007 0.199058
-103.551132 9.834743 -0.000003 0.239619
-102.786934 1.002264 6.220596 1.000000
-102.786934 1.002264 5.639158 1.000000
-102.786942 1.002266 5.065882 1.000000
-102.786942 1.002266 4.499397 1.000000
-102.786942 1.002266 3.938387 1.000000
-102.786942 1.002266 3.381585 1.000000
-102.786934 1.002262 2.827765 1.000000
-102.786942 1.002266 2.275725 1.000000
-102.786942 1.002266 1.724275 1.000000
-102.786934 1.002264 1.172234 1.000000
-102.786942 1.002266 0.618414 1.000000
-102.786942 1.002268 0.061614 1.000000
-103.098236 4.354567 0.000009 0.206747
-103.328568 6.835073 -0.000001 0.278835
-103.488670 8.559163 -0.000002 0.220204
-103.606621 9.829418 0.000003 0.192426
-102.864166 0.526413 6.337598 1.000000
-102.864166 0.526413 5.740041 1.000000
-102.864166 0.526413 5.150873 1.000000
-102.864166 0.526413 4.568685 1.000000
-102.864166 0.526413 3.992121 1.000000
-102.864166 0.526413 3.419885 1.000000
-102.864166 0.526415 2.850713 1.000000
-102.864166 0.526413 2.283368 1.000000
-102.864166 0.526413 1.716632 1.000000
-102.864166 0.526415 1.149287 1.000000
-102.864166 0.526413 0.580114 1.000000
-102.864166 0.526415 0.007879 1.000000
-103.191986 4.346242 0.000017 0.260669
-103.405006 6.828287 0.000006 0.252787
-103.553062 8.553445 0.000005 0.221357
-103.662148 9.824491 0.000011 0.286332
-102.945801 0.023405 6.461493 1.000000
-102.945801 0.023407 5.846867 1.000000
-102.945801 0.023407 5.240871 1.000000
-102.945801 0.023409 4.642053 1.000000
-102.945801 0.023409 4.049022 1.000000
-102.945801 0.023407 3.460441 1.000000
-102.945801 0.023409 2.875012 1.000000
-102.945801 0.023407 2.291462 1.000000
-102.945801 0.023407 1.708538 1.000000
-102.945801 0.023409 1.124988 1.000000
-102.945801 0.023407 0.539558 1.000000
-102.979279 0.448325 0.000012 0.231449
-103.285789 4.338460 0.000008 0.207036
-103.481483 6.821945 -0.000002 0.220588
-103.617485 8.548103 -0.000003 0.219819
-103.717690 9.819884 0.000002 0.260957
-103.032234 -0.509208 6.592906 1.000000
-103.032234 -0.509210 5.960176 1.000000
-103.032234 -0.509210 5.336331 1.000000
-103.032234 -0.509210 4.719874 1.000000
-103.032234 -0.509210 4.109376 1.000000
-103.032234 -0.509212 3.503458 1.000000
-103.032234 -0.509208 2.900785 1.000000
-103.032234 -0.509212 2.300047 1.000000
-103.032234 -0.509212 1.699953 1.000000
-103.032234 -0.509208 1.099215 1.000000
-103.032234 -0.509210 0.496541 1.000000
-103.100311 0.439261 0.000017 0.225202
-103.379662 4.331434 0.000014 0.237889
-103.557999 6.816216 0.000004 0.237985
-103.681961 8.543274 0.000002 0.194829
-103.773277 9.815725 0.000009 0.209439
-103.123924 -1.074175 6.732530 1.000000
-103.123924 -1.074177 6.080567 1.000000
-103.123924 -1.074179 5.437757 1.000000
-103.123924 -1.074177 4.802559 1.000000
-103.123924 -1.074179 4.173502 1.000000
-103.123924 -1.074179 3.549164 1.000000
-103.123924 -1.074179 2.928169 1.000000
-103.123924 -1.074179 2.309168 1.000000
-103.123924 -1.074179 1.690831 1.000000
-103.123924 -1.074179 1.071831 1.000000
-103.123924 -1.074177 0.450836 1.000000
-103.221390 0.430921 0.000009 0.231834
-103.473572 4.324963 0.000005 0.234237
-103.634552 6.810936 -0.000006 0.221357
-103.746452 8.538832 -0.000006 0.242695
-103.828896 9.811892 -0.000000 0.289792
-103.221367 -1.674609 6.881157 1.000000
-103.221367 -1.674611 6.208719 1.000000
-103.221367 -1.674611 5.545720 1.000000
-103.221367 -1.674607 4.890575 1.000000
-103.221367 -1.674613 4.241762 1.000000
-103.221367 -1.674611 3.597816 1.000000
-103.221367 -1.674607 2.957319 1.000000
-103.221367 -1.674609 2.318879 1.000000
-103.221367 -1.674609 1.681122 1.000000
-103.221367 -1.674607 1.042681 1.000000
-103.221367 -1.674611 0.402183 1.000000
-103.342537 0.423548 0.000014 0.238081
-103.567520 4.319249 0.000011 0.229047
-103.711151 6.806278 0.000000 0.276817
-103.810974 8.534904 -0.000001 0.201461
-103.884529 9.808507 0.000005 0.250192
-103.325134 -2.314004 7.039676 1.000000
-103.325134 -2.314006 6.345399 1.000000
-103.325134 -2.314008 5.660870 1.000000
-103.325134 -2.314001 4.984447 1.000000
-103.325134 -2.314004 4.314564 1.000000
-103.325134 -2.314006 3.649706 1.000000
-103.325134 -2.314004 2.988408 1.000000
-103.325134 -2.314008 2.329234 1.000000
-103.325134 -2.314008 1.670766 1.000000
-103.325134 -2.314003 1.011592 1.000000
-103.325134 -2.314006 0.350294 1.000000
-103.463730 0.417028 0.000020 0.235679
-103.661514 4.314189 0.000017 0.245002
-103.787773 6.802157 0.000006 0.197520
-103.875534 8.531429 0.000005 0.262207
-103.940193 9.805511 0.000011 0.233756
-103.435875 -2.996362 7.209099 1.000000
-103.435875 -2.996359 6.491481 1.000000
-103.435875 -2.996357 5.783939 1.000000
-103.435875 -2.996361 5.084779 1.000000
-103.435875 -2.996359 4.392374 1.000000
-103.435875 -2.996362 3.705166 1.000000
-103.435875 -2.996359 3.021636 1.000000
-103.435875 -2.996359 2.340302 1.000000
-103.435875 -2.996357 1.659698 1.000000
-103.435875 -2.996359 0.978364 1.000000
-103.435875 -2.996362 0.294834 1.000000
-103.584969 0.411235 0.000013 0.223376
-103.755531 4.309696 0.000009 0.207997
-103.864426 6.798494 -0.000001 0.241638
-103.940102 8.528345 -0.000002 0.192042
-103.995872 9.802850 0.000004 0.203479
-103.554321 -3.726225 7.390579 1.000000
-103.554321 -3.726223 6.647961 1.000000
-103.554321 -3.726219 5.915769 1.000000
-103.554321 -3.726219 5.192249 1.000000
-103.554321 -3.726221 4.475722 1.000000
-103.554321 -3.726223 3.764572 1.000000
-103.554321 -3.726219 3.057229 1.000000
-103.554321 -3.726219 2.352158 1.000000
-103.554321 -3.726219 1.647842 1.000000
-103.554321 -3.726219 0.942771 1.000000
-103.554321 -3.726223 0.235427 1.000000
-103.706238 0.406347 0.000013 0.239523
-103.849579 4.305906 0.000009 0.233564
-103.941093 6.795403 -0.000002 0.242311
-104.004700 8.525740 -0.000003 0.254037
-104.051567 9.800606 0.000003 0.221357
-103.681328 -4.508826 7.585447 1.000000
-103.681328 -4.508826 6.815983 1.000000
-103.681328 -4.508826 6.057323 1.000000
-103.681328 -4.508828 5.307649 1.000000
-103.681328 -4.508828 4.565218 1.000000
-103.681328 -4.508826 3.828361 1.000000
-103.681328 -4.508822 3.095447 1.000000
-103.681328 -4.508824 2.364888 1.000000
-103.681328 -4.508824 1.635112 1.000000
-103.681328 -4.508822 0.904552 1.000000
-103.681328 -4.508826 0.171639 1.000000
-103.827538 0.402366 0.000019 0.248750
-103.943657 4.302820 0.000015 0.229623
-104.017792 6.792885 0.000004 0.244810
-104.069313 8.523622 0.000003 0.202038
-104.107277 9.798778 0.000009 0.203383
-103.817871 -5.350169 7.795222 1.000000
-103.817871 -5.350171 6.996859 1.000000
-103.817871 -5.350167 6.209705 1.000000
-103.817871 -5.350163 5.431874 1.000000
-103.817871 -5.350169 4.661562 1.000000
-103.817871 -5.350171 3.897029 1.000000
-103.817871 -5.350169 3.136590 1.000000
-103.817871 -5.350169 2.378592 1.000000
-103.817871 -5.350169 1.621407 1.000000
-103.817871 -5.350169 0.863410 1.000000
-103.817871 -5.350171 0.102971 1.000000
-103.948868 0.399105 0.000010 0.239427
-104.037758 4.300288 0.000006 0.232603
-104.094498 6.790826 -0.000004 0.203095
-104.133942 8.521879 -0.000006 0.294406
-104.162994 9.797276 0.000000 0.212707
-103.965080 -6.257212 8.021673 1.000000
-103.965080 -6.257218 7.192115 1.000000
-103.965080 -6.257218 6.374203 1.000000
-103.965080 -6.257222 5.565979 1.000000
-103.965080 -6.257222 4.765564 1.000000
-103.965080 -6.257222 3.971157 1.000000
-103.965080 -6.257216 3.181003 1.000000
-103.965080 -6.257218 2.393387 1.000000
-103.965080 -6.257218 1.606614 1.000000
-103.965080 -6.257216 0.818997 1.000000
-103.965080 -6.257220 0.028843 1.000000
-104.070213 0.396812 0.000016 0.222703
-104.131866 4.298513 0.000012 0.237793
-104.171219 6.789377 0.000002 0.260669
-104.198578 8.520662 0.000001 0.295271
-104.218727 9.796224 0.000006 0.221838
-104.124260 -7.238081 8.266859 1.000000
-104.124260 -7.238079 7.403523 1.000000
-104.124260 -7.238083 6.552308 1.000000
-104.124260 -7.238079 5.711174 1.000000
-104.124260 -7.238083 4.878171 1.000000
-104.124260 -7.238075 4.051416 1.000000
-104.124260 -7.238081 3.229089 1.000000
-104.124260 -7.238081 2.409404 1.000000
-104.124260 -7.238081 1.590596 1.000000
-104.124260 -7.238081 0.770910 1.000000
-104.129791 -6.611120 -0.000007 0.223568
-104.191574 0.395248 0.000008 0.235294
-104.225990 4.297296 0.000004 0.227989
-104.247955 6.788381 -0.000007 0.210688
-104.263222 8.519826 -0.000008 0.224048
-104.274467 9.795508 -0.000001 0.204441
-104.296974 -8.302286 8.533195 1.000000
-104.296974 -8.302290 7.633169 1.000000
-104.296974 -8.302280 6.745776 1.000000
-104.296974 -8.302280 5.868895 1.000000
-104.296974 -8.302280 5.000490 1.000000
-104.296974 -8.302277 4.138599 1.000000
-104.296974 -8.302282 3.281325 1.000000
-104.296974 -8.302280 2.426803 1.000000
-104.296974 -8.302280 1.573197 1.000000
-104.296974 -8.302282 0.718675 1.000000
-104.300079 -6.612022 -0.000007 0.231353
-104.312950 0.394649 0.000013 0.245483
-104.320114 4.296833 0.000010 0.248078
-104.324684 6.788011 -0.000000 0.258362
-104.327866 8.519507 -0.000003 0.229912
-104.330208 9.795232 0.000004 0.236736
-104.485023 -9.461031 8.823526 1.000000
-104.485023 -9.461029 7.883501 1.000000
-104.485023 -9.461012 6.956672 1.000000
-104.485023 -9.461012 6.040823 1.000000
-104.485023 -9.461008 5.133827 1.000000
-104.485023 -9.461010 4.233636 1.000000
-104.485023 -9.461010 3.338265 1.000000
-104.485023 -9.461010 2.445770 1.000000
-104.485023 -9.461010 1.554230 1.000000
-104.485023 -9.461010 0.661735 1.000000
-104.470360 -6.611739 -0.000007 0.233756
-104.434311 0.394905 0.000020 0.242695
-104.414238 4.297028 0.000015 0.218474
-104.401421 6.788167 0.000005 0.237024
-104.392517 8.519646 0.000004 0.203095
-104.385956 9.795348 0.000010 0.221357
-104.690575 -10.727590 9.141218 1.000000
-104.690575 -10.727592 8.157429 1.000000
-104.690575 -10.727592 7.187449 1.000000
-104.690567 -10.727555 6.228956 1.000000
-104.690575 -10.727557 5.279731 1.000000
-104.690567 -10.727553 4.337628 1.000000
-104.690575 -10.727559 3.400572 1.000000
-104.690575 -10.727559 2.466524 1.000000
-104.690575 -10.727559 1.533476 1.000000
-104.690575 -10.727559 0.599427 1.000000
-104.640648 -6.610271 -0.000007 0.229143
-104.555687 0.395881 0.000011 0.219146
-104.508362 4.297786 0.000007 0.231449
-104.478149 6.788786 -0.000003 0.242407
-104.457153 8.520164 -0.000005 0.266628
-104.441696 9.795795 0.000001 0.231065
-104.916206 -12.117913 9.490316 1.000000
-104.916206 -12.117908 8.458434 1.000000
-104.916206 -12.117913 7.441040 1.000000
-104.916214 -12.117867 6.435688 1.000000
-104.916214 -12.117869 5.440062 1.000000
-104.916214 -12.117862 4.451903 1.000000
-104.916214 -12.117873 3.469038 1.000000
-104.916214 -12.117867 2.489330 1.000000
-104.916214 -12.117867 1.510670 1.000000
-104.916214 -12.117873 0.530960 1.000000
-104.810905 -6.607610 -0.000007 0.239619
-104.677032 0.397828 0.000017 0.235582
-104.602478 4.299297 0.000013 0.202230
-104.554886 6.790021 0.000003 0.226836
-104.521797 8.521203 0.000001 0.249712
-104.497429 9.796686 0.000006 0.203479
-105.165054 -13.651251 9.875710 1.000000
-105.165054 -13.651249 8.790735 1.000000
-105.165054 -13.651258 7.720994 1.000000
-105.165054 -13.651257 6.663921 1.000000
-105.165054 -13.651224 5.617062 1.000000
-105.165054 -13.651222 4.578061 1.000000
-105.165054 -13.651222 3.544625 1.000000
-105.165054 -13.651222 2.514507 1.000000
-105.165054 -13.651222 1.485492 1.000000
-105.165054 -13.651222 0.455375 1.000000
-104.981148 -6.603765 -0.000007 0.232026
-104.798378 0.400499 0.000009 0.233372
-104.696579 4.301368 0.000005 0.229623
-104.631607 6.791701 -0.000006 0.251922
-104.586433 8.522626 -0.000006 0.206459
-104.553146 9.797913 -0.000002 0.231449
-105.440910 -15.351030 10.303344 1.000000
-105.440910 -15.351030 9.159456 1.000000
-105.440910 -15.351027 8.031630 1.000000
-105.440910 -15.351027 6.917160 1.000000
-105.440910 -15.350985 5.813457 1.000000
-105.440910 -15.350977 4.718042 1.000000
-105.440910 -15.350977 3.628494 1.000000
-105.440910 -15.350981 2.542444 1.000000
-105.440910 -15.350981 1.457557 1.000000
-105.440910 -15.350977 0.371506 1.000000
-105.151360 -6.598724 -0.000007 0.230681
-104.919693 0.404138 0.000015 0.211745
-104.790672 4.304138 0.000003 0.219050
-104.708298 6.794005 0.000000 0.222414
-104.651054 8.524563 -0.000001 0.217993
-104.608864 9.799587 0.000005 0.213379
-105.748459 -17.246084 10.780531 1.000000
-105.748459 -17.246080 9.570906 1.000000
-105.748459 -17.246077 8.378262 1.000000
-105.748459 -17.246088 7.199748 1.000000
-105.748459 -17.246084 6.032619 1.000000
-105.748459 -17.246031 4.874247 1.000000
-105.748459 -17.246035 3.722083 1.000000
-105.748459 -17.246035 2.573617 1.000000
-105.748459 -17.246035 1.426382 1.000000
-105.748459 -17.246035 0.277918 1.000000
-105.321533 -6.592508 -0.000007 0.240004
-105.040985 0.408507 0.000007 0.233180
-104.884735 4.307526 -0.000005 0.255479
-104.784988 6.796771 -0.000007 0.201942
-104.715660 8.526890 -0.000009 0.241638
-104.664574 9.801595 -0.000003 0.236640
-106.093521 -19.372297 11.316380 1.000000
-106.093521 -19.372305 10.032937 1.000000
-106.093521 -19.372293 8.767509 1.000000
-106.093521 -19.372297 7.517072 1.000000
-106.093521 -19.372301 6.278720 1.000000
-106.093521 -19.372227 5.049653 1.000000
-106.093521 -19.372231 3.827176 1.000000
-106.093521 -19.372234 2.608624 1.000000
-106.093521 -19.372234 1.391377 1.000000
-106.093521 -19.372231 0.172824 1.000000
-105.491661 -6.585084 -0.000007 0.229431
-105.162239 0.413834 0.000012 0.243368
-104.978775 4.311655 -0.000000 0.228758
-104.861649 6.800136 -0.000002 0.221742
-104.780243 8.529757 0.000002 0.239715
-104.720268 9.804039 0.000002 0.240965
-106.483467 -21.775043 11.922405 1.000000
-106.483467 -21.775051 10.555473 1.000000
-106.483467 -21.775047 9.207733 1.000000
-106.483467 -21.775047 7.875955 1.000000
-106.483467 -21.775040 6.557047 1.000000
-106.483459 -21.774996 5.248033 1.000000
-106.483459 -21.774996 3.946032 1.000000
-106.483459 -21.774992 2.648214 1.000000
-106.483459 -21.774992 1.351786 1.000000
-106.483459 -21.774992 0.053966 1.000000
-105.661736 -6.576496 -0.000007 0.230969
-105.283447 0.420017 0.000018 0.219531
-105.072784 4.316450 0.000006 0.212034
-104.938286 6.804047 0.000004 0.205594
-104.844803 8.533050 0.000009 0.199731
-104.775932 9.806877 0.000007 0.226836
nan nan nan 0.000000
-106.927696 -24.512287 11.151200 1.000000
-106.927696 -24.512291 9.709617 1.000000
-106.927696 -24.512283 8.285104 1.000000
-106.927696 -24.512283 6.874360 1.000000
-106.927689 -24.512241 5.474197 1.000000
-106.927696 -24.512276 4.081539 1.000000
-106.927689 -24.512226 2.693350 1.000000
-106.927689 -24.512226 1.306649 1.000000
-106.826523 -22.855772 -0.000010 0.228950
-105.831734 -6.566702 -0.000007 0.234717
-105.404633 0.426857 0.000002 0.217320
-105.166763 4.321804 -0.000002 0.268070
-105.014900 6.808408 -0.000005 0.274606
-104.909348 8.536729 0.000001 0.231642
-104.831589 9.810023 -0.000007 0.230488
nan nan nan 0.000000
-107.438438 -27.659422 11.836615 1.000000
-107.438438 -27.659430 10.287059 1.000000
-107.438438 -27.659422 8.755854 1.000000
-107.438438 -27.659418 7.239444 1.000000
-107.438431 -27.659376 5.734411 1.000000
-107.438438 -27.659414 4.237444 1.000000
-107.438431 -27.659361 2.745281 1.000000
-107.438431 -27.659361 1.254719 1.000000
-107.110153 -22.837450 -0.000010 0.220877
-106.001671 -6.555735 -0.000007 0.234814
-105.525742 0.434734 0.000009 0.232122
-105.260689 4.327915 0.000004 0.212899
-105.091469 6.813389 0.000002 0.200211
-104.973862 8.540919 0.000006 0.224721
-104.887207 9.813643 -0.000000 0.238658
nan nan nan 0.000000
nan nan nan 0.000000
-108.031921 -31.316330 10.958472 1.000000
-108.031921 -31.316330 9.303207 1.000000
-108.031921 -31.316319 7.663941 1.000000
-108.031921 -31.316280 6.036973 1.000000
-108.031921 -31.316322 4.418721 1.000000
-108.031921 -31.316330 2.805665 1.000000
-108.031921 -31.316257 1.194336 1.000000
-107.393646 -22.817163 -0.000010 0.226836
-106.171516 -6.543576 -0.000007 0.229527
-105.646812 0.443328 0.000001 0.236544
-105.354584 4.334578 -0.000004 0.240388
-105.168015 6.818826 -0.000006 0.284602
-105.038345 8.545504 -0.000001 0.200884
-104.942810 9.817587 -0.000009 0.235582
nan nan nan 0.000000
nan nan nan 0.000000
-108.730080 -35.618240 11.748785 1.000000
-108.730080 -35.618229 9.947493 1.000000
-108.730080 -35.618233 8.163612 1.000000
-108.730072 -35.618198 6.393113 1.000000
-108.730080 -35.618233 4.632099 1.000000
-108.730080 -35.618229 2.876739 1.000000
-108.730072 -35.618153 1.123261 1.000000
-107.676987 -22.794876 -0.000010 0.229815
-106.341270 -6.530226 -0.000007 0.235006
-105.767799 0.452898 0.000007 0.220684
-105.448418 4.342001 0.000003 0.245483
-105.244514 6.824872 -0.000000 0.213668
