# This PCD file was generated using the MATLABÂ® pcwrite function
# from Computer Vision ToolboxÂ®.
# .PCD v.7 - Point Cloud Data file format
VERSION .7
FIELDS x y z intensity
SIZE 4 4 4 4
TYPE F F F F
COUNT 1 1 1 1
WIDTH 1154
HEIGHT 1
VIEWPOINT 0 0 0 1 0 0 0
POINTS 1154
DATA ascii
310.305511 -486.910706 5.712967 0.584681
310.294556 -486.897003 4.881577 0.520833
310.283661 -486.883423 4.055273 0.560172
310.272827 -486.869873 3.232253 0.528922
310.261963 -486.856354 2.410741 0.585172
310.251160 -486.842804 1.588975 0.544853
310.240295 -486.829254 0.765191 0.557966
310.701630 -487.405121 -0.000463 0.234333
315.083374 -492.874512 -0.000455 0.224433
317.524139 -495.921112 -0.000368 0.275279
319.081818 -497.865479 -0.000431 0.222222
320.165100 -499.217621 -0.000279 0.241349
320.962860 -500.213440 -0.000257 0.196463
310.528412 -486.910950 8.235078 0.513726
310.517273 -486.896851 7.380000 0.646078
310.506287 -486.882935 6.535717 0.546324
310.495392 -486.869171 5.700252 0.513848
310.484619 -486.855499 4.871703 0.576593
310.473877 -486.841919 4.048225 0.566912
310.463196 -486.828400 3.228024 0.464583
310.452545 -486.814911 2.409331 0.481373
310.441895 -486.801392 1.590388 0.611274
310.431183 -486.787842 0.769437 0.512132
310.834656 -487.298767 -0.000496 0.222607
315.178223 -492.798737 -0.000486 0.221069
317.597687 -495.862366 -0.000399 0.237313
319.141937 -497.817780 -0.000412 0.232507
320.215576 -499.177246 -0.000317 0.211842
321.006592 -500.178864 -0.000219 0.250865
310.716461 -486.869659 8.214151 0.568750
310.705505 -486.855591 7.361924 0.648039
310.694702 -486.841675 6.520468 0.458701
310.683990 -486.827942 5.687804 0.541176
310.673370 -486.814270 4.862035 0.563971
310.662811 -486.800720 4.041325 0.500858
310.652283 -486.787231 3.223885 0.597181
310.641785 -486.773743 2.407949 0.550613
310.631287 -486.760254 1.591771 0.534314
310.620789 -486.746735 0.773594 0.537377
310.969666 -487.194916 -0.000365 0.234429
315.274445 -492.724731 -0.000358 0.217993
317.671875 -495.804382 -0.000373 0.218089
319.202820 -497.770996 -0.000274 0.254806
320.266968 -499.137970 -0.000141 0.243945
321.050720 -500.144775 -0.000118 0.259516
310.903290 -486.828644 8.193659 0.564338
310.892517 -486.814606 7.344229 0.602819
310.881866 -486.800720 6.505540 0.548529
310.871338 -486.786957 5.675616 0.571078
310.860870 -486.773346 4.852570 0.563358
310.850494 -486.759796 4.034570 0.549142
310.840149 -486.746307 3.219831 0.578676
310.829803 -486.732849 2.406597 0.507230
310.819489 -486.719360 1.593124 0.582721
310.809113 -486.705872 0.777664 0.596814
311.103210 -487.089172 -0.000529 0.228470
315.369659 -492.649384 -0.000514 0.205786
317.745697 -495.745972 -0.000533 0.203479
319.263184 -497.723602 -0.000384 0.209919
320.317688 -499.097870 -0.000304 0.203672
321.094238 -500.109894 -0.000363 0.238850
311.088928 -486.787933 8.173595 0.603064
311.078339 -486.773895 7.326908 0.546324
311.067841 -486.760010 6.490927 0.579657
311.057465 -486.746307 5.663687 0.624877
311.047150 -486.732697 4.843306 0.602941
311.036926 -486.719147 4.027957 0.632108
311.026733 -486.705688 3.215864 0.512868
311.016571 -486.692230 2.405274 0.488603
311.006409 -486.678802 1.594449 0.594118
310.996185 -486.665314 0.781648 0.531495
311.237885 -486.984863 -0.000644 0.222703
315.466370 -492.576019 -0.000490 0.214725
317.820465 -495.688751 -0.000568 0.225106
319.324066 -497.676910 -0.000423 0.278547
320.369049 -499.058624 -0.000324 0.249423
321.138641 -500.076202 -0.000342 0.213860
311.273376 -486.747467 8.153961 0.576593
311.262939 -486.733429 7.309957 0.655392
311.252594 -486.719574 6.476624 0.535907
311.242401 -486.705872 5.652012 0.626471
311.232269 -486.692291 4.834237 0.560417
311.222168 -486.678741 4.021485 0.582721
311.212158 -486.665314 3.211981 0.558456
311.202148 -486.651886 2.403980 0.553186
311.192139 -486.638428 1.595746 0.533824
311.182068 -486.624969 0.785546 0.573529
311.375061 -486.883911 -0.000507 0.222991
315.564117 -492.504059 -0.000356 0.218570
317.896484 -495.633209 -0.000381 0.214052
319.385925 -497.631409 -0.000291 0.205113
320.420776 -499.019836 -0.000312 0.206651
321.183502 -500.043091 -0.000223 0.199250
311.456665 -486.707245 8.134748 0.547549
311.446381 -486.693237 7.293368 0.656250
311.436218 -486.679413 6.462628 0.582598
311.426147 -486.665710 5.640586 0.605515
311.416168 -486.652130 4.825365 0.557721
311.406250 -486.638641 4.015152 0.605025
311.396393 -486.625183 3.208182 0.537745
311.386505 -486.611755 2.402712 0.537010
311.376648 -486.598358 1.597015 0.611765
311.366760 -486.584900 0.789361 0.524632
311.511719 -486.782227 -0.000545 0.227509
315.661499 -492.431519 -0.000400 0.228854
317.972046 -495.576996 -0.000420 0.209150
319.447113 -497.585052 -0.000447 0.242695
320.472656 -498.981232 -0.000356 0.253845
321.228363 -500.010010 -0.000205 0.227413
311.638824 -486.667297 8.115952 0.531740
311.628662 -486.653320 7.277136 0.597794
311.618683 -486.639496 6.448936 0.463113
311.608765 -486.625824 5.629408 0.529779
311.598969 -486.612244 4.816684 0.538358
311.589203 -486.598755 4.008957 0.520221
311.579468 -486.585297 3.204465 0.565196
311.569794 -486.571930 2.401472 0.546691
311.560059 -486.558533 1.598257 0.500613
311.550354 -486.545074 0.793094 0.579902
311.649445 -486.681976 -0.000531 0.234525
315.759674 -492.360107 -0.000386 0.234717
318.048126 -495.521545 -0.000415 0.209054
319.509186 -497.539917 -0.000428 0.195790
320.525085 -498.943359 -0.000288 0.215494
321.273407 -499.977173 -0.000193 0.236063
311.819885 -486.627594 8.097565 0.466544
311.809875 -486.613617 7.261260 0.682598
311.800049 -486.599792 6.435542 0.499387
311.790314 -486.586151 5.618474 0.564828
311.780640 -486.572571 4.808192 0.508088
311.771027 -486.559113 4.002896 0.459436
311.761475 -486.545715 3.200829 0.488603
311.751892 -486.532318 2.400259 0.483824
311.742340 -486.518890 1.599471 0.642279
311.732788 -486.505493 0.796744 0.552328
311.787964 -486.582855 -0.000508 0.232122
315.857727 -492.288544 -0.000488 0.231161
318.124878 -495.467072 -0.000334 0.233468
319.571716 -497.495453 -0.000362 0.208189
320.577637 -498.905762 -0.000257 0.260669
321.318176 -499.943970 -0.000412 0.211265
311.999847 -486.588135 8.079581 0.543505
311.990021 -486.574158 7.245733 0.575490
311.980316 -486.560364 6.422442 0.539461
311.970764 -486.546722 5.607780 0.509436
311.961212 -486.533173 4.799887 0.516667
311.951782 -486.519714 3.996969 0.481863
311.942352 -486.506317 3.197273 0.566422
311.932953 -486.492920 2.399073 0.557476
311.923553 -486.479553 1.600659 0.545956
311.914124 -486.466156 0.800315 0.511397
311.925812 -486.482758 -0.000675 0.216936
315.955994 -492.217224 -0.000652 0.230200
318.201141 -495.411774 -0.000491 0.225875
319.633850 -497.450378 -0.000521 0.217993
320.629822 -498.867523 -0.000486 0.217224
321.363373 -499.911285 -0.000555 0.241830
312.178802 -486.548920 8.061997 0.608578
312.169128 -486.534943 7.230550 0.560907
312.159576 -486.521149 6.409634 0.578064
312.150116 -486.507507 5.597323 0.604902
312.140778 -486.493988 4.791767 0.576471
312.131439 -486.480560 3.991173 0.470466
312.122192 -486.467163 3.193795 0.563725
312.112946 -486.453796 2.397914 0.535784
312.103668 -486.440430 1.601820 0.583701
312.094391 -486.427032 0.803806 0.577083
312.068848 -486.390167 -0.000190 0.230873
316.056244 -492.148773 -0.000511 0.225010
318.278809 -495.358612 -0.000366 0.228566
319.697205 -497.407013 -0.000396 0.245579
320.683167 -498.831024 -0.000358 0.225779
321.409485 -499.879944 -0.000385 0.219627
312.356720 -486.509888 8.044807 0.612010
312.347198 -486.495972 7.215706 0.598774
312.337769 -486.482178 6.397112 0.537623
312.328491 -486.468567 5.587100 0.600368
312.319275 -486.455048 4.783828 0.653554
312.310120 -486.441620 3.985507 0.618750
312.300995 -486.428223 3.190397 0.605515
312.291870 -486.414886 2.396780 0.622672
312.282776 -486.401520 1.602956 0.512745
312.273651 -486.388123 0.807219 0.634069
312.208954 -486.293304 -0.000228 0.232315
316.156097 -492.079681 -0.000557 0.221549
318.356262 -495.305054 -0.000407 0.210688
319.760529 -497.363708 -0.000367 0.243176
320.736359 -498.794250 -0.000397 0.233180
321.455353 -499.848236 -0.000416 0.200308
312.533630 -486.471130 8.028006 0.559804
312.524231 -486.457214 7.201200 0.617525
312.514984 -486.443420 6.384873 0.613971
312.505859 -486.429810 5.577111 0.647426
312.496796 -486.416290 4.776070 0.570098
312.487762 -486.402863 3.979970 0.773162
312.478790 -486.389526 3.187074 0.552696
312.469818 -486.376190 2.395672 0.482843
312.460846 -486.362854 1.604065 0.566789
312.451843 -486.349457 0.810554 0.586275
312.350494 -486.198578 -0.000154 0.233948
316.256989 -492.012177 -0.000480 0.222414
318.434082 -495.252075 -0.000446 0.238658
319.824280 -497.320984 -0.000297 0.234814
320.789825 -498.757843 -0.000435 0.261438
321.501678 -499.817200 -0.000349 0.247885
312.709564 -486.432556 8.011587 0.667402
312.700348 -486.418640 7.187024 0.583701
312.691254 -486.404877 6.372913 0.632843
312.682251 -486.391266 5.567348 0.653064
312.673309 -486.377808 4.768487 0.647304
312.664459 -486.364380 3.974559 0.579534
312.655609 -486.351044 3.183828 0.518995
312.646790 -486.337708 2.394589 0.520956
312.637939 -486.324371 1.605149 0.521201
312.629120 -486.311005 0.813814 0.559436
312.491882 -486.103699 -0.000192 0.219146
316.359436 -491.946991 -0.000177 0.240388
318.512207 -495.199554 -0.000494 0.242407
319.888000 -497.278198 -0.000341 0.272491
320.843506 -498.721802 -0.000482 0.187043
321.548126 -499.786346 -0.000322 0.217128
312.884552 -486.394196 7.995550 0.657108
312.875519 -486.380310 7.173176 0.615686
312.866547 -486.366547 6.361230 0.568015
312.857666 -486.352966 5.557811 0.586397
312.848907 -486.339478 4.761081 0.567157
312.840179 -486.326111 3.969273 0.556740
312.831482 -486.312744 3.180656 0.573407
312.822784 -486.299408 2.393531 0.543260
312.814117 -486.286102 1.606208 0.608946
312.805389 -486.272766 0.816998 0.507475
312.633942 -486.009766 -0.000237 0.228278
316.460724 -491.880066 -0.000217 0.228566
318.590759 -495.147644 -0.000533 0.245194
319.951874 -497.235626 -0.000437 0.221838
320.897552 -498.686310 -0.000472 0.205978
321.594604 -499.755615 -0.000367 0.193387
313.058655 -486.356079 7.979882 0.520956
313.049713 -486.342163 7.159649 0.634436
313.040924 -486.328430 6.349820 0.531127
313.032196 -486.314880 5.548495 0.560662
313.023529 -486.301361 4.753847 0.535294
313.014954 -486.287994 3.964110 0.513848
313.006409 -486.274658 3.177559 0.596201
312.997833 -486.261353 2.392498 0.577819
312.989288 -486.248047 1.607243 0.493873
312.980743 -486.234711 0.820106 0.487255
312.777466 -485.918091 -0.000155 0.242503
316.562958 -491.814697 -0.000143 0.241061
318.670288 -495.097229 -0.000402 0.219243
320.016571 -497.194275 -0.000360 0.243560
320.952057 -498.651489 -0.000394 0.242503
321.641663 -499.725739 -0.000250 0.191273
313.231842 -486.318146 7.964592 0.534436
313.223053 -486.304230 7.146445 0.574020
313.214386 -486.290527 6.338679 0.597181
313.205811 -486.276947 5.539402 0.593995
313.197296 -486.263489 4.746786 0.604534
313.188843 -486.250122 3.959070 0.452328
313.180420 -486.236786 3.174536 0.494118
313.172028 -486.223511 2.391490 0.482230
313.163605 -486.210175 1.608253 0.631863
313.155151 -486.196838 0.823143 0.473775
312.920807 -485.826141 -0.000199 0.223183
316.665131 -491.749146 -0.000186 0.227797
318.749542 -495.046417 -0.000449 0.227124
320.081116 -497.152802 -0.000415 0.220300
321.006470 -498.616547 -0.000447 0.220588
321.688629 -499.695679 -0.000273 0.237889
313.404175 -486.280426 7.949661 0.535907
313.395508 -486.266510 7.133554 0.579534
313.386993 -486.252808 6.327807 0.533701
313.378540 -486.239227 5.530524 0.587868
313.370178 -486.225769 4.739892 0.561765
313.361847 -486.212402 3.954150 0.515319
313.353546 -486.199097 3.171584 0.570343
313.345276 -486.185791 2.390505 0.523652
313.337006 -486.172516 1.609239 0.515931
313.328705 -486.159180 0.826106 0.503799
313.063568 -485.733185 -0.000434 0.224625
316.767487 -491.683868 -0.000289 0.221165
318.828918 -494.995789 -0.000546 0.253364
320.145844 -497.111542 -0.000516 0.264225
321.061157 -498.582092 -0.000473 0.232699
321.735382 -499.665283 -0.000503 0.207709
313.575623 -486.242828 7.935097 0.503922
313.567139 -486.228973 7.120977 0.607353
313.558746 -486.215271 6.317196 0.612745
313.550415 -486.201721 5.521863 0.670588
313.542206 -486.188263 4.733166 0.624020
313.533997 -486.174896 3.949350 0.517157
313.525848 -486.161591 3.168704 0.570588
313.517700 -486.148315 2.389545 0.474020
313.509552 -486.135040 1.610200 0.509559
313.501404 -486.121674 0.828997 0.604412
313.209351 -485.645142 -0.000294 0.223952
316.871735 -491.621643 -0.000082 0.215782
318.909546 -494.947113 -0.000412 0.217224
320.211212 -497.071320 -0.000495 0.207901
321.116516 -498.548615 -0.000339 0.190311
321.783112 -499.636414 -0.000375 0.245675
313.746277 -486.205475 7.920885 0.558088
313.737915 -486.191589 7.108711 0.607476
313.729645 -486.177917 6.306847 0.523162
313.721466 -486.164368 5.513415 0.669730
313.713348 -486.150940 4.726604 0.607966
313.705322 -486.137573 3.944668 0.597181
313.697296 -486.124268 3.165895 0.540196
313.689270 -486.110992 2.388608 0.555760
313.681274 -486.097717 1.611138 0.555392
313.673218 -486.084412 0.831817 0.591789
313.354218 -485.555542 -0.000400 0.220588
316.974945 -491.557770 -0.000189 0.207228
318.989624 -494.897614 -0.000515 0.240484
320.276489 -497.030914 -0.000603 0.197040
321.171509 -498.514618 -0.000445 0.227893
321.830536 -499.607086 -0.000479 0.201749
313.916138 -486.168304 7.907030 0.609926
313.907867 -486.154449 7.096746 0.543382
313.899750 -486.140747 6.296754 0.594363
313.891724 -486.127197 5.505177 0.586029
313.883759 -486.113800 4.720207 0.566299
313.875824 -486.100433 3.940102 0.658946
313.867920 -486.087128 3.163156 0.584559
313.860046 -486.073853 2.387695 0.537500
313.852173 -486.060577 1.612053 0.542647
313.844269 -486.047302 0.834567 0.640319
313.501282 -485.469635 -0.000254 0.231257
317.079742 -491.496521 -0.000046 0.216936
319.071686 -494.851379 -0.000143 0.230200
320.342773 -496.992188 -0.000461 0.223856
321.227020 -498.481476 -0.000426 0.214629
321.878754 -499.579132 -0.000283 0.240292
314.085175 -486.131287 7.893526 0.604902
314.077087 -486.117462 7.085087 0.559314
314.069092 -486.103760 6.286918 0.570098
314.061188 -486.090210 5.497146 0.696324
314.053345 -486.076813 4.713972 0.555147
314.045532 -486.063446 3.935651 0.637990
314.037781 -486.050171 3.160485 0.534926
314.030029 -486.036896 2.386804 0.505147
314.022278 -486.023621 1.612945 0.524265
314.014496 -486.010345 0.837248 0.576226
314.018951 -486.017975 0.060029 1.000000
317.183868 -491.434174 -0.000147 0.212130
319.152435 -494.803009 -0.000247 0.239908
320.408752 -496.952972 -0.000508 0.217032
321.282532 -498.448273 -0.000528 0.315456
321.926605 -499.550507 -0.000375 0.209054
314.253448 -486.094482 7.880367 0.557108
314.245483 -486.080627 7.073724 0.545588
314.237640 -486.066925 6.277332 0.522059
314.229858 -486.053406 5.489323 0.610172
314.222137 -486.039978 4.707895 0.541176
314.214478 -486.026642 3.931314 0.618137
314.206848 -486.013367 3.157884 0.650858
314.199219 -486.000122 2.385936 0.543750
314.191589 -485.986877 1.613814 0.609191
314.183960 -485.973541 0.839859 0.548774
314.181091 -485.968597 0.063195 1.000000
317.288635 -491.372894 -0.000197 0.227893
319.233734 -494.755554 -0.000292 0.191945
320.475037 -496.914276 -0.000554 0.213091
321.338348 -498.415619 -0.000582 0.205978
321.974762 -499.522430 -0.000419 0.207324
314.421021 -486.057800 7.867548 0.616299
314.413177 -486.043945 7.062657 0.589828
314.405487 -486.030273 6.267996 0.527696
314.397797 -486.016754 5.481701 0.498284
314.390198 -486.003357 4.701978 0.479779
314.382660 -485.989990 3.927091 0.597917
314.375153 -485.976715 3.155351 0.635907
314.367676 -485.963470 2.385091 0.581250
314.360168 -485.950226 1.614660 0.494118
314.352631 -485.936951 0.842403 0.493015
314.342590 -485.919159 0.066235 1.000000
317.394958 -491.314270 0.000003 0.216840
319.316162 -494.710083 -0.000090 0.230200
320.542267 -496.877228 -0.000353 0.246348
321.395081 -498.384644 -0.000326 0.237985
322.023651 -499.495636 -0.000178 0.232699
314.587860 -486.021301 7.855071 0.483578
314.580170 -486.007446 7.051884 0.457475
314.572540 -485.993774 6.258909 0.446569
314.565033 -485.980255 5.474282 0.601471
314.557587 -485.966858 4.696217 0.504412
314.550171 -485.953522 3.922979 0.459804
314.542755 -485.940277 3.152884 0.539706
314.535400 -485.927032 2.384269 0.485172
314.528015 -485.913788 1.615484 0.633578
314.520630 -485.900482 0.844879 0.481373
314.503479 -485.869659 0.069151 1.000000
317.499542 -491.252625 -0.000297 0.237697
319.397278 -494.662262 -0.000390 0.204729
320.608765 -496.838867 -0.000512 0.223664
321.451111 -498.352356 -0.000481 0.192138
322.071991 -499.467834 -0.000325 0.201749
314.753998 -485.984955 7.842929 0.526593
314.746429 -485.971100 7.041400 0.661520
314.738953 -485.957428 6.250065 0.478186
314.731537 -485.943939 5.467063 0.561887
314.724213 -485.930542 4.690610 0.546814
314.716919 -485.917206 3.918978 0.570588
314.709656 -485.903931 3.150484 0.585417
314.702423 -485.890686 2.383468 0.527083
314.695129 -485.877441 1.616285 0.518137
314.687897 -485.864197 0.847289 0.508088
314.680573 -485.850830 0.074817 0.487623
317.605835 -491.194000 -0.000293 0.234045
319.479736 -494.616791 -0.000386 0.215879
320.676880 -496.803497 -0.000159 0.235967
321.507721 -498.321075 -0.000485 0.233372
322.120789 -499.440887 -0.000327 0.266148
314.919464 -485.948730 7.831120 0.709681
314.912018 -485.934937 7.031204 0.666544
314.904694 -485.921265 6.241463 0.608088
314.897400 -485.907745 5.460042 0.658578
314.890198 -485.894348 4.685158 0.615319
314.882996 -485.881042 3.915087 0.553922
314.875885 -485.867767 3.148149 0.590931
314.868744 -485.854523 2.382689 0.476225
314.861633 -485.841309 1.617065 0.512745
314.854462 -485.828003 0.849633 0.603676
314.847290 -485.814697 0.078734 0.543505
317.712646 -491.136353 -0.000256 0.226932
319.562561 -494.572083 -0.000347 0.231642
320.744385 -496.766998 -0.000131 0.190792
321.564606 -498.290344 -0.000454 0.241349
322.169403 -499.413605 -0.000523 0.220684
315.084290 -485.912720 7.819638 0.255392
315.076965 -485.898865 7.021292 0.324510
315.069733 -485.885254 6.233100 0.411520
315.062561 -485.871735 5.453215 0.419975
315.084442 -485.912994 4.672741 1.000000
315.051941 -485.851624 3.910689 1.000000
315.041412 -485.831726 3.145880 0.603064
315.034393 -485.818512 2.381932 0.604167
315.027405 -485.805267 1.617822 0.511887
315.020386 -485.791992 0.851911 0.614216
315.013306 -485.778656 0.082541 0.579779
317.819763 -491.079193 -0.000253 0.225106
319.645630 -494.527710 -0.000352 0.235582
320.812103 -496.730896 -0.000126 0.225394
321.621826 -498.260162 -0.000391 0.201077
322.218597 -499.387329 -0.000524 0.229239
315.248444 -485.876801 7.808488 0.517402
315.241241 -485.862976 7.011666 0.541789
315.234131 -485.849335 6.224979 0.593137
315.227112 -485.835815 5.446584 0.459559
315.220154 -485.822418 4.674708 0.521691
315.213226 -485.809113 3.907628 0.235417
315.206329 -485.795868 3.143675 0.227696
315.199432 -485.782623 2.381197 0.216176
315.192566 -485.769409 1.618559 0.198162
315.185638 -485.756134 0.854125 0.199877
315.178680 -485.742798 0.086240 0.213113
317.926788 -491.021942 -0.000359 0.205210
319.728668 -494.483337 -0.000451 0.227316
320.879791 -496.694702 -0.000226 0.227220
321.678833 -498.229675 -0.000493 0.229719
322.267761 -499.361053 -0.000629 0.246251
315.411987 -485.841034 7.797659 0.608211
315.404907 -485.827209 7.002313 0.563848
315.397949 -485.813568 6.217091 0.614951
315.391022 -485.800079 5.440146 0.597917
315.384186 -485.786652 4.669708 0.552083
315.377380 -485.773376 3.904060 0.601961
315.370575 -485.760101 3.141534 0.632108
315.363800 -485.746887 2.380483 0.512377
315.357056 -485.733643 1.619274 0.568015
315.350250 -485.720367 0.856273 0.554412
315.343445 -485.707062 0.089832 0.622549
318.035248 -490.967438 -0.000211 0.226644
319.812744 -494.441040 -0.000308 0.204921
320.948334 -496.660217 -0.000086 0.238947
321.736603 -498.200592 -0.000359 0.206459
322.317688 -499.336212 -0.000423 0.195213
315.574951 -485.805420 7.787150 0.588726
315.568024 -485.791595 6.993238 0.660784
315.561127 -485.777954 6.209436 0.672672
315.554352 -485.764435 5.433897 0.641912
315.547638 -485.751068 4.664855 0.571078
315.540924 -485.737732 3.900598 0.653186
315.534241 -485.724518 3.139457 0.648162
315.527618 -485.711273 2.379790 0.527819
315.520935 -485.698059 1.619968 0.627328
315.514282 -485.684784 0.858359 0.549142
315.507599 -485.671448 0.093318 0.573775
318.143097 -490.911682 -0.000318 0.231642
319.896576 -494.398193 -0.000348 0.235679
321.016174 -496.624298 -0.000333 0.219435
321.794037 -498.170898 -0.000459 0.289216
322.367249 -499.310638 -0.000518 0.210977
315.737305 -485.769928 7.776958 0.559926
315.730499 -485.756134 6.984439 0.586029
315.723755 -485.742462 6.202013 0.583701
315.717102 -485.728943 5.427838 0.594363
315.710449 -485.715576 4.660149 0.530147
315.703888 -485.702271 3.897238 0.558211
315.697327 -485.689026 3.137442 0.609559
315.690796 -485.675781 2.379118 0.534436
315.684265 -485.662567 1.620640 0.524510
315.677734 -485.649323 0.860382 0.517892
315.671143 -485.635956 0.096698 0.523039
318.251923 -490.857941 -0.000261 0.233660
319.980835 -494.356171 -0.000351 0.238658
321.084869 -496.590027 -0.000332 0.211745
321.852173 -498.142639 -0.000320 0.214245
322.417145 -499.285736 -0.000521 0.204825
315.899139 -485.734558 7.767080 0.581127
315.892456 -485.720764 6.975912 0.498652
315.885834 -485.707123 6.194818 0.540074
315.879272 -485.693604 5.421965 0.567402
315.872742 -485.680206 4.655588 0.578922
315.866302 -485.666901 3.893985 0.594730
315.859863 -485.653656 3.135489 0.583824
315.853455 -485.640411 2.378467 0.511152
315.847015 -485.627197 1.621293 0.633211
315.840576 -485.613953 0.862341 0.574510
315.834106 -485.600616 0.099973 0.591912
318.361328 -490.805328 -0.000161 0.228662
320.065674 -494.315369 -0.000249 0.231065
321.154022 -496.556763 -0.000233 0.257593
321.910461 -498.114624 -0.000219 0.239139
322.467377 -499.261536 -0.000426 0.214533
316.060425 -485.699341 7.757514 0.585539
316.053833 -485.685516 6.967652 0.563235
316.047302 -485.671875 6.187851 0.545343
316.040894 -485.658386 5.416279 0.541912
316.034515 -485.644958 4.651174 0.525858
316.028137 -485.631653 3.890833 0.522917
316.021820 -485.618408 3.133599 0.626225
316.015503 -485.605194 2.377836 0.508578
316.009186 -485.591980 1.621924 0.640809
316.002869 -485.578705 0.864239 0.535294
315.996552 -485.565369 0.103144 0.507230
318.470459 -490.752228 -0.000220 0.221934
320.150330 -494.274231 -0.000307 0.225971
321.223022 -496.523163 -0.000300 0.217224
321.968597 -498.086334 -0.000278 0.223280
322.517609 -499.237366 -0.000429 0.232891
316.221161 -485.664215 7.748256 0.534926
316.214691 -485.650391 6.959662 0.631373
316.208282 -485.636749 6.181110 0.553064
316.201996 -485.623260 5.410775 0.635784
316.195709 -485.609833 4.646899 0.453554
316.189453 -485.596558 3.887784 0.605760
316.183258 -485.583282 3.131770 0.625000
316.177063 -485.570068 2.377226 0.537500
316.170868 -485.556824 1.622535 0.548407
316.164642 -485.543579 0.866075 0.586397
316.158386 -485.530243 0.106213 0.539461
318.580597 -490.701141 -0.000120 0.215975
320.235748 -494.234589 -0.000205 0.195117
321.292664 -496.490875 -0.000195 0.230873
322.027222 -498.059113 -0.000182 0.230969
322.568146 -499.213867 -0.000338 0.189831
316.381409 -485.629242 7.739312 0.663113
316.375061 -485.615387 6.951937 0.565319
316.368774 -485.601746 6.174594 0.569730
316.362579 -485.588226 5.405457 0.558824
316.356415 -485.574860 4.642769 0.544853
316.350281 -485.561554 3.884835 0.584559
316.344177 -485.548279 3.130002 0.600490
316.338104 -485.535034 2.376636 0.492157
316.332031 -485.521820 1.623125 0.531495
316.325928 -485.508545 0.867850 0.598897
316.319763 -485.495239 0.109180 0.584314
318.690643 -490.649963 -0.000132 0.234910
320.321136 -494.194946 -0.000209 0.228470
321.362396 -496.458862 -0.000138 0.272876
322.085846 -498.031738 -0.000216 0.207420
322.618744 -499.190460 -0.000327 0.237024
316.541168 -485.594330 7.730669 0.638603
316.534943 -485.580475 6.944477 0.538725
316.528748 -485.566833 6.168300 0.617279
316.522675 -485.553345 5.400318 0.690319
316.516602 -485.539948 4.638780 0.597181
316.510590 -485.526642 3.881989 0.680882
316.504608 -485.513367 3.128294 0.586520
316.498657 -485.500153 2.376067 0.491422
316.492645 -485.486908 1.623696 0.631005
316.486694 -485.473633 0.869565 0.562010
316.480682 -485.460297 0.112045 0.542770
318.800720 -490.598785 -0.000234 0.217609
320.406677 -494.155640 -0.000252 0.204441
321.431976 -496.426544 -0.000237 0.219915
322.144440 -498.004456 -0.000324 0.224433
322.669342 -499.166931 -0.000427 0.216551
316.700439 -485.559570 7.722329 0.569363
316.694305 -485.545715 6.937275 0.540931
316.688263 -485.532074 6.162226 0.646324
316.682281 -485.518524 5.395361 0.535907
316.676331 -485.505157 4.634931 0.559314
316.670441 -485.491821 3.879241 0.532353
316.664581 -485.478577 3.126645 0.657843
316.658722 -485.465332 2.375516 0.534926
316.652832 -485.452087 1.624246 0.535049
316.646973 -485.438843 0.871219 0.596446
316.641083 -485.425507 0.114810 0.540196
318.912048 -490.550385 -0.000088 0.215110
320.493011 -494.118103 -0.000107 0.211361
321.502380 -496.395905 -0.000095 0.273741
322.203766 -497.978699 -0.000174 0.206267
322.720642 -499.145142 -0.000160 0.238274
316.859283 -485.524902 7.714290 0.569240
316.853241 -485.511047 6.930337 0.535662
316.847321 -485.497375 6.156372 0.564461
316.841461 -485.483856 5.390582 0.581985
316.835632 -485.470459 4.631220 0.545833
316.829834 -485.457153 3.876593 0.560662
316.824097 -485.443909 3.125056 0.647794
316.818298 -485.430634 2.374987 0.609069
316.812561 -485.417419 1.624777 0.654779
316.806793 -485.404114 0.872814 0.647549
316.800995 -485.390808 0.117475 0.533456
319.022827 -490.500763 -0.000193 0.227413
320.578888 -494.079620 -0.000211 0.220396
321.572388 -496.364563 -0.000198 0.230392
322.262756 -497.952271 -0.000277 0.268551
322.771515 -499.122375 -0.000262 0.272395
317.017700 -485.490326 7.706549 0.615931
317.011780 -485.476440 6.923655 0.658578
317.005920 -485.462799 6.150736 0.660662
317.000183 -485.449280 5.385983 0.639583
316.994446 -485.435852 4.627646 0.556127
316.988770 -485.422546 3.874043 0.555147
316.983124 -485.409271 3.123527 0.668750
316.977478 -485.396027 2.374477 0.561275
316.971832 -485.382782 1.625287 0.607721
316.966187 -485.369537 0.874350 0.561397
316.960480 -485.356171 0.120041 0.585049
319.133972 -490.451965 -0.000294 0.227989
320.665100 -494.041748 -0.000313 0.239619
321.642670 -496.333649 -0.000305 0.210880
322.321960 -497.926270 -0.000380 0.226259
322.822601 -499.099976 -0.000357 0.243752
317.175659 -485.455811 7.699109 0.486765
317.169891 -485.441956 6.917229 0.568750
317.164154 -485.428314 6.145316 0.512132
317.158508 -485.414795 5.381557 0.668995
317.152893 -485.401367 4.624210 0.479412
317.147308 -485.388062 3.871592 0.534559
317.141754 -485.374786 3.122056 0.601348
317.136230 -485.361542 2.373986 0.604902
317.130676 -485.348267 1.625779 0.564461
317.125122 -485.335022 0.875826 0.494363
317.119537 -485.321655 0.122508 0.573039
319.246368 -490.406128 -0.000119 0.230104
320.752350 -494.006348 -0.000115 0.213956
321.713776 -496.304779 -0.000109 0.225106
322.381989 -497.902222 -0.000121 0.241830
322.874237 -499.078979 -0.000169 0.254902
317.333221 -485.421448 7.691964 0.575123
317.327545 -485.407593 6.911059 0.467402
317.321930 -485.393890 6.140111 0.562132
317.316406 -485.380371 5.377308 0.661397
317.310883 -485.366974 4.620911 0.577941
317.305450 -485.353638 3.869236 0.466789
317.299988 -485.340363 3.120643 0.575245
317.294556 -485.327118 2.373515 0.460049
317.289124 -485.313843 1.626250 0.639583
317.283661 -485.300568 0.877244 0.530760
317.278198 -485.287201 0.124878 0.505270
319.358185 -490.358856 -0.000220 0.225682
320.839050 -493.969666 -0.000218 0.229431
321.784607 -496.275269 -0.000139 0.236640
322.441559 -497.877045 -0.000221 0.215975
322.925690 -499.057526 -0.000209 0.198866
317.490417 -485.387146 7.685112 0.528676
317.484863 -485.373291 6.905142 0.589216
317.479340 -485.359589 6.135120 0.551593
317.473938 -485.346069 5.373234 0.587010
317.468536 -485.332642 4.617748 0.589461
317.463135 -485.319305 3.866979 0.618995
317.457794 -485.306030 3.119289 0.601593
317.452515 -485.292786 2.373064 0.504534
317.447174 -485.279510 1.626702 0.545956
317.441833 -485.266235 0.878603 0.578431
317.436432 -485.252899 0.127150 0.509926
319.470581 -490.313049 -0.000236 0.215494
320.926239 -493.934204 -0.000228 0.202614
321.855682 -496.246307 -0.000156 0.223856
322.501434 -497.852661 -0.000229 0.204729
322.977325 -499.036499 -0.000218 0.207228
317.647247 -485.352936 7.678549 0.483333
317.641785 -485.339050 6.899477 0.557476
317.636414 -485.325378 6.130341 0.489706
317.631042 -485.311859 5.369334 0.587255
317.625763 -485.298401 4.614718 0.501593
317.620514 -485.285065 3.864817 0.535539
317.615265 -485.271759 3.117992 0.610539
317.610077 -485.258514 2.372631 0.462132
317.604828 -485.245270 1.627136 0.582353
317.599609 -485.231964 0.879905 0.537990
317.594360 -485.218597 0.129325 0.530760
319.583740 -490.269104 -0.000124 0.217705
321.014008 -493.900116 -0.000116 0.256248
321.927246 -496.218506 -0.000044 0.247309
322.561676 -497.829193 -0.000131 0.204441
323.029266 -499.016235 -0.000123 0.230681
317.803741 -485.318787 7.672273 0.592034
317.798370 -485.304932 6.894062 0.561887
317.793060 -485.291260 6.125772 0.482353
317.787872 -485.277679 5.365604 0.625245
317.782654 -485.264252 4.611823 0.543750
317.777527 -485.250916 3.862751 0.561397
317.772369 -485.237610 3.116752 0.599387
317.767273 -485.224335 2.372218 0.656495
317.762146 -485.211060 1.627550 0.554289
317.757019 -485.197784 0.881150 0.556985
317.751862 -485.184387 0.131404 0.589583
319.696625 -490.224487 -0.000187 0.222222
321.101532 -493.865448 -0.000186 0.232795
321.998596 -496.190277 -0.000111 0.215686
322.621796 -497.805420 -0.000193 0.250961
323.081116 -498.995789 -0.000173 0.269223
317.959839 -485.284760 7.666292 0.703676
317.954590 -485.270874 6.888896 0.566912
317.949432 -485.257172 6.121415 0.534559
317.944305 -485.243622 5.362047 0.599020
317.939240 -485.230194 4.609060 0.552328
317.934174 -485.216797 3.860780 0.569853
317.929138 -485.203491 3.115570 0.667892
317.924133 -485.190247 2.371824 0.464338
317.919128 -485.176971 1.627944 0.616422
317.914093 -485.163666 0.882336 0.574020
317.909027 -485.150299 0.133388 0.548897
319.809723 -490.180389 -0.000287 0.242118
321.189362 -493.831635 -0.000224 0.226932
322.070068 -496.162323 -0.000222 0.210784
322.682037 -497.781921 -0.000294 0.256824
323.133057 -498.975525 -0.000271 0.243752
318.115662 -485.250763 7.660595 0.576348
318.110535 -485.236877 6.883979 0.514583
318.105438 -485.223175 6.117266 0.533211
318.100433 -485.209625 5.358660 0.593382
318.095490 -485.196167 4.606430 0.546324
318.090546 -485.182800 3.858902 0.600980
318.085602 -485.169495 3.114443 0.705270
318.080688 -485.156219 2.371448 0.543627
318.075775 -485.142914 1.628321 0.550858
318.070831 -485.129608 0.883466 0.628799
318.065887 -485.116211 0.135277 0.628799
319.923767 -490.138763 -0.000175 0.227605
321.277832 -493.799408 -0.000109 0.195117
322.142181 -496.136078 -0.000104 0.241253
322.742767 -497.759766 -0.000183 0.174068
323.185425 -498.956421 -0.000160 0.230008
318.271179 -485.216858 7.655184 0.668873
318.266144 -485.202972 6.879306 0.594975
318.261169 -485.189240 6.113324 0.527574
318.256256 -485.175690 5.355444 0.640809
318.251373 -485.162231 4.603932 0.556495
318.246552 -485.148834 3.857120 0.582721
318.241730 -485.135529 3.113374 0.625613
318.236938 -485.122223 2.371091 0.521814
318.232086 -485.108948 1.628677 0.605637
318.227295 -485.095612 0.884540 0.572059
318.222443 -485.082245 0.137071 0.561029
320.037659 -490.096893 -0.000196 0.229239
321.366180 -493.766907 -0.000130 0.265283
322.214172 -496.109558 -0.000128 0.257497
322.803558 -497.737762 -0.000140 0.200115
323.237793 -498.937378 -0.000132 0.214821
318.426422 -485.183044 7.650057 0.652696
318.421478 -485.169128 6.874880 0.604779
318.416626 -485.155396 6.109591 0.548897
318.411804 -485.141815 5.352396 0.547672
318.407013 -485.128357 4.601566 0.551348
318.402283 -485.114960 3.855431 0.527083
318.397583 -485.101624 3.112362 0.650000
318.392883 -485.088348 2.370753 0.685539
318.388153 -485.075043 1.629016 0.647794
318.383423 -485.061707 0.885557 0.578431
318.378693 -485.048279 0.138770 0.567770
320.151642 -490.055145 -0.000296 0.226355
321.454590 -493.734589 -0.000227 0.224048
322.286255 -496.083191 -0.000223 0.247982
322.864288 -497.715546 -0.000234 0.244714
323.290161 -498.918213 -0.000234 0.273549
318.581360 -485.149292 7.645211 0.554534
318.576538 -485.135345 6.870697 0.519730
318.571777 -485.121613 6.106062 0.500980
318.567047 -485.108002 5.349516 0.643137
318.562408 -485.094543 4.599330 0.540931
318.557739 -485.081146 3.853835 0.557843
318.553131 -485.067810 3.111404 0.623897
318.548553 -485.054504 2.370434 0.503799
318.543945 -485.041168 1.629336 0.658088
318.539307 -485.027863 0.886518 0.488480
318.534668 -485.014435 0.140376 0.570833
320.266815 -490.016693 -0.000093 0.212611
321.543854 -493.704712 -0.000028 0.207709
322.358643 -496.057678 -0.000255 0.233468
322.925598 -497.695038 -0.000041 0.220012
323.343018 -498.900513 -0.000042 0.256920
318.736053 -485.115540 7.640653 0.579044
318.731354 -485.101624 6.866758 0.588113
318.726654 -485.087860 6.102739 0.587623
318.722046 -485.074280 5.346804 0.711029
318.717499 -485.060791 4.597223 0.562255
318.712952 -485.047363 3.852332 0.496691
318.708466 -485.034027 3.110503 0.569363
318.703949 -485.020691 2.370133 0.538358
318.699432 -485.007385 1.629637 0.619853
318.694916 -484.994019 0.887423 0.595588
318.690399 -484.980621 0.141888 0.483824
320.381348 -489.976532 -0.000197 0.227893
321.632721 -493.673584 -0.000128 0.248078
322.431061 -496.032288 -0.000355 0.209631
322.986603 -497.673615 -0.000144 0.240965
323.395660 -498.882141 -0.000128 0.243752
318.890472 -485.081909 7.636370 0.610172
318.885864 -485.067963 6.863061 0.627083
318.881317 -485.054199 6.099623 0.540686
318.876831 -485.040588 5.344258 0.534926
318.872375 -485.027069 4.595247 0.566544
318.867920 -485.013672 3.850922 0.555760
318.863525 -485.000305 3.109656 0.697181
318.859100 -484.986969 2.369851 0.552941
318.854706 -484.973663 1.629919 0.583456
318.850281 -484.960297 0.888272 0.575368
318.845856 -484.946869 0.143308 0.571814
320.496185 -489.937195 -0.000295 0.235102
321.721741 -493.643066 -0.000229 0.241734
322.503662 -496.007446 -0.000454 0.218762
323.047791 -497.652710 -0.000231 0.270281
323.448425 -498.864105 -0.000220 0.204825
319.044708 -485.048309 7.632368 0.595221
319.040222 -485.034332 6.859605 0.623162
319.035767 -485.020569 6.096706 0.504779
319.031372 -485.006927 5.341878 0.574632
319.027008 -484.993439 4.593399 0.657721
319.022644 -484.980011 3.849603 0.675245
319.018341 -484.966644 3.108865 0.632721
319.014038 -484.953278 2.369587 0.496446
319.009735 -484.939972 1.630183 0.569240
319.005402 -484.926575 0.889066 0.586887
319.001068 -484.913147 0.144634 0.545098
320.612122 -489.901154 -0.000095 0.237505
321.811646 -493.615051 -0.000036 0.226451
322.576996 -495.984619 -0.000258 0.247501
323.109528 -497.633484 -0.000042 0.271915
323.501648 -498.847473 -0.000033 0.224337
319.198730 -485.014740 7.628643 0.639583
319.194336 -485.000793 6.856389 0.588358
319.190002 -484.987000 6.093995 0.477083
319.185699 -484.973389 5.339665 0.590196
319.181427 -484.959839 4.591681 0.563113
319.177216 -484.946411 3.848376 0.545221
319.172974 -484.933044 3.108129 0.613358
319.168762 -484.919678 2.369341 0.475613
319.164551 -484.906311 1.630429 0.614583
319.160339 -484.892914 0.889804 0.541667
319.156097 -484.879486 0.145869 0.569240
320.727478 -489.863434 -0.000196 0.230873
321.901123 -493.585815 -0.000134 0.225202
322.649933 -495.960754 -0.000356 0.200788
323.170990 -497.613403 -0.000136 0.269800
323.554626 -498.830170 -0.000131 0.250000
319.352570 -484.981262 7.625198 0.589093
319.348267 -484.967285 6.853414 0.663480
319.344025 -484.953461 6.091485 0.570221
319.339813 -484.939819 5.337616 0.587623
319.335663 -484.926270 4.590090 0.612990
319.331543 -484.912842 3.847240 0.555147
319.327423 -484.899445 3.107448 0.669240
319.323303 -484.886078 2.369114 0.523775
319.319183 -484.872711 1.630656 0.596814
319.315063 -484.859314 0.890489 0.566054
319.310913 -484.845856 0.147011 0.590319
320.843292 -489.827087 -0.000224 0.241349
321.990936 -493.557678 -0.000159 0.205786
322.723145 -495.937805 -0.000381 0.220684
323.232666 -497.594086 -0.000164 0.226932
323.607819 -498.813507 -0.000148 0.237793
319.506226 -484.947784 7.622030 0.603676
319.502014 -484.933807 6.850677 0.592034
319.497864 -484.920013 6.089176 0.482475
319.493774 -484.906311 5.335732 0.553676
319.489716 -484.892792 4.588627 0.600613
319.485687 -484.879303 3.846197 0.558088
319.481659 -484.865906 3.106821 0.651838
319.477631 -484.852539 2.368906 0.528554
319.473633 -484.839172 1.630866 0.593015
319.469604 -484.825745 0.891117 0.534559
319.465546 -484.812256 0.148062 0.607966
320.958801 -489.789642 -0.000485 0.221646
322.080841 -493.529663 -0.000261 0.200115
322.796448 -495.914948 -0.000482 0.233660
323.294403 -497.574829 -0.000259 0.233852
323.660858 -498.796265 -0.000418 0.211457
319.659698 -484.914368 7.619136 0.633578
319.655609 -484.900391 6.848181 0.666667
319.651550 -484.886536 6.087069 0.549755
319.647552 -484.872864 5.334012 0.632230
319.643585 -484.859314 4.587292 0.574755
319.639648 -484.845856 3.845243 0.642279
319.635712 -484.832397 3.106250 0.629289
319.631805 -484.819031 2.368715 0.525368
319.627869 -484.805634 1.631057 0.638113
319.623962 -484.792175 0.891691 0.556740
319.620026 -484.778717 0.149021 0.603064
321.075500 -489.756226 -0.000356 0.226163
322.171326 -493.503754 -0.000132 0.229335
322.870239 -495.893860 -0.000352 0.244521
323.356567 -497.557007 -0.000137 0.218762
323.714447 -498.780914 -0.000297 0.248654
319.813019 -484.881012 7.616518 0.602696
319.809021 -484.866974 6.845921 0.603064
319.805084 -484.853149 6.085162 0.530270
319.801208 -484.839447 5.332456 0.538480
319.797333 -484.825867 4.586082 0.518260
319.793457 -484.812378 3.844381 0.492647
319.789642 -484.798950 3.105732 0.585662
319.785828 -484.785522 2.368542 0.550368
319.782013 -484.772125 1.631229 0.540074
319.778198 -484.758667 0.892210 0.540686
319.774323 -484.745178 0.149889 0.563235
321.192078 -489.722290 -0.000388 0.260957
322.261719 -493.477417 -0.000168 0.201557
322.943909 -495.872406 -0.000386 0.211553
323.418427 -497.538300 -0.000320 0.214148
323.767975 -498.765350 -0.000323 0.206555
319.966217 -484.847687 7.614172 0.589951
319.962341 -484.833618 6.843897 0.590564
319.958466 -484.819794 6.083456 0.517770
319.954681 -484.806061 5.331062 0.644118
319.950928 -484.792480 4.585000 0.551838
319.947144 -484.778961 3.843609 0.572917
319.943420 -484.765503 3.105270 0.602083
319.939728 -484.752106 2.368388 0.501103
319.936005 -484.738647 1.631384 0.633333
319.932281 -484.725189 0.892675 0.478799
319.928497 -484.711700 0.150666 0.584681
321.308716 -489.688629 -0.000485 0.262880
322.352173 -493.451294 -0.000264 0.239427
323.017670 -495.851105 -0.000482 0.230392
323.480591 -497.520386 -0.000414 0.233276
323.821533 -498.749878 -0.000425 0.199250
320.119293 -484.814362 7.612102 0.548407
320.115509 -484.800293 6.842110 0.621446
320.111786 -484.786438 6.081948 0.560172
320.108063 -484.772705 5.329833 0.745833
320.104401 -484.759094 4.584045 0.537868
320.100769 -484.745575 3.842927 0.505270
320.097107 -484.732117 3.104860 0.569485
320.093475 -484.718658 2.368251 0.549877
320.089844 -484.705231 1.631520 0.617402
320.086212 -484.691742 0.893086 0.569853
320.082581 -484.678223 0.151352 0.504412
321.426117 -489.657654 -0.000357 0.220877
322.442932 -493.426270 -0.000293 0.221646
323.091888 -495.831512 -0.000355 0.250481
323.543091 -497.503876 -0.000287 0.270473
323.875427 -498.735657 -0.000301 0.254037
320.272278 -484.781067 7.610307 0.601225
320.268585 -484.766998 6.840560 0.637868
320.264954 -484.753113 6.080640 0.531495
320.261322 -484.739349 5.328765 0.508701
320.257751 -484.725739 4.583217 0.585539
320.254211 -484.712219 3.842335 0.557108
320.250671 -484.698730 3.104505 0.705760
320.247131 -484.685272 2.368133 0.553186
320.243622 -484.671814 1.631639 0.596936
320.240082 -484.658325 0.893442 0.549020
320.236511 -484.644775 0.151947 0.557721
321.543335 -489.626221 -0.000387 0.247020
322.533844 -493.401886 -0.000326 0.240965
323.165985 -495.811646 -0.000387 0.224145
323.605530 -497.487061 -0.000323 0.208189
323.929291 -498.721222 -0.000327 0.262687
320.425140 -484.747833 7.608786 0.584559
320.421570 -484.733734 6.839245 0.653431
320.418030 -484.719818 6.079530 0.495221
320.414520 -484.706055 5.327859 0.550490
320.411072 -484.692413 4.582513 0.638603
320.407593 -484.678864 3.841834 0.723162
320.404144 -484.665375 3.104205 0.624020
320.400726 -484.651886 2.368033 0.503554
320.397278 -484.638428 1.631740 0.576226
320.393829 -484.624908 0.893744 0.652206
320.390381 -484.611328 0.152451 0.556495
321.660645 -489.594971 -0.000487 0.247213
322.624817 -493.377686 -0.000422 0.226547
323.240204 -495.791901 -0.000481 0.209439
323.668030 -497.470520 -0.000411 0.217128
323.983185 -498.706909 -0.000422 0.212322
320.577972 -484.714569 7.607535 0.567157
320.574493 -484.700470 6.838165 0.601103
320.571014 -484.686554 6.078620 0.467647
320.567627 -484.672791 5.327115 0.580024
320.564240 -484.659119 4.581936 0.554657
320.560913 -484.645508 3.841422 0.529289
320.557556 -484.632019 3.103957 0.601225
320.554199 -484.618530 2.367950 0.481740
320.550873 -484.605042 1.631822 0.603799
320.547516 -484.591522 0.893992 0.548774
320.544159 -484.577942 0.152866 0.564093
321.778778 -489.566986 -0.000299 0.236448
322.716431 -493.355988 -0.000231 0.215013
323.314880 -495.774200 -0.000295 0.215398
323.730957 -497.455536 -0.000232 0.212611
324.037445 -498.694031 -0.000234 0.230488
320.730713 -484.681366 7.606557 0.551838
320.727325 -484.667236 6.837322 0.689583
320.723999 -484.653320 6.077909 0.574510
320.720673 -484.639496 5.326534 0.612990
320.717377 -484.625824 4.581485 0.633946
320.714142 -484.612213 3.841100 0.542525
320.710876 -484.598663 3.103765 0.675000
320.707642 -484.585175 2.367886 0.556985
320.704407 -484.571686 1.631886 0.592402
320.701141 -484.558136 0.894186 0.541912
320.697876 -484.544525 0.153190 0.602451
321.896545 -489.537445 -0.000392 0.218089
322.807739 -493.333038 -0.000326 0.231065
323.389313 -495.755524 -0.000386 0.228181
323.793671 -497.439819 -0.000326 0.280469
324.091522 -498.680511 -0.000317 0.223568
320.883423 -484.648132 7.605851 0.587377
320.880157 -484.634003 6.836713 0.627083
320.876892 -484.620026 6.077395 0.486765
320.873657 -484.606232 5.326116 0.541667
320.870483 -484.592560 4.581160 0.582353
320.867310 -484.578918 3.840868 0.567402
320.864166 -484.565369 3.103625 0.624877
320.861023 -484.551819 2.367839 0.511887
320.857880 -484.538300 1.631933 0.575123
320.854706 -484.524750 0.894326 0.534681
320.851563 -484.511139 0.153425 0.582353
322.014465 -489.508728 -0.000487 0.227509
322.899231 -493.310791 -0.000422 0.231161
323.463898 -495.737396 -0.000479 0.222414
323.856506 -497.424530 -0.000412 0.250577
324.145691 -498.667297 -0.000416 0.225010
321.036133 -484.614960 7.605418 0.602451
321.032928 -484.600800 6.836339 0.701103
321.029755 -484.586792 6.077079 0.549877
321.026672 -484.572968 5.325859 0.618873
321.023560 -484.559235 4.580959 0.585907
321.020508 -484.545624 3.840725 0.641299
321.017426 -484.532043 3.103540 0.662377
321.014374 -484.518494 2.367811 0.533088
321.011322 -484.504944 1.631962 0.640809
321.008240 -484.491364 0.894412 0.589951
321.005188 -484.477753 0.153568 0.622917
322.133179 -489.483246 -0.000296 0.231161
322.991272 -493.290985 -0.000235 0.223087
323.538910 -495.721252 -0.000293 0.266820
323.919708 -497.410919 -0.000233 0.212034
324.200195 -498.655548 -0.000233 0.258458
321.188782 -484.581787 7.605257 0.555637
321.185669 -484.567566 6.836199 0.608946
321.182648 -484.553589 6.076962 0.545098
321.179596 -484.539734 5.325762 0.529779
321.176605 -484.526001 4.580885 0.520098
321.173645 -484.512360 3.840672 0.480147
321.170685 -484.498749 3.103507 0.587132
321.167694 -484.485168 2.367800 0.541667
321.164764 -484.471588 1.631972 0.539706
321.161804 -484.458008 0.894444 0.525490
321.158813 -484.444336 0.153621 0.540441
322.251526 -489.456177 -0.000390 0.220492
323.083038 -493.270020 -0.000324 0.210111
323.613739 -495.704163 -0.000384 0.207324
323.982758 -497.396515 -0.000327 0.228950
324.254547 -498.643127 -0.000324 0.237889
321.341461 -484.548615 7.605368 0.595343
321.338440 -484.534393 6.836295 0.580024
321.335480 -484.520355 6.077043 0.512377
321.332550 -484.506500 5.325829 0.655147
321.329681 -484.492706 4.580935 0.541176
321.326782 -484.479065 3.840708 0.582108
321.323914 -484.465424 3.103528 0.594363
321.321045 -484.451843 2.367808 0.497549
321.318176 -484.438263 1.631965 0.631373
321.315308 -484.424622 0.894422 0.480515
321.312439 -484.410950 0.153584 0.582230
322.370148 -489.430359 -0.000432 0.250096
323.175049 -493.249969 -0.000371 0.218762
323.688751 -495.687836 -0.000426 0.252018
324.045929 -497.382751 -0.000370 0.246059
324.309021 -498.631287 -0.000365 0.193676
321.494110 -484.515411 7.605751 0.521569
321.491211 -484.501190 6.836625 0.618995
321.488373 -484.487152 6.077322 0.529044
321.485535 -484.473236 5.326056 0.560907
321.482727 -484.459473 4.581112 0.557476
321.479950 -484.445770 3.840835 0.480270
321.477173 -484.432129 3.103605 0.609069
321.474396 -484.418518 2.367833 0.550858
321.471619 -484.404907 1.631940 0.676961
321.468842 -484.391266 0.894346 0.566299
321.466064 -484.377563 0.153457 0.539338
322.489197 -489.406586 -0.000333 0.250096
323.267365 -493.231506 -0.000275 0.232795
323.764008 -495.672791 -0.000331 0.231834
324.109314 -497.370087 -0.000270 0.241638
324.363678 -498.620361 -0.000269 0.200980
321.646820 -484.482239 7.606404 0.608211
321.644043 -484.467987 6.837191 0.632966
321.641266 -484.453918 6.077798 0.587623
321.638519 -484.440002 5.326445 0.525858
321.635803 -484.426208 4.581414 0.554534
321.633118 -484.412476 3.841050 0.562623
321.630432 -484.398804 3.103734 0.626593
321.627777 -484.385193 2.367876 0.531005
321.625122 -484.371552 1.631897 0.578309
321.622437 -484.357880 0.894216 0.509191
321.619720 -484.344177 0.153241 0.575368
322.608154 -489.382416 -0.000378 0.230873
323.359619 -493.212799 -0.000317 0.237024
323.839233 -495.657562 -0.000370 0.249135
324.172699 -497.357239 -0.000316 0.267782
324.418304 -498.609283 -0.000314 0.248462
321.799561 -484.449066 7.607331 0.566299
321.796875 -484.434784 6.837991 0.595466
321.794189 -484.420715 6.078472 0.495343
321.791565 -484.406738 5.326996 0.511642
321.788971 -484.392914 4.581842 0.609681
321.786377 -484.379181 3.841356 0.560172
321.783783 -484.365479 3.103917 0.664828
321.781219 -484.351837 2.367937 0.497549
321.778625 -484.338196 1.631835 0.575245
321.776031 -484.324493 0.894032 0.667402
321.773438 -484.310730 0.152933 0.646936
322.727203 -489.358704 -0.000466 0.225394
323.451935 -493.194366 -0.000410 0.237889
323.914520 -495.642517 -0.000463 0.213187
324.236084 -497.344574 -0.000407 0.236255
324.472992 -498.598389 -0.000401 0.222318
321.952393 -484.415894 7.608531 0.644730
321.949799 -484.401581 6.839026 0.573897
321.947205 -484.387451 6.079348 0.481495
321.944672 -484.373505 5.327708 0.612132
321.942139 -484.359650 4.582396 0.586397
321.939667 -484.345856 3.841750 0.554902
321.937164 -484.332153 3.104155 0.588848
321.934662 -484.318481 2.368016 0.473284
321.932190 -484.304810 1.631756 0.614951
321.929688 -484.291077 0.893794 0.556985
321.927216 -484.277313 0.152536 0.570711
322.846802 -489.337799 -0.000326 0.231642
323.544678 -493.178131 -0.000270 0.249423
323.990112 -495.629303 -0.000324 0.241926
324.299805 -497.333435 -0.000267 0.207612
324.527924 -498.588776 -0.000263 0.236544
322.105255 -484.382690 7.610002 0.569608
322.102753 -484.368347 6.840297 0.643995
322.100281 -484.354218 6.080419 0.514706
322.097870 -484.340210 5.328583 0.590319
322.095428 -484.326324 4.583076 0.569485
