# This PCD file was generated using the MATLAB® pcwrite function
# from Computer Vision Toolbox®.
# .PCD v.7 - Point Cloud Data file format
VERSION .7
FIELDS x y z intensity
SIZE 4 4 4 4
TYPE F F F F
COUNT 1 1 1 1
WIDTH 1163
HEIGHT 1
VIEWPOINT 0 0 0 1 0 0 0
POINTS 1163
DATA ascii
347.944000 -538.723816 0.000272 0.220877
340.753601 -543.653381 6.183372 0.525980
340.754517 -543.652832 5.606827 0.517279
340.755371 -543.652222 5.038450 0.511275
340.756256 -543.651611 4.476877 0.572426
340.757080 -543.651001 3.920801 0.656863
340.757935 -543.650452 3.368966 0.385417
340.758820 -543.649841 2.820155 0.493873
340.759644 -543.649231 2.273172 0.561275
340.760498 -543.648621 1.726844 0.478922
340.761322 -543.648071 1.179998 0.545343
340.762207 -543.647400 0.631459 0.752451
340.763092 -543.646851 0.080038 0.491544
343.398438 -541.815247 0.000419 0.210880
345.443176 -540.394104 0.000306 0.244137
346.864685 -539.406067 0.000286 0.236063
347.911957 -538.678223 0.000245 0.197616
340.725494 -543.531372 6.171805 0.697059
340.726379 -543.530762 5.596855 0.549265
340.727264 -543.530212 5.030049 0.693137
340.728149 -543.529541 4.470028 0.554167
340.728973 -543.528992 3.915493 0.664828
340.729828 -543.528442 3.365183 0.471324
340.730682 -543.527771 2.817888 0.566789
340.731537 -543.527222 2.272418 0.597059
340.732391 -543.526672 1.727599 0.581740
340.733215 -543.526123 1.182264 0.454534
340.734100 -543.525452 0.635240 0.621201
340.734985 -543.524902 0.085343 0.663725
343.344818 -541.737915 0.000390 0.202614
345.399475 -540.331055 0.000279 0.203768
346.827545 -539.353210 0.000169 0.255959
347.879974 -538.632568 0.000145 0.190600
340.697540 -543.409973 6.160505 0.582353
340.698425 -543.409424 5.587112 0.490319
340.699310 -543.408752 5.021843 0.574265
340.700165 -543.408203 4.463340 0.491789
340.701050 -543.407654 3.910305 0.662255
340.701874 -543.407043 3.361486 0.600368
340.702728 -543.406494 2.815673 0.548039
340.703552 -543.405945 2.271680 0.592402
340.704407 -543.405396 1.728337 0.566789
340.705292 -543.404785 1.184477 0.556495
340.706116 -543.404175 0.638934 0.511765
340.707001 -543.403625 0.090526 0.566176
343.290527 -541.661011 0.000141 0.249135
345.356506 -540.267456 0.000312 0.263649
346.790710 -539.300049 0.000038 0.232026
347.848755 -538.586426 0.000179 0.233948
340.669739 -543.289246 6.149467 0.478922
340.670624 -543.288635 5.577596 0.561397
340.671509 -543.288086 5.013827 0.497426
340.672394 -543.287537 4.456806 0.493260
340.673218 -543.286926 3.905239 0.603064
340.674072 -543.286377 3.357875 0.526838
340.674927 -543.285828 2.813510 0.542647
340.675751 -543.285278 2.270960 0.511887
340.676605 -543.284668 1.729057 0.453799
340.677460 -543.284119 1.186640 0.532230
340.678314 -543.283569 0.642542 0.488971
340.679199 -543.282959 0.095587 0.463113
343.239441 -541.581909 0.000372 0.226259
345.314789 -540.203064 0.000528 0.243080
346.756256 -539.245300 0.000429 0.208285
347.818146 -538.539856 0.000295 0.226259
340.642090 -543.169128 6.138689 0.492402
340.642975 -543.168579 5.568304 0.471201
340.643829 -543.167969 5.006000 0.481740
340.644714 -543.167358 4.450426 0.505637
340.645569 -543.166870 3.900291 0.640564
340.646393 -543.166321 3.354349 0.609191
340.647247 -543.165710 2.811398 0.592157
340.648071 -543.165161 2.270257 0.614093
340.648926 -543.164673 1.729760 0.411642
340.649811 -543.164124 1.188751 0.491054
340.650635 -543.163513 0.646066 0.535417
340.651520 -543.162964 0.100531 0.549755
343.187012 -541.503784 0.000254 0.209823
345.271729 -540.139526 0.000345 0.231642
346.719910 -539.191833 0.000238 0.205882
347.787140 -538.493469 0.000199 0.284506
340.614563 -543.049683 6.128170 0.633456
340.615448 -543.049072 5.559234 0.592770
340.616333 -543.048462 4.998358 0.522917
340.617218 -543.047974 4.444197 0.502696
340.618042 -543.047424 3.895461 0.582843
340.618896 -543.046814 3.350908 0.608211
340.619720 -543.046326 2.809336 0.648529
340.620575 -543.045776 2.269570 0.620833
340.621429 -543.045166 1.730447 0.599020
340.622253 -543.044678 1.190812 0.627574
340.623108 -543.044128 0.649505 0.565809
340.624023 -543.043579 0.105356 0.543995
343.135040 -541.425232 0.000136 0.251922
345.229675 -540.075378 0.000291 0.192138
346.684601 -539.137756 0.000202 0.238658
347.756409 -538.447021 0.000087 0.255383
340.587189 -542.930725 6.117905 0.608946
340.588043 -542.930176 5.550383 0.627696
340.588959 -542.929626 4.990902 0.465319
340.589844 -542.929016 4.438119 0.491667
340.590637 -542.928528 3.890749 0.524387
340.591522 -542.927979 3.347548 0.586765
340.592377 -542.927490 2.807324 0.536765
340.593201 -542.926941 2.268899 0.581250
340.594055 -542.926392 1.731117 0.610172
340.594879 -542.925903 1.192823 0.490686
340.595734 -542.925293 0.652862 0.552206
340.596619 -542.924744 0.110065 0.589093
343.085114 -541.345520 0.000270 0.225971
345.188629 -540.010559 0.000353 0.238562
346.650879 -539.082581 0.000488 0.235198
347.726440 -538.400024 0.000102 0.226163
340.559906 -542.812439 6.107890 0.551716
340.560822 -542.811890 5.541748 0.624387
340.561707 -542.811340 4.983627 0.611274
340.562561 -542.810791 4.432189 0.556127
340.563416 -542.810303 3.886150 0.625858
340.564240 -542.809692 3.344271 0.633211
340.565094 -542.809204 2.805361 0.537010
340.565948 -542.808716 2.268245 0.554412
340.566772 -542.808105 1.731771 0.572181
340.567627 -542.807617 1.194786 0.633578
340.568481 -542.807129 0.656136 0.532108
340.569366 -542.806580 0.114658 0.610172
343.034241 -541.266296 0.000141 0.216455
345.147583 -539.945740 0.000313 0.220588
346.615967 -539.028198 0.000364 0.219915
347.697205 -538.352539 0.000241 0.286140
340.532806 -542.694702 6.098123 0.554412
340.533722 -542.694153 5.533327 0.581985
340.534576 -542.693604 4.976533 0.638848
340.535461 -542.693054 4.426405 0.565564
340.536316 -542.692566 3.881666 0.549510
340.537140 -542.692017 3.341076 0.805270
340.537994 -542.691528 2.803446 0.468015
340.538849 -542.690979 2.267608 0.649632
340.539673 -542.690491 1.732408 0.822672
340.540527 -542.690002 1.196699 0.537377
340.541351 -542.689392 0.659330 0.600490
340.542236 -542.688904 0.119139 0.583578
342.983978 -541.186768 0.000028 0.231546
345.106079 -539.881165 0.000089 0.224817
346.581512 -538.973511 0.000264 0.274414
347.667480 -538.305420 0.000138 0.214148
340.505798 -542.577576 6.088603 0.789828
340.506714 -542.576965 5.525119 0.767892
340.507568 -542.576416 4.969619 0.713480
340.508453 -542.575928 4.420768 0.684069
340.509308 -542.575439 3.877294 0.521569
340.510132 -542.574890 3.337961 0.661152
340.510986 -542.574402 2.801580 0.462010
340.511841 -542.573914 2.266987 0.733701
340.512665 -542.573364 1.733030 0.747304
340.513519 -542.572876 1.198565 0.703922
340.514374 -542.572327 0.662443 0.612990
340.515259 -542.571777 0.123507 0.562500
342.935699 -541.105957 0.000162 0.236544
345.065948 -539.815796 0.000049 0.251250
346.547272 -538.918701 0.000127 0.257689
347.638947 -538.257507 0.000282 0.253941
340.478943 -542.460876 6.079321 0.435784
340.479828 -542.460327 5.517118 0.475613
340.480713 -542.459839 4.962879 0.489338
340.481598 -542.459290 4.415274 0.633333
340.482422 -542.458801 3.873034 0.513358
340.483276 -542.458313 3.334924 0.654167
340.484131 -542.457764 2.799761 0.545588
340.484955 -542.457275 2.266380 0.763358
340.485809 -542.456787 1.733635 0.496691
340.486664 -542.456238 1.200383 0.472672
340.487488 -542.455750 0.665478 0.556740
340.488403 -542.455261 0.127764 0.615196
342.887970 -541.024780 0.000286 0.205402
345.027924 -539.749146 0.000372 0.263168
346.514465 -538.862976 0.000246 0.233468
347.610291 -538.209717 0.000305 0.230104
340.452209 -542.344727 6.070279 0.418015
340.453064 -542.344238 5.509324 0.562868
340.453979 -542.343689 4.956314 0.545588
340.454865 -542.343201 4.409922 0.735417
340.455688 -542.342712 3.868884 0.612868
340.456543 -542.342224 3.331966 0.695588
340.457397 -542.341736 2.797989 0.633211
340.458221 -542.341187 2.265790 0.689338
340.459076 -542.340698 1.734225 0.550980
340.459930 -542.340210 1.202154 0.535049
340.460754 -542.339783 0.668434 0.606618
340.461639 -542.339172 0.131910 0.611887
342.839325 -540.944214 0.000160 0.252595
344.988251 -539.683411 0.000241 0.231738
346.481750 -538.807190 0.000295 0.194444
347.581512 -538.161926 0.000188 0.231257
340.425568 -542.229126 6.061477 0.369853
340.426483 -542.228577 5.501735 0.416789
340.427338 -542.228088 4.949922 0.436520
340.428223 -542.227600 4.404711 0.680760
340.429077 -542.227173 3.864843 0.654534
340.429901 -542.226624 3.329087 0.517524
340.430756 -542.226135 2.796264 0.604044
340.431610 -542.225647 2.265216 0.700613
340.432434 -542.225159 1.734800 0.296691
340.433289 -542.224670 1.203879 0.321446
340.434143 -542.224182 0.671312 0.546814
340.434998 -542.223694 0.135948 0.542402
342.792389 -540.862671 0.000234 0.237505
344.949951 -539.617004 0.000301 0.228566
346.449890 -538.750977 0.000458 0.249039
347.553772 -538.113647 0.000269 0.206363
340.399048 -542.114014 6.052908 0.360294
340.399933 -542.113525 5.494349 0.287377
340.400818 -542.112976 4.943699 0.297059
340.401733 -542.112488 4.399639 0.680882
340.402527 -542.112061 3.860909 0.519975
340.403412 -542.111572 3.326283 0.557598
340.404236 -542.111023 2.794584 0.600245
340.405090 -542.110596 2.264657 0.692892
340.405914 -542.110107 1.735359 0.244118
340.406769 -542.109619 1.205558 0.286397
340.407593 -542.109131 0.674114 0.593627
340.408478 -542.108643 0.139877 0.567157
342.745361 -540.781128 0.000188 0.201077
344.911560 -539.550537 0.000246 0.226836
346.417297 -538.695190 0.000342 0.235294
347.525879 -538.065369 0.000217 0.218666
340.372650 -541.999329 6.044572 0.337623
340.373535 -541.998901 5.487163 0.214216
340.374420 -541.998413 4.937647 0.221201
340.375305 -541.997864 4.394705 0.677574
340.376129 -541.997437 3.857084 0.640074
340.376984 -541.996948 3.323557 0.480147
340.377838 -541.996460 2.792951 0.583578
340.378662 -541.995972 2.264112 0.679412
340.379517 -541.995544 1.735903 0.255760
340.380371 -541.995056 1.207191 0.230882
340.381195 -541.994568 0.676839 0.461642
340.382080 -541.994080 0.143700 0.561275
342.698425 -540.699524 0.000064 0.200596
344.872925 -539.484192 0.000047 0.227413
346.384644 -538.639343 0.000120 0.217801
347.498688 -538.016724 0.000270 0.207132
340.346344 -541.885132 6.036469 0.359191
340.347260 -541.884705 5.480175 0.180392
340.348114 -541.884216 4.931761 0.236152
340.348999 -541.883728 4.389907 0.560662
340.349854 -541.883240 3.853363 0.594608
340.350677 -541.882813 3.320905 0.498774
340.351532 -541.882324 2.791363 0.570221
340.352386 -541.881836 2.263583 0.668260
340.353210 -541.881409 1.736432 0.193505
340.354065 -541.880981 1.208779 0.241422
340.354919 -541.880493 0.679489 0.539951
340.355774 -541.880005 0.147417 0.622794
342.653198 -540.617004 0.000133 0.245771
344.836456 -539.416687 0.000191 0.223183
346.353912 -538.582520 0.000264 0.240388
347.471863 -537.967896 0.000327 0.216840
340.320129 -541.771484 6.028593 0.365196
340.321045 -541.770935 5.473385 0.192770
340.321930 -541.770508 4.926042 0.247672
340.322784 -541.770020 4.385245 0.573529
340.323639 -541.769531 3.849747 0.491544
340.324493 -541.769104 3.318329 0.509069
340.325348 -541.768677 2.789819 0.517279
340.326202 -541.768188 2.263069 0.669485
340.327026 -541.767700 1.736946 0.210172
340.327881 -541.767273 1.210322 0.248407
340.328705 -541.766846 0.682064 0.625735
340.329590 -541.766357 0.151030 0.559436
342.607269 -540.534790 -0.000014 0.211361
344.798981 -539.349792 0.000046 0.201077
346.322052 -538.526245 0.000038 0.264706
347.444794 -537.919189 0.000202 0.208093
340.294037 -541.658203 6.020942 0.456863
340.294952 -541.657654 5.466790 0.493627
340.295837 -541.657227 4.920486 0.471078
340.296692 -541.656738 4.380716 0.563848
340.297546 -541.656311 3.846236 0.487132
340.298401 -541.655823 3.315826 0.476716
340.299225 -541.655396 2.788320 0.592402
340.300110 -541.654968 2.262570 0.689216
340.300934 -541.654480 1.737446 0.528922
340.301788 -541.654053 1.211821 0.479044
340.302612 -541.653625 0.684565 0.547059
340.303497 -541.653198 0.154538 0.638113
342.563721 -540.451355 0.000143 0.227220
344.764465 -539.281189 0.000398 0.220300
346.292053 -538.468933 0.000172 0.250481
347.418640 -537.869934 0.000261 0.229335
340.268036 -541.545288 6.013516 0.868260
340.268951 -541.544861 5.460388 0.744976
340.269836 -541.544373 4.915093 0.695956
340.270721 -541.543945 4.376322 0.484436
340.271545 -541.543518 3.842828 0.550980
340.272400 -541.543030 3.313396 0.512255
340.273254 -541.542603 2.786865 0.682598
340.274109 -541.542175 2.262085 0.777451
340.274933 -541.541748 1.737931 0.782966
340.275787 -541.541260 1.213276 0.721078
340.276642 -541.540833 0.686993 0.692279
340.277496 -541.540405 0.157944 0.566299
342.520111 -540.367981 0.000190 0.236736
344.728088 -539.213623 0.000278 0.196751
346.262177 -538.411621 0.000245 0.216647
347.392212 -537.820862 0.000145 0.203287
340.242157 -541.432861 6.006312 0.584926
340.243073 -541.432434 5.454178 0.661152
340.243927 -541.431885 4.909862 0.564338
340.244812 -541.431458 4.372057 0.488480
340.245667 -541.431091 3.839521 0.498162
340.246490 -541.430603 3.311040 0.445098
340.247345 -541.430176 2.785453 0.552574
340.248230 -541.429749 2.261615 0.562868
340.249054 -541.429321 1.738400 0.584804
340.249878 -541.428833 1.214687 0.643137
340.250732 -541.428467 0.689348 0.516544
340.251617 -541.428040 0.161248 0.626103
342.477722 -540.283936 0.000345 0.203287
344.692963 -539.145447 0.000322 0.260188
346.233032 -538.353943 0.000390 0.263841
347.367706 -537.770813 0.000454 0.230200
340.216370 -541.320801 5.999330 0.571324
340.217224 -541.320374 5.448157 0.587132
340.218109 -541.319885 4.904791 0.589951
340.219025 -541.319458 4.367924 0.469118
340.219849 -541.319031 3.836316 0.634926
340.220703 -541.318604 3.308756 0.497917
340.221558 -541.318176 2.784084 0.578309
340.222412 -541.317749 2.261159 0.524510
340.223236 -541.317322 1.738856 0.561642
340.224060 -541.316895 1.216055 0.691054
340.224915 -541.316467 0.691631 0.564216
340.225800 -541.316040 0.164450 0.560049
342.434204 -540.200439 0.000212 0.244521
344.657440 -539.077393 0.000176 0.245579
346.203186 -538.296570 0.000265 0.219435
347.341614 -537.721558 0.000241 0.193387
340.190643 -541.209106 5.992565 0.554902
340.191498 -541.208679 5.442326 0.546691
340.192413 -541.208191 4.899879 0.713113
340.193298 -541.207764 4.363920 0.478186
340.194122 -541.207397 3.833210 0.620466
340.194977 -541.206970 3.306543 0.570711
340.195831 -541.206543 2.782758 0.637868
340.196686 -541.206116 2.260717 0.601593
340.197510 -541.205688 1.739298 0.583456
340.198334 -541.205261 1.217380 0.596569
340.199188 -541.204834 0.693842 0.590686
340.200073 -541.204468 0.167553 0.662623
342.392487 -540.116089 0.000283 0.235679
344.623840 -539.008423 0.000332 0.233564
346.174438 -538.238708 0.000308 0.206651
347.317200 -537.671448 0.000390 0.254325
340.165009 -541.097778 5.986018 0.550123
340.165894 -541.097412 5.436681 0.505882
340.166748 -541.096924 4.895123 0.532353
340.167633 -541.096497 4.360044 0.481373
340.168488 -541.096130 3.830205 0.657353
340.169342 -541.095703 3.304401 0.551471
340.170166 -541.095276 2.781476 0.415931
340.171051 -541.094849 2.260290 0.590196
340.171906 -541.094482 1.739725 0.583088
340.172699 -541.093994 1.218663 0.672181
340.173553 -541.093628 0.695983 0.558578
340.174438 -541.093201 0.170555 0.632843
342.350128 -540.032043 0.000150 0.232218
344.588928 -538.940125 0.000119 0.207516
346.145355 -538.180969 0.000179 0.229239
347.291779 -537.621826 0.000162 0.266148
340.139435 -540.986877 5.979686 0.572917
340.140320 -540.986450 5.431221 0.526226
340.141205 -540.986023 4.890525 0.606250
340.142090 -540.985596 4.356296 0.542525
340.142914 -540.985229 3.827299 0.628064
340.143799 -540.984802 3.302330 0.568015
340.144623 -540.984375 2.780235 0.661274
340.145508 -540.983948 2.259877 0.585662
340.146332 -540.983582 1.740138 0.516176
340.147156 -540.983154 1.219903 0.683824
340.148010 -540.982788 0.698053 0.615196
340.148895 -540.982361 0.173459 0.552941
342.309967 -539.946960 0.000281 0.221934
344.556183 -538.870728 0.000254 0.262880
346.117371 -538.122742 0.000220 0.250481
347.267975 -537.571411 0.000296 0.197616
340.113953 -540.876282 5.973566 0.693873
340.114868 -540.875854 5.425946 0.522181
340.115753 -540.875427 4.886081 0.570343
340.116608 -540.875000 4.352674 0.521691
340.117462 -540.874634 3.824489 0.610539
340.118317 -540.874207 3.300328 0.531250
340.119171 -540.873840 2.779036 0.559314
340.119995 -540.873413 2.259477 0.593260
340.120850 -540.873047 1.740538 0.562377
340.121704 -540.872620 1.221102 0.631250
340.122559 -540.872253 0.700054 0.663113
340.123383 -540.871826 0.176266 0.541667
342.267822 -539.862793 -0.000011 0.217032
344.521820 -538.802124 -0.000041 0.257689
346.088959 -538.064636 0.000051 0.200500
347.243103 -537.521545 0.000018 0.248654
340.088562 -540.765991 5.967660 0.743750
340.089478 -540.765625 5.420855 0.530760
340.090363 -540.765198 4.881791 0.597794
340.091217 -540.764771 4.349178 0.542647
340.092072 -540.764404 3.821778 0.740809
340.092926 -540.763977 3.298396 0.532353
340.093781 -540.763611 2.777878 0.829779
340.094604 -540.763245 2.259092 0.499510
340.095459 -540.762817 1.740923 0.546569
340.096313 -540.762451 1.222260 0.597672
340.097137 -540.762085 0.701985 0.612990
340.097992 -540.761658 0.178975 0.618627
342.228821 -539.777039 0.000121 0.215494
344.490051 -538.732239 0.000092 0.225490
346.062958 -538.005432 0.000368 0.203191
347.220032 -537.470825 0.000154 0.234045
340.063232 -540.656067 5.961964 0.641054
340.064148 -540.655640 5.415944 0.489093
340.065033 -540.655273 4.877655 0.596814
340.065918 -540.654907 4.345806 0.596691
340.066742 -540.654541 3.819164 0.622059
340.067596 -540.654053 3.296532 0.644853
340.068451 -540.653687 2.776762 0.562745
340.069305 -540.653320 2.258720 0.589706
340.070129 -540.652893 1.741295 0.507966
340.070984 -540.652527 1.223376 0.612132
340.071838 -540.652222 0.703848 0.776838
340.072693 -540.651794 0.181587 0.498897
342.188721 -539.691895 -0.000028 0.254517
344.457367 -538.662781 -0.000056 0.251153
346.035431 -537.946899 0.000226 0.208381
347.197021 -537.420044 0.000204 0.214629
340.037994 -540.546448 5.956477 0.661274
340.038910 -540.546021 5.411212 0.586152
340.039764 -540.545654 4.873670 0.519608
340.040649 -540.545288 4.342557 0.576103
340.041504 -540.544861 3.816645 0.599755
340.042358 -540.544495 3.294737 0.511029
340.043182 -540.544128 2.775686 0.643382
340.044037 -540.543762 2.258362 0.421078
340.044891 -540.543335 1.741653 0.493382
340.045746 -540.542969 1.224450 0.520833
340.046570 -540.542664 0.705642 0.609191
340.047424 -540.542236 0.184104 0.548529
342.151123 -539.605591 0.000129 0.204825
344.427734 -538.592041 0.000306 0.224529
346.009613 -537.887695 0.000382 0.282103
347.174713 -537.368958 0.000355 0.283160
340.012787 -540.437134 5.951197 0.617647
340.013702 -540.436707 5.406661 0.626961
340.014587 -540.436340 4.869836 0.484681
340.015472 -540.435974 4.339433 0.541422
340.016296 -540.435547 3.814222 0.600123
340.017151 -540.435181 3.293010 0.450368
340.018005 -540.434875 2.774651 0.666422
340.018860 -540.434448 2.258018 0.522917
340.019684 -540.434082 1.741998 0.596691
340.020538 -540.433716 1.225485 0.612255
340.021393 -540.433411 0.707368 0.621936
340.022247 -540.432983 0.186525 0.535539
342.113068 -539.519470 0.000119 0.227220
344.397095 -538.521667 0.000372 0.205306
345.983368 -537.828613 0.000347 0.196943
347.152466 -537.317871 0.000418 0.195406
339.987671 -540.328064 5.946123 0.516789
339.988586 -540.327698 5.402287 0.502328
339.989471 -540.327332 4.866151 0.442279
339.990326 -540.326904 4.336430 0.513726
339.991180 -540.326538 3.811893 0.455515
339.992035 -540.326233 3.291351 0.434314
339.992889 -540.325867 2.773657 0.610294
339.993744 -540.325439 2.257686 0.533333
339.994568 -540.325134 1.742329 0.499142
339.995422 -540.324768 1.226479 0.617770
339.996277 -540.324341 0.709027 0.529412
339.997131 -540.324036 0.188852 0.598284
342.074799 -539.433533 -0.000021 0.220877
344.365936 -538.451538 0.000230 0.280661
345.957153 -537.769531 0.000215 0.217897
347.129517 -537.267029 0.000197 0.227989
339.962616 -540.219299 5.941255 0.543505
339.963531 -540.218933 5.398089 0.631127
339.964417 -540.218567 4.862615 0.558946
339.965302 -540.218140 4.333548 0.583088
339.966125 -540.217834 3.809658 0.441422
339.966980 -540.217468 3.289758 0.461642
339.967834 -540.217102 2.772703 0.525858
339.968689 -540.216736 2.257369 0.493995
339.969513 -540.216431 1.742646 0.475245
339.970367 -540.216003 1.227432 0.712132
339.971222 -540.215698 0.710618 0.626103
339.972076 -540.215332 0.191085 0.544853
342.039001 -539.346497 0.000133 0.229815
344.336334 -538.380737 0.000310 0.185602
345.932159 -537.709900 0.000276 0.208670
347.108276 -537.215515 0.000349 0.227893
339.937622 -540.110779 5.936588 0.666912
339.938538 -540.110413 5.394067 0.522794
339.939423 -540.110046 4.859227 0.588113
339.940308 -540.109680 4.330786 0.562132
339.941132 -540.109375 3.807516 0.619853
339.941986 -540.108948 3.288232 0.465074
339.942841 -540.108643 2.771789 0.593505
339.943695 -540.108276 2.257064 0.555515
339.944550 -540.107971 1.742951 0.434559
339.945374 -540.107605 1.228346 0.537623
339.946228 -540.107239 0.712144 0.638848
339.947083 -540.106934 0.193225 0.714338
342.002747 -539.259583 0.000118 0.220588
344.305786 -538.310303 0.000100 0.218474
345.906403 -537.650635 0.000066 0.226547
347.085724 -537.164490 0.000040 0.250192
339.912720 -540.002563 5.932127 0.522549
339.913605 -540.002136 5.390220 0.600123
339.914459 -540.001831 4.855987 0.547304
339.915344 -540.001465 4.328145 0.481985
339.916199 -540.001160 3.805468 0.686397
339.917053 -540.000732 3.286772 0.503431
339.917877 -540.000427 2.770915 0.616299
339.918732 -540.000122 2.256773 0.618260
339.919586 -539.999695 1.743242 0.556250
339.920441 -539.999390 1.229220 0.562990
339.921295 -539.999084 0.713602 0.698897
339.922150 -539.998657 0.195271 0.579044
341.968109 -539.172119 0.000265 0.265475
344.277466 -538.239075 0.000235 0.233180
345.882599 -537.590515 0.000203 0.228854
347.065247 -537.112671 0.000195 0.209246
339.887817 -539.894470 5.927866 0.562132
339.888702 -539.894165 5.386546 0.580270
339.889587 -539.893799 4.852892 0.574510
339.890472 -539.893494 4.325623 0.601961
339.891296 -539.893127 3.803513 0.663235
339.892181 -539.892761 3.285378 0.510784
339.893005 -539.892456 2.770079 0.638358
339.893890 -539.892090 2.256495 0.597059
339.894745 -539.891785 1.743520 0.567279
339.895569 -539.891479 1.230055 0.564216
339.896423 -539.891113 0.714996 0.589951
339.897278 -539.890747 0.197225 0.603309
341.933563 -539.084534 0.000334 0.209246
344.249329 -538.167664 0.000306 0.212899
345.858490 -537.530518 0.000183 0.227028
347.045471 -537.060547 0.000444 0.219627
339.862976 -539.786682 5.923806 0.552328
339.863892 -539.786377 5.383045 0.645711
339.864777 -539.786072 4.849943 0.535294
339.865631 -539.785706 4.323219 0.597426
339.866486 -539.785339 3.801648 0.602696
339.867340 -539.785034 3.284050 0.480637
339.868195 -539.784668 2.769283 0.626471
339.869019 -539.784363 2.256230 0.497304
339.869873 -539.784058 1.743785 0.581863
339.870728 -539.783752 1.230851 0.545098
339.871582 -539.783386 0.716323 0.623897
339.872467 -539.783081 0.199088 0.548897
341.898376 -538.997253 0.000195 0.205402
344.220123 -538.096680 0.000069 0.230777
345.834351 -537.470581 0.000049 0.249904
347.024658 -537.008850 0.000313 0.259996
339.838226 -539.679138 5.919944 0.747794
339.839111 -539.678833 5.379718 0.715686
339.839966 -539.678467 4.847139 0.650000
339.840851 -539.678162 4.320934 0.595466
339.841705 -539.677856 3.799876 0.566176
339.842560 -539.677490 3.282787 0.658824
339.843445 -539.677185 2.768527 0.715074
339.844238 -539.676880 2.255978 0.770343
339.845093 -539.676575 1.744037 0.766299
339.845978 -539.676208 1.231607 0.725980
339.846832 -539.675903 0.717586 0.689828
339.847687 -539.675598 0.200859 0.580270
341.865082 -538.909180 0.000265 0.227989
344.192963 -538.024902 0.000136 0.231161
345.811462 -537.410095 0.000117 0.217416
347.004944 -536.956787 0.000387 0.235679
339.813477 -539.571838 5.916283 0.493505
339.814392 -539.571411 5.376560 0.509436
339.815247 -539.571106 4.844480 0.499020
339.816101 -539.570801 4.318766 0.723407
339.816986 -539.570435 3.798195 0.520098
339.817841 -539.570129 3.281589 0.582353
339.818695 -539.569885 2.767809 0.454657
339.819519 -539.569580 2.255739 0.625858
339.820374 -539.569214 1.744276 0.486152
339.821228 -539.568909 1.232324 0.482475
339.822083 -539.568604 0.718783 0.463235
339.822968 -539.568237 0.202538 0.642402
341.832275 -538.821045 0.000315 0.212803
344.165283 -537.953369 -0.000001 0.204537
345.789001 -537.349548 0.000182 0.212899
346.984436 -536.904907 0.000148 0.242599
339.788788 -539.464600 5.912820 0.542157
339.789673 -539.464294 5.373574 0.555392
339.790558 -539.463989 4.841965 0.548774
339.791412 -539.463623 4.316714 0.638480
339.792297 -539.463318 3.796604 0.587377
339.793152 -539.463013 3.280455 0.776593
339.794006 -539.462769 2.767129 0.509804
339.794830 -539.462402 2.255513 0.607966
339.795685 -539.462097 1.744502 0.573529
339.796539 -539.461792 1.233003 0.552574
339.797394 -539.461487 0.719916 0.530025
339.798279 -539.461182 0.204128 0.554534
341.800171 -538.732544 0.000381 0.219339
344.138702 -537.881409 -0.000015 0.233756
345.766937 -537.288757 0.000243 0.192810
346.965454 -536.852478 0.000219 0.206747
339.764130 -539.357666 5.909553 0.540809
339.765015 -539.357361 5.370757 0.474755
339.765900 -539.356995 4.839592 0.448162
339.766785 -539.356689 4.314780 0.678309
339.767639 -539.356384 3.795104 0.533578
339.768494 -539.356079 3.279386 0.601225
339.769348 -539.355774 2.766489 0.617770
339.770203 -539.355469 2.255299 0.596201
339.771057 -539.355164 1.744716 0.511887
339.771881 -539.354858 1.233643 0.489951
339.772736 -539.354553 0.720984 0.459804
339.773621 -539.354248 0.205627 0.529534
341.769287 -538.643616 0.000534 0.210977
344.113495 -537.808899 0.000136 0.238274
345.745667 -537.227722 0.000384 0.187812
346.947113 -536.799866 0.000362 0.203383
339.739532 -539.250854 5.906479 0.351838
339.740387 -539.250488 5.368109 0.291667
339.741302 -539.250183 4.837361 0.317647
339.742188 -539.249939 4.312961 0.715564
339.743042 -539.249634 3.793693 0.569853
339.743896 -539.249268 3.278380 0.642892
339.744751 -539.249023 2.765887 0.670343
339.745605 -539.248718 2.255098 0.585049
339.746460 -539.248413 1.744916 0.282353
339.747314 -539.248108 1.234245 0.304534
339.748169 -539.247864 0.721989 0.323162
339.748993 -539.247498 0.207036 0.550245
341.736664 -538.555359 0.000319 0.206651
344.086884 -537.736877 -0.000079 0.199539
345.722961 -537.167175 0.000102 0.198577
346.927490 -536.747681 0.000068 0.283737
339.714935 -539.144165 5.903603 0.350735
339.715851 -539.143860 5.365630 0.210294
339.716736 -539.143616 4.835273 0.224755
339.717590 -539.143250 4.311257 0.554657
339.718445 -539.142944 3.792372 0.526471
339.719330 -539.142700 3.277439 0.516789
339.720184 -539.142395 2.765323 0.612623
339.721069 -539.142090 2.254911 0.567770
339.721863 -539.141846 1.745104 0.234314
339.722717 -539.141541 1.234809 0.216054
339.723602 -539.141235 0.722930 0.286029
339.724457 -539.140930 0.208356 0.688848
341.706329 -538.466248 0.000370 0.238562
344.062653 -537.664063 0.000062 0.242791
345.702515 -537.105835 0.000243 0.230873
346.909943 -536.694763 0.000219 0.219339
339.690399 -539.037659 5.900922 0.361765
339.691284 -539.037415 5.363316 0.232966
339.692169 -539.037048 4.833325 0.282966
339.693085 -539.036804 4.309669 0.655392
339.693939 -539.036499 3.791140 0.531250
339.694824 -539.036255 3.276561 0.551838
339.695648 -539.035950 2.764797 0.630392
339.696503 -539.035645 2.254735 0.555637
339.697357 -539.035400 1.745279 0.189093
339.698212 -539.035095 1.235335 0.227451
339.699066 -539.034790 0.723807 0.307598
339.699951 -539.034546 0.209587 0.528554
341.676788 -538.376892 0.000439 0.265955
344.041016 -537.590393 0.000609 0.230008
345.682159 -537.044495 0.000302 0.248270
346.892395 -536.641907 0.000290 0.227316
339.665863 -538.931335 5.898434 0.357353
339.666779 -538.931030 5.361171 0.176471
339.667664 -538.930725 4.831517 0.369853
339.668579 -538.930481 4.308195 0.650490
339.669403 -538.930176 3.789998 0.542402
339.670288 -538.929871 3.275746 0.524877
339.671143 -538.929626 2.764309 0.651348
339.672028 -538.929382 2.254573 0.544976
339.672882 -538.929077 1.745442 0.194730
339.673706 -538.928772 1.235823 0.233333
339.674561 -538.928528 0.724621 0.338113
339.675415 -538.928223 0.210729 0.548897
341.646515 -538.287842 0.000304 0.234814
344.016388 -537.517761 0.000478 0.228181
345.661407 -536.983276 0.000169 0.256055
346.874084 -536.589233 0.000046 0.228950
339.641388 -538.825073 5.896137 0.369608
339.642303 -538.824829 5.359192 0.212377
339.643188 -538.824585 4.829850 0.242892
339.644073 -538.824219 4.306835 0.610784
339.644958 -538.823975 3.788943 0.540564
339.645813 -538.823730 3.274995 0.475245
339.646698 -538.823486 2.763859 0.688113
339.647583 -538.823120 2.254423 0.537255
339.648407 -538.822876 1.745592 0.282966
339.649231 -538.822632 1.236273 0.318382
339.650085 -538.822327 0.725372 0.377941
339.650970 -538.822083 0.211782 0.526716
341.618134 -538.198059 0.000364 0.248943
343.993195 -537.444580 0.000534 0.218281
345.641449 -536.921753 0.000131 0.240292
346.857300 -536.536072 0.000115 0.227509
339.616943 -538.718994 5.894034 0.575858
339.617859 -538.718750 5.357380 0.473407
339.618713 -538.718445 4.828323 0.477451
339.619659 -538.718201 4.305589 0.574755
339.620514 -538.717896 3.787977 0.431495
339.621399 -538.717590 3.274306 0.468137
339.622253 -538.717346 2.763446 0.666176
339.623138 -538.717102 2.254286 0.563971
339.623962 -538.716858 1.745729 0.513235
339.624786 -538.716553 1.236685 0.488603
339.625641 -538.716309 0.726059 0.526103
339.626526 -538.716064 0.212748 0.575613
341.590424 -538.108154 0.000434 0.210208
343.970673 -537.371338 0.000605 0.225971
345.622437 -536.859985 0.000199 0.230200
346.840851 -536.482849 0.000176 0.235006
339.592529 -538.613037 5.892124 0.951593
339.593445 -538.612732 5.355731 0.730515
339.594299 -538.612488 4.826936 0.717770
339.595245 -538.612244 4.304458 0.580760
339.596100 -538.611938 3.787099 0.482108
339.596985 -538.611694 3.273680 0.459069
339.597839 -538.611450 2.763071 0.608211
339.598724 -538.611145 2.254160 0.746078
339.599548 -538.610901 1.745854 0.803309
339.600403 -538.610657 1.237060 0.723529
339.601257 -538.610413 0.726685 0.701961
339.602112 -538.610107 0.213624 0.551225
341.562042 -538.018433 0.000296 0.216071
343.947510 -537.298157 0.000469 0.208381
345.602905 -536.798401 0.000059 0.212226
346.824768 -536.429443 0.000235 0.232122
339.568115 -538.507141 5.890403 0.560417
339.569031 -538.506836 5.354248 0.529657
339.569885 -538.506592 4.825686 0.669240
339.570831 -538.506287 4.303439 0.570588
339.571716 -538.506042 3.786309 0.665686
339.572571 -538.505859 3.273118 0.558824
339.573456 -538.505554 2.762734 0.649142
339.574341 -538.505310 2.254048 0.590809
339.575165 -538.505066 1.745966 0.682721
339.575989 -538.504761 1.237397 0.522304
339.576843 -538.504517 0.727248 0.661274
339.577728 -538.504272 0.214414 0.601103
341.536713 -537.927734 0.000541 0.236255
343.925323 -537.224731 0.000419 0.227989
345.584686 -536.736328 0.000116 0.190792
346.809113 -536.375977 0.000292 0.219050
339.543732 -538.401306 5.888873 0.548039
339.544647 -538.401001 5.352930 0.442525
339.545532 -538.400818 4.824574 0.649265
339.546448 -538.400574 4.302533 0.677206
339.547333 -538.400330 3.785607 0.671691
339.548187 -538.400024 3.272617 0.643382
339.549072 -538.399780 2.762434 0.587745
339.549957 -538.399536 2.253949 0.565319
339.550812 -538.399292 1.746066 0.543873
339.551636 -538.399048 1.237697 0.494240
339.552490 -538.398804 0.727749 0.460172
339.553375 -538.398560 0.215116 0.642279
341.510895 -537.837219 0.000606 0.227028
343.904327 -537.150940 0.000496 0.220780
345.567810 -536.673950 0.000377 0.224817
346.793854 -536.322388 0.000367 0.236255
339.519379 -538.295532 5.887533 0.621446
339.520294 -538.295349 5.351774 0.615074
339.521179 -538.295105 4.823601 0.703922
339.522095 -538.294800 4.301740 0.597917
339.522949 -538.294556 3.784992 0.605882
339.523834 -538.294373 3.272180 0.559069
339.524719 -538.294128 2.762171 0.605025
339.525574 -538.293823 2.253861 0.561397
339.526428 -538.293640 1.746153 0.644853
339.527313 -538.293396 1.237959 0.565441
339.528137 -538.293091 0.728186 0.575123
339.528992 -538.292908 0.215730 0.620588
341.483856 -537.747070 0.000388 0.249904
343.882263 -537.077454 0.000273 0.240677
345.549255 -536.612000 0.000161 0.205978
346.777863 -536.268982 0.000156 0.257401
339.495026 -538.189941 5.886384 0.587377
339.495941 -538.189697 5.350783 0.615319
339.496857 -538.189392 4.822767 0.628922
339.497772 -538.189209 4.301060 0.497059
339.498627 -538.188965 3.784465 0.590319
339.499481 -538.188660 3.271803 0.556127
339.500366 -538.188477 2.761946 0.634804
339.501221 -538.188232 2.253786 0.497672
339.502075 -538.188049 1.746228 0.603186
339.502960 -538.187744 1.238184 0.619853
339.503815 -538.187561 0.728561 0.581373
339.504669 -538.187317 0.216256 0.589706
341.459778 -537.656128 0.000529 0.204537
343.862610 -537.003296 0.000409 0.223472
345.532745 -536.549500 0.000306 0.201653
346.763214 -536.215149 0.000197 0.207709
339.470703 -538.084351 5.885424 0.631618
339.471619 -538.084045 5.349957 0.675858
339.472504 -538.083862 4.822070 0.634069
339.473450 -538.083618 4.300491 0.529657
339.474304 -538.083374 3.784024 0.521324
339.475159 -538.083130 3.271490 0.610417
339.476044 -538.082947 2.761758 0.669363
339.476898 -538.082642 2.253723 0.582598
339.477753 -538.082458 1.746291 0.573897
339.478607 -538.082214 1.238372 0.205515
339.479492 -538.082031 0.728875 0.601225
339.480377 -538.081726 0.216696 0.635049
341.435852 -537.565125 0.000594 0.216936
343.843079 -536.929077 0.000473 0.212226
345.516266 -536.487000 0.000363 0.218762
346.748993 -536.161316 0.000255 0.188677
339.446381 -537.978760 5.884655 0.611152
339.447296 -537.978516 5.349293 0.503186
339.448181 -537.978333 4.821511 0.759191
339.449127 -537.978027 4.300036 0.579412
339.449982 -537.977844 3.783671 0.537990
339.450867 -537.977661 3.271238 0.518382
339.451752 -537.977356 2.761608 0.572549
339.452576 -537.977173 2.253674 0.608333
339.453430 -537.976990 1.746341 0.581985
339.454315 -537.976685 1.238523 0.179657
339.455170 -537.976501 0.729126 0.575490
339.456055 -537.976318 0.217049 0.711152
341.410797 -537.474426 0.000386 0.208766
343.822235 -536.855225 0.000193 0.215975
345.499908 -536.424438 0.000348 0.242503
346.734222 -536.107544 0.000069 0.220780
339.422089 -537.873230 5.884074 0.624755
339.423004 -537.872986 5.348793 0.549755
339.423859 -537.872803 4.821090 0.673897
339.424805 -537.872559 4.299694 0.538603
339.425659 -537.872375 3.783406 0.549265
339.426544 -537.872131 3.271049 0.671569
339.427429 -537.871887 2.761495 0.593627
339.428284 -537.871704 2.253636 0.565686
339.429169 -537.871460 1.746379 0.548284
339.429993 -537.871277 1.238637 0.486029
339.430847 -537.871094 0.729316 0.567770
339.431732 -537.870789 0.217314 0.673774
341.387512 -537.383179 0.000358 0.220973
343.803741 -536.780762 0.000252 0.217801
345.484314 -536.361755 0.000406 0.212611
346.720795 -536.053467 0.000128 0.226067
339.397766 -537.767700 5.883684 0.611274
339.398682 -537.767517 5.348456 0.539951
339.399597 -537.767334 4.820807 0.673162
339.400513 -537.767090 4.299464 0.535294
339.401337 -537.766846 3.783227 0.559681
339.402222 -537.766663 3.270921 0.640074
339.403107 -537.766418 2.761418 0.597549
339.403961 -537.766235 2.253610 0.543505
339.404846 -537.766052 1.746404 0.532966
339.405731 -537.765869 1.238713 0.182353
339.406586 -537.765625 0.729443 0.550490
339.407471 -537.765381 0.217493 0.623162
341.365997 -537.291626 0.000498 0.254614
343.786163 -536.706055 0.000385 0.267589
345.469513 -536.298828 0.000545 0.207420
346.708649 -535.999023 0.000428 0.207228
339.373444 -537.662292 5.883483 0.708211
339.374359 -537.662109 5.348283 0.540319
339.375275 -537.661804 4.820661 0.745466
339.376190 -537.661621 4.299345 0.517524
339.377075 -537.661438 3.783135 0.618627
339.377960 -537.661194 3.270855 0.642524
339.378815 -537.661011 2.761379 0.748407
339.379669 -537.660828 2.253597 0.489828
339.380554 -537.660583 1.746418 0.556985
339.381439 -537.660400 1.238753 0.213358
339.382294 -537.660217 0.729509 0.541054
339.383179 -537.660034 0.217585 0.700245
341.342804 -537.200378 0.000290 0.225875
343.767212 -536.631714 0.000168 0.233660
345.453552 -536.236206 0.000327 0.240388
346.694916 -535.945068 0.000216 0.231642
339.349182 -537.556824 5.883471 0.562500
339.350067 -537.556580 5.348273 0.543750
339.350983 -537.556396 4.820652 0.717525
339.351898 -537.556213 4.299338 0.604289
339.352753 -537.555969 3.783130 0.479167
339.353668 -537.555786 3.270851 0.696324
339.354523 -537.555603 2.761377 0.584191
339.355408 -537.555359 2.253596 0.555515
339.356293 -537.555176 1.746418 0.487132
339.357117 -537.554993 1.238754 0.613725
339.357971 -537.554749 0.729513 0.661397
339.358856 -537.554565 0.217591 0.594975
341.321991 -537.108521 0.000347 0.220204
343.750275 -536.556885 0.000227 0.202614
345.439301 -536.173157 0.000387 0.246444
346.682617 -535.890686 0.000277 0.223280
339.324860 -537.451294 5.883649 0.512990
339.325775 -537.451111 5.348426 0.467034
339.326691 -537.450867 4.820781 0.620098
339.327576 -537.450684 4.299444 0.604657
339.328461 -537.450562 3.783212 0.565441
339.329346 -537.450378 3.270910 0.559926
339.330231 -537.450134 2.761411 0.543873
339.331085 -537.449951 2.253608 0.415441
339.331970 -537.449768 1.746406 0.496691
339.332825 -537.449524 1.238719 0.494975
339.333710 -537.449402 0.729455 0.544976
339.334564 -537.449219 0.217509 0.665931
341.301880 -537.016663 0.000408 0.204633
343.733917 -536.481873 0.000296 0.228085
345.425079 -536.110107 0.000366 0.261438
346.670715 -535.836182 0.000342 0.247213
339.300537 -537.345825 5.884017 0.513603
339.301453 -537.345642 5.348743 0.477206
339.302368 -537.345459 4.821048 0.641667
339.303284 -537.345276 4.299662 0.653186
339.304169 -537.345032 3.783381 0.551103
339.305023 -537.344849 3.271030 0.499387
339.305908 -537.344727 2.761484 0.652328
339.306793 -537.344543 2.253632 0.515686
339.307648 -537.344299 1.746382 0.599632
339.308533 -537.344116 1.238647 0.583824
339.309418 -537.343994 0.729335 0.593260
339.310303 -537.343750 0.217340 0.617034
341.282379 -536.924622 0.000466 0.232507
343.718964 -536.406677 0.000535 0.246540
345.411682 -536.046875 0.000419 0.230296
346.658844 -535.781738 0.000320 0.217801
339.276215 -537.240295 5.884574 0.580270
339.277130 -537.240112 5.349222 0.463358
339.278046 -537.239990 4.821452 0.616422
339.278961 -537.239746 4.299993 0.491054
339.279846 -537.239563 3.783637 0.425858
339.358398 -537.223450 3.264713 0.494853
339.359283 -537.223267 2.757699 0.665074
339.360138 -537.223083 2.252372 0.522917
339.361023 -537.222900 1.747643 0.503676
339.361877 -537.222778 1.242432 0.559926
339.362732 -537.222534 0.735652 0.396201
339.363617 -537.222351 0.226203 0.615074
341.261810 -536.832703 0.000269 0.246251
343.702209 -536.331787 0.000333 0.214917
345.397583 -535.983765 0.000227 0.205210
346.646667 -535.727356 0.000123 0.200500
339.251923 -537.134766 5.885320 0.566912
339.252808 -537.134583 5.349866 0.499142
339.253723 -537.134399 4.821994 0.674632
339.254639 -537.134216 4.300435 0.531740
339.255524 -537.134094 3.783979 0.436029
339.334198 -537.118408 3.264956 0.576226
339.335052 -537.118286 2.757845 0.569240
339.335938 -537.118103 2.252420 0.521201
339.336792 -537.117981 1.747595 0.472059
339.337677 -537.117737 1.242286 0.616912
339.338562 -537.117615 0.735408 0.468260
339.339447 -537.117432 0.225862 0.690441
341.243622 -536.740417 0.000327 0.216744
343.687378 -536.256531 0.000392 0.240292
345.385010 -535.920349 0.000277 0.221069
346.635895 -535.672668 0.000183 0.212130
339.227570 -537.029114 5.886255 0.569730
339.228516 -537.028992 5.350672 0.463235
339.229431 -537.028809 4.822674 0.637623
339.230316 -537.028625 4.300989 0.577206
339.231201 -537.028442 3.784410 0.638726
339.309998 -537.013428 3.265261 0.648039
339.310852 -537.013306 2.758028 0.619118
339.311737 -537.013062 2.252481 0.501348
339.312622 -537.012939 1.747534 0.435294
339.313507 -537.012756 1.242104 0.527819
339.314392 -537.012634 0.735104 0.518382
339.315277 -537.012451 0.225435 0.715809
341.226501 -536.647827 0.000454 0.240292
343.673370 -536.181091 0.000514 0.215879
345.373260 -535.856812 0.000399 0.248366
346.625763 -535.617859 0.000308 0.242695
339.203217 -536.923523 5.887382 0.590196
339.204163 -536.923340 5.351644 0.441912
339.205078 -536.923157 4.823491 0.635907
339.205994 -536.922974 4.301657 0.542279
339.206848 -536.922852 3.784927 0.637500
339.285797 -536.908386 3.265628 0.569730
339.208618 -536.922485 2.762145 0.205637
339.209503 -536.922363 2.253852 0.230637
339.210388 -536.922241 1.746162 0.210539
339.211273 -536.921997 1.237987 0.205882
339.212158 -536.921875 0.728233 0.195956
339.213043 -536.921753 0.215795 0.179412
341.207306 -536.555725 0.000172 0.242983
343.658173 -536.105896 0.000314 0.225875
345.360474 -535.793396 0.000205 0.301230
346.614746 -535.563171 0.000115 0.204441
339.178864 -536.817810 5.888698 0.631495
339.179810 -536.817627 5.352779 0.466789
339.180725 -536.817444 4.824448 0.670711
339.181610 -536.817322 4.302436 0.546569
339.182526 -536.817139 3.785531 0.683946
339.261536 -536.803223 3.266057 0.634926
339.184235 -536.816833 2.762403 0.424020
339.185120 -536.816650 2.253938 0.346814
339.186005 -536.816528 1.746077 0.302206
339.186920 -536.816406 1.237729 0.368137
339.187805 -536.816223 0.727803 0.235662
339.188690 -536.816040 0.215191 0.258824
341.191010 -536.463013 0.000232 0.227124
343.644928 -536.030334 0.000374 0.229912
345.349304 -535.729797 0.000265 0.248943
346.605103 -535.508301 0.000176 0.198866
339.154480 -536.711975 5.890206 0.756005
339.155426 -536.711853 5.354078 0.734314
339.156342 -536.711731 4.825541 0.705637
339.157227 -536.711487 4.303329 0.605270
339.158142 -536.711365 3.786223 0.585417
339.237305 -536.697998 3.266547 0.628431
339.159912 -536.711060 2.762698 0.417402
339.160767 -536.710938 2.254036 0.367647
339.161652 -536.710815 1.745978 0.264706
339.162537 -536.710632 1.237433 0.421201
339.163422 -536.710449 0.727309 0.197059
339.164307 -536.710327 0.214499 0.280392
341.175385 -536.370178 0.000286 0.269127
343.632172 -535.954651 0.000433 0.229239
345.338165 -535.666077 0.000236 0.308920
346.596436 -535.453247 0.000389 0.216167
339.130066 -536.606140 5.891904 0.490441
339.131012 -536.606018 5.355543 0.487990
339.131927 -536.605774 4.826776 0.467402
339.132843 -536.605652 4.304335 0.758578
339.133728 -536.605530 3.787004 0.526593
339.213013 -536.592651 3.267100 0.668750
339.135498 -536.605225 2.763032 0.453309
339.136353 -536.605103 2.254148 0.339951
339.137268 -536.604919 1.745867 0.263725
339.138153 -536.604797 1.237100 0.237990
339.139038 -536.604675 0.726753 0.187010
339.139923 -536.604492 0.213720 0.292647
341.160400 -536.277283 0.000346 0.250673
343.619934 -535.878906 0.000486 0.230584
345.327881 -535.602234 0.000298 0.217705
346.587555 -535.398254 0.000442 0.239619
339.105652 -536.500122 5.893795 0.543995
339.106598 -536.500000 5.357172 0.536765
339.107513 -536.499878 4.828148 0.522917
339.108429 -536.499695 4.305454 0.665809
339.109314 -536.499573 3.787871 0.557598
339.188721 -536.487305 3.267715 0.608211
339.111053 -536.499329 2.763402 0.347426
339.111938 -536.499146 2.254271 0.348284
339.112854 -536.499023 1.745744 0.333211
339.113739 -536.498901 1.236730 0.317770
339.114624 -536.498718 0.726135 0.233088
339.115540 -536.498596 0.212853 0.292279
341.146118 -536.184265 0.000409 0.227413
343.607849 -535.803162 0.000471 0.232987
345.318024 -535.538391 0.000355 0.253076
346.579102 -535.343140 0.000499 0.269127
339.081207 -536.394043 5.895877 0.331618
339.082153 -536.393921 5.358968 0.308211
339.083069 -536.393738 4.829660 0.313480
339.083984 -536.393616 4.306686 0.510049
339.084869 -536.393494 3.788827 0.571446
339.164429 -536.381714 3.268393 0.604657
339.086639 -536.393250 2.763811 0.328186
339.087524 -536.393127 2.254407 0.443260
339.088409 -536.393005 1.745608 0.279167
339.089294 -536.392822 1.236322 0.260539
339.090179 -536.392700 0.725455 0.241544
339.091095 -536.392578 0.211898 0.235049
341.130646 -536.091431 0.000200 0.212418
343.595245 -535.727478 0.000267 0.206459
345.307495 -535.474609 0.000162 0.222607
346.570007 -535.288208 0.000315 0.237985
339.056732 -536.287842 5.898151 0.350980
339.057678 -536.287659 5.360929 0.293873
339.058563 -536.287537 4.831312 0.302941
339.059479 -536.287476 4.308033 0.593873
339.060394 -536.287292 3.789871 0.538113
339.140076 -536.276123 3.269134 0.612623
339.062164 -536.287048 2.764256 0.376716
339.063049 -536.286987 2.254555 0.351961
339.063965 -536.286804 1.745459 0.288113
339.064850 -536.286682 1.235876 0.275368
339.065735 -536.286560 0.724711 0.306618
339.066650 -536.286438 0.210854 0.222549
341.117615 -535.998230 0.000260 0.212707
343.584656 -535.651489 0.000327 0.247597
345.298523 -535.410583 0.000220 0.238850
346.562286 -535.232971 0.000367 0.196655
339.032196 -536.181458 5.900619 0.360417
339.033142 -536.181396 5.363055 0.233578
339.034088 -536.181274 4.833104 0.284681
339.034973 -536.181091 4.309494 0.577574
339.035889 -536.180969 3.791004 0.541422
339.115692 -536.170349 3.269937 0.581985
339.037659 -536.180725 2.764740 0.337868
339.038574 -536.180664 2.254717 0.347181
339.039459 -536.180542 1.745298 0.355147
339.040344 -536.180420 1.235393 0.491299
339.041260 -536.180298 0.723904 0.173039
339.042175 -536.180176 0.209722 0.286397
341.105194 -535.904907 0.000315 0.256920
343.574554 -535.575439 0.000380 0.222414
345.290009 -535.346497 0.000275 0.199250
346.554962 -535.177734 0.000426 0.253268
339.007690 -536.075012 5.903279 0.358824
339.008636 -536.074890 5.365349 0.176471
339.009552 -536.074768 4.835036 0.401225
339.010468 -536.074646 4.311069 0.572426
339.011383 -536.074585 3.792225 0.545833
339.091309 -536.064453 3.270802 0.536642
339.013123 -536.074341 2.765261 0.306618
339.014008 -536.074219 2.254890 0.390809
339.014923 -536.074158 1.745125 0.325735
339.015808 -536.073975 1.234871 0.539216
339.016724 -536.073853 0.723034 0.192770
339.017609 -536.073792 0.208502 0.290196
341.093475 -535.811523 0.000374 0.251057
343.564972 -535.499268 0.000440 0.213860
345.281921 -535.282410 0.000328 0.207228
346.547974 -535.122437 0.000478 0.227701
338.983093 -535.968384 5.906136 0.375000
338.984039 -535.968262 5.367811 0.187132
338.984955 -535.968140 4.837110 0.252328
338.985870 -535.968079 4.312759 0.632721
338.986786 -535.967896 3.793536 0.502451
339.066864 -535.958435 3.271732 0.646324
338.988556 -535.967773 2.765821 0.324877
338.989471 -535.967590 2.255076 0.329289
338.990356 -535.967529 1.744938 0.355515
338.991272 -535.967407 1.234312 0.538971
338.992157 -535.967346 0.722100 0.223162
338.993073 -535.967163 0.207192 0.290196
341.080658 -535.718262 0.000172 0.228950
343.554504 -535.423279 0.000235 0.237985
345.273163 -535.218323 0.000134 0.222126
346.540436 -535.067200 0.000285 0.209054
338.958496 -535.861572 5.909185 0.548162
338.959442 -535.861511 5.370440 0.537868
338.960388 -535.861389 4.839325 0.498529
338.961273 -535.861267 4.314565 0.665074
338.962189 -535.861206 3.794936 0.568995
339.042358 -535.852173 3.272724 0.613235
338.963959 -535.860962 2.766419 0.376471
338.964874 -535.860901 2.255275 0.316422
338.965759 -535.860779 1.744739 0.339461
338.966675 -535.860718 1.233714 0.538725
338.967560 -535.860596 0.721103 0.167525
338.968475 -535.860474 0.205792 0.286397
341.070251 -535.624695 0.000231 0.233564
343.546021 -535.347046 0.000292 0.211361
345.265991 -535.154053 0.000188 0.204729
346.533875 -535.011841 0.000249 0.241061
338.933838 -535.754639 5.912431 0.651593
338.934784 -535.754578 5.373239 0.511397
338.935730 -535.754395 4.841682 0.515931
338.936615 -535.754333 4.316487 0.652083
338.937531 -535.754272 3.796427 0.531005
339.017853 -535.745789 3.273780 0.573529
338.939331 -535.754028 2.767056 0.345833
338.940247 -535.753967 2.255487 0.282108
338.941132 -535.753906 1.744527 0.414216
338.942047 -535.753784 1.233078 0.246691
