# This PCD file was generated using the MATLAB® pcwrite function
# from Computer Vision Toolbox®.
# .PCD v.7 - Point Cloud Data file format
VERSION .7
FIELDS x y z intensity
SIZE 4 4 4 4
TYPE F F F F
COUNT 1 1 1 1
WIDTH 1165
HEIGHT 1
VIEWPOINT 0 0 0 1 0 0 0
POINTS 1165
DATA ascii
130.140244 -308.882446 -0.000064 0.197520
134.061203 -309.761139 5.006428 0.368873
134.420822 -309.836487 4.671613 0.338971
137.047546 -310.387024 4.739090 0.343750
134.209625 -309.792267 3.802874 0.440564
136.258820 -310.221710 3.639066 0.379779
nan nan nan 0.000000
135.514587 -310.065735 2.662589 0.457353
146.355881 -312.337891 2.401966 1.000000
146.355881 -312.337891 1.598034 1.000000
146.355881 -312.337891 0.793242 1.000000
146.187851 -312.302673 -0.000068 0.225586
139.329132 -310.865173 0.000048 0.223183
135.282715 -310.017151 0.034490 0.460417
133.072189 -309.553864 -0.000032 0.183199
131.377319 -309.198639 0.000001 0.217993
130.128769 -308.936981 -0.000005 0.242791
132.951401 -309.606201 4.726456 0.500613
nan nan nan 0.000000
136.743881 -310.428680 4.686631 0.353922
nan nan nan 0.000000
134.548248 -309.952515 3.440146 0.337132
nan nan nan 0.000000
nan nan nan 0.000000
135.297882 -310.115112 2.217405 0.441299
135.275757 -310.110291 1.782965 0.465441
135.258392 -310.106506 1.349303 0.435784
135.252014 -310.105164 0.914487 0.463358
135.229706 -310.100311 0.479635 0.443382
135.146896 -310.082367 0.052179 0.471814
133.056824 -309.629028 -0.000152 0.267686
131.364029 -309.261902 -0.000040 0.250481
130.117767 -308.991638 -0.000166 0.211649
132.932632 -309.679840 4.725835 0.399877
132.778656 -309.645325 4.316237 0.382843
137.148468 -310.625031 4.766216 0.368995
134.673889 -310.070251 3.878917 0.393750
134.592941 -310.052094 3.447634 0.345711
135.025040 -310.148956 3.068113 0.464338
135.170517 -310.181580 2.647275 0.441667
135.185974 -310.185028 2.215863 0.446201
135.174240 -310.182434 1.784333 0.462623
135.163239 -310.179962 1.353091 0.428922
135.153976 -310.177887 0.921054 0.452819
135.147659 -310.176483 0.486965 0.443260
135.109726 -310.167969 0.054827 0.452696
133.039825 -309.703888 -0.000062 0.240484
131.349670 -309.324951 0.000055 0.231065
130.105011 -309.045898 0.000029 0.220396
133.981628 -310.000702 4.999887 0.348162
133.743347 -309.945557 4.533791 0.364093
134.354828 -310.087128 4.248850 0.348162
134.224350 -310.056915 3.813462 0.440564
134.338089 -310.083252 3.419847 0.350613
135.171661 -310.276276 3.082152 0.448652
135.127701 -310.266083 2.646147 0.466667
135.151703 -310.271667 2.215632 0.466299
135.142426 -310.269501 1.784524 0.460907
135.131165 -310.266876 1.353679 0.470221
135.118057 -310.263855 0.922358 0.515319
135.113113 -310.262726 0.488635 0.457966
135.082733 -310.255676 0.055839 0.463971
133.022827 -309.778717 -0.000074 0.192522
131.336090 -309.388153 -0.000119 0.221357
130.093277 -309.100372 -0.000138 0.193003
134.116638 -310.118958 5.039588 0.401225
133.372055 -309.941071 4.455509 0.370711
133.883255 -310.063171 4.164325 0.342157
135.192963 -310.376099 3.964166 0.434069
136.132568 -310.600555 3.634427 0.358946
135.200958 -310.377991 3.086401 0.458946
135.155502 -310.367126 2.648613 0.448162
135.196014 -310.376831 2.216731 0.460294
135.187271 -310.374725 1.783416 0.434069
135.175507 -310.371918 1.350376 0.425123
135.157578 -310.367615 0.917255 0.440931
135.157440 -310.367584 0.480910 0.432598
135.129028 -310.360809 0.045584 0.432843
133.005096 -309.853394 -0.000043 0.221357
131.320419 -309.450897 0.000076 0.237697
130.080414 -309.154633 -0.000112 0.248943
135.018890 -310.428436 5.277497 0.462377
133.471420 -310.047272 4.481771 0.453922
133.296661 -310.004211 4.058070 0.376226
133.572662 -310.072205 3.719965 0.352819
136.117188 -310.698944 3.635377 0.374142
nan nan nan 0.000000
nan nan nan 0.000000
147.037262 -313.388580 2.416659 1.000000
147.037262 -313.388580 1.583340 1.000000
147.037262 -313.388580 0.749128 1.000000
145.997101 -313.132385 0.000067 0.234717
139.193649 -311.456665 0.000128 0.220108
135.406219 -310.523804 -0.000074 0.210496
132.986816 -309.927917 -0.000006 0.232122
131.304871 -309.513641 0.000142 0.213956
130.066956 -309.208740 -0.000032 0.275087
132.847595 -309.971771 4.722110 0.359314
134.122986 -310.295349 4.631291 0.462623
133.870209 -310.231201 4.169334 0.439216
134.075012 -310.283173 3.799846 0.456250
135.467468 -310.636475 3.561121 0.468995
nan nan nan 0.000000
nan nan nan 0.000000
147.179626 -313.608093 2.419790 1.000000
147.179626 -313.608093 1.580209 1.000000
147.179626 -313.608093 0.739728 1.000000
145.957397 -313.298004 -0.000068 0.229335
139.165375 -311.574707 -0.000009 0.212803
135.384583 -310.615448 -0.000257 0.233276
132.968964 -310.002563 -0.000151 0.234429
131.289978 -309.576538 -0.000032 0.239619
130.053528 -309.262848 -0.000057 0.236351
133.122864 -310.122040 4.798271 0.469976
134.316895 -310.433899 4.679312 0.448284
133.764832 -310.289703 4.153418 0.447672
133.948303 -310.337616 3.783659 0.488848
135.476334 -310.736694 3.564984 0.457843
141.541351 -312.320709 3.629424 0.399755
nan nan nan 0.000000
147.324127 -313.830963 2.422989 1.000000
147.324127 -313.830963 1.577011 1.000000
147.324127 -313.830933 0.730124 1.000000
145.913895 -313.462646 0.000021 0.236351
139.134827 -311.692200 0.000025 0.255863
135.359482 -310.706177 -0.000006 0.216647
132.948761 -310.076599 0.000051 0.226836
131.273712 -309.639099 0.000001 0.236351
130.039490 -309.316772 -0.000020 0.202134
135.216507 -310.765228 5.346475 0.459926
133.282532 -310.245697 4.452948 0.365809
133.499634 -310.304047 4.107439 0.348652
133.651367 -310.344788 3.741352 0.401225
nan nan nan 0.000000
nan nan nan 0.000000
nan nan nan 0.000000
147.470871 -314.057220 2.426259 1.000000
147.470871 -314.057220 1.573741 1.000000
147.470871 -314.057220 0.720309 1.000000
145.872391 -313.627838 -0.000159 0.222414
139.104797 -311.809784 -0.000101 0.229335
135.336197 -310.797394 -0.000132 0.212803
132.929718 -310.150909 -0.000062 0.219435
131.257904 -309.701813 -0.000167 0.204056
130.025146 -309.370636 -0.000003 0.331740
133.933395 -310.507690 5.019413 0.373039
133.262558 -310.322418 4.453141 0.431618
135.257339 -310.873291 4.443244 0.462132
133.339676 -310.343719 3.696702 0.399142
nan nan nan 0.000000
140.872345 -312.423798 3.578640 0.398407
nan nan nan 0.000000
147.619904 -314.287048 2.429600 1.000000
147.619904 -314.287048 1.570400 1.000000
147.619904 -314.287048 0.710278 1.000000
145.826614 -313.791840 -0.000072 0.220396
139.072205 -311.926697 -0.000017 0.226067
135.311234 -310.888153 -0.000099 0.226259
132.909409 -310.224945 -0.000036 0.232315
131.239838 -309.763916 0.000073 0.207036
130.010498 -309.424438 -0.000003 0.332475
132.761398 -310.262695 4.720165 0.347794
133.783844 -310.552734 4.574969 0.359926
133.260941 -310.404419 4.070436 0.357353
135.702423 -311.096954 4.064327 0.358333
nan nan nan 0.000000
140.339417 -312.412323 3.536306 0.400000
nan nan nan 0.000000
147.771301 -314.520508 2.433016 1.000000
147.771301 -314.520508 1.566984 1.000000
147.771301 -314.520508 0.700024 1.000000
145.781769 -313.956146 -0.000161 0.241542
139.040207 -312.043793 -0.000103 0.210688
135.285873 -310.978821 -0.000102 0.254998
132.889221 -310.298981 -0.000131 0.282584
131.223053 -309.826324 -0.000069 0.192714
129.957077 -309.467224 0.009996 1.000000
133.027237 -310.419098 4.794985 0.388971
135.287216 -311.077240 4.918328 0.424142
135.394608 -311.108521 4.478956 0.410294
133.458786 -310.544769 3.721837 0.411397
135.912109 -311.259216 3.629313 0.397181
140.401825 -312.566742 3.544722 0.398652
nan nan nan 0.000000
147.925125 -314.757690 2.436508 1.000000
147.925125 -314.757690 1.563492 1.000000
147.925125 -314.757690 0.689541 1.000000
145.734756 -314.119812 -0.000163 0.238850
139.006683 -312.160431 -0.000104 0.231065
135.259491 -311.069153 -0.000042 0.237409
132.868042 -310.372742 -0.000134 0.238947
131.205200 -309.888458 -0.000068 0.252980
129.941757 -309.520508 0.009997 1.000000
nan nan nan 0.000000
133.860275 -310.749298 4.602690 0.444975
135.688141 -311.295471 4.539808 0.344730
135.951233 -311.374115 4.111261 0.437623
139.028412 -312.293610 4.006837 0.415686
141.562073 -313.050720 3.647198 0.397549
nan nan nan 0.000000
148.081451 -314.998779 2.440077 1.000000
148.081451 -314.998779 1.559922 1.000000
148.081467 -314.998779 0.678824 1.000000
145.686157 -314.283051 -0.000129 0.227509
138.972076 -312.276764 -0.000072 0.221646
135.232651 -311.159393 -0.000010 0.217416
132.846146 -310.446289 -0.000098 0.258170
131.186981 -309.950500 -0.000089 0.214533
129.926056 -309.573730 0.009997 1.000000
132.431335 -310.399414 4.650552 0.351961
138.989792 -312.409149 5.766911 0.408333
135.247528 -311.262390 4.461331 0.468137
133.209854 -310.638000 3.690415 0.343873
213.503326 -335.242554 12.971962 1.000000
139.805222 -312.659027 3.500016 0.401961
213.503296 -335.242584 6.685450 1.000000
148.240387 -315.243866 2.443728 1.000000
148.240387 -315.243866 1.556272 1.000000
148.240387 -315.243835 0.667864 1.000000
145.637665 -314.446259 -0.000201 0.232987
138.936447 -312.392822 -0.000016 0.241157
135.205856 -311.249634 -0.000082 0.216359
132.824570 -310.519928 -0.000223 0.255671
131.168579 -310.012482 -0.000159 0.217416
129.909988 -309.626801 0.009999 1.000000
133.111969 -310.690643 4.835002 0.422426
133.765442 -310.895874 4.592382 0.347426
135.172165 -311.337708 4.452295 0.348407
211.788452 -335.401855 15.911530 1.000000
133.386536 -310.776886 3.335134 0.341422
139.666977 -312.749451 3.491387 0.394118
211.788452 -335.401855 6.607307 1.000000
148.401978 -315.493011 2.447462 1.000000
148.401978 -315.493011 1.552538 1.000000
148.401978 -315.493011 0.656655 1.000000
145.586807 -314.608826 -0.000167 0.241061
138.900192 -312.508636 0.000018 0.217224
135.176987 -311.339233 0.000069 0.228085
132.801041 -310.592957 -0.000074 0.228662
131.149261 -310.074158 -0.000124 0.236640
129.893555 -309.679779 0.009998 1.000000
134.001221 -311.059753 5.075295 0.384559
135.139496 -311.426025 4.909895 0.406373
135.210037 -311.448730 4.464982 0.396691
210.129791 -335.555939 15.683978 1.000000
139.256516 -312.750793 4.047487 0.399877
139.742401 -312.907135 3.501198 0.397059
210.129791 -335.555939 6.531946 1.000000
148.566315 -315.746429 2.451281 1.000000
148.566315 -315.746429 1.548719 1.000000
148.566315 -315.746429 0.645188 1.000000
145.534607 -314.770935 -0.000113 0.223280
138.863022 -312.624176 0.000067 0.213572
135.148483 -311.428925 0.000065 0.197712
132.777542 -310.666046 -0.000026 0.210784
131.128937 -310.135559 0.000042 0.268454
129.914764 -309.744873 -0.000004 0.337623
134.002289 -311.150360 5.082577 0.480025
134.946289 -311.461426 4.872580 0.353064
135.190506 -311.541901 4.466852 0.367770
139.529755 -312.971649 4.688756 0.400245
139.736832 -313.039856 4.110324 0.405270
140.241547 -313.206177 3.547707 0.402819
208.524399 -335.705048 6.459220 1.000000
148.733490 -316.004211 2.455189 1.000000
148.733490 -316.004211 1.544811 1.000000
148.733490 -316.004242 0.633458 1.000000
145.482651 -314.933075 -0.000180 0.225106
138.825989 -312.739746 0.000002 0.213091
135.119751 -311.518555 0.000002 0.235390
132.754105 -310.739105 -0.000088 0.231161
131.109497 -310.197235 -0.000087 0.226067
129.897491 -309.797882 -0.000003 0.333333
134.837570 -311.522736 5.310566 0.349877
135.061508 -311.598267 4.905535 0.351348
135.172150 -311.635590 4.469074 0.438113
139.916946 -313.235779 4.755635 0.399142
206.969681 -335.849457 12.277774 1.000000
139.399017 -313.061096 3.478407 0.396814
206.969681 -335.849457 6.389007 1.000000
148.903595 -316.266541 2.459187 1.000000
148.903610 -316.266541 1.540813 1.000000
148.903610 -316.266541 0.621454 1.000000
145.426804 -315.093994 -0.000009 0.230200
138.787170 -312.854767 0.000054 0.218762
135.090012 -311.607849 -0.000001 0.231353
132.729111 -310.811646 0.000053 0.218378
131.089081 -310.258545 -0.000096 0.201173
129.879868 -309.850739 -0.000003 0.325735
134.015884 -311.336823 5.100732 0.364706
134.862564 -311.628967 4.867011 0.373162
136.486099 -312.189178 4.727877 0.368750
139.309219 -313.163269 4.666842 0.401593
140.047501 -313.417999 4.158092 0.402083
142.392914 -314.227295 3.741621 0.404167
205.463074 -335.989441 6.321177 1.000000
149.076721 -316.533508 2.463279 1.000000
149.076721 -316.533508 1.536721 1.000000
149.076721 -316.533508 0.609170 1.000000
145.373276 -315.255646 -0.000135 0.219050
138.749496 -312.970123 -0.000129 0.232507
135.060425 -311.697235 -0.000129 0.245579
132.704971 -310.884491 -0.000071 0.271626
131.068726 -310.319916 -0.000215 0.230681
129.861877 -309.903503 -0.000003 0.334559
133.820770 -311.359619 5.056466 0.383701
133.904846 -311.389282 4.654656 0.361887
136.574692 -312.331421 4.751623 0.364461
139.117035 -313.228546 4.643116 0.402574
139.676285 -313.425903 4.118070 0.396446
140.979385 -313.885742 3.622961 0.391544
204.002258 -336.125122 6.255612 1.000000
149.252991 -316.805298 2.467467 1.000000
149.252975 -316.805328 1.532533 1.000000
149.252975 -316.805328 0.596596 1.000000
145.316559 -315.416229 -0.000082 0.230584
138.709061 -313.084564 -0.000077 0.238274
135.029068 -311.786011 -0.000076 0.222895
132.679749 -310.957001 -0.000082 0.221742
131.047180 -310.380890 -0.000159 0.253845
129.843506 -309.956146 -0.000003 0.334926
134.041367 -311.529755 5.122829 0.353186
133.921951 -311.486664 4.665202 0.354534
135.116257 -311.917511 4.476374 0.353676
139.182190 -313.384308 4.659981 0.400980
139.705765 -313.573151 4.126959 0.402941
140.998657 -314.039581 3.628688 0.386152
202.585083 -336.256744 6.192214 1.000000
149.432449 -317.082062 2.471755 1.000000
149.432449 -317.082062 1.528245 1.000000
149.432449 -317.082092 0.583722 1.000000
145.259430 -315.576630 -0.000090 0.220588
138.667862 -313.198761 -0.000025 0.249135
134.997101 -311.874542 -0.000023 0.252980
132.653976 -311.029236 -0.000087 0.226163
131.025528 -310.441803 -0.000177 0.235967
129.824768 -310.008636 -0.000003 0.322917
135.323669 -312.095245 5.473122 0.354289
134.832336 -311.914124 4.881556 0.349020
201.209412 -336.384552 17.299938 1.000000
138.946136 -313.430695 4.629443 0.397672
140.080734 -313.848969 4.178357 0.404534
142.072769 -314.583374 3.726707 0.397917
201.209396 -336.384552 6.130872 1.000000
149.615265 -317.363953 2.476146 1.000000
141.063919 -314.211426 1.672993 0.384191
149.615265 -317.363953 0.570540 1.000000
145.202591 -315.737183 -0.000221 0.216359
138.627823 -313.313354 -0.000216 0.228950
134.966019 -311.963409 -0.000208 0.230969
132.628326 -311.101593 -0.000211 0.208285
131.003418 -310.502563 -0.000184 0.209919
129.805679 -310.061005 -0.000003 0.336642
134.497879 -311.887665 5.261136 0.345221
135.832169 -312.390198 5.119813 0.386520
136.794449 -312.752594 4.815448 0.366789
138.700027 -313.470245 4.597284 0.405637
139.072464 -313.610535 4.060085 0.400000
140.938110 -314.313141 3.631789 0.410539
140.923050 -314.307465 2.976882 0.375123
140.860916 -314.284058 2.324309 0.371691
140.828537 -314.271851 1.676258 0.390441
140.880768 -314.291534 1.025337 0.387255
140.907013 -314.301392 0.370935 0.380025
138.584488 -313.426727 -0.000099 0.226932
134.932434 -312.051361 -0.000095 0.212611
132.600006 -311.172913 0.000087 0.221934
130.980362 -310.562958 -0.000072 0.212803
129.786209 -310.113220 -0.000002 0.344730
135.444260 -312.349060 5.523795 0.352819
136.018127 -312.569763 5.171146 0.363480
136.922272 -312.917480 4.847858 0.392157
138.667999 -313.588898 4.599103 0.409926
139.235855 -313.807312 4.085704 0.398284
140.928970 -314.458466 3.635327 0.373039
140.856201 -314.430481 2.975964 0.381863
140.793518 -314.406372 2.323989 0.393260
140.781433 -314.401733 1.676222 0.373407
140.812424 -314.413635 1.026341 0.428922
140.832245 -314.421265 0.373169 0.377819
138.541412 -313.540192 -0.000110 0.209823
134.897873 -312.138885 0.000077 0.219050
132.572784 -311.244690 0.000072 0.191465
130.957047 -310.623260 -0.000003 0.343137
129.766388 -310.165344 -0.000002 0.332721
135.939606 -312.649048 5.666670 0.393750
136.581390 -312.901031 5.310456 0.423284
148.289413 -317.498016 7.077636 0.396446
139.723038 -314.134552 4.774296 0.400368
142.239960 -315.122803 4.462649 0.408456
197.312927 -336.746460 8.606589 1.000000
148.936127 -317.751984 3.405056 0.400123
150.184830 -318.242249 2.489970 1.000000
150.184830 -318.242249 1.510030 1.000000
140.874542 -314.586700 1.020417 0.379167
140.822372 -314.566193 0.369620 0.359804
138.498489 -313.653748 -0.000240 0.231161
134.864594 -312.226959 -0.000055 0.227316
132.545593 -311.316437 -0.000048 0.211842
130.933640 -310.683533 -0.000002 0.335294
129.746185 -310.217285 -0.000002 0.337377
135.735382 -312.677277 5.621727 0.386275
137.121643 -313.232788 5.445338 0.380270
137.116791 -313.230835 4.901647 0.365809
141.740677 -315.083740 5.104412 0.398284
142.245605 -315.286041 4.470181 0.399265
196.085266 -336.860535 8.516466 1.000000
196.085297 -336.860504 5.904290 1.000000
150.382141 -318.546509 2.494807 1.000000
150.382141 -318.546509 1.505193 1.000000
150.382141 -318.546509 0.514517 1.000000
144.956635 -316.372406 -0.000096 0.227509
138.453125 -313.766357 -0.000163 0.216744
134.829788 -312.314423 -0.000036 0.220684
132.517242 -311.387726 -0.000034 0.269031
130.866837 -310.726410 0.009996 1.000000
129.725632 -310.269104 -0.000002 0.334314
138.929718 -314.092346 6.496406 0.406985
136.895401 -313.260620 5.402299 0.354657
140.221054 -314.620270 5.520080 0.371324
145.306152 -316.699280 5.684583 0.389706
139.663864 -314.392487 4.156301 0.396201
142.552246 -315.573395 3.792766 0.406495
148.347565 -317.942749 3.381702 0.410539
150.583389 -318.856842 2.499765 1.000000
150.583389 -318.856812 1.500235 1.000000
150.583389 -318.856842 0.499632 1.000000
144.892075 -316.529968 -0.000037 0.219723
138.405579 -313.878052 0.000085 0.216455
134.794159 -312.401550 0.000013 0.199250
132.488205 -311.458801 0.000011 0.230488
130.842697 -310.786011 0.009996 1.000000
129.704727 -310.320740 -0.000002 0.337623
135.829941 -312.935455 5.668126 0.524265
136.995041 -313.421326 5.435439 0.360172
142.050262 -315.529419 5.890857 0.397794
141.566010 -315.327484 5.094113 0.402328
142.816467 -315.848938 4.555474 0.402574
142.395844 -315.673523 3.784046 0.372917
149.350967 -318.573914 3.439100 0.405147
150.788727 -319.173462 2.504849 1.000000
150.788727 -319.173462 1.495152 1.000000
150.788727 -319.173492 0.484371 1.000000
144.829102 -316.688232 -0.000216 0.236448
138.360672 -313.990814 -0.000091 0.248847
134.759338 -312.489014 -0.000164 0.213091
132.459732 -311.530029 -0.000149 0.204633
130.818146 -310.845490 0.009997 1.000000
129.683441 -310.372284 -0.000002 0.336642
138.751694 -314.288971 6.474207 0.395343
138.825165 -314.320221 5.875072 0.397917
142.012604 -315.675629 5.894868 0.400123
138.971268 -314.382324 4.684976 0.396324
139.425964 -314.575684 4.139153 0.400245
146.681305 -317.660919 4.171138 0.399632
149.005753 -318.649323 3.424908 0.402083
150.998291 -319.496643 2.510062 1.000000
150.998291 -319.496643 1.489939 1.000000
150.998291 -319.496643 0.468721 1.000000
144.763168 -316.845245 -0.000231 0.223376
138.313156 -314.102509 -0.000040 0.219723
134.722397 -312.575592 -0.000101 0.219531
132.429703 -311.600677 -0.000098 0.243656
130.793167 -310.904755 0.009998 1.000000
129.661804 -310.423645 -0.000002 0.337010
135.891815 -313.185120 5.706861 0.332353
138.873749 -314.477783 5.898144 0.401716
142.679413 -316.127563 6.038802 0.400368
140.231964 -315.066589 4.896859 0.391789
139.293686 -314.659851 4.128987 0.394975
145.569107 -317.380249 4.078260 0.404779
149.024155 -318.878021 3.430171 0.409436
151.212250 -319.826538 2.515409 1.000000
151.212250 -319.826538 1.484591 1.000000
151.212250 -319.826538 0.452668 1.000000
144.695068 -317.001343 -0.000149 0.219627
138.265152 -314.213959 -0.000025 0.205882
134.684769 -312.661865 -0.000019 0.262015
132.399353 -311.671143 -0.000085 0.190408
130.810272 -310.982269 -0.000002 0.328554
129.639816 -310.474884 -0.000002 0.333211
135.930847 -313.315308 5.728894 0.393995
139.941284 -315.087219 6.162139 0.390931
148.154068 -318.715759 7.140201 0.406005
148.528870 -318.881378 6.251224 0.384681
140.205719 -315.204071 4.250209 0.397059
190.414459 -337.387299 8.104633 1.000000
149.232773 -319.192383 3.445752 0.398529
151.430740 -320.163483 2.520894 1.000000
151.430740 -320.163483 1.479105 1.000000
151.430740 -320.163483 0.436199 1.000000
144.628311 -317.158051 -0.000287 0.226451
138.217575 -314.325623 -0.000162 0.210208
134.648270 -312.748627 -0.000221 0.210111
132.369263 -311.741730 -0.000218 0.208285
130.784348 -311.041504 -0.000002 0.325735
129.617477 -310.525940 -0.000002 0.335907
135.588058 -313.274994 5.646358 0.403554
139.170166 -314.887604 5.992474 0.400735
189.364899 -337.484772 15.379631 1.000000
139.885040 -315.209412 4.858347 0.400858
140.139420 -315.323944 4.248861 0.403186
146.543915 -318.207184 4.178777 0.391789
149.054184 -319.337280 3.440639 0.406618
151.653946 -320.507690 2.526525 1.000000
151.653946 -320.507690 1.473475 1.000000
151.653946 -320.507690 0.419296 1.000000
144.557999 -317.313141 -0.000201 0.229335
138.167450 -314.436188 -0.000076 0.223472
134.609436 -312.834412 -0.000143 0.216359
132.336990 -311.811401 -0.000016 0.206459
130.758026 -311.100525 -0.000002 0.325735
129.594772 -310.576843 -0.000002 0.336520
138.532303 -314.737061 6.469297 0.401471
140.300186 -315.547821 6.273662 0.393505
139.222473 -315.053589 5.384699 0.398652
188.340866 -337.579895 12.775010 1.000000
139.807053 -315.321655 4.213942 0.397794
145.904068 -318.117828 4.127981 0.403431
149.399963 -319.721100 3.463906 0.403799
151.882050 -320.859406 2.532305 1.000000
151.882050 -320.859406 1.467696 1.000000
151.882034 -320.859406 0.401946 1.000000
144.486969 -317.467926 -0.000151 0.221261
138.117401 -314.546783 -0.000097 0.219627
134.570572 -312.920135 -0.000154 0.213283
132.305008 -311.881134 0.000030 0.208862
130.731277 -311.159393 -0.000002 0.335417
129.571716 -310.627594 -0.000002 0.341667
135.497147 -313.456848 5.644650 0.406740
139.976746 -315.549194 6.210395 0.396324
139.143799 -315.160156 5.379856 0.399020
139.628448 -315.386505 4.834703 0.397549
139.694092 -315.417206 4.206765 0.407843
147.229553 -318.936951 4.254824 0.363848
147.214218 -318.929779 3.350128 0.380147
147.138763 -318.894531 2.448358 0.368382
147.106583 -318.879486 1.552222 0.394608
147.187454 -318.917267 0.651323 0.379289
144.415268 -317.622406 -0.000134 0.228566
138.067200 -314.657288 -0.000197 0.238562
134.531647 -313.005859 -0.000255 0.237601
132.273575 -311.951141 -0.000129 0.320454
130.704117 -311.218079 -0.000002 0.333946
129.548294 -310.678192 -0.000002 0.317402
135.459396 -313.551361 5.646192 0.395098
141.629654 -316.486084 6.619588 0.403431
139.065750 -315.266632 5.375270 0.398652
139.483246 -315.465210 4.820194 0.400858
139.543243 -315.493744 4.194822 0.399510
145.417816 -318.287811 4.097754 0.417157
147.213364 -319.141815 3.354532 0.371691
147.088928 -319.082611 2.448933 0.373652
147.085739 -319.081116 1.551124 0.375245
147.091217 -319.083740 0.652112 0.381373
144.342697 -317.776459 -0.000138 0.229335
138.015472 -314.767090 -0.000199 0.228854
134.491547 -313.091034 -0.000262 0.214341
132.240875 -312.020569 -0.000134 0.244041
130.676559 -311.276550 -0.000002 0.333333
129.524521 -310.728607 -0.000002 0.342770
135.426758 -313.648468 5.649347 0.398284
139.534134 -315.637329 6.132237 0.399265
147.493652 -319.491394 7.090421 0.399632
139.367477 -315.556610 4.810578 0.398652
139.428925 -315.586365 4.187576 0.400858
148.582001 -320.018402 4.393059 0.413235
185.412079 -337.851929 5.444077 1.000000
152.597580 -321.962769 2.550594 1.000000
152.597565 -321.962769 1.449406 1.000000
152.597580 -321.962769 0.347036 1.000000
144.268051 -317.929504 -0.000051 0.233564
137.962280 -314.876190 -0.000112 0.209727
134.449570 -313.175293 -0.000057 0.242887
132.207169 -312.089508 -0.000033 0.193195
130.648590 -311.334808 -0.000002 0.334681
129.500412 -310.778839 -0.000003 0.342647
135.386551 -313.742035 5.650581 0.394363
139.298264 -315.669952 6.089557 0.399142
139.110901 -315.577637 5.407327 0.397059
139.948425 -315.990387 4.916254 0.406863
139.253922 -315.648102 4.172604 0.407598
149.157089 -320.528992 4.453806 0.406373
184.480530 -337.938446 5.404823 1.000000
152.847168 -322.347687 2.557030 1.000000
152.847168 -322.347687 1.442971 1.000000
152.847168 -322.347687 0.327718 1.000000
144.194794 -318.083282 -0.000186 0.226355
137.910614 -314.986053 -0.000320 0.222222
134.409103 -313.260315 -0.000199 0.209343
132.174149 -312.158783 -0.000166 0.264033
130.620209 -311.392914 -0.000001 0.330392
129.475937 -310.828979 -0.000003 0.346936
135.326782 -313.825867 5.646528 0.354044
138.859329 -315.597687 5.997722 0.405392
139.034836 -315.685730 5.403690 0.404044
139.783386 -316.061188 4.899009 0.405024
183.832016 -338.154480 9.917366 1.000000
145.841812 -319.099884 4.158223 0.401471
183.832016 -338.154480 5.381021 1.000000
183.832016 -338.154510 3.126203 1.000000
183.832016 -338.154510 0.873797 1.000000
158.704498 -325.551392 -0.000015 0.332353
144.118851 -318.235718 -0.000174 0.223568
137.855927 -315.094421 -0.000237 0.222414
134.366684 -313.344360 -0.000113 0.225875
132.139877 -312.227448 -0.000147 0.193291
130.591431 -311.450806 -0.000002 0.335784
129.451126 -310.878845 -0.000004 0.335907
138.798630 -315.711792 6.635784 0.406618
138.762695 -315.693451 5.988437 0.410539
144.836319 -318.793060 6.600866 0.397549
140.308838 -316.482513 4.996773 0.406250
146.422607 -319.602570 5.113749 0.396936
145.658340 -319.212555 4.148970 0.398162
183.346832 -338.446289 5.366225 1.000000
183.346802 -338.446289 3.121272 1.000000
183.346802 -338.446289 0.878727 1.000000
158.576096 -325.804932 -0.000010 0.333211
144.042053 -318.387695 -0.000182 0.235102
137.801163 -315.202759 -0.000241 0.235006
134.324066 -313.428284 -0.000093 0.232603
132.105301 -312.295959 -0.000161 0.235006
130.562241 -311.508484 -0.000002 0.339951
129.425964 -310.928589 -0.000004 0.334069
138.628601 -315.769104 6.604487 0.404044
138.669083 -315.790131 5.980017 0.401838
138.949829 -315.935852 5.410603 0.403922
139.233856 -316.083313 4.827891 0.406495
139.694275 -316.322357 4.252829 0.398284
146.436569 -319.822723 4.228604 0.402574
182.865799 -338.735565 5.351717 1.000000
182.865814 -338.735565 3.116442 1.000000
182.865814 -338.735565 0.883558 1.000000
158.446075 -326.057648 -0.000013 0.332721
143.965179 -318.539673 -0.000281 0.219627
137.746185 -315.311005 -0.000318 0.227989
134.281601 -313.512299 -0.000196 0.223664
132.069427 -312.363800 -0.000006 0.333701
130.532654 -311.565948 -0.000002 0.336029
129.400452 -310.978180 -0.000004 0.338603
138.053055 -315.610291 6.458318 0.405147
139.023056 -316.122528 6.081047 0.401716
182.388916 -339.022369 14.361436 1.000000
139.948761 -316.611328 4.958170 0.404779
146.742966 -320.199097 5.178081 0.407108
146.548889 -320.096619 4.247181 0.402574
182.388901 -339.022339 5.337498 1.000000
182.388916 -339.022369 3.111706 1.000000
182.388931 -339.022369 0.888295 1.000000
158.314117 -326.309387 -0.000007 0.331495
143.885178 -318.690033 -0.000189 0.231930
137.689194 -315.418152 -0.000226 0.231642
134.237381 -313.595398 -0.000103 0.206171
132.033829 -312.431793 -0.000006 0.340319
130.502670 -311.623260 -0.000001 0.323407
129.374588 -311.027557 -0.000003 0.334804
138.627121 -316.059631 6.638142 0.403309
144.603668 -319.269165 7.464349 0.402574
146.264969 -320.161316 6.946664 0.402451
139.670898 -316.620148 4.922406 0.401471
146.599762 -320.341125 5.171218 0.404289
145.975250 -320.005737 4.202163 0.404167
181.916016 -339.306732 5.323559 1.000000
181.916016 -339.306763 3.107061 1.000000
181.916016 -339.306763 0.892939 1.000000
158.180481 -326.560211 -0.000004 0.332843
143.805206 -318.840363 -0.000196 0.224337
137.632202 -315.525330 -0.000237 0.239908
134.193604 -313.678711 -0.000185 0.230777
131.949341 -312.473511 0.009994 1.000000
130.472275 -311.680298 -0.000001 0.339706
129.348389 -311.076752 -0.000003 0.343505
146.660782 -320.593689 8.948500 0.402819
144.824066 -319.590759 7.539278 0.403186
145.029373 -319.702881 6.709244 0.406985
138.908539 -316.360596 4.804629 0.394853
147.042023 -320.801880 5.241197 0.405024
145.621857 -320.026398 4.177489 0.394485
181.447067 -339.588806 5.309897 1.000000
181.447067 -339.588806 3.102510 1.000000
181.447067 -339.588806 0.897488 1.000000
158.045273 -326.810211 -0.000012 0.332475
143.725174 -318.990723 -0.000296 0.232026
137.575104 -315.632446 -0.000329 0.235294
134.149338 -313.761810 -0.000278 0.236544
131.912979 -312.540680 0.009995 1.000000
130.441498 -311.737152 -0.000002 0.340319
129.321854 -311.125763 -0.000003 0.338603
137.828278 -315.911835 6.444777 0.405515
146.235428 -320.579071 7.909263 0.402206
146.352783 -320.644226 7.002800 0.402451
145.828903 -320.353394 5.989548 0.407721
145.859970 -320.370667 5.098150 0.406373
145.555603 -320.201691 4.179661 0.402451
180.981888 -339.868530 5.296508 1.000000
180.981888 -339.868530 3.098050 1.000000
180.981888 -339.868530 0.901948 1.000000
157.908127 -327.059174 -0.000007 0.332598
143.641800 -319.139221 -0.000179 0.233180
137.515060 -315.737976 -0.000131 0.230873
134.103409 -313.843994 -0.000189 0.255383
131.876160 -312.607513 0.009996 1.000000
130.410309 -311.793793 -0.000002 0.333701
129.294968 -311.174591 -0.000003 0.334191
nan nan nan 0.000000
146.432541 -320.909637 7.981282 0.403064
145.899597 -320.608887 6.927703 0.373284
145.415222 -320.335541 5.934706 0.392034
145.877930 -320.596649 5.112648 0.407598
180.520462 -340.146057 7.480145 1.000000
180.520447 -340.146057 5.283384 1.000000
180.520462 -340.146057 3.093680 1.000000
180.520462 -340.146057 0.906320 1.000000
157.769424 -327.307251 -0.000015 0.331863
143.558731 -319.287903 -0.000190 0.232122
137.455841 -315.843933 -0.000140 0.214917
134.057953 -313.926422 -0.000277 0.231257
131.886719 -312.701172 -0.000006 0.332475
130.378738 -311.850189 -0.000001 0.338358
129.267746 -311.223236 -0.000003 0.337010
nan nan nan 0.000000
146.328796 -321.072998 7.979255 0.399020
144.987350 -320.303619 6.755963 0.405882
146.023148 -320.897675 6.054323 0.408578
145.950394 -320.855957 5.134649 0.410784
180.062668 -340.421356 7.458682 1.000000
180.062668 -340.421356 5.270526 1.000000
180.062668 -340.421356 3.089397 1.000000
180.062668 -340.421356 0.910603 1.000000
157.629013 -327.554352 -0.000022 0.331985
143.475494 -319.436462 -0.000282 0.226740
137.396530 -315.949860 -0.000235 0.213476
134.011932 -314.008545 -0.000370 0.228085
131.848785 -312.767853 -0.000006 0.334926
130.346771 -311.906372 -0.000002 0.330270
129.240173 -311.271667 -0.000003 0.333456
nan nan nan 0.000000
179.608414 -340.694550 16.323013 1.000000
144.596237 -320.286865 6.692829 0.406985
179.608414 -340.694550 11.837137 1.000000
147.170441 -321.787292 5.309785 0.408088
179.608414 -340.694519 7.437650 1.000000
179.608414 -340.694550 5.257925 1.000000
179.608414 -340.694550 3.085198 1.000000
179.608414 -340.694550 0.914800 1.000000
157.486832 -327.800476 -0.000027 0.332598
143.390396 -319.584015 -0.000298 0.226932
137.335876 -316.054993 -0.000249 0.213379
133.964920 -314.090118 -0.000386 0.232411
131.810379 -312.834320 -0.000006 0.335784
130.314407 -311.962341 -0.000002 0.328554
129.212265 -311.319916 -0.000003 0.332108
nan nan nan 0.000000
179.157639 -340.965668 16.268732 1.000000
144.427002 -320.395874 6.676325 0.412990
145.810394 -321.215240 6.050777 0.400858
147.514389 -322.224426 5.369375 0.401716
179.157623 -340.965637 7.417042 1.000000
179.157639 -340.965668 5.245579 1.000000
179.157623 -340.965668 3.081086 1.000000
179.157623 -340.965668 0.918914 1.000000
157.342743 -328.045441 -0.000021 0.331618
143.302628 -319.729980 -0.000156 0.225010
137.273911 -316.159363 -0.000187 0.247020
133.916214 -314.170685 -0.000214 0.230104
131.771500 -312.900452 -0.000006 0.338603
130.281662 -312.018066 -0.000002 0.340196
129.184036 -311.368011 -0.000003 0.335784
146.192230 -321.667480 8.980524 0.409559
178.710251 -341.234711 16.215553 1.000000
144.379410 -320.576660 6.685750 0.402574
144.580399 -320.697601 5.854757 0.402696
146.606979 -321.917053 5.261618 0.401471
178.710220 -341.234680 7.396853 1.000000
147.859879 -322.670959 3.464672 0.402451
178.710220 -341.234680 3.077057 1.000000
178.710220 -341.234680 0.922943 1.000000
157.197098 -328.289490 -0.000023 0.332353
143.215515 -319.876282 -0.000171 0.235775
137.211838 -316.263672 -0.000206 0.219050
133.868057 -314.251587 -0.000229 0.222318
131.732178 -312.966370 -0.000006 0.323897
130.248520 -312.073578 -0.000002 0.337377
129.155457 -311.415863 -0.000003 0.338725
nan nan nan 0.000000
178.266144 -341.501770 16.163454 1.000000
146.476181 -322.069061 7.152788 0.408946
145.639343 -321.557556 6.055215 0.403554
146.524658 -322.098694 5.264357 0.408333
178.266129 -341.501770 7.377072 1.000000
146.229721 -321.918427 3.377026 0.410662
178.266129 -341.501770 3.073111 1.000000
178.266129 -341.501770 0.926890 1.000000
157.049606 -328.532440 -0.000016 0.332843
143.126846 -320.021698 -0.000139 0.228278
137.149567 -316.367859 -0.000296 0.235486
133.819778 -314.332428 -0.000324 0.230488
131.692383 -313.031952 -0.000006 0.332353
130.214996 -312.128845 -0.000002 0.336765
129.126556 -311.463531 -0.000003 0.329657
145.791016 -321.876343 8.922060 0.401348
177.825256 -341.766937 16.112423 1.000000
146.272202 -322.175140 7.131312 0.406127
145.169571 -321.490509 5.990670 0.404044
145.788406 -321.874756 5.178729 0.400735
177.825241 -341.766937 7.357700 1.000000
146.697952 -322.439484 3.410036 0.414706
177.825241 -341.766937 3.069242 1.000000
177.825241 -341.766937 0.930756 1.000000
156.900391 -328.774353 -0.000010 0.332475
143.036560 -320.166077 -0.000044 0.226740
137.085190 -316.470764 -0.000201 0.225010
133.769852 -314.412231 -0.000227 0.222318
131.652130 -313.097321 -0.000006 0.332230
130.181091 -312.183899 -0.000001 0.331618
129.097321 -311.510986 -0.000003 0.324387
145.596771 -321.981934 8.894842 0.398775
146.324951 -322.441162 8.130927 0.397426
146.527924 -322.569183 7.208787 0.407230
147.009705 -322.872986 6.330845 0.399632
145.763168 -322.086884 5.189215 0.407476
145.796143 -322.107666 4.276309 0.396569
146.436157 -322.511322 3.401005 0.401838
177.387512 -342.030182 3.065456 1.000000
177.387512 -342.030182 0.934544 1.000000
156.749588 -329.015259 -0.000008 0.331863
142.945892 -320.310211 -0.000013 0.226163
137.020584 -316.573547 -0.000171 0.218474
133.719116 -314.491516 -0.000090 0.226932
131.611404 -313.162354 -0.000006 0.334926
130.146805 -312.238708 -0.000002 0.343137
129.067749 -311.558228 -0.000003 0.337010
145.820435 -322.353363 8.992029 0.407476
144.979965 -321.815125 7.813235 0.396078
176.952850 -342.291595 13.805947 1.000000
145.179367 -321.942810 6.027691 0.403309
176.952850 -342.291595 9.464241 1.000000
176.952850 -342.291595 7.320140 1.000000
146.891876 -323.039581 3.433820 0.401593
176.952850 -342.291595 3.061747 1.000000
176.952850 -342.291595 0.938252 1.000000
156.597214 -329.255157 -0.000011 0.332598
142.856659 -320.455292 -0.000218 0.220973
136.956100 -316.676392 -0.000257 0.237889
133.669800 -314.571716 -0.000296 0.218954
131.570251 -313.227112 -0.000006 0.328676
130.112122 -312.293274 -0.000002 0.340196
129.037842 -311.605286 -0.000003 0.344240
145.530075 -322.397034 8.936848 0.400123
144.581192 -321.779968 7.736750 0.402328
146.295319 -322.894684 7.205089 0.392034
146.748322 -323.189270 6.323497 0.391422
145.409149 -322.318390 5.169280 0.402451
176.521179 -342.551178 7.301945 1.000000
146.944275 -323.316681 3.443366 0.404779
176.521179 -342.551178 3.058116 1.000000
176.521179 -342.551178 0.941884 1.000000
156.443115 -329.494019 -0.000012 0.331373
142.763306 -320.597748 -0.000119 0.232411
136.889603 -316.777924 -0.000162 0.241157
133.618225 -314.650482 -0.000203 0.244041
131.528641 -313.291595 -0.000006 0.341422
130.077072 -312.347595 -0.000002 0.333456
129.007614 -311.652100 -0.000002 0.328554
144.921249 -322.226685 8.785905 0.398162
145.074799 -322.328064 7.890806 0.404044
146.341309 -323.164337 7.238985 0.398529
143.814102 -321.495667 5.821750 0.399755
145.308014 -322.482056 5.169870 0.401348
176.092438 -342.809021 7.284127 1.000000
176.092438 -342.809021 5.165941 1.000000
176.092438 -342.809021 3.054559 1.000000
176.092438 -342.809021 0.945439 1.000000
156.287323 -329.731720 -0.000013 0.332353
142.669678 -320.739990 -0.000091 0.225682
136.822861 -316.879333 -0.000135 0.221742
133.566895 -314.729401 -0.000248 0.200115
131.486588 -313.355774 -0.000006 0.327696
130.041626 -312.401672 -0.000002 0.335417
128.977066 -311.698730 -0.000002 0.334436
144.934860 -322.463501 8.821606 0.401348
144.714096 -322.315521 7.824441 0.394608
146.290634 -323.372375 7.252273 0.394608
143.482437 -321.489838 5.780311 0.393627
145.056396 -322.544983 5.149780 0.374265
143.485611 -321.491974 4.089946 0.403064
147.383224 -324.104828 3.482696 0.400123
175.666534 -343.065155 3.051081 1.000000
175.666534 -343.065155 0.948921 1.000000
156.129913 -329.968353 -0.000013 0.331863
142.574356 -320.881073 0.000008 0.217705
136.754929 -316.979889 -0.000038 0.219050
133.513397 -314.806885 -0.000009 0.330147
131.444077 -313.419647 -0.000006 0.336765
130.005814 -312.455475 -0.000002 0.335172
128.946182 -311.745148 -0.000002 0.331985
146.133469 -323.509186 9.217010 0.402083
143.729187 -321.872986 7.594664 0.410784
145.955521 -323.388092 7.203342 0.407843
143.320343 -321.594727 5.769093 0.399632
144.591049 -322.459503 5.099915 0.376593
144.232254 -322.215332 4.173879 0.407476
175.243423 -343.319611 5.145265 1.000000
175.243423 -343.319611 3.047672 1.000000
175.243408 -343.319611 0.952328 1.000000
155.970886 -330.203918 -0.000016 0.332230
142.481400 -321.023804 -0.000227 0.219723
136.688095 -317.081238 -0.000191 0.227316
133.460709 -314.884888 -0.000009 0.333088
131.401123 -313.483276 -0.000006 0.335049
129.969635 -312.509064 -0.000002 0.338971
128.914993 -311.791321 -0.000002 0.328064
143.935349 -322.235199 8.582442 0.406373
144.860779 -322.874481 7.918559 0.395098
144.975586 -322.953766 7.011598 0.400368
174.823013 -343.572449 11.466742 1.000000
146.175186 -323.782471 5.336282 0.397059
143.648071 -322.036743 4.126091 0.401103
146.827896 -324.233337 3.463694 0.403064
174.823013 -343.572449 3.044340 1.000000
174.823013 -343.572449 0.955662 1.000000
155.810303 -330.438446 -0.000025 0.332598
142.385330 -321.164429 -0.000251 0.217416
136.619293 -317.181244 -0.000169 0.238081
133.351990 -314.924194 0.009996 1.000000
131.357727 -313.546539 -0.000006 0.331618
129.933075 -312.562378 -0.000002 0.332475
128.883469 -311.837311 -0.000002 0.338235
143.477097 -322.137939 8.474311 0.390686
146.449097 -324.221802 8.366350 0.407230
145.546143 -323.588684 7.162798 0.403309
174.405273 -343.823669 11.437169 1.000000
143.699203 -322.293671 5.004653 0.406127
143.621689 -322.239319 4.133805 0.404412
145.637543 -323.652740 3.399403 0.375000
174.405273 -343.823669 3.041076 1.000000
145.300690 -323.416595 1.540597 0.369363
155.647873 -330.671661 -0.000022 0.332475
142.287796 -321.304016 -0.000224 0.219339
136.549759 -317.280701 -0.000140 0.243849
133.298508 -315.001068 0.009994 1.000000
131.313904 -313.609528 -0.000006 0.331495
129.896149 -312.615448 -0.000002 0.337990
128.851624 -311.883057 -0.000002 0.337255
143.300552 -322.233765 8.452039 0.395098
143.954025 -322.698822 7.736419 0.408088
145.253662 -323.623657 7.123006 0.378922
145.255432 -323.624908 6.176748 0.370343
143.782883 -322.576996 5.031321 0.406005
144.266434 -322.921112 4.209239 0.408456
145.212997 -323.594727 3.380722 0.381985
145.145142 -323.546448 2.458550 0.388358
145.114532 -323.524628 1.542066 0.382475
145.181046 -323.571991 0.621204 0.387377
142.188553 -321.442413 -0.000125 0.229815
136.479019 -317.379364 -0.000041 0.222222
133.299393 -315.116669 -0.000009 0.337990
131.269638 -313.672180 -0.000006 0.337500
129.858841 -312.668243 -0.000002 0.331985
128.819458 -311.928589 -0.000002 0.333211
144.088013 -323.024261 8.727721 0.400735
146.148468 -324.512329 8.349834 0.395098
145.507629 -324.049530 7.205712 0.399020
173.577423 -344.321533 11.379934 1.000000
143.264877 -322.429810 4.973025 0.400735
143.227631 -322.402924 4.115257 0.414706
173.577454 -344.321564 5.106504 1.000000
145.470016 -324.022369 2.467408 0.386642
144.891541 -323.604584 1.544269 0.375490
145.105423 -323.759064 0.618868 0.382721
142.090836 -321.581909 -0.000279 0.226355
136.409393 -317.478790 -0.000196 0.201173
133.244568 -315.193146 -0.000009 0.335294
131.224915 -313.734558 -0.000006 0.333578
129.821182 -312.720795 -0.000002 0.340686
128.786987 -311.973907 -0.000002 0.347917
144.224548 -323.356812 8.804386 0.400490
146.649109 -325.133728 8.516223 0.401103
146.168030 -324.781158 7.381199 0.406740
144.230057 -323.360840 6.030506 0.368260
145.923447 -324.601929 5.367349 0.404412
144.369934 -323.463348 4.242151 0.406863
173.167252 -344.568237 5.097339 1.000000
173.167236 -344.568207 3.031710 1.000000
173.167236 -344.568207 0.968291 1.000000
155.155029 -331.367523 -0.000261 0.230200
141.989670 -321.718933 -0.000180 0.226259
136.337250 -317.576385 -0.000091 0.211073
133.189178 -315.269257 -0.000008 0.336152
131.179779 -313.796631 -0.000006 0.335417
129.783142 -312.773071 -0.000002 0.331618
128.754196 -312.018951 -0.000002 0.339828
144.975372 -324.151520 9.073919 0.392157
145.251984 -324.357239 8.173853 0.404779
143.618759 -323.142670 6.830945 0.398407
145.673492 -324.670685 6.318159 0.421569
172.759445 -344.813477 9.232082 1.000000
142.717300 -322.472260 4.084866 0.398897
172.759430 -344.813477 5.088378 1.000000
172.759430 -344.813477 3.028723 1.000000
172.759430 -344.813477 0.971276 1.000000
154.985748 -331.595856 -0.000233 0.226067
141.888229 -321.855713 -0.000149 0.218185
136.264969 -317.673889 -0.000064 0.227893
133.133286 -315.345001 -0.000008 0.333578
131.134201 -313.858337 -0.000005 0.338848
129.744751 -312.825073 -0.000001 0.336152
128.721085 -312.063812 -0.000002 0.337990
144.623947 -324.133331 9.000735 0.407353
144.524780 -324.058533 8.009469 0.410539
146.124313 -325.265442 7.427401 0.404902
172.353958 -345.057343 11.298749 1.000000
143.605484 -323.364838 5.068439 0.398039
143.928604 -323.608643 4.220222 0.402451
172.353958 -345.057343 5.079618 1.000000
172.353958 -345.057343 3.025807 1.000000
172.353958 -345.057343 0.974194 1.000000
154.816620 -331.824310 -0.000312 0.223952
141.786911 -321.992615 -0.000229 0.227413
136.193314 -317.771912 -0.000225 0.243080
133.076843 -315.420319 -0.000008 0.333333
131.088196 -313.919769 -0.000006 0.339828
129.705994 -312.876801 -0.000002 0.335784
128.687668 -312.108429 -0.000002 0.325980
143.767990 -323.723755 8.767958 0.404779
143.907944 -323.830902 7.873656 0.404657
142.929703 -323.081970 6.724212 0.400245
143.371704 -323.420380 5.933887 0.403554
144.349640 -324.169067 5.192580 0.407230
143.779572 -323.732635 4.216643 0.399877
171.950760 -345.299805 5.071055 1.000000
171.950775 -345.299835 3.022954 1.000000
171.950775 -345.299835 0.977046 1.000000
154.644165 -332.050293 -0.000285 0.225106
141.682678 -322.127289 -0.000108 0.228374
136.119690 -317.868408 -0.000199 0.223280
133.019882 -315.495270 -0.000008 0.335662
131.041763 -313.980835 -0.000005 0.333578
129.666870 -312.928284 -0.000002 0.340564
128.653931 -312.152802 -0.000002 0.332108
143.662643 -323.880768 8.771080 0.409314
143.728119 -323.931610 7.856183 0.398529
142.498169 -322.976318 6.650289 0.420588
143.585953 -323.821198 5.995363 0.398775
143.281921 -323.585083 5.054284 0.408456
142.655792 -323.098755 4.111936 0.401593
171.549774 -345.540955 5.062691 1.000000
171.549774 -345.540955 3.020169 1.000000
171.549774 -345.540955 0.979832 1.000000
154.471161 -332.275848 -0.000320 0.228854
141.579041 -322.262421 -0.000144 0.233852
136.045807 -317.964722 -0.000236 0.233372
132.962402 -315.569794 -0.000008 0.333456
130.994904 -314.041626 -0.000005 0.337132
129.627396 -312.979462 -0.000002 0.338113
128.619904 -312.196960 -0.000002 0.332966
143.194550 -323.752197 8.658879 0.407721
143.704071 -324.153687 7.881644 0.403554
142.907700 -323.526184 6.770630 0.404779
144.030075 -324.410553 6.101118 0.409314
144.462982 -324.751678 5.243992 0.402696
143.436493 -323.942841 4.205000 0.396691
171.150955 -345.780823 5.054519 1.000000
171.150955 -345.780823 3.017447 1.000000
171.150955 -345.780823 0.982554 1.000000
154.295609 -332.499420 -0.000296 0.229623
141.473892 -322.396362 -0.000121 0.224241
135.970840 -318.060181 -0.000209 0.210496
132.904404 -315.643951 -0.000008 0.334191
130.947601 -314.102081 -0.000005 0.335784
129.587570 -313.030396 -0.000002 0.337010
128.585556 -312.240845 -0.000002 0.342647
171.151062 -346.336609 17.660885 1.000000
143.580597 -324.298370 7.880184 0.401103
145.570755 -325.889191 7.417474 0.410539
144.020538 -324.650055 6.122093 0.402083
144.853668 -325.315979 5.319557 0.414338
144.668228 -325.167755 4.346548 0.409926
171.151062 -346.336609 5.071497 1.000000
171.151047 -346.336609 3.023102 1.000000
171.151047 -346.336609 0.976899 1.000000
154.119064 -332.722229 -0.000306 0.229815
141.368103 -322.529816 -0.000130 0.236832
135.895493 -318.155334 -0.000224 0.212322
132.845886 -315.717651 -0.000008 0.330760
130.899902 -314.162170 -0.000005 0.339338
129.547379 -313.081055 -0.000002 0.339461
128.550903 -312.284515 -0.000002 0.333946
143.894318 -324.797455 8.959289 0.394485
142.993988 -324.067413 7.750218 0.406373
171.944153 -347.541626 13.626128 1.000000
144.133072 -324.991058 6.166819 0.398652
144.499908 -325.288513 5.285872 0.416176
144.614594 -325.381500 4.354111 0.400368
171.944153 -347.541595 5.138969 1.000000
171.944153 -347.541626 3.045576 1.000000
171.944153 -347.541626 0.954424 1.000000
153.937729 -332.941132 -0.000112 0.226355
141.261703 -322.662811 -0.000172 0.219243
135.817886 -318.248688 -0.000004 0.333946
132.786850 -315.790985 -0.000007 0.337010
130.851791 -314.221954 -0.000005 0.331495
129.506836 -313.131378 -0.000002 0.331985
128.515945 -312.327911 -0.000002 0.338725
185.465424 -359.240234 22.481756 1.000000
172.772903 -348.800842 16.110706 1.000000
142.457642 -323.866943 6.745722 0.403554
144.009232 -325.143097 6.166858 0.406495
144.598221 -325.627563 5.319304 0.397794
143.617172 -324.820648 4.261679 0.397917
172.772903 -348.800842 5.209634 1.000000
172.772903 -348.800842 3.069113 1.000000
172.772903 -348.800842 0.930886 1.000000
153.757568 -333.160980 -0.000087 0.229431
141.153748 -322.794525 -0.000147 0.232795
135.674011 -318.287506 0.009991 1.000000
132.727310 -315.863892 -0.000007 0.331985
130.803253 -314.281403 -0.000005 0.331985
129.465942 -313.181458 -0.000002 0.333578
128.480682 -312.371124 -0.000001 0.326961
184.956039 -359.558685 22.434378 1.000000
173.639877 -350.118103 16.436401 1.000000
173.639862 -350.118073 14.162236 1.000000
143.943680 -325.343811 6.178361 0.397181
143.740372 -325.174194 5.210034 0.405024
143.636627 -325.087646 4.276874 0.412990
173.639893 -350.118103 5.283717 1.000000
173.639908 -350.118103 3.093791 1.000000
173.639908 -350.118103 0.906209 1.000000
153.575882 -333.379547 -0.000064 0.228278
141.044907 -322.925476 -0.000123 0.234525
135.596970 -318.380493 0.009990 1.000000
132.667267 -315.936371 -0.000007 0.334069
130.754303 -314.340454 -0.000005 0.337010
129.424713 -313.231262 -0.000003 0.324142
128.445129 -312.414032 -0.000002 0.340074
184.448959 -359.875641 22.388206 1.000000
174.547882 -351.497681 16.778225 1.000000
144.480865 -326.055969 7.283572 0.404902
143.401611 -325.142731 6.097609 0.398775
143.819397 -325.496277 5.240827 0.407230
174.547882 -351.497681 7.610470 1.000000
174.547913 -351.497711 5.361469 1.000000
174.547913 -351.497711 3.119689 1.000000
174.547913 -351.497711 0.880311 1.000000
153.393066 -333.597168 -0.000066 0.226355
140.935349 -323.055878 -0.000124 0.220588
135.585617 -318.529083 -0.000003 0.331740
132.606720 -316.008453 -0.000007 0.335784
130.704926 -314.399231 -0.000005 0.332721
129.383118 -313.280762 -0.000003 0.327206
128.409271 -312.456726 -0.000002 0.329534
183.944153 -360.191223 22.343235 1.000000
175.499969 -352.944244 17.137379 1.000000
143.070969 -325.113098 6.977040 0.375490
143.048767 -325.094025 6.053089 0.413113
175.499954 -352.944244 10.062881 1.000000
175.499954 -352.944244 7.746820 1.000000
175.499954 -352.944244 5.443161 1.000000
175.499954 -352.944244 3.146901 1.000000
175.499985 -352.944275 0.853099 1.000000
153.209412 -333.814117 -0.000110 0.226259
140.825348 -323.185852 -0.000171 0.240388
135.506882 -318.621460 -0.000003 0.336275
