# This PCD file was generated using the MATLABÂ® pcwrite function
# from Computer Vision ToolboxÂ®.
# .PCD v.7 - Point Cloud Data file format
VERSION .7
FIELDS x y z intensity
SIZE 4 4 4 4
TYPE F F F F
COUNT 1 1 1 1
WIDTH 1243
HEIGHT 1
VIEWPOINT 0 0 0 1 0 0 0
POINTS 1243
DATA ascii
-60.194984 9.769521 2.374052 1.000000
-60.194984 9.769521 2.224110 1.000000
-60.194984 9.769522 2.074650 1.000000
-60.194984 9.769522 1.925350 1.000000
-60.194984 9.769522 1.775890 1.000000
-60.194984 9.769522 1.625948 1.000000
-60.194984 9.769522 1.475199 1.000000
-60.194984 9.769523 1.323310 1.000000
-60.194984 9.769522 1.169940 1.000000
-60.194984 9.769523 1.014730 1.000000
-60.194984 9.769523 0.857311 1.000000
-60.226433 9.774673 3.142361 1.000000
-60.226433 9.774672 2.984987 1.000000
-60.226433 9.774672 2.829822 1.000000
-60.226433 9.774672 2.676495 1.000000
-60.226433 9.774672 2.524650 1.000000
-60.226433 9.774673 2.373945 1.000000
-60.226433 9.774672 2.224046 1.000000
-60.226433 9.774672 2.074629 1.000000
-60.226433 9.774672 1.925371 1.000000
-60.226433 9.774672 1.775954 1.000000
-60.226433 9.774673 1.626055 1.000000
-60.226433 9.774672 1.475350 1.000000
-60.226433 9.774673 1.323505 1.000000
-60.226433 9.774673 1.170178 1.000000
-60.226433 9.774673 1.015013 1.000000
-60.226433 9.774673 0.857639 1.000000
-60.257870 9.779820 3.142089 1.000000
-60.257870 9.779820 2.984752 1.000000
-60.257870 9.779820 2.829625 1.000000
-60.257870 9.779820 2.676334 1.000000
-60.257870 9.779820 2.524525 1.000000
-60.257870 9.779820 2.373855 1.000000
-60.257870 9.779820 2.223992 1.000000
-60.257870 9.779820 2.074611 1.000000
-60.257870 9.779820 1.925389 1.000000
-60.257870 9.779820 1.776007 1.000000
-60.257870 9.779820 1.626144 1.000000
-60.257870 9.779820 1.475475 1.000000
-60.257870 9.779820 1.323666 1.000000
-60.257870 9.779820 1.170376 1.000000
-60.257870 9.779820 1.015248 1.000000
-60.257870 9.779820 0.857911 1.000000
-60.289288 9.784967 3.141872 1.000000
-60.289288 9.784966 2.984566 1.000000
-60.289288 9.784966 2.829467 1.000000
-60.289288 9.784967 2.676206 1.000000
-60.289288 9.784966 2.524426 1.000000
-60.289288 9.784966 2.373785 1.000000
-60.289288 9.784966 2.223950 1.000000
-60.289288 9.784966 2.074597 1.000000
-60.289288 9.784966 1.925403 1.000000
-60.289288 9.784967 1.776050 1.000000
-60.289288 9.784966 1.626215 1.000000
-60.289288 9.784966 1.475574 1.000000
-60.289288 9.784967 1.323794 1.000000
-60.289288 9.784966 1.170532 1.000000
-60.289288 9.784967 1.015435 1.000000
-60.289288 9.784968 0.858128 1.000000
-60.320702 9.790111 3.141712 1.000000
-60.320702 9.790112 2.984427 1.000000
-60.320702 9.790112 2.829350 1.000000
-60.320702 9.790112 2.676111 1.000000
-60.320702 9.790111 2.524352 1.000000
-60.320702 9.790112 2.373732 1.000000
-60.320702 9.790111 2.223919 1.000000
-60.320702 9.790112 2.074586 1.000000
-60.320702 9.790112 1.925414 1.000000
-60.320702 9.790112 1.776081 1.000000
-60.320702 9.790112 1.626268 1.000000
-60.320702 9.790111 1.475648 1.000000
-60.320702 9.790112 1.323889 1.000000
-60.320702 9.790112 1.170650 1.000000
-60.320702 9.790112 1.015573 1.000000
-60.320702 9.790112 0.858288 1.000000
-60.352104 9.795255 3.141607 1.000000
-60.352104 9.795255 2.984336 1.000000
-60.352104 9.795255 2.829274 1.000000
-60.352104 9.795255 2.676049 1.000000
-60.352104 9.795255 2.524304 1.000000
-60.352104 9.795255 2.373698 1.000000
-60.352104 9.795255 2.223898 1.000000
-60.352104 9.795255 2.074579 1.000000
-60.352104 9.795255 1.925421 1.000000
-60.352104 9.795255 1.776102 1.000000
-60.352104 9.795255 1.626302 1.000000
-60.352104 9.795255 1.475696 1.000000
-60.352104 9.795255 1.323951 1.000000
-60.352104 9.795255 1.170726 1.000000
-60.352104 9.795255 1.015664 1.000000
-60.352104 9.795255 0.858393 1.000000
-60.383507 9.800397 3.141557 1.000000
-60.383503 9.800398 2.984294 1.000000
-60.383503 9.800398 2.829238 1.000000
-60.383503 9.800398 2.676019 1.000000
-60.383503 9.800398 2.524281 1.000000
-60.383503 9.800398 2.373682 1.000000
-60.383503 9.800398 2.223888 1.000000
-60.383503 9.800398 2.074576 1.000000
-60.383503 9.800398 1.925424 1.000000
-60.383503 9.800398 1.776112 1.000000
-60.383503 9.800398 1.626318 1.000000
-60.383503 9.800398 1.475719 1.000000
-60.383503 9.800398 1.323981 1.000000
-60.383503 9.800398 1.170762 1.000000
-60.383503 9.800398 1.015706 1.000000
-60.383503 9.800398 0.858443 1.000000
-60.414902 9.805540 3.141563 1.000000
-60.414902 9.805540 2.984299 1.000000
-60.414902 9.805540 2.829243 1.000000
-60.414902 9.805540 2.676023 1.000000
-60.414902 9.805540 2.524284 1.000000
-60.414902 9.805540 2.373684 1.000000
-60.414902 9.805539 2.223890 1.000000
-60.414902 9.805540 2.074576 1.000000
-60.414902 9.805540 1.925423 1.000000
-60.414902 9.805539 1.776110 1.000000
-60.414902 9.805540 1.626316 1.000000
-60.414902 9.805540 1.475716 1.000000
-60.414902 9.805540 1.323977 1.000000
-60.414902 9.805540 1.170757 1.000000
-60.414902 9.805540 1.015701 1.000000
-60.414902 9.805540 0.858437 1.000000
-60.446301 9.810682 3.141625 1.000000
-60.446301 9.810682 2.984353 1.000000
-60.446301 9.810682 2.829288 1.000000
-60.446301 9.810682 2.676060 1.000000
-60.446301 9.810681 2.524312 1.000000
-60.446301 9.810682 2.373704 1.000000
-60.446301 9.810682 2.223902 1.000000
-60.446301 9.810681 2.074581 1.000000
-60.446301 9.810681 1.925419 1.000000
-60.446301 9.810682 1.776098 1.000000
-60.446301 9.810682 1.626296 1.000000
-60.446301 9.810682 1.475688 1.000000
-60.446301 9.810682 1.323941 1.000000
-60.446301 9.810682 1.170712 1.000000
-60.446301 9.810682 1.015648 1.000000
-60.446301 9.810682 0.858375 1.000000
-60.477707 9.815825 3.141743 1.000000
-60.477707 9.815826 2.984454 1.000000
-60.477707 9.815825 2.829373 1.000000
-60.477707 9.815826 2.676129 1.000000
-60.477707 9.815825 2.524366 1.000000
-60.477707 9.815825 2.373742 1.000000
-60.477707 9.815825 2.223925 1.000000
-60.477707 9.815825 2.074588 1.000000
-60.477707 9.815825 1.925412 1.000000
-60.477707 9.815825 1.776075 1.000000
-60.477707 9.815825 1.626258 1.000000
-60.477707 9.815825 1.475634 1.000000
-60.477707 9.815826 1.323871 1.000000
-60.477707 9.815826 1.170627 1.000000
-60.477707 9.815826 1.015546 1.000000
-60.477707 9.815825 0.858257 1.000000
-60.509117 9.820970 3.141916 1.000000
-60.509117 9.820969 2.984603 1.000000
-60.509117 9.820970 2.829499 1.000000
-60.509117 9.820970 2.676232 1.000000
-60.509117 9.820970 2.524446 1.000000
-60.509117 9.820971 2.373799 1.000000
-60.509117 9.820970 2.223959 1.000000
-60.509117 9.820971 2.074600 1.000000
-60.509117 9.820971 1.925400 1.000000
-60.509117 9.820970 1.776041 1.000000
-60.509117 9.820971 1.626201 1.000000
-60.509117 9.820971 1.475554 1.000000
-60.509117 9.820971 1.323768 1.000000
-60.509117 9.820971 1.170501 1.000000
-60.509117 9.820971 1.015397 1.000000
-60.509117 9.820971 0.858084 1.000000
-60.540543 9.826117 3.142145 1.000000
-60.540543 9.826117 2.984801 1.000000
-60.540543 9.826117 2.829665 1.000000
-60.540543 9.826117 2.676368 1.000000
-60.540543 9.826117 2.524551 1.000000
-60.540543 9.826117 2.373874 1.000000
-60.540543 9.826117 2.224004 1.000000
-60.540543 9.826117 2.074615 1.000000
-60.540543 9.826117 1.925385 1.000000
-60.540543 9.826117 1.775996 1.000000
-60.540543 9.826117 1.626126 1.000000
-60.540543 9.826117 1.475449 1.000000
-60.540543 9.826118 1.323633 1.000000
-60.540543 9.826118 1.170335 1.000000
-60.540543 9.826117 1.015199 1.000000
-60.540543 9.826118 0.857855 1.000000
-60.571980 9.831265 3.142430 1.000000
-60.571980 9.831265 2.985046 1.000000
-60.571980 9.831265 2.829872 1.000000
-60.571980 9.831265 2.676536 1.000000
-60.571980 9.831265 2.524682 1.000000
-60.571980 9.831265 2.373967 1.000000
-60.571980 9.831265 2.224060 1.000000
-60.571980 9.831265 2.074633 1.000000
-60.571980 9.831265 1.925367 1.000000
-60.571980 9.831266 1.775941 1.000000
-60.571980 9.831266 1.626033 1.000000
-60.571980 9.831265 1.475318 1.000000
-60.571980 9.831266 1.323464 1.000000
-60.571980 9.831266 1.170128 1.000000
-60.571980 9.831265 1.014954 1.000000
-60.571980 9.831265 0.857570 1.000000
-60.603436 9.836416 3.142771 1.000000
-60.603436 9.836416 2.985340 1.000000
-60.603439 9.836416 2.830120 1.000000
-60.603439 9.836416 2.676738 1.000000
-60.603436 9.836416 2.524838 1.000000
-60.603436 9.836416 2.374079 1.000000
-60.603439 9.836416 2.224126 1.000000
-60.603436 9.836418 2.074655 1.000000
-60.603436 9.836418 1.925345 1.000000
-60.603436 9.836416 1.775874 1.000000
-60.603436 9.836417 1.625921 1.000000
-60.603436 9.836417 1.475162 1.000000
-60.603436 9.836417 1.323262 1.000000
-60.603436 9.836418 1.169880 1.000000
-60.603436 9.836417 1.014660 1.000000
-60.603436 9.836417 0.857230 1.000000
-60.634911 9.841573 3.143167 1.000000
-60.634911 9.841573 2.985682 1.000000
-60.634911 9.841573 2.830408 1.000000
-60.634911 9.841573 2.676973 1.000000
-60.634911 9.841573 2.525021 1.000000
-60.634911 9.841573 2.374208 1.000000
-60.634911 9.841572 2.224204 1.000000
-60.634911 9.841573 2.074681 1.000000
-60.634911 9.841573 1.925319 1.000000
-60.634911 9.841573 1.775796 1.000000
-60.634911 9.841573 1.625791 1.000000
-60.634911 9.841573 1.474980 1.000000
-60.634911 9.841573 1.323027 1.000000
-60.634911 9.841573 1.169592 1.000000
-60.634911 9.841573 1.014318 1.000000
-60.634911 9.841573 0.856833 1.000000
-60.666412 9.846731 3.143620 1.000000
-60.666412 9.846732 2.986072 1.000000
-60.666412 9.846731 2.830737 1.000000
-60.666412 9.846731 2.677241 1.000000
-60.666412 9.846731 2.525229 1.000000
-60.666412 9.846731 2.374357 1.000000
-60.666412 9.846731 2.224293 1.000000
-60.666412 9.846731 2.074711 1.000000
-60.666412 9.846731 1.925289 1.000000
-60.666412 9.846731 1.775707 1.000000
-60.666412 9.846732 1.625643 1.000000
-60.666412 9.846732 1.474772 1.000000
-60.666412 9.846732 1.322759 1.000000
-60.666412 9.846732 1.169264 1.000000
-60.666412 9.846732 1.013928 1.000000
-60.666412 9.846732 0.856381 1.000000
-60.697933 9.851894 3.144128 1.000000
-60.697933 9.851893 2.986511 1.000000
-60.697933 9.851893 2.831106 1.000000
-60.697933 9.851894 2.677542 1.000000
-60.697933 9.851892 2.525462 1.000000
-60.697933 9.851894 2.374523 1.000000
-60.697933 9.851894 2.224392 1.000000
-60.697933 9.851894 2.074744 1.000000
-60.697933 9.851894 1.925256 1.000000
-60.697933 9.851894 1.775607 1.000000
-60.697933 9.851894 1.625477 1.000000
-60.697933 9.851893 1.474538 1.000000
-60.697933 9.851894 1.322458 1.000000
-60.697933 9.851894 1.168894 1.000000
-60.697933 9.851894 1.013489 1.000000
-60.697933 9.851894 0.855872 1.000000
-60.729492 9.857064 3.144693 1.000000
-60.729492 9.857062 2.986998 1.000000
-60.729492 9.857062 2.831516 1.000000
-60.729492 9.857062 2.677876 1.000000
-60.729492 9.857062 2.525722 1.000000
-60.729492 9.857063 2.374708 1.000000
-60.729492 9.857062 2.224503 1.000000
-60.729492 9.857062 2.074781 1.000000
-60.729492 9.857063 1.925219 1.000000
-60.729492 9.857062 1.775497 1.000000
-60.729492 9.857064 1.625292 1.000000
-60.729492 9.857062 1.474279 1.000000
-60.729492 9.857062 1.322124 1.000000
-60.729492 9.857063 1.168484 1.000000
-60.729492 9.857063 1.013002 1.000000
-60.729492 9.857064 0.855307 1.000000
-60.761082 9.862236 3.145315 1.000000
-60.761082 9.862236 2.987534 1.000000
-60.761082 9.862235 2.831968 1.000000
-60.761082 9.862235 2.678244 1.000000
-60.761082 9.862236 2.526007 1.000000
-60.761082 9.862235 2.374912 1.000000
-60.761082 9.862236 2.224625 1.000000
-60.761082 9.862236 2.074821 1.000000
-60.761082 9.862236 1.925178 1.000000
-60.761082 9.862236 1.775375 1.000000
-60.761082 9.862236 1.625088 1.000000
-60.761082 9.862237 1.473993 1.000000
-60.761082 9.862236 1.321756 1.000000
-60.761082 9.862236 1.168032 1.000000
-60.761082 9.862237 1.012467 1.000000
-60.761082 9.862237 0.854686 1.000000
-68.398232 -19.870134 10.834620 1.000000
-68.398232 -19.870134 9.617544 1.000000
-68.398232 -19.870138 8.417555 1.000000
-68.398232 -19.870134 7.231778 1.000000
-68.398232 -19.870134 6.057462 1.000000
-68.398232 -19.870134 4.891956 1.000000
-68.398232 -19.870134 3.732693 1.000000
-68.398232 -19.870134 2.577152 1.000000
-68.398232 -19.870134 1.422848 1.000000
-68.398232 -19.870134 0.267307 1.000000
-65.702766 -9.330895 0.000026 0.222703
-63.966728 -2.542997 0.000025 0.230200
-62.999840 1.237519 0.000026 0.242887
-62.382576 3.651022 0.000021 0.215879
-61.953545 5.328530 0.000023 0.263649
-61.637466 6.564398 0.000014 0.281911
-68.642448 -19.830639 10.840407 1.000000
-68.642448 -19.830639 9.622534 1.000000
-68.642448 -19.830639 8.421759 1.000000
-68.642441 -19.830627 7.235203 1.000000
-68.642448 -19.830635 6.060119 1.000000
-68.642441 -19.830631 4.893850 1.000000
-68.642448 -19.830635 3.733828 1.000000
-68.642448 -19.830635 2.577530 1.000000
-68.642448 -19.830635 1.422470 1.000000
-68.642441 -19.830631 0.266172 1.000000
-65.867615 -9.288228 0.000017 0.234814
-64.084221 -2.512584 0.000017 0.215686
-63.090965 1.261101 0.000017 0.231449
-62.456860 3.670251 0.000013 0.210015
-62.016129 5.344732 0.000015 0.249327
-61.691429 6.578372 0.000007 0.225971
-68.886993 -19.791075 10.846633 1.000000
-68.886993 -19.791075 9.627901 1.000000
-68.886993 -19.791075 8.426280 1.000000
-68.886993 -19.791075 7.238891 1.000000
-68.886993 -19.791075 6.062978 1.000000
-68.886993 -19.791067 4.895888 1.000000
-68.886993 -19.791075 3.735049 1.000000
-68.886993 -19.791075 2.577937 1.000000
-68.886993 -19.791075 1.422063 1.000000
-68.886993 -19.791075 0.264951 1.000000
-66.032112 -9.244197 0.000027 0.224529
-64.201469 -2.481199 0.000026 0.232603
-63.181892 1.285442 0.000028 0.223664
-62.530991 3.690097 0.000023 0.196078
-62.078579 5.361452 0.000026 0.218666
-61.745270 6.592787 0.000017 0.214917
-69.131897 -19.751465 10.853299 1.000000
-69.131897 -19.751461 9.633648 1.000000
-69.131897 -19.751461 8.431122 1.000000
-69.131897 -19.751457 7.242838 1.000000
-69.131897 -19.751457 6.066040 1.000000
-69.131897 -19.751457 4.898070 1.000000
-69.131897 -19.751457 3.736356 1.000000
-69.131897 -19.751457 2.578373 1.000000
-69.131897 -19.751457 1.421628 1.000000
-69.131897 -19.751453 0.263644 1.000000
-66.196335 -9.199168 0.000024 0.236063
-64.318520 -2.449114 0.000022 0.234717
-63.272667 1.310336 0.000024 0.213860
-62.604988 3.710392 0.000021 0.254806
-62.140934 5.378494 0.000011 0.208093
-61.799030 6.607526 0.000014 0.251826
-69.377190 -19.711784 10.860407 1.000000
-69.377190 -19.711784 9.639777 1.000000
-69.377190 -19.711784 8.436285 1.000000
-69.377190 -19.711781 7.247048 1.000000
-69.377190 -19.711784 6.069304 1.000000
-69.377190 -19.711788 4.900397 1.000000
-69.377190 -19.711788 3.737750 1.000000
-69.377190 -19.711784 2.578836 1.000000
-69.377190 -19.711784 1.421164 1.000000
-69.377190 -19.711788 0.262249 1.000000
-66.360214 -9.152902 0.000029 0.227893
-64.435318 -2.416135 0.000027 0.217513
-63.363258 1.335903 0.000028 0.241446
-62.678841 3.731240 0.000026 0.198770
-62.203156 5.396058 0.000015 0.224433
-61.852661 6.622728 0.000033 0.262111
-69.622879 -19.672047 10.867957 1.000000
-69.622879 -19.672047 9.646290 1.000000
-69.622879 -19.672043 8.441772 1.000000
-69.622879 -19.672043 7.251521 1.000000
-69.622879 -19.672047 6.072773 1.000000
-69.622879 -19.672043 4.902870 1.000000
-69.622879 -19.672043 3.739232 1.000000
-69.622879 -19.672047 2.579330 1.000000
-69.622879 -19.672047 1.420670 1.000000
-69.622879 -19.672043 0.260768 1.000000
-66.523735 -9.105398 0.000041 0.219915
-64.551910 -2.382411 0.000024 0.208574
-63.453674 1.362061 0.000025 0.245963
-62.752552 3.752564 0.000023 0.192907
-62.265255 5.414028 0.000014 0.209439
-61.906200 6.638221 0.000032 0.189158
-69.451073 -18.243279 10.512635 1.000000
-69.451080 -18.243282 9.339916 1.000000
-69.451073 -18.243282 8.183661 1.000000
-69.451080 -18.243282 7.041101 1.000000
-69.451080 -18.243279 5.909584 1.000000
-69.451080 -18.243286 4.786557 1.000000
-69.451080 -18.243282 3.669544 1.000000
-69.451073 -18.243279 2.556117 1.000000
-69.451073 -18.243275 1.443883 1.000000
-69.451080 -18.243282 0.330456 1.000000
-66.686951 -9.056852 0.000046 0.233180
-64.668221 -2.347732 0.000038 0.248078
-63.543873 1.388966 0.000041 0.232026
-62.826099 3.774441 0.000027 0.207036
-62.327217 5.432455 0.000017 0.214341
-61.959633 6.654109 0.000035 0.218666
-69.176048 -16.547070 10.086123 1.000000
-69.176056 -16.547077 8.972161 1.000000
-69.176056 -16.547077 7.873838 1.000000
-69.176048 -16.547070 6.788525 1.000000
-69.176056 -16.547073 5.713700 1.000000
-69.176056 -16.547077 4.646941 1.000000
-69.176056 -16.547077 3.585894 1.000000
-69.176056 -16.547077 2.528254 1.000000
-69.176048 -16.547073 1.471747 1.000000
-69.176056 -16.547073 0.414106 1.000000
-66.849846 -9.007263 0.000043 0.225010
-64.784325 -2.312377 0.000035 0.228950
-63.633919 1.416390 0.000039 0.220973
-62.899513 3.796796 0.000025 0.236928
-62.389042 5.451353 0.000030 0.205113
-62.012966 6.670302 0.000021 0.213379
-68.927269 -15.012703 9.700682 1.000000
-68.927269 -15.012709 8.639818 1.000000
-68.927269 -15.012709 7.593851 1.000000
-68.927269 -15.012701 6.560269 1.000000
-68.927269 -15.012699 5.536678 1.000000
-68.927269 -15.012703 4.520769 1.000000
-68.927269 -15.012699 3.510298 1.000000
-68.927269 -15.012703 2.503074 1.000000
-68.927269 -15.012701 1.496927 1.000000
-68.927269 -15.012699 0.489701 1.000000
-67.012413 -8.956594 0.000033 0.225875
-64.900200 -2.276261 0.000027 0.229815
-63.723782 1.444389 0.000029 0.206651
-62.972771 3.819623 0.000015 0.242118
-62.450760 5.470589 0.000021 0.205690
-62.066185 6.686885 0.000011 0.236544
-68.701111 -13.617861 9.350645 1.000000
-68.701111 -13.617863 8.338005 1.000000
-68.701111 -13.617867 7.339582 1.000000
-68.701111 -13.617859 6.352983 1.000000
-68.701111 -13.617863 5.375920 1.000000
-68.701111 -13.617863 4.406188 1.000000
-68.701111 -13.617861 3.441648 1.000000
-68.701111 -13.617867 2.480207 1.000000
-68.701111 -13.617861 1.519794 1.000000
-68.701111 -13.617857 0.558351 1.000000
-67.174561 -8.904576 0.000044 0.233372
-65.015770 -2.239187 0.000037 0.230488
-63.813412 1.473148 0.000040 0.239908
-63.045834 3.843085 0.000029 0.225779
-62.512318 5.490341 0.000032 0.232315
-62.119267 6.703912 0.000021 0.269512
-68.494614 -12.344287 9.031387 1.000000
-68.494606 -12.344270 8.062725 1.000000
-68.494606 -12.344274 7.107666 1.000000
-68.494606 -12.344275 6.163919 1.000000
-68.494614 -12.344283 5.229294 1.000000
-68.494606 -12.344277 4.301680 1.000000
-68.494606 -12.344272 3.379033 1.000000
-68.494606 -12.344272 2.459349 1.000000
-68.494606 -12.344270 1.540651 1.000000
-68.494606 -12.344270 0.620967 1.000000
-67.336411 -8.851651 0.000034 0.226836
-65.131126 -2.201460 0.000028 0.229431
-63.902905 1.502313 0.000016 0.222414
-63.118767 3.866931 0.000019 0.200115
-62.573757 5.510444 0.000025 0.211073
-62.172241 6.721247 0.000015 0.213860
-68.305290 -11.176655 8.739016 1.000000
-68.305283 -11.176645 7.810631 1.000000
-68.305283 -11.176638 6.895283 1.000000
-68.305283 -11.176641 5.990778 1.000000
-68.305283 -11.176645 5.095016 1.000000
-68.305283 -11.176643 4.205974 1.000000
-68.305290 -11.176651 3.321691 1.000000
-68.305290 -11.176649 2.440250 1.000000
-68.305283 -11.176647 1.559751 1.000000
-68.305290 -11.176649 0.678308 1.000000
-67.497810 -8.797373 0.000044 0.225682
-65.246155 -2.162760 0.000039 0.206459
-63.992119 1.532323 0.000027 0.226740
-63.191498 3.891397 0.000030 0.207132
-62.635033 5.531052 0.000035 0.299404
-62.225075 6.739019 0.000026 0.248654
-68.131081 -10.102215 8.470292 1.000000
-68.131081 -10.102217 7.578931 1.000000
-68.131073 -10.102211 6.700083 1.000000
-68.131081 -10.102215 5.831645 1.000000
-68.131081 -10.102219 4.971601 1.000000
-68.131081 -10.102217 4.118010 1.000000
-68.131081 -10.102217 3.268989 1.000000
-68.131081 -10.102217 2.422694 1.000000
-68.131081 -10.102215 1.577306 1.000000
-68.131081 -10.102215 0.731011 1.000000
-67.658897 -8.742195 0.000035 0.224433
-65.361015 -2.123557 0.000015 0.245483
-64.081169 1.562824 0.000018 0.199539
-63.264088 3.916278 0.000024 0.213572
-62.696190 5.552004 0.000027 0.282584
-62.277805 6.757079 0.000016 0.229912
-67.970222 -9.110138 8.222473 1.000000
-67.970222 -9.110140 7.365252 1.000000
-67.970222 -9.110138 6.520064 1.000000
-67.970222 -9.110132 5.684888 1.000000
-67.970230 -9.110142 4.857785 1.000000
-67.970222 -9.110134 4.036886 1.000000
-67.970222 -9.110136 3.220385 1.000000
-67.970222 -9.110134 2.406505 1.000000
-67.970222 -9.110134 1.593496 1.000000
-67.970222 -9.110136 0.779615 1.000000
-67.819542 -8.685710 0.000041 0.234910
-65.475510 -2.083268 0.000025 0.233083
-64.169960 1.594074 0.000029 0.223856
-63.336472 3.941755 0.000035 0.250865
-62.757191 5.573404 0.000023 0.222318
-62.330383 6.775597 0.000030 0.215206
-67.821228 -8.191199 7.993214 1.000000
-67.821228 -8.191201 7.167576 1.000000
-67.821228 -8.191192 6.353528 1.000000
-67.821228 -8.191195 5.549124 1.000000
-67.821228 -8.191201 4.752494 1.000000
-67.821228 -8.191197 3.961841 1.000000
-67.821228 -8.191197 3.175421 1.000000
-67.821228 -8.191203 2.391527 1.000000
-67.821228 -8.191201 1.608473 1.000000
-67.821228 -8.191194 0.824578 1.000000
-67.821228 -8.191197 0.038159 1.000000
-65.589767 -2.042337 0.000016 0.216359
-64.258568 1.625815 0.000020 0.220973
-63.408707 3.967632 0.000026 0.228566
-62.818054 5.595201 0.000013 0.254902
-62.382862 6.794391 0.000020 0.252403
-67.682816 -7.337522 7.780520 1.000000
-67.682816 -7.337516 6.984182 1.000000
-67.682808 -7.337514 6.199025 1.000000
-67.682816 -7.337518 5.423168 1.000000
-67.682808 -7.337514 4.654809 1.000000
-67.682816 -7.337520 3.892217 1.000000
-67.682808 -7.337514 3.133706 1.000000
-67.682808 -7.337511 2.377632 1.000000
-67.682808 -7.337511 1.622368 1.000000
-67.682808 -7.337514 0.866293 1.000000
-67.682816 -7.337518 0.107783 1.000000
-65.703674 -2.000450 0.000026 0.228278
-64.346909 1.658324 0.000033 0.239427
-63.480728 3.994114 0.000036 0.223087
-62.878731 5.617516 0.000024 0.251442
-62.435177 6.813626 0.000029 0.214821
-67.553879 -6.542336 7.582671 1.000000
-67.553879 -6.542334 6.813590 1.000000
-67.553879 -6.542326 6.055305 1.000000
-67.553879 -6.542323 5.306003 1.000000
-67.553879 -6.542326 4.563943 1.000000
-67.553879 -6.542326 3.827451 1.000000
-67.553879 -6.542328 3.094903 1.000000
-67.553879 -6.542330 2.364707 1.000000
-67.553879 -6.542326 1.635293 1.000000
-67.553879 -6.542328 0.905097 1.000000
-67.553879 -6.542326 0.172548 1.000000
-65.817360 -1.957935 0.000016 0.221646
-64.435066 1.691298 0.000024 0.236544
-63.552631 4.020920 0.000012 0.196847
-62.939274 5.640177 0.000018 0.243368
-62.487389 6.833150 0.000019 0.218281
-67.433472 -5.799728 7.398167 1.000000
-67.433472 -5.799726 6.654503 1.000000
-67.433472 -5.799726 5.921280 1.000000
-67.433472 -5.799722 5.196742 1.000000
-67.433472 -5.799720 4.479206 1.000000
-67.433472 -5.799722 3.767055 1.000000
-67.433472 -5.799720 3.058717 1.000000
-67.433472 -5.799726 2.352654 1.000000
-67.433472 -5.799726 1.647346 1.000000
-67.433472 -5.799718 0.941283 1.000000
-67.433472 -5.799720 0.232944 1.000000
-65.930664 -1.914424 0.000031 0.225586
-64.522949 1.725010 0.000033 0.231834
-63.624279 4.048400 0.000021 0.238754
-62.999634 5.663328 0.000028 0.234141
-62.539429 6.853122 0.000031 0.193291
-67.320770 -5.104629 7.225721 1.000000
-67.320770 -5.104625 6.505813 1.000000
-67.320770 -5.104629 5.796015 1.000000
-67.320763 -5.104619 5.094620 1.000000
-67.320763 -5.104619 4.400007 1.000000
-67.320763 -5.104621 3.710606 1.000000
-67.320763 -5.104621 3.024896 1.000000
-67.320763 -5.104621 2.341388 1.000000
-67.320763 -5.104621 1.658612 1.000000
-67.320763 -5.104623 0.975104 1.000000
-67.320763 -5.104623 0.289393 1.000000
-66.043671 -1.870162 0.000042 0.207901
-64.610580 1.759365 0.000049 0.201749
-63.695724 4.076387 0.000032 0.262303
-63.059799 5.686976 0.000055 0.211073
-62.591328 6.873455 0.000043 0.269031
-67.215034 -4.452504 7.064183 1.000000
-67.215034 -4.452509 6.366531 1.000000
-67.215034 -4.452504 5.678672 1.000000
-67.215034 -4.452500 4.998960 1.000000
-67.215034 -4.452504 4.325819 1.000000
-67.215034 -4.452504 3.657728 1.000000
-67.215034 -4.452504 2.993215 1.000000
-67.215034 -4.452502 2.330835 1.000000
-67.215034 -4.452502 1.669165 1.000000
-67.215034 -4.452502 1.006786 1.000000
-67.215034 -4.452504 0.342271 1.000000
-66.156433 -1.825277 0.000031 0.249712
-64.698036 1.794181 0.000040 0.235967
-63.766987 4.104852 0.000039 0.221646
-63.119858 5.710888 0.000045 0.260861
-62.643116 6.894073 0.000034 0.212803
-67.115631 -3.839467 6.912568 1.000000
-67.115631 -3.839468 6.235802 1.000000
-67.115631 -3.839468 5.568537 1.000000
-67.115631 -3.839467 4.909175 1.000000
-67.115631 -3.839463 4.256186 1.000000
-67.115631 -3.839463 3.608098 1.000000
-67.115631 -3.839467 2.963479 1.000000
-67.115631 -3.839465 2.320930 1.000000
-67.115631 -3.839465 1.679070 1.000000
-67.115631 -3.839463 1.036521 1.000000
-67.115631 -3.839465 0.391902 1.000000
-66.268845 -1.779504 0.000034 0.207324
-64.785210 1.829679 0.000042 0.229431
-63.838055 4.133793 0.000041 0.269031
-63.179737 5.735265 0.000047 0.220012
-62.694733 6.915110 0.000040 0.216840
-67.022011 -3.262052 6.769994 1.000000
-67.022011 -3.262051 6.112869 1.000000
-67.022011 -3.262051 5.464970 1.000000
-67.022011 -3.262052 4.824745 1.000000
-67.022011 -3.262048 4.190707 1.000000
-67.022011 -3.262048 3.561427 1.000000
-67.022011 -3.262053 2.935517 1.000000
-67.022011 -3.262049 2.311616 1.000000
-67.022011 -3.262046 1.688384 1.000000
-67.022011 -3.262053 1.064483 1.000000
-67.022011 -3.262049 0.438572 1.000000
-66.380966 -1.733043 0.000025 0.217897
-64.872169 1.865711 0.000032 0.253268
-63.908943 4.163164 0.000031 0.236063
-63.239487 5.759948 0.000023 0.224625
-62.746231 6.936445 0.000030 0.214245
-66.933670 -2.717179 6.635682 1.000000
-66.933662 -2.717177 5.997059 1.000000
-66.933670 -2.717179 5.367404 1.000000
-66.933662 -2.717177 4.745206 1.000000
-66.933670 -2.717170 4.129021 1.000000
-66.933670 -2.717171 3.517460 1.000000
-66.933670 -2.717170 2.909174 1.000000
-66.933670 -2.717171 2.302841 1.000000
-66.933670 -2.717170 1.697158 1.000000
-66.933662 -2.717167 1.090826 1.000000
-66.933670 -2.717173 0.482539 1.000000
-66.492722 -1.685705 0.000027 0.221453
-64.958862 1.902374 0.000027 0.252595
-63.979603 4.193093 0.000034 0.261822
-63.299019 5.785147 0.000022 0.176855
-62.797592 6.958112 0.000012 0.234910
-66.850159 -2.202126 6.508940 1.000000
-66.850159 -2.202128 5.887779 1.000000
-66.850159 -2.202124 5.275337 1.000000
-66.850159 -2.202128 4.670152 1.000000
-66.850151 -2.202120 4.070813 1.000000
-66.850159 -2.202122 3.475972 1.000000
-66.850159 -2.202126 2.884317 1.000000
-66.850151 -2.202120 2.294562 1.000000
-66.850151 -2.202120 1.705438 1.000000
-66.850159 -2.202126 1.115682 1.000000
-66.850159 -2.202124 0.524027 1.000000
-66.604073 -1.637415 0.000051 0.232122
-65.045219 1.939820 0.000050 0.236255
-64.050003 4.223622 0.000058 0.212418
-63.358326 5.810874 0.000047 0.238754
-62.848728 6.980284 0.000035 0.229912
-66.771088 -1.714466 6.389153 1.000000
-66.771088 -1.714466 5.784493 1.000000
-66.771088 -1.714464 5.188324 1.000000
-66.771088 -1.714467 4.599216 1.000000
-66.771088 -1.714464 4.015800 1.000000
-66.771080 -1.714461 3.436761 1.000000
-66.771088 -1.714459 2.860824 1.000000
-66.771080 -1.714461 2.286736 1.000000
-66.771080 -1.714461 1.713264 1.000000
-66.771088 -1.714457 1.139176 1.000000
-66.771080 -1.714461 0.563238 1.000000
-66.715195 -1.588616 0.000042 0.253556
-65.131401 1.977661 0.000040 0.203479
-64.120300 4.254388 0.000031 0.209150
-63.417511 5.836874 0.000039 0.252595
-62.899738 7.002758 0.000042 0.219146
-66.696106 -1.252017 6.275767 1.000000
-66.696106 -1.252022 5.686729 1.000000
-66.696106 -1.252020 5.105960 1.000000
-66.696106 -1.252020 4.532069 1.000000
-66.696106 -1.252022 3.963726 1.000000
-66.696106 -1.252016 3.399645 1.000000
-66.696106 -1.252020 2.838586 1.000000
-66.696098 -1.252014 2.279329 1.000000
-66.696098 -1.252014 1.720671 1.000000
-66.696106 -1.252019 1.161413 1.000000
-66.696106 -1.252017 0.600354 1.000000
-66.696106 -1.252017 0.036275 1.000000
-65.217270 2.016207 0.000047 0.271915
-64.190315 4.285790 0.000034 0.215110
-63.476532 5.863256 0.000025 0.262784
-62.950600 7.025567 0.000044 0.269031
-66.624901 -0.812847 6.168292 1.000000
-66.624901 -0.812847 5.594059 1.000000
-66.624901 -0.812848 5.027888 1.000000
-66.624901 -0.812844 4.468422 1.000000
-66.624901 -0.812846 3.914365 1.000000
-66.624901 -0.812842 3.364464 1.000000
-66.624901 -0.812844 2.817507 1.000000
-66.624901 -0.812843 2.272308 1.000000
-66.624901 -0.812843 1.727692 1.000000
-66.624901 -0.812842 1.182492 1.000000
-66.624901 -0.812842 0.635536 1.000000
-66.624893 -0.812841 0.085636 1.000000
-65.302925 2.055244 0.000036 0.244810
-64.260139 4.317612 0.000022 0.206267
-63.535355 5.890071 0.000014 0.221742
-63.001316 7.048698 0.000038 0.209631
-66.557182 -0.395193 6.066281 1.000000
-66.557175 -0.395189 5.506100 1.000000
-66.557182 -0.395192 4.953785 1.000000
-66.557182 -0.395195 4.408013 1.000000
-66.557175 -0.395192 3.867514 1.000000
-66.557175 -0.395190 3.331071 1.000000
-66.557175 -0.395189 2.797501 1.000000
-66.557175 -0.395191 2.265644 1.000000
-66.557175 -0.395189 1.734357 1.000000
-66.557175 -0.395189 1.202500 1.000000
-66.557175 -0.395190 0.668929 1.000000
-66.557175 -0.395188 0.132487 1.000000
-65.388229 2.095022 0.000049 0.244906
-64.329681 4.350058 0.000039 0.275759
-63.593948 5.917383 0.000026 0.205210
-63.051865 7.072186 0.000032 0.236351
-66.492691 0.002531 5.969330 1.000000
-66.492691 0.002528 5.422507 1.000000
-66.492691 0.002533 4.883360 1.000000
-66.492691 0.002531 4.350599 1.000000
-66.492691 0.002533 3.822988 1.000000
-66.492691 0.002532 3.299335 1.000000
-66.492691 0.002534 2.778486 1.000000
-66.492691 0.002535 2.259310 1.000000
-66.492691 0.002536 1.740690 1.000000
-66.492691 0.002535 1.221514 1.000000
-66.492691 0.002532 0.700665 1.000000
-66.492691 0.002537 0.177013 1.000000
-65.473274 2.135359 0.000056 0.228662
-64.399017 4.382923 0.000042 0.203287
-63.652340 5.945133 0.000044 0.199154
-63.102234 7.096061 0.000035 0.233468
-66.431206 0.381744 5.877081 1.000000
-66.431206 0.381740 5.342967 1.000000
-66.431206 0.381743 4.816350 1.000000
-66.431206 0.381742 4.295971 1.000000
-66.431206 0.381746 3.780621 1.000000
-66.431206 0.381744 3.269138 1.000000
-66.431206 0.381747 2.760394 1.000000
-66.431206 0.381749 2.253284 1.000000
-66.431206 0.381750 1.746716 1.000000
-66.431206 0.381747 1.239606 1.000000
-66.431206 0.381748 0.730862 1.000000
-66.431206 0.381750 0.219380 1.000000
-65.558083 2.176186 0.000046 0.242022
-64.468124 4.416285 0.000048 0.231834
-63.710587 5.973173 0.000034 0.212322
-63.152451 7.120254 0.000030 0.240869
-66.372513 0.743756 5.789202 1.000000
-66.372513 0.743755 5.267193 1.000000
-66.372513 0.743751 4.752513 1.000000
-66.372513 0.743755 4.243930 1.000000
-66.372513 0.743755 3.740261 1.000000
-66.372513 0.743756 3.240371 1.000000
-66.372513 0.743754 2.743159 1.000000
-66.372513 0.743757 2.247542 1.000000
-66.372513 0.743759 1.752457 1.000000
-66.372513 0.743754 1.256841 1.000000
-66.372513 0.743759 0.759629 1.000000
-66.372513 0.743758 0.259740 1.000000
-65.642609 2.217607 0.000037 0.259323
-64.537033 4.450052 0.000039 0.228470
-63.768627 6.001643 0.000029 0.230008
-63.202503 7.144786 0.000021 0.180988
-66.316414 1.089725 5.705397 1.000000
-66.316414 1.089725 5.194933 1.000000
-66.316414 1.089722 4.691637 1.000000
-66.316414 1.089724 4.194302 1.000000
-66.316414 1.089727 3.701771 1.000000
-66.316414 1.089726 3.212938 1.000000
-66.316414 1.089725 2.726722 1.000000
-66.316414 1.089725 2.242068 1.000000
-66.316414 1.089725 1.757932 1.000000
-66.316414 1.089726 1.273278 1.000000
-66.316414 1.089728 0.787062 1.000000
-66.316414 1.089726 0.298229 1.000000
-65.726791 2.259709 0.000043 0.235582
-64.605614 4.484466 0.000063 0.196655
-63.826408 6.030632 0.000053 0.229912
-63.252335 7.169761 0.000039 0.270569
-66.262741 1.420746 5.625390 1.000000
-66.262749 1.420741 5.125949 1.000000
-66.262741 1.420745 4.633519 1.000000
-66.262741 1.420746 4.146921 1.000000
-66.262741 1.420748 3.665027 1.000000
-66.262741 1.420748 3.186748 1.000000
-66.262741 1.420750 2.711031 1.000000
-66.262741 1.420747 2.236841 1.000000
-66.262741 1.420747 1.763159 1.000000
-66.262741 1.420750 1.288969 1.000000
-66.262741 1.420752 0.813252 1.000000
-66.262741 1.420750 0.334974 1.000000
-65.810730 2.302310 0.000034 0.246444
-64.674088 4.519102 0.000035 0.206747
-63.884094 6.059812 0.000025 0.213283
-63.302036 7.194999 0.000033 0.204537
-66.211342 1.737781 5.548937 1.000000
-66.211342 1.737780 5.060027 1.000000
-66.211342 1.737783 4.577982 1.000000
-66.211334 1.737784 4.101645 1.000000
-66.211342 1.737780 3.629915 1.000000
-66.211342 1.737782 3.161722 1.000000
-66.211342 1.737782 2.696036 1.000000
-66.211334 1.737787 2.231846 1.000000
-66.211334 1.737786 1.768154 1.000000
-66.211334 1.737785 1.303964 1.000000
-66.211334 1.737786 0.838278 1.000000
-66.211334 1.737785 0.370086 1.000000
-65.894325 2.345562 0.000036 0.257497
-64.742233 4.554366 0.000038 0.249808
-63.941498 6.089542 0.000033 0.237216
-63.351540 7.220616 0.000036 0.190600
-66.162048 2.041752 5.475801 1.000000
-66.162056 2.041749 4.996968 1.000000
-66.162056 2.041750 4.524857 1.000000
-66.162048 2.041752 4.058337 1.000000
-66.162048 2.041752 3.596326 1.000000
-66.162056 2.041752 3.137782 1.000000
-66.162048 2.041753 2.681693 1.000000
-66.162048 2.041753 2.227069 1.000000
-66.162048 2.041753 1.772931 1.000000
-66.162048 2.041756 1.318307 1.000000
-66.162048 2.041755 0.862218 1.000000
-66.162048 2.041756 0.403675 1.000000
-65.977577 2.389492 0.000055 0.248847
-64.810127 4.590124 0.000045 0.243368
-63.998714 6.119641 0.000034 0.251250
-63.400864 7.246589 0.000042 0.206940
-66.114754 2.333452 5.405787 1.000000
-66.114754 2.333455 4.936597 1.000000
-66.114754 2.333453 4.473996 1.000000
-66.114754 2.333455 4.016874 1.000000
-66.114754 2.333456 3.564169 1.000000
-66.114754 2.333452 3.114862 1.000000
-66.114754 2.333453 2.667961 1.000000
-66.114754 2.333457 2.222494 1.000000
-66.114754 2.333457 1.777505 1.000000
-66.114754 2.333456 1.332039 1.000000
-66.114754 2.333457 0.885138 1.000000
-66.114754 2.333459 0.435831 1.000000
-66.060600 2.433837 0.000045 0.198097
-64.877815 4.626272 0.000035 0.244137
-64.055695 6.150169 0.000042 0.215975
-63.450027 7.272850 0.000033 0.236736
-66.069321 2.613647 5.338696 1.000000
-66.069321 2.613648 4.878749 1.000000
-66.069321 2.613649 4.425261 1.000000
-66.069321 2.613648 3.977143 1.000000
-66.069321 2.613647 3.533357 1.000000
-66.069321 2.613647 3.092901 1.000000
-66.069321 2.613650 2.654803 1.000000
-66.069321 2.613647 2.218112 1.000000
-66.069321 2.613648 1.781888 1.000000
-66.069321 2.613651 1.345197 1.000000
-66.069321 2.613648 0.907099 1.000000
-66.069321 2.613649 0.466643 1.000000
-66.069321 2.613650 0.022857 1.000000
-64.945175 4.663033 0.000054 0.262976
-64.112457 6.181113 0.000055 0.216647
-63.499004 7.299468 0.000028 0.200692
-66.025650 2.883028 5.274353 1.000000
-66.025650 2.883027 4.823271 1.000000
-66.025650 2.883028 4.378521 1.000000
-66.025650 2.883026 3.939041 1.000000
-66.025650 2.883026 3.503807 1.000000
-66.025650 2.883026 3.071839 1.000000
-66.025650 2.883025 2.642184 1.000000
-66.025650 2.883028 2.213908 1.000000
-66.025650 2.883029 1.786092 1.000000
-66.025650 2.883029 1.357816 1.000000
-66.025650 2.883029 0.928161 1.000000
-66.025650 2.883030 0.496194 1.000000
-66.025650 2.883029 0.060960 1.000000
-65.012344 4.700131 0.000045 0.195117
-64.169090 6.212290 0.000027 0.203479
-63.547752 7.326497 0.000042 0.260188
-65.983620 3.142231 5.212598 1.000000
-65.983620 3.142232 4.770023 1.000000
-65.983620 3.142232 4.333662 1.000000
-65.983620 3.142233 3.902470 1.000000
-65.983620 3.142233 3.475444 1.000000
-65.983620 3.142231 3.051623 1.000000
-65.983620 3.142231 2.630072 1.000000
-65.983620 3.142232 2.209874 1.000000
-65.983620 3.142235 1.790126 1.000000
-65.983620 3.142234 1.369928 1.000000
-65.983620 3.142236 0.948377 1.000000
-65.983620 3.142236 0.524556 1.000000
-65.983620 3.142236 0.097531 1.000000
-65.079239 4.737712 0.000040 0.243849
-64.225410 6.244030 0.000042 0.206651
-63.596313 7.353862 0.000056 0.204344
-65.943146 3.391858 5.153277 1.000000
-65.943146 3.391857 4.718875 1.000000
-65.943146 3.391859 4.290572 1.000000
-65.943146 3.391857 3.867341 1.000000
-65.943146 3.391854 3.448201 1.000000
-65.943146 3.391856 3.032206 1.000000
-65.943146 3.391858 2.618438 1.000000
-65.943146 3.391858 2.205999 1.000000
-65.943146 3.391860 1.794001 1.000000
-65.943146 3.391859 1.381562 1.000000
-65.943146 3.391858 0.967794 1.000000
-65.943146 3.391856 0.551799 1.000000
-65.943146 3.391860 0.132659 1.000000
-65.145920 4.775687 0.000020 0.230104
-64.281570 6.276048 0.000027 0.211073
-63.644737 7.381469 0.000042 0.211457
-65.904137 3.632435 5.096261 1.000000
-65.904137 3.632438 4.669712 1.000000
-65.904137 3.632439 4.249153 1.000000
-65.904137 3.632440 3.833575 1.000000
-65.904137 3.632440 3.422014 1.000000
-65.904137 3.632440 3.013541 1.000000
-65.904137 3.632437 2.607255 1.000000
-65.904137 3.632438 2.202274 1.000000
-65.904137 3.632438 1.797726 1.000000
-65.904137 3.632440 1.392745 1.000000
-65.904137 3.632441 0.986459 1.000000
-65.904137 3.632442 0.577987 1.000000
-65.904137 3.632440 0.166425 1.000000
-65.212166 4.814424 0.000062 0.281046
-64.337402 6.308636 0.000058 0.230296
-63.692924 7.409481 0.000047 0.215206
-65.866508 3.864490 5.041409 1.000000
-65.866516 3.864487 4.622418 1.000000
-65.866516 3.864486 4.209310 1.000000
-65.866516 3.864485 3.801095 1.000000
-65.866508 3.864489 3.396823 1.000000
-65.866516 3.864488 2.995586 1.000000
-65.866516 3.864488 2.596498 1.000000
-65.866508 3.864490 2.198691 1.000000
-65.866508 3.864490 1.801309 1.000000
-65.866508 3.864490 1.403502 1.000000
-65.866508 3.864489 1.004414 1.000000
-65.866508 3.864491 0.603177 1.000000
-65.866508 3.864489 0.198906 1.000000
-65.278305 4.853322 0.000040 0.241157
-64.393127 6.341406 0.000037 0.280565
-63.740959 7.437766 0.000034 0.189639
-65.830200 4.088461 4.988616 1.000000
-65.830200 4.088465 4.576896 1.000000
-65.830200 4.088465 4.170959 1.000000
-65.830200 4.088462 3.769830 1.000000
-65.830200 4.088463 3.372577 1.000000
-65.830200 4.088466 2.978304 1.000000
-65.830200 4.088466 2.586143 1.000000
-65.830200 4.088464 2.195242 1.000000
-65.830200 4.088465 1.804758 1.000000
-65.830193 4.088469 1.413857 1.000000
-65.830193 4.088470 1.021696 1.000000
-65.830200 4.088466 0.627424 1.000000
-65.830200 4.088465 0.230171 1.000000
-65.344131 4.892767 0.000038 0.234717
-64.448555 6.374677 0.000044 0.251634
-63.788734 7.466482 0.000050 0.249808
-65.795120 4.304811 4.937762 1.000000
-65.795120 4.304812 4.533049 1.000000
-65.795120 4.304810 4.134019 1.000000
-65.795120 4.304812 3.739715 1.000000
-65.795120 4.304813 3.349221 1.000000
-65.795120 4.304811 2.961658 1.000000
-65.795120 4.304813 2.576169 1.000000
-65.795120 4.304813 2.191919 1.000000
-65.795120 4.304813 1.808081 1.000000
-65.795120 4.304815 1.423831 1.000000
-65.795120 4.304813 1.038342 1.000000
-65.795120 4.304816 0.650779 1.000000
-65.795120 4.304814 0.260286 1.000000
-65.409698 4.932629 0.000025 0.201557
-64.503754 6.408324 0.000048 0.222607
-63.836327 7.495498 0.000055 0.214148
-65.761215 4.513930 4.888748 1.000000
-65.761215 4.513927 4.490788 1.000000
-65.761215 4.513928 4.098415 1.000000
-65.761215 4.513928 3.710689 1.000000
-65.761215 4.513928 3.326711 1.000000
-65.761215 4.513929 2.945613 1.000000
-65.761215 4.513928 2.566557 1.000000
-65.761215 4.513931 2.188717 1.000000
-65.761215 4.513931 1.811283 1.000000
-65.761215 4.513929 1.433443 1.000000
-65.761215 4.513929 1.054386 1.000000
-65.761215 4.513928 0.673289 1.000000
-65.761215 4.513931 0.289311 1.000000
-65.474892 4.973104 0.000047 0.212995
-64.558685 6.442400 0.000064 0.199443
-63.883739 7.524808 0.000050 0.202422
-65.728416 4.716194 4.841479 1.000000
-65.728416 4.716191 4.450031 1.000000
-65.728416 4.716193 4.064078 1.000000
-65.728416 4.716195 3.682697 1.000000
-65.728416 4.716194 3.305002 1.000000
-65.728416 4.716193 2.930140 1.000000
-65.728416 4.716195 2.557286 1.000000
-65.728416 4.716194 2.185629 1.000000
-65.728416 4.716194 1.814371 1.000000
-65.728416 4.716195 1.442714 1.000000
-65.728416 4.716193 1.069860 1.000000
-65.728416 4.716195 0.694999 1.000000
-65.728416 4.716196 0.317303 1.000000
-65.539917 5.013838 0.000027 0.192426
-64.613525 6.476638 0.000023 0.193676
-63.930965 7.554422 0.000037 0.196655
-65.696678 4.911953 4.795867 1.000000
-65.696678 4.911952 4.410702 1.000000
-65.696678 4.911952 4.030946 1.000000
-65.696678 4.911952 3.655686 1.000000
-65.696678 4.911954 3.284054 1.000000
-65.696678 4.911953 2.915209 1.000000
-65.696678 4.911955 2.548340 1.000000
-65.696678 4.911952 2.182650 1.000000
-65.696678 4.911952 1.817350 1.000000
-65.696678 4.911955 1.451659 1.000000
-65.696678 4.911955 1.084790 1.000000
-65.696678 4.911956 0.715947 1.000000
-65.696678 4.911954 0.344314 1.000000
-65.604576 5.055166 0.000037 0.239619
-64.667992 6.511459 0.000034 0.220204
-63.977943 7.584418 0.000039 0.231161
-65.665939 5.101540 4.751828 1.000000
-65.665939 5.101539 4.372730 1.000000
-65.665939 5.101541 3.998954 1.000000
-65.665932 5.101542 3.629606 1.000000
-65.665939 5.101541 3.263827 1.000000
-65.665932 5.101542 2.900793 1.000000
-65.665939 5.101541 2.539703 1.000000
-65.665932 5.101542 2.179773 1.000000
-65.665932 5.101542 1.820227 1.000000
-65.665932 5.101542 1.460297 1.000000
-65.665932 5.101543 1.099207 1.000000
-65.665932 5.101542 0.736173 1.000000
-65.665932 5.101544 0.370395 1.000000
-65.665932 5.101543 0.001046 1.000000
-64.722206 6.546676 0.000049 0.307670
-64.024673 7.614805 0.000061 0.252499
-65.636147 5.285250 4.709285 1.000000
-65.636147 5.285253 4.336047 1.000000
-65.636154 5.285250 3.968051 1.000000
-65.636147 5.285252 3.604413 1.000000
-65.636147 5.285252 3.244288 1.000000
-65.636147 5.285252 2.886867 1.000000
-65.636147 5.285251 2.531359 1.000000
-65.636147 5.285251 2.176993 1.000000
-65.636147 5.285251 1.823007 1.000000
-65.636147 5.285251 1.468640 1.000000
-65.636147 5.285254 1.113133 1.000000
-65.636147 5.285255 0.755712 1.000000
-65.636147 5.285255 0.395588 1.000000
-65.636147 5.285253 0.031949 1.000000
-64.776222 6.582192 0.000044 0.223568
-64.071304 7.645347 0.000031 0.224914
-65.607269 5.463378 4.668165 1.000000
-65.607269 5.463380 4.300592 1.000000
-65.607269 5.463378 3.938181 1.000000
-65.607269 5.463378 3.580062 1.000000
-65.607269 5.463378 3.225404 1.000000
-65.607269 5.463381 2.873407 1.000000
-65.607269 5.463380 2.523295 1.000000
-65.607269 5.463379 2.174307 1.000000
-65.607269 5.463379 1.825693 1.000000
-65.607269 5.463380 1.476705 1.000000
-65.607269 5.463382 1.126593 1.000000
-65.607269 5.463380 0.774596 1.000000
-65.607269 5.463381 0.419939 1.000000
-65.607269 5.463381 0.061819 1.000000
-64.830009 6.618046 0.000029 0.241638
-64.117630 7.676347 0.000042 0.229527
-65.579254 5.636190 4.628400 1.000000
-65.579254 5.636190 4.266306 1.000000
-65.579247 5.636193 3.909295 1.000000
-65.579254 5.636190 3.556514 1.000000
-65.579254 5.636190 3.207141 1.000000
-65.579254 5.636191 2.860390 1.000000
-65.579247 5.636191 2.515496 1.000000
-65.579247 5.636192 2.171709 1.000000
-65.579247 5.636192 1.828291 1.000000
-65.579247 5.636191 1.484504 1.000000
-65.579247 5.636192 1.139610 1.000000
-65.579247 5.636191 0.792859 1.000000
-65.579247 5.636192 0.443487 1.000000
-65.579247 5.636195 0.090705 1.000000
-64.883484 6.654377 0.000040 0.218185
-64.163788 7.707587 0.000028 0.186371
-65.552055 5.803930 4.589930 1.000000
-65.552048 5.803931 4.233135 1.000000
-65.552048 5.803932 3.881350 1.000000
-65.552048 5.803933 3.533731 1.000000
-65.552048 5.803932 3.189472 1.000000
-65.552048 5.803931 2.847797 1.000000
-65.552048 5.803931 2.507951 1.000000
-65.552048 5.803932 2.169196 1.000000
-65.552048 5.803932 1.830804 1.000000
-65.552048 5.803931 1.492049 1.000000
-65.552048 5.803932 1.152203 1.000000
-65.552048 5.803934 0.810528 1.000000
-65.552048 5.803935 0.466269 1.000000
-65.552048 5.803935 0.118651 1.000000
-64.936691 6.691094 0.000055 0.256824
-64.209663 7.739261 0.000048 0.260092
-65.525635 5.966840 4.552691 1.000000
-65.525635 5.966843 4.201025 1.000000
-65.525635 5.966844 3.854298 1.000000
-65.525635 5.966844 3.511678 1.000000
-65.525635 5.966842 3.172369 1.000000
-65.525635 5.966842 2.835607 1.000000
-65.525635 5.966842 2.500647 1.000000
-65.525635 5.966842 2.166763 1.000000
-65.525635 5.966842 1.833237 1.000000
-65.525635 5.966843 1.499353 1.000000
-65.525635 5.966843 1.164393 1.000000
-65.525635 5.966843 0.827631 1.000000
-65.525635 5.966846 0.488322 1.000000
-65.525635 5.966847 0.145702 1.000000
-64.989723 6.728066 0.000040 0.239715
-64.255356 7.771178 0.000044 0.185794
-65.499969 6.125143 4.516627 1.000000
-65.499969 6.125145 4.169930 1.000000
-65.499969 6.125144 3.828102 1.000000
-65.499969 6.125143 3.490322 1.000000
-65.499969 6.125147 3.155806 1.000000
-65.499969 6.125144 2.823802 1.000000
-65.499969 6.125146 2.493574 1.000000
-65.499969 6.125146 2.164407 1.000000
-65.499969 6.125146 1.835593 1.000000
-65.499969 6.125146 1.506426 1.000000
-65.499969 6.125145 1.176198 1.000000
-65.499969 6.125148 0.844194 1.000000
-65.499969 6.125146 0.509678 1.000000
-65.499969 6.125146 0.171898 1.000000
-65.042465 6.765450 0.000036 0.259804
-64.300858 7.803376 0.000029 0.206171
-65.475014 6.279042 4.481688 1.000000
-65.475014 6.279042 4.139805 1.000000
-65.475014 6.279041 3.802722 1.000000
-65.475014 6.279042 3.469632 1.000000
-65.475014 6.279044 3.139760 1.000000
-65.475014 6.279041 2.812365 1.000000
-65.475014 6.279043 2.486722 1.000000
-65.475014 6.279043 2.162125 1.000000
-65.475014 6.279043 1.837875 1.000000
-65.475014 6.279044 1.513278 1.000000
-65.475014 6.279042 1.187635 1.000000
-65.475014 6.279045 0.860240 1.000000
-65.475014 6.279044 0.530368 1.000000
-65.475014 6.279045 0.197278 1.000000
-65.094902 6.803260 0.000048 0.217128
-64.346069 7.835976 0.000040 0.287389
-65.450752 6.428728 4.447824 1.000000
-65.450752 6.428728 4.110606 1.000000
-65.450745 6.428729 3.778123 1.000000
-65.450752 6.428727 3.449579 1.000000
-65.450752 6.428728 3.124208 1.000000
-65.450752 6.428728 2.801280 1.000000
-65.450745 6.428729 2.480080 1.000000
-65.450752 6.428728 2.159913 1.000000
-65.450752 6.428728 1.840088 1.000000
-65.450745 6.428729 1.519920 1.000000
-65.450752 6.428728 1.198720 1.000000
-65.450745 6.428730 0.875792 1.000000
-65.450745 6.428729 0.550422 1.000000
-65.450745 6.428731 0.221877 1.000000
-65.147079 6.841423 0.000057 0.216936
-64.391060 7.868887 0.000050 0.276432
-65.427132 6.574396 4.414988 1.000000
-65.427132 6.574396 4.082294 1.000000
-65.427132 6.574395 3.754271 1.000000
-65.427132 6.574395 3.430133 1.000000
-65.427124 6.574398 3.109128 1.000000
-65.427132 6.574396 2.790531 1.000000
-65.427132 6.574397 2.473640 1.000000
-65.427124 6.574398 2.157767 1.000000
-65.427124 6.574398 1.842233 1.000000
-65.427132 6.574397 1.526360 1.000000
-65.427124 6.574397 1.209469 1.000000
-65.427124 6.574398 0.890873 1.000000
-65.427132 6.574397 0.569868 1.000000
-65.427124 6.574398 0.245730 1.000000
-65.198997 6.879941 0.000063 0.227605
-64.435829 7.902097 0.000055 0.239331
-65.404129 6.716215 4.383135 1.000000
-65.404129 6.716213 4.054829 1.000000
-65.404129 6.716213 3.731133 1.000000
-65.404129 6.716214 3.411270 1.000000
-65.404129 6.716213 3.094499 1.000000
-65.404129 6.716216 2.780104 1.000000
-65.404129 6.716214 2.467393 1.000000
-65.404129 6.716214 2.155687 1.000000
-65.404129 6.716214 1.844314 1.000000
-65.404129 6.716215 1.532607 1.000000
-65.404129 6.716216 1.219896 1.000000
-65.404129 6.716214 0.905502 1.000000
-65.404129 6.716215 0.588731 1.000000
-65.404129 6.716216 0.268868 1.000000
-65.250732 6.918700 0.000036 0.201749
-64.480415 7.935543 0.000038 0.246540
-65.381737 6.854346 4.352224 1.000000
-65.381737 6.854347 4.028177 1.000000
-65.381737 6.854347 3.708679 1.000000
-65.381737 6.854347 3.392965 1.000000
-65.381737 6.854345 3.080302 1.000000
-65.381737 6.854344 2.769986 1.000000
-65.381737 6.854346 2.461331 1.000000
-65.381737 6.854346 2.153667 1.000000
-65.381737 6.854346 1.846333 1.000000
-65.381737 6.854346 1.538669 1.000000
-65.381737 6.854345 1.230014 1.000000
-65.381737 6.854346 0.919698 1.000000
-65.381737 6.854348 0.607035 1.000000
-65.381737 6.854348 0.291321 1.000000
-65.302071 6.957995 0.000058 0.245194
-64.524689 7.969416 0.000056 0.202903
