# This PCD file was generated using the MATLABÂ® pcwrite function
# from Computer Vision ToolboxÂ®.
# .PCD v.7 - Point Cloud Data file format
VERSION .7
FIELDS x y z intensity
SIZE 4 4 4 4
TYPE F F F F
COUNT 1 1 1 1
WIDTH 1158
HEIGHT 1
VIEWPOINT 0 0 0 1 0 0 0
POINTS 1158
DATA ascii
267.070740 -343.504089 -0.000002 0.336152
266.931213 -344.772156 -0.000002 0.338725
270.283325 -316.629913 11.099025 1.000000
270.283325 -316.629913 9.845523 1.000000
270.283325 -316.629913 8.609622 1.000000
270.283325 -316.629913 7.388356 1.000000
270.283325 -316.629913 6.178895 1.000000
270.283325 -316.629913 4.978509 1.000000
270.283325 -316.629913 3.784549 1.000000
270.283325 -316.629913 2.594425 1.000000
270.283325 -316.629913 1.405575 1.000000
270.283325 -316.629944 0.215452 1.000000
268.895172 -328.482513 -0.000008 0.333701
268.080048 -335.442139 0.000068 0.223952
267.618347 -339.384216 0.009997 1.000000
267.336426 -341.791626 -0.000002 0.332598
267.134979 -343.511383 -0.000002 0.342892
266.986603 -344.778412 -0.000002 0.337745
270.437805 -317.443420 10.901362 1.000000
270.437805 -317.443420 9.675091 1.000000
270.437805 -317.443420 8.466037 1.000000
270.437805 -317.443420 7.271303 1.000000
270.437805 -317.443420 6.088115 1.000000
270.437805 -317.443420 4.913804 1.000000
270.437805 -317.443420 3.745782 1.000000
270.437805 -317.443420 2.581511 1.000000
270.437805 -317.443420 1.418488 1.000000
270.437805 -317.443451 0.254218 1.000000
269.064209 -328.502991 -0.000003 0.330270
268.200745 -335.455017 -0.000125 0.229431
267.719635 -339.328583 -0.000001 0.334559
267.412598 -341.800812 -0.000002 0.337745
267.199188 -343.519135 -0.000002 0.320956
267.041931 -344.785095 -0.000002 0.334314
270.585754 -318.222351 10.712515 1.000000
270.585754 -318.222351 9.512260 1.000000
270.585754 -318.222351 8.328855 1.000000
270.585785 -318.222351 7.159468 1.000000
270.585754 -318.222351 6.001382 1.000000
270.585785 -318.222351 4.851986 1.000000
270.585754 -318.222351 3.708745 1.000000
270.585754 -318.222351 2.569175 1.000000
270.585754 -318.222351 1.430825 1.000000
270.585754 -318.222382 0.291256 1.000000
269.233124 -328.524536 -0.000005 0.332966
268.321259 -335.469696 -0.000206 0.223856
267.813019 -339.340637 0.000016 0.202614
267.481537 -341.865082 0.010008 1.000000
267.263306 -343.527344 -0.000002 0.331740
267.097229 -344.792175 -0.000002 0.336397
270.728180 -318.964630 10.533017 1.000000
270.728180 -318.964630 9.357489 1.000000
270.728180 -318.964630 8.198467 1.000000
270.728180 -318.964630 7.053171 1.000000
270.728180 -318.964630 5.918945 1.000000
270.728180 -318.964630 4.793229 1.000000
270.728180 -318.964630 3.673541 1.000000
270.728180 -318.964630 2.557449 1.000000
270.728180 -318.964630 1.442552 1.000000
270.728180 -318.964630 0.326459 1.000000
269.401886 -328.547211 -0.000011 0.332475
268.441315 -335.487488 -0.000024 0.208862
267.906128 -339.354340 0.000192 0.214148
267.557251 -341.875244 0.009996 1.000000
267.327393 -343.535950 -0.000002 0.334436
267.152466 -344.799622 -0.000002 0.335417
270.866119 -319.668243 10.363375 1.000000
270.866119 -319.668243 9.211218 1.000000
270.866119 -319.668243 8.075236 1.000000
270.866119 -319.668243 6.952710 1.000000
270.866119 -319.668243 5.841033 1.000000
270.866119 -319.668243 4.737698 1.000000
270.866119 -319.668243 3.640270 1.000000
270.866119 -319.668243 2.546366 1.000000
270.866119 -319.668243 1.453634 1.000000
270.866119 -319.668243 0.359730 1.000000
269.570465 -328.571198 -0.000010 0.334069
268.561737 -335.502869 -0.000218 0.222318
267.999512 -339.366302 0.000000 0.264994
267.632843 -341.885956 0.009995 1.000000
267.391388 -343.545044 -0.000001 0.334681
267.207672 -344.807465 -0.000002 0.339338
270.998657 -320.344513 10.200731 1.000000
270.998657 -320.344482 9.070980 1.000000
270.998657 -320.344513 7.957089 1.000000
270.998657 -320.344513 6.856393 1.000000
270.998657 -320.344482 5.766338 1.000000
270.998657 -320.344482 4.684459 1.000000
270.998657 -320.344482 3.608372 1.000000
270.998657 -320.344482 2.535741 1.000000
270.998657 -320.344482 1.464259 1.000000
270.998657 -320.344482 0.391627 1.000000
269.738892 -328.596283 -0.000009 0.333824
268.681580 -335.522339 -0.000038 0.230777
268.092407 -339.381378 0.000180 0.213668
267.716644 -341.842896 -0.000001 0.336152
267.448334 -343.600372 0.010005 1.000000
267.262817 -344.815674 -0.000002 0.343627
271.126160 -320.994965 10.044676 1.000000
271.126160 -320.994995 8.936424 1.000000
271.126160 -320.994995 7.843732 1.000000
271.126160 -320.994995 6.763980 1.000000
271.126160 -320.994995 5.694664 1.000000
271.126160 -320.994995 4.633372 1.000000
271.126160 -320.994995 3.577764 1.000000
271.126160 -320.994995 2.525546 1.000000
271.126160 -320.994995 1.474454 1.000000
271.126160 -320.994934 0.422233 1.000000
269.907166 -328.622528 -0.000013 0.334314
268.801605 -335.540375 -0.000119 0.225298
268.185486 -339.395386 0.000101 0.254325
267.792511 -341.854401 -0.000065 0.200019
267.511749 -343.611298 0.010216 1.000000
267.317871 -344.824280 -0.000001 0.337745
271.331970 -321.123718 10.021162 1.000000
271.331970 -321.123718 8.916150 1.000000
271.331970 -321.123718 7.826650 1.000000
271.331970 -321.123718 6.750055 1.000000
271.331970 -321.123749 5.683866 1.000000
271.331970 -321.123749 4.625676 1.000000
271.331970 -321.123718 3.573153 1.000000
271.331970 -321.123749 2.524010 1.000000
271.331970 -321.123749 1.475990 1.000000
271.331970 -321.123749 0.426846 1.000000
270.075226 -328.650024 -0.000010 0.332721
268.921265 -335.560608 -0.000041 0.219050
268.278320 -339.411041 0.000173 0.243656
267.868164 -341.867157 0.000009 0.248654
267.575378 -343.620667 0.009997 1.000000
267.372894 -344.833252 -0.000001 0.329657
271.566895 -321.077759 10.042408 1.000000
271.566895 -321.077759 8.934467 1.000000
271.566895 -321.077759 7.842082 1.000000
271.566895 -321.077759 6.762635 1.000000
271.566895 -321.077759 5.693624 1.000000
271.566895 -321.077759 4.632630 1.000000
271.566895 -321.077759 3.577319 1.000000
271.566895 -321.077759 2.525398 1.000000
271.566895 -321.077759 1.474602 1.000000
271.566895 -321.077759 0.422680 1.000000
270.243103 -328.678650 -0.000010 0.335172
269.041046 -335.580261 -0.000129 0.231065
268.371185 -339.426270 0.000081 0.270281
267.943909 -341.879608 -0.000077 0.211745
267.646729 -343.585846 -0.000001 0.341176
267.427826 -344.842621 -0.000001 0.333578
271.803101 -321.031555 10.064157 1.000000
271.803101 -321.031555 8.953220 1.000000
271.803101 -321.031555 7.857882 1.000000
271.803101 -321.031555 6.775517 1.000000
271.803101 -321.031555 5.703612 1.000000
271.803101 -321.031555 4.639750 1.000000
271.803101 -321.031555 3.581585 1.000000
271.803101 -321.031555 2.526818 1.000000
271.803101 -321.031555 1.473181 1.000000
271.803101 -321.031555 0.418414 1.000000
270.410736 -328.708435 -0.000013 0.332230
269.160492 -335.601837 -0.000089 0.249616
268.463837 -339.443024 0.000121 0.201365
268.019409 -341.893280 -0.000038 0.255286
267.710388 -343.597168 -0.000001 0.323775
267.475616 -344.891693 0.010000 1.000000
272.040588 -320.985077 10.086421 1.000000
272.040588 -320.985077 8.972416 1.000000
272.040588 -320.985107 7.874053 1.000000
272.040588 -320.985077 6.788701 1.000000
272.040588 -320.985077 5.713838 1.000000
272.040588 -320.985107 4.647038 1.000000
272.040588 -320.985107 3.585952 1.000000
272.040588 -320.985107 2.528273 1.000000
272.040588 -320.985107 1.471727 1.000000
272.040588 -320.985107 0.414048 1.000000
270.578186 -328.739441 -0.000011 0.334191
269.279968 -335.623169 -0.000179 0.246636
268.556458 -339.459595 0.000040 0.207132
268.094971 -341.906769 -0.000121 0.246540
267.773926 -343.608948 -0.000001 0.339338
267.529999 -344.902527 0.010188 1.000000
272.279358 -320.938354 10.109202 1.000000
272.279358 -320.938354 8.992062 1.000000
272.279358 -320.938354 7.890604 1.000000
272.279358 -320.938385 6.802190 1.000000
272.279358 -320.938385 5.724299 1.000000
272.279358 -320.938385 4.654496 1.000000
272.279358 -320.938385 3.590420 1.000000
272.279358 -320.938385 2.529761 1.000000
272.279358 -320.938385 1.470238 1.000000
272.279358 -320.938385 0.409580 1.000000
270.745392 -328.771667 -0.000004 0.334069
269.398865 -335.647705 0.000013 0.218281
268.648682 -339.478516 0.000219 0.209439
268.170135 -341.922241 0.000063 0.224433
267.837280 -343.621887 0.000161 0.207228
267.584595 -344.912231 0.009998 1.000000
272.519531 -320.891388 10.132511 1.000000
272.519531 -320.891388 9.012159 1.000000
272.519531 -320.891388 7.907536 1.000000
272.519531 -320.891388 6.815996 1.000000
272.519531 -320.891388 5.735005 1.000000
272.519531 -320.891418 4.662126 1.000000
272.519531 -320.891418 3.594991 1.000000
272.519531 -320.891388 2.531284 1.000000
272.519531 -320.891388 1.468716 1.000000
272.519531 -320.891418 0.405008 1.000000
270.912384 -328.805023 -0.000002 0.332475
269.518250 -335.669739 -0.000189 0.233372
268.741241 -339.495667 0.000028 0.236736
268.245636 -341.935913 -0.000185 0.246348
267.900848 -343.633636 -0.000034 0.226451
267.646942 -344.883942 -0.000001 0.328922
269.824921 -334.801483 6.583699 1.000000
269.824921 -334.801483 5.952238 1.000000
269.824921 -334.801483 5.329643 1.000000
269.824921 -334.801483 4.714422 1.000000
269.824921 -334.801483 4.105147 1.000000
269.824921 -334.801483 3.500445 1.000000
269.824921 -334.801483 2.898979 1.000000
269.824921 -334.801483 2.299445 1.000000
269.824921 -334.801483 1.700554 1.000000
269.824921 -334.801483 1.101021 1.000000
269.824921 -334.801483 0.499555 1.000000
269.636292 -335.698151 0.000262 0.228566
268.833130 -339.515961 0.000210 0.236063
268.320618 -341.952423 -0.000006 0.210015
267.964294 -343.646027 -0.000187 0.228181
267.701508 -344.895233 -0.000001 0.329779
269.888336 -335.110809 6.511259 1.000000
269.888336 -335.110809 5.889777 1.000000
269.888336 -335.110809 5.277022 1.000000
269.888336 -335.110809 4.671524 1.000000
269.888336 -335.110809 4.071878 1.000000
269.888336 -335.110809 3.476732 1.000000
269.888336 -335.110809 2.884772 1.000000
269.888336 -335.110809 2.294713 1.000000
269.888336 -335.110809 1.705287 1.000000
269.888336 -335.110809 1.115228 1.000000
269.888336 -335.110809 0.523267 1.000000
269.755127 -335.722809 0.000176 0.208862
268.925293 -339.535065 0.000121 0.209439
268.395721 -341.968018 -0.000092 0.216551
268.027618 -343.659180 -0.000270 0.199923
267.756012 -344.906921 -0.000001 0.340441
269.949799 -335.410492 6.441286 1.000000
269.949799 -335.410492 5.829445 1.000000
269.949799 -335.410492 5.226193 1.000000
269.949799 -335.410522 4.630088 1.000000
269.949799 -335.410492 4.039743 1.000000
269.949799 -335.410492 3.453827 1.000000
269.949799 -335.410492 2.871049 1.000000
269.949799 -335.410492 2.290142 1.000000
269.949799 -335.410492 1.709858 1.000000
269.949799 -335.410492 1.128951 1.000000
269.949799 -335.410492 0.546172 1.000000
269.873474 -335.749664 0.000251 0.255863
269.017090 -339.555908 0.000201 0.226836
268.470581 -341.985016 -0.000014 0.205594
268.090668 -343.673553 -0.000180 0.213283
267.810547 -344.918671 -0.000082 0.222318
270.009369 -335.701050 6.373662 1.000000
270.009369 -335.701019 5.771138 1.000000
270.009369 -335.701019 5.177072 1.000000
270.009369 -335.701019 4.590042 1.000000
270.009369 -335.701019 4.008686 1.000000
270.009369 -335.701019 3.431691 1.000000
270.009369 -335.701019 2.857787 1.000000
270.009369 -335.701050 2.285725 1.000000
270.009369 -335.701050 1.714275 1.000000
270.009369 -335.701019 1.142213 1.000000
270.009369 -335.701019 0.568308 1.000000
270.009369 -335.701019 -0.008686 1.000000
269.109192 -339.575348 -0.000034 0.203287
268.545654 -342.000885 -0.000243 0.248078
268.153931 -343.686981 -0.000401 0.232026
267.865082 -344.930237 -0.000297 0.288735
270.067139 -335.982910 6.308276 1.000000
270.067139 -335.982910 5.714758 1.000000
270.067139 -335.982910 5.129573 1.000000
270.067139 -335.982910 4.551319 1.000000
270.067139 -335.982910 3.978654 1.000000
270.067139 -335.982910 3.410286 1.000000
270.067139 -335.982910 2.844962 1.000000
270.067139 -335.982910 2.281453 1.000000
270.067139 -335.982910 1.718547 1.000000
270.067139 -335.982910 1.155038 1.000000
270.067139 -335.982910 0.589713 1.000000
270.067139 -335.982910 0.021345 1.000000
269.201050 -339.596069 -0.000175 0.240869
268.620117 -342.019470 -0.000066 0.202518
268.216675 -343.702637 -0.000225 0.215686
267.919189 -344.943695 -0.000127 0.178105
270.123230 -336.256470 6.245016 1.000000
270.123230 -336.256470 5.660214 1.000000
270.123230 -336.256470 5.083621 1.000000
270.123230 -336.256470 4.513859 1.000000
270.123230 -336.256470 3.949602 1.000000
270.123230 -336.256470 3.389579 1.000000
270.123230 -336.256470 2.832555 1.000000
270.123230 -336.256470 2.277320 1.000000
270.123230 -336.256470 1.722680 1.000000
270.123230 -336.256470 1.167444 1.000000
270.123230 -336.256470 0.610420 1.000000
270.123230 -336.256470 0.050398 1.000000
269.292633 -339.617767 -0.000261 0.230873
268.694824 -342.037170 -0.000153 0.237697
268.279572 -343.717499 -0.000317 0.220588
267.973419 -344.956543 -0.000218 0.230296
270.177704 -336.522125 6.183789 1.000000
270.177704 -336.522125 5.607421 1.000000
270.177704 -336.522125 5.039145 1.000000
270.177704 -336.522125 4.477600 1.000000
270.177704 -336.522125 3.921483 1.000000
270.177704 -336.522125 3.369537 1.000000
270.177704 -336.522125 2.820547 1.000000
270.177704 -336.522125 2.273320 1.000000
270.177704 -336.522125 1.726680 1.000000
270.177704 -336.522125 1.179453 1.000000
270.177704 -336.522125 0.630463 1.000000
270.177704 -336.522125 0.078518 1.000000
269.383850 -339.641174 -0.000183 0.209727
268.769165 -342.056213 -0.000082 0.193772
268.342224 -343.733551 -0.000247 0.217128
268.027405 -344.970367 -0.000143 0.218762
270.230621 -336.780273 6.124503 1.000000
270.230621 -336.780243 5.556302 1.000000
270.230621 -336.780243 4.996078 1.000000
270.230621 -336.780273 4.442491 1.000000
270.230621 -336.780243 3.894254 1.000000
270.230621 -336.780243 3.350130 1.000000
270.230621 -336.780243 2.808920 1.000000
270.230621 -336.780243 2.269447 1.000000
270.230621 -336.780243 1.730553 1.000000
270.230621 -336.780243 1.191080 1.000000
270.230621 -336.780243 0.649870 1.000000
270.230621 -336.780243 0.105746 1.000000
269.475189 -339.663879 -0.000310 0.242118
268.843628 -342.074768 -0.000204 0.218666
268.404968 -343.749146 -0.000377 0.241542
268.081482 -344.983887 -0.000253 0.247885
270.282043 -337.031158 6.067068 1.000000
270.282043 -337.031158 5.506780 1.000000
270.282043 -337.031158 4.954358 1.000000
270.282043 -337.031158 4.408479 1.000000
270.282043 -337.031158 3.867876 1.000000
270.282043 -337.031158 3.331329 1.000000
270.282043 -337.031158 2.797655 1.000000
270.282043 -337.031158 2.265695 1.000000
270.282043 -337.031158 1.734305 1.000000
270.282043 -337.031158 1.202345 1.000000
270.282043 -337.031158 0.668671 1.000000
270.282043 -337.031158 0.132124 1.000000
269.566040 -339.688538 -0.000235 0.216263
268.917694 -342.094879 -0.000125 0.237793
268.467377 -343.766083 -0.000297 0.222126
268.135315 -344.998474 -0.000189 0.236544
270.332092 -337.275208 6.011402 1.000000
270.332092 -337.275177 5.458783 1.000000
270.332092 -337.275177 4.913923 1.000000
270.332092 -337.275177 4.375515 1.000000
270.332092 -337.275177 3.842310 1.000000
270.332092 -337.275208 3.313107 1.000000
270.332092 -337.275177 2.786738 1.000000
270.332092 -337.275177 2.262058 1.000000
270.332092 -337.275177 1.737941 1.000000
270.332092 -337.275177 1.213262 1.000000
270.332092 -337.275177 0.686892 1.000000
270.332092 -337.275177 0.157689 1.000000
269.656982 -339.712799 -0.000321 0.239908
268.991821 -342.114594 -0.000214 0.207516
268.529877 -343.782654 -0.000402 0.239812
268.189178 -345.012787 -0.000278 0.249135
270.380768 -337.512665 5.957432 1.000000
270.380768 -337.512634 5.412248 1.000000
270.380768 -337.512634 4.874718 1.000000
270.380768 -337.512665 4.343554 1.000000
270.380768 -337.512665 3.817523 1.000000
270.380768 -337.512665 3.295440 1.000000
270.380768 -337.512665 2.776153 1.000000
270.380768 -337.512665 2.258533 1.000000
270.380768 -337.512665 1.741467 1.000000
270.380768 -337.512665 1.223847 1.000000
270.380768 -337.512665 0.704559 1.000000
270.380768 -337.512665 0.182477 1.000000
269.747528 -339.738647 -0.000258 0.199731
269.065460 -342.136261 -0.000040 0.246251
268.591888 -343.800995 -0.000213 0.215302
268.242645 -345.028564 -0.000098 0.262207
270.428162 -337.743835 5.905078 1.000000
270.428162 -337.743835 5.367106 1.000000
270.428162 -337.743835 4.836687 1.000000
270.428162 -337.743835 4.312550 1.000000
270.428162 -337.743835 3.793479 1.000000
270.428162 -337.743835 3.278302 1.000000
270.428162 -337.743835 2.765885 1.000000
270.428162 -337.743835 2.255113 1.000000
270.428162 -337.743835 1.744887 1.000000
270.428162 -337.743835 1.234115 1.000000
270.428162 -337.743835 0.721697 1.000000
270.428162 -337.743835 0.206521 1.000000
269.837921 -339.764984 -0.000218 0.229719
269.139130 -342.157745 0.000001 0.243272
268.653961 -343.819061 -0.000175 0.216647
268.296204 -345.044098 -0.000070 0.260092
270.474335 -337.968994 5.854280 1.000000
270.474335 -337.968994 5.323306 1.000000
270.474335 -337.968994 4.799787 1.000000
270.474335 -337.968994 4.282467 1.000000
270.474335 -337.968994 3.770149 1.000000
270.474335 -337.968994 3.261674 1.000000
270.474335 -337.968994 2.755922 1.000000
270.474335 -337.968994 2.251794 1.000000
270.474335 -337.968994 1.748206 1.000000
270.474335 -337.968994 1.244078 1.000000
270.474335 -337.968994 0.738326 1.000000
270.474335 -337.968994 0.229851 1.000000
269.928558 -339.790466 -0.000411 0.213956
269.213013 -342.178497 -0.000197 0.212611
268.716217 -343.836548 -0.000368 0.196751
268.349854 -345.059174 -0.000264 0.218762
270.519287 -338.188354 5.804970 1.000000
270.519287 -338.188354 5.280788 1.000000
270.519287 -338.188354 4.763968 1.000000
270.519287 -338.188354 4.253267 1.000000
270.519287 -338.188354 3.747502 1.000000
270.519287 -338.188354 3.245533 1.000000
270.519287 -338.188354 2.746251 1.000000
270.519287 -338.188354 2.248573 1.000000
270.519287 -338.188354 1.751427 1.000000
270.519287 -338.188354 1.253749 1.000000
270.519287 -338.188354 0.754467 1.000000
270.519287 -338.188354 0.252497 1.000000
270.018829 -339.817169 -0.000504 0.226163
269.286621 -342.200287 -0.000287 0.247982
268.777832 -343.856110 -0.000188 0.247020
268.403320 -345.075012 -0.000361 0.226836
270.563141 -338.402191 5.757085 1.000000
270.563141 -338.402191 5.239500 1.000000
270.563141 -338.402191 4.729183 1.000000
270.563141 -338.402191 4.224910 1.000000
270.563141 -338.402191 3.725510 1.000000
270.563141 -338.402191 3.229858 1.000000
270.563141 -338.402191 2.736859 1.000000
270.563141 -338.402191 2.245445 1.000000
270.563141 -338.402191 1.754556 1.000000
270.563141 -338.402191 1.263140 1.000000
270.563141 -338.402191 0.770142 1.000000
270.563141 -338.402191 0.274490 1.000000
270.108673 -339.845398 -0.000462 0.216167
269.359833 -342.223267 -0.000248 0.252787
268.839508 -343.875488 -0.000147 0.217513
268.456512 -345.091736 -0.000313 0.259419
270.605927 -338.610718 5.710571 1.000000
270.605927 -338.610718 5.199394 1.000000
270.605927 -338.610718 4.695395 1.000000
270.605927 -338.610718 4.197365 1.000000
270.605927 -338.610687 3.704148 1.000000
270.605927 -338.610718 3.214632 1.000000
270.605927 -338.610687 2.727737 1.000000
270.605927 -338.610687 2.242406 1.000000
270.605927 -338.610718 1.757594 1.000000
270.605927 -338.610718 1.272263 1.000000
270.605927 -338.610687 0.785367 1.000000
270.605927 -338.610687 0.295852 1.000000
270.197968 -339.875244 -0.000273 0.237985
269.432831 -342.246979 -0.000176 0.225010
268.900848 -343.895935 0.000040 0.230488
268.509399 -345.109406 -0.000124 0.216071
270.647614 -338.814148 5.665371 1.000000
270.647614 -338.814148 5.160422 1.000000
270.647614 -338.814148 4.662561 1.000000
270.647614 -338.814148 4.170597 1.000000
270.647614 -338.814148 3.683389 1.000000
270.647614 -338.814148 3.199836 1.000000
270.647614 -338.814148 2.718873 1.000000
270.647614 -338.814148 2.239453 1.000000
270.647614 -338.814148 1.760547 1.000000
270.647614 -338.814148 1.281127 1.000000
270.647614 -338.814148 0.800164 1.000000
270.647614 -338.814148 0.316611 1.000000
270.287384 -339.904663 -0.000236 0.240677
269.505707 -342.271027 -0.000133 0.241638
268.962250 -343.916229 0.000086 0.224721
268.562378 -345.126770 -0.000101 0.224337
270.688324 -339.012726 5.621431 1.000000
270.688324 -339.012726 5.122536 1.000000
270.688324 -339.012726 4.630643 1.000000
270.688324 -339.012726 4.144577 1.000000
270.688324 -339.012726 3.663208 1.000000
270.688324 -339.012726 3.185452 1.000000
270.688324 -339.012726 2.710255 1.000000
270.688324 -339.012726 2.236583 1.000000
270.688324 -339.012726 1.763418 1.000000
270.688324 -339.012726 1.289745 1.000000
270.688324 -339.012726 0.814547 1.000000
270.688324 -339.012726 0.336791 1.000000
270.376892 -339.933899 -0.000329 0.227701
269.578644 -342.294891 -0.000224 0.236832
269.023865 -343.935791 -0.000123 0.225682
268.615143 -345.144745 -0.000028 0.266052
270.728058 -339.206573 5.578705 1.000000
270.728058 -339.206573 5.085694 1.000000
270.728058 -339.206573 4.599607 1.000000
270.728058 -339.206573 4.119275 1.000000
270.728058 -339.206573 3.643586 1.000000
270.728058 -339.206573 3.171467 1.000000
270.728058 -339.206573 2.701874 1.000000
270.728058 -339.206573 2.233791 1.000000
270.728058 -339.206573 1.766209 1.000000
270.728058 -339.206573 1.298125 1.000000
270.728058 -339.206573 0.828533 1.000000
270.728058 -339.206573 0.356414 1.000000
270.465851 -339.964661 -0.000287 0.200788
269.651184 -342.319916 -0.000182 0.217897
269.084991 -343.956909 -0.000084 0.267109
268.667816 -345.162903 0.000011 0.292964
270.766876 -339.395935 5.537144 1.000000
270.766876 -339.395935 5.049860 1.000000
270.766876 -339.395935 4.569417 1.000000
270.766876 -339.395935 4.094664 1.000000
270.766876 -339.395935 3.624499 1.000000
270.766876 -339.395935 3.157863 1.000000
270.766876 -339.395935 2.693723 1.000000
270.766876 -339.395935 2.231076 1.000000
270.766876 -339.395935 1.768924 1.000000
270.766876 -339.395935 1.306276 1.000000
270.766876 -339.395935 0.842137 1.000000
270.766876 -339.395935 0.375501 1.000000
270.554932 -339.995178 -0.000376 0.221261
269.723816 -342.344757 -0.000283 0.237216
269.146118 -343.977875 -0.000169 0.195213
268.720581 -345.180939 -0.000086 0.208381
270.804810 -339.580933 5.496710 1.000000
270.804810 -339.580933 5.014997 1.000000
270.804810 -339.580933 4.540046 1.000000
270.804810 -339.580933 4.070719 1.000000
270.804810 -339.580933 3.605929 1.000000
270.804810 -339.580933 3.144626 1.000000
270.804810 -339.580933 2.685794 1.000000
270.804810 -339.580933 2.228435 1.000000
270.804810 -339.580933 1.771565 1.000000
270.804810 -339.580933 1.314206 1.000000
270.804810 -339.580933 0.855373 1.000000
270.804810 -339.580933 0.394071 1.000000
270.642883 -340.028778 -0.000073 0.228566
269.796021 -342.370758 -0.000248 0.202903
269.207001 -343.999725 -0.000146 0.177912
268.772980 -345.199890 -0.000040 0.233756
270.841919 -339.761749 5.457355 1.000000
270.841919 -339.761780 4.981062 1.000000
270.841919 -339.761749 4.511457 1.000000
270.841919 -339.761780 4.047413 1.000000
270.841919 -339.761749 3.587854 1.000000
270.841919 -339.761749 3.131743 1.000000
270.841919 -339.761749 2.678075 1.000000
270.841919 -339.761749 2.225864 1.000000
270.841919 -339.761749 1.774137 1.000000
270.841919 -339.761749 1.321925 1.000000
270.841919 -339.761749 0.868256 1.000000
270.841919 -339.761749 0.412145 1.000000
270.731750 -340.059875 -0.000268 0.221261
269.868469 -342.396118 -0.000441 0.220396
269.268005 -344.021088 -0.000338 0.203768
268.825623 -345.218262 -0.000247 0.218185
270.878143 -339.938568 5.419041 1.000000
270.878143 -339.938568 4.948027 1.000000
270.878143 -339.938599 4.483624 1.000000
270.878143 -339.938599 4.024723 1.000000
270.878143 -339.938568 3.570258 1.000000
270.878143 -339.938568 3.119202 1.000000
270.878143 -339.938599 2.670561 1.000000
270.878143 -339.938568 2.223361 1.000000
270.878143 -339.938568 1.776639 1.000000
270.878143 -339.938599 1.329439 1.000000
270.878143 -339.938568 0.880798 1.000000
270.878143 -339.938568 0.429742 1.000000
270.819824 -340.093109 -0.000225 0.217320
269.940308 -342.423157 -0.000406 0.205882
269.328491 -344.043945 -0.000286 0.252018
268.877808 -345.237946 -0.000202 0.198577
270.913605 -340.111542 5.381731 1.000000
270.913605 -340.111542 4.915856 1.000000
270.913605 -340.111542 4.456522 1.000000
270.913605 -340.111542 4.002628 1.000000
270.913605 -340.111542 3.553122 1.000000
270.913605 -340.111542 3.106988 1.000000
270.913605 -340.111542 2.663243 1.000000
270.913605 -340.111542 2.220923 1.000000
270.913605 -340.111542 1.779077 1.000000
270.913605 -340.111542 1.336757 1.000000
270.913605 -340.111542 0.893012 1.000000
270.913605 -340.111542 0.446878 1.000000
270.913605 -340.111542 -0.002629 1.000000
270.011627 -342.451447 -0.000224 0.219723
269.388641 -344.067688 -0.000129 0.266340
268.929626 -345.258484 -0.000016 0.230392
270.948303 -340.280731 5.345386 1.000000
270.948303 -340.280731 4.884519 1.000000
270.948303 -340.280731 4.430120 1.000000
270.948303 -340.280731 3.981105 1.000000
270.948303 -340.280731 3.536430 1.000000
270.948303 -340.280731 3.095091 1.000000
270.948303 -340.280731 2.656115 1.000000
270.948303 -340.280731 2.218549 1.000000
270.948303 -340.280731 1.781451 1.000000
270.948303 -340.280731 1.343885 1.000000
270.948303 -340.280731 0.904909 1.000000
270.948303 -340.280731 0.463570 1.000000
270.948303 -340.280731 0.018895 1.000000
270.083069 -342.479523 -0.000174 0.256151
269.448822 -344.091309 -0.000089 0.248174
268.981537 -345.278778 0.000005 0.226355
270.982269 -340.446381 5.309972 1.000000
270.982269 -340.446381 4.853983 1.000000
270.982269 -340.446381 4.404396 1.000000
270.982269 -340.446381 3.960134 1.000000
270.982269 -340.446381 3.520165 1.000000
270.982269 -340.446381 3.083498 1.000000
270.982269 -340.446381 2.649169 1.000000
270.982269 -340.446381 2.216235 1.000000
270.982269 -340.446381 1.783765 1.000000
270.982269 -340.446381 1.350830 1.000000
270.982269 -340.446381 0.916501 1.000000
270.982269 -340.446381 0.479834 1.000000
270.982269 -340.446381 0.039866 1.000000
270.154572 -342.507416 -0.000270 0.216936
269.509064 -344.114777 -0.000184 0.213572
269.033478 -345.299072 -0.000090 0.274894
271.015503 -340.608551 5.275459 1.000000
271.015503 -340.608551 4.824225 1.000000
271.015503 -340.608551 4.379326 1.000000
271.015503 -340.608551 3.939696 1.000000
271.015503 -340.608551 3.504315 1.000000
271.015503 -340.608551 3.072201 1.000000
271.015503 -340.608551 2.642401 1.000000
271.015503 -340.608551 2.213980 1.000000
271.015503 -340.608551 1.786019 1.000000
271.015503 -340.608551 1.357599 1.000000
271.015503 -340.608551 0.927799 1.000000
271.015503 -340.608551 0.495685 1.000000
271.015503 -340.608551 0.060304 1.000000
270.225067 -342.537781 0.000033 0.219627
269.568909 -344.139252 -0.000140 0.184160
269.085052 -345.320190 -0.000041 0.252595
271.048065 -340.767395 5.241817 1.000000
271.048065 -340.767395 4.795217 1.000000
271.048065 -340.767395 4.354886 1.000000
271.048065 -340.767395 3.919773 1.000000
271.048065 -340.767395 3.488864 1.000000
271.048096 -340.767395 3.061188 1.000000
271.048065 -340.767395 2.635803 1.000000
271.048065 -340.767395 2.211783 1.000000
271.048065 -340.767395 1.788217 1.000000
271.048065 -340.767395 1.364197 1.000000
271.048096 -340.767395 0.938811 1.000000
271.048065 -340.767395 0.511136 1.000000
271.048065 -340.767395 0.080227 1.000000
270.295837 -342.567444 0.000089 0.250769
269.628571 -344.164154 -0.000101 0.225010
269.136536 -345.341583 -0.000016 0.195694
271.079987 -340.923004 5.209012 1.000000
271.079987 -340.923004 4.766932 1.000000
271.079987 -340.923004 4.331058 1.000000
271.079987 -340.923004 3.900346 1.000000
271.079987 -340.923004 3.473798 1.000000
271.079987 -340.923004 3.050450 1.000000
271.079987 -340.923004 2.629369 1.000000
271.079987 -340.923004 2.209640 1.000000
271.079987 -340.923004 1.790360 1.000000
271.079987 -340.923004 1.370631 1.000000
271.079987 -340.923004 0.949550 1.000000
271.079987 -340.923004 0.526202 1.000000
271.079987 -340.923004 0.099654 1.000000
270.366730 -342.596771 -0.000010 0.226355
269.687836 -344.190033 0.000069 0.301711
269.188049 -345.362885 -0.000113 0.279508
271.111237 -341.075500 5.177018 1.000000
271.111237 -341.075500 4.739346 1.000000
271.111237 -341.075500 4.307817 1.000000
271.111237 -341.075500 3.881400 1.000000
271.111237 -341.075500 3.459104 1.000000
271.111237 -341.075500 3.039977 1.000000
271.111237 -341.075500 2.623094 1.000000
271.111237 -341.075500 2.207550 1.000000
271.111237 -341.075500 1.792450 1.000000
271.111237 -341.075500 1.376906 1.000000
271.111237 -341.075500 0.960023 1.000000
271.111237 -341.075500 0.540896 1.000000
271.111237 -341.075500 0.118600 1.000000
270.437164 -342.627197 0.000015 0.215782
269.747131 -344.215759 0.000110 0.224817
269.239166 -345.385101 -0.000072 0.231930
271.141907 -341.225006 5.145806 1.000000
271.141907 -341.225006 4.712433 1.000000
271.141907 -341.225006 4.285144 1.000000
271.141907 -341.225006 3.862916 1.000000
271.141907 -341.225006 3.444769 1.000000
271.141907 -341.225006 3.029760 1.000000
271.141907 -341.225006 2.616972 1.000000
271.141907 -341.225006 2.205510 1.000000
271.141907 -341.225006 1.794490 1.000000
271.141907 -341.225006 1.383028 1.000000
271.141907 -341.225006 0.970240 1.000000
271.141907 -341.225006 0.555231 1.000000
271.141907 -341.225006 0.137084 1.000000
270.507385 -342.658264 0.000060 0.230488
269.806244 -344.241913 0.000154 0.197040
269.290131 -345.407654 -0.000021 0.205594
271.171936 -341.371582 5.115354 1.000000
271.171936 -341.371582 4.686175 1.000000
271.171936 -341.371582 4.263023 1.000000
271.171936 -341.371582 3.844883 1.000000
271.171936 -341.371582 3.430784 1.000000
271.171936 -341.371582 3.019791 1.000000
271.171936 -341.371582 2.611000 1.000000
271.171936 -341.371582 2.203521 1.000000
271.171936 -341.371582 1.796479 1.000000
271.171936 -341.371582 1.389000 1.000000
271.171936 -341.371582 0.980208 1.000000
271.171936 -341.371582 0.569217 1.000000
271.171936 -341.371582 0.155117 1.000000
270.577942 -342.688385 -0.000176 0.233756
269.865906 -344.266876 -0.000177 0.267397
269.341431 -345.429504 -0.000267 0.226451
271.201416 -341.515381 5.085633 1.000000
271.201416 -341.515381 4.660548 1.000000
271.201416 -341.515381 4.241433 1.000000
271.201416 -341.515411 3.827282 1.000000
271.201416 -341.515411 3.417133 1.000000
271.201416 -341.515381 3.010062 1.000000
271.201416 -341.515381 2.605171 1.000000
271.201416 -341.515381 2.201579 1.000000
271.201416 -341.515381 1.798420 1.000000
271.201416 -341.515381 1.394829 1.000000
271.201416 -341.515381 0.989937 1.000000
271.201416 -341.515411 0.582867 1.000000
271.201416 -341.515411 0.172718 1.000000
270.647614 -342.720612 -0.000093 0.221069
269.924408 -344.294342 -0.000009 0.183295
269.391602 -345.453857 0.000078 0.224241
271.230377 -341.656464 5.056623 1.000000
271.230377 -341.656464 4.635535 1.000000
271.230377 -341.656464 4.220360 1.000000
271.230377 -341.656464 3.810102 1.000000
271.230377 -341.656464 3.403810 1.000000
271.230377 -341.656464 3.000566 1.000000
271.230377 -341.656464 2.599481 1.000000
271.230377 -341.656464 2.199684 1.000000
271.230377 -341.656464 1.800316 1.000000
271.230377 -341.656464 1.400519 1.000000
271.230377 -341.656464 0.999434 1.000000
271.230377 -341.656464 0.596190 1.000000
271.230377 -341.656464 0.189898 1.000000
270.717133 -342.753052 -0.000056 0.242215
269.983032 -344.321686 0.000015 0.198866
269.442078 -345.477448 0.000118 0.206940
271.258728 -341.794922 5.028297 1.000000
271.258728 -341.794922 4.611113 1.000000
271.258728 -341.794922 4.199785 1.000000
271.258728 -341.794922 3.793329 1.000000
271.258728 -341.794922 3.390802 1.000000
271.258728 -341.794922 2.991294 1.000000
271.258728 -341.794922 2.593926 1.000000
271.258728 -341.794922 2.197834 1.000000
271.258728 -341.794922 1.802166 1.000000
271.258728 -341.794922 1.406074 1.000000
271.258728 -341.794922 1.008706 1.000000
271.258728 -341.794922 0.609199 1.000000
271.258728 -341.794922 0.206671 1.000000
270.787109 -342.784576 -0.000305 0.213956
270.041931 -344.348358 -0.000205 0.238947
269.492920 -345.500397 -0.000116 0.258651
271.286621 -341.930847 5.000638 1.000000
271.286621 -341.930847 4.587264 1.000000
271.286621 -341.930847 4.179693 1.000000
271.286621 -341.930847 3.776949 1.000000
271.286621 -341.930847 3.378098 1.000000
271.286621 -341.930847 2.982240 1.000000
271.286621 -341.930847 2.588501 1.000000
271.286621 -341.930847 2.196027 1.000000
271.286621 -341.930847 1.803973 1.000000
271.286621 -341.930847 1.411499 1.000000
271.286621 -341.930847 1.017760 1.000000
271.286621 -341.930847 0.621902 1.000000
271.286621 -341.930847 0.223051 1.000000
270.856171 -342.818054 -0.000260 0.265859
270.100098 -344.376526 -0.000171 0.207324
269.543091 -345.524689 -0.000081 0.200692
271.313965 -342.064301 4.973623 1.000000
271.313965 -342.064301 4.563971 1.000000
271.313965 -342.064301 4.160069 1.000000
271.313965 -342.064301 3.760952 1.000000
271.313965 -342.064301 3.365691 1.000000
271.313965 -342.064301 2.973397 1.000000
271.313965 -342.064301 2.583203 1.000000
271.313965 -342.064301 2.194262 1.000000
271.313965 -342.064301 1.805738 1.000000
271.313965 -342.064301 1.416797 1.000000
271.313965 -342.064301 1.026603 1.000000
271.313965 -342.064301 0.634309 1.000000
271.313965 -342.064301 0.239048 1.000000
270.924988 -342.852081 -0.000213 0.212611
270.158142 -344.405060 -0.000140 0.270281
269.593079 -345.549316 -0.000048 0.197712
271.340851 -342.195435 4.947233 1.000000
271.340851 -342.195435 4.541215 1.000000
271.340851 -342.195435 4.140899 1.000000
271.340851 -342.195435 3.745324 1.000000
271.340851 -342.195435 3.353571 1.000000
271.340851 -342.195435 2.964758 1.000000
271.340851 -342.195435 2.578027 1.000000
271.340851 -342.195404 2.192538 1.000000
271.340851 -342.195404 1.807462 1.000000
271.340851 -342.195435 1.421973 1.000000
271.340851 -342.195435 1.035241 1.000000
271.340851 -342.195435 0.646429 1.000000
271.340851 -342.195435 0.254676 1.000000
270.993591 -342.886444 -0.000180 0.236351
270.215881 -344.434082 -0.000092 0.231353
269.642944 -345.574219 -0.000031 0.249423
271.367249 -342.324219 4.921447 1.000000
271.367249 -342.324219 4.518982 1.000000
271.367249 -342.324219 4.122168 1.000000
271.367249 -342.324219 3.730053 1.000000
271.367249 -342.324219 3.341728 1.000000
271.367249 -342.324219 2.956317 1.000000
271.367249 -342.324219 2.572970 1.000000
271.367249 -342.324219 2.190854 1.000000
271.367249 -342.324219 1.809147 1.000000
271.367249 -342.324219 1.427030 1.000000
271.367249 -342.324219 1.043682 1.000000
271.367249 -342.324219 0.658272 1.000000
271.367249 -342.324219 0.269947 1.000000
271.061707 -342.921783 -0.000046 0.238754
270.273285 -344.463806 0.000028 0.303441
269.692413 -345.599945 0.000113 0.206651
271.393188 -342.450775 4.896250 1.000000
271.393188 -342.450775 4.497257 1.000000
271.393188 -342.450775 4.103865 1.000000
271.393188 -342.450775 3.715131 1.000000
271.393188 -342.450775 3.330156 1.000000
271.393188 -342.450775 2.948069 1.000000
271.393188 -342.450775 2.568028 1.000000
271.393188 -342.450775 2.189208 1.000000
271.393188 -342.450775 1.810792 1.000000
271.393188 -342.450775 1.431972 1.000000
271.393188 -342.450775 1.051931 1.000000
271.393188 -342.450775 0.669844 1.000000
271.393188 -342.450775 0.284868 1.000000
271.130554 -342.955750 -0.000297 0.225682
270.331238 -344.492554 -0.000191 0.198385
269.742432 -345.624603 -0.000141 0.261342
271.418732 -342.575165 4.871622 1.000000
271.418732 -342.575165 4.476021 1.000000
271.418732 -342.575165 4.085974 1.000000
271.418732 -342.575165 3.700547 1.000000
271.418732 -342.575165 3.318845 1.000000
271.418732 -342.575165 2.940007 1.000000
271.418732 -342.575165 2.563198 1.000000
271.418732 -342.575165 2.187598 1.000000
271.418732 -342.575165 1.812401 1.000000
271.418732 -342.575165 1.436802 1.000000
271.418732 -342.575165 1.059992 1.000000
271.418732 -342.575165 0.681155 1.000000
271.418732 -342.575165 0.299453 1.000000
271.198395 -342.991608 -0.000248 0.221646
270.388458 -344.522644 -0.000175 0.205978
269.791718 -345.650635 -0.000097 0.250577
271.443787 -342.697479 4.847547 1.000000
271.443787 -342.697479 4.455262 1.000000
271.443787 -342.697479 4.068486 1.000000
271.443787 -342.697479 3.686291 1.000000
271.443787 -342.697479 3.307788 1.000000
271.443787 -342.697479 2.932127 1.000000
271.443787 -342.697479 2.558476 1.000000
271.443787 -342.697479 2.186026 1.000000
271.443787 -342.697479 1.813974 1.000000
271.443787 -342.697479 1.441524 1.000000
271.443787 -342.697479 1.067873 1.000000
271.443787 -342.697479 0.692212 1.000000
271.443787 -342.697479 0.313710 1.000000
271.265991 -343.027954 -0.000203 0.209919
270.445404 -344.553223 -0.000139 0.191176
269.840515 -345.677612 0.000113 0.270569
271.468445 -342.817780 4.824008 1.000000
271.468445 -342.817780 4.434966 1.000000
271.468445 -342.817780 4.051387 1.000000
271.468445 -342.817780 3.672351 1.000000
271.468445 -342.817780 3.296978 1.000000
271.468445 -342.817780 2.924421 1.000000
271.468445 -342.817780 2.553860 1.000000
271.468445 -342.817780 2.184488 1.000000
271.468445 -342.817780 1.815512 1.000000
271.468445 -342.817780 1.446140 1.000000
271.468445 -342.817780 1.075578 1.000000
271.468445 -342.817780 0.703022 1.000000
271.468445 -342.817780 0.327649 1.000000
271.332642 -343.066010 0.000098 0.216647
270.501526 -344.585327 0.000174 0.202807
269.889435 -345.704285 0.000131 0.199058
271.492706 -342.936066 4.800993 1.000000
271.492706 -342.936066 4.415122 1.000000
271.492706 -342.936066 4.034668 1.000000
271.492706 -342.936066 3.658721 1.000000
271.492706 -342.936066 3.286407 1.000000
271.492706 -342.936066 2.916887 1.000000
271.492706 -342.936066 2.549345 1.000000
271.492706 -342.936066 2.182984 1.000000
271.492706 -342.936066 1.817016 1.000000
271.492706 -342.936066 1.450654 1.000000
271.492706 -342.936066 1.083112 1.000000
271.492706 -342.936066 0.713593 1.000000
271.492706 -342.936066 0.341279 1.000000
271.399841 -343.103088 0.000099 0.217416
270.558380 -344.616119 0.000066 0.245002
269.938232 -345.731232 0.000142 0.227413
271.516571 -343.052490 4.778481 1.000000
271.516571 -343.052490 4.395710 1.000000
271.516571 -343.052490 4.018314 1.000000
271.516571 -343.052490 3.645390 1.000000
271.516571 -343.052490 3.276068 1.000000
271.516571 -343.052490 2.909518 1.000000
271.516571 -343.052490 2.544930 1.000000
271.516571 -343.052490 2.181514 1.000000
271.516571 -343.052490 1.818486 1.000000
271.516571 -343.052490 1.455070 1.000000
271.516571 -343.052490 1.090482 1.000000
271.516571 -343.052490 0.723932 1.000000
271.516571 -343.052490 0.354610 1.000000
271.466705 -343.140686 0.000118 0.199923
270.614685 -344.647858 0.000101 0.273837
269.987396 -345.757538 -0.000134 0.274414
271.540070 -343.167053 4.756461 1.000000
271.540070 -343.167053 4.376726 1.000000
271.540070 -343.167053 4.002320 1.000000
271.540070 -343.167053 3.632350 1.000000
271.540070 -343.167053 3.265956 1.000000
271.540070 -343.167053 2.902310 1.000000
271.540070 -343.167053 2.540612 1.000000
271.540070 -343.167053 2.180075 1.000000
271.540070 -343.167053 1.819925 1.000000
271.540070 -343.167053 1.459388 1.000000
271.540070 -343.167053 1.097689 1.000000
271.540070 -343.167053 0.734044 1.000000
271.540070 -343.167053 0.367650 1.000000
271.540070 -343.167053 -0.002321 1.000000
270.670807 -344.679993 0.000128 0.241157
270.035736 -345.785278 -0.000083 0.242983
271.563171 -343.279846 4.734922 1.000000
271.563171 -343.279846 4.358153 1.000000
271.563171 -343.279846 3.986674 1.000000
271.563171 -343.279846 3.619595 1.000000
271.563171 -343.279846 3.256063 1.000000
271.563171 -343.279846 2.895259 1.000000
271.563171 -343.279846 2.536388 1.000000
271.563171 -343.279846 2.178668 1.000000
271.563171 -343.279846 1.821332 1.000000
271.563171 -343.279846 1.463612 1.000000
271.563171 -343.279846 1.104740 1.000000
271.563171 -343.279846 0.743937 1.000000
271.563171 -343.279846 0.380405 1.000000
271.563171 -343.279846 0.013326 1.000000
270.727264 -344.711487 -0.000096 0.189062
270.084442 -345.812408 -0.000327 0.270473
271.585938 -343.390869 4.713847 1.000000
271.585938 -343.390869 4.339982 1.000000
271.585938 -343.390869 3.971365 1.000000
271.585938 -343.390869 3.607115 1.000000
271.585938 -343.390869 3.246384 1.000000
271.585938 -343.390869 2.888361 1.000000
271.585938 -343.390869 2.532254 1.000000
271.585938 -343.390869 2.177292 1.000000
271.585938 -343.390869 1.822709 1.000000
271.585938 -343.390869 1.467746 1.000000
271.585938 -343.390869 1.111639 1.000000
271.585938 -343.390869 0.753616 1.000000
271.585938 -343.390869 0.392885 1.000000
271.585938 -343.390869 0.028634 1.000000
270.782562 -344.744995 0.000082 0.240196
270.132172 -345.841248 -0.000168 0.186275
271.608368 -343.500183 4.693225 1.000000
271.608368 -343.500183 4.322201 1.000000
271.608368 -343.500183 3.956385 1.000000
271.608368 -343.500183 3.594902 1.000000
271.608368 -343.500183 3.236913 1.000000
271.608368 -343.500183 2.881610 1.000000
271.608368 -343.500183 2.528210 1.000000
271.608368 -343.500183 2.175944 1.000000
271.608368 -343.500183 1.824056 1.000000
271.608368 -343.500183 1.471790 1.000000
271.608368 -343.500183 1.118389 1.000000
271.608368 -343.500183 0.763087 1.000000
271.608368 -343.500183 0.405098 1.000000
271.608368 -343.500183 0.043614 1.000000
270.838440 -344.777527 -0.000079 0.268935
270.180298 -345.869385 -0.000308 0.289696
271.630432 -343.607880 4.673043 1.000000
271.630432 -343.607880 4.304800 1.000000
271.630432 -343.607880 3.941725 1.000000
271.630432 -343.607880 3.582951 1.000000
271.630432 -343.607880 3.227644 1.000000
271.630432 -343.607880 2.875004 1.000000
271.630432 -343.607880 2.524251 1.000000
271.630432 -343.607880 2.174626 1.000000
271.630432 -343.607880 1.825374 1.000000
271.630432 -343.607880 1.475748 1.000000
271.630432 -343.607880 1.124996 1.000000
271.630432 -343.607880 0.772355 1.000000
271.630432 -343.607880 0.417049 1.000000
271.630432 -343.607880 0.058275 1.000000
270.893280 -344.811768 0.000087 0.206651
270.227814 -345.898560 -0.000231 0.235871
271.652161 -343.713959 4.653291 1.000000
271.652161 -343.713959 4.287767 1.000000
271.652161 -343.713989 3.927376 1.000000
271.652161 -343.713959 3.571254 1.000000
271.652161 -343.713959 3.218573 1.000000
271.652161 -343.713959 2.868538 1.000000
271.652161 -343.713989 2.520377 1.000000
271.652161 -343.713959 2.173335 1.000000
271.652161 -343.713959 1.826665 1.000000
271.652161 -343.713989 1.479622 1.000000
271.652161 -343.713959 1.131462 1.000000
271.652161 -343.713959 0.781427 1.000000
271.652161 -343.713959 0.428746 1.000000
271.652161 -343.713959 0.072624 1.000000
270.949554 -344.843689 -0.000429 0.192426
270.275146 -345.927979 -0.000195 0.241926
271.673615 -343.818481 4.633955 1.000000
271.673615 -343.818481 4.271095 1.000000
271.673615 -343.818481 3.913331 1.000000
271.673615 -343.818481 3.559803 1.000000
271.673615 -343.818481 3.209692 1.000000
271.673615 -343.818481 2.862209 1.000000
271.673615 -343.818481 2.516585 1.000000
271.673615 -343.818481 2.172072 1.000000
271.673615 -343.818481 1.827928 1.000000
271.673615 -343.818481 1.483414 1.000000
271.673615 -343.818481 1.137791 1.000000
271.673615 -343.818481 0.790308 1.000000
271.673615 -343.818481 0.440197 1.000000
271.673615 -343.818481 0.086669 1.000000
271.003693 -344.879028 -0.000172 0.269704
270.321869 -345.958374 0.000047 0.208285
271.694733 -343.921539 4.615025 1.000000
271.694733 -343.921539 4.254772 1.000000
271.694733 -343.921539 3.899580 1.000000
271.694733 -343.921539 3.548593 1.000000
271.694733 -343.921539 3.200999 1.000000
271.694733 -343.921539 2.856012 1.000000
271.694733 -343.921539 2.512873 1.000000
271.694733 -343.921539 2.170835 1.000000
271.694733 -343.921539 1.829165 1.000000
271.694733 -343.921539 1.487127 1.000000
271.694733 -343.921539 1.143988 1.000000
271.694733 -343.921539 0.799002 1.000000
271.694733 -343.921539 0.451407 1.000000
271.694733 -343.921539 0.100420 1.000000
271.058380 -344.913544 -0.000223 0.248654
270.369385 -345.987549 -0.000185 0.248462
271.715576 -344.023102 4.596492 1.000000
271.715576 -344.023102 4.238793 1.000000
271.715576 -344.023102 3.886117 1.000000
271.715576 -344.023102 3.537618 1.000000
271.715576 -344.023102 3.192487 1.000000
271.715576 -344.023102 2.849945 1.000000
271.715576 -344.023102 2.509238 1.000000
271.715576 -344.023102 2.169625 1.000000
271.715576 -344.023102 1.830375 1.000000
271.715576 -344.023102 1.490762 1.000000
271.715576 -344.023102 1.150055 1.000000
271.715576 -344.023102 0.807513 1.000000
271.715576 -344.023102 0.462382 1.000000
271.715576 -344.023102 0.113883 1.000000
271.112915 -344.948273 -0.000321 0.230681
270.416443 -346.017487 -0.000287 0.210977
271.736084 -344.123230 4.578343 1.000000
271.736084 -344.123230 4.223145 1.000000
271.736084 -344.123230 3.872934 1.000000
271.736084 -344.123230 3.526870 1.000000
271.736084 -344.123230 3.184152 1.000000
271.736084 -344.123230 2.844005 1.000000
271.736084 -344.123230 2.505679 1.000000
271.736084 -344.123230 2.168439 1.000000
271.736084 -344.123230 1.831561 1.000000
271.736084 -344.123230 1.494321 1.000000
271.736084 -344.123230 1.155995 1.000000
271.736084 -344.123230 0.815848 1.000000
271.736084 -344.123230 0.473130 1.000000
271.736084 -344.123230 0.127066 1.000000
271.166901 -344.983856 -0.000292 0.225779
270.462982 -346.048157 -0.000256 0.227605
271.756348 -344.222015 4.560570 1.000000
271.756348 -344.221985 4.207821 1.000000
271.756348 -344.221985 3.860023 1.000000
271.756348 -344.221985 3.516346 1.000000
271.756348 -344.221985 3.175989 1.000000
271.756348 -344.221985 2.838186 1.000000
271.756348 -344.221985 2.502193 1.000000
271.756348 -344.221985 2.167278 1.000000
271.756348 -344.221985 1.832722 1.000000
271.756348 -344.221985 1.497807 1.000000
271.756348 -344.221985 1.161813 1.000000
271.756348 -344.221985 0.824011 1.000000
271.756348 -344.221985 0.483654 1.000000
271.756348 -344.221985 0.139976 1.000000
271.220703 -345.019714 -0.000292 0.244041
270.509399 -346.079071 -0.000265 0.249135
271.776306 -344.319397 4.543164 1.000000
271.776337 -344.319397 4.192812 1.000000
271.776337 -344.319397 3.847380 1.000000
271.776306 -344.319397 3.506038 1.000000
271.776337 -344.319397 3.167995 1.000000
271.776337 -344.319397 2.832489 1.000000
271.776337 -344.319397 2.498779 1.000000
271.776306 -344.319397 2.166141 1.000000
271.776306 -344.319397 1.833859 1.000000
271.776337 -344.319397 1.501221 1.000000
271.776337 -344.319397 1.167511 1.000000
271.776337 -344.319397 0.832005 1.000000
271.776337 -344.319397 0.493962 1.000000
271.776337 -344.319397 0.152620 1.000000
271.273651 -345.056793 -0.000068 0.190023
270.555023 -346.111084 -0.000026 0.255286
271.796021 -344.415497 4.526116 1.000000
271.796021 -344.415497 4.178113 1.000000
271.795990 -344.415497 3.834995 1.000000
271.795990 -344.415497 3.495942 1.000000
271.795990 -344.415497 3.160165 1.000000
271.796021 -344.415497 2.826908 1.000000
271.795990 -344.415497 2.495435 1.000000
271.796021 -344.415497 2.165027 1.000000
271.795990 -344.415497 1.834973 1.000000
271.795990 -344.415497 1.504565 1.000000
271.796021 -344.415497 1.173091 1.000000
271.796021 -344.415497 0.839835 1.000000
271.795990 -344.415497 0.504058 1.000000
271.795990 -344.415497 0.165005 1.000000
271.327209 -345.093048 -0.000163 0.212130
270.600769 -346.142944 0.000066 0.268743
271.815460 -344.510315 4.509417 1.000000
271.815460 -344.510315 4.163713 1.000000
271.815460 -344.510315 3.822864 1.000000
271.815460 -344.510315 3.486053 1.000000
271.815460 -344.510315 3.152495 1.000000
271.815460 -344.510315 2.821441 1.000000
271.815460 -344.510315 2.492160 1.000000
271.815460 -344.510315 2.163936 1.000000
271.815460 -344.510315 1.836064 1.000000
271.815460 -344.510315 1.507840 1.000000
271.815460 -344.510315 1.178558 1.000000
271.815460 -344.510315 0.847504 1.000000
271.815460 -344.510315 0.513947 1.000000
271.815460 -344.510315 0.177135 1.000000
271.380310 -345.129944 -0.000177 0.214629
270.646545 -346.174744 0.000042 0.233852
271.834625 -344.603912 4.493056 1.000000
271.834625 -344.603912 4.149608 1.000000
271.834625 -344.603912 3.810981 1.000000
271.834625 -344.603912 3.476365 1.000000
