# This PCD file was generated using the MATLAB® pcwrite function
# from Computer Vision Toolbox®.
# .PCD v.7 - Point Cloud Data file format
VERSION .7
FIELDS x y z intensity
SIZE 4 4 4 4
TYPE F F F F
COUNT 1 1 1 1
WIDTH 1160
HEIGHT 1
VIEWPOINT 0 0 0 1 0 0 0
POINTS 1160
DATA ascii
390.075470 -598.520752 5.853895 0.498039
390.072632 -598.518127 5.142373 0.554902
390.069824 -598.515625 4.437477 0.587010
390.067047 -598.513123 3.737620 0.530392
390.064240 -598.510559 3.041265 0.545221
390.061462 -598.508118 2.346902 0.544118
390.058685 -598.505615 1.653038 0.518015
390.055908 -598.503113 0.958184 0.622426
390.053131 -598.500610 0.260847 0.572794
392.895264 -601.062256 0.000111 0.225010
395.793274 -603.674316 0.000029 0.239523
397.644073 -605.342529 0.000101 0.231738
398.930481 -606.502014 0.000193 0.210688
399.878204 -607.356201 0.000261 0.280469
390.264465 -598.493164 7.274984 0.552083
390.261627 -598.490540 6.549127 0.625980
390.258789 -598.487915 5.833200 0.571078
390.256012 -598.485413 5.125497 0.592892
390.253235 -598.482910 4.424383 0.551838
390.250488 -598.480347 3.728285 0.461029
390.247772 -598.477844 3.035670 0.556250
390.245056 -598.475342 2.345037 0.488358
390.242310 -598.472900 1.654902 0.486275
390.239594 -598.470459 0.963786 0.550245
390.236877 -598.467896 0.270198 0.485049
392.974670 -600.970459 -0.000226 0.227220
395.856354 -603.604492 -0.000013 0.228566
397.694916 -605.285034 -0.000081 0.234525
398.973267 -606.453552 -0.000006 0.239908
399.915100 -607.314453 0.000076 0.225106
390.445770 -598.460754 7.247074 0.482598
390.442963 -598.458069 6.525054 0.652083
390.440155 -598.455566 5.812909 0.570221
390.437439 -598.453064 5.108950 0.592402
390.434723 -598.450500 4.411547 0.537255
390.432037 -598.447998 3.719132 0.644608
390.429321 -598.445496 3.030185 0.556250
390.426666 -598.443054 2.343209 0.638235
390.423981 -598.440552 1.656731 0.562868
390.421295 -598.438110 0.969277 0.636520
390.418579 -598.435547 0.279367 0.597917
393.057129 -600.881409 -0.000185 0.245290
395.920349 -603.535400 0.000034 0.211938
397.747040 -605.228760 -0.000038 0.198674
399.017151 -606.406067 0.000030 0.268262
399.952545 -607.273132 -0.000029 0.225586
390.625153 -598.428650 7.219712 0.523775
390.622375 -598.426025 6.501452 0.526103
390.619659 -598.423462 5.793017 0.625123
390.616974 -598.420959 5.092729 0.611274
390.614288 -598.418457 4.398962 0.563113
390.611633 -598.415955 3.710159 0.567279
390.609009 -598.413513 3.024806 0.500490
390.606354 -598.410950 2.341418 0.543505
390.603729 -598.408508 1.658523 0.557230
390.601105 -598.406067 0.974661 0.581005
390.598450 -598.403564 0.288356 0.636397
393.140259 -600.792908 -0.000139 0.208093
395.984772 -603.466858 0.000079 0.243945
397.799561 -605.172791 0.000002 0.260573
399.061401 -606.358948 0.000070 0.225779
399.990723 -607.232483 0.000017 0.246540
390.802673 -598.396912 7.192883 0.330882
390.799957 -598.394348 6.478311 0.354657
390.797272 -598.391724 5.773517 0.585294
390.794617 -598.389221 5.076824 0.570466
390.792023 -598.386719 4.386623 0.599632
390.789398 -598.384216 3.701361 0.650000
390.786804 -598.381775 3.019533 0.565809
390.784241 -598.379333 2.339660 0.554902
390.781647 -598.376831 1.660281 0.616912
390.779022 -598.374390 0.979939 0.590686
390.776428 -598.371887 0.297169 0.625858
393.223999 -600.705078 -0.000093 0.211938
396.048920 -603.397949 -0.000033 0.232603
397.852448 -605.117188 0.000039 0.179835
399.105988 -606.312134 0.000110 0.237024
400.029510 -607.192444 0.000181 0.262784
390.978394 -598.365479 7.166578 0.181495
390.975739 -598.362915 6.455622 0.241054
390.973114 -598.360352 5.754396 0.594485
390.970490 -598.357849 5.061231 0.587868
390.967896 -598.355347 4.374525 0.656250
390.965332 -598.352844 3.692737 0.582598
390.962799 -598.350342 3.014363 0.621078
390.960236 -598.347961 2.337938 0.612500
390.957733 -598.345459 1.662004 0.538725
390.955170 -598.342957 0.985114 0.608946
390.952606 -598.340576 0.305810 0.570711
393.307770 -600.617249 -0.000138 0.238947
396.113251 -603.329224 -0.000210 0.227028
397.904907 -605.061157 -0.000141 0.234429
399.150146 -606.264893 -0.000073 0.230008
400.067627 -607.151794 0.000016 0.229335
391.152374 -598.334351 7.140787 0.484559
391.149750 -598.331787 6.433376 0.474020
391.147156 -598.329224 5.735649 0.517647
391.144592 -598.326782 5.045941 0.569975
391.142059 -598.324280 4.362664 0.518382
391.139526 -598.321777 3.684279 0.521446
391.136993 -598.319275 3.009295 0.597794
391.134521 -598.316895 2.336249 0.502083
391.132019 -598.314453 1.663694 0.662255
391.129517 -598.311951 0.990188 0.509804
391.127014 -598.309509 0.314281 0.606740
393.392761 -600.530579 -0.000089 0.208958
396.179138 -603.261963 -0.000166 0.232603
397.958527 -605.006226 -0.000111 0.190311
399.195374 -606.218750 -0.000032 0.296040
400.106628 -607.112000 0.000053 0.201557
391.324615 -598.303589 7.115499 0.528186
391.322021 -598.301025 6.411564 0.531863
391.319489 -598.298462 5.717270 0.539093
391.316986 -598.295959 5.030951 0.633088
391.314484 -598.293457 4.351035 0.551471
391.311981 -598.291016 3.675987 0.644485
391.309540 -598.288574 3.004326 0.553554
391.307068 -598.286133 2.334593 0.593995
391.304596 -598.283691 1.665350 0.547794
391.302124 -598.281250 0.995162 0.599142
391.299683 -598.278748 0.322587 0.534069
393.478333 -600.444519 -0.000039 0.226740
396.245453 -603.195190 -0.000129 0.206747
398.012604 -604.951843 -0.000068 0.253460
399.240906 -606.172791 0.000001 0.190504
400.145447 -607.071960 -0.000068 0.234045
391.495209 -598.273071 7.090709 0.538725
391.492645 -598.270569 6.390182 0.583456
391.490143 -598.267944 5.699252 0.608211
391.487671 -598.265503 5.016254 0.596201
391.485199 -598.263000 4.339633 0.603431
391.482788 -598.260559 3.667858 0.599510
391.480347 -598.258118 2.999454 0.591912
391.477905 -598.255676 2.332969 0.574877
391.475494 -598.253235 1.666974 0.561887
391.473083 -598.250732 1.000040 0.556863
391.470642 -598.248291 0.330730 0.549265
393.564362 -600.358887 -0.000008 0.229335
396.312225 -603.128845 -0.000090 0.231930
398.067108 -604.897766 -0.000018 0.265859
399.286774 -606.127258 0.000051 0.294022
400.185059 -607.032776 -0.000008 0.252307
391.664154 -598.242859 7.066404 0.577574
391.661621 -598.240356 6.369217 0.569975
391.659149 -598.237793 5.681579 0.553554
391.656738 -598.235291 5.001845 0.531495
391.654327 -598.232849 4.328454 0.532966
391.651917 -598.230408 3.659888 0.519485
391.649506 -598.227905 2.994676 0.593137
391.647125 -598.225525 2.331378 0.554412
391.644775 -598.223083 1.668567 0.572672
391.642395 -598.220642 1.004821 0.585049
391.639984 -598.218201 0.338714 0.516299
393.651123 -600.273987 0.000039 0.218954
396.379486 -603.062927 -0.000046 0.226259
398.121887 -604.844116 0.000019 0.205498
399.332947 -606.082031 0.000082 0.202230
400.225189 -606.994080 0.000155 0.236063
391.831451 -598.212952 7.042573 0.643873
391.829010 -598.210388 6.348660 0.596078
391.826599 -598.207886 5.664252 0.541544
391.824188 -598.205383 4.987719 0.585172
391.821808 -598.202942 4.317493 0.562377
391.819458 -598.200500 3.652073 0.574387
391.817108 -598.198120 2.989993 0.575000
391.814758 -598.195618 2.329817 0.560907
391.812408 -598.193176 1.670128 0.561520
391.810059 -598.190796 1.009510 0.548529
391.807709 -598.188293 0.346542 0.546936
393.737579 -600.188782 -0.000061 0.217897
396.447235 -602.997559 -0.000001 0.193099
398.176575 -604.790222 -0.000080 0.227605
399.378967 -606.036621 -0.000026 0.207036
400.264923 -606.955017 0.000063 0.284218
391.997253 -598.183289 7.019208 0.585662
391.994812 -598.180786 6.328508 0.592770
391.992462 -598.178223 5.647268 0.571078
391.990082 -598.175781 4.973867 0.579534
391.987732 -598.173340 4.306747 0.595833
391.985413 -598.170898 3.644412 0.558211
391.983093 -598.168518 2.985400 0.629902
391.980835 -598.166077 2.328287 0.533946
391.978516 -598.163635 1.671658 0.625490
391.976196 -598.161194 1.014106 0.553922
391.973877 -598.158813 0.354216 0.593137
393.825500 -600.105164 -0.000014 0.208381
396.515411 -602.932678 0.000043 0.249904
398.232147 -604.737305 -0.000040 0.191657
399.425812 -605.992065 0.000025 0.195598
400.305267 -606.916504 0.000092 0.233660
392.161499 -598.153931 6.996299 0.505147
392.159119 -598.151428 6.308749 0.488113
392.156799 -598.148865 5.630618 0.551961
392.154449 -598.146423 4.960288 0.488235
392.152161 -598.143982 4.296213 0.561765
392.149902 -598.141541 3.636900 0.497549
392.147614 -598.139099 2.980898 0.539583
392.145355 -598.136719 2.326787 0.492892
392.143066 -598.134277 1.673159 0.539216
392.140808 -598.131836 1.018613 0.489583
392.138550 -598.129456 0.361740 0.536274
393.913055 -600.021057 -0.000129 0.231257
396.584045 -602.868286 0.000088 0.227701
398.288055 -604.684753 -0.000004 0.234910
399.472900 -605.947754 0.000057 0.250769
400.345490 -606.877930 -0.000012 0.220300
392.324280 -598.124878 6.973840 0.295098
392.321930 -598.122314 6.289379 0.315319
392.319641 -598.119812 5.614292 0.516422
392.317352 -598.117371 4.946975 0.615196
392.315094 -598.114868 4.285884 0.595221
392.312836 -598.112488 3.629536 0.623284
392.310608 -598.110046 2.976485 0.601348
392.308380 -598.107666 2.325316 0.636642
392.306152 -598.105286 1.674630 0.601103
392.303925 -598.102844 1.023031 0.642647
392.301697 -598.100403 0.369116 0.599020
394.002167 -599.938599 -0.000079 0.239908
396.652374 -602.803528 -0.000027 0.215879
398.344391 -604.632629 0.000043 0.218762
399.520355 -605.903870 0.000100 0.250673
400.386383 -606.840027 0.000027 0.198193
392.485626 -598.096008 6.951822 0.190564
392.483307 -598.093445 6.270387 0.275245
392.481049 -598.091003 5.598288 0.578799
392.478790 -598.088562 4.933922 0.556373
392.476563 -598.086121 4.275759 0.575735
392.474365 -598.083679 3.622316 0.552206
392.472137 -598.081238 2.972158 0.578064
392.469971 -598.078857 2.323875 0.544976
392.467773 -598.076477 1.676072 0.576838
392.465576 -598.074097 1.027362 0.547794
392.463409 -598.071594 0.376348 0.585172
394.090851 -599.855774 -0.000194 0.227701
396.721191 -602.739319 -0.000139 0.207997
398.400452 -604.580261 -0.000076 0.218185
399.567627 -605.859741 -0.000002 0.224048
400.427521 -606.802429 0.000061 0.198193
392.645538 -598.067383 6.930238 0.466667
392.643250 -598.064880 6.251770 0.491299
392.641022 -598.062439 5.582597 0.636642
392.638794 -598.059998 4.921127 0.550858
392.636627 -598.057495 4.265832 0.625613
392.634460 -598.055115 3.615239 0.555882
392.632294 -598.052734 2.967916 0.605392
392.630127 -598.050293 2.322461 0.563113
392.627960 -598.047913 1.677486 0.588603
392.625824 -598.045471 1.031608 0.568995
392.623657 -598.043091 0.383437 0.559681
394.180267 -599.773682 -0.000289 0.225586
396.790527 -602.675659 -0.000236 0.269704
398.456970 -604.528320 -0.000171 0.207324
399.615234 -605.816040 -0.000106 0.234621
400.468597 -606.764709 -0.000030 0.228278
392.804047 -598.039063 6.909079 0.588235
392.801819 -598.036560 6.233520 0.585172
392.799622 -598.034119 5.567217 0.668873
392.797455 -598.031616 4.908585 0.583333
392.795319 -598.029236 4.256101 0.709681
392.793182 -598.026794 3.608301 0.585784
392.791046 -598.024414 2.963758 0.659314
392.788940 -598.021973 2.321075 0.595343
392.786804 -598.019653 1.678872 0.641544
392.784668 -598.017212 1.035770 0.598039
392.782562 -598.014832 0.390386 0.590564
394.273743 -599.696167 0.000220 0.220108
396.861237 -602.613525 -0.000122 0.219627
398.514648 -604.477722 -0.000052 0.218474
399.663849 -605.773376 0.000020 0.227509
400.510437 -606.727966 0.000077 0.183487
392.961243 -598.010986 6.888337 0.629412
392.959045 -598.008484 6.215632 0.565564
392.956879 -598.005981 5.552139 0.603676
392.954773 -598.003601 4.896288 0.548897
392.952637 -598.001160 4.246562 0.593873
392.950531 -597.998718 3.601500 0.539216
392.948456 -597.996338 2.959682 0.604167
392.946350 -597.993958 2.319717 0.540196
392.944275 -597.991577 1.680231 0.623162
392.942200 -597.989197 1.039851 0.577941
392.940094 -597.986816 0.397198 0.603186
394.365082 -599.616272 0.000270 0.210977
396.932098 -602.551514 -0.000076 0.222318
398.572388 -604.427124 -0.000006 0.202999
399.712433 -605.730774 0.000048 0.183679
400.552399 -606.691223 0.000124 0.245002
393.117126 -597.983154 6.868008 0.522549
393.114960 -597.980591 6.198097 0.575735
393.112823 -597.978149 5.537362 0.507721
393.110718 -597.975708 4.884236 0.580270
393.108643 -597.973328 4.237213 0.501593
393.106567 -597.970886 3.594833 0.573652
393.104523 -597.968506 2.955687 0.515686
393.102478 -597.966125 2.318387 0.553554
393.100433 -597.963745 1.681563 0.561887
393.098358 -597.961426 1.043850 0.493873
393.096313 -597.958984 0.403876 0.544363
394.456055 -599.535950 0.000154 0.222030
397.002655 -602.489197 -0.000190 0.232603
398.629883 -604.376343 -0.000131 0.200308
399.760895 -605.687988 -0.000070 0.210977
400.593811 -606.653870 -0.000150 0.234525
393.271698 -597.955444 6.848081 0.590686
393.269562 -597.953003 6.180911 0.572181
393.267487 -597.950562 5.522876 0.573529
393.265442 -597.948120 4.872423 0.565196
393.263397 -597.945679 4.228048 0.574387
393.261353 -597.943298 3.588300 0.538971
393.259338 -597.940918 2.951771 0.574265
393.257294 -597.938538 2.317081 0.576226
393.255280 -597.936157 1.682868 0.544608
393.253235 -597.933777 1.047770 0.628554
393.251251 -597.931396 0.410420 0.508701
394.547729 -599.456360 0.000060 0.236928
397.073761 -602.427490 -0.000283 0.214437
398.687866 -604.326050 -0.000222 0.210977
399.809723 -605.645569 -0.000160 0.255575
400.635895 -606.617310 -0.000235 0.262591
393.425018 -597.928101 6.828553 0.558946
393.422913 -597.925598 6.164065 0.582966
393.420898 -597.923157 5.508678 0.614828
393.418884 -597.920715 4.860847 0.589828
393.416870 -597.918335 4.219067 0.564706
393.414825 -597.915894 3.581896 0.561642
393.412842 -597.913513 2.947932 0.550735
393.410889 -597.911194 2.315802 0.548774
393.408875 -597.908813 1.684147 0.544485
393.406891 -597.906433 1.051611 0.572917
393.404907 -597.904053 0.416834 0.488603
394.641235 -599.378967 0.000197 0.216071
397.146912 -602.368225 0.000001 0.225106
398.747009 -604.277161 -0.000079 0.195117
399.859497 -605.604370 -0.000033 0.220780
400.678864 -606.581787 -0.000103 0.192618
393.577148 -597.900879 6.809411 0.597181
393.575073 -597.898376 6.147556 0.582721
393.573090 -597.895935 5.494765 0.615686
393.571075 -597.893494 4.849500 0.665441
393.569092 -597.891113 4.210264 0.592770
393.567139 -597.888794 3.575620 0.593137
393.565186 -597.886414 2.944171 0.543873
393.563232 -597.884033 2.314549 0.538480
393.561249 -597.881653 1.685401 0.569608
393.559296 -597.879333 1.055377 0.539093
393.557343 -597.876892 0.423120 0.536642
394.734680 -599.301575 0.000228 0.230200
397.219421 -602.308228 0.000038 0.232795
398.806122 -604.228210 -0.000043 0.204825
399.909363 -605.563171 0.000023 0.238081
400.722168 -606.546692 0.000081 0.221646
393.728088 -597.873901 6.790651 0.450368
393.726044 -597.871460 6.131374 0.462623
393.724060 -597.868958 5.481130 0.640686
393.722107 -597.866577 4.838381 0.674755
393.720154 -597.864197 4.201638 0.677328
393.718201 -597.861816 3.569470 0.605637
393.716278 -597.859436 2.940485 0.599265
393.714355 -597.857056 2.313321 0.591176
393.712433 -597.854736 1.686629 0.574142
393.710510 -597.852356 1.059066 0.586152
393.708588 -597.849976 0.429280 0.533211
394.827850 -599.223755 0.000106 0.244810
397.291687 -602.247864 -0.000081 0.233180
398.864990 -604.178955 -0.000173 0.227605
399.958923 -605.521667 -0.000123 0.194444
400.764954 -606.510986 -0.000029 0.186275
393.877869 -597.847168 6.772267 0.210784
393.875854 -597.844666 6.115518 0.363358
393.873871 -597.842224 5.467770 0.490809
393.871948 -597.839783 4.827485 0.600245
393.870056 -597.837463 4.193185 0.535417
393.868134 -597.835022 3.563443 0.612868
393.866241 -597.832703 2.936873 0.578431
393.864349 -597.830322 2.312117 0.542157
393.862457 -597.828003 1.687833 0.598652
393.860565 -597.825623 1.062681 0.616544
393.858673 -597.823242 0.435316 0.590564
394.922913 -599.148376 0.000239 0.219915
397.365753 -602.189819 0.000132 0.244810
398.925110 -604.131287 -0.000038 0.215590
400.009583 -605.481506 0.000021 0.225586
400.808594 -606.476318 0.000083 0.259900
394.026459 -597.820618 6.754259 0.230515
394.024506 -597.818115 6.099984 0.626593
394.022583 -597.815674 5.454678 0.544240
394.020691 -597.813293 4.816810 0.527206
394.018768 -597.810913 4.184904 0.571446
394.016907 -597.808533 3.557538 0.503309
394.015045 -597.806152 2.933335 0.470588
394.013184 -597.803833 2.310939 0.482108
394.011322 -597.801453 1.689013 0.538235
394.009460 -597.799133 1.066224 0.512377
394.007599 -597.796814 0.441230 0.520956
395.017303 -599.072083 0.000148 0.225779
397.438995 -602.130676 0.000044 0.233468
398.984802 -604.083069 -0.000131 0.199539
400.059875 -605.440857 -0.000072 0.221069
400.851929 -606.441284 -0.000007 0.248654
394.173981 -597.794250 6.736614 0.733211
394.172058 -597.791809 6.084762 0.671446
394.170135 -597.789368 5.441854 0.574755
394.168274 -597.786926 4.806350 0.624387
394.166412 -597.784546 4.176789 0.549265
394.164581 -597.782227 3.551754 0.612868
394.162750 -597.779846 2.929867 0.541667
394.160919 -597.777527 2.309783 0.576716
394.159058 -597.775146 1.690168 0.552083
394.157257 -597.772827 1.069694 0.610417
394.155396 -597.770447 0.447025 0.543627
395.112549 -598.996826 0.000118 0.226355
397.512878 -602.072327 0.000016 0.209054
399.045044 -604.035522 -0.000157 0.253749
400.110535 -605.400696 -0.000124 0.243560
400.895294 -606.406189 -0.000197 0.246540
394.320404 -597.768066 6.719330 0.658333
394.318542 -597.765625 6.069853 0.586765
394.316650 -597.763184 5.429289 0.645466
394.314789 -597.760803 4.796105 0.566667
394.312958 -597.758423 4.168840 0.600123
394.311157 -597.756042 3.546086 0.612623
394.309357 -597.753662 2.926470 0.514828
394.307526 -597.751343 2.308652 0.568382
394.305756 -597.749023 1.691301 0.521324
394.303925 -597.746643 1.073094 0.583701
394.302155 -597.744324 0.452701 0.547917
395.207886 -598.921692 0.000007 0.232411
397.587463 -602.014954 0.000061 0.212514
399.105774 -603.988586 -0.000134 0.218378
400.161804 -605.361328 -0.000075 0.269320
400.939484 -606.372192 -0.000152 0.203768
394.465790 -597.742065 6.702396 0.636642
394.463928 -597.739685 6.055251 0.599265
394.462067 -597.737244 5.416983 0.690196
394.460236 -597.734863 4.786070 0.618015
394.458466 -597.732483 4.161055 0.719730
394.456665 -597.730103 3.540535 0.654289
394.454895 -597.727722 2.923143 0.524510
394.453125 -597.725403 2.307543 0.560662
394.451355 -597.723083 1.692409 0.554412
394.449585 -597.720764 1.076424 0.519363
394.447784 -597.718445 0.458261 0.561887
395.304199 -598.847839 -0.000024 0.210880
397.662140 -601.957642 0.000028 0.229239
399.166626 -603.941833 -0.000178 0.233372
400.213074 -605.321899 -0.000112 0.192618
400.983734 -606.338318 -0.000180 0.210400
394.610107 -597.716309 6.685812 0.589951
394.608276 -597.713867 6.040948 0.637500
394.606445 -597.711426 5.404928 0.690074
394.604706 -597.709045 4.776240 0.600490
394.602905 -597.706665 4.153429 0.664216
394.601166 -597.704346 3.535098 0.628922
394.599396 -597.701965 2.919885 0.560662
394.597656 -597.699646 2.306457 0.573652
394.595917 -597.697327 1.693496 0.529289
394.594208 -597.695007 1.079685 0.548774
394.592407 -597.692627 0.463706 0.608088
395.401398 -598.775146 0.000021 0.224048
397.737427 -601.901123 0.000049 0.213956
399.228058 -603.895813 -0.000138 0.215975
400.264862 -605.283203 -0.000060 0.197712
401.028717 -606.305359 0.000007 0.267493
394.753448 -597.690674 6.669575 0.537377
394.751617 -597.688232 6.026941 0.587868
394.749847 -597.685852 5.393125 0.616667
394.748108 -597.683472 4.766613 0.555637
394.746368 -597.681091 4.145961 0.650735
394.744659 -597.678772 3.529774 0.616667
394.742920 -597.676453 2.916693 0.503309
394.741211 -597.674072 2.305394 0.645098
394.739502 -597.671753 1.694559 0.652696
394.737762 -597.669434 1.082880 0.555882
394.736053 -597.667114 0.469039 0.617892
395.498688 -598.702576 -0.000015 0.230104
397.812866 -601.844910 0.000016 0.224145
399.290436 -603.851135 0.000090 0.234429
400.316711 -605.244629 -0.000091 0.214917
401.073395 -606.272095 -0.000014 0.205594
394.895782 -597.665283 6.653674 0.608701
394.894043 -597.662842 6.013226 0.538971
394.892273 -597.660400 5.381565 0.580637
394.890533 -597.658020 4.757188 0.552941
394.888824 -597.655701 4.138649 0.491544
394.887146 -597.653320 3.524560 0.577451
394.885437 -597.651001 2.913569 0.626593
394.883759 -597.648682 2.304353 0.511765
394.882080 -597.646362 1.695601 0.549387
394.880402 -597.644043 1.086007 0.571201
394.878693 -597.641724 0.474261 0.573407
395.596252 -598.630371 -0.000096 0.242791
397.888550 -601.788818 -0.000067 0.265955
399.352112 -603.805420 0.000004 0.203479
400.368713 -605.206116 -0.000166 0.220588
401.118195 -606.238892 -0.000103 0.185313
395.037170 -597.640015 6.638104 0.554534
395.035431 -597.637573 5.999798 0.561152
395.033722 -597.635193 5.370249 0.547426
395.032043 -597.632751 4.747958 0.547917
395.030334 -597.630432 4.131490 0.480515
395.028656 -597.628113 3.519455 0.596201
395.026978 -597.625732 2.910510 0.551593
395.025330 -597.623474 2.303333 0.552819
395.023682 -597.621094 1.696620 0.558211
395.022034 -597.618774 1.089070 0.467402
395.020355 -597.616455 0.479373 0.510417
395.695496 -598.560486 0.000051 0.230104
397.965454 -601.734619 0.000077 0.234333
399.414825 -603.761230 0.000146 0.207805
400.422089 -605.169678 0.000178 0.204633
401.163696 -606.206665 0.000008 0.243945
395.177643 -597.614929 6.622863 0.532475
395.175934 -597.612427 5.986653 0.615319
395.174225 -597.610107 5.359171 0.558578
395.172577 -597.607727 4.738924 0.527206
395.170929 -597.605347 4.124481 0.506740
395.169281 -597.603027 3.514458 0.602696
395.167633 -597.600708 2.907516 0.601471
395.165985 -597.598389 2.302336 0.606495
395.164337 -597.596069 1.697618 0.504902
395.162720 -597.593750 1.092067 0.640319
395.161102 -597.591431 0.484378 0.558333
395.795441 -598.491699 0.000255 0.253652
398.042969 -601.681152 0.000267 0.226259
399.477539 -603.717041 0.000192 0.231546
400.474884 -605.132385 0.000219 0.227605
401.209229 -606.174561 0.000051 0.205690
395.317169 -597.590027 6.607948 0.309436
395.315491 -597.587524 5.973786 0.549510
395.313843 -597.585144 5.348328 0.575490
395.312195 -597.582825 4.730083 0.606005
395.310577 -597.580444 4.117621 0.631250
395.308929 -597.578125 3.509568 0.562377
395.307312 -597.575806 2.904584 0.569485
395.305725 -597.573486 2.301359 0.561152
395.304108 -597.571167 1.698595 0.483578
395.302490 -597.568848 1.095001 0.600123
395.300903 -597.566528 0.489276 0.541544
395.894714 -598.421875 0.000215 0.230296
398.119965 -601.627075 0.000232 0.239043
399.540222 -603.672729 0.000131 0.230584
400.527771 -605.095215 0.000183 0.239043
401.254852 -606.142517 0.000027 0.191657
395.455841 -597.565247 6.593349 0.231740
395.454163 -597.562805 5.961196 0.576716
395.452545 -597.560364 5.337716 0.603922
395.450928 -597.557983 4.721429 0.589093
395.449341 -597.555664 4.110909 0.577941
395.447723 -597.553345 3.504781 0.586765
395.446136 -597.551025 2.901716 0.554044
395.444580 -597.548706 2.300403 0.563480
395.442963 -597.546387 1.699551 0.524510
395.441406 -597.544067 1.097872 0.551838
395.439819 -597.541748 0.494069 0.570956
395.994873 -598.353333 0.000264 0.233372
398.197632 -601.573914 0.000280 0.208574
399.603546 -603.629456 0.000173 0.266244
400.581085 -605.058655 0.000226 0.195213
401.300751 -606.110840 0.000024 0.208958
395.593597 -597.540588 6.579064 0.308456
395.592010 -597.538208 5.948875 0.729779
395.590363 -597.535828 5.327333 0.582966
395.588776 -597.533447 4.712962 0.533333
395.587189 -597.531128 4.104340 0.614338
395.585663 -597.528748 3.500098 0.569118
395.584076 -597.526428 2.898909 0.569363
395.582520 -597.524109 2.299468 0.547059
395.580994 -597.521851 1.700487 0.517892
395.579407 -597.519531 1.100681 0.575735
395.577881 -597.517212 0.498760 0.580024
396.094513 -598.283997 0.000099 0.221069
398.274872 -601.520142 0.000109 0.198289
399.666534 -603.585571 0.000008 0.218474
400.634094 -605.021667 0.000036 0.235775
401.346558 -606.079102 -0.000127 0.205113
395.730560 -597.516113 6.565091 0.723529
395.728943 -597.513733 5.936822 0.711642
395.727386 -597.511353 5.317176 0.531863
395.725800 -597.508972 4.704679 0.526961
395.724243 -597.506653 4.097914 0.653186
395.722717 -597.504333 3.495517 0.515564
395.721161 -597.502014 2.896163 0.534314
395.719666 -597.499695 2.298553 0.533088
395.718140 -597.497437 1.701402 0.529412
395.716583 -597.495117 1.103429 0.542525
395.715057 -597.492737 0.503348 0.553799
396.195160 -598.216248 0.000060 0.235775
398.352966 -601.467590 0.000069 0.261246
399.730194 -603.542725 -0.000025 0.216359
400.687744 -604.985596 -0.000001 0.250384
401.392792 -606.047974 -0.000163 0.254998
395.866669 -597.491821 6.551423 0.531005
395.865082 -597.489441 5.925034 0.496078
395.863525 -597.487061 5.307241 0.513603
395.861969 -597.484680 4.696578 0.544853
395.860474 -597.482300 4.091630 0.455392
395.858948 -597.480042 3.491036 0.612868
395.857452 -597.477722 2.893478 0.560539
395.855957 -597.475403 2.297658 0.485662
395.854431 -597.473145 1.702297 0.490564
395.852936 -597.470825 1.106117 0.593627
395.851410 -597.468506 0.507836 0.515931
396.296753 -598.149780 0.000102 0.268070
398.431732 -601.416016 0.000113 0.227316
399.794403 -603.500732 0.000015 0.229047
400.741821 -604.950195 0.000035 0.249135
401.440002 -606.018250 0.000131 0.214245
396.001984 -597.467651 6.538058 0.445956
396.000397 -597.465271 5.913504 0.554044
395.998871 -597.462830 5.297526 0.540441
395.997375 -597.460510 4.688654 0.543382
395.995850 -597.458191 4.085483 0.543873
395.994385 -597.455872 3.486654 0.562010
395.992889 -597.453613 2.890851 0.585539
395.991425 -597.451233 2.296783 0.573162
395.989960 -597.448975 1.703172 0.515686
395.988464 -597.446655 1.108746 0.532966
395.987000 -597.444397 0.512225 0.608088
396.399292 -598.084839 0.000257 0.232795
398.510712 -601.364868 0.000116 0.215879
399.859131 -603.459534 0.000129 0.276624
400.796417 -604.915527 0.000182 0.222991
401.487091 -605.988464 0.000277 0.283641
396.136505 -597.443665 6.524988 0.608701
396.134979 -597.441284 5.902234 0.675245
396.133453 -597.438843 5.288027 0.644363
396.131958 -597.436523 4.680909 0.568873
396.130493 -597.434204 4.079473 0.656618
396.129028 -597.431885 3.482369 0.590074
396.127594 -597.429565 2.888284 0.659436
396.126129 -597.427246 2.295928 0.588235
396.124664 -597.424988 1.704028 0.515686
396.123230 -597.422668 1.111316 0.611887
396.121765 -597.420410 0.516516 0.592892
396.501190 -598.018921 0.000179 0.232987
398.589844 -601.313904 0.000075 0.227509
399.923706 -603.418030 0.000094 0.229623
400.850861 -604.880737 0.000175 0.229623
401.533997 -605.958313 0.000246 0.219146
396.270233 -597.419800 6.512214 0.626348
396.268738 -597.417358 5.891215 0.703554
396.267273 -597.414917 5.278742 0.644975
396.265808 -597.412659 4.673337 0.627574
396.264343 -597.410278 4.073599 0.608211
396.262909 -597.408020 3.478182 0.550123
396.261475 -597.405701 2.885774 0.634926
396.260071 -597.403381 2.295091 0.543137
396.258636 -597.401123 1.704865 0.490931
396.257202 -597.398865 1.113828 0.609804
396.255768 -597.396545 0.520710 0.510784
396.603149 -597.953125 0.000013 0.223087
398.669006 -601.262878 -0.000083 0.221357
399.988190 -603.376465 -0.000063 0.228950
400.905212 -604.845703 0.000020 0.185890
401.580841 -605.928162 0.000091 0.212130
396.403259 -597.395996 6.499729 0.583456
396.401764 -597.393555 5.880448 0.603799
396.400330 -597.391235 5.269669 0.600245
396.398865 -597.388916 4.665937 0.608456
396.397461 -597.386536 4.067859 0.594363
396.396027 -597.384216 3.474089 0.563113
396.394623 -597.381958 2.883321 0.606127
396.393219 -597.379700 2.294274 0.565931
396.391815 -597.377380 1.705682 0.559926
396.390411 -597.375061 1.116283 0.578431
396.389008 -597.372742 0.524808 0.573652
396.706573 -597.889587 0.000063 0.250096
398.749176 -601.213562 -0.000041 0.207901
400.053528 -603.336182 -0.000027 0.230104
400.960297 -604.811829 0.000067 0.201845
401.628204 -605.898743 0.000087 0.252787
396.535553 -597.372375 6.487532 0.681863
396.534088 -597.369995 5.869926 0.533824
396.532654 -597.367615 5.260802 0.594608
396.531250 -597.365295 4.658707 0.581863
396.529846 -597.362976 4.062249 0.604167
396.528442 -597.360657 3.470091 0.552574
396.527039 -597.358337 2.880924 0.606495
396.525665 -597.356079 2.293475 0.545588
396.524292 -597.353760 1.706481 0.532230
396.522919 -597.351501 1.118682 0.619240
396.521515 -597.349182 0.528813 0.590931
396.810852 -597.827515 0.000215 0.227893
398.830048 -601.165466 0.000110 0.265379
400.119476 -603.296997 0.000127 0.230969
401.015839 -604.778809 0.000214 0.222895
401.676117 -605.870239 0.000235 0.256632
396.667114 -597.348877 6.475619 0.592647
396.665680 -597.346497 5.859651 0.507843
396.664276 -597.344116 5.252144 0.474387
396.662872 -597.341797 4.651646 0.524020
396.661499 -597.339478 4.056771 0.486642
396.660156 -597.337158 3.466184 0.493627
396.658783 -597.334900 2.878584 0.524387
396.657410 -597.332581 2.292696 0.544118
396.656067 -597.330322 1.707261 0.568382
396.654694 -597.328064 1.121025 0.575490
396.653351 -597.325745 0.532725 0.570221
396.914764 -597.764771 0.000173 0.219819
398.910614 -601.116821 0.000069 0.225298
400.185272 -603.257507 0.000128 0.214821
401.071136 -604.745239 0.000149 0.189927
401.723846 -605.841431 0.000201 0.220877
396.797974 -597.325500 6.463984 0.557843
396.796600 -597.323120 5.849617 0.485172
396.795197 -597.320740 5.243687 0.550613
396.793823 -597.318420 4.644750 0.527083
396.792480 -597.316101 4.051423 0.613358
396.791138 -597.313782 3.462370 0.547059
396.789795 -597.311523 2.876298 0.584559
396.788483 -597.309265 2.291934 0.492892
396.787109 -597.306946 1.708023 0.512623
396.785767 -597.304688 1.123313 0.614706
396.784454 -597.302429 0.536545 0.580882
397.019043 -597.702698 0.000128 0.237889
398.991364 -601.068481 -0.000013 0.204441
400.251221 -603.218323 0.000088 0.212322
401.126678 -604.712219 0.000110 0.221357
401.771729 -605.812988 0.000154 0.228950
396.928223 -597.302307 6.452627 0.524755
396.926819 -597.299927 5.839819 0.556250
396.925476 -597.297485 5.235432 0.473407
396.924133 -597.295166 4.638019 0.571078
396.922791 -597.292847 4.046200 0.636275
396.921478 -597.290588 3.458647 0.577206
396.920135 -597.288269 2.874066 0.616176
396.918854 -597.286011 2.291190 0.573162
396.917511 -597.283691 1.708767 0.529289
396.916199 -597.281433 1.125546 0.532966
396.914886 -597.279175 0.540273 0.597672
397.124176 -597.642029 0.000172 0.231161
399.072906 -601.021362 0.000029 0.216647
400.317688 -603.179871 0.000126 0.256151
401.182648 -604.679810 0.000143 0.225298
401.819885 -605.784973 0.000153 0.190696
397.057770 -597.279114 6.441542 0.650368
397.056396 -597.276733 5.830260 0.586275
397.055084 -597.274414 5.227376 0.607966
397.053741 -597.272095 4.631448 0.593015
397.052429 -597.269714 4.041103 0.551103
397.051147 -597.267456 3.455013 0.530270
397.049835 -597.265198 2.871888 0.591789
397.048553 -597.262878 2.290465 0.599387
397.047272 -597.260620 1.709493 0.489706
397.045959 -597.258362 1.127726 0.560907
397.044678 -597.256042 0.543913 0.560784
397.228821 -597.580627 0.000014 0.217705
399.154083 -600.973694 -0.000126 0.213283
400.383850 -603.141052 -0.000031 0.199827
401.238373 -604.647095 -0.000026 0.262591
401.867981 -605.756775 0.000006 0.266244
397.186707 -597.256104 6.430729 0.597181
397.185333 -597.253723 5.820934 0.544976
397.184052 -597.251343 5.219514 0.610662
397.182739 -597.249023 4.625038 0.569608
397.181458 -597.246765 4.036130 0.541667
397.180176 -597.244446 3.451468 0.576838
397.178894 -597.242188 2.869764 0.600980
397.177643 -597.239868 2.289757 0.546324
397.176361 -597.237610 1.710201 0.490809
397.175079 -597.235352 1.129853 0.600980
397.173828 -597.233032 0.547463 0.578431
397.335236 -597.522278 0.000169 0.226067
399.236633 -600.928467 0.000026 0.226259
400.451141 -603.104126 0.000120 0.235871
401.295044 -604.615967 0.000127 0.219819
401.916870 -605.729919 0.000159 0.228662
397.315002 -597.233215 6.420182 0.515809
397.313660 -597.230774 5.811837 0.580637
397.312378 -597.228455 5.211849 0.556740
397.311127 -597.226135 4.618786 0.473775
397.309845 -597.223816 4.031281 0.533088
397.308594 -597.221558 3.448010 0.641299
397.307312 -597.219238 2.867691 0.576593
397.306061 -597.217041 2.289066 0.509926
397.304840 -597.214722 1.710891 0.524142
397.303589 -597.212402 1.131927 0.600490
397.302338 -597.210205 0.550926 0.590931
397.440582 -597.461975 -0.000028 0.219915
399.318848 -600.882568 -0.000019 0.209823
400.518158 -603.066772 0.000084 0.247116
401.351440 -604.584412 0.000054 0.222607
401.965546 -605.702820 0.000119 0.220300
397.442688 -597.210449 6.409898 0.597304
397.441406 -597.208008 5.802968 0.517892
397.440125 -597.205688 5.204375 0.598284
397.438873 -597.203369 4.612692 0.474020
397.437622 -597.200989 4.026553 0.546078
397.436371 -597.198730 3.444640 0.608578
397.435150 -597.196472 2.865671 0.606985
397.433929 -597.194214 2.288393 0.623652
397.432709 -597.191895 1.711564 0.629167
397.431488 -597.189636 1.133947 0.635662
397.430267 -597.187378 0.554299 0.649142
397.546997 -597.403564 -0.000074 0.238466
399.401337 -600.837280 -0.000066 0.214052
400.585327 -603.029663 -0.000003 0.207036
401.408142 -604.553284 0.000008 0.240869
402.014496 -605.676147 0.000115 0.239139
397.569794 -597.187683 6.399879 0.618873
397.568512 -597.185364 5.794325 0.630882
397.567291 -597.182983 5.197092 0.623284
397.566040 -597.180603 4.606753 0.513480
397.564850 -597.178345 4.021946 0.561152
397.563599 -597.176086 3.441355 0.551471
397.562378 -597.173767 2.863703 0.576348
397.561188 -597.171509 2.287738 0.634436
397.559998 -597.169250 1.712220 0.650368
397.558777 -597.166992 1.135918 0.641422
397.557556 -597.164734 0.557590 0.606863
397.654602 -597.347473 0.000081 0.236159
399.484833 -600.793823 0.000095 0.220684
400.653381 -602.994202 0.000155 0.217128
401.465454 -604.523376 0.000163 0.210977
402.063934 -605.650330 0.000267 0.232507
397.696350 -597.165161 6.390117 0.638848
397.695099 -597.162720 5.785905 0.535784
397.693878 -597.160339 5.189996 0.588235
397.692657 -597.158081 4.600967 0.443382
397.691467 -597.155762 4.017457 0.596078
397.690277 -597.153442 3.438154 0.524142
397.689087 -597.151184 2.861785 0.575368
397.687897 -597.148987 2.287098 0.579902
397.686707 -597.146667 1.712860 0.497426
397.685516 -597.144409 1.137838 0.678064
397.684326 -597.142151 0.560795 0.446446
397.761414 -597.289734 -0.000072 0.213668
399.567627 -600.748962 -0.000067 0.205882
400.720886 -602.957703 0.000006 0.226067
401.522278 -604.492615 0.000003 0.201557
402.112976 -605.623840 0.000117 0.294598
397.822327 -597.142639 6.380610 0.576348
397.821106 -597.140259 5.777706 0.538358
397.819916 -597.137939 5.183086 0.626593
397.818695 -597.135620 4.595331 0.564706
397.817535 -597.133301 4.013086 0.477696
397.816345 -597.130981 3.435038 0.564093
397.815186 -597.128723 2.859917 0.564093
397.814026 -597.126465 2.286476 0.554902
397.812866 -597.124207 1.713482 0.582108
397.811707 -597.121887 1.139708 0.676225
397.810547 -597.119690 0.563917 0.511765
397.869354 -597.234253 -0.000026 0.233852
399.651337 -600.705994 -0.000018 0.221069
400.789124 -602.922668 0.000045 0.256632
401.579773 -604.463013 0.000039 0.228566
402.162537 -605.598328 0.000158 0.237601
397.947784 -597.120239 6.371356 0.590809
397.946564 -597.117859 5.769726 0.571446
397.945404 -597.115479 5.176360 0.661642
397.944214 -597.113220 4.589848 0.465319
397.943054 -597.110901 4.008831 0.548039
397.941925 -597.108643 3.432004 0.542892
397.940765 -597.106384 2.858099 0.580270
397.939606 -597.104126 2.285870 0.642034
397.938507 -597.101868 1.714088 0.606373
397.937347 -597.099609 1.141527 0.516054
397.936188 -597.097290 0.566955 0.588480
397.977386 -597.178894 -0.000070 0.236063
399.735596 -600.664001 0.000096 0.238754
400.857391 -602.887573 -0.000010 0.237793
401.637299 -604.433533 -0.000007 0.229431
402.212158 -605.572998 0.000119 0.191945
398.072723 -597.097961 6.362355 0.511520
398.071533 -597.095581 5.761962 0.575368
398.070343 -597.093201 5.169818 0.600490
398.069214 -597.090942 4.584512 0.532475
398.068085 -597.088623 4.004692 0.560539
398.066956 -597.086365 3.429053 0.589338
398.065826 -597.084106 2.856330 0.602574
398.064697 -597.081848 2.285281 0.576593
398.063568 -597.079529 1.714678 0.520833
398.062439 -597.077271 1.143297 0.493260
398.061340 -597.075012 0.569910 0.578554
398.086517 -597.125793 0.000085 0.231353
399.820221 -600.622803 0.000251 0.232315
400.926392 -602.854065 0.000144 0.219243
401.695465 -604.405212 0.000149 0.236351
402.262238 -605.548584 0.000269 0.185313
398.197144 -597.075745 6.353603 0.592034
398.195953 -597.073364 5.754413 0.647304
398.194855 -597.071045 5.163455 0.588971
398.193726 -597.068726 4.579323 0.556373
398.192596 -597.066406 4.000666 0.583578
398.191498 -597.064087 3.426183 0.612377
398.190369 -597.061829 2.854610 0.659681
398.189270 -597.059631 2.284708 0.559191
398.188171 -597.057373 1.715251 0.512255
398.187073 -597.055115 1.145019 0.577819
398.185974 -597.052795 0.572784 0.571569
398.195251 -597.071899 0.000038 0.224625
399.904572 -600.581055 0.000204 0.228566
400.995148 -602.819946 0.000096 0.222799
401.753510 -604.376770 0.000162 0.220108
402.312103 -605.523682 0.000172 0.211938
398.321075 -597.053650 6.345096 0.541422
398.319946 -597.051208 5.747074 0.614583
398.318787 -597.048889 5.157271 0.665686
398.317688 -597.046570 4.574281 0.532721
398.316589 -597.044312 3.996754 0.581740
398.315521 -597.042053 3.423394 0.611029
398.314423 -597.039734 2.852939 0.627083
398.313324 -597.037476 2.284151 0.549755
398.312256 -597.035278 1.715808 0.582353
398.311157 -597.032959 1.146692 0.523407
398.310120 -597.030701 0.575577 0.562623
398.304382 -597.018738 -0.000013 0.237697
399.989166 -600.539795 0.000155 0.213860
401.064117 -602.786377 0.000049 0.266532
401.811584 -604.348511 0.000115 0.205113
402.362183 -605.499207 0.000123 0.210688
398.444519 -597.031616 6.336832 0.619240
398.443420 -597.029175 5.739946 0.626838
398.442291 -597.026855 5.151264 0.644853
398.441193 -597.024597 4.569382 0.589706
398.440155 -597.022217 3.992955 0.644730
398.439087 -597.020020 3.420685 0.674387
398.437988 -597.017761 2.851315 0.740564
398.436951 -597.015442 2.283610 0.586029
398.435883 -597.013245 1.716349 0.556618
398.434814 -597.010986 1.148317 0.615074
398.433746 -597.008667 0.578290 0.504534
398.414276 -596.967224 0.000049 0.217705
400.074371 -600.499878 0.000213 0.225298
401.133514 -602.753540 0.000066 0.221069
401.870117 -604.321106 0.000178 0.208478
402.412689 -605.475586 0.000177 0.213860
398.567505 -597.009644 6.328810 0.604289
398.566406 -597.007324 5.733028 0.592034
398.565338 -597.004944 5.145433 0.555392
398.564270 -597.002625 4.564627 0.537500
398.563202 -597.000305 3.989265 0.604289
398.562164 -596.998047 3.418055 0.597059
398.561127 -596.995789 2.849739 0.532721
398.560089 -596.993530 2.283084 0.541054
398.559021 -596.991272 1.716875 0.603064
398.557983 -596.989014 1.149895 0.507108
398.556946 -596.986755 0.580924 0.481373
398.524139 -596.915588 0.000002 0.243560
400.159546 -600.459717 0.000158 0.232795
401.202972 -602.720947 0.000015 0.209054
401.928650 -604.293579 0.000130 0.232603
402.463135 -605.451843 0.000139 0.230392
398.690063 -596.987732 6.321027 0.634436
398.688965 -596.985413 5.726315 0.505024
398.687927 -596.983032 5.139777 0.582108
398.686890 -596.980774 4.560015 0.517402
398.685822 -596.978455 3.985687 0.560784
398.684814 -596.976196 3.415504 0.565564
398.683777 -596.973938 2.848209 0.573775
398.682770 -596.971680 2.282575 0.486275
398.681763 -596.969421 1.717384 0.508578
398.680695 -596.967163 1.151425 0.637255
398.679688 -596.964905 0.583479 0.475735
398.634308 -596.864746 -0.000052 0.218666
400.245026 -600.420349 0.000111 0.219339
401.272644 -602.688782 -0.000031 0.235582
401.987366 -604.266541 0.000086 0.268551
402.513733 -605.428528 0.000093 0.256344
398.812164 -596.966003 6.313485 0.542157
398.811096 -596.963623 5.719810 0.610662
398.810059 -596.961243 5.134295 0.505637
398.809021 -596.958923 4.555544 0.591789
398.808044 -596.956665 3.982218 0.585294
398.807007 -596.954407 3.413031 0.583824
398.806000 -596.952087 2.846728 0.611642
398.804993 -596.949890 2.282082 0.570588
398.803986 -596.947632 1.717878 0.554657
398.803009 -596.945374 1.152908 0.524020
398.802002 -596.943115 0.585956 0.515809
398.744843 -596.814636 -0.000101 0.240004
400.330750 -600.381470 0.000055 0.222030
401.342499 -602.657043 -0.000087 0.251730
402.046234 -604.239807 0.000038 0.236063
402.564514 -605.405518 0.000042 0.258554
398.933838 -596.944275 6.306176 0.587868
398.932831 -596.941895 5.713506 0.505024
398.931793 -596.939575 5.128983 0.662745
398.930786 -596.937256 4.551212 0.526838
398.929779 -596.934937 3.978858 0.553676
398.928802 -596.932678 3.410635 0.514093
398.927826 -596.930420 2.845291 0.568627
398.926849 -596.928162 2.281603 0.598162
398.925842 -596.925903 1.718357 0.502941
398.924866 -596.923706 1.154346 0.534559
398.923889 -596.921448 0.588355 0.594730
398.856476 -596.766968 0.000060 0.243849
400.417328 -600.344543 0.000215 0.216936
401.413086 -602.626953 0.000072 0.231546
402.105682 -604.214417 0.000189 0.227509
402.615753 -605.383606 0.000196 0.256824
399.055115 -596.922668 6.299101 0.609191
399.054108 -596.920227 5.707404 0.505147
399.053131 -596.917908 5.123840 0.556495
399.052124 -596.915588 4.547019 0.540441
399.051147 -596.913330 3.975605 0.545466
399.050171 -596.911072 3.408315 0.610172
399.049194 -596.908813 2.843902 0.637500
399.048248 -596.906555 2.281140 0.559681
399.047272 -596.904297 1.718820 0.510907
399.046326 -596.902039 1.155737 0.590809
399.045349 -596.899780 0.590678 0.526593
398.967743 -596.718445 0.000007 0.231161
400.503571 -600.306824 0.000162 0.229815
401.483429 -602.596252 0.000023 0.208381
402.164917 -604.188599 0.000142 0.271722
402.666840 -605.361267 0.000140 0.271626
399.176025 -596.901001 6.292258 0.569485
399.175049 -596.898743 5.701500 0.591912
399.174072 -596.896362 5.118866 0.518015
399.173096 -596.894043 4.542962 0.598039
399.172119 -596.891785 3.972459 0.639216
399.171173 -596.889465 3.406072 0.591176
399.170227 -596.887207 2.842557 0.653186
399.169281 -596.884949 2.280692 0.576103
399.168335 -596.882690 1.719268 0.573162
399.167389 -596.880432 1.157082 0.559559
399.166443 -596.878235 0.592925 0.682476
399.079559 -596.671204 0.000029 0.233468
400.589844 -600.269226 0.000019 0.218858
401.553772 -602.565613 -0.000121 0.237409
402.224213 -604.162720 -0.000000 0.195502
402.717865 -605.338806 -0.000054 0.195310
399.296539 -596.879517 6.285644 0.542034
399.295563 -596.877197 5.695798 0.573284
399.294617 -596.874817 5.114058 0.601103
399.293640 -596.872498 4.539043 0.567647
399.292725 -596.870239 3.969418 0.608701
399.291779 -596.867981 3.403904 0.610417
399.290863 -596.865723 2.841258 0.619976
399.289917 -596.863464 2.280259 0.542525
399.289001 -596.861206 1.719701 0.563848
399.288086 -596.858948 1.158383 0.556495
399.287140 -596.856689 0.595095 0.552574
399.192169 -596.626038 0.000196 0.236640
400.677155 -600.234131 0.000180 0.230104
401.624969 -602.536926 0.000038 0.195694
402.284180 -604.138611 0.000166 0.256920
402.769592 -605.317993 0.000111 0.258747
399.416687 -596.858154 6.279260 0.612132
399.415741 -596.855774 5.690291 0.572794
399.414795 -596.853394 5.109418 0.625368
399.413849 -596.851074 4.535258 0.566544
399.412933 -596.848816 3.966482 0.588971
399.412018 -596.846558 3.401811 0.605637
399.411133 -596.844299 2.840004 0.596201
399.410217 -596.842041 2.279841 0.575613
399.409302 -596.839783 1.720119 0.570221
399.408386 -596.837524 1.159638 0.677696
399.407471 -596.835266 0.597191 0.543260
399.304382 -596.579712 0.000141 0.219243
400.764191 -600.198242 0.000126 0.236063
401.695923 -602.507751 -0.000013 0.236351
402.343842 -604.113770 0.000053 0.204537
402.821136 -605.296814 0.000049 0.188774
399.536499 -596.836792 6.273101 0.489828
399.535553 -596.834412 5.684981 0.538848
399.534637 -596.832031 5.104942 0.559436
399.533691 -596.829712 4.531608 0.484926
399.532806 -596.827454 3.963650 0.537868
399.531921 -596.825195 3.399793 0.512255
399.531006 -596.822937 2.838794 0.514093
399.530121 -596.820679 2.279438 0.537990
399.529236 -596.818420 1.720523 0.584191
399.528381 -596.816162 1.160849 0.605882
399.527466 -596.813904 0.599213 0.443995
399.416931 -596.534302 0.000085 0.216744
400.851471 -600.163025 0.000071 0.232891
401.767059 -602.478943 -0.000069 0.205786
402.403809 -604.089539 -0.000002 0.223280
402.872803 -605.275940 0.000001 0.284314
399.655945 -596.815430 6.267169 0.494363
399.654999 -596.813049 5.679864 0.464093
399.654144 -596.810730 5.100630 0.657108
399.653229 -596.808411 4.528091 0.527206
399.652344 -596.806152 3.960922 0.519118
399.651459 -596.803833 3.397847 0.571078
399.650574 -596.801575 2.837628 0.532353
399.649719 -596.799377 2.279049 0.494975
399.648865 -596.797119 1.720911 0.496936
399.647980 -596.794800 1.162016 0.670588
399.647095 -596.792603 0.601161 0.524020
399.530457 -596.491455 0.000252 0.238658
400.939178 -600.128845 0.000097 0.231161
401.838867 -602.451782 0.000092 0.243080
402.464264 -604.066711 0.000159 0.210015
402.924957 -605.256165 0.000157 0.221646
399.775085 -596.794189 6.261460 0.304412
399.774170 -596.791809 5.674942 0.510417
399.773285 -596.789490 5.096480 0.576103
399.772430 -596.787170 4.524708 0.542034
399.771576 -596.784912 3.958298 0.531005
399.770691 -596.782654 3.395976 0.561152
399.769836 -596.780334 2.836506 0.526226
399.768982 -596.778137 2.278676 0.565809
399.768127 -596.775879 1.721285 0.558456
399.767303 -596.773560 1.163138 0.579779
399.766418 -596.771362 0.603035 0.554779
399.643585 -596.447571 0.000194 0.231161
401.026947 -600.094849 0.000038 0.230104
401.910400 -602.424072 0.000035 0.230200
402.524536 -604.043335 0.000103 0.208958
402.976898 -605.236023 0.000099 0.268070
399.893921 -596.772949 6.255975 0.374020
399.893036 -596.770630 5.670209 0.585172
399.892151 -596.768250 5.092492 0.606618
399.891296 -596.765991 4.521455 0.594853
399.890442 -596.763733 3.955774 0.609926
399.889618 -596.761414 3.394177 0.525000
399.888763 -596.759155 2.835429 0.543627
399.887909 -596.756897 2.278316 0.624755
399.887115 -596.754639 1.721644 0.537377
399.886261 -596.752441 1.164217 0.588971
399.885406 -596.750122 0.604836 0.584681
399.756805 -596.403687 0.000054 0.240388
401.114746 -600.060852 -0.000099 0.221742
401.981995 -602.396423 -0.000100 0.234237
402.584869 -604.020020 -0.000032 0.210977
403.028900 -605.215942 -0.000036 0.271242
400.012421 -596.751831 6.250709 0.363358
400.011536 -596.749451 5.665666 0.557843
400.010712 -596.747131 5.088664 0.606985
400.009888 -596.744812 4.518333 0.571324
400.009064 -596.742554 3.953353 0.593260
400.008240 -596.740234 3.392450 0.618750
400.007416 -596.738037 2.834394 0.623897
400.006561 -596.735718 2.277972 0.552206
400.005768 -596.733521 1.721989 0.528064
400.004944 -596.731262 1.165253 0.621078
400.004120 -596.729004 0.606565 0.544240
399.871216 -596.363220 0.000219 0.228854
401.203491 -600.029419 0.000070 0.232987
402.054321 -602.370789 0.000059 0.235390
402.645782 -603.998413 0.000130 0.223087
403.081451 -605.197327 0.000125 0.198866
400.130676 -596.730774 6.245662 0.706373
400.129822 -596.728333 5.661314 0.593137
400.128998 -596.726074 5.084995 0.555515
400.128174 -596.723755 4.515342 0.663480
400.127350 -596.721436 3.951032 0.630270
400.126556 -596.719177 3.390796 0.633701
400.125763 -596.716919 2.833402 0.602696
400.124939 -596.714661 2.277642 0.606495
400.124146 -596.712402 1.722319 0.566912
400.123352 -596.710205 1.166245 0.582598
400.122559 -596.707886 0.608222 0.646324
399.985260 -596.321777 0.000164 0.210977
401.291962 -599.997253 0.000015 0.246924
402.126434 -602.344543 0.000006 0.215302
402.706543 -603.976318 0.000073 0.216647
403.133820 -605.178284 0.000073 0.235006
400.248627 -596.709717 6.240832 0.550123
400.247803 -596.707275 5.657149 0.647304
400.246979 -596.705017 5.081487 0.617157
400.246185 -596.702698 4.512480 0.604779
400.245392 -596.700378 3.948812 0.669485
400.244598 -596.698181 3.389214 0.608333
400.243835 -596.695862 2.832453 0.645343
400.243042 -596.693604 2.277325 0.550490
400.242279 -596.691406 1.722636 0.608211
400.241486 -596.689087 1.167194 0.609681
