# This PCD file was generated using the MATLABÂ® pcwrite function
# from Computer Vision ToolboxÂ®.
# .PCD v.7 - Point Cloud Data file format
VERSION .7
FIELDS x y z intensity
SIZE 4 4 4 4
TYPE F F F F
COUNT 1 1 1 1
WIDTH 1204
HEIGHT 1
VIEWPOINT 0 0 0 1 0 0 0
POINTS 1204
DATA ascii
-101.991669 5.902590 4.362464 1.000000
-101.991669 5.902589 3.925949 1.000000
-101.991669 5.902589 3.493654 1.000000
-101.991669 5.902590 3.064602 1.000000
-101.991669 5.902590 2.637848 1.000000
-101.991669 5.902590 2.212464 1.000000
-101.991669 5.902591 1.787536 1.000000
-101.991669 5.902591 1.362152 1.000000
-101.991669 5.902591 0.935397 1.000000
-101.991669 5.902589 0.506346 1.000000
-101.991669 5.902591 0.074051 1.000000
-103.099831 7.558094 0.000023 0.215206
-104.062958 8.996921 0.000008 0.204056
-104.772522 10.056963 -0.000013 0.237697
-102.013115 5.770446 5.276845 1.000000
-102.013115 5.770444 4.825420 1.000000
-102.013115 5.770444 4.380332 1.000000
-102.013115 5.770445 3.940517 1.000000
-102.013115 5.770446 3.504951 1.000000
-102.013115 5.770447 3.072654 1.000000
-102.013115 5.770444 2.642673 1.000000
-102.013115 5.770444 2.214071 1.000000
-102.013115 5.770444 1.785929 1.000000
-102.013115 5.770445 1.357327 1.000000
-102.013115 5.770448 0.927345 1.000000
-102.013115 5.770448 0.495049 1.000000
-102.013115 5.770447 0.059484 1.000000
-103.163765 7.515661 0.000029 0.207324
-104.116806 8.961163 0.000012 0.193483
-104.819031 10.026245 0.000025 0.284314
-102.034889 5.636281 5.301981 1.000000
-102.034889 5.636280 4.847093 1.000000
-102.034889 5.636280 4.398591 1.000000
-102.034889 5.636280 3.955401 1.000000
-102.034889 5.636281 3.516495 1.000000
-102.034889 5.636281 3.080883 1.000000
-102.034889 5.636280 2.647602 1.000000
-102.034889 5.636281 2.215713 1.000000
-102.034889 5.636281 1.784287 1.000000
-102.034889 5.636281 1.352398 1.000000
-102.034889 5.636281 0.919117 1.000000
-102.034889 5.636281 0.483505 1.000000
-102.034889 5.636281 0.044599 1.000000
-103.227959 7.473617 0.000023 0.205594
-104.170914 8.925778 0.000014 0.195886
-104.865692 9.995740 0.000029 0.224529
-102.056992 5.500033 5.327668 1.000000
-102.056992 5.500034 4.869241 1.000000
-102.056999 5.500036 4.417251 1.000000
-102.056999 5.500035 3.970613 1.000000
-102.056999 5.500037 3.528293 1.000000
-102.056999 5.500038 3.089290 1.000000
-102.056999 5.500035 2.652640 1.000000
-102.056999 5.500036 2.217391 1.000000
-102.056999 5.500037 1.782609 1.000000
-102.056999 5.500035 1.347360 1.000000
-102.056999 5.500039 0.910709 1.000000
-102.056999 5.500038 0.471708 1.000000
-102.056999 5.500036 0.029387 1.000000
-103.292435 7.432012 0.000014 0.222318
-104.225243 8.890742 0.000010 0.289312
-104.912529 9.965519 0.000021 0.235582
-102.079460 5.361646 5.353923 1.000000
-102.079460 5.361644 4.891880 1.000000
-102.079460 5.361646 4.436322 1.000000
-102.079460 5.361647 3.986161 1.000000
-102.079460 5.361646 3.540351 1.000000
-102.079460 5.361646 3.097886 1.000000
-102.079460 5.361646 2.657789 1.000000
-102.079460 5.361648 2.219106 1.000000
-102.079460 5.361648 1.780894 1.000000
-102.079460 5.361647 1.342211 1.000000
-102.079460 5.361647 0.902114 1.000000
-102.079460 5.361648 0.459650 1.000000
-102.079460 5.361648 0.013839 1.000000
-103.357239 7.390917 0.000018 0.258939
-104.279831 8.856118 0.000013 0.252018
-104.959595 9.935665 0.000025 0.180988
-102.102272 5.221048 5.380762 1.000000
-102.102272 5.221048 4.915021 1.000000
-102.102272 5.221049 4.455819 1.000000
-102.102272 5.221050 4.002055 1.000000
-102.102272 5.221050 3.552677 1.000000
-102.102272 5.221050 3.106671 1.000000
-102.102272 5.221050 2.663053 1.000000
-102.102272 5.221050 2.220860 1.000000
-102.102272 5.221050 1.779140 1.000000
-102.102272 5.221050 1.336947 1.000000
-102.102272 5.221051 0.893329 1.000000
-102.102272 5.221051 0.447323 1.000000
-102.102272 5.221051 -0.002055 1.000000
-103.422333 7.350284 0.000024 0.222991
-104.334671 8.821886 0.000019 0.241830
-105.006882 9.906151 0.000031 0.192810
-102.125458 5.078176 5.408201 1.000000
-102.125458 5.078175 4.938680 1.000000
-102.125465 5.078176 4.475751 1.000000
-102.125465 5.078176 4.018304 1.000000
-102.125465 5.078176 3.565279 1.000000
-102.125465 5.078176 3.115653 1.000000
-102.125465 5.078176 2.668435 1.000000
-102.125465 5.078177 2.222652 1.000000
-102.125465 5.078177 1.777347 1.000000
-102.125465 5.078177 1.331565 1.000000
-102.125465 5.078176 0.884347 1.000000
-102.125465 5.078177 0.434721 1.000000
-102.189842 5.183665 0.000028 0.221261
-103.487701 7.310095 0.000028 0.251538
-104.389748 8.788025 0.000022 0.223952
-105.054367 9.876957 0.000035 0.229815
-102.149025 4.932956 5.436259 1.000000
-102.149025 4.932954 4.962873 1.000000
-102.149025 4.932955 4.496132 1.000000
-102.149033 4.932958 4.034919 1.000000
-102.149033 4.932958 3.578165 1.000000
-102.149033 4.932956 3.124837 1.000000
-102.149033 4.932958 2.673938 1.000000
-102.149033 4.932958 2.224485 1.000000
-102.149033 4.932958 1.775515 1.000000
-102.149033 4.932959 1.326062 1.000000
-102.149033 4.932958 0.875162 1.000000
-102.149033 4.932959 0.421835 1.000000
-102.270332 5.134860 0.000020 0.219915
-103.553322 7.270316 0.000021 0.236351
-104.445038 8.754524 0.000019 0.202999
-105.102036 9.848058 0.000027 0.209054
-102.172989 4.785319 5.464952 1.000000
-102.172989 4.785319 4.987613 1.000000
-102.172989 4.785320 4.516974 1.000000
-102.172989 4.785320 4.051911 1.000000
-102.172989 4.785319 3.591343 1.000000
-102.172989 4.785321 3.134230 1.000000
-102.172989 4.785321 2.679565 1.000000
-102.172989 4.785322 2.226360 1.000000
-102.172989 4.785322 1.773640 1.000000
-102.172989 4.785322 1.320435 1.000000
-102.172989 4.785322 0.865770 1.000000
-102.172989 4.785321 0.408657 1.000000
-102.351166 5.086629 0.000013 0.226547
-103.619247 7.231043 0.000024 0.242022
-104.500572 8.721436 0.000021 0.225010
-105.149925 9.819527 0.000030 0.276624
-102.197350 4.635190 5.494300 1.000000
-102.197350 4.635190 5.012918 1.000000
-102.197350 4.635191 4.538294 1.000000
-102.197350 4.635191 4.069291 1.000000
-102.197350 4.635191 3.604822 1.000000
-102.197350 4.635190 3.143837 1.000000
-102.197350 4.635191 2.685321 1.000000
-102.197350 4.635191 2.228277 1.000000
-102.197350 4.635191 1.771723 1.000000
-102.197350 4.635191 1.314679 1.000000
-102.197350 4.635191 0.856163 1.000000
-102.197350 4.635192 0.395179 1.000000
-102.432320 5.038953 0.000005 0.227124
-103.685402 7.192173 0.000016 0.226836
-104.556313 8.688689 0.000013 0.209727
-105.197968 9.791262 0.000012 0.214821
-102.222137 4.482489 5.524323 1.000000
-102.222137 4.482489 5.038804 1.000000
-102.222137 4.482488 4.560102 1.000000
-102.222137 4.482489 4.087070 1.000000
-102.222137 4.482487 3.618610 1.000000
-102.222137 4.482491 3.153665 1.000000
-102.222137 4.482491 2.691209 1.000000
-102.222137 4.482490 2.230238 1.000000
-102.222137 4.482490 1.769762 1.000000
-102.222137 4.482491 1.308791 1.000000
-102.222137 4.482491 0.846335 1.000000
-102.222137 4.482489 0.381390 1.000000
-102.513855 4.991916 0.000009 0.226932
-103.751877 7.153828 0.000020 0.228278
-104.612305 8.656374 0.000014 0.207709
-105.246246 9.763406 0.000016 0.194060
-102.247345 4.327130 5.555041 1.000000
-102.247345 4.327131 5.065290 1.000000
-102.247345 4.327133 4.582417 1.000000
-102.247345 4.327132 4.105262 1.000000
-102.247345 4.327131 3.632718 1.000000
-102.247345 4.327133 3.163720 1.000000
-102.247345 4.327130 2.697234 1.000000
-102.247345 4.327133 2.232245 1.000000
-102.247345 4.327133 1.767755 1.000000
-102.247345 4.327132 1.302766 1.000000
-102.247353 4.327134 0.836280 1.000000
-102.247345 4.327132 0.367282 1.000000
-102.595673 4.945377 0.000000 0.225586
-103.818573 7.115885 0.000011 0.263841
-104.668495 8.624407 0.000005 0.229527
-105.294693 9.735847 0.000008 0.249519
-102.273003 4.169037 5.586474 1.000000
-102.273003 4.169039 5.092394 1.000000
-102.273003 4.169038 4.605250 1.000000
-102.273003 4.169039 4.123876 1.000000
-102.273003 4.169037 3.647154 1.000000
-102.273003 4.169039 3.174010 1.000000
-102.273003 4.169039 2.703398 1.000000
-102.273003 4.169039 2.234299 1.000000
-102.273003 4.169040 1.765701 1.000000
-102.273003 4.169040 1.296602 1.000000
-102.273003 4.169040 0.825990 1.000000
-102.273003 4.169039 0.352846 1.000000
-102.677856 4.899477 0.000004 0.239235
-103.885567 7.078469 0.000014 0.245963
-104.724930 8.592860 0.000002 0.252595
-105.343369 9.708667 0.000011 0.209246
-102.299118 4.008112 5.618649 1.000000
-102.299118 4.008110 5.120136 1.000000
-102.299118 4.008111 4.628622 1.000000
-102.299118 4.008112 4.142929 1.000000
-102.299118 4.008112 3.661931 1.000000
-102.299118 4.008111 3.184541 1.000000
-102.299118 4.008111 2.709708 1.000000
-102.299118 4.008112 2.236400 1.000000
-102.299118 4.008113 1.763599 1.000000
-102.299118 4.008111 1.290291 1.000000
-102.299118 4.008112 0.815458 1.000000
-102.299118 4.008113 0.338069 1.000000
-102.760315 4.854083 -0.000005 0.228374
-103.952797 7.041478 0.000009 0.212034
-104.781555 8.561683 -0.000006 0.236832
-105.392204 9.681795 0.000006 0.230777
-102.325714 3.844265 5.651584 1.000000
-102.325714 3.844265 5.148533 1.000000
-102.325714 3.844266 4.652546 1.000000
-102.325714 3.844265 4.162433 1.000000
-102.325714 3.844266 3.677057 1.000000
-102.325714 3.844267 3.195323 1.000000
-102.325714 3.844267 2.716168 1.000000
-102.325714 3.844266 2.238552 1.000000
-102.325714 3.844266 1.761448 1.000000
-102.325714 3.844268 1.283832 1.000000
-102.325714 3.844268 0.804677 1.000000
-102.325714 3.844268 0.322943 1.000000
-102.843170 4.809424 0.000013 0.241157
-104.020348 7.005070 0.000027 0.248366
-104.838470 8.531008 0.000011 0.212418
-105.441261 9.655342 0.000022 0.259804
-102.352791 3.677400 5.685306 1.000000
-102.352791 3.677402 5.177609 1.000000
-102.352791 3.677402 4.677042 1.000000
-102.352791 3.677402 4.182403 1.000000
-102.352791 3.677401 3.692544 1.000000
-102.352798 3.677403 3.206361 1.000000
-102.352798 3.677405 2.722782 1.000000
-102.352791 3.677402 2.240755 1.000000
-102.352791 3.677402 1.759245 1.000000
-102.352798 3.677406 1.277218 1.000000
-102.352798 3.677404 0.793638 1.000000
-102.352791 3.677402 0.307456 1.000000
-102.926300 4.765264 0.000018 0.214821
-104.088112 6.969068 0.000031 0.206267
-104.895546 8.500669 0.000013 0.198481
-105.490494 9.629192 0.000026 0.206555
-102.380379 3.507419 5.719837 1.000000
-102.380379 3.507418 5.207385 1.000000
-102.380379 3.507421 4.702127 1.000000
-102.380379 3.507419 4.202852 1.000000
-102.380379 3.507419 3.708404 1.000000
-102.380379 3.507421 3.217665 1.000000
-102.380379 3.507420 2.729554 1.000000
-102.380379 3.507418 2.243011 1.000000
-102.380379 3.507418 1.756989 1.000000
-102.380379 3.507421 1.270445 1.000000
-102.380379 3.507422 0.782334 1.000000
-102.380379 3.507420 0.291596 1.000000
-103.009689 4.721605 0.000009 0.228374
-104.156097 6.933477 0.000022 0.240773
-104.952827 8.470687 0.000005 0.242695
-105.539871 9.603340 0.000018 0.213764
-102.408485 3.334212 5.755209 1.000000
-102.408485 3.334211 5.237884 1.000000
-102.408485 3.334211 4.727820 1.000000
-102.408485 3.334211 4.223799 1.000000
-102.408485 3.334212 3.724649 1.000000
-102.408485 3.334212 3.229244 1.000000
-102.408485 3.334214 2.736492 1.000000
-102.408485 3.334213 2.245322 1.000000
-102.408485 3.334213 1.754678 1.000000
-102.408485 3.334215 1.263508 1.000000
-102.408485 3.334213 0.770756 1.000000
-102.408485 3.334214 0.275351 1.000000
-103.093391 4.678549 0.000003 0.218185
-104.224319 6.898359 0.000012 0.291907
-105.010307 8.441104 -0.000004 0.188293
-105.589439 9.577832 0.000010 0.238081
-102.437141 3.157672 5.791445 1.000000
-102.437141 3.157670 5.269129 1.000000
-102.437141 3.157669 4.754144 1.000000
-102.437141 3.157668 4.245258 1.000000
-102.437141 3.157673 3.741291 1.000000
-102.437141 3.157671 3.241106 1.000000
-102.437141 3.157669 2.743598 1.000000
-102.437141 3.157671 2.247689 1.000000
-102.437141 3.157671 1.752311 1.000000
-102.437141 3.157670 1.256401 1.000000
-102.437141 3.157673 0.758894 1.000000
-102.437141 3.157674 0.258709 1.000000
-103.177422 4.636135 0.000007 0.222222
-104.292824 6.863783 0.000017 0.205402
-105.068024 8.411975 0.000001 0.230200
-105.639198 9.552716 0.000014 0.268839
-102.466354 2.977679 5.828578 1.000000
-102.466354 2.977679 5.301145 1.000000
-102.466354 2.977678 4.781116 1.000000
-102.466354 2.977681 4.267247 1.000000
-102.466354 2.977680 3.758344 1.000000
-102.466354 2.977680 3.253260 1.000000
-102.466354 2.977680 2.750881 1.000000
-102.466354 2.977681 2.250115 1.000000
-102.466354 2.977681 1.749885 1.000000
-102.466354 2.977681 1.249119 1.000000
-102.466354 2.977680 0.746739 1.000000
-102.466354 2.977680 0.241656 1.000000
-103.261749 4.594308 0.000011 0.218281
-104.361572 6.829687 0.000021 0.227316
-105.125938 8.383263 0.000008 0.203672
-105.689133 9.527952 0.000019 0.223087
-102.496147 2.794117 5.866635 1.000000
-102.496147 2.794117 5.333958 1.000000
-102.496147 2.794118 4.808761 1.000000
-102.496147 2.794120 4.289783 1.000000
-102.496147 2.794118 3.775823 1.000000
-102.496147 2.794118 3.265718 1.000000
-102.496147 2.794119 2.758345 1.000000
-102.496147 2.794121 2.252601 1.000000
-102.496147 2.794121 1.747399 1.000000
-102.496147 2.794120 1.241655 1.000000
-102.496147 2.794120 0.734281 1.000000
-102.496147 2.794119 0.224177 1.000000
-103.346329 4.552999 0.000002 0.232795
-104.430519 6.796008 0.000012 0.235871
-105.184029 8.354887 -0.000001 0.223376
-105.739227 9.503491 0.000011 0.208670
-102.526535 2.606860 5.905647 1.000000
-102.526535 2.606860 5.367597 1.000000
-102.526535 2.606862 4.837100 1.000000
-102.526535 2.606862 4.312887 1.000000
-102.526535 2.606862 3.793740 1.000000
-102.526535 2.606861 3.278489 1.000000
-102.526535 2.606862 2.765996 1.000000
-102.526535 2.606863 2.255150 1.000000
-102.526535 2.606863 1.744850 1.000000
-102.526535 2.606862 1.234003 1.000000
-102.526535 2.606862 0.721511 1.000000
-102.526535 2.606863 0.206260 1.000000
-103.431229 4.512358 0.000007 0.218474
-104.499710 6.762822 0.000005 0.225971
-105.242348 8.326981 0.000005 0.199539
-105.789505 9.479422 0.000015 0.197232
-102.557541 2.415777 5.945650 1.000000
-102.557541 2.415779 5.402089 1.000000
-102.557541 2.415777 4.866158 1.000000
-102.557541 2.415778 4.336576 1.000000
-102.557549 2.415780 3.812112 1.000000
-102.557549 2.415780 3.291583 1.000000
-102.557549 2.415781 2.773842 1.000000
-102.557549 2.415781 2.257763 1.000000
-102.557549 2.415781 1.742237 1.000000
-102.557549 2.415781 1.226158 1.000000
-102.557549 2.415781 0.708416 1.000000
-102.557549 2.415781 0.187889 1.000000
-103.516373 4.472226 -0.000003 0.217224
-104.569122 6.730109 -0.000003 0.211361
-105.300819 8.299417 -0.000005 0.239619
-105.839928 9.455659 0.000006 0.276240
-102.589195 2.220735 5.986675 1.000000
-102.589195 2.220732 5.437463 1.000000
-102.589195 2.220732 4.895961 1.000000
-102.589195 2.220734 4.360871 1.000000
-102.589195 2.220734 3.830954 1.000000
-102.589195 2.220734 3.305013 1.000000
-102.589195 2.220732 2.781888 1.000000
-102.589195 2.220733 2.260443 1.000000
-102.589195 2.220733 1.739557 1.000000
-102.589195 2.220733 1.218112 1.000000
-102.589195 2.220735 0.694987 1.000000
-102.589195 2.220736 0.169046 1.000000
-103.601868 4.432850 0.000014 0.228085
-104.638817 6.698005 0.000013 0.246636
-105.359543 8.272373 0.000012 0.226259
-105.890549 9.432339 0.000022 0.193676
-102.621521 2.021577 6.028764 1.000000
-102.621521 2.021578 5.473751 1.000000
-102.621521 2.021577 4.926533 1.000000
-102.621521 2.021575 4.385795 1.000000
-102.621521 2.021577 3.850283 1.000000
-102.621521 2.021577 3.318790 1.000000
-102.621521 2.021578 2.790143 1.000000
-102.621521 2.021577 2.263193 1.000000
-102.621521 2.021577 1.736807 1.000000
-102.621521 2.021578 1.209857 1.000000
-102.621521 2.021578 0.681210 1.000000
-102.621521 2.021579 0.149717 1.000000
-103.687599 4.393994 0.000018 0.233468
-104.708717 6.666330 0.000017 0.194925
-105.418427 8.245685 0.000015 0.201653
-105.941322 9.409327 0.000026 0.261246
-102.654533 1.818164 6.071949 1.000000
-102.654533 1.818162 5.510988 1.000000
-102.654533 1.818164 4.957903 1.000000
-102.654533 1.818162 4.411370 1.000000
-102.654533 1.818164 3.870117 1.000000
-102.654533 1.818162 3.332927 1.000000
-102.654533 1.818164 2.798612 1.000000
-102.654533 1.818162 2.266014 1.000000
-102.654533 1.818162 1.733986 1.000000
-102.654533 1.818164 1.201387 1.000000
-102.654533 1.818164 0.667073 1.000000
-102.654533 1.818166 0.129883 1.000000
-103.773567 4.355659 0.000009 0.236544
-104.778801 6.635081 0.000009 0.223280
-105.477463 8.219354 0.000006 0.201942
-105.992233 9.386625 0.000017 0.200500
-102.688263 1.610330 6.116273 1.000000
-102.688263 1.610330 5.549206 1.000000
-102.688263 1.610329 4.990101 1.000000
-102.688263 1.610330 4.437618 1.000000
-102.688263 1.610334 3.890474 1.000000
-102.688263 1.610334 3.347435 1.000000
-102.688263 1.610330 2.807305 1.000000
-102.688263 1.610332 2.268909 1.000000
-102.688263 1.610332 1.731090 1.000000
-102.688263 1.610332 1.192694 1.000000
-102.688263 1.610336 0.652564 1.000000
-102.688263 1.610336 0.109526 1.000000
-103.859840 4.318001 0.000013 0.240196
-104.849121 6.604376 0.000012 0.217320
-105.536713 8.193493 0.000010 0.193291
-106.043320 9.364326 0.000021 0.202518
-102.722733 1.397910 6.161778 1.000000
-102.722733 1.397910 5.588443 1.000000
-102.722733 1.397912 5.023156 1.000000
-102.722733 1.397908 4.464566 1.000000
-102.722733 1.397910 3.911374 1.000000
-102.722733 1.397910 3.362332 1.000000
-102.722733 1.397912 2.816230 1.000000
-102.722733 1.397914 2.271882 1.000000
-102.722733 1.397914 1.728118 1.000000
-102.722733 1.397912 1.183769 1.000000
-102.722733 1.397912 0.637668 1.000000
-102.722733 1.397910 0.088627 1.000000
-103.946327 4.280870 0.000004 0.223760
-104.919640 6.574108 0.000003 0.213764
-105.596123 8.167991 0.000002 0.204729
-106.094528 9.342299 0.000002 0.187524
-102.757973 1.180728 6.208509 1.000000
-102.757973 1.180732 5.628736 1.000000
-102.757973 1.180728 5.057102 1.000000
-102.757973 1.180728 4.492239 1.000000
-102.757973 1.180734 3.932836 1.000000
-102.757973 1.180732 3.377629 1.000000
-102.757973 1.180732 2.825396 1.000000
-102.757973 1.180734 2.274935 1.000000
-102.757973 1.180734 1.725065 1.000000
-102.757973 1.180734 1.174605 1.000000
-102.757973 1.180732 0.622370 1.000000
-102.757980 1.180735 0.067165 1.000000
-104.033119 4.244422 0.000008 0.221261
-104.990387 6.544398 0.000008 0.222991
-105.655724 8.142962 0.000006 0.261053
-106.145920 9.320719 0.000007 0.216744
-102.794029 0.958610 6.256510 1.000000
-102.794029 0.958609 5.670124 1.000000
-102.794029 0.958611 5.091970 1.000000
-102.794029 0.958610 4.520665 1.000000
-102.794029 0.958611 3.954880 1.000000
-102.794029 0.958611 3.393341 1.000000
-102.794029 0.958613 2.834810 1.000000
-102.794029 0.958611 2.278071 1.000000
-102.794029 0.958611 1.721929 1.000000
-102.794029 0.958613 1.165190 1.000000
-102.794029 0.958613 0.606658 1.000000
-102.794029 0.958613 0.045120 1.000000
-104.120155 4.208586 0.000012 0.252980
-105.061340 6.515178 0.000011 0.192810
-105.715515 8.118359 0.000013 0.200404
-106.197464 9.299495 0.000011 0.263745
-102.830910 0.731355 6.305830 1.000000
-102.830910 0.731351 5.712650 1.000000
-102.830910 0.731355 5.127797 1.000000
-102.830910 0.731353 4.549871 1.000000
-102.830910 0.731353 3.977531 1.000000
-102.830910 0.731353 3.409486 1.000000
-102.830910 0.731351 2.844483 1.000000
-102.830910 0.731355 2.281293 1.000000
-102.830910 0.731355 1.718707 1.000000
-102.830910 0.731353 1.155517 1.000000
-102.830910 0.731355 0.590514 1.000000
-102.830910 0.731357 0.022469 1.000000
-104.207405 4.173265 0.000003 0.217705
-105.132477 6.486389 0.000003 0.202614
-105.775429 8.094106 0.000004 0.223087
-106.249130 9.278581 0.000001 0.202614
-102.868652 0.498754 6.356523 1.000000
-102.868652 0.498754 5.756359 1.000000
-102.868652 0.498752 5.164621 1.000000
-102.868652 0.498754 4.579892 1.000000
-102.868652 0.498756 4.000813 1.000000
-102.868652 0.498752 3.426080 1.000000
-102.868652 0.498754 2.854424 1.000000
-102.868652 0.498756 2.284605 1.000000
-102.868652 0.498756 1.715395 1.000000
-102.868652 0.498754 1.145575 1.000000
-102.868652 0.498754 0.573919 1.000000
-102.868652 0.498758 -0.000813 1.000000
-104.294945 4.138667 0.000010 0.225202
-105.203827 6.458166 0.000007 0.237889
-105.835548 8.070324 0.000008 0.204729
-106.300964 9.258079 0.000006 0.204248
-102.907303 0.260604 6.408640 1.000000
-102.907303 0.260602 5.801297 1.000000
-102.907303 0.260604 5.202479 1.000000
-102.907303 0.260606 4.610755 1.000000
-102.907303 0.260604 4.024750 1.000000
-102.907303 0.260602 3.443140 1.000000
-102.907303 0.260602 2.864646 1.000000
-102.907303 0.260606 2.288010 1.000000
-102.907303 0.260606 1.711990 1.000000
-102.907303 0.260604 1.135354 1.000000
-102.907303 0.260604 0.556859 1.000000
-102.984444 0.461573 0.000015 0.224817
-104.382713 4.104664 0.000015 0.233276
-105.275383 6.430444 0.000011 0.207709
-105.895836 8.046972 0.000013 0.218089
-106.352943 9.237940 0.000010 0.247020
-102.946892 0.016670 6.462241 1.000000
-102.946892 0.016668 5.847513 1.000000
-102.946892 0.016670 5.241415 1.000000
-102.946892 0.016674 4.642496 1.000000
-102.946892 0.016672 4.049365 1.000000
-102.946892 0.016674 3.460686 1.000000
-102.946892 0.016670 2.875159 1.000000
-102.946892 0.016676 2.291511 1.000000
-102.946892 0.016676 1.708489 1.000000
-102.946892 0.016672 1.124841 1.000000
-102.946892 0.016676 0.539314 1.000000
-103.097870 0.418404 0.000006 0.230873
-104.470688 4.071185 0.000006 0.232122
-105.347099 6.403148 0.000002 0.247885
-105.956245 8.023977 0.000004 0.244617
-106.405045 9.218112 0.000000 0.207324
-102.987450 -0.233277 6.517382 1.000000
-102.987450 -0.233275 5.895057 1.000000
-102.987457 -0.233273 5.281469 1.000000
-102.987457 -0.233271 4.675149 1.000000
-102.987457 -0.233271 4.074690 1.000000
-102.987457 -0.233273 3.478736 1.000000
-102.987457 -0.233273 2.885973 1.000000
-102.987450 -0.233277 2.295113 1.000000
-102.987450 -0.233277 1.704887 1.000000
-102.987457 -0.233271 1.114027 1.000000
-102.987457 -0.233273 0.521263 1.000000
-103.211647 0.376140 0.000010 0.250096
-104.558922 4.038408 0.000011 0.204537
-105.419029 6.376424 0.000006 0.227220
-106.016853 8.001467 0.000008 0.275183
-106.457291 9.198701 0.000005 0.193003
-103.029037 -0.489491 6.574130 1.000000
-103.029037 -0.489491 5.943987 1.000000
-103.029037 -0.489493 5.322692 1.000000
-103.029037 -0.489491 4.708755 1.000000
-103.029037 -0.489493 4.100753 1.000000
-103.029037 -0.489490 3.497312 1.000000
-103.029037 -0.489490 2.897103 1.000000
-103.029037 -0.489490 2.298821 1.000000
-103.029037 -0.489490 1.701179 1.000000
-103.029037 -0.489490 1.102897 1.000000
-103.029037 -0.489490 0.502687 1.000000
-103.325668 0.334555 0.000001 0.250481
-104.647354 4.006157 0.000002 0.219915
-105.491127 6.350136 -0.000002 0.228662
-106.077591 7.979318 -0.000001 0.211361
-106.509659 9.179608 -0.000003 0.228278
-103.071678 -0.752236 6.632549 1.000000
-103.071678 -0.752236 5.994359 1.000000
-103.071678 -0.752238 5.365129 1.000000
-103.071678 -0.752234 4.743351 1.000000
-103.071678 -0.752238 4.127584 1.000000
-103.071678 -0.752234 3.516435 1.000000
-103.071678 -0.752234 2.908560 1.000000
-103.071678 -0.752234 2.302637 1.000000
-103.071678 -0.752234 1.697363 1.000000
-103.071678 -0.752233 1.091440 1.000000
-103.071678 -0.752233 0.483565 1.000000
-103.440025 0.293886 0.000006 0.227605
-104.736046 3.974618 0.000007 0.205017
-105.563431 6.324420 0.000002 0.215110
-106.138496 7.957655 0.000004 0.237120
-106.562180 9.160927 0.000001 0.204633
-103.115425 -1.021801 6.692713 1.000000
-103.115425 -1.021799 6.046235 1.000000
-103.115425 -1.021795 5.408832 1.000000
-103.115425 -1.021795 4.778980 1.000000
-103.115425 -1.021799 4.155214 1.000000
-103.115425 -1.021797 3.536130 1.000000
-103.115425 -1.021799 2.920360 1.000000
-103.115425 -1.021797 2.306568 1.000000
-103.115425 -1.021795 1.693433 1.000000
-103.115425 -1.021797 1.079640 1.000000
-103.115425 -1.021795 0.463870 1.000000
-103.554665 0.254011 0.000010 0.221838
-104.824944 3.943696 0.000011 0.235679
-105.635895 6.299210 0.000006 0.221838
-106.199562 7.936417 0.000009 0.247982
-106.614830 9.142614 0.000005 0.255959
-103.160324 -1.298463 6.754694 1.000000
-103.160324 -1.298463 6.099676 1.000000
-103.160324 -1.298464 5.453856 1.000000
-103.160324 -1.298463 4.815684 1.000000
-103.160324 -1.298461 4.183681 1.000000
-103.160324 -1.298463 3.556419 1.000000
-103.160324 -1.298461 2.932516 1.000000
-103.160324 -1.298463 2.310616 1.000000
-103.160324 -1.298463 1.689383 1.000000
-103.160324 -1.298461 1.067484 1.000000
-103.160324 -1.298461 0.443581 1.000000
-103.669533 0.214835 0.000002 0.218474
-104.914040 3.913307 0.000002 0.216455
-105.708527 6.274440 -0.000003 0.227316
-106.260750 7.915544 -0.000001 0.197424
-106.667580 9.124619 -0.000004 0.208766
-103.206429 -1.582548 6.818572 1.000000
-103.206429 -1.582550 6.154755 1.000000
-103.206429 -1.582546 5.500257 1.000000
-103.206429 -1.582548 4.853513 1.000000
-103.206429 -1.582548 4.213017 1.000000
-103.206429 -1.582548 3.577329 1.000000
-103.206429 -1.582548 2.945044 1.000000
-103.206429 -1.582550 2.314790 1.000000
-103.206429 -1.582550 1.685210 1.000000
-103.206429 -1.582548 1.054956 1.000000
-103.206429 -1.582546 0.422671 1.000000
-103.784706 0.176557 0.000005 0.237409
-105.003357 3.883631 0.000007 0.217224
-105.781357 6.250247 0.000002 0.192330
-106.322098 7.895166 0.000005 0.198866
-106.720490 9.107042 0.000001 0.247213
-103.253792 -1.874390 6.884432 1.000000
-103.253792 -1.874386 6.211540 1.000000
-103.253792 -1.874384 5.548099 1.000000
-103.253792 -1.874388 4.892514 1.000000
-103.253792 -1.874386 4.243265 1.000000
-103.253792 -1.874384 3.598888 1.000000
-103.253792 -1.874384 2.957961 1.000000
-103.253792 -1.874382 2.319092 1.000000
-103.253792 -1.874382 1.680908 1.000000
-103.253792 -1.874382 1.042039 1.000000
-103.253792 -1.874382 0.401112 1.000000
-103.900154 0.139088 0.000009 0.236736
-105.092888 3.854568 0.000010 0.201461
-105.854340 6.226552 0.000005 0.226644
-106.383583 7.875201 0.000007 0.220973
-106.773499 9.089827 0.000003 0.222703
-103.302467 -2.174332 6.952363 1.000000
-103.302475 -2.174326 6.270113 1.000000
-103.302475 -2.174328 5.597444 1.000000
-103.302475 -2.174328 4.932742 1.000000
-103.302475 -2.174326 4.274463 1.000000
-103.302475 -2.174326 3.621124 1.000000
-103.302475 -2.174326 2.971283 1.000000
-103.302475 -2.174326 2.323530 1.000000
-103.302475 -2.174326 1.676470 1.000000
-103.302475 -2.174326 1.028716 1.000000
-103.302475 -2.174326 0.378876 1.000000
-104.015854 0.102429 0.000013 0.222607
-105.182617 3.826137 0.000014 0.260092
-105.927490 6.203376 0.000010 0.238081
-106.445213 7.855677 0.000012 0.268166
-106.826645 9.072993 0.000008 0.197424
-103.352524 -2.482744 7.022455 1.000000
-103.352524 -2.482742 6.330550 1.000000
-103.352524 -2.482744 5.648360 1.000000
-103.352524 -2.482740 4.974250 1.000000
-103.352524 -2.482742 4.306655 1.000000
-103.352524 -2.482744 3.644069 1.000000
-103.352524 -2.482742 2.985030 1.000000
-103.352524 -2.482742 2.328109 1.000000
-103.352524 -2.482742 1.671891 1.000000
-103.352524 -2.482740 1.014969 1.000000
-103.352524 -2.482742 0.355931 1.000000
-104.131775 0.066474 0.000005 0.248462
-105.272522 3.798249 0.000006 0.205113
-106.000786 6.180637 0.000000 0.217993
-106.506958 7.836521 0.000002 0.272684
-106.879883 9.056480 -0.000001 0.242503
-103.404015 -2.800028 7.094812 1.000000
-103.404015 -2.800030 6.392940 1.000000
-103.404015 -2.800030 5.700922 1.000000
-103.404015 -2.800032 5.017100 1.000000
-103.404015 -2.800030 4.339886 1.000000
-103.404015 -2.800030 3.667755 1.000000
-103.404015 -2.800030 2.999222 1.000000
-103.404015 -2.800028 2.332836 1.000000
-103.404015 -2.800028 1.667164 1.000000
-103.404015 -2.800028 1.000778 1.000000
-103.404015 -2.800028 0.332245 1.000000
-104.247978 0.031431 0.000009 0.216936
-105.362648 3.771078 0.000010 0.230296
-106.074249 6.158487 0.000005 0.199923
-106.568855 7.817863 0.000008 0.206075
-106.933243 9.040388 0.000004 0.208478
-103.457016 -3.126606 7.169542 1.000000
-103.457016 -3.126604 6.457374 1.000000
-103.457016 -3.126608 5.755205 1.000000
-103.457016 -3.126606 5.061353 1.000000
-103.457016 -3.126608 4.374207 1.000000
-103.457016 -3.126606 3.692217 1.000000
-103.457016 -3.126604 3.013878 1.000000
-103.457016 -3.126606 2.337718 1.000000
-103.457016 -3.126606 1.662282 1.000000
-103.457016 -3.126604 0.986122 1.000000
-103.457016 -3.126604 0.307783 1.000000
-104.364388 -0.002911 -0.000001 0.229912
-105.452919 3.744450 0.000002 0.257209
-106.147850 6.136773 -0.000005 0.250577
-106.630859 7.799570 -0.000002 0.225394
-106.986717 9.024614 -0.000006 0.204729
-103.511597 -3.462932 7.246757 1.000000
-103.511597 -3.462934 6.523952 1.000000
-103.511597 -3.462932 5.811295 1.000000
-103.511597 -3.462934 5.107079 1.000000
-103.511597 -3.462932 4.409670 1.000000
-103.511597 -3.462930 3.717492 1.000000
-103.511597 -3.462932 3.029022 1.000000
-103.511597 -3.462930 2.342762 1.000000
-103.511597 -3.462928 1.657238 1.000000
-103.511597 -3.462930 0.970978 1.000000
-103.511597 -3.462928 0.282507 1.000000
-104.481071 -0.036323 0.000004 0.228085
-105.543419 3.718534 0.000006 0.210304
-106.221619 6.115654 0.000001 0.253268
-106.693008 7.781774 0.000003 0.219819
-107.040298 9.009272 -0.000001 0.196271
-103.567833 -3.809469 7.326576 1.000000
-103.567833 -3.809467 6.592774 1.000000
-103.567833 -3.809467 5.869276 1.000000
-103.567833 -3.809467 5.154346 1.000000
-103.567833 -3.809469 4.446327 1.000000
-103.567833 -3.809465 3.743620 1.000000
-103.567833 -3.809467 3.044676 1.000000
-103.567833 -3.809467 2.347977 1.000000
-103.567833 -3.809465 1.652023 1.000000
-103.567833 -3.809467 0.955324 1.000000
-103.567833 -3.809463 0.256379 1.000000
-104.597984 -0.068912 0.000009 0.225106
-105.634087 3.693257 0.000011 0.240100
-106.295540 6.095044 0.000005 0.261534
-106.755287 7.764416 0.000008 0.196559
-107.093994 8.994302 0.000003 0.206747
-103.625816 -4.166726 7.409129 1.000000
-103.625816 -4.166726 6.663954 1.000000
-103.625816 -4.166722 5.929242 1.000000
-103.625816 -4.166720 5.203233 1.000000
-103.625816 -4.166722 4.484241 1.000000
-103.625816 -4.166722 3.770643 1.000000
-103.625816 -4.166722 3.060867 1.000000
-103.625816 -4.166720 2.353369 1.000000
-103.625816 -4.166720 1.646631 1.000000
-103.625816 -4.166722 0.939133 1.000000
-103.625816 -4.166720 0.229356 1.000000
-104.715088 -0.100806 0.000000 0.252595
-105.724907 3.668526 0.000002 0.238562
-106.369576 6.074880 -0.000004 0.231161
-106.817657 7.747427 -0.000001 0.215879
-107.147781 8.979653 -0.000006 0.248366
-103.685623 -4.535255 7.494551 1.000000
-103.685623 -4.535250 6.737610 1.000000
-103.685623 -4.535252 5.991295 1.000000
-103.685623 -4.535250 5.253821 1.000000
-103.685623 -4.535252 4.523474 1.000000
-103.685623 -4.535250 3.798606 1.000000
-103.685623 -4.535250 3.077620 1.000000
-103.685623 -4.535248 2.358950 1.000000
-103.685623 -4.535248 1.641050 1.000000
-103.685623 -4.535248 0.922379 1.000000
-103.685623 -4.535248 0.201393 1.000000
-104.832443 -0.131763 0.000005 0.260861
-105.815918 3.644516 0.000007 0.260573
-106.443771 6.055306 0.000000 0.224241
-106.880165 7.730940 0.000004 0.202614
-107.201675 8.965435 -0.000001 0.231257
-103.747353 -4.915627 7.582994 1.000000
-103.747353 -4.915629 6.813868 1.000000
-103.747353 -4.915629 6.055541 1.000000
-103.747353 -4.915629 5.306196 1.000000
-103.747353 -4.915623 4.564093 1.000000
-103.747353 -4.915627 3.827557 1.000000
-103.747353 -4.915625 3.094966 1.000000
-103.747353 -4.915625 2.364728 1.000000
-103.747353 -4.915625 1.635272 1.000000
-103.747353 -4.915625 0.905033 1.000000
-103.747353 -4.915625 0.172442 1.000000
-104.949982 -0.162026 -0.000005 0.233180
-105.907082 3.621053 -0.000002 0.227797
-106.518089 6.036175 -0.000008 0.247597
-106.942780 7.714822 -0.000005 0.247405
-107.255661 8.951544 -0.000009 0.245290
-103.811104 -5.308465 7.674611 1.000000
-103.811104 -5.308465 6.892863 1.000000
-103.811104 -5.308465 6.122092 1.000000
-103.811104 -5.308467 5.360450 1.000000
-103.811104 -5.308465 4.606169 1.000000
-103.811104 -5.308464 3.857547 1.000000
-103.811111 -5.308467 3.112935 1.000000
-103.811111 -5.308467 2.370714 1.000000
-103.811111 -5.308467 1.629287 1.000000
-103.811104 -5.308465 0.887065 1.000000
-103.811104 -5.308464 0.142452 1.000000
-105.067757 -0.191339 0.000000 0.222414
-105.998413 3.598294 -0.000001 0.237889
-106.592552 6.017641 -0.000004 0.206555
-107.005508 7.699207 -0.000000 0.219915
-107.309746 8.938073 -0.000006 0.241638
-103.876991 -5.714437 7.769571 1.000000
-103.876991 -5.714427 6.974741 1.000000
-103.876991 -5.714430 6.191072 1.000000
-103.876991 -5.714435 5.416685 1.000000
-103.876991 -5.714428 4.649780 1.000000
-103.876991 -5.714430 3.888632 1.000000
-103.876991 -5.714433 3.131559 1.000000
-103.876991 -5.714433 2.376917 1.000000
-103.876991 -5.714433 1.623083 1.000000
-103.876991 -5.714431 0.868441 1.000000
-103.876991 -5.714428 0.111367 1.000000
-105.185753 -0.219775 0.000012 0.209631
-106.089920 3.576246 0.000011 0.226355
-106.667152 5.999661 0.000008 0.237216
-107.068359 7.684058 0.000011 0.234717
-107.363945 8.925014 0.000006 0.230873
-103.945122 -6.134217 7.868046 1.000000
-103.945122 -6.134236 7.059657 1.000000
-103.945122 -6.134234 6.262610 1.000000
-103.945122 -6.134236 5.475005 1.000000
-103.945122 -6.134233 4.695011 1.000000
-103.945122 -6.134230 3.920869 1.000000
-103.945122 -6.134233 3.150874 1.000000
-103.945122 -6.134230 2.383350 1.000000
-103.945122 -6.134230 1.616650 1.000000
-103.945122 -6.134230 0.849126 1.000000
-103.945122 -6.134228 0.079130 1.000000
-105.303902 -0.247569 0.000002 0.223760
-106.181549 3.554690 0.000002 0.214533
-106.741852 5.982092 -0.000002 0.217128
-107.131287 7.669244 -0.000001 0.234814
-107.418198 8.912251 -0.000003 0.197520
-104.015633 -6.568599 7.970240 1.000000
-104.015617 -6.568638 7.147775 1.000000
-104.015617 -6.568638 6.336848 1.000000
-104.015617 -6.568638 5.535525 1.000000
-104.015617 -6.568642 4.741948 1.000000
-104.015617 -6.568636 3.954324 1.000000
-104.015617 -6.568636 3.170917 1.000000
-104.015617 -6.568638 2.390027 1.000000
-104.015617 -6.568638 1.609973 1.000000
-104.015617 -6.568636 0.829082 1.000000
-104.015625 -6.568634 0.045676 1.000000
-105.422272 -0.274410 0.000007 0.223664
-106.273346 3.533873 0.000007 0.233660
-106.816689 5.965119 0.000003 0.233852
-107.194328 7.654946 0.000004 0.225586
-107.472565 8.899923 0.000001 0.274414
-104.088631 -7.018448 8.076370 1.000000
-104.088623 -7.018466 7.239278 1.000000
-104.088623 -7.018466 6.413937 1.000000
-104.088623 -7.018466 5.598371 1.000000
-104.088623 -7.018466 4.790687 1.000000
-104.088623 -7.018466 3.989062 1.000000
-104.088623 -7.018467 3.191730 1.000000
-104.088623 -7.018466 2.396960 1.000000
-104.088623 -7.018466 1.603040 1.000000
-104.088623 -7.018466 0.808269 1.000000
-104.088623 -7.018464 0.010937 1.000000
-105.540840 -0.300329 0.000023 0.224048
-106.365288 3.513696 0.000012 0.244233
-106.891640 5.948669 0.000008 0.236640
-107.257477 7.641090 0.000009 0.240388
-107.527016 8.888017 0.000017 0.217705
-104.164276 -7.484568 8.186638 1.000000
-104.164276 -7.484601 7.334359 1.000000
-104.164276 -7.484601 6.494040 1.000000
-104.164276 -7.484600 5.663673 1.000000
-104.164276 -7.484598 4.841330 1.000000
-104.164276 -7.484598 4.025159 1.000000
-104.164276 -7.484598 3.213357 1.000000
-104.164276 -7.484598 2.404163 1.000000
-104.164276 -7.484598 1.595836 1.000000
-104.164276 -7.484595 0.786642 1.000000
-104.227028 -7.184153 0.000007 0.229912
-105.659538 -0.325639 0.000014 0.216551
-106.457344 3.494069 0.000002 0.248558
-106.966682 5.932667 -0.000002 0.212034
-107.320702 7.627609 -0.000001 0.264321
-107.581528 8.876393 0.000008 0.275567
-104.242729 -7.967955 8.301298 1.000000
-104.242722 -7.967980 7.433222 1.000000
-104.242722 -7.967982 6.577329 1.000000
-104.242722 -7.967984 5.731572 1.000000
-104.242722 -7.967982 4.893990 1.000000
-104.242722 -7.967982 4.062693 1.000000
-104.242714 -7.967986 3.235846 1.000000
-104.242722 -7.967982 2.411654 1.000000
-104.242722 -7.967982 1.588346 1.000000
-104.242722 -7.967984 0.764154 1.000000
-104.393845 -7.218325 0.000012 0.221549
-105.778442 -0.350000 0.000019 0.234045
-106.549553 3.475173 0.000007 0.203095
-107.041855 5.917264 0.000003 0.233372
-107.384033 7.614634 0.000004 0.254614
-107.636139 8.865203 0.000012 0.188870
-104.324135 -8.469619 8.420607 1.000000
-104.324142 -8.469617 7.536089 1.000000
-104.324135 -8.469645 6.663997 1.000000
-104.324135 -8.469643 5.802226 1.000000
-104.324135 -8.469646 4.948785 1.000000
-104.324135 -8.469645 4.101747 1.000000
-104.324135 -8.469643 3.259244 1.000000
-104.324135 -8.469645 2.419448 1.000000
-104.324135 -8.469645 1.580551 1.000000
-104.324142 -8.469641 0.740755 1.000000
-104.560867 -7.251503 0.000003 0.223183
-105.897476 -0.373649 0.000009 0.228758
-106.641884 3.456839 -0.000002 0.214821
-107.117126 5.902317 -0.000006 0.217032
-107.447449 7.602041 -0.000005 0.233180
-107.690811 8.854344 0.000003 0.250000
-104.408707 -8.990676 8.544847 1.000000
-104.408707 -8.990676 7.643215 1.000000
-104.408699 -8.990711 6.754246 1.000000
-104.408699 -8.990714 5.875800 1.000000
-104.408699 -8.990704 5.005844 1.000000
-104.408699 -8.990705 4.142416 1.000000
-104.408699 -8.990705 3.283612 1.000000
-104.408699 -8.990707 2.427565 1.000000
-104.408699 -8.990707 1.572435 1.000000
-104.408699 -8.990704 0.716388 1.000000
-104.728149 -7.283347 0.000008 0.225202
-106.016716 -0.396343 0.000014 0.246540
-106.734344 3.439240 0.000003 0.258266
-107.192505 5.887961 -0.000002 0.217801
-107.510948 7.589954 0.000001 0.255575
-107.745567 8.843917 0.000007 0.211553
-104.496613 -9.532328 8.674322 1.000000
-104.496613 -9.532324 7.754852 1.000000
-104.496605 -9.532353 6.848297 1.000000
-104.496605 -9.532359 5.952475 1.000000
-104.496605 -9.532357 5.065309 1.000000
-104.496605 -9.532357 4.184799 1.000000
-104.496605 -9.532355 3.309005 1.000000
-104.496605 -9.532357 2.436024 1.000000
-104.496605 -9.532357 1.563977 1.000000
-104.496605 -9.532355 0.690995 1.000000
-104.895645 -7.314012 0.000013 0.222318
-106.136101 -0.418204 0.000019 0.242311
-106.826942 3.422286 0.000008 0.231546
-107.267990 5.874144 0.000004 0.230104
-107.574547 7.578310 0.000006 0.233564
-107.800400 8.833880 0.000013 0.240292
-104.588066 -10.095856 8.809359 1.000000
-104.588058 -10.095863 7.871288 1.000000
-104.588058 -10.095894 6.946391 1.000000
-104.588058 -10.095896 6.032444 1.000000
-104.588058 -10.095892 5.127327 1.000000
-104.588058 -10.095894 4.229003 1.000000
-104.588058 -10.095894 3.335490 1.000000
-104.588058 -10.095894 2.444845 1.000000
-104.588058 -10.095894 1.555155 1.000000
-104.588058 -10.095892 0.664510 1.000000
-105.063324 -7.343689 0.000003 0.217416
-106.255608 -0.439356 0.000010 0.222126
-106.919632 3.405885 -0.000000 0.225875
-107.343559 5.860829 0.000005 0.248078
-107.638199 7.567041 -0.000004 0.273549
-107.855286 8.824167 0.000004 0.208862
-104.683304 -10.682695 8.950321 1.000000
-104.683304 -10.682695 7.992829 1.000000
-104.683304 -10.682717 7.048784 1.000000
-104.683296 -10.682730 6.115918 1.000000
-104.683304 -10.682726 5.192065 1.000000
-104.683304 -10.682726 4.275146 1.000000
-104.683296 -10.682730 3.363135 1.000000
-104.683304 -10.682726 2.454053 1.000000
-104.683304 -10.682726 1.545946 1.000000
-104.683296 -10.682728 0.636864 1.000000
-105.231239 -7.372023 0.000009 0.235486
-106.375290 -0.459545 0.000015 0.228854
-107.012444 3.390222 0.000004 0.207612
-107.419228 5.848061 0.000010 0.211361
-107.701950 7.556284 0.000001 0.290273
-107.910255 8.814895 0.000009 0.231546
-104.782570 -11.294403 9.097600 1.000000
-104.782570 -11.294403 8.119822 1.000000
-104.782570 -11.294423 7.155771 1.000000
-104.782570 -11.294419 6.203134 1.000000
-104.782570 -11.294419 5.259706 1.000000
-104.782570 -11.294419 4.323356 1.000000
-104.782570 -11.294419 3.392020 1.000000
-104.782570 -11.294419 2.463675 1.000000
-104.782570 -11.294419 1.536325 1.000000
-104.782570 -11.294419 0.607979 1.000000
-105.399315 -7.399354 -0.000000 0.225971
-106.495079 -0.479031 0.000005 0.224817
-107.105347 3.375114 -0.000005 0.209823
-107.494965 5.835747 0.000001 0.233276
-107.765762 7.545899 -0.000011 0.223568
-107.965271 8.805940 -0.000002 0.232218
-104.886147 -11.932568 9.251606 1.000000
-104.886139 -11.932573 8.252609 1.000000
-104.886139 -11.932595 7.267642 1.000000
-104.886139 -11.932611 6.294338 1.000000
-104.886139 -11.932611 5.330439 1.000000
-104.886139 -11.932608 4.373771 1.000000
-104.886139 -11.932606 3.422225 1.000000
-104.886139 -11.932608 2.473737 1.000000
-104.886139 -11.932608 1.526263 1.000000
-104.886139 -11.932606 0.577774 1.000000
-105.567604 -7.425333 0.000005 0.213956
-106.615036 -0.497549 0.000010 0.224625
-107.198380 3.360754 0.000000 0.250769
-107.570808 5.824040 0.000006 0.232411
-107.829651 7.536036 -0.000005 0.224145
-108.020363 8.797431 0.000002 0.198962
-104.994324 -12.599126 9.412825 1.000000
-104.994324 -12.599126 8.391616 1.000000
-104.994324 -12.599120 7.384746 1.000000
-104.994308 -12.599168 6.389809 1.000000
-104.994308 -12.599168 5.404481 1.000000
-104.994316 -12.599162 4.426543 1.000000
-104.994308 -12.599168 3.453845 1.000000
-104.994308 -12.599168 2.484269 1.000000
-104.994308 -12.599168 1.515731 1.000000
-104.994308 -12.599166 0.546155 1.000000
-105.736076 -7.450136 0.000010 0.234814
-106.735115 -0.515230 0.000015 0.219050
-107.291496 3.347021 0.000002 0.237216
-107.646729 5.812864 0.000012 0.226740
-107.893608 7.526615 -0.000001 0.197712
-108.075516 8.789312 0.000008 0.213476
-105.107414 -13.296055 9.581758 1.000000
-105.107414 -13.296026 8.537271 1.000000
-105.107414 -13.296033 7.507458 1.000000
-105.107414 -13.296033 6.489841 1.000000
-105.107414 -13.296062 5.482062 1.000000
-105.107414 -13.296064 4.481841 1.000000
-105.107414 -13.296059 3.486975 1.000000
-105.107414 -13.296059 2.495304 1.000000
-105.107414 -13.296059 1.504696 1.000000
-105.107414 -13.296059 0.513024 1.000000
-105.904709 -7.473809 0.000011 0.225586
-106.855301 -0.532111 0.000016 0.237409
-107.384712 3.333932 0.000003 0.254806
-107.722717 5.802192 0.000012 0.234045
-107.957626 7.517622 -0.000000 0.269704
-108.130714 8.781555 0.000007 0.246540
-105.225792 -14.025434 9.758934 1.000000
-105.225792 -14.025408 8.690040 1.000000
-105.225792 -14.025408 7.636161 1.000000
-105.225792 -14.025410 6.594763 1.000000
-105.225792 -14.025476 5.563438 1.000000
-105.225792 -14.025471 4.539841 1.000000
-105.225792 -14.025469 3.521725 1.000000
-105.225792 -14.025473 2.506880 1.000000
-105.225792 -14.025471 1.493120 1.000000
-105.225792 -14.025467 0.478274 1.000000
-106.073479 -7.496454 0.000001 0.217320
-106.975586 -0.548232 0.000007 0.232315
-107.478004 3.321431 -0.000005 0.237409
-107.798775 5.791995 0.000003 0.195117
-108.021698 7.509038 -0.000008 0.254710
-108.185959 8.774152 -0.000002 0.195502
-105.349838 -14.789828 9.945004 1.000000
-105.349846 -14.789804 8.850477 1.000000
-105.349846 -14.789808 7.771326 1.000000
-105.349846 -14.789803 6.704950 1.000000
-105.349838 -14.789848 5.648890 1.000000
-105.349846 -14.789843 4.600748 1.000000
-105.349838 -14.789848 3.558218 1.000000
-105.349846 -14.789841 2.519034 1.000000
-105.349846 -14.789841 1.480965 1.000000
-105.349846 -14.789846 0.441782 1.000000
-106.242432 -7.517720 0.000006 0.227413
-107.096016 -0.563397 0.000012 0.231257
-107.571396 3.309668 -0.000000 0.224721
-107.874901 5.782406 0.000008 0.216647
-108.085838 7.500964 -0.000003 0.193579
-108.241257 8.767185 0.000003 0.231642
-105.479996 -15.591816 10.140620 1.000000
-105.479996 -15.591787 9.019146 1.000000
-105.479996 -15.591791 7.913422 1.000000
-105.479996 -15.591796 6.820795 1.000000
-105.479988 -15.591828 5.738731 1.000000
-105.479988 -15.591828 4.664782 1.000000
-105.479996 -15.591832 3.596583 1.000000
-105.479996 -15.591830 2.531814 1.000000
-105.479996 -15.591830 1.468186 1.000000
-105.479996 -15.591832 0.403416 1.000000
-106.411522 -7.537814 0.000012 0.217416
-107.216537 -0.577724 0.000017 0.252211
-107.664871 3.298556 0.000004 0.233660
-107.951103 5.773335 0.000010 0.217320
-108.150040 7.493332 0.000002 0.248078
-108.296616 8.760594 0.000004 0.207997
-105.616730 -16.434284 10.346520 1.000000
-105.616730 -16.434252 9.196679 1.000000
-105.616730 -16.434259 8.062988 1.000000
-105.616730 -16.434252 6.942725 1.000000
-105.616730 -16.434261 5.833290 1.000000
-105.616722 -16.434328 4.732184 1.000000
-105.616722 -16.434326 3.636966 1.000000
-105.616722 -16.434330 2.545265 1.000000
-105.616722 -16.434330 1.454734 1.000000
-105.616722 -16.434322 0.363034 1.000000
-106.580734 -7.556901 0.000002 0.215879
-107.337135 -0.591350 0.000005 0.235871
-107.758408 3.288013 -0.000005 0.207901
-108.027359 5.764738 0.000001 0.214821
-108.214287 7.486135 0.000003 0.207228
-108.352005 8.754354 -0.000003 0.247405
-105.760559 -17.320566 10.563544 1.000000
-105.760559 -17.320566 9.383811 1.000000
-105.760567 -17.320562 8.220640 1.000000
-105.760559 -17.320559 7.071247 1.000000
-105.760567 -17.320562 5.932964 1.000000
-105.760559 -17.320614 4.803225 1.000000
-105.760559 -17.320614 3.679530 1.000000
-105.760559 -17.320604 2.559443 1.000000
-105.760559 -17.320604 1.440557 1.000000
-105.760559 -17.320608 0.320470 1.000000
-106.750092 -7.574620 0.000008 0.228374
-107.457848 -0.603985 0.000010 0.236544
-107.852020 3.278214 0.000001 0.227413
-108.103676 5.756747 0.000006 0.212995
-108.278580 7.479402 0.000008 0.218858
-108.407440 8.748549 0.000002 0.197905
-105.912086 -18.254196 10.792589 1.000000
-105.912086 -18.254202 9.581303 1.000000
-105.912079 -18.254230 8.387028 1.000000
-105.912079 -18.254192 7.206887 1.000000
-105.912086 -18.254192 6.038159 1.000000
-105.912079 -18.254250 4.878202 1.000000
-105.912079 -18.254246 3.724452 1.000000
-105.912079 -18.254250 2.574406 1.000000
-105.912079 -18.254250 1.425593 1.000000
-105.912079 -18.254246 0.275548 1.000000
-106.919563 -7.591342 -0.000001 0.219723
-107.578636 -0.615901 0.000002 0.222511
-107.945694 3.268971 -0.000008 0.203287
-108.180038 5.749212 -0.000002 0.207324
-108.342918 7.473064 0.000001 0.214245
-108.462914 8.743076 -0.000007 0.263745
-106.071938 -19.239218 11.034683 1.000000
-106.071945 -19.239214 9.790045 1.000000
-106.071938 -19.239246 8.562887 1.000000
-106.071938 -19.239202 7.350251 1.000000
-106.071938 -19.239206 6.149343 1.000000
-106.071930 -19.239267 4.957451 1.000000
-106.071930 -19.239267 3.771934 1.000000
-106.071930 -19.239267 2.590223 1.000000
-106.071930 -19.239267 1.409777 1.000000
-106.071938 -19.239264 0.228067 1.000000
-107.089149 -7.606767 -0.000001 0.220588
-107.699501 -0.626897 0.000001 0.246828
-108.039436 3.260441 -0.000008 0.207805
-108.256462 5.742260 -0.000003 0.183775
-108.407303 7.467207 0.000001 0.227413
-108.518425 8.738065 0.000003 0.276528
-106.240860 -20.280050 11.290949 1.000000
-106.240860 -20.280048 10.011006 1.000000
-106.240852 -20.280075 8.749041 1.000000
-106.240860 -20.280050 7.502011 1.000000
-106.240852 -20.280045 6.267037 1.000000
-106.240860 -20.280045 5.041332 1.000000
-106.240852 -20.280107 3.822194 1.000000
-106.240852 -20.280104 2.606964 1.000000
-106.240852 -20.280104 1.393036 1.000000
-106.240852 -20.280104 0.177806 1.000000
-107.258835 -7.620972 0.000002 0.229335
-107.820457 -0.637002 0.000006 0.246444
-108.133247 3.252680 0.000008 0.253749
-108.332932 5.735870 0.000002 0.235775
-108.471725 7.461825 0.000006 0.209631
-108.573975 8.733421 0.000007 0.205210
-106.419640 -21.381725 11.562657 1.000000
-106.419640 -21.381701 10.245281 1.000000
-106.419640 -21.381737 8.946410 1.000000
-106.419640 -21.381695 7.662911 1.000000
-106.419640 -21.381695 6.391824 1.000000
-106.419640 -21.381701 5.130274 1.000000
-106.419640 -21.381765 3.875482 1.000000
-106.419640 -21.381765 2.624714 1.000000
-106.419640 -21.381765 1.375286 1.000000
-106.419640 -21.381762 0.124518 1.000000
-107.428619 -7.633966 0.000007 0.230392
-107.941475 -0.646258 0.000012 0.240388
-108.227097 3.245503 0.000014 0.221934
-108.409447 5.730000 0.000004 0.194637
-108.536179 7.456877 0.000008 0.210977
-108.629555 8.729174 0.000014 0.267013
-106.609215 -22.549845 11.851237 1.000000
-106.609222 -22.549812 10.494101 1.000000
-106.609215 -22.549841 9.156035 1.000000
-106.609222 -22.549809 7.833803 1.000000
-106.609215 -22.549805 6.524358 1.000000
-106.609215 -22.549816 5.224738 1.000000
