# This PCD file was generated using the MATLABÂ® pcwrite function
# from Computer Vision ToolboxÂ®.
# .PCD v.7 - Point Cloud Data file format
VERSION .7
FIELDS x y z intensity
SIZE 4 4 4 4
TYPE F F F F
COUNT 1 1 1 1
WIDTH 1282
HEIGHT 1
VIEWPOINT 0 0 0 1 0 0 0
POINTS 1282
DATA ascii
nan nan nan 0.000000
81.520744 -88.430054 9.140364 0.395956
80.537895 -87.229851 8.297812 0.400245
82.321114 -89.407417 6.716660 0.405392
80.107628 -86.704422 6.059881 0.408456
81.276398 -88.131668 4.742422 0.404412
57.600063 -59.219372 5.478952 1.000000
57.600086 -59.219402 3.158821 1.000000
57.600086 -59.219402 0.841178 1.000000
76.675583 -82.513397 0.000155 0.227605
87.013420 -95.137421 0.000050 0.218281
91.452690 -100.558426 0.000099 0.216551
93.924606 -103.576996 0.000026 0.234237
95.503120 -105.504593 0.000070 0.224337
96.599716 -106.843704 -0.000066 0.209150
97.408134 -107.830902 -0.000007 0.200788
nan nan nan 0.000000
81.705017 -88.290886 9.138579 0.390441
81.618309 -88.183479 8.039158 0.374387
nan nan nan 0.000000
80.759972 -87.120270 5.975419 0.434191
81.923805 -88.561890 4.681561 0.408456
58.333481 -59.340813 5.451592 1.000000
58.333488 -59.340813 3.149709 1.000000
58.333488 -59.340813 0.850291 1.000000
76.895584 -82.333488 0.000115 0.226836
87.145256 -95.029640 0.000012 0.228374
91.546638 -100.481590 0.000059 0.224048
93.997948 -103.518005 0.000101 0.215013
95.561928 -105.455292 -0.000139 0.238274
96.649788 -106.802811 -0.000096 0.202326
97.451317 -107.795647 -0.000037 0.201269
81.336960 -87.457855 10.499606 0.406250
82.113823 -88.434021 9.059236 0.402696
81.619370 -87.812698 8.091678 0.400490
82.240158 -88.592758 6.818233 0.406005
81.075951 -87.129883 5.951820 0.408088
82.030693 -88.329552 4.690945 0.375858
80.261879 -86.106979 3.751804 0.404902
59.055473 -59.460339 3.140795 1.000000
59.055473 -59.460339 0.859207 1.000000
77.117073 -82.155411 0.000095 0.226259
87.278267 -94.923317 0.000031 0.237120
91.641411 -100.405777 0.000074 0.233852
94.071465 -103.459229 0.000118 0.230104
95.621887 -105.407394 -0.000117 0.237601
96.700279 -106.762436 -0.000080 0.262495
97.494751 -107.760712 -0.000061 0.267205
82.134361 -88.090508 10.251432 0.405147
82.245728 -88.232452 9.075729 0.404167
82.464935 -88.511887 7.896470 0.422304
80.822128 -86.417801 7.201782 0.401838
81.208321 -86.910080 5.962219 0.413113
80.540726 -86.059090 4.912760 0.407476
80.702049 -86.264740 3.732316 0.401471
59.766388 -59.578041 3.132071 1.000000
59.766388 -59.578041 0.867929 1.000000
77.339394 -81.978340 0.000040 0.227509
87.411461 -94.817230 -0.000023 0.230777
91.736382 -100.330208 0.000026 0.231738
94.145096 -103.400604 0.000067 0.214917
95.681931 -105.359596 -0.000168 0.260092
96.750900 -106.722206 -0.000119 0.202807
97.538368 -107.725998 -0.000110 0.255671
81.938805 -87.461678 10.405800 0.411397
82.527458 -88.222908 9.039967 0.407843
82.594452 -88.309555 7.911034 0.407966
82.644257 -88.373947 6.806772 0.408211
81.341537 -86.689293 5.972841 0.416544
80.730499 -85.899109 4.913547 0.407353
80.812294 -86.004875 3.739060 0.406740
81.859581 -87.359222 2.551258 0.386152
81.853302 -87.351105 1.448575 0.389583
81.948143 -87.473740 0.352159 0.384069
87.545540 -94.712250 -0.000058 0.229912
91.831940 -100.255386 -0.000010 0.230296
94.219231 -103.342606 0.000036 0.240484
95.742371 -105.312309 -0.000198 0.233660
96.801697 -106.682220 -0.000192 0.281238
97.582283 -107.691658 -0.000135 0.219435
nan nan nan 0.000000
82.702698 -88.077431 9.041842 0.390196
82.573662 -87.908134 7.971274 0.404289
82.903214 -88.340508 6.787315 0.397304
61.156239 -59.808105 9.839869 1.000000
82.001137 -87.156960 4.768292 0.368750
82.054047 -87.226387 3.654311 0.376961
82.051262 -87.222733 2.551119 0.368015
82.049911 -87.220955 1.448845 0.360294
82.121132 -87.314407 0.351125 0.367892
87.680779 -94.608765 -0.000037 0.227797
91.928322 -100.181602 0.000010 0.207997
94.293945 -103.285339 0.000047 0.222414
95.803314 -105.265663 -0.000177 0.266724
96.853043 -106.642921 -0.000170 0.234621
97.626465 -107.657669 -0.000152 0.227701
82.515305 -87.449005 10.320786 0.403676
82.896194 -87.956032 9.037533 0.396446
81.617981 -86.254494 8.316145 0.400000
82.834366 -87.873734 6.848693 0.409804
83.173569 -88.325287 5.695391 0.408456
83.357292 -88.569855 4.608809 0.398529
81.918915 -86.655090 3.680699 0.372426
61.835808 -59.920624 3.107002 1.000000
61.835808 -59.920624 0.893000 1.000000
78.016449 -81.460159 0.000103 0.225106
87.817856 -94.507721 0.000139 0.228566
92.025543 -100.108955 0.000093 0.225490
94.369339 -103.228996 0.000131 0.252018
95.865074 -105.220100 -0.000007 0.261822
96.904831 -106.604233 -0.000084 0.245386
97.671089 -107.624268 -0.000077 0.253749
nan nan nan 0.000000
83.220924 -88.012352 8.985853 0.397304
nan nan nan 0.000000
82.567032 -87.129135 6.960938 0.400980
62.505489 -60.031467 9.726095 1.000000
83.803238 -88.798904 4.571894 0.395098
83.278633 -88.090309 3.584243 0.406495
62.505524 -60.031513 3.098993 1.000000
62.505524 -60.031517 0.901006 1.000000
78.242889 -81.288391 -0.000011 0.224241
87.953499 -94.404770 0.000021 0.223664
92.121262 -100.034271 -0.000211 0.227509
94.443619 -103.171150 -0.000160 0.239523
95.926239 -105.173752 -0.000114 0.212130
96.956345 -106.565155 -0.000198 0.212707
97.715523 -107.590591 -0.000186 0.189735
82.523972 -86.673958 10.475530 0.419485
83.350479 -87.806801 9.005054 0.403186
82.563812 -86.728577 8.144405 0.398039
83.495972 -88.006218 6.774501 0.405147
83.814041 -88.442169 5.640742 0.397794
83.907440 -88.570183 4.581946 0.400490
63.165642 -60.140785 5.275809 1.000000
63.165646 -60.140793 3.091156 1.000000
63.165646 -60.140793 0.908845 1.000000
78.473137 -81.121742 0.000091 0.223760
88.091446 -94.304932 0.000123 0.225010
92.219643 -99.963173 -0.000099 0.222414
94.519875 -103.115952 -0.000060 0.235390
95.988419 -105.128784 -0.000007 0.224914
97.008972 -106.527588 -0.000006 0.209246
97.760948 -107.558266 0.000028 0.190119
nan nan nan 0.000000
83.507423 -87.637215 9.014835 0.410784
82.702003 -86.516937 8.160846 0.399755
63.816414 -60.248497 11.821569 1.000000
83.745590 -87.968475 5.689496 0.410539
63.816425 -60.248520 7.429044 1.000000
83.796730 -88.039612 3.571252 0.402574
63.816433 -60.248531 3.083482 1.000000
63.816433 -60.248531 0.916519 1.000000
78.703529 -80.955353 0.000109 0.227797
88.229492 -94.205254 0.000143 0.224529
92.318016 -99.892082 -0.000084 0.217513
94.596191 -103.060844 -0.000040 0.195982
96.050636 -105.083862 0.000013 0.194829
97.061386 -106.489746 0.000015 0.215590
97.806122 -107.525612 0.000043 0.215302
nan nan nan 0.000000
84.029823 -87.982376 8.888611 0.409681
82.869232 -86.344070 8.168772 0.405882
83.990540 -87.926926 6.741225 0.400368
81.988419 -85.100693 6.075466 0.407108
82.295837 -85.534653 4.861182 0.406740
83.074387 -86.633667 3.648088 0.402206
64.458183 -60.354782 3.075966 1.000000
64.458183 -60.354782 0.924035 1.000000
78.934212 -80.789345 0.000054 0.227989
88.367722 -94.105804 0.000090 0.221069
92.416580 -99.821236 -0.000132 0.211745
94.672615 -103.005882 -0.000090 0.224817
96.112793 -105.038857 -0.000082 0.215590
97.113861 -106.451988 -0.000038 0.229143
97.851387 -107.493088 -0.000004 0.208285
nan nan nan 0.000000
84.010590 -87.565788 8.964602 0.403431
83.076149 -86.226990 8.164543 0.397181
82.821777 -85.862556 7.091439 0.398039
84.164513 -87.786316 5.678737 0.405392
82.474319 -85.364746 4.864161 0.406618
83.589661 -86.962708 3.620305 0.397794
65.091103 -60.459560 3.068606 1.000000
65.091103 -60.459560 0.931394 1.000000
79.166893 -80.626144 0.000072 0.225010
88.507126 -94.008041 0.000108 0.229527
92.515961 -99.751549 -0.000114 0.232026
94.749542 -102.951630 -0.000110 0.215110
96.175613 -104.994789 -0.000066 0.218858
97.166748 -106.414803 -0.000038 0.229719
97.896935 -107.460960 -0.000023 0.202710
nan nan nan 0.000000
nan nan nan 0.000000
83.195145 -85.982605 8.188765 0.407353
83.308037 -86.146782 7.015707 0.403799
83.788261 -86.845154 5.792387 0.401103
82.548279 -85.041901 4.882467 0.399877
83.525810 -86.463478 3.642251 0.396569
65.715454 -60.562920 3.061398 1.000000
65.715454 -60.562920 0.938603 1.000000
79.400192 -80.463844 0.000044 0.224529
88.646904 -93.910797 0.000080 0.224914
92.615616 -99.682259 -0.000138 0.240196
94.826843 -102.897919 -0.000129 0.209246
96.238640 -104.951019 -0.000082 0.226740
97.219841 -106.377914 -0.000057 0.202710
97.942703 -107.429123 -0.000051 0.230488
nan nan nan 0.000000
nan nan nan 0.000000
nan nan nan 0.000000
66.331451 -60.664879 11.557369 1.000000
83.742844 -86.367760 5.840694 0.399632
66.331459 -60.664894 7.283003 1.000000
84.243477 -87.106796 3.596272 0.405760
66.331474 -60.664917 3.054335 1.000000
66.331474 -60.664917 0.945665 1.000000
79.635170 -80.303970 0.000064 0.226644
88.787659 -93.814972 0.000097 0.215686
92.716370 -99.614578 -0.000034 0.236832
94.904663 -102.844963 -0.000109 0.239908
96.302048 -104.907784 -0.000076 0.215398
97.273285 -106.341545 -0.000037 0.243945
97.988792 -107.397774 -0.000028 0.257209
nan nan nan 0.000000
nan nan nan 0.000000
nan nan nan 0.000000
84.643524 -87.297630 6.763260 0.409681
83.695091 -85.876282 5.890680 0.369975
66.939362 -60.765530 7.248342 1.000000
84.102478 -86.486816 3.625413 0.406127
66.939377 -60.765533 3.047420 1.000000
66.939377 -60.765533 0.952582 1.000000
79.870369 -80.144409 0.000007 0.227413
88.927658 -93.717995 -0.000098 0.227124
92.816856 -99.546494 -0.000084 0.218666
94.982590 -102.792137 -0.000163 0.223856
96.365570 -104.864716 -0.000131 0.232411
97.326706 -106.305122 -0.000128 0.202230
98.034851 -107.366379 -0.000116 0.234045
nan nan nan 0.000000
nan nan nan 0.000000
nan nan nan 0.000000
84.306885 -86.377266 6.904660 0.408824
84.239655 -86.274963 5.817849 0.401961
67.539368 -60.864853 7.214389 1.000000
67.539383 -60.864876 5.124157 1.000000
67.539391 -60.864880 3.040641 1.000000
67.539391 -60.864880 0.959358 1.000000
80.107567 -79.987839 0.000027 0.227316
89.069786 -93.624191 -0.000076 0.229623
92.918137 -99.479607 -0.000066 0.218666
95.061150 -102.740288 -0.000141 0.229143
96.429611 -104.822456 -0.000107 0.220973
97.380676 -106.269531 -0.000101 0.271722
98.081375 -107.335670 -0.000096 0.259227
nan nan nan 0.000000
nan nan nan 0.000000
nan nan nan 0.000000
84.331490 -85.990456 6.950725 0.409681
68.131699 -60.962914 9.269194 1.000000
68.131699 -60.962917 7.181121 1.000000
84.433197 -86.147591 3.630416 0.402574
68.131714 -60.962929 3.034003 1.000000
68.131714 -60.962929 0.965997 1.000000
80.346603 -79.834091 0.000116 0.223376
89.213074 -93.532173 0.000023 0.228758
93.020279 -99.414032 0.000034 0.247885
95.140755 -102.690025 0.000065 0.243464
96.494186 -104.780991 -0.000007 0.226836
97.435059 -106.234573 -0.000009 0.254998
98.128510 -107.305901 0.000109 0.243080
nan nan nan 0.000000
nan nan nan 0.000000
nan nan nan 0.000000
68.716530 -61.059723 11.314090 1.000000
68.716537 -61.059746 9.223460 1.000000
68.716545 -61.059746 7.148523 1.000000
84.547585 -85.896011 3.637778 0.400980
68.716545 -61.059746 3.027497 1.000000
68.716545 -61.059746 0.972502 1.000000
80.584282 -79.678246 -0.000014 0.229527
89.355499 -93.438820 -0.000106 0.221742
93.121788 -99.347488 -0.000095 0.219146
95.219498 -102.638443 -0.000060 0.253076
96.558601 -104.739281 -0.000059 0.200692
97.489326 -106.199432 -0.000059 0.248558
98.175110 -107.275314 -0.000029 0.276528
nan nan nan 0.000000
nan nan nan 0.000000
nan nan nan 0.000000
69.294098 -61.155334 11.256304 1.000000
69.294113 -61.155361 9.178646 1.000000
69.294113 -61.155365 7.116580 1.000000
69.294113 -61.155380 5.065559 1.000000
69.294113 -61.155380 3.021122 1.000000
69.294113 -61.155380 0.978877 1.000000
80.824722 -79.526688 0.000006 0.227124
89.499565 -93.348015 -0.000084 0.234910
93.224434 -99.282715 -0.000080 0.232507
95.299118 -102.588226 -0.000042 0.231161
96.623505 -104.698334 -0.000043 0.213091
97.544006 -106.164940 -0.000044 0.262591
98.222183 -107.245461 -0.000046 0.198481
nan nan nan 0.000000
nan nan nan 0.000000
nan nan nan 0.000000
69.864548 -61.249779 11.199677 1.000000
69.864563 -61.249805 9.134730 1.000000
69.864563 -61.249805 7.085281 1.000000
69.864563 -61.249809 5.046805 1.000000
69.864563 -61.249805 3.014875 1.000000
69.864563 -61.249805 0.985123 1.000000
81.066978 -79.378075 0.000101 0.227028
89.644745 -93.259003 0.000014 0.224721
93.327896 -99.219254 0.000015 0.243752
95.379227 -102.538803 0.000017 0.217224
96.688919 -104.658211 0.000052 0.290754
97.599106 -106.131126 0.000049 0.270569
98.269707 -107.216316 0.000052 0.227316
nan nan nan 0.000000
nan nan nan 0.000000
nan nan nan 0.000000
70.428116 -61.343086 11.144180 1.000000
70.428123 -61.343094 9.091692 1.000000
70.428123 -61.343098 7.054604 1.000000
70.428139 -61.343121 5.028425 1.000000
70.428139 -61.343124 3.008755 1.000000
70.428139 -61.343124 0.991246 1.000000
81.309479 -79.229866 0.000121 0.228758
89.790062 -93.170250 0.000038 0.233852
93.431473 -99.155991 0.000039 0.234910
95.459534 -102.489708 0.000035 0.212322
96.754295 -104.618042 0.000039 0.251634
97.654259 -106.097397 0.000065 0.259419
98.317261 -107.187241 0.000067 0.275087
nan nan nan 0.000000
nan nan nan 0.000000
nan nan nan 0.000000
70.984947 -61.435280 11.089791 1.000000
70.984955 -61.435287 9.049509 1.000000
70.984955 -61.435287 7.024541 1.000000
70.984962 -61.435310 5.010412 1.000000
70.984962 -61.435307 3.002754 1.000000
70.984962 -61.435307 0.997246 1.000000
81.551453 -79.080772 -0.000007 0.227605
89.934807 -93.080490 -0.000130 0.232987
93.534805 -99.092300 -0.000091 0.237793
95.539673 -102.440315 -0.000095 0.218954
96.819618 -104.577766 -0.000092 0.235294
97.709320 -106.063522 -0.000052 0.217801
98.364655 -107.157890 -0.000091 0.220588
nan nan nan 0.000000
nan nan nan 0.000000
nan nan nan 0.000000
71.535202 -61.526367 11.036486 1.000000
71.535210 -61.526390 9.008169 1.000000
71.535217 -61.526390 6.995072 1.000000
71.535217 -61.526394 4.992758 1.000000
71.535225 -61.526405 2.996873 1.000000
71.535225 -61.526405 1.003127 1.000000
81.796005 -78.935944 0.000013 0.227605
90.081352 -92.993759 -0.000106 0.226355
93.639252 -99.030472 -0.000070 0.219146
95.620682 -102.392380 -0.000071 0.231546
96.885658 -104.538673 -0.000071 0.202038
97.764854 -106.030418 -0.000075 0.205690
98.412613 -107.129471 -0.000074 0.255671
nan nan nan 0.000000
nan nan nan 0.000000
nan nan nan 0.000000
72.079086 -61.616417 10.984232 1.000000
72.079094 -61.616421 8.967646 1.000000
72.079094 -61.616432 6.966189 1.000000
72.079102 -61.616440 4.975453 1.000000
72.079102 -61.616440 2.991108 1.000000
72.079102 -61.616440 1.008890 1.000000
82.042297 -78.794098 0.000104 0.228758
90.228951 -92.908821 -0.000011 0.234621
93.744263 -98.969604 -0.000017 0.211169
95.702126 -102.345184 -0.000016 0.230008
96.952156 -104.500381 0.000021 0.189446
97.820877 -105.998161 0.000020 0.232987
98.460930 -107.101677 0.000023 0.264033
nan nan nan 0.000000
nan nan nan 0.000000
nan nan nan 0.000000
72.616722 -61.705414 10.933016 1.000000
72.616737 -61.705437 8.927925 1.000000
72.616737 -61.705437 6.937879 1.000000
72.616730 -61.705437 4.958492 1.000000
72.616745 -61.705441 2.985460 1.000000
72.616745 -61.705441 1.014540 1.000000
82.287766 -78.650864 0.000018 0.228950
90.376030 -92.822990 -0.000096 0.213668
93.849106 -98.908463 -0.000098 0.217224
95.783432 -102.297752 -0.000100 0.201461
97.018440 -104.461716 -0.000062 0.226259
97.876633 -105.965431 -0.000103 0.238562
98.509087 -107.073593 -0.000059 0.227605
nan nan nan 0.000000
nan nan nan 0.000000
nan nan nan 0.000000
73.148308 -61.793434 10.882811 1.000000
73.148308 -61.793442 8.888989 1.000000
73.148315 -61.793449 6.910126 1.000000
73.148315 -61.793446 4.941863 1.000000
73.148315 -61.793449 2.979921 1.000000
73.148315 -61.793449 1.020079 1.000000
82.534920 -78.510536 0.000000 0.225682
90.524117 -92.738907 -0.000114 0.239043
93.954681 -98.848564 -0.000112 0.233372
95.865288 -102.251266 -0.000119 0.240292
97.085075 -104.423653 -0.000116 0.210688
97.932854 -105.933495 -0.000124 0.200692
98.557678 -107.046295 -0.000014 0.223664
nan nan nan 0.000000
nan nan nan 0.000000
nan nan nan 0.000000
73.673958 -61.880440 10.833595 1.000000
73.673973 -61.880470 8.850819 1.000000
73.673981 -61.880482 6.882920 1.000000
73.673981 -61.880470 4.925563 1.000000
73.673981 -61.880478 2.974490 1.000000
73.673981 -61.880482 1.025508 1.000000
82.783440 -78.372635 0.000023 0.226740
90.673019 -92.656281 -0.000093 0.232411
94.060822 -98.789680 -0.000089 0.249327
95.947617 -102.205627 -0.000091 0.219435
97.152184 -104.386429 -0.000092 0.225202
97.989609 -105.902542 -0.000000 0.269223
98.606415 -107.019218 0.000000 0.220684
nan nan nan 0.000000
nan nan nan 0.000000
nan nan nan 0.000000
74.193863 -61.966515 10.785346 1.000000
74.193871 -61.966537 8.813398 1.000000
74.193878 -61.966541 6.856252 1.000000
74.193878 -61.966541 4.909584 1.000000
74.193886 -61.966564 2.969168 1.000000
74.193886 -61.966564 1.030831 1.000000
83.031479 -78.233841 -0.000103 0.228470
90.822289 -92.574303 -0.000107 0.222126
94.167343 -98.731514 -0.000070 0.220108
96.030235 -102.160515 -0.000073 0.219819
97.219536 -104.349648 -0.000074 0.222318
98.046356 -105.871574 0.000022 0.237697
98.655266 -106.992378 -0.000018 0.220396
nan nan nan 0.000000
nan nan nan 0.000000
nan nan nan 0.000000
74.708130 -62.051666 10.738044 1.000000
74.708138 -62.051678 8.776715 1.000000
74.708138 -62.051678 6.830105 1.000000
74.708145 -62.051682 4.893919 1.000000
74.708153 -62.051693 2.963950 1.000000
74.708153 -62.051693 1.036050 1.000000
83.281944 -78.099480 -0.000078 0.229335
90.972336 -92.493767 -0.000086 0.213956
94.274300 -98.674133 -0.000046 0.230392
96.113182 -102.116013 -0.000048 0.247789
97.287300 -104.313644 0.000007 0.192810
98.103302 -105.840973 0.000038 0.257689
98.704391 -106.966034 0.000009 0.242503
nan nan nan 0.000000
nan nan nan 0.000000
nan nan nan 0.000000
75.216927 -62.135902 10.691670 1.000000
75.216934 -62.135918 8.740749 1.000000
75.216934 -62.135910 6.804471 1.000000
75.216934 -62.135918 4.878561 1.000000
75.216934 -62.135918 2.958836 1.000000
75.216934 -62.135918 1.041166 1.000000
83.533333 -77.966858 -0.000054 0.225106
91.122955 -92.414307 -0.000062 0.232603
94.381645 -98.617485 -0.000023 0.205017
96.196609 -102.072418 0.000031 0.249712
97.355156 -104.277794 0.000023 0.283256
98.160408 -105.810661 0.000027 0.204248
98.753677 -106.940010 0.000030 0.265571
nan nan nan 0.000000
nan nan nan 0.000000
nan nan nan 0.000000
75.720352 -62.219231 10.646206 1.000000
75.720367 -62.219254 8.705491 1.000000
75.720367 -62.219254 6.779341 1.000000
75.720375 -62.219257 4.863504 1.000000
75.720375 -62.219257 2.953820 1.000000
75.720375 -62.219257 1.046180 1.000000
83.785225 -77.835175 -0.000075 0.225202
91.273872 -92.335426 -0.000081 0.227316
94.489204 -98.561249 -0.000044 0.202038
96.280022 -102.028801 0.000009 0.199250
97.423172 -104.242279 0.000010 0.220973
98.217690 -105.780708 0.000005 0.248943
98.803169 -106.914360 0.000058 0.215975
nan nan nan 0.000000
nan nan nan 0.000000
nan nan nan 0.000000
76.218590 -62.301727 10.601634 1.000000
76.218597 -62.301727 8.670923 1.000000
76.218597 -62.301750 6.754699 1.000000
76.218597 -62.301727 4.848742 1.000000
76.218597 -62.301750 2.948901 1.000000
76.218597 -62.301750 1.051098 1.000000
84.038429 -77.706085 -0.000050 0.227413
91.425575 -92.258057 -0.000059 0.215590
94.597565 -98.506577 0.000038 0.221646
96.363884 -101.986053 0.000034 0.241446
97.491539 -104.207428 0.000034 0.261918
98.275192 -105.751152 -0.000018 0.235582
98.852814 -106.889015 0.000076 0.234910
nan nan nan 0.000000
nan nan nan 0.000000
nan nan nan 0.000000
76.711716 -62.383369 10.557932 1.000000
76.711723 -62.383369 8.637032 1.000000
76.711723 -62.383385 6.730545 1.000000
76.711723 -62.383369 4.834269 1.000000
76.711723 -62.383381 2.944082 1.000000
76.711723 -62.383381 1.055918 1.000000
84.292534 -77.578751 -0.000026 0.228085
91.577820 -92.181770 -0.000035 0.234141
94.706055 -98.452179 0.000059 0.235486
96.448036 -101.943893 0.000060 0.209343
97.560127 -104.173027 0.000053 0.251346
98.332993 -105.722198 0.000008 0.231834
98.902573 -106.863907 0.000059 0.198866
nan nan nan 0.000000
nan nan nan 0.000000
nan nan nan 0.000000
77.199905 -62.464188 10.515083 1.000000
77.199905 -62.464203 8.603800 1.000000
77.199905 -62.464203 6.706861 1.000000
77.199905 -62.464203 4.820079 1.000000
77.199905 -62.464211 2.939356 1.000000
77.199905 -62.464211 1.060646 1.000000
84.547295 -77.452751 -0.000027 0.331618
91.730621 -92.106606 -0.000005 0.225586
94.814575 -98.397827 -0.000011 0.218089
96.532196 -101.901741 -0.000012 0.240869
97.628654 -104.138504 -0.000051 0.267205
98.390999 -105.693657 0.000036 0.196751
98.952446 -106.838989 0.000003 0.190408
nan nan nan 0.000000
nan nan nan 0.000000
nan nan nan 0.000000
77.683228 -62.544205 10.473076 1.000000
77.683228 -62.544205 8.571224 1.000000
77.683228 -62.544212 6.683640 1.000000
77.683228 -62.544212 4.806165 1.000000
77.683228 -62.544212 2.934721 1.000000
77.683228 -62.544212 1.065280 1.000000
84.802940 -77.328545 -0.000026 0.331618
91.884064 -92.032768 0.000047 0.231353
94.923790 -98.344864 -0.000001 0.213187
96.617012 -101.860924 0.000040 0.220973
97.697792 -104.105194 -0.000003 0.247405
98.449158 -105.665428 0.000041 0.259900
99.002647 -106.814781 0.000046 0.245483
nan nan nan 0.000000
nan nan nan 0.000000
nan nan nan 0.000000
78.161850 -62.623447 10.431885 1.000000
78.161850 -62.623451 8.539278 1.000000
78.161858 -62.623459 6.660870 1.000000
78.161858 -62.623459 4.792523 1.000000
78.161858 -62.623459 2.930177 1.000000
78.161858 -62.623459 1.069823 1.000000
85.146622 -77.390419 0.009989 1.000000
92.037857 -91.959663 0.000070 0.222991
95.033401 -98.292763 0.000021 0.226547
96.701912 -101.820282 0.000025 0.206363
97.767311 -104.072716 0.000112 0.213091
98.507545 -105.637688 0.000065 0.225971
99.052925 -106.790710 0.000027 0.236736
nan nan nan 0.000000
nan nan nan 0.000000
nan nan nan 0.000000
78.635857 -62.701920 10.391503 1.000000
78.635864 -62.701931 8.507959 1.000000
78.635857 -62.701931 6.638548 1.000000
78.635864 -62.701931 4.779151 1.000000
78.635857 -62.701931 2.925721 1.000000
78.635857 -62.701931 1.074278 1.000000
85.316803 -77.085518 -0.000025 0.332475
92.191895 -91.887085 0.000043 0.235967
95.143211 -98.241058 -0.000002 0.220012
96.787079 -101.780182 0.000002 0.231834
97.836746 -104.040031 0.000088 0.225298
98.565956 -105.609978 0.000002 0.209054
99.103363 -106.766975 0.000007 0.204729
nan nan nan 0.000000
nan nan nan 0.000000
nan nan nan 0.000000
79.105362 -62.779652 10.351911 1.000000
79.105370 -62.779655 8.477253 1.000000
79.105370 -62.779655 6.616665 1.000000
79.105370 -62.779667 4.766038 1.000000
79.105370 -62.779655 2.921355 1.000000
79.105370 -62.779655 1.078646 1.000000
85.574997 -76.966698 -0.000025 0.332598
92.346489 -91.815704 0.000025 0.222607
95.253532 -98.190460 0.000016 0.228278
96.872643 -101.740959 0.000021 0.241157
97.906410 -104.007858 0.000071 0.211073
98.624718 -105.583038 0.000022 0.205786
99.154091 -106.743881 0.000065 0.196271
nan nan nan 0.000000
nan nan nan 0.000000
nan nan nan 0.000000
79.570480 -62.856651 10.313096 1.000000
79.570496 -62.856659 8.447150 1.000000
79.570496 -62.856663 6.595209 1.000000
79.570496 -62.856659 4.753183 1.000000
79.570496 -62.856663 2.917073 1.000000
79.570496 -62.856663 1.082928 1.000000
85.834000 -76.849678 -0.000024 0.331740
92.501480 -91.745178 -0.000012 0.229623
95.364052 -98.140289 -0.000009 0.210688
96.958435 -101.702248 0.000028 0.240100
97.976242 -103.976067 0.000029 0.260477
98.683586 -105.556313 -0.000003 0.236351
99.204765 -106.720657 -0.000012 0.186178
nan nan nan 0.000000
nan nan nan 0.000000
nan nan nan 0.000000
80.031326 -62.932953 10.275038 1.000000
80.031326 -62.932945 8.417637 1.000000
80.031334 -62.932968 6.574170 1.000000
80.031326 -62.932957 4.740578 1.000000
80.031326 -62.932968 2.912873 1.000000
80.031326 -62.932968 1.087126 1.000000
86.093826 -76.734489 -0.000023 0.331618
92.657272 -91.676414 0.000012 0.226644
95.475090 -98.091293 0.000016 0.223280
97.044540 -101.664223 0.000050 0.250577
98.046356 -103.944893 0.000018 0.220684
98.742737 -105.530228 0.000025 0.264898
99.255753 -106.698120 0.000006 0.218474
nan nan nan 0.000000
nan nan nan 0.000000
nan nan nan 0.000000
80.487991 -63.008541 10.237729 1.000000
80.487991 -63.008545 8.388701 1.000000
80.487999 -63.008568 6.553548 1.000000
80.487999 -63.008568 4.728220 1.000000
80.487999 -63.008564 2.908757 1.000000
80.487999 -63.008564 1.091243 1.000000
86.354462 -76.621109 -0.000023 0.332598
92.813255 -91.608109 -0.000021 0.235102
95.586266 -98.042595 -0.000018 0.211361
97.130791 -101.626526 0.000028 0.245002
98.116653 -103.914108 -0.000017 0.242118
98.802025 -105.504440 0.000028 0.222126
99.306763 -106.675644 -0.000059 0.251730
nan nan nan 0.000000
nan nan nan 0.000000
nan nan nan 0.000000
80.940575 -63.083481 10.201152 1.000000
80.940582 -63.083473 8.360335 1.000000
80.940575 -63.083481 6.533329 1.000000
80.940590 -63.083488 4.716107 1.000000
80.940582 -63.083481 2.904723 1.000000
80.940582 -63.083481 1.095278 1.000000
86.615860 -76.509537 -0.000022 0.332966
92.969986 -91.541519 0.000003 0.209631
95.698112 -97.995468 0.000047 0.225394
97.217438 -101.589752 0.000055 0.217705
98.187317 -103.884178 0.000023 0.274414
98.861534 -105.479202 0.000060 0.258939
99.358200 -106.654175 0.000053 0.223568
nan nan nan 0.000000
nan nan nan 0.000000
nan nan nan 0.000000
81.389183 -63.157742 10.165295 1.000000
81.389191 -63.157745 8.332523 1.000000
81.389191 -63.157761 6.513507 1.000000
81.389191 -63.157757 4.704232 1.000000
81.389191 -63.157757 2.900767 1.000000
81.389191 -63.157757 1.099233 1.000000
86.878044 -76.399788 -0.000022 0.332598
93.127106 -91.475868 0.000012 0.232411
95.810211 -97.948959 0.000091 0.224337
97.304268 -101.553406 0.000055 0.239523
98.258179 -103.854752 0.000062 0.235679
98.921249 -105.454437 0.000105 0.190696
99.409622 -106.632645 0.000052 0.232603
nan nan nan 0.000000
nan nan nan 0.000000
81.833900 -63.231350 11.972834 1.000000
81.833908 -63.231369 10.130142 1.000000
81.833908 -63.231369 8.305265 1.000000
81.833908 -63.231384 6.494076 1.000000
81.833916 -63.231392 4.692590 1.000000
81.833908 -63.231380 2.896890 1.000000
81.833908 -63.231380 1.103110 1.000000
87.140984 -76.291908 -0.000020 0.331740
93.284492 -91.410851 -0.000021 0.229623
95.922379 -97.902603 0.000057 0.210784
97.391273 -101.517494 0.000028 0.231065
98.329185 -103.825661 0.000070 0.222222
98.980927 -105.429588 0.000036 0.218281
99.461159 -106.611404 0.000032 0.245963
nan nan nan 0.000000
nan nan nan 0.000000
82.274834 -63.304359 11.930567 1.000000
82.274834 -63.304363 10.095687 1.000000
82.274841 -63.304375 8.278542 1.000000
82.274841 -63.304375 6.475031 1.000000
82.274841 -63.304375 4.681179 1.000000
82.274841 -63.304375 2.893089 1.000000
82.274841 -63.304375 1.106912 1.000000
87.404686 -76.185860 -0.000020 0.331740
93.442337 -91.346939 -0.000052 0.222126
96.034760 -97.856758 -0.000011 0.242118
97.478516 -101.482162 -0.000005 0.231449
98.400299 -103.796837 0.000035 0.255863
99.040833 -105.405289 -0.000006 0.262495
99.512772 -106.590340 -0.000038 0.239715
nan nan nan 0.000000
nan nan nan 0.000000
82.712067 -63.376747 11.889134 1.000000
82.712067 -63.376755 10.061911 1.000000
82.712067 -63.376770 8.252346 1.000000
82.712067 -63.376755 6.456363 1.000000
82.712067 -63.376762 4.669993 1.000000
82.712067 -63.376762 2.889362 1.000000
82.712067 -63.376762 1.110638 1.000000
87.669090 -76.081619 -0.000020 0.332966
93.600853 -91.284744 -0.000031 0.229143
96.147736 -97.812408 0.000010 0.237409
97.566055 -101.447548 -0.000019 0.228566
98.471664 -103.768639 0.000023 0.224625
99.101006 -105.381638 0.000008 0.219531
99.564682 -106.570045 0.000002 0.250961
nan nan nan 0.000000
nan nan nan 0.000000
83.145683 -63.448524 11.848528 1.000000
83.145683 -63.448540 10.028808 1.000000
83.145691 -63.448555 8.226673 1.000000
83.145691 -63.448544 6.438062 1.000000
83.145691 -63.448555 4.659030 1.000000
83.145691 -63.448540 2.885710 1.000000
83.145691 -63.448540 1.114290 1.000000
87.934235 -75.979248 -0.000019 0.332353
93.759972 -91.224098 0.000031 0.215494
96.260880 -97.768471 -0.000017 0.200884
97.653793 -101.413467 -0.000048 0.233180
98.543182 -103.740837 -0.000009 0.254902
99.161308 -105.358337 0.000005 0.255767
99.616692 -106.549988 0.000007 0.200019
nan nan nan 0.000000
nan nan nan 0.000000
83.575768 -63.519730 11.808731 1.000000
83.575775 -63.519737 9.996363 1.000000
83.575775 -63.519745 8.201513 1.000000
83.575775 -63.519745 6.420128 1.000000
83.575775 -63.519753 4.648284 1.000000
83.575775 -63.519745 2.882132 1.000000
83.575775 -63.519745 1.117868 1.000000
88.200089 -75.878754 -0.000018 0.332966
93.919434 -91.164345 0.000073 0.219243
96.374573 -97.726013 0.000040 0.240100
97.742126 -101.380951 0.000076 0.238370
98.615074 -103.713989 0.000050 0.210592
99.221779 -105.335464 0.000005 0.223952
99.668877 -106.530411 0.000043 0.211938
nan nan nan 0.000000
nan nan nan 0.000000
84.002426 -63.590370 11.769724 1.000000
84.002434 -63.590385 9.964563 1.000000
84.002434 -63.590378 8.176850 1.000000
84.002434 -63.590385 6.402552 1.000000
84.002441 -63.590397 4.637753 1.000000
84.002434 -63.590389 2.878623 1.000000
84.002434 -63.590389 1.121377 1.000000
88.466629 -75.780075 -0.000017 0.331740
94.078995 -91.104904 0.000045 0.228278
96.488319 -97.683662 0.000013 0.239043
97.830338 -101.348106 0.000050 0.218089
98.687035 -103.687355 0.000049 0.243080
99.282372 -105.312935 -0.000015 0.187332
99.721062 -106.510818 -0.000021 0.210111
nan nan nan 0.000000
nan nan nan 0.000000
84.425720 -63.660446 11.731502 1.000000
84.425720 -63.660454 9.933405 1.000000
84.425720 -63.660465 8.152683 1.000000
84.425720 -63.660461 6.385326 1.000000
84.425720 -63.660454 4.627434 1.000000
84.425720 -63.660461 2.875185 1.000000
84.425720 -63.660461 1.124814 1.000000
88.733856 -75.683289 -0.000017 0.333211
94.239265 -91.047363 0.000085 0.230104
96.602448 -97.642365 0.000019 0.244329
97.918846 -101.316063 0.000052 0.213764
98.759254 -103.661423 0.000090 0.210592
99.343147 -105.290909 -0.000018 0.209631
99.773560 -106.492065 0.000042 0.219146
nan nan nan 0.000000
nan nan nan 0.000000
84.845734 -63.729980 11.694049 1.000000
84.845734 -63.729992 9.902870 1.000000
84.845734 -63.729996 8.129004 1.000000
84.845734 -63.729996 6.368450 1.000000
84.845741 -63.729996 4.617321 1.000000
84.845734 -63.729996 2.871817 1.000000
84.845734 -63.729996 1.128183 1.000000
89.001755 -75.588348 -0.000016 0.332598
94.399513 -90.989769 0.000023 0.221742
96.716766 -97.601601 -0.000007 0.224721
98.007507 -101.284462 0.000028 0.225682
98.831383 -103.635239 -0.000017 0.241542
99.404182 -105.269585 0.000045 0.228950
99.826096 -106.473427 0.000035 0.195117
nan nan nan 0.000000
nan nan nan 0.000000
85.262550 -63.799000 11.657350 1.000000
85.262550 -63.798988 9.872952 1.000000
85.262550 -63.798992 8.105803 1.000000
85.262550 -63.799004 6.351912 1.000000
85.262543 -63.799000 4.607414 1.000000
85.262558 -63.799000 2.868517 1.000000
85.262558 -63.799000 1.131483 1.000000
89.336258 -75.687767 0.009980 1.000000
94.560562 -90.934456 0.000061 0.224145
96.831551 -97.562172 0.000030 0.233756
98.096443 -101.253624 0.000026 0.212226
98.904007 -103.610443 0.000047 0.243560
99.465263 -105.248421 0.000046 0.223664
99.878761 -106.455185 0.000040 0.262591
nan nan nan 0.000000
nan nan nan 0.000000
85.676239 -63.867477 11.621394 1.000000
85.676239 -63.867489 9.843641 1.000000
85.676239 -63.867489 8.083070 1.000000
85.676239 -63.867493 6.335710 1.000000
85.676239 -63.867477 4.597706 1.000000
85.676239 -63.867489 2.865283 1.000000
85.676239 -63.867489 1.134717 1.000000
89.539505 -75.404121 -0.000015 0.331985
94.721733 -90.879539 0.000037 0.227028
96.946510 -97.523239 0.000031 0.203672
98.185539 -101.223267 -0.000000 0.274029
98.976646 -103.585724 0.000027 0.214341
99.526459 -105.227570 0.000022 0.245675
99.931557 -106.437309 0.000042 0.190984
nan nan nan 0.000000
nan nan nan 0.000000
86.086876 -63.935455 11.586172 1.000000
86.086884 -63.935463 9.814928 1.000000
86.086884 -63.935459 8.060802 1.000000
86.086876 -63.935463 6.319838 1.000000
86.086876 -63.935463 4.588196 1.000000
86.086884 -63.935463 2.862116 1.000000
86.086876 -63.935471 1.137884 1.000000
89.809326 -75.314819 -0.000015 0.332598
94.883400 -90.826027 0.000036 0.227989
97.061829 -97.485397 0.000067 0.209150
98.275154 -101.194481 0.000123 0.226932
99.049500 -103.561607 0.000026 0.201077
99.587830 -105.207268 0.000023 0.248943
99.984467 -106.419785 0.000039 0.235775
nan nan nan 0.000000
nan nan nan 0.000000
86.494537 -64.002945 11.551672 1.000000
86.494537 -64.002945 9.786801 1.000000
86.494545 -64.002953 8.038986 1.000000
86.494545 -64.002960 6.304291 1.000000
86.494545 -64.002960 4.578881 1.000000
86.494553 -64.002975 2.859012 1.000000
86.494553 -64.002975 1.140987 1.000000
90.079765 -75.227409 -0.000014 0.332843
95.045341 -90.773384 0.000013 0.233180
97.177322 -97.448120 0.000073 0.228470
98.364662 -101.165375 0.000099 0.197328
99.122505 -103.538002 0.000026 0.216263
99.649422 -105.187622 0.000079 0.198577
100.037514 -106.402634 0.000036 0.253172
nan nan nan 0.000000
nan nan nan 0.000000
86.899300 -64.069954 11.517880 1.000000
86.899307 -64.069977 9.759253 1.000000
86.899307 -64.069977 8.017624 1.000000
86.899307 -64.069969 6.289063 1.000000
86.899307 -64.069969 4.569757 1.000000
86.899307 -64.069977 2.855975 1.000000
86.899307 -64.069977 1.144026 1.000000
90.350822 -75.141899 -0.000013 0.332475
95.207863 -90.722565 0.000049 0.232218
97.293144 -97.411835 0.000102 0.253172
98.454414 -101.137032 0.000097 0.232122
99.195747 -103.515083 0.000059 0.230873
99.711067 -105.168152 0.000075 0.180508
100.090736 -106.386078 0.000096 0.207709
nan nan nan 0.000000
nan nan nan 0.000000
87.301216 -64.136490 11.484789 1.000000
87.301224 -64.136497 9.732277 1.000000
87.301224 -64.136505 7.996702 1.000000
87.301224 -64.136505 6.274151 1.000000
87.301224 -64.136505 4.560822 1.000000
87.301224 -64.136505 2.852999 1.000000
87.301224 -64.136505 1.147002 1.000000
90.622452 -75.058281 -0.000012 0.332966
95.370667 -90.672668 0.000068 0.221549
97.409119 -97.376053 0.000094 0.217897
98.544289 -101.109024 0.000049 0.253076
99.269104 -103.492599 0.000077 0.200404
99.772789 -105.148933 0.000032 0.222703
100.143959 -106.369507 0.000050 0.227220
nan nan nan 0.000000
nan nan nan 0.000000
87.700386 -64.202591 11.452385 1.000000
87.700386 -64.202591 9.705857 1.000000
87.700386 -64.202591 7.976214 1.000000
87.700394 -64.202591 6.259547 1.000000
87.700386 -64.202591 4.552075 1.000000
87.700386 -64.202591 2.850083 1.000000
87.700386 -64.202591 1.149916 1.000000
90.894669 -74.976547 -0.000012 0.332353
95.533684 -90.623459 0.000048 0.234141
97.525208 -97.340675 0.000037 0.231449
98.634392 -101.081810 0.000026 0.229527
99.342514 -103.470238 0.000023 0.212995
99.834679 -105.130264 0.000013 0.215879
100.197319 -106.353386 0.000028 0.199443
nan nan nan 0.000000
nan nan nan 0.000000
88.096848 -64.268211 11.420658 1.000000
88.096848 -64.268219 9.679993 1.000000
88.096848 -64.268227 7.956155 1.000000
88.096848 -64.268227 6.245250 1.000000
88.096848 -64.268227 4.543508 1.000000
88.096848 -64.268227 2.847231 1.000000
88.096848 -64.268227 1.152769 1.000000
91.167450 -74.896721 -0.000011 0.332108
95.697083 -90.575546 0.000041 0.228181
97.641678 -97.306511 0.000029 0.210880
98.724724 -101.055367 0.000026 0.218281
99.416145 -103.448639 0.000015 0.214725
99.896751 -105.112206 0.000036 0.240292
100.250824 -106.337776 0.000040 0.266340
nan nan nan 0.000000
nan nan nan 0.000000
88.490692 -64.333427 11.389598 1.000000
88.490685 -64.333427 9.654675 1.000000
88.490677 -64.333420 7.936519 1.000000
88.490677 -64.333420 6.231256 1.000000
88.490677 -64.333427 4.535123 1.000000
88.490692 -64.333427 2.844437 1.000000
88.490692 -64.333427 1.155563 1.000000
91.440773 -74.818794 -0.000010 0.332721
95.860992 -90.529411 0.000088 0.217801
97.758499 -97.273636 0.000077 0.200788
98.815308 -101.029778 0.000060 0.243080
99.490013 -103.427849 0.000061 0.277393
99.958984 -105.094673 0.000080 0.247501
100.304443 -106.322556 0.000057 0.216167
nan nan nan 0.000000
nan nan nan 0.000000
95.537964 -88.705017 6.773601 0.400000
88.881927 -64.398193 9.629894 1.000000
88.881927 -64.398193 7.917299 1.000000
88.881935 -64.398209 6.217556 1.000000
88.881927 -64.398193 4.526916 1.000000
88.881927 -64.398193 2.841703 1.000000
88.881927 -64.398193 1.158296 1.000000
91.714630 -74.742798 -0.000010 0.332108
96.025040 -90.483749 0.000079 0.234429
97.875420 -97.241066 0.000064 0.238081
98.906013 -101.004646 0.000067 0.214821
99.563972 -103.407417 0.000080 0.240292
100.021217 -105.077202 0.000038 0.237985
100.358101 -106.307449 0.000004 0.218281
nan nan nan 0.000000
nan nan nan 0.000000
95.692604 -88.573990 6.789280 0.404534
89.270691 -64.462563 9.605639 1.000000
89.270691 -64.462563 7.898490 1.000000
89.270691 -64.462563 6.204150 1.000000
89.270699 -64.462570 4.518883 1.000000
89.270699 -64.462570 2.839029 1.000000
89.270699 -64.462570 1.160972 1.000000
91.989029 -74.668701 -0.000009 0.332108
96.189392 -90.439224 0.000068 0.231257
97.992638 -97.209595 0.000085 0.236448
98.996811 -100.979813 0.000022 0.217705
99.637985 -103.387169 0.000034 0.219723
100.083649 -105.060425 0.000057 0.188389
100.411972 -106.293152 0.000067 0.207901
nan nan nan 0.000000
nan nan nan 0.000000
95.857826 -88.478989 6.798363 0.390074
89.656998 -64.526512 9.581909 1.000000
89.656990 -64.526505 7.880086 1.000000
89.656990 -64.526520 6.191033 1.000000
89.656990 -64.526520 4.511024 1.000000
89.656990 -64.526505 2.836410 1.000000
89.656990 -64.526505 1.163590 1.000000
92.263924 -74.596535 -0.000007 0.332353
96.353935 -90.395393 0.000018 0.240677
98.109985 -97.178635 0.000069 0.249808
99.087830 -100.955811 0.000008 0.233948
99.712196 -103.367622 0.000023 0.236448
100.146164 -105.043976 0.000049 0.250096
100.465843 -106.278809 0.000018 0.190792
nan nan nan 0.000000
nan nan nan 0.000000
95.802750 -87.505020 6.972561 0.406618
96.016563 -88.355331 5.923718 0.402574
96.274231 -89.380119 4.921445 0.401348
90.040916 -64.590065 6.178200 1.000000
90.040916 -64.590073 4.503335 1.000000
90.040924 -64.590065 2.833848 1.000000
90.040924 -64.590065 1.166151 1.000000
92.539322 -74.526276 -0.000007 0.331985
96.518906 -90.353165 0.000008 0.232315
98.227493 -97.148270 0.000026 0.229335
99.179054 -100.932663 0.000028 0.207420
99.786491 -103.348434 -0.000017 0.200211
100.208763 -105.027809 0.000009 0.203960
100.519814 -106.264870 -0.000024 0.232699
nan nan nan 0.000000
96.112541 -87.969734 7.788842 0.406495
96.488602 -89.510727 6.588305 0.406740
90.422516 -64.653244 9.535984 1.000000
96.380234 -89.066666 4.953514 0.397059
90.422523 -64.653259 6.165648 1.000000
90.422516 -64.653236 4.495815 1.000000
90.422516 -64.653252 2.831343 1.000000
90.422516 -64.653252 1.168656 1.000000
92.815201 -74.457939 -0.000007 0.332230
96.684174 -90.312157 0.000002 0.232026
98.345291 -97.119003 0.000018 0.212418
99.270432 -100.910049 0.000030 0.271819
99.861061 -103.330322 0.000046 0.231642
100.271530 -105.012337 0.000026 0.200596
100.573982 -106.251732 0.000046 0.192234
nan nan nan 0.000000
96.311630 -87.998459 7.772764 0.398652
96.576149 -89.116226 6.654379 0.403431
96.385895 -88.312294 5.916931 0.404534
96.460991 -88.629608 5.000232 0.406740
95.869965 -86.132118 4.348855 0.406005
90.801849 -64.716049 4.488460 1.000000
90.801849 -64.716049 2.828894 1.000000
90.801849 -64.716049 1.171105 1.000000
93.091553 -74.391541 -0.000005 0.333578
96.849815 -90.272644 0.000025 0.239619
98.463211 -97.090279 -0.000026 0.212418
99.361938 -100.887993 0.000020 0.247885
99.935623 -103.312187 0.000008 0.218378
100.334351 -104.997055 -0.000013 0.215975
100.628143 -106.238548 0.000005 0.205882
96.324188 -87.218315 8.884699 0.407721
nan nan nan 0.000000
96.607185 -88.452545 6.770709 0.393137
96.679070 -88.766037 5.841513 0.398775
96.759789 -89.118073 4.937703 0.401593
96.384018 -87.479271 4.231710 0.401471
91.178970 -64.778496 4.481269 1.000000
91.178963 -64.778481 2.826500 1.000000
91.178963 -64.778481 1.173500 1.000000
93.368362 -74.327072 -0.000005 0.330637
97.015640 -90.233917 0.000018 0.236832
98.581406 -97.062698 -0.000030 0.204633
99.453552 -100.866394 -0.000016 0.234333
100.010300 -103.294518 -0.000040 0.210400
100.397308 -104.982368 -0.000016 0.204344
100.682449 -106.225990 0.000028 0.281815
96.551079 -87.354996 8.838797 0.401225
96.825050 -88.589386 7.623577 0.408701
96.766129 -88.323914 6.787176 0.402083
96.823685 -88.583221 5.863245 0.390196
91.553932 -64.840553 7.793950 1.000000
96.756104 -88.278732 4.161051 0.400735
91.553925 -64.840561 4.474240 1.000000
91.553932 -64.840569 2.824158 1.000000
91.553932 -64.840569 1.175842 1.000000
93.645615 -74.264542 -0.000005 0.332475
97.181732 -90.196396 0.000015 0.227701
98.699921 -97.036499 0.000030 0.226932
99.545410 -100.845833 0.000007 0.225875
100.085220 -103.277954 0.000021 0.201845
100.460388 -104.968231 0.000004 0.197136
100.736794 -106.213562 -0.000013 0.204152
97.141693 -89.198441 8.356104 0.400858
nan nan nan 0.000000
96.968353 -88.390862 6.767426 0.407598
97.071716 -88.872406 5.813488 0.402696
97.192017 -89.432869 4.891573 0.399142
96.932816 -88.225250 4.162245 0.400245
91.926804 -64.902290 4.467372 1.000000
91.926804 -64.902290 2.821870 1.000000
91.926804 -64.902290 1.178131 1.000000
93.923294 -74.203934 -0.000004 0.332966
97.348267 -90.160820 0.000077 0.228758
98.818535 -97.010803 0.000052 0.235775
99.637466 -100.826172 0.000070 0.224241
100.160233 -103.261765 0.000054 0.227605
100.523575 -104.954582 0.000035 0.216744
100.791328 -106.202042 0.000081 0.228950
97.277985 -88.983208 8.401808 0.398407
nan nan nan 0.000000
92.297615 -64.963669 11.113798 1.000000
97.226784 -88.736252 5.828501 0.403554
97.253700 -88.866058 4.953911 0.389828
96.894043 -87.131508 4.250650 0.403186
92.297607 -64.963684 4.460659 1.000000
92.297615 -64.963684 2.819634 1.000000
92.297615 -64.963684 1.180366 1.000000
94.201385 -74.145271 -0.000002 0.330882
97.514847 -90.125565 0.000068 0.228854
98.937279 -96.985703 0.000048 0.198097
99.729500 -100.806473 0.000030 0.222991
100.235306 -103.245872 0.000045 0.197520
100.586884 -104.941505 0.000093 0.213668
100.845863 -106.190514 0.000076 0.250192
100.516266 -104.259041 4.490480 0.402941
97.409866 -88.732903 7.567167 0.405882
92.666428 -65.024734 11.089516 1.000000
97.217384 -87.770866 5.969100 0.389093
97.394157 -88.654373 4.974548 0.401716
97.344803 -88.407700 4.140737 0.391054
92.666443 -65.024734 4.454103 1.000000
92.666435 -65.024734 2.817451 1.000000
92.666435 -65.024734 1.182550 1.000000
94.479889 -74.088547 -0.000002 0.333456
97.681610 -90.091110 0.000030 0.229815
99.056145 -96.961159 0.000009 0.214533
99.821732 -100.787636 0.000023 0.202422
100.310448 -103.230347 0.000005 0.205210
100.650200 -104.928436 0.000057 0.222414
100.900482 -106.179367 0.000071 0.193099
100.576263 -104.203598 4.501209 0.392892
97.496353 -88.230988 7.669941 0.399877
100.072739 -101.592285 4.300798 0.400368
97.392456 -87.692184 5.975546 0.398162
97.608284 -88.811493 4.952064 0.396691
97.429520 -87.884384 4.181502 0.417157
96.960609 -85.452599 3.428697 0.398529
93.033310 -65.085464 2.815318 1.000000
93.033310 -65.085464 1.184682 1.000000
94.758774 -74.033775 -0.000002 0.332598
97.848679 -90.058189 0.000022 0.217993
99.175224 -96.937721 0.000004 0.219531
99.914131 -100.769691 0.000053 0.224625
100.385780 -103.215698 0.000032 0.190408
100.713600 -104.915802 0.000018 0.222222
100.955170 -106.168594 0.000063 0.263168
97.638832 -87.994324 8.627455 0.403799
97.245918 -85.877274 8.179489 0.400613
100.112244 -101.321365 4.347900 0.403064
97.465820 -87.062141 6.065352 0.398529
97.872314 -89.252403 4.896578 0.405882
97.701134 -88.330048 4.141458 0.400368
93.398308 -65.145912 4.441450 1.000000
93.398315 -65.145905 2.813235 1.000000
93.398315 -65.145905 1.186764 1.000000
95.075134 -74.180809 0.009985 1.000000
98.016136 -90.027313 0.000087 0.234910
99.294624 -96.915955 0.000098 0.237024
100.006645 -100.752388 0.000082 0.222895
100.461205 -103.201584 0.000059 0.242503
100.777168 -104.904037 0.000074 0.273741
101.009911 -106.158081 0.000024 0.229815
97.618919 -86.830887 8.915064 0.405024
97.870285 -88.240021 7.653280 0.405760
97.544250 -86.412277 7.100543 0.409314
97.657806 -87.048866 6.062191 0.400123
98.059967 -89.303360 4.886946 0.400613
93.761452 -65.206024 6.064730 1.000000
93.761452 -65.206024 4.435351 1.000000
93.761452 -65.206024 2.811204 1.000000
93.761452 -65.206024 1.188796 1.000000
95.353355 -74.130203 0.009987 1.000000
98.183655 -89.996750 0.000080 0.228374
99.413979 -96.893921 0.000062 0.208862
100.099197 -100.735275 0.000043 0.225394
100.536720 -103.187996 0.000087 0.246155
100.840767 -104.892448 0.000071 0.249616
101.064812 -106.148445 0.000114 0.203191
98.075737 -88.357224 8.518744 0.369118
98.253807 -89.397408 7.392782 0.400490
100.293137 -101.310310 4.344100 0.393995
97.993607 -87.877441 5.932542 0.366176
98.149742 -88.789490 4.943402 0.392402
94.122803 -65.265846 6.054796 1.000000
94.122803 -65.265846 4.429399 1.000000
94.122810 -65.265846 2.809222 1.000000
94.122810 -65.265846 1.190779 1.000000
95.597969 -73.883110 0.000097 0.226932
98.351372 -89.967361 0.000074 0.230777
99.533531 -96.872986 0.000059 0.242022
100.191994 -100.719460 0.000102 0.210400
100.612267 -103.174561 0.000046 0.240677
100.904442 -104.881302 0.000068 0.197040
101.119652 -106.138474 0.000018 0.276432
nan nan nan 0.000000
nan nan nan 0.000000
nan nan nan 0.000000
108.244858 -149.238037 7.295644 0.404289
108.360451 -149.942780 6.189151 0.387377
nan nan nan 0.000000
108.307350 -149.619034 3.772812 0.400858
116.504326 -199.597809 3.419292 0.759314
116.504318 -199.597778 0.580710 0.768627
109.056107 -154.184387 -0.000090 0.226259
106.414871 -138.080200 -0.000148 0.223280
105.280983 -131.166611 -0.000268 0.256055
104.649254 -127.314827 -0.000197 0.203768
104.246017 -124.856178 -0.000197 0.230488
103.965622 -123.146545 -0.000025 0.233372
103.759132 -121.887558 -0.000001 0.338480
nan nan nan 0.000000
nan nan nan 0.000000
108.085968 -149.833466 8.598295 0.398897
nan nan nan 0.000000
108.094627 -149.888626 6.178156 0.417279
nan nan nan 0.000000
nan nan nan 0.000000
115.963165 -200.055222 3.425279 0.548529
115.963165 -200.055206 0.574721 0.582230
108.775726 -154.231018 -0.000171 0.227220
106.246887 -138.108215 -0.000234 0.227893
105.161224 -131.186462 -0.000341 0.250192
104.556244 -127.329346 -0.000139 0.237793
104.170341 -124.868988 -0.000317 0.256536
103.901871 -123.157310 -0.000140 0.217224
103.704094 -121.896385 -0.000001 0.340196
nan nan nan 0.000000
nan nan nan 0.000000
108.025864 -151.141830 8.831955 0.406373
107.897186 -150.282349 7.440696 0.397549
107.755753 -149.337585 6.109590 0.393995
107.952507 -150.651886 5.038078 0.400735
107.781441 -149.509155 3.763476 0.402819
nan nan nan 0.000000
nan nan nan 0.000000
108.494598 -154.272995 -0.000117 0.229239
106.078369 -138.132858 -0.000138 0.224721
105.041168 -131.204407 -0.000289 0.248847
104.463142 -127.343239 -0.000083 0.210784
104.094437 -124.880333 -0.000264 0.189639
103.837944 -123.166954 -0.000107 0.300846
103.648994 -121.904823 -0.000000 0.341912
nan nan nan 0.000000
nan nan nan 0.000000
107.423737 -148.775772 8.390114 0.406127
107.439354 -148.885239 7.225810 0.418750
107.612106 -150.096893 6.193635 0.402451
107.666931 -150.481445 5.020863 0.400368
107.754723 -151.097275 3.840486 0.403799
nan nan nan 0.000000
nan nan nan 0.000000
108.213387 -154.314270 -0.000125 0.227701
105.909943 -138.158005 -0.000182 0.220012
104.920891 -131.220825 -0.000158 0.229719
104.370010 -127.356895 -0.000090 0.243464
104.018524 -124.891640 -0.000304 0.272299
103.773895 -123.175812 0.000001 0.244617
103.593842 -121.912888 -0.000000 0.337500
nan nan nan 0.000000
nan nan nan 0.000000
107.228905 -149.163879 8.455181 0.400368
107.289284 -149.609680 7.329184 0.399387
107.241760 -149.258789 6.092268 0.409069
107.176392 -148.776215 4.876835 0.403554
107.351723 -150.070587 3.787803 0.408456
nan nan nan 0.000000
nan nan nan 0.000000
107.931839 -154.353317 -0.000121 0.221742
105.741264 -138.181442 -0.000181 0.216744
104.800690 -131.237640 -0.000170 0.227509
104.276802 -127.370117 -0.000129 0.254902
103.942413 -124.901459 -0.000166 0.201653
103.710045 -123.186050 -0.000291 0.177816
103.533272 -121.881012 0.009997 1.000000
nan nan nan 0.000000
nan nan nan 0.000000
