# This PCD file was generated using the MATLABÂ® pcwrite function
# from Computer Vision ToolboxÂ®.
# .PCD v.7 - Point Cloud Data file format
VERSION .7
FIELDS x y z intensity
SIZE 4 4 4 4
TYPE F F F F
COUNT 1 1 1 1
WIDTH 1255
HEIGHT 1
VIEWPOINT 0 0 0 1 0 0 0
POINTS 1255
DATA ascii
nan nan nan 0.000000
nan nan nan 0.000000
nan nan nan 0.000000
nan nan nan 0.000000
nan nan nan 0.000000
nan nan nan 0.000000
nan nan nan 0.000000
nan nan nan 0.000000
26.593300 -29.717237 0.000064 0.227316
23.441595 -45.728535 0.000045 0.223376
22.088562 -52.602222 -0.000040 0.215013
21.334641 -56.432297 0.000146 0.220588
20.853611 -58.876034 0.000067 0.221069
20.519325 -60.574265 -0.000070 0.239523
20.272635 -61.827511 0.000319 0.233468
nan nan nan 0.000000
nan nan nan 0.000000
nan nan nan 0.000000
nan nan nan 0.000000
nan nan nan 0.000000
nan nan nan 0.000000
nan nan nan 0.000000
nan nan nan 0.000000
nan nan nan 0.000000
26.870419 -29.780642 0.000443 0.221165
23.607769 -45.765846 0.000366 0.227316
22.207008 -52.628815 0.000282 0.220396
21.426493 -56.452911 0.000466 0.200500
20.928505 -58.892784 0.000376 0.239715
20.582363 -60.588692 0.000310 0.196655
20.327030 -61.839680 0.000630 0.234045
nan nan nan 0.000000
nan nan nan 0.000000
nan nan nan 0.000000
nan nan nan 0.000000
nan nan nan 0.000000
nan nan nan 0.000000
nan nan nan 0.000000
nan nan nan 0.000000
nan nan nan 0.000000
27.148645 -29.838371 0.000439 0.229719
23.774469 -45.800449 0.000365 0.231161
22.325836 -52.653446 0.000276 0.233852
21.518644 -56.472004 0.000459 0.203576
21.003630 -58.908352 0.000370 0.294983
20.645666 -60.601761 0.000292 0.251730
20.381596 -61.850994 0.000624 0.248366
nan nan nan 0.000000
nan nan nan 0.000000
nan nan nan 0.000000
nan nan nan 0.000000
nan nan nan 0.000000
nan nan nan 0.000000
nan nan nan 0.000000
nan nan nan 0.000000
nan nan nan 0.000000
27.427069 -29.895273 0.000297 0.224914
23.941305 -45.834480 0.000217 0.222030
22.444748 -52.677734 0.000131 0.224914
21.610771 -56.491219 0.000372 0.218281
21.078802 -58.923729 0.000230 0.226547
20.708998 -60.614723 0.000153 0.242695
20.436197 -61.862144 0.000481 0.250673
nan nan nan 0.000000
nan nan nan 0.000000
nan nan nan 0.000000
nan nan nan 0.000000
nan nan nan 0.000000
nan nan nan 0.000000
nan nan nan 0.000000
nan nan nan 0.000000
38.690708 18.650967 0.518428 1.000000
27.705118 -29.954071 0.000151 0.228950
24.107899 -45.869732 0.000073 0.222991
22.563467 -52.702961 0.000000 0.220973
21.702848 -56.510712 0.000230 0.233564
21.153843 -58.939751 0.000112 0.219243
20.772242 -60.628132 0.000015 0.259708
20.490709 -61.873737 0.000350 0.251153
nan nan nan 0.000000
nan nan nan 0.000000
nan nan nan 0.000000
nan nan nan 0.000000
nan nan nan 0.000000
nan nan nan 0.000000
nan nan nan 0.000000
nan nan nan 0.000000
39.314499 18.542652 0.517872 1.000000
27.982109 -30.017653 0.000149 0.226355
24.273855 -45.907860 0.000074 0.234621
22.681780 -52.730042 -0.000011 0.239139
21.794571 -56.531807 0.000234 0.237889
21.228647 -58.956848 0.000096 0.214533
20.835253 -60.642578 0.000010 0.245483
20.545033 -61.886196 0.000346 0.219627
nan nan nan 0.000000
nan nan nan 0.000000
nan nan nan 0.000000
nan nan nan 0.000000
36.232986 3.040965 10.602564 1.000000
36.232983 3.040949 8.131478 1.000000
36.232979 3.040949 5.673627 1.000000
36.232983 3.040957 3.223667 1.000000
36.232983 3.040957 0.776333 1.000000
28.257133 -30.089464 0.000466 0.229527
24.438648 -45.950844 0.000386 0.210208
22.799234 -52.760719 0.000306 0.226451
21.885670 -56.555519 0.000540 0.210784
21.302931 -58.976120 0.000392 0.269608
20.897823 -60.658882 0.000319 0.200884
20.598970 -61.900269 0.000659 0.211938
nan nan nan 0.000000
nan nan nan 0.000000
nan nan nan 0.000000
nan nan nan 0.000000
35.145046 -3.511072 9.840649 1.000000
35.145054 -3.511056 7.588425 1.000000
35.145054 -3.511041 5.348261 1.000000
35.145061 -3.511026 3.115290 1.000000
35.145061 -3.511026 0.884710 1.000000
28.533876 -30.154036 0.000319 0.227605
24.604456 -45.989559 0.000242 0.223856
22.917421 -52.788300 0.000160 0.228181
21.977314 -56.576923 0.000397 0.208381
21.377630 -58.993645 0.000262 0.219627
20.960754 -60.673656 0.000191 0.265379
20.653252 -61.912884 0.000501 0.242599
nan nan nan 0.000000
nan nan nan 0.000000
nan nan nan 0.000000
34.234131 -8.997055 11.287766 1.000000
34.234135 -8.997047 9.203051 1.000000
34.234138 -8.997036 7.133978 1.000000
34.234138 -8.997036 5.075980 1.000000
34.234138 -8.997032 3.024594 1.000000
34.234138 -8.997032 0.975405 1.000000
28.809439 -30.223440 0.000319 0.226547
24.769577 -46.031094 0.000239 0.229719
23.035114 -52.817917 0.000157 0.239331
22.068579 -56.599884 0.000393 0.237024
21.452023 -59.012424 0.000269 0.197424
21.023455 -60.689373 0.000176 0.246828
20.707283 -61.926537 0.000511 0.219146
nan nan nan 0.000000
nan nan nan 0.000000
nan nan nan 0.000000
33.460175 -13.658189 10.589666 1.000000
33.460175 -13.658185 8.661644 1.000000
33.460178 -13.658174 6.748089 1.000000
33.460178 -13.658166 4.844781 1.000000
33.460182 -13.658158 2.947584 1.000000
33.460182 -13.658158 1.052417 1.000000
29.085260 -30.291931 0.000175 0.226932
24.934841 -46.072128 0.000094 0.212418
23.152884 -52.847267 0.000026 0.219050
22.159906 -56.622635 0.000260 0.240965
21.526506 -59.030876 0.000118 0.220684
21.086178 -60.705032 0.000050 0.230584
20.761356 -61.940022 0.000382 0.239812
nan nan nan 0.000000
nan nan nan 0.000000
32.794403 -17.667767 11.800356 1.000000
32.794407 -17.667755 9.989539 1.000000
32.794403 -17.667767 8.196220 1.000000
32.794411 -17.667744 6.416359 1.000000
32.794407 -17.667747 4.646026 1.000000
32.794411 -17.667740 2.881378 1.000000
32.794411 -17.667740 1.118621 1.000000
29.359858 -30.365141 0.000173 0.224721
25.099356 -46.116051 0.000097 0.219723
23.270170 -52.878487 0.000018 0.237601
22.250864 -56.646816 0.000248 0.230488
21.600630 -59.050701 0.000127 0.214917
21.148642 -60.721687 0.000048 0.213283
20.815224 -61.954323 0.000365 0.211938
nan nan nan 0.000000
nan nan nan 0.000000
32.215569 -21.153788 11.160781 1.000000
32.215569 -21.153788 9.468138 1.000000
32.215569 -21.153788 7.791850 1.000000
32.215572 -21.153776 6.128145 1.000000
32.215572 -21.153765 4.473344 1.000000
32.215572 -21.153772 2.823859 1.000000
32.215572 -21.153772 1.176141 1.000000
29.632223 -30.446434 0.000486 0.228278
25.262558 -46.164719 0.000407 0.223664
23.386473 -52.913261 0.000338 0.245290
22.341066 -56.673725 0.000558 0.265667
21.674185 -59.072590 0.000428 0.226547
21.210625 -60.740082 0.000339 0.243272
20.868647 -61.970222 0.000667 0.294598
nan nan nan 0.000000
nan nan nan 0.000000
31.707634 -24.212822 10.599963 1.000000
31.707634 -24.212822 9.010942 1.000000
31.707630 -24.212830 7.437275 1.000000
31.707630 -24.212830 5.875421 1.000000
31.707638 -24.212803 4.321928 1.000000
31.707638 -24.212807 2.773423 1.000000
31.707638 -24.212807 1.226577 1.000000
29.906527 -30.520668 0.000342 0.225106
25.426914 -46.209187 0.000261 0.224914
23.503624 -52.944946 0.000191 0.231834
22.431908 -56.698315 0.000414 0.239715
21.748259 -59.092594 0.000276 0.241926
21.273001 -60.757046 0.000212 0.219243
20.922424 -61.984833 0.000536 0.209246
nan nan nan 0.000000
31.258265 -26.919113 11.619577 1.000000
31.258265 -26.919121 10.104207 1.000000
31.258266 -26.919109 8.606789 1.000000
31.258265 -26.919113 7.123838 1.000000
31.258265 -26.919113 5.652018 1.000000
31.258276 -26.919079 4.188077 1.000000
31.258276 -26.919079 2.728839 1.000000
31.258276 -26.919079 1.271161 1.000000
30.179489 -30.599689 0.000344 0.228662
25.590475 -46.256500 0.000260 0.228085
23.620186 -52.978733 0.000198 0.223087
22.522297 -56.724514 0.000422 0.254325
21.821947 -59.113968 0.000286 0.225682
21.335096 -60.775009 0.000211 0.215590
20.975941 -62.000374 0.000550 0.271146
nan nan nan 0.000000
30.857874 -29.330463 11.095699 1.000000
30.857874 -29.330463 9.662855 1.000000
30.857874 -29.330463 8.246984 1.000000
30.857872 -29.330467 6.844797 1.000000
30.857874 -29.330463 5.453131 1.000000
30.857880 -29.330437 4.068916 1.000000
30.857878 -29.330441 2.689146 1.000000
30.857878 -29.330441 1.310853 1.000000
30.452761 -30.677706 0.000197 0.226163
25.754204 -46.303261 0.000116 0.227509
23.736908 -53.012001 0.000046 0.217609
22.612789 -56.750378 0.000279 0.202614
21.895721 -59.135067 0.000145 0.212130
21.397234 -60.792843 0.000084 0.235967
21.029514 -62.015732 0.000419 0.272107
30.498825 -31.492830 12.004590 1.000000
30.498827 -31.492826 10.626336 1.000000
30.498825 -31.492830 9.267432 1.000000
30.498825 -31.492830 7.924623 1.000000
30.498827 -31.492826 6.594791 1.000000
30.498827 -31.492826 5.274939 1.000000
30.498833 -31.492807 3.962155 1.000000
30.498833 -31.492804 2.653585 1.000000
30.498833 -31.492804 1.346416 1.000000
30.498831 -31.492811 0.037845 1.000000
25.917595 -46.351246 -0.000024 0.218666
23.853369 -53.046200 -0.000094 0.213187
22.703108 -56.776875 0.000136 0.221742
21.969336 -59.156734 0.000015 0.254133
21.459282 -60.811005 -0.000067 0.212034
21.082998 -62.031418 0.000274 0.215013
30.174999 -33.443058 11.514100 1.000000
30.174999 -33.443058 10.203418 1.000000
30.174999 -33.443062 8.911135 1.000000
30.174999 -33.443066 7.634158 1.000000
30.174999 -33.443058 6.369525 1.000000
30.174999 -33.443058 5.114381 1.000000
30.175007 -33.443031 3.865957 1.000000
30.175007 -33.443031 2.621541 1.000000
30.175007 -33.443031 1.378458 1.000000
30.175007 -33.443039 0.134042 1.000000
26.078476 -46.407265 0.000431 0.226163
23.968056 -53.086090 0.000355 0.204633
22.792042 -56.807800 0.000585 0.234910
22.041859 -59.181892 0.000454 0.253845
21.520382 -60.832207 0.000372 0.243849
21.135685 -62.049652 0.000702 0.246924
29.881424 -35.211117 11.069871 1.000000
29.881424 -35.211117 9.820385 1.000000
29.881422 -35.211121 8.588442 1.000000
29.881422 -35.211121 7.371089 1.000000
29.881422 -35.211121 6.165504 1.000000
29.881424 -35.211117 4.968965 1.000000
29.881422 -35.211121 3.778831 1.000000
29.881430 -35.211094 2.592521 1.000000
29.881430 -35.211094 1.407479 1.000000
29.881430 -35.211098 0.221168 1.000000
26.241179 -46.457451 0.000286 0.233372
24.084011 -53.121902 0.000216 0.215110
22.881950 -56.835602 0.000450 0.217416
22.115189 -59.204475 0.000302 0.230873
21.582129 -60.851334 0.000244 0.213283
21.188936 -62.066074 0.000557 0.232987
29.614025 -36.821491 10.665681 1.000000
29.614029 -36.821487 9.471877 1.000000
29.614025 -36.821491 8.294834 1.000000
29.614029 -36.821487 7.131733 1.000000
29.614029 -36.821487 5.979873 1.000000
29.614025 -36.821495 4.836655 1.000000
29.614029 -36.821487 3.699560 1.000000
29.614035 -36.821465 2.566115 1.000000
29.614035 -36.821465 1.433885 1.000000
29.614035 -36.821472 0.300439 1.000000
26.403538 -46.508770 0.000140 0.214341
24.199720 -53.158527 0.000076 0.230777
22.971725 -56.863861 0.000288 0.226451
22.188328 -59.227669 0.000171 0.205882
21.643759 -60.870842 0.000105 0.228854
21.242043 -62.082977 0.000440 0.212130
29.369442 -38.294514 10.296371 1.000000
29.369442 -38.294518 9.153442 1.000000
29.369442 -38.294518 8.026562 1.000000
29.369442 -38.294521 6.913030 1.000000
29.369440 -38.294525 5.810258 1.000000
29.369442 -38.294521 4.715763 1.000000
29.369442 -38.294518 3.627128 1.000000
29.369452 -38.294495 2.541989 1.000000
29.369452 -38.294495 1.458011 1.000000
29.369452 -38.294495 0.372870 1.000000
26.564970 -46.562927 0.000143 0.226067
24.314783 -53.197140 0.000080 0.246636
23.060915 -56.893906 0.000308 0.225490
22.261074 -59.252075 0.000173 0.212803
21.705067 -60.891346 0.000095 0.250673
21.294907 -62.100620 0.000420 0.241157
29.144836 -39.647186 9.957619 1.000000
29.144838 -39.647186 8.861362 1.000000
29.144836 -39.647186 7.780492 1.000000
29.144836 -39.647186 6.712427 1.000000
29.144836 -39.647194 5.654684 1.000000
29.144836 -39.647186 4.604876 1.000000
29.144836 -39.647186 3.560690 1.000000
29.144846 -39.647167 2.519859 1.000000
29.144846 -39.647163 1.480141 1.000000
29.144846 -39.647167 0.439307 1.000000
26.726604 -46.616512 -0.000002 0.223087
24.429996 -53.235325 -0.000066 0.232987
23.150249 -56.923534 0.000165 0.247020
22.333921 -59.276188 0.000021 0.233180
21.766422 -60.911716 -0.000045 0.243752
21.347790 -62.118214 0.000290 0.208285
28.937843 -40.893810 9.645802 1.000000
28.937843 -40.893810 8.592499 1.000000
28.937843 -40.893810 7.553984 1.000000
28.937843 -40.893810 6.527771 1.000000
28.937843 -40.893810 5.511475 1.000000
28.937843 -40.893806 4.502804 1.000000
28.937840 -40.893814 3.499535 1.000000
28.937849 -40.893787 2.499488 1.000000
28.937849 -40.893787 1.500511 1.000000
28.937847 -40.893795 0.500464 1.000000
26.885427 -46.678143 0.000454 0.217993
24.543230 -53.279160 0.000379 0.222895
23.238060 -56.957523 0.000610 0.247789
22.405512 -59.303902 0.000467 0.202422
21.826733 -60.935078 0.000404 0.211649
21.399832 -62.138218 0.000702 0.221742
28.746449 -42.046459 9.357846 1.000000
28.746449 -42.046459 8.344213 1.000000
28.746449 -42.046459 7.344811 1.000000
28.746449 -42.046463 6.357245 1.000000
28.746450 -42.046459 5.379226 1.000000
28.746449 -42.046463 4.408544 1.000000
28.746449 -42.046459 3.443061 1.000000
28.746449 -42.046459 2.480677 1.000000
28.746458 -42.046440 1.519323 1.000000
28.746458 -42.046436 0.556938 1.000000
27.046293 -46.733913 0.000304 0.223472
24.657883 -53.318935 0.000233 0.236736
23.327148 -56.987881 0.000385 0.239812
22.477987 -59.329082 0.000326 0.207805
21.887810 -60.956245 0.000252 0.240196
21.452459 -62.156540 0.000570 0.238081
28.568941 -43.115498 9.091125 1.000000
28.568941 -43.115498 8.114236 1.000000
28.568941 -43.115498 7.151062 1.000000
28.568941 -43.115498 6.199296 1.000000
28.568939 -43.115498 5.256728 1.000000
28.568941 -43.115494 4.321235 1.000000
28.568941 -43.115498 3.390749 1.000000
28.568941 -43.115498 2.463252 1.000000
28.568949 -43.115475 1.536747 1.000000
28.568949 -43.115479 0.609249 1.000000
27.206762 -46.790867 0.000160 0.219146
24.772243 -53.359585 0.000094 0.229719
23.415804 -57.019478 0.000258 0.225394
22.550270 -59.354820 0.000196 0.239235
21.948725 -60.977890 0.000112 0.209631
21.504963 -62.175232 0.000439 0.217705
28.403851 -44.109764 8.843391 1.000000
28.403851 -44.109764 7.900631 1.000000
28.403851 -44.109764 6.971107 1.000000
28.403851 -44.109768 6.052591 1.000000
28.403849 -44.109772 5.142954 1.000000
28.403849 -44.109772 4.240141 1.000000
28.403849 -44.109772 3.342163 1.000000
28.403849 -44.109772 2.447068 1.000000
28.403854 -44.109749 1.552932 1.000000
28.403858 -44.109749 0.657836 1.000000
27.366169 -46.850719 0.000169 0.228181
24.885860 -53.402260 0.000106 0.211745
23.503929 -57.052517 0.000262 0.212707
22.622135 -59.381706 0.000190 0.207420
22.009344 -61.000347 0.000061 0.199058
21.557165 -62.194744 0.000428 0.228374
28.249893 -45.036968 8.612692 1.000000
28.249891 -45.036968 7.701711 1.000000
28.249891 -45.036968 6.803524 1.000000
28.249893 -45.036972 5.915973 1.000000
28.249893 -45.036972 5.037001 1.000000
28.249891 -45.036968 4.164622 1.000000
28.249891 -45.036968 3.296916 1.000000
28.249891 -45.036968 2.431996 1.000000
28.249899 -45.036949 1.568003 1.000000
28.249899 -45.036953 0.703082 1.000000
27.525835 -46.909916 0.000026 0.228662
24.999666 -53.444450 -0.000039 0.245579
23.592182 -57.085243 0.000119 0.208093
22.694077 -59.408405 0.000049 0.238947
22.069935 -61.022896 -0.000065 0.198577
21.609404 -62.214169 0.000297 0.249519
28.105970 -45.903728 8.397342 1.000000
28.105968 -45.903736 7.516027 1.000000
28.105968 -45.903736 6.647090 1.000000
28.105968 -45.903736 5.788444 1.000000
28.105967 -45.903736 4.938096 1.000000
28.105968 -45.903736 4.094129 1.000000
28.105967 -45.903736 3.254680 1.000000
28.105967 -45.903736 2.417928 1.000000
28.105967 -45.903736 1.582072 1.000000
28.105976 -45.903713 0.745318 1.000000
27.682446 -46.976944 0.000473 0.229527
25.111507 -53.491684 0.000341 0.218954
23.678778 -57.122215 0.000554 0.257978
22.764679 -59.438534 0.000482 0.245963
22.129416 -61.048286 0.000368 0.213572
21.660767 -62.235844 0.000674 0.198866
27.971117 -46.715862 8.195866 1.000000
27.971119 -46.715862 7.342309 1.000000
27.971119 -46.715862 6.500737 1.000000
27.971119 -46.715862 5.669134 1.000000
27.971117 -46.715866 4.845565 1.000000
27.971117 -46.715862 4.028177 1.000000
27.971119 -46.715862 3.215166 1.000000
27.971119 -46.715862 2.404766 1.000000
27.971119 -46.715862 1.595234 1.000000
27.971125 -46.715851 0.784832 1.000000
27.841515 -47.037682 0.000269 0.229239
25.224705 -53.535442 0.000195 0.225682
23.766552 -57.156162 0.000410 0.227509
22.836210 -59.466278 0.000351 0.215013
22.189720 -61.071568 0.000216 0.230969
21.712746 -62.255936 0.000527 0.258554
27.844501 -47.478428 8.006981 1.000000
27.844500 -47.478432 7.179445 1.000000
27.844500 -47.478432 6.363529 1.000000
27.844501 -47.478428 5.557276 1.000000
27.844501 -47.478428 4.758816 1.000000
27.844503 -47.478424 3.966348 1.000000
27.844501 -47.478428 3.178121 1.000000
27.844503 -47.478428 2.392427 1.000000
27.844503 -47.478428 1.607573 1.000000
27.844509 -47.478409 0.821878 1.000000
27.844511 -47.478405 0.033650 1.000000
25.337603 -53.579998 0.000049 0.227124
23.854069 -57.190781 0.000275 0.202614
22.907597 -59.494415 0.000199 0.208478
22.249819 -61.095383 0.000089 0.205690
21.764566 -62.276447 0.000396 0.195117
27.725367 -48.195911 7.829546 1.000000
27.725368 -48.195908 7.026455 1.000000
27.725367 -48.195911 6.234640 1.000000
27.725367 -48.195911 5.452202 1.000000
27.725367 -48.195911 4.677326 1.000000
27.725367 -48.195911 3.908265 1.000000
27.725367 -48.195911 3.143322 1.000000
27.725367 -48.195911 2.380835 1.000000
27.725367 -48.195911 1.619165 1.000000
27.725374 -48.195889 0.856677 1.000000
27.725374 -48.195892 0.091733 1.000000
25.449652 -53.626629 0.000064 0.213091
23.940979 -57.226894 0.000282 0.236736
22.978426 -59.523911 0.000217 0.236928
22.309513 -61.120190 0.000096 0.223087
21.816031 -62.297832 0.000403 0.182526
27.613062 -48.872261 7.662559 1.000000
27.613060 -48.872265 6.882472 1.000000
27.613060 -48.872265 6.113338 1.000000
27.613060 -48.872265 5.353312 1.000000
27.613062 -48.872261 4.600634 1.000000
27.613060 -48.872265 3.853602 1.000000
27.613062 -48.872261 3.110572 1.000000
27.613062 -48.872261 2.369926 1.000000
27.613062 -48.872261 1.630074 1.000000
27.613068 -48.872242 0.889427 1.000000
27.613068 -48.872246 0.146395 1.000000
25.561924 -53.672760 -0.000082 0.234333
24.028055 -57.262634 0.000130 0.247789
23.049416 -59.553047 0.000066 0.218185
22.369314 -61.144760 -0.000049 0.207805
21.867558 -62.319073 0.000272 0.254998
27.507004 -49.510979 7.505132 1.000000
27.507004 -49.510979 6.746732 1.000000
27.507004 -49.510979 5.998981 1.000000
27.507006 -49.510979 5.260087 1.000000
27.507004 -49.510979 4.528333 1.000000
27.507004 -49.510979 3.802070 1.000000
27.507004 -49.510979 3.079696 1.000000
27.507004 -49.510979 2.359642 1.000000
27.507004 -49.510979 1.640358 1.000000
27.507004 -49.510979 0.920304 1.000000
27.507011 -49.510963 0.197928 1.000000
25.673847 -53.719746 -0.000220 0.241157
24.114822 -57.299126 0.000002 0.241349
23.120155 -59.582794 -0.000063 0.207901
22.428930 -61.169788 -0.000187 0.199635
21.918972 -62.340603 0.000123 0.204248
27.406685 -50.115158 7.356480 1.000000
27.406683 -50.115162 6.618558 1.000000
27.406683 -50.115162 5.890998 1.000000
27.406685 -50.115158 5.172056 1.000000
27.406683 -50.115162 4.460061 1.000000
27.406685 -50.115162 3.753409 1.000000
27.406683 -50.115162 3.050541 1.000000
27.406681 -50.115162 2.349930 1.000000
27.406681 -50.115162 1.650070 1.000000
27.406683 -50.115162 0.949459 1.000000
27.406693 -50.115143 0.246588 1.000000
25.783442 -53.772034 0.000212 0.224337
24.199810 -57.339668 0.000433 0.253845
23.189613 -59.615463 0.000291 0.249519
22.487331 -61.197575 0.000229 0.215494
21.969337 -62.364517 0.000529 0.225586
27.311638 -50.687595 7.215891 1.000000
27.311638 -50.687592 6.497338 1.000000
27.311638 -50.687595 5.788873 1.000000
27.311638 -50.687595 5.088800 1.000000
27.311636 -50.687595 4.395493 1.000000
27.311636 -50.687595 3.707388 1.000000
27.311636 -50.687595 3.022968 1.000000
27.311634 -50.687599 2.340745 1.000000
27.311634 -50.687599 1.659254 1.000000
27.311636 -50.687595 0.977032 1.000000
27.311644 -50.687580 0.292610 1.000000
25.894688 -53.820560 0.000073 0.222414
24.286093 -57.377258 0.000289 0.231353
23.259974 -59.646076 0.000139 0.204344
22.546564 -61.223469 0.000102 0.212130
22.020433 -62.386780 0.000383 0.266532
27.221443 -51.230785 7.082730 1.000000
27.221439 -51.230789 6.382523 1.000000
27.221439 -51.230789 5.692145 1.000000
27.221439 -51.230789 5.009944 1.000000
27.221439 -51.230793 4.334337 1.000000
27.221441 -51.230785 3.663799 1.000000
27.221443 -51.230785 2.996852 1.000000
27.221439 -51.230789 2.332047 1.000000
27.221439 -51.230789 1.667953 1.000000
27.221441 -51.230785 1.003147 1.000000
27.221449 -51.230774 0.336199 1.000000
26.005030 -53.871098 0.000091 0.235582
24.371660 -57.416454 0.000306 0.230873
23.329731 -59.678043 0.000159 0.285467
22.605488 -61.250057 0.000042 0.209054
22.071169 -62.409840 0.000361 0.240869
27.135733 -51.746948 6.956439 1.000000
27.135735 -51.746944 6.273630 1.000000
27.135735 -51.746944 5.600406 1.000000
27.135733 -51.746948 4.935156 1.000000
27.135733 -51.746948 4.276336 1.000000
27.135733 -51.746952 3.622459 1.000000
27.135733 -51.746948 2.972083 1.000000
27.135733 -51.746948 2.323797 1.000000
27.135733 -51.746948 1.676203 1.000000
27.135733 -51.746948 1.027916 1.000000
27.135742 -51.746933 0.377539 1.000000
26.115620 -53.921116 -0.000056 0.233083
24.457405 -57.455261 0.000164 0.212995
23.399630 -59.709702 0.000020 0.205882
22.664381 -61.276730 -0.000098 0.217320
22.121923 -62.432865 0.000231 0.225010
27.054178 -52.238121 6.836500 1.000000
27.054178 -52.238121 6.170212 1.000000
27.054178 -52.238121 5.513280 1.000000
27.054178 -52.238117 4.864129 1.000000
27.054178 -52.238117 4.221251 1.000000
27.054176 -52.238125 3.583197 1.000000
27.054178 -52.238117 2.948560 1.000000
27.054178 -52.238117 2.315961 1.000000
27.054178 -52.238117 1.684039 1.000000
27.054178 -52.238121 1.051440 1.000000
27.054176 -52.238125 0.416803 1.000000
26.225815 -53.972023 -0.000187 0.220300
24.542614 -57.495247 0.000116 0.236448
23.469290 -59.741901 -0.000108 0.221646
22.723089 -61.303825 -0.000234 0.239812
22.172525 -62.456245 0.000100 0.190504
26.976473 -52.706093 6.722454 1.000000
26.976473 -52.706097 6.071877 1.000000
26.976473 -52.706097 5.430435 1.000000
26.976473 -52.706097 4.796592 1.000000
26.976473 -52.706097 4.168873 1.000000
26.976473 -52.706097 3.545865 1.000000
26.976473 -52.706097 2.926193 1.000000
26.976471 -52.706097 2.308510 1.000000
26.976471 -52.706100 1.691490 1.000000
26.976473 -52.706097 1.073807 1.000000
26.976473 -52.706097 0.454135 1.000000
26.333517 -54.028099 0.000244 0.230873
24.626158 -57.538677 0.000538 0.203383
23.537342 -59.777431 0.000339 0.252403
22.780468 -61.333675 0.000192 0.236255
22.222034 -62.481895 0.000502 0.180315
26.902349 -53.152515 6.613884 1.000000
26.902346 -53.152523 5.978264 1.000000
26.902346 -53.152523 5.351570 1.000000
26.902349 -53.152515 4.732298 1.000000
26.902349 -53.152515 4.119011 1.000000
26.902348 -53.152519 3.510325 1.000000
26.902349 -53.152515 2.904900 1.000000
26.902348 -53.152519 2.301418 1.000000
26.902348 -53.152519 1.698582 1.000000
26.902349 -53.152515 1.095100 1.000000
26.902346 -53.152523 0.489674 1.000000
26.442970 -54.080532 0.000113 0.231449
24.711039 -57.579315 0.000404 0.224529
23.606564 -59.810535 0.000199 0.254037
22.838734 -61.361675 0.000079 0.203864
22.272320 -62.505924 0.000357 0.204344
26.831549 -53.578907 6.510406 1.000000
26.831549 -53.578907 5.889043 1.000000
26.831549 -53.578907 5.276403 1.000000
26.831549 -53.578907 4.671019 1.000000
26.831547 -53.578911 4.071486 1.000000
26.831549 -53.578907 3.476453 1.000000
26.831549 -53.578907 2.884605 1.000000
26.831549 -53.578907 2.294657 1.000000
26.831549 -53.578907 1.705342 1.000000
26.831549 -53.578907 1.115395 1.000000
26.831547 -53.578911 0.523547 1.000000
26.552139 -54.133583 -0.000038 0.229719
24.795666 -57.620506 0.000262 0.231738
23.675550 -59.844135 0.000060 0.227605
22.896879 -61.389938 -0.000071 0.193868
22.322414 -62.530357 0.000227 0.266148
26.763847 -53.986614 6.411677 1.000000
26.763849 -53.986618 5.803916 1.000000
26.763851 -53.986610 5.204686 1.000000
26.763847 -53.986618 4.612553 1.000000
26.763847 -53.986614 4.026144 1.000000
26.763847 -53.986614 3.444135 1.000000
26.763847 -53.986618 2.865242 1.000000
26.763847 -53.986618 2.288208 1.000000
26.763847 -53.986618 1.711792 1.000000
26.763847 -53.986618 1.134758 1.000000
26.763847 -53.986618 0.555865 1.000000
26.660267 -54.188721 -0.000018 0.245867
24.879505 -57.663265 0.000283 0.220012
23.743734 -59.879337 0.000151 0.225106
22.954464 -61.419331 -0.000046 0.215013
22.372164 -62.555489 0.000194 0.207516
26.830273 -54.125175 6.388487 1.000000
26.830273 -54.125175 5.783920 1.000000
26.830273 -54.125175 5.187840 1.000000
26.830271 -54.125175 4.598820 1.000000
26.830271 -54.125175 4.015492 1.000000
26.830271 -54.125175 3.436543 1.000000
26.830271 -54.125175 2.860693 1.000000
26.830271 -54.125175 2.286693 1.000000
26.830271 -54.125179 1.713307 1.000000
26.830271 -54.125179 1.139307 1.000000
26.830271 -54.125179 0.563457 1.000000
26.767237 -54.246082 0.000193 0.215975
24.963573 -57.705593 0.000134 0.228566
23.812246 -59.913898 0.000012 0.229719
23.011183 -61.450378 0.000286 0.214148
22.421911 -62.580627 0.000065 0.195982
26.957542 -54.146240 6.398653 1.000000
26.957542 -54.146240 5.792684 1.000000
26.957542 -54.146248 5.195223 1.000000
26.957542 -54.146244 4.604839 1.000000
26.957542 -54.146244 4.020162 1.000000
26.957542 -54.146248 3.439870 1.000000
26.957542 -54.146244 2.862687 1.000000
26.957542 -54.146248 2.287357 1.000000
26.957542 -54.146248 1.712643 1.000000
26.957542 -54.146248 1.137313 1.000000
26.957541 -54.146248 0.560129 1.000000
26.873550 -54.304638 0.000463 0.230969
25.046043 -57.750980 0.000400 0.223087
23.879478 -59.950905 0.000280 0.241253
23.067816 -61.481552 0.000552 0.251634
22.470800 -62.607414 0.000305 0.197232
27.085411 -54.167416 6.409079 1.000000
27.085411 -54.167412 5.801675 1.000000
27.085411 -54.167412 5.202798 1.000000
27.085411 -54.167416 4.611014 1.000000
27.085411 -54.167412 4.024951 1.000000
27.085411 -54.167412 3.443284 1.000000
27.085411 -54.167416 2.864732 1.000000
27.085411 -54.167416 2.288038 1.000000
27.085411 -54.167416 1.711962 1.000000
27.085409 -54.167419 1.135268 1.000000
27.085409 -54.167419 0.556715 1.000000
26.980476 -54.362003 0.000483 0.221357
25.128933 -57.795540 0.000430 0.244329
23.947079 -59.987198 0.000302 0.211169
23.124714 -61.512203 0.000596 0.202326
22.519924 -62.633739 0.000317 0.254325
27.213894 -54.188683 6.419773 1.000000
27.213894 -54.188683 5.810895 1.000000
27.213894 -54.188683 5.210566 1.000000
27.213890 -54.188683 4.617347 1.000000
27.213894 -54.188683 4.029862 1.000000
27.213894 -54.188683 3.446784 1.000000
27.213894 -54.188683 2.866830 1.000000
27.213890 -54.188686 2.288737 1.000000
27.213890 -54.188686 1.711263 1.000000
27.213890 -54.188683 1.133170 1.000000
27.213890 -54.188683 0.553215 1.000000
27.087673 -54.418884 0.000340 0.226644
25.212088 -57.839626 0.000283 0.203191
24.014814 -60.023247 0.000177 0.224625
23.181795 -61.542526 0.000460 0.259804
22.568916 -62.660309 0.000302 0.214725
27.343004 -54.210056 6.430735 1.000000
27.343004 -54.210056 5.820347 1.000000
27.343004 -54.210056 5.218529 1.000000
27.343004 -54.210060 4.623838 1.000000
27.343002 -54.210060 4.034895 1.000000
27.343004 -54.210060 3.450372 1.000000
27.343004 -54.210060 2.868980 1.000000
27.343000 -54.210064 2.289453 1.000000
27.343000 -54.210064 1.710547 1.000000
27.343002 -54.210060 1.131021 1.000000
27.343000 -54.210064 0.549627 1.000000
27.194458 -54.476551 0.000202 0.228758
25.295080 -57.884041 0.000092 0.239235
24.082333 -60.059708 0.000038 0.223856
23.238668 -61.573238 0.000322 0.203191
22.617970 -62.686783 0.000160 0.221742
27.472761 -54.231541 6.441967 1.000000
27.472763 -54.231541 5.830033 1.000000
27.472761 -54.231541 5.226688 1.000000
27.472761 -54.231541 4.630491 1.000000
27.472759 -54.231544 4.040055 1.000000
27.472761 -54.231541 3.454050 1.000000
27.472761 -54.231541 2.871182 1.000000
27.472761 -54.231541 2.290186 1.000000
27.472761 -54.231541 1.709813 1.000000
27.472761 -54.231541 1.128817 1.000000
27.472761 -54.231541 0.545950 1.000000
27.300186 -54.536129 0.000218 0.247020
25.377050 -57.930298 0.000117 0.251057
24.149370 -60.097046 -0.000015 0.237601
23.295126 -61.604717 0.000274 0.247501
22.666533 -62.714130 0.000173 0.202903
27.603193 -54.253132 6.453476 1.000000
27.603189 -54.253136 5.839955 1.000000
27.603191 -54.253132 5.235049 1.000000
27.603189 -54.253139 4.637305 1.000000
27.603189 -54.253139 4.045341 1.000000
27.603189 -54.253136 3.457817 1.000000
27.603189 -54.253139 2.873439 1.000000
27.603189 -54.253139 2.290939 1.000000
27.603189 -54.253139 1.709062 1.000000
27.603189 -54.253139 1.126560 1.000000
27.603189 -54.253139 0.542183 1.000000
27.404453 -54.598251 0.000474 0.208958
25.457933 -57.978451 0.000368 0.209343
24.215288 -60.136353 0.000246 0.245867
23.350677 -61.637779 0.000523 0.207420
22.714466 -62.742588 0.000407 0.210977
27.734301 -54.274841 6.465262 1.000000
27.734301 -54.274841 5.850118 1.000000
27.734301 -54.274841 5.243609 1.000000
27.734301 -54.274841 4.644285 1.000000
27.734301 -54.274841 4.050753 1.000000
27.734301 -54.274841 3.461675 1.000000
27.734299 -54.274845 2.875751 1.000000
27.734301 -54.274845 2.291708 1.000000
27.734301 -54.274845 1.708292 1.000000
27.734297 -54.274849 1.124249 1.000000
27.734299 -54.274845 0.538325 1.000000
27.509960 -54.658199 0.000345 0.238081
25.539783 -58.024914 0.000233 0.223856
24.281963 -60.174332 0.000132 0.266052
23.406874 -61.669716 0.000395 0.199827
22.762955 -62.770065 0.000261 0.188485
27.866114 -54.296669 6.477330 1.000000
27.866114 -54.296669 5.860522 1.000000
27.866116 -54.296669 5.252376 1.000000
27.866112 -54.296669 4.651432 1.000000
27.866112 -54.296669 4.056295 1.000000
27.866112 -54.296669 3.465625 1.000000
27.866112 -54.296669 2.878118 1.000000
27.866112 -54.296669 2.292497 1.000000
27.866112 -54.296669 1.707503 1.000000
27.866112 -54.296665 1.121882 1.000000
27.866112 -54.296665 0.534375 1.000000
27.614412 -54.719975 0.000361 0.248847
25.620760 -58.072884 0.000259 0.200115
24.348001 -60.213398 0.000150 0.206075
23.462507 -61.702614 0.000411 0.224817
22.810930 -62.798435 0.000277 0.216263
27.998646 -54.318607 6.489682 1.000000
27.998646 -54.318607 5.871173 1.000000
27.998646 -54.318611 5.261348 1.000000
27.998646 -54.318611 4.658746 1.000000
27.998646 -54.318611 4.061968 1.000000
27.998646 -54.318611 3.469668 1.000000
27.998646 -54.318611 2.880540 1.000000
27.998646 -54.318611 2.293303 1.000000
27.998646 -54.318611 1.706696 1.000000
27.998646 -54.318611 1.119460 1.000000
27.998644 -54.318607 0.530331 1.000000
27.719362 -54.780926 0.000168 0.224817
25.701973 -58.120461 0.000119 0.221742
24.414232 -60.252155 0.000003 0.271819
23.518419 -61.735058 0.000213 0.249519
22.859035 -62.826588 0.000131 0.194348
28.131920 -54.340668 6.502322 1.000000
28.131922 -54.340668 5.882073 1.000000
28.131920 -54.340672 5.270530 1.000000
28.131920 -54.340672 4.666232 1.000000
28.131920 -54.340668 4.067775 1.000000
28.131916 -54.340672 3.473806 1.000000
28.131918 -54.340672 2.883019 1.000000
28.131916 -54.340672 2.294130 1.000000
28.131916 -54.340672 1.705870 1.000000
28.131918 -54.340672 1.116981 1.000000
28.131916 -54.340679 0.526194 1.000000
27.821148 -54.847092 0.000580 0.221357
25.781185 -58.171333 0.000454 0.230584
24.478794 -60.293659 0.000345 0.217224
23.572672 -61.770241 0.000610 0.229239
22.905834 -62.856892 0.000518 0.205690
28.265951 -54.362862 6.515254 1.000000
28.265951 -54.362862 5.893223 1.000000
28.265951 -54.362862 5.279925 1.000000
28.265951 -54.362862 4.673890 1.000000
28.265951 -54.362862 4.073713 1.000000
28.265949 -54.362862 3.478040 1.000000
28.265951 -54.362862 2.885556 1.000000
28.265949 -54.362862 2.294975 1.000000
28.265949 -54.362862 1.705026 1.000000
28.265949 -54.362862 1.114444 1.000000
28.265947 -54.362865 0.521960 1.000000
27.924931 -54.909973 0.000452 0.213860
25.861677 -58.220100 0.000326 0.240100
24.544376 -60.333485 0.000231 0.217416
23.627922 -61.803780 0.000493 0.226259
22.954376 -62.884365 -0.000026 0.197520
28.400763 -54.385174 6.528483 1.000000
28.400763 -54.385178 5.904629 1.000000
28.400763 -54.385181 5.289534 1.000000
28.400763 -54.385181 4.681724 1.000000
28.400763 -54.385181 4.079788 1.000000
28.400763 -54.385181 3.482370 1.000000
28.400761 -54.385181 2.888150 1.000000
28.400761 -54.385181 2.295839 1.000000
28.400761 -54.385181 1.704161 1.000000
28.400759 -54.385181 1.111850 1.000000
28.400761 -54.385181 0.517630 1.000000
28.028316 -54.973515 0.000316 0.208862
25.941845 -58.269417 0.000195 0.221646
24.609776 -60.373623 0.000086 0.207516
23.682989 -61.837627 0.000357 0.209439
23.001848 -62.913593 -0.000151 0.299500
28.536375 -54.407623 6.542012 1.000000
28.536371 -54.407631 5.916293 1.000000
28.536371 -54.407631 5.299361 1.000000
28.536371 -54.407631 4.689735 1.000000
28.536371 -54.407631 4.086002 1.000000
28.536371 -54.407631 3.486798 1.000000
28.536369 -54.407635 2.890803 1.000000
28.536367 -54.407639 2.296723 1.000000
28.536367 -54.407639 1.703278 1.000000
28.536367 -54.407639 1.109197 1.000000
28.536371 -54.407631 0.513201 1.000000
28.130537 -55.038914 0.000334 0.213283
26.021072 -58.320221 0.000228 0.240965
24.674414 -60.414974 0.000103 0.220300
23.737564 -61.872257 0.000323 0.217032
23.048828 -62.943600 -0.000143 0.239523
28.672806 -54.430214 6.555845 1.000000
28.672804 -54.430218 5.928220 1.000000
28.672804 -54.430218 5.309409 1.000000
28.672806 -54.430218 4.697927 1.000000
28.672800 -54.430218 4.092354 1.000000
28.672804 -54.430218 3.491326 1.000000
28.672802 -54.430222 2.893516 1.000000
28.672802 -54.430222 2.297626 1.000000
28.672802 -54.430222 1.702374 1.000000
28.672800 -54.430222 1.106484 1.000000
28.672802 -54.430222 0.508673 1.000000
28.233011 -55.103935 0.000202 0.220396
26.100529 -58.370682 0.000102 0.203576
24.739145 -60.456184 -0.000007 0.244714
23.792118 -61.906937 0.000204 0.198097
23.095943 -62.973408 -0.000294 0.276720
28.810072 -54.452942 6.569983 1.000000
28.810074 -54.452942 5.940413 1.000000
28.810070 -54.452942 5.319680 1.000000
28.810070 -54.452942 4.706301 1.000000
28.810070 -54.452942 4.098848 1.000000
28.810070 -54.452946 3.495955 1.000000
28.810070 -54.452946 2.896290 1.000000
28.810072 -54.452942 2.298550 1.000000
28.810070 -54.452942 1.701450 1.000000
28.810068 -54.452950 1.103710 1.000000
28.810068 -54.452950 0.504045 1.000000
28.333233 -55.172390 0.000446 0.230681
26.178333 -58.423660 0.000325 0.236928
24.801584 -60.500877 0.000543 0.214533
23.845509 -61.943386 0.000443 0.272587
23.142025 -63.004787 -0.000070 0.241253
28.948204 -54.475811 6.584436 1.000000
28.948202 -54.475815 5.952873 1.000000
28.948200 -54.475811 5.330178 1.000000
28.948204 -54.475811 4.714859 1.000000
28.948200 -54.475811 4.105486 1.000000
28.948200 -54.475811 3.500686 1.000000
28.948200 -54.475811 2.899124 1.000000
28.948200 -54.475811 2.299494 1.000000
28.948200 -54.475811 1.700506 1.000000
28.948200 -54.475811 1.100876 1.000000
28.948200 -54.475811 0.499314 1.000000
28.435024 -55.238472 0.000264 0.231353
26.257269 -58.474930 0.000147 0.219146
24.865793 -60.542870 0.000409 0.204825
23.899565 -61.978825 0.000325 0.210400
23.188629 -63.035381 -0.000180 0.249135
29.087221 -54.498825 6.599205 1.000000
29.087219 -54.498825 5.965608 1.000000
29.087219 -54.498825 5.340906 1.000000
29.087219 -54.498825 4.723605 1.000000
29.087219 -54.498829 4.112268 1.000000
29.087219 -54.498829 3.505520 1.000000
29.087215 -54.498829 2.902020 1.000000
29.087215 -54.498829 2.300459 1.000000
29.087215 -54.498829 1.699542 1.000000
29.087215 -54.498829 1.097980 1.000000
29.087215 -54.498829 0.494480 1.000000
28.535400 -55.306675 0.000278 0.231738
26.335060 -58.527920 0.000177 0.236544
24.929224 -60.586029 0.000432 0.253172
23.954145 -62.013519 -0.000088 0.201461
23.234837 -63.066566 -0.000209 0.192138
29.227139 -54.521992 6.614294 1.000000
29.227139 -54.521988 5.978619 1.000000
29.227139 -54.521992 5.351868 1.000000
29.227139 -54.521992 4.732541 1.000000
29.227139 -54.521992 4.119199 1.000000
29.227139 -54.521992 3.510460 1.000000
29.227135 -54.521992 2.904979 1.000000
29.227137 -54.521992 2.301445 1.000000
29.227137 -54.521992 1.698556 1.000000
29.227135 -54.521992 1.095020 1.000000
29.227135 -54.521992 0.489540 1.000000
28.635984 -55.374580 0.000154 0.231449
26.413074 -58.580582 0.000052 0.210784
24.992775 -60.629013 0.000319 0.228374
24.007755 -62.049660 -0.000221 0.228278
23.281027 -63.097786 -0.000327 0.256632
29.367989 -54.545311 6.629708 1.000000
29.367989 -54.545311 5.991910 1.000000
29.367985 -54.545311 5.363066 1.000000
29.367985 -54.545311 4.741670 1.000000
29.367987 -54.545311 4.126279 1.000000
29.367985 -54.545311 3.515506 1.000000
29.367985 -54.545315 2.908003 1.000000
29.367985 -54.545311 2.302452 1.000000
29.367985 -54.545311 1.697549 1.000000
29.367985 -54.545315 1.091997 1.000000
29.367985 -54.545315 0.484494 1.000000
28.736160 -55.443115 0.000018 0.228181
26.490732 -58.633785 -0.000075 0.242599
25.057514 -60.670338 -0.000262 0.236063
24.061075 -62.086239 -0.000340 0.253845
23.327074 -63.129227 -0.000476 0.216744
29.509787 -54.568783 6.645455 1.000000
29.509787 -54.568779 6.005488 1.000000
29.509787 -54.568783 5.374504 1.000000
29.509787 -54.568783 4.750995 1.000000
29.509785 -54.568783 4.133511 1.000000
29.509783 -54.568783 3.520660 1.000000
29.509785 -54.568783 2.911091 1.000000
29.509783 -54.568787 2.303480 1.000000
29.509783 -54.568787 1.696520 1.000000
29.509785 -54.568783 1.088908 1.000000
29.509781 -54.568790 0.479340 1.000000
28.833195 -55.516075 0.000409 0.241734
26.566238 -58.690022 0.000252 0.225682
25.118837 -60.716518 0.000139 0.239427
24.112909 -62.124912 -0.000001 0.285755
23.370649 -63.164146 0.000348 0.209246
29.652559 -54.592419 6.661538 1.000000
29.652557 -54.592419 6.019352 1.000000
29.652557 -54.592419 5.386186 1.000000
29.652559 -54.592419 4.760518 1.000000
29.652557 -54.592419 4.140896 1.000000
29.652557 -54.592419 3.525925 1.000000
29.652557 -54.592422 2.914245 1.000000
29.652557 -54.592419 2.304531 1.000000
29.652557 -54.592419 1.695469 1.000000
29.652557 -54.592422 1.085754 1.000000
29.652557 -54.592422 0.474075 1.000000
28.932343 -55.586048 0.000281 0.228181
26.643112 -58.744335 0.000132 0.232891
25.181509 -60.760799 0.000019 0.242791
24.165747 -62.162170 -0.000134 0.226547
23.416195 -63.196278 0.000217 0.205113
29.796333 -54.616219 6.677959 1.000000
29.796331 -54.616219 6.033513 1.000000
29.796329 -54.616222 5.398115 1.000000
29.796329 -54.616222 4.770242 1.000000
29.796329 -54.616222 4.148438 1.000000
29.796329 -54.616226 3.531300 1.000000
29.796329 -54.616226 2.917466 1.000000
29.796326 -54.616226 2.305604 1.000000
29.796326 -54.616226 1.694396 1.000000
29.796329 -54.616226 1.082534 1.000000
29.796328 -54.616226 0.468700 1.000000
29.030489 -55.657425 0.000254 0.224048
26.719646 -58.799129 0.000001 0.208093
25.243557 -60.805946 -0.000004 0.215975
24.218279 -62.199863 -0.000250 0.223760
23.461460 -63.228794 0.000110 0.186178
29.941128 -54.640194 6.694727 1.000000
29.941128 -54.640194 6.047970 1.000000
29.941128 -54.640194 5.410295 1.000000
29.941128 -54.640194 4.780172 1.000000
29.941128 -54.640194 4.156139 1.000000
29.941124 -54.640198 3.536788 1.000000
29.941128 -54.640194 2.920755 1.000000
29.941124 -54.640198 2.306699 1.000000
29.941124 -54.640198 1.693301 1.000000
29.941128 -54.640194 1.079245 1.000000
29.941124 -54.640202 0.463211 1.000000
29.127874 -55.729836 0.000278 0.216551
26.795160 -58.855324 0.000030 0.212322
25.305164 -60.851696 0.000011 0.206651
24.269896 -62.238800 -0.000130 0.239523
23.506317 -63.261887 0.000079 0.236159
30.086971 -54.664345 6.711843 1.000000
30.086971 -54.664345 6.062730 1.000000
30.086973 -54.664341 5.422730 1.000000
30.086969 -54.664345 4.790309 1.000000
30.086971 -54.664345 4.164001 1.000000
30.086967 -54.664345 3.542392 1.000000
30.086967 -54.664345 2.924111 1.000000
30.086971 -54.664345 2.307817 1.000000
30.086969 -54.664345 1.692183 1.000000
30.086967 -54.664345 1.075888 1.000000
30.086967 -54.664345 0.457608 1.000000
29.223700 -55.804306 0.000501 0.212034
26.869453 -58.913132 0.000262 0.208958
25.365705 -60.898857 0.000250 0.224337
24.320896 -62.278549 0.000112 0.200692
23.550331 -63.296093 0.000304 0.227893
30.233894 -54.688663 6.729321 1.000000
30.233892 -54.688663 6.077799 1.000000
30.233892 -54.688663 5.435425 1.000000
30.233892 -54.688663 4.800658 1.000000
30.233892 -54.688663 4.172027 1.000000
30.233894 -54.688663 3.548113 1.000000
30.233892 -54.688663 2.927539 1.000000
30.233891 -54.688667 2.308959 1.000000
30.233891 -54.688667 1.691041 1.000000
30.233892 -54.688663 1.072460 1.000000
30.233891 -54.688667 0.451887 1.000000
29.320787 -55.877106 0.000386 0.223952
26.945950 -58.968044 -0.000143 0.203576
25.427160 -60.944809 0.000116 0.204441
24.372662 -62.317272 -0.000018 0.232218
23.595066 -63.329346 0.000130 0.260092
30.381912 -54.713169 6.747159 1.000000
30.381916 -54.713169 6.093180 1.000000
30.381912 -54.713169 5.448382 1.000000
30.381912 -54.713169 4.811222 1.000000
30.381912 -54.713169 4.180219 1.000000
30.381908 -54.713173 3.553952 1.000000
30.381908 -54.713173 2.931038 1.000000
30.381908 -54.713173 2.310124 1.000000
30.381908 -54.713173 1.689876 1.000000
30.381908 -54.713177 1.068962 1.000000
30.381908 -54.713177 0.446048 1.000000
29.417402 -55.950539 0.000265 0.216551
27.020851 -59.025070 -0.000253 0.251442
25.488453 -60.990982 -0.000065 0.265379
24.424282 -62.356205 -0.000191 0.228854
23.639471 -63.363037 -0.000003 0.220300
30.531067 -54.737858 6.765366 1.000000
30.531063 -54.737862 6.108877 1.000000
30.531063 -54.737862 5.461607 1.000000
30.531063 -54.737865 4.822003 1.000000
30.531063 -54.737865 4.188581 1.000000
30.531063 -54.737865 3.559911 1.000000
30.531063 -54.737865 2.934609 1.000000
30.531061 -54.737865 2.311314 1.000000
30.531061 -54.737865 1.688686 1.000000
30.531059 -54.737865 1.065391 1.000000
30.531059 -54.737865 0.440088 1.000000
29.513000 -56.025295 0.000237 0.217320
27.094694 -59.083466 -0.000205 0.201557
25.548637 -61.038589 -0.000014 0.223856
24.475050 -62.396240 -0.000162 0.228374
23.683275 -63.397511 0.000013 0.231449
30.681366 -54.762749 6.783944 1.000000
30.681364 -54.762745 6.124897 1.000000
30.681364 -54.762745 5.475103 1.000000
30.681366 -54.762749 4.833006 1.000000
30.681364 -54.762745 4.197114 1.000000
30.681364 -54.762745 3.565994 1.000000
30.681364 -54.762745 2.938253 1.000000
30.681366 -54.762749 2.312527 1.000000
30.681366 -54.762749 1.687472 1.000000
30.681364 -54.762745 1.061747 1.000000
30.681362 -54.762753 0.434006 1.000000
29.608572 -56.100094 0.000119 0.216455
27.167662 -59.142941 -0.000047 0.241830
25.609074 -61.085888 -0.000133 0.192234
24.526104 -62.435921 -0.000328 0.226067
23.727215 -63.431816 -0.000123 0.249712
30.832857 -54.787827 6.802905 1.000000
30.832857 -54.787827 6.141246 1.000000
30.832857 -54.787830 5.488877 1.000000
30.832857 -54.787830 4.844234 1.000000
30.832855 -54.787830 4.205822 1.000000
30.832853 -54.787834 3.572200 1.000000
30.832853 -54.787834 2.941971 1.000000
30.832855 -54.787830 2.313766 1.000000
30.832853 -54.787834 1.686234 1.000000
30.832853 -54.787834 1.058029 1.000000
30.832853 -54.787830 0.427800 1.000000
29.701794 -56.177822 0.000335 0.229719
27.239954 -59.203243 0.000172 0.217128
25.668207 -61.134804 0.000028 0.280950
24.575764 -62.477337 -0.000111 0.247885
23.770048 -63.467503 0.000088 0.312668
30.985559 -54.813110 6.822254 1.000000
30.985561 -54.813103 6.157929 1.000000
30.985559 -54.813110 5.502931 1.000000
30.985561 -54.813110 4.855692 1.000000
30.985559 -54.813110 4.214708 1.000000
30.985559 -54.813110 3.578534 1.000000
30.985558 -54.813107 2.945766 1.000000
30.985558 -54.813110 2.315030 1.000000
30.985556 -54.813110 1.684970 1.000000
30.985556 -54.813110 1.054234 1.000000
30.985558 -54.813110 0.421466 1.000000
29.795485 -56.254944 0.000365 0.220877
27.312637 -59.263039 0.000198 0.222607
25.727442 -61.183582 0.000061 0.196078
24.625654 -62.518452 -0.000072 0.237313
23.813179 -63.502808 0.000080 0.214148
31.139503 -54.838593 6.841993 1.000000
31.139503 -54.838593 6.174951 1.000000
31.139503 -54.838593 5.517271 1.000000
31.139503 -54.838593 4.867383 1.000000
31.139503 -54.838596 4.223774 1.000000
31.139503 -54.838593 3.584996 1.000000
31.139503 -54.838593 2.949638 1.000000
31.139503 -54.838596 2.316319 1.000000
31.139503 -54.838596 1.683680 1.000000
31.139502 -54.838596 1.050362 1.000000
31.139503 -54.838596 0.415004 1.000000
29.889423 -56.331776 0.000253 0.205210
27.385530 -59.322586 0.000079 0.208766
25.786823 -61.232189 -0.000044 0.212611
24.674900 -62.560341 0.000086 0.268358
23.856340 -63.538086 -0.000036 0.208766
31.294727 -54.864288 6.862137 1.000000
31.294722 -54.864292 6.192316 1.000000
31.294724 -54.864288 5.531902 1.000000
31.294724 -54.864292 4.879310 1.000000
31.294724 -54.864288 4.233025 1.000000
31.294722 -54.864292 3.591588 1.000000
31.294724 -54.864292 2.953588 1.000000
31.294720 -54.864296 2.317635 1.000000
31.294720 -54.864296 1.682364 1.000000
31.294722 -54.864296 1.046412 1.000000
31.294722 -54.864296 0.408411 1.000000
29.985168 -56.406506 -0.000274 0.230584
27.458221 -59.382397 -0.000088 0.216359
25.846106 -61.280933 -0.000218 0.250192
24.724663 -62.601616 -0.000027 0.227316
23.898991 -63.573978 -0.000049 0.233468
31.451246 -54.890202 6.882685 1.000000
31.451246 -54.890205 6.210034 1.000000
31.451244 -54.890205 5.546828 1.000000
31.451244 -54.890202 4.891479 1.000000
31.451244 -54.890205 4.242462 1.000000
31.451242 -54.890205 3.598315 1.000000
31.451246 -54.890198 2.957618 1.000000
31.451244 -54.890205 2.318978 1.000000
31.451242 -54.890205 1.681022 1.000000
31.451244 -54.890205 1.042382 1.000000
31.451241 -54.890205 0.401685 1.000000
30.076242 -56.486771 -0.000066 0.238466
27.528830 -59.444660 0.000124 0.239715
25.903694 -61.331661 -0.000012 0.209150
24.773342 -62.644157 0.000123 0.204441
23.940866 -63.610775 0.000139 0.263456
31.609104 -54.916336 6.903647 1.000000
31.609104 -54.916336 6.228109 1.000000
31.609106 -54.916336 5.562057 1.000000
31.609102 -54.916336 4.903893 1.000000
31.609100 -54.916340 4.252090 1.000000
31.609102 -54.916336 3.605177 1.000000
31.609104 -54.916336 2.961729 1.000000
31.609100 -54.916336 2.320347 1.000000
31.609100 -54.916336 1.679653 1.000000
31.609102 -54.916336 1.038270 1.000000
31.609098 -54.916344 0.394822 1.000000
30.167652 -56.566616 -0.000017 0.242215
27.599770 -59.506519 0.000161 0.210208
25.961723 -61.381874 -0.000028 0.199154
24.822086 -62.686615 0.000153 0.277874
23.982994 -63.647270 0.000131 0.249808
31.768333 -54.942699 6.925032 1.000000
31.768330 -54.942699 6.246548 1.000000
31.768333 -54.942696 5.577592 1.000000
31.768333 -54.942696 4.916557 1.000000
31.768330 -54.942699 4.261911 1.000000
31.768330 -54.942699 3.612177 1.000000
31.768330 -54.942699 2.965923 1.000000
31.768330 -54.942699 2.321744 1.000000
31.768330 -54.942699 1.678255 1.000000
31.768326 -54.942703 1.034077 1.000000
31.768324 -54.942707 0.387823 1.000000
30.259439 -56.646038 -0.000131 0.230104
27.671156 -59.567871 0.000000 0.224145
26.019753 -61.432095 -0.000141 0.240388
24.870684 -62.729244 0.000134 0.238754
24.025095 -63.683800 0.000036 0.244425
31.928963 -54.969292 6.946846 1.000000
31.928963 -54.969296 6.265357 1.000000
31.928963 -54.969296 5.593436 1.000000
31.928963 -54.969296 4.929475 1.000000
31.928959 -54.969299 4.271930 1.000000
31.928963 -54.969296 3.619319 1.000000
31.928963 -54.969292 2.970202 1.000000
31.928959 -54.969299 2.323169 1.000000
31.928959 -54.969299 1.676830 1.000000
31.928959 -54.969299 1.029798 1.000000
31.928959 -54.969299 0.380681 1.000000
30.350964 -56.725784 -0.000294 0.215782
27.741884 -59.629993 -0.000108 0.254806
26.077324 -61.482838 -0.000225 0.257401
24.919193 -62.771976 0.000046 0.258939
24.067083 -63.720470 -0.000111 0.187812
32.091026 -54.996124 6.969097 1.000000
32.091030 -54.996120 6.284544 1.000000
32.091026 -54.996124 5.609600 1.000000
32.091030 -54.996120 4.942652 1.000000
32.091026 -54.996124 4.282149 1.000000
32.091026 -54.996124 3.626602 1.000000
32.091026 -54.996124 2.974566 1.000000
32.091026 -54.996124 2.324623 1.000000
