# This PCD file was generated using the MATLABÂ® pcwrite function
# from Computer Vision ToolboxÂ®.
# .PCD v.7 - Point Cloud Data file format
VERSION .7
FIELDS x y z intensity
SIZE 4 4 4 4
TYPE F F F F
COUNT 1 1 1 1
WIDTH 1163
HEIGHT 1
VIEWPOINT 0 0 0 1 0 0 0
POINTS 1163
DATA ascii
282.592316 -358.371643 2.602748 1.000000
282.592316 -358.371643 2.361132 1.000000
282.592316 -358.371643 2.120291 1.000000
282.592316 -358.371643 1.879709 1.000000
282.592316 -358.371643 1.638868 1.000000
282.592316 -358.371643 1.397252 1.000000
282.592316 -358.371643 1.154335 1.000000
282.592316 -358.371643 0.909582 1.000000
282.592316 -358.371643 0.662440 1.000000
282.592316 -358.371643 0.412336 1.000000
282.592316 -358.371643 0.158671 1.000000
282.648926 -358.360077 3.834640 1.000000
282.648926 -358.360077 3.581896 1.000000
282.648926 -358.360077 3.332700 1.000000
282.648926 -358.360077 3.086456 1.000000
282.648926 -358.360077 2.842592 1.000000
282.648926 -358.360077 2.600558 1.000000
282.648926 -358.360077 2.359819 1.000000
282.648926 -358.360077 2.119854 1.000000
282.648926 -358.360077 1.880146 1.000000
282.648926 -358.360077 1.640181 1.000000
282.648926 -358.360077 1.399442 1.000000
282.648926 -358.360077 1.157408 1.000000
282.648926 -358.360077 0.913544 1.000000
282.648926 -358.360077 0.667300 1.000000
282.648926 -358.360077 0.418105 1.000000
282.648926 -358.360077 0.165361 1.000000
282.705139 -358.348602 3.828086 1.000000
282.705139 -358.348602 3.576245 1.000000
282.705139 -358.348602 3.327940 1.000000
282.705139 -358.348602 3.082575 1.000000
282.705139 -358.348602 2.839582 1.000000
282.705139 -358.348602 2.598413 1.000000
282.705139 -358.348602 2.358534 1.000000
282.705139 -358.348602 2.119426 1.000000
282.705139 -358.348602 1.880574 1.000000
282.705139 -358.348602 1.641466 1.000000
282.705139 -358.348602 1.401587 1.000000
282.705139 -358.348602 1.160418 1.000000
282.705139 -358.348602 0.917425 1.000000
282.705139 -358.348602 0.672060 1.000000
282.705139 -358.348602 0.423756 1.000000
282.705139 -358.348602 0.171914 1.000000
282.760925 -358.337189 3.821668 1.000000
282.760925 -358.337189 3.570711 1.000000
282.760925 -358.337189 3.323277 1.000000
282.760956 -358.337189 3.078774 1.000000
282.760956 -358.337189 2.836634 1.000000
282.760956 -358.337219 2.596311 1.000000
282.760956 -358.337219 2.357275 1.000000
282.760956 -358.337189 2.119007 1.000000
282.760956 -358.337189 1.880993 1.000000
282.760956 -358.337219 1.642725 1.000000
282.760956 -358.337219 1.403688 1.000000
282.760956 -358.337219 1.163366 1.000000
282.760956 -358.337219 0.921226 1.000000
282.760956 -358.337219 0.676723 1.000000
282.760956 -358.337219 0.429290 1.000000
282.760956 -358.337219 0.178333 1.000000
282.816345 -358.325897 3.815383 1.000000
282.816345 -358.325897 3.565292 1.000000
282.816345 -358.325897 3.318712 1.000000
282.816345 -358.325897 3.075052 1.000000
282.816345 -358.325897 2.833748 1.000000
282.816345 -358.325897 2.594254 1.000000
282.816345 -358.325897 2.356043 1.000000
282.816345 -358.325897 2.118596 1.000000
282.816345 -358.325897 1.881404 1.000000
282.816345 -358.325897 1.643957 1.000000
282.816345 -358.325897 1.405746 1.000000
282.816345 -358.325897 1.166252 1.000000
282.816345 -358.325897 0.924948 1.000000
282.816345 -358.325897 0.681289 1.000000
282.816345 -358.325897 0.434709 1.000000
282.816345 -358.325897 0.184618 1.000000
282.871368 -358.314636 3.809229 1.000000
282.871368 -358.314636 3.559985 1.000000
282.871368 -358.314636 3.314241 1.000000
282.871368 -358.314636 3.071408 1.000000
282.871368 -358.314636 2.830921 1.000000
282.871368 -358.314636 2.592239 1.000000
282.871368 -358.314636 2.354836 1.000000
282.871368 -358.314636 2.118194 1.000000
282.871368 -358.314636 1.881806 1.000000
282.871368 -358.314636 1.645164 1.000000
282.871368 -358.314636 1.407761 1.000000
282.871368 -358.314636 1.169079 1.000000
282.871368 -358.314636 0.928593 1.000000
282.871368 -358.314636 0.685759 1.000000
282.871368 -358.314636 0.440016 1.000000
282.871368 -358.314636 0.190772 1.000000
282.926025 -358.303467 3.803203 1.000000
282.926025 -358.303467 3.554790 1.000000
282.926025 -358.303467 3.309865 1.000000
282.926025 -358.303467 3.067840 1.000000
282.926025 -358.303467 2.828154 1.000000
282.926025 -358.303467 2.590267 1.000000
282.926025 -358.303467 2.353654 1.000000
282.926025 -358.303467 2.117800 1.000000
282.926025 -358.303467 1.882200 1.000000
282.926025 -358.303467 1.646346 1.000000
282.926025 -358.303467 1.409733 1.000000
282.926025 -358.303467 1.171846 1.000000
282.926025 -358.303467 0.932160 1.000000
282.926025 -358.303467 0.690136 1.000000
282.926025 -358.303467 0.445211 1.000000
282.926025 -358.303467 0.196798 1.000000
282.980347 -358.292389 3.797305 1.000000
282.980347 -358.292389 3.549705 1.000000
282.980347 -358.292389 3.305580 1.000000
282.980347 -358.292389 3.064347 1.000000
282.980347 -358.292389 2.825445 1.000000
282.980347 -358.292389 2.588337 1.000000
282.980347 -358.292389 2.352497 1.000000
282.980347 -358.292389 2.117415 1.000000
282.980347 -358.292389 1.882585 1.000000
282.980347 -358.292389 1.647503 1.000000
282.980347 -358.292389 1.411663 1.000000
282.980347 -358.292389 1.174555 1.000000
282.980347 -358.292389 0.935653 1.000000
282.980347 -358.292389 0.694420 1.000000
282.980347 -358.292389 0.450296 1.000000
282.980347 -358.292389 0.202696 1.000000
283.034271 -358.281372 3.791533 1.000000
283.034271 -358.281372 3.544728 1.000000
283.034271 -358.281372 3.301387 1.000000
283.034271 -358.281372 3.060929 1.000000
283.034271 -358.281372 2.822794 1.000000
283.034271 -358.281372 2.586447 1.000000
283.034271 -358.281372 2.351365 1.000000
283.034271 -358.281372 2.117038 1.000000
283.034271 -358.281372 1.882962 1.000000
283.034271 -358.281372 1.648635 1.000000
283.034271 -358.281372 1.413553 1.000000
283.034271 -358.281372 1.177206 1.000000
283.034271 -358.281372 0.939072 1.000000
283.034271 -358.281372 0.698613 1.000000
283.034271 -358.281372 0.455273 1.000000
283.034271 -358.281372 0.208468 1.000000
283.087921 -358.270416 3.785885 1.000000
283.087921 -358.270416 3.539857 1.000000
283.087921 -358.270416 3.297284 1.000000
283.087921 -358.270416 3.057583 1.000000
283.087921 -358.270416 2.820200 1.000000
283.087921 -358.270416 2.584598 1.000000
283.087921 -358.270416 2.350257 1.000000
283.087921 -358.270416 2.116669 1.000000
283.087921 -358.270416 1.883331 1.000000
283.087921 -358.270416 1.649743 1.000000
283.087921 -358.270416 1.415402 1.000000
283.087921 -358.270416 1.179800 1.000000
283.087921 -358.270416 0.942417 1.000000
283.087921 -358.270416 0.702717 1.000000
283.087921 -358.270416 0.460144 1.000000
283.087921 -358.270416 0.214116 1.000000
283.141174 -358.259521 3.780358 1.000000
283.141174 -358.259521 3.535092 1.000000
283.141174 -358.259521 3.293269 1.000000
283.141174 -358.259521 3.054311 1.000000
283.141174 -358.259521 2.817662 1.000000
283.141174 -358.259521 2.582789 1.000000
283.141174 -358.259521 2.349173 1.000000
283.141174 -358.259521 2.116308 1.000000
283.141174 -358.259521 1.883692 1.000000
283.141174 -358.259521 1.650827 1.000000
283.141174 -358.259521 1.417211 1.000000
283.141174 -358.259521 1.182338 1.000000
283.141174 -358.259521 0.945689 1.000000
283.141174 -358.259521 0.706731 1.000000
283.141174 -358.259521 0.464909 1.000000
283.141174 -358.259521 0.219642 1.000000
283.194122 -358.248688 3.774952 1.000000
283.194122 -358.248688 3.530431 1.000000
283.194122 -358.248688 3.289342 1.000000
283.194122 -358.248688 3.051110 1.000000
283.194122 -358.248688 2.815179 1.000000
283.194122 -358.248688 2.581019 1.000000
283.194122 -358.248718 2.348113 1.000000
283.194122 -358.248688 2.115955 1.000000
283.194122 -358.248718 1.884045 1.000000
283.194122 -358.248718 1.651887 1.000000
283.194122 -358.248718 1.418981 1.000000
283.194122 -358.248718 1.184821 1.000000
283.194122 -358.248718 0.948891 1.000000
283.194122 -358.248718 0.710658 1.000000
283.194122 -358.248718 0.469570 1.000000
283.194122 -358.248718 0.225049 1.000000
283.246735 -358.237946 3.769665 1.000000
283.246735 -358.237946 3.525872 1.000000
283.246735 -358.237946 3.285501 1.000000
283.246735 -358.237946 3.047978 1.000000
283.246735 -358.237946 2.812751 1.000000
283.246735 -358.237946 2.579288 1.000000
283.246735 -358.237946 2.347076 1.000000
283.246735 -358.237946 2.115609 1.000000
283.246735 -358.237946 1.884391 1.000000
283.246735 -358.237946 1.652924 1.000000
283.246735 -358.237946 1.420712 1.000000
283.246735 -358.237946 1.187249 1.000000
283.246735 -358.237946 0.952022 1.000000
283.246735 -358.237946 0.714499 1.000000
283.246735 -358.237946 0.474129 1.000000
283.246735 -358.237946 0.230337 1.000000
283.299072 -358.227234 3.764494 1.000000
283.299072 -358.227234 3.521413 1.000000
283.299072 -358.227234 3.281745 1.000000
283.299072 -358.227234 3.044916 1.000000
283.299072 -358.227234 2.810376 1.000000
283.299072 -358.227234 2.577596 1.000000
283.299072 -358.227234 2.346062 1.000000
283.299072 -358.227234 2.115272 1.000000
283.299072 -358.227234 1.884728 1.000000
283.299072 -358.227234 1.653938 1.000000
283.299072 -358.227264 1.422404 1.000000
283.299072 -358.227264 1.189624 1.000000
283.299072 -358.227264 0.955084 1.000000
283.299072 -358.227264 0.718255 1.000000
283.299072 -358.227264 0.478587 1.000000
283.299072 -358.227264 0.235507 1.000000
283.351105 -358.216614 3.759439 1.000000
283.351105 -358.216614 3.517055 1.000000
283.351105 -358.216614 3.278074 1.000000
283.351105 -358.216614 3.041923 1.000000
283.351105 -358.216614 2.808055 1.000000
283.351105 -358.216614 2.575941 1.000000
283.351105 -358.216614 2.345071 1.000000
283.351105 -358.216614 2.114941 1.000000
283.351105 -358.216614 1.885059 1.000000
283.351105 -358.216614 1.654929 1.000000
283.351105 -358.216614 1.424059 1.000000
283.351105 -358.216614 1.191945 1.000000
283.351105 -358.216614 0.958077 1.000000
283.351105 -358.216614 0.721926 1.000000
283.351105 -358.216614 0.482946 1.000000
283.351105 -358.216614 0.240561 1.000000
283.402832 -358.206055 3.754498 1.000000
283.402832 -358.206055 3.512795 1.000000
283.402832 -358.206055 3.274485 1.000000
283.402832 -358.206055 3.038997 1.000000
283.402832 -358.206055 2.805786 1.000000
283.402832 -358.206055 2.574324 1.000000
283.402832 -358.206055 2.344102 1.000000
283.402832 -358.206085 2.114619 1.000000
283.402832 -358.206085 1.885381 1.000000
283.402832 -358.206085 1.655898 1.000000
283.402832 -358.206085 1.425676 1.000000
283.402832 -358.206055 1.194214 1.000000
283.402832 -358.206085 0.961003 1.000000
283.402832 -358.206085 0.725515 1.000000
283.402832 -358.206085 0.487206 1.000000
283.402832 -358.206085 0.245503 1.000000
283.454224 -358.195557 3.749671 1.000000
283.454224 -358.195557 3.508633 1.000000
283.454224 -358.195557 3.270978 1.000000
283.454224 -358.195557 3.036139 1.000000
283.454224 -358.195557 2.803568 1.000000
283.454254 -358.195557 2.572744 1.000000
283.454224 -358.195557 2.343155 1.000000
283.454224 -358.195557 2.114303 1.000000
283.454254 -358.195557 1.885697 1.000000
283.454224 -358.195557 1.656845 1.000000
283.454254 -358.195557 1.427256 1.000000
283.454254 -358.195557 1.196432 1.000000
283.454254 -358.195557 0.963862 1.000000
283.454254 -358.195557 0.729023 1.000000
283.454254 -358.195557 0.491369 1.000000
283.454254 -358.195557 0.250330 1.000000
283.505402 -358.185120 3.744954 1.000000
283.505402 -358.185120 3.504566 1.000000
283.505402 -358.185120 3.267552 1.000000
283.505402 -358.185120 3.033345 1.000000
283.505402 -358.185120 2.801402 1.000000
283.505402 -358.185120 2.571200 1.000000
283.505402 -358.185120 2.342230 1.000000
283.505402 -358.185120 2.113995 1.000000
283.505402 -358.185120 1.886005 1.000000
283.505402 -358.185120 1.657770 1.000000
283.505402 -358.185120 1.428800 1.000000
283.505402 -358.185120 1.198598 1.000000
283.505402 -358.185120 0.966655 1.000000
283.505402 -358.185120 0.732449 1.000000
283.505402 -358.185120 0.495435 1.000000
283.505402 -358.185120 0.255047 1.000000
283.556274 -358.174683 3.740348 1.000000
283.556274 -358.174683 3.500594 1.000000
283.556274 -358.174683 3.264205 1.000000
283.556274 -358.174683 3.030617 1.000000
283.556274 -358.174683 2.799287 1.000000
283.556274 -358.174683 2.569692 1.000000
283.556274 -358.174683 2.341326 1.000000
283.556274 -358.174683 2.113694 1.000000
283.556274 -358.174683 1.886306 1.000000
283.556274 -358.174683 1.658674 1.000000
283.556274 -358.174683 1.430308 1.000000
283.556274 -358.174683 1.200714 1.000000
283.556274 -358.174683 0.969383 1.000000
283.556274 -358.174683 0.735795 1.000000
283.556274 -358.174683 0.499407 1.000000
283.556274 -358.174683 0.259653 1.000000
283.606903 -358.164368 3.735850 1.000000
283.606903 -358.164368 3.496715 1.000000
283.606903 -358.164368 3.260938 1.000000
283.606903 -358.164368 3.027954 1.000000
283.606903 -358.164368 2.797221 1.000000
283.606903 -358.164368 2.568219 1.000000
283.606903 -358.164368 2.340444 1.000000
283.606903 -358.164368 2.113400 1.000000
283.606903 -358.164368 1.886600 1.000000
283.606903 -358.164368 1.659556 1.000000
283.606903 -358.164368 1.431781 1.000000
283.606903 -358.164368 1.202779 1.000000
283.606903 -358.164368 0.972047 1.000000
283.606903 -358.164368 0.739062 1.000000
283.606903 -358.164368 0.503285 1.000000
283.606903 -358.164368 0.264151 1.000000
283.657257 -358.154083 3.731460 1.000000
283.657257 -358.154083 3.492929 1.000000
283.657257 -358.154083 3.257749 1.000000
283.657257 -358.154083 3.025353 1.000000
283.657257 -358.154083 2.795204 1.000000
283.657257 -358.154083 2.566782 1.000000
283.657257 -358.154083 2.339583 1.000000
283.657257 -358.154083 2.113114 1.000000
283.657257 -358.154083 1.886887 1.000000
283.657257 -358.154083 1.660417 1.000000
283.657257 -358.154083 1.433218 1.000000
283.657257 -358.154083 1.204796 1.000000
283.657257 -358.154083 0.974647 1.000000
283.657257 -358.154083 0.742252 1.000000
283.657257 -358.154083 0.507071 1.000000
283.657257 -358.154083 0.268541 1.000000
283.707397 -358.143829 3.727175 1.000000
283.707397 -358.143829 3.489235 1.000000
283.707397 -358.143829 3.254637 1.000000
283.707397 -358.143829 3.022816 1.000000
283.707397 -358.143829 2.793237 1.000000
283.707397 -358.143829 2.565380 1.000000
283.707397 -358.143829 2.338743 1.000000
283.707397 -358.143860 2.112833 1.000000
283.707397 -358.143860 1.887166 1.000000
283.707397 -358.143829 1.661257 1.000000
283.707397 -358.143860 1.434620 1.000000
283.707397 -358.143860 1.206764 1.000000
283.707397 -358.143860 0.977184 1.000000
283.707397 -358.143860 0.745364 1.000000
283.707397 -358.143860 0.510766 1.000000
283.707397 -358.143860 0.272826 1.000000
283.757233 -358.133636 3.722995 1.000000
283.757233 -358.133636 3.485632 1.000000
283.757233 -358.133636 3.251601 1.000000
283.757233 -358.133636 3.020341 1.000000
283.757233 -358.133636 2.791317 1.000000
283.757233 -358.133636 2.564012 1.000000
283.757233 -358.133636 2.337923 1.000000
283.757233 -358.133667 2.112561 1.000000
283.757233 -358.133667 1.887439 1.000000
283.757233 -358.133667 1.662077 1.000000
283.757233 -358.133667 1.435988 1.000000
283.757233 -358.133667 1.208683 1.000000
283.757233 -358.133667 0.979659 1.000000
283.757233 -358.133667 0.748400 1.000000
283.757233 -358.133667 0.514369 1.000000
283.757233 -358.133667 0.277006 1.000000
283.806854 -358.123505 3.718920 1.000000
283.806854 -358.123505 3.482117 1.000000
283.806854 -358.123505 3.248640 1.000000
283.806854 -358.123505 3.017928 1.000000
283.806854 -358.123505 2.789445 1.000000
283.806854 -358.123505 2.562677 1.000000
283.806854 -358.123505 2.337124 1.000000
283.806854 -358.123505 2.112294 1.000000
283.806854 -358.123505 1.887706 1.000000
283.806854 -358.123505 1.662876 1.000000
283.806854 -358.123505 1.437323 1.000000
283.806854 -358.123505 1.210555 1.000000
283.806854 -358.123505 0.982073 1.000000
283.806854 -358.123505 0.751361 1.000000
283.806854 -358.123505 0.517883 1.000000
283.806854 -358.123505 0.281081 1.000000
283.856262 -358.113434 3.714946 1.000000
283.856262 -358.113434 3.478692 1.000000
283.856262 -358.113434 3.245754 1.000000
283.856262 -358.113434 3.015575 1.000000
283.856262 -358.113434 2.787621 1.000000
283.856262 -358.113434 2.561377 1.000000
283.856262 -358.113434 2.336344 1.000000
283.856262 -358.113434 2.112035 1.000000
283.856262 -358.113434 1.887965 1.000000
283.856262 -358.113434 1.663656 1.000000
283.856262 -358.113434 1.438623 1.000000
283.856262 -358.113434 1.212380 1.000000
283.856262 -358.113434 0.984426 1.000000
283.856262 -358.113434 0.754247 1.000000
283.856262 -358.113434 0.521309 1.000000
283.856262 -358.113434 0.285055 1.000000
283.905426 -358.103363 3.711075 1.000000
283.905426 -358.103363 3.475353 1.000000
283.905426 -358.103363 3.242941 1.000000
283.905426 -358.103363 3.013282 1.000000
283.905426 -358.103363 2.785842 1.000000
283.905426 -358.103363 2.560109 1.000000
283.905426 -358.103363 2.335585 1.000000
283.905426 -358.103363 2.111782 1.000000
283.905426 -358.103363 1.888218 1.000000
283.905426 -358.103363 1.664415 1.000000
283.905426 -358.103363 1.439891 1.000000
283.905426 -358.103363 1.214158 1.000000
283.905426 -358.103363 0.986719 1.000000
283.905426 -358.103363 0.757059 1.000000
283.905426 -358.103363 0.524647 1.000000
283.905426 -358.103363 0.288926 1.000000
283.954376 -358.093384 3.707303 1.000000
283.954376 -358.093384 3.472101 1.000000
283.954376 -358.093384 3.240202 1.000000
283.954376 -358.093384 3.011049 1.000000
283.954376 -358.093384 2.784110 1.000000
283.954376 -358.093384 2.558875 1.000000
283.954376 -358.093384 2.334846 1.000000
283.954376 -358.093384 2.111536 1.000000
283.954376 -358.093384 1.888465 1.000000
283.954376 -358.093384 1.665155 1.000000
283.954376 -358.093384 1.441125 1.000000
283.954376 -358.093384 1.215890 1.000000
283.954376 -358.093384 0.988952 1.000000
283.954376 -358.093384 0.759799 1.000000
283.954376 -358.093384 0.527899 1.000000
283.954376 -358.093384 0.292698 1.000000
284.003113 -358.083435 3.703631 1.000000
284.003113 -358.083435 3.468935 1.000000
284.003113 -358.083435 3.237535 1.000000
284.003113 -358.083435 3.008874 1.000000
284.003113 -358.083435 2.782424 1.000000
284.003113 -358.083435 2.557673 1.000000
284.003113 -358.083435 2.334125 1.000000
284.003113 -358.083435 2.111295 1.000000
284.003113 -358.083435 1.888704 1.000000
284.003113 -358.083435 1.665875 1.000000
284.003113 -358.083435 1.442327 1.000000
284.003113 -358.083435 1.217576 1.000000
284.003113 -358.083435 0.991126 1.000000
284.003113 -358.083435 0.762466 1.000000
284.003113 -358.083435 0.531065 1.000000
284.003113 -358.083435 0.296370 1.000000
284.051636 -358.073517 3.700058 1.000000
284.051636 -358.073517 3.465854 1.000000
284.051636 -358.073517 3.234939 1.000000
284.051636 -358.073517 3.006758 1.000000
284.051636 -358.073517 2.780783 1.000000
284.051636 -358.073517 2.556503 1.000000
284.051636 -358.073517 2.333425 1.000000
284.051636 -358.073517 2.111062 1.000000
284.051636 -358.073517 1.888938 1.000000
284.051636 -358.073517 1.666576 1.000000
284.051636 -358.073517 1.443497 1.000000
284.051636 -358.073517 1.219217 1.000000
284.051636 -358.073517 0.993242 1.000000
284.051636 -358.073517 0.765061 1.000000
284.051636 -358.073517 0.534146 1.000000
284.051636 -358.073517 0.299943 1.000000
284.099945 -358.063660 3.696582 1.000000
284.099945 -358.063660 3.462858 1.000000
284.099945 -358.063660 3.232414 1.000000
284.099945 -358.063660 3.004700 1.000000
284.099945 -358.063660 2.779187 1.000000
284.099945 -358.063660 2.555365 1.000000
284.099945 -358.063660 2.332743 1.000000
284.099945 -358.063660 2.110835 1.000000
284.099945 -358.063660 1.889165 1.000000
284.099945 -358.063660 1.667257 1.000000
284.099945 -358.063660 1.444635 1.000000
284.099945 -358.063660 1.220814 1.000000
284.099945 -358.063660 0.995300 1.000000
284.099945 -358.063660 0.767586 1.000000
284.099945 -358.063660 0.537143 1.000000
284.099945 -358.063660 0.303419 1.000000
284.148071 -358.053802 3.693203 1.000000
284.148071 -358.053802 3.459944 1.000000
284.148071 -358.053802 3.229959 1.000000
284.148071 -358.053802 3.002699 1.000000
284.148071 -358.053802 2.777634 1.000000
284.148071 -358.053802 2.554259 1.000000
284.148071 -358.053802 2.332080 1.000000
284.148071 -358.053802 2.110614 1.000000
284.148071 -358.053802 1.889386 1.000000
284.148071 -358.053802 1.667920 1.000000
284.148071 -358.053802 1.445741 1.000000
284.148071 -358.053802 1.222366 1.000000
284.148071 -358.053802 0.997302 1.000000
284.148071 -358.053802 0.770041 1.000000
284.148071 -358.053802 0.540057 1.000000
284.148071 -358.053802 0.306798 1.000000
284.196045 -358.044006 3.689919 1.000000
284.196045 -358.044006 3.457113 1.000000
284.196045 -358.044006 3.227574 1.000000
284.196045 -358.044006 3.000754 1.000000
284.196045 -358.044006 2.776127 1.000000
284.196045 -358.044006 2.553185 1.000000
284.196045 -358.044006 2.331436 1.000000
284.196045 -358.044006 2.110400 1.000000
284.196045 -358.044006 1.889600 1.000000
284.196045 -358.044006 1.668564 1.000000
284.196045 -358.044006 1.446815 1.000000
284.196045 -358.044006 1.223874 1.000000
284.196045 -358.044006 0.999246 1.000000
284.196045 -358.044006 0.772426 1.000000
284.196045 -358.044006 0.542888 1.000000
284.196045 -358.044006 0.310081 1.000000
284.243805 -358.034241 3.686730 1.000000
284.243805 -358.034241 3.454363 1.000000
284.243805 -358.034241 3.225258 1.000000
284.243805 -358.034241 2.998866 1.000000
284.243805 -358.034241 2.774662 1.000000
284.243805 -358.034241 2.552141 1.000000
284.243805 -358.034241 2.330811 1.000000
284.243805 -358.034241 2.110191 1.000000
284.243805 -358.034241 1.889809 1.000000
284.243805 -358.034241 1.669189 1.000000
284.243805 -358.034241 1.447859 1.000000
284.243805 -358.034241 1.225338 1.000000
284.243805 -358.034241 1.001135 1.000000
284.243805 -358.034241 0.774743 1.000000
284.243805 -358.034241 0.545638 1.000000
284.243805 -358.034241 0.313270 1.000000
284.291382 -358.024536 3.683636 1.000000
284.291382 -358.024536 3.451694 1.000000
284.291382 -358.024536 3.223010 1.000000
284.291382 -358.024536 2.997033 1.000000
284.291382 -358.024536 2.773241 1.000000
284.291382 -358.024536 2.551127 1.000000
284.291382 -358.024536 2.330204 1.000000
284.291382 -358.024536 2.109989 1.000000
284.291382 -358.024536 1.890011 1.000000
284.291382 -358.024536 1.669796 1.000000
284.291382 -358.024536 1.448873 1.000000
284.291382 -358.024536 1.226760 1.000000
284.291382 -358.024536 1.002968 1.000000
284.291382 -358.024536 0.776991 1.000000
284.291382 -358.024536 0.548306 1.000000
284.291382 -358.024536 0.316365 1.000000
284.338806 -358.014832 3.680634 1.000000
284.338806 -358.014832 3.449106 1.000000
284.338806 -358.014832 3.220829 1.000000
284.338806 -358.014832 2.995255 1.000000
284.338806 -358.014832 2.771862 1.000000
284.338806 -358.014832 2.550145 1.000000
284.338806 -358.014832 2.329615 1.000000
284.338806 -358.014832 2.109793 1.000000
284.338806 -358.014832 1.890207 1.000000
284.338806 -358.014862 1.670385 1.000000
284.338806 -358.014862 1.449855 1.000000
284.338806 -358.014862 1.228138 1.000000
284.338806 -358.014862 1.004745 1.000000
284.338806 -358.014862 0.779172 1.000000
284.338806 -358.014862 0.550894 1.000000
284.338806 -358.014862 0.319367 1.000000
284.386047 -358.005188 3.677724 1.000000
284.386047 -358.005188 3.446597 1.000000
284.386047 -358.005188 3.218715 1.000000
284.386047 -358.005188 2.993532 1.000000
284.386047 -358.005188 2.770526 1.000000
284.386047 -358.005188 2.549192 1.000000
284.386047 -358.005188 2.329044 1.000000
284.386047 -358.005188 2.109603 1.000000
284.386047 -358.005188 1.890397 1.000000
284.386047 -358.005188 1.670956 1.000000
284.386047 -358.005188 1.450808 1.000000
284.386047 -358.005188 1.229475 1.000000
284.386047 -358.005188 1.006468 1.000000
284.386047 -358.005219 0.781285 1.000000
284.386047 -358.005219 0.553403 1.000000
284.386047 -358.005219 0.322277 1.000000
284.433105 -357.995575 3.674906 1.000000
284.433105 -357.995575 3.444168 1.000000
284.433105 -357.995575 3.216668 1.000000
284.433105 -357.995575 2.991863 1.000000
284.433105 -357.995575 2.769231 1.000000
284.433105 -357.995575 2.548270 1.000000
284.433105 -357.995575 2.328491 1.000000
284.433105 -357.995575 2.109419 1.000000
284.433105 -357.995575 1.890581 1.000000
284.433105 -357.995575 1.671508 1.000000
284.433105 -357.995575 1.451730 1.000000
284.433105 -357.995575 1.230769 1.000000
284.433105 -357.995575 1.008137 1.000000
284.433105 -357.995575 0.783332 1.000000
284.433105 -357.995575 0.555833 1.000000
284.433105 -357.995575 0.325095 1.000000
284.480042 -357.985992 3.672179 1.000000
284.480042 -357.985992 3.441816 1.000000
284.480042 -357.985992 3.214687 1.000000
284.480042 -357.985992 2.990248 1.000000
284.480042 -357.985992 2.767979 1.000000
284.480042 -357.985992 2.547377 1.000000
284.480042 -357.985992 2.327957 1.000000
284.480042 -357.985992 2.109241 1.000000
284.480042 -357.985992 1.890759 1.000000
284.480042 -357.985992 1.672043 1.000000
284.480042 -357.985992 1.452623 1.000000
284.480042 -357.985992 1.232021 1.000000
284.480042 -357.985992 1.009752 1.000000
284.480042 -357.985992 0.785313 1.000000
284.480042 -357.985992 0.558185 1.000000
284.480042 -357.985992 0.327822 1.000000
284.526825 -357.976440 3.669542 1.000000
284.526825 -357.976440 3.439542 1.000000
284.526825 -357.976440 3.212771 1.000000
284.526825 -357.976440 2.988687 1.000000
284.526825 -357.976440 2.766768 1.000000
284.526825 -357.976440 2.546514 1.000000
284.526825 -357.976440 2.327439 1.000000
284.526825 -357.976440 2.109068 1.000000
284.526825 -357.976440 1.890931 1.000000
284.526825 -357.976440 1.672561 1.000000
284.526825 -357.976440 1.453486 1.000000
284.526825 -357.976440 1.233233 1.000000
284.526825 -357.976440 1.011313 1.000000
284.526825 -357.976440 0.787229 1.000000
284.526825 -357.976440 0.560459 1.000000
284.526825 -357.976440 0.330459 1.000000
284.573456 -357.966888 3.666994 1.000000
284.573456 -357.966888 3.437346 1.000000
284.573456 -357.966888 3.210921 1.000000
284.573456 -357.966888 2.987178 1.000000
284.573456 -357.966888 2.765598 1.000000
284.573456 -357.966888 2.545680 1.000000
284.573456 -357.966888 2.326940 1.000000
284.573456 -357.966888 2.108902 1.000000
284.573456 -357.966888 1.891098 1.000000
284.573456 -357.966888 1.673060 1.000000
284.573456 -357.966888 1.454320 1.000000
284.573456 -357.966888 1.234402 1.000000
284.573456 -357.966888 1.012822 1.000000
284.573456 -357.966888 0.789080 1.000000
284.573456 -357.966888 0.562655 1.000000
284.573456 -357.966888 0.333007 1.000000
284.619965 -357.957428 3.664536 1.000000
284.619965 -357.957428 3.435225 1.000000
284.619965 -357.957428 3.209135 1.000000
284.619965 -357.957428 2.985722 1.000000
284.619965 -357.957428 2.764469 1.000000
284.619965 -357.957428 2.544875 1.000000
284.619965 -357.957428 2.326458 1.000000
284.619965 -357.957428 2.108742 1.000000
284.619965 -357.957428 1.891258 1.000000
284.619965 -357.957428 1.673542 1.000000
284.619965 -357.957428 1.455125 1.000000
284.619965 -357.957428 1.235532 1.000000
284.619965 -357.957428 1.014278 1.000000
284.619965 -357.957428 0.790866 1.000000
284.619965 -357.957428 0.564776 1.000000
284.619965 -357.957428 0.335465 1.000000
284.666321 -357.947937 3.662165 1.000000
284.666321 -357.947937 3.433181 1.000000
284.666321 -357.947937 3.207413 1.000000
284.666321 -357.947937 2.984318 1.000000
284.666321 -357.947937 2.763380 1.000000
284.666321 -357.947937 2.544099 1.000000
284.666321 -357.947937 2.325993 1.000000
284.666321 -357.947937 2.108587 1.000000
284.666321 -357.947937 1.891413 1.000000
284.666321 -357.947937 1.674007 1.000000
284.666321 -357.947937 1.455901 1.000000
284.666321 -357.947937 1.236621 1.000000
284.666321 -357.947937 1.015682 1.000000
284.666321 -357.947937 0.792588 1.000000
284.666321 -357.947937 0.566819 1.000000
284.666321 -357.947937 0.337836 1.000000
284.712555 -357.938477 3.659881 1.000000
284.712555 -357.938477 3.431212 1.000000
284.712555 -357.938477 3.205754 1.000000
284.712555 -357.938477 2.982966 1.000000
284.712555 -357.938477 2.762331 1.000000
284.712555 -357.938477 2.543352 1.000000
284.712555 -357.938477 2.325545 1.000000
284.712555 -357.938477 2.108437 1.000000
284.712555 -357.938477 1.891563 1.000000
284.712555 -357.938477 1.674455 1.000000
284.712555 -357.938477 1.456648 1.000000
284.712555 -357.938477 1.237669 1.000000
284.712555 -357.938477 1.017035 1.000000
284.712555 -357.938477 0.794247 1.000000
284.712555 -357.938477 0.568789 1.000000
284.712555 -357.938477 0.340119 1.000000
284.758636 -357.929077 3.657685 1.000000
284.758636 -357.929077 3.429318 1.000000
284.758636 -357.929077 3.204159 1.000000
284.758636 -357.929077 2.981665 1.000000
284.758636 -357.929077 2.761322 1.000000
284.758636 -357.929077 2.542633 1.000000
284.758636 -357.929077 2.325114 1.000000
284.758636 -357.929077 2.108294 1.000000
284.758636 -357.929077 1.891706 1.000000
284.758636 -357.929077 1.674886 1.000000
284.758636 -357.929077 1.457367 1.000000
284.758636 -357.929077 1.238678 1.000000
284.758636 -357.929077 1.018335 1.000000
284.758636 -357.929077 0.795842 1.000000
284.758636 -357.929077 0.570682 1.000000
284.758636 -357.929077 0.342316 1.000000
284.804626 -357.919678 3.655575 1.000000
284.804626 -357.919678 3.427500 1.000000
284.804626 -357.919678 3.202626 1.000000
284.804626 -357.919678 2.980416 1.000000
284.804626 -357.919678 2.760353 1.000000
284.804626 -357.919678 2.541942 1.000000
284.804626 -357.919678 2.324700 1.000000
284.804626 -357.919678 2.108156 1.000000
284.804626 -357.919678 1.891844 1.000000
284.804626 -357.919678 1.675300 1.000000
284.804626 -357.919678 1.458058 1.000000
284.804626 -357.919678 1.239647 1.000000
284.804626 -357.919678 1.019585 1.000000
284.804626 -357.919678 0.797374 1.000000
284.804626 -357.919678 0.572501 1.000000
284.804626 -357.919678 0.344426 1.000000
284.850494 -357.910309 3.653551 1.000000
284.850494 -357.910309 3.425754 1.000000
284.850494 -357.910309 3.201155 1.000000
284.850494 -357.910309 2.979217 1.000000
284.850494 -357.910309 2.759423 1.000000
284.850494 -357.910309 2.541279 1.000000
284.850494 -357.910309 2.324303 1.000000
284.850494 -357.910309 2.108024 1.000000
284.850494 -357.910309 1.891976 1.000000
284.850494 -357.910309 1.675697 1.000000
284.850494 -357.910309 1.458721 1.000000
284.850494 -357.910309 1.240577 1.000000
284.850494 -357.910309 1.020783 1.000000
284.850494 -357.910309 0.798845 1.000000
284.850494 -357.910309 0.574247 1.000000
284.850494 -357.910309 0.346450 1.000000
284.896271 -357.900970 3.651613 1.000000
284.896271 -357.900970 3.424083 1.000000
284.896271 -357.900970 3.199747 1.000000
284.896271 -357.900970 2.978069 1.000000
284.896271 -357.900970 2.758533 1.000000
284.896271 -357.900970 2.540645 1.000000
284.896271 -357.900970 2.323923 1.000000
284.896271 -357.900970 2.107897 1.000000
284.896271 -357.900970 1.892103 1.000000
284.896271 -357.900970 1.676077 1.000000
284.896271 -357.900970 1.459355 1.000000
284.896271 -357.900970 1.241467 1.000000
284.896271 -357.900970 1.021931 1.000000
284.896271 -357.900970 0.800253 1.000000
284.896271 -357.900970 0.575918 1.000000
284.896271 -357.900970 0.348388 1.000000
284.941925 -357.891632 3.649759 1.000000
284.941925 -357.891632 3.422484 1.000000
284.941925 -357.891632 3.198400 1.000000
284.941925 -357.891632 2.976971 1.000000
284.941925 -357.891632 2.757682 1.000000
284.941925 -357.891632 2.540038 1.000000
284.941925 -357.891632 2.323559 1.000000
284.941925 -357.891632 2.107776 1.000000
284.941925 -357.891632 1.892224 1.000000
284.941925 -357.891632 1.676441 1.000000
284.941925 -357.891632 1.459962 1.000000
284.941925 -357.891632 1.242318 1.000000
284.941925 -357.891632 1.023029 1.000000
284.941925 -357.891632 0.801600 1.000000
284.941925 -357.891632 0.577517 1.000000
284.941925 -357.891632 0.350242 1.000000
284.987457 -357.882324 3.647989 1.000000
284.987457 -357.882324 3.420959 1.000000
284.987457 -357.882324 3.197115 1.000000
284.987457 -357.882324 2.975923 1.000000
284.987457 -357.882324 2.756869 1.000000
284.987457 -357.882324 2.539459 1.000000
284.987457 -357.882324 2.323212 1.000000
284.987457 -357.882324 2.107661 1.000000
284.987457 -357.882324 1.892339 1.000000
284.987457 -357.882324 1.676788 1.000000
284.987457 -357.882324 1.460541 1.000000
284.987457 -357.882324 1.243131 1.000000
284.987457 -357.882324 1.024077 1.000000
284.987457 -357.882324 0.802885 1.000000
284.987457 -357.882324 0.579042 1.000000
284.987457 -357.882324 0.352012 1.000000
285.032928 -357.873016 3.646304 1.000000
285.032928 -357.873016 3.419505 1.000000
285.032928 -357.873016 3.195891 1.000000
285.032928 -357.873016 2.974925 1.000000
285.032928 -357.873016 2.756095 1.000000
285.032928 -357.873016 2.538907 1.000000
285.032928 -357.873016 2.322882 1.000000
285.032928 -357.873016 2.107550 1.000000
285.032928 -357.873016 1.892450 1.000000
285.032928 -357.873016 1.677118 1.000000
285.032928 -357.873016 1.461093 1.000000
285.032928 -357.873016 1.243905 1.000000
285.032928 -357.873016 1.025075 1.000000
285.032928 -357.873016 0.804109 1.000000
285.032928 -357.873016 0.580496 1.000000
285.032928 -357.873016 0.353697 1.000000
285.078278 -357.863770 3.644701 1.000000
285.078308 -357.863770 3.418123 1.000000
285.078278 -357.863770 3.194727 1.000000
285.078278 -357.863770 2.973977 1.000000
285.078308 -357.863770 2.755359 1.000000
285.078278 -357.863770 2.538383 1.000000
285.078308 -357.863770 2.322567 1.000000
285.078308 -357.863770 2.107446 1.000000
285.078308 -357.863770 1.892554 1.000000
285.078308 -357.863770 1.677432 1.000000
285.078308 -357.863770 1.461617 1.000000
285.078308 -357.863770 1.244641 1.000000
285.078308 -357.863770 1.026024 1.000000
285.078308 -357.863770 0.805273 1.000000
285.078308 -357.863770 0.581877 1.000000
285.078308 -357.863770 0.355299 1.000000
285.123566 -357.854523 3.643182 1.000000
285.123566 -357.854523 3.416814 1.000000
285.123566 -357.854523 3.193624 1.000000
285.123566 -357.854523 2.973077 1.000000
285.123566 -357.854523 2.754662 1.000000
285.123566 -357.854523 2.537885 1.000000
285.123566 -357.854523 2.322270 1.000000
285.123566 -357.854523 2.107346 1.000000
285.123566 -357.854523 1.892653 1.000000
285.123566 -357.854523 1.677730 1.000000
285.123566 -357.854523 1.462115 1.000000
285.123566 -357.854523 1.245339 1.000000
285.123566 -357.854523 1.026923 1.000000
285.123566 -357.854523 0.806376 1.000000
285.123566 -357.854523 0.583186 1.000000
285.123566 -357.854523 0.356818 1.000000
285.168762 -357.845306 3.641747 1.000000
285.168762 -357.845306 3.415576 1.000000
285.168762 -357.845306 3.192581 1.000000
285.168762 -357.845306 2.972227 1.000000
285.168762 -357.845306 2.754002 1.000000
285.168762 -357.845306 2.537415 1.000000
285.168762 -357.845306 2.321988 1.000000
285.168762 -357.845306 2.107253 1.000000
285.168762 -357.845306 1.892747 1.000000
285.168762 -357.845306 1.678012 1.000000
285.168762 -357.845306 1.462585 1.000000
285.168762 -357.845306 1.245998 1.000000
285.168762 -357.845306 1.027774 1.000000
285.168762 -357.845306 0.807420 1.000000
285.168762 -357.845306 0.584425 1.000000
285.168762 -357.845306 0.358254 1.000000
285.213898 -357.836060 3.640393 1.000000
285.213898 -357.836060 3.414408 1.000000
285.213898 -357.836060 3.191597 1.000000
285.213898 -357.836060 2.971425 1.000000
285.213898 -357.836060 2.753381 1.000000
285.213898 -357.836060 2.536972 1.000000
285.213898 -357.836060 2.321723 1.000000
285.213898 -357.836060 2.107164 1.000000
285.213898 -357.836060 1.892836 1.000000
285.213898 -357.836060 1.678277 1.000000
285.213898 -357.836060 1.463028 1.000000
285.213898 -357.836060 1.246620 1.000000
285.213898 -357.836060 1.028576 1.000000
285.213898 -357.836060 0.808403 1.000000
285.213898 -357.836060 0.585592 1.000000
285.213898 -357.836060 0.359608 1.000000
285.258942 -357.826843 3.639121 1.000000
285.258942 -357.826843 3.413312 1.000000
285.258942 -357.826843 3.190673 1.000000
285.258942 -357.826843 2.970672 1.000000
285.258942 -357.826843 2.752797 1.000000
285.258942 -357.826843 2.536556 1.000000
285.258942 -357.826843 2.321473 1.000000
285.258942 -357.826843 2.107081 1.000000
285.258942 -357.826843 1.892919 1.000000
285.258942 -357.826843 1.678527 1.000000
285.258942 -357.826843 1.463444 1.000000
285.258942 -357.826843 1.247204 1.000000
285.258942 -357.826843 1.029328 1.000000
285.258942 -357.826843 0.809327 1.000000
285.258942 -357.826843 0.586688 1.000000
285.258942 -357.826843 0.360879 1.000000
285.303925 -357.817688 3.637931 1.000000
285.303925 -357.817688 3.412286 1.000000
285.303925 -357.817688 3.189809 1.000000
285.303925 -357.817688 2.969967 1.000000
285.303925 -357.817688 2.752250 1.000000
285.303925 -357.817688 2.536166 1.000000
285.303925 -357.817688 2.321240 1.000000
285.303925 -357.817688 2.107003 1.000000
285.303925 -357.817688 1.892997 1.000000
285.303925 -357.817688 1.678760 1.000000
285.303925 -357.817688 1.463834 1.000000
285.303925 -357.817688 1.247750 1.000000
285.303925 -357.817688 1.030033 1.000000
285.303925 -357.817688 0.810191 1.000000
285.303925 -357.817688 0.587715 1.000000
285.303925 -357.817688 0.362069 1.000000
285.348877 -357.808502 3.636823 1.000000
285.348877 -357.808502 3.411330 1.000000
285.348877 -357.808502 3.189004 1.000000
285.348877 -357.808502 2.969311 1.000000
285.348877 -357.808502 2.751741 1.000000
285.348877 -357.808502 2.535803 1.000000
285.348877 -357.808502 2.321023 1.000000
285.348877 -357.808502 2.106931 1.000000
285.348877 -357.808502 1.893069 1.000000
285.348877 -357.808502 1.678977 1.000000
285.348877 -357.808502 1.464197 1.000000
285.348877 -357.808502 1.248259 1.000000
285.348877 -357.808502 1.030690 1.000000
285.348877 -357.808502 0.810997 1.000000
285.348877 -357.808502 0.588670 1.000000
285.348877 -357.808502 0.363178 1.000000
285.393707 -357.799316 3.635795 1.000000
285.393707 -357.799316 3.410444 1.000000
285.393707 -357.799316 3.188258 1.000000
285.393707 -357.799316 2.968702 1.000000
285.393707 -357.799316 2.751269 1.000000
285.393707 -357.799316 2.535467 1.000000
285.393707 -357.799316 2.320821 1.000000
285.393707 -357.799316 2.106864 1.000000
285.393707 -357.799316 1.893136 1.000000
285.393707 -357.799316 1.679179 1.000000
285.393707 -357.799316 1.464533 1.000000
285.393707 -357.799316 1.248731 1.000000
285.393707 -357.799316 1.031298 1.000000
285.393707 -357.799316 0.811743 1.000000
285.393707 -357.799316 0.589556 1.000000
285.393707 -357.799316 0.364206 1.000000
285.438507 -357.790161 3.634849 1.000000
285.438507 -357.790161 3.409629 1.000000
285.438507 -357.790161 3.187570 1.000000
285.438507 -357.790161 2.968142 1.000000
285.438507 -357.790161 2.750834 1.000000
285.438507 -357.790161 2.535157 1.000000
285.438507 -357.790161 2.320635 1.000000
285.438507 -357.790161 2.106802 1.000000
285.438507 -357.790161 1.893198 1.000000
285.438507 -357.790161 1.679365 1.000000
285.438507 -357.790161 1.464843 1.000000
285.438507 -357.790161 1.249166 1.000000
285.438507 -357.790161 1.031858 1.000000
285.438507 -357.790161 0.812430 1.000000
285.438507 -357.790161 0.590372 1.000000
285.438507 -357.790161 0.365152 1.000000
285.483276 -357.781036 3.633983 1.000000
285.483276 -357.781036 3.408882 1.000000
285.483276 -357.781036 3.186941 1.000000
285.483276 -357.781036 2.967629 1.000000
285.483276 -357.781036 2.750437 1.000000
285.483276 -357.781036 2.534874 1.000000
285.483276 -357.781036 2.320466 1.000000
285.483276 -357.781036 2.106745 1.000000
285.483276 -357.781036 1.893255 1.000000
285.483276 -357.781036 1.679534 1.000000
285.483276 -357.781036 1.465126 1.000000
285.483276 -357.781036 1.249563 1.000000
285.483276 -357.781036 1.032371 1.000000
285.483276 -357.781036 0.813059 1.000000
285.483276 -357.781036 0.591119 1.000000
285.483276 -357.781036 0.366017 1.000000
285.528015 -357.771881 3.633198 1.000000
285.528015 -357.771881 3.408205 1.000000
285.528015 -357.771881 3.186371 1.000000
285.528015 -357.771881 2.967164 1.000000
285.528015 -357.771881 2.750076 1.000000
285.528015 -357.771881 2.534617 1.000000
285.528015 -357.771881 2.320312 1.000000
285.528015 -357.771881 2.106694 1.000000
285.528015 -357.771881 1.893306 1.000000
285.528015 -357.771881 1.679689 1.000000
285.528015 -357.771881 1.465383 1.000000
285.528015 -357.771881 1.249924 1.000000
285.528015 -357.771881 1.032836 1.000000
285.528015 -357.771881 0.813630 1.000000
285.528015 -357.771881 0.591796 1.000000
285.528015 -357.771881 0.366803 1.000000
285.572693 -357.762756 3.632493 1.000000
285.572693 -357.762756 3.407597 1.000000
285.572693 -357.762756 3.185858 1.000000
285.572693 -357.762756 2.966747 1.000000
285.572693 -357.762756 2.749752 1.000000
285.572693 -357.762756 2.534386 1.000000
285.572693 -357.762756 2.320173 1.000000
285.572693 -357.762756 2.106648 1.000000
285.572693 -357.762756 1.893352 1.000000
285.572693 -357.762756 1.679827 1.000000
285.572693 -357.762756 1.465614 1.000000
285.572693 -357.762756 1.250248 1.000000
285.572693 -357.762756 1.033254 1.000000
285.572693 -357.762756 0.814142 1.000000
285.572693 -357.762756 0.592404 1.000000
285.572693 -357.762756 0.367508 1.000000
285.617279 -357.753632 3.631868 1.000000
285.617279 -357.753632 3.407058 1.000000
285.617279 -357.753632 3.185405 1.000000
285.617279 -357.753632 2.966377 1.000000
285.617279 -357.753632 2.749465 1.000000
285.617279 -357.753632 2.534182 1.000000
285.617310 -357.753632 2.320050 1.000000
285.617310 -357.753632 2.106607 1.000000
285.617310 -357.753632 1.893393 1.000000
285.617310 -357.753632 1.679949 1.000000
285.617310 -357.753632 1.465818 1.000000
285.617310 -357.753632 1.250535 1.000000
285.617310 -357.753632 1.033624 1.000000
285.617310 -357.753632 0.814596 1.000000
285.617310 -357.753632 0.592942 1.000000
285.617310 -357.753632 0.368133 1.000000
285.661896 -357.744537 3.631323 1.000000
285.661896 -357.744537 3.406589 1.000000
285.661896 -357.744537 3.185009 1.000000
285.661896 -357.744537 2.966054 1.000000
285.661896 -357.744537 2.749215 1.000000
285.661896 -357.744537 2.534003 1.000000
285.661896 -357.744537 2.319944 1.000000
285.661896 -357.744537 2.106572 1.000000
285.661896 -357.744537 1.893428 1.000000
285.661896 -357.744537 1.680056 1.000000
285.661896 -357.744537 1.465997 1.000000
285.661896 -357.744537 1.250785 1.000000
285.661896 -357.744537 1.033946 1.000000
285.661896 -357.744537 0.814991 1.000000
285.661896 -357.744537 0.593412 1.000000
285.661896 -357.744537 0.368678 1.000000
285.706482 -357.735413 3.630858 1.000000
285.706482 -357.735413 3.406188 1.000000
285.706482 -357.735413 3.184671 1.000000
285.706482 -357.735413 2.965779 1.000000
285.706482 -357.735413 2.749002 1.000000
285.706482 -357.735413 2.533851 1.000000
285.706482 -357.735413 2.319853 1.000000
285.706482 -357.735413 2.106541 1.000000
285.706482 -357.735413 1.893459 1.000000
285.706482 -357.735413 1.680147 1.000000
285.706482 -357.735413 1.466149 1.000000
285.706482 -357.735413 1.250998 1.000000
285.706482 -357.735413 1.034222 1.000000
285.706482 -357.735413 0.815329 1.000000
285.706482 -357.735413 0.593813 1.000000
285.706482 -357.735413 0.369143 1.000000
285.751038 -357.726318 3.630473 1.000000
285.751038 -357.726318 3.405855 1.000000
285.751038 -357.726318 3.184391 1.000000
285.751038 -357.726318 2.965550 1.000000
285.751038 -357.726318 2.748824 1.000000
285.751038 -357.726318 2.533725 1.000000
285.751038 -357.726318 2.319777 1.000000
285.751038 -357.726318 2.106516 1.000000
285.751038 -357.726318 1.893484 1.000000
285.751038 -357.726318 1.680223 1.000000
285.751038 -357.726318 1.466275 1.000000
285.751038 -357.726318 1.251176 1.000000
285.751038 -357.726318 1.034450 1.000000
285.751038 -357.726318 0.815609 1.000000
285.751038 -357.726318 0.594145 1.000000
285.751038 -357.726318 0.369528 1.000000
285.795563 -357.717224 3.630167 1.000000
285.795563 -357.717224 3.405591 1.000000
285.795593 -357.717224 3.184169 1.000000
285.795593 -357.717224 2.965369 1.000000
285.795593 -357.717224 2.748684 1.000000
285.795593 -357.717224 2.533625 1.000000
285.795593 -357.717224 2.319717 1.000000
285.795593 -357.717224 2.106496 1.000000
285.795593 -357.717224 1.893504 1.000000
285.795593 -357.717224 1.680283 1.000000
285.795593 -357.717224 1.466375 1.000000
285.795593 -357.717224 1.251316 1.000000
285.795593 -357.717224 1.034631 1.000000
285.795593 -357.717224 0.815831 1.000000
285.795593 -357.717224 0.594409 1.000000
285.795593 -357.717224 0.369834 1.000000
285.840088 -357.708130 3.629941 1.000000
285.840088 -357.708130 3.405396 1.000000
285.840088 -357.708130 3.184005 1.000000
285.840088 -357.708130 2.965235 1.000000
285.840088 -357.708130 2.748580 1.000000
285.840088 -357.708130 2.533551 1.000000
285.840088 -357.708130 2.319673 1.000000
285.840088 -357.708130 2.106482 1.000000
285.840088 -357.708130 1.893519 1.000000
285.840088 -357.708130 1.680327 1.000000
285.840088 -357.708130 1.466449 1.000000
285.840088 -357.708130 1.251420 1.000000
285.840088 -357.708130 1.034765 1.000000
285.840088 -357.708130 0.815996 1.000000
285.840088 -357.708130 0.594604 1.000000
285.840088 -357.708130 0.370060 1.000000
285.884613 -357.699036 3.629794 1.000000
285.884613 -357.699036 3.405270 1.000000
285.884613 -357.699036 3.183898 1.000000
285.884613 -357.699036 2.965148 1.000000
285.884613 -357.699036 2.748513 1.000000
285.884613 -357.699036 2.533503 1.000000
285.884613 -357.699036 2.319644 1.000000
285.884613 -357.699036 2.106472 1.000000
285.884613 -357.699036 1.893528 1.000000
285.884613 -357.699036 1.680356 1.000000
285.884613 -357.699036 1.466497 1.000000
285.884613 -357.699036 1.251487 1.000000
285.884613 -357.699036 1.034852 1.000000
285.884613 -357.699036 0.816102 1.000000
285.884613 -357.699036 0.594731 1.000000
285.884613 -357.699036 0.370207 1.000000
285.929108 -357.689941 3.629727 1.000000
285.929108 -357.689941 3.405212 1.000000
285.929108 -357.689941 3.183849 1.000000
285.929108 -357.689941 2.965109 1.000000
285.929108 -357.689941 2.748482 1.000000
285.929108 -357.689941 2.533481 1.000000
285.929108 -357.689941 2.319631 1.000000
285.929108 -357.689941 2.106467 1.000000
285.929108 -357.689941 1.893533 1.000000
285.929108 -357.689941 1.680369 1.000000
285.929108 -357.689941 1.466519 1.000000
285.929108 -357.689941 1.251518 1.000000
285.929108 -357.689941 1.034892 1.000000
285.929108 -357.689941 0.816151 1.000000
285.929108 -357.689941 0.594789 1.000000
285.929108 -357.689941 0.370274 1.000000
285.973633 -357.680878 3.629739 1.000000
285.973633 -357.680878 3.405222 1.000000
285.973633 -357.680878 3.183858 1.000000
285.973633 -357.680878 2.965116 1.000000
285.973633 -357.680878 2.748487 1.000000
285.973633 -357.680878 2.533484 1.000000
285.973633 -357.680878 2.319633 1.000000
285.973633 -357.680878 2.106468 1.000000
285.973633 -357.680878 1.893532 1.000000
285.973633 -357.680878 1.680367 1.000000
285.973633 -357.680878 1.466516 1.000000
285.973633 -357.680878 1.251513 1.000000
285.973633 -357.680878 1.034884 1.000000
285.973633 -357.680878 0.816142 1.000000
285.973633 -357.680878 0.594778 1.000000
285.973633 -357.680878 0.370262 1.000000
286.018127 -357.671783 3.629830 1.000000
286.018127 -357.671783 3.405301 1.000000
286.018127 -357.671783 3.183925 1.000000
286.018127 -357.671783 2.965170 1.000000
286.018127 -357.671783 2.748529 1.000000
286.018127 -357.671783 2.533514 1.000000
286.018127 -357.671783 2.319651 1.000000
286.018127 -357.671783 2.106474 1.000000
286.018127 -357.671783 1.893526 1.000000
286.018127 -357.671783 1.680349 1.000000
286.018127 -357.671783 1.466485 1.000000
286.018127 -357.671783 1.251471 1.000000
286.018127 -357.671783 1.034830 1.000000
286.018127 -357.671783 0.816076 1.000000
286.018127 -357.671783 0.594699 1.000000
286.018127 -357.671783 0.370170 1.000000
286.062622 -357.662689 3.630002 1.000000
286.062622 -357.662689 3.405449 1.000000
286.062622 -357.662689 3.184049 1.000000
286.062622 -357.662689 2.965271 1.000000
286.062622 -357.662689 2.748608 1.000000
286.062622 -357.662689 2.533571 1.000000
286.062622 -357.662689 2.319685 1.000000
286.062622 -357.662689 2.106485 1.000000
286.062622 -357.662689 1.893515 1.000000
286.062622 -357.662689 1.680315 1.000000
286.062622 -357.662689 1.466429 1.000000
286.062622 -357.662689 1.251392 1.000000
286.062622 -357.662689 1.034729 1.000000
286.062622 -357.662689 0.815951 1.000000
286.062622 -357.662689 0.594552 1.000000
286.062622 -357.662689 0.369999 1.000000
