# This PCD file was generated using the MATLABÂ® pcwrite function
# from Computer Vision ToolboxÂ®.
# .PCD v.7 - Point Cloud Data file format
VERSION .7
FIELDS x y z intensity
SIZE 4 4 4 4
TYPE F F F F
COUNT 1 1 1 1
WIDTH 1155
HEIGHT 1
VIEWPOINT 0 0 0 1 0 0 0
POINTS 1155
DATA ascii
283.745209 -521.045837 0.000815 0.240100
284.990936 -519.845825 0.000577 0.237216
285.907776 -518.962708 -0.000009 0.346936
280.048187 -524.451721 6.011073 0.363358
282.045135 -522.554871 4.863635 0.360662
281.985962 -522.611084 4.427374 0.421201
281.133545 -523.420776 4.153262 0.379167
276.395905 -527.921021 4.421658 0.445956
280.549988 -523.975098 3.256249 0.438358
280.944946 -523.599976 2.725912 0.429902
280.587921 -523.939026 2.249855 0.446201
280.597931 -523.929565 1.750371 0.445711
280.601440 -523.926208 1.250814 0.433578
280.604706 -523.923157 0.749938 0.459804
280.646759 -523.883179 0.252815 0.459681
281.885925 -522.706116 0.000663 0.214148
283.690826 -520.991638 0.000481 0.229527
284.945190 -519.800171 0.000248 0.215110
285.869232 -518.922363 -0.000008 0.339583
281.987946 -522.481628 5.318993 0.406863
282.122742 -522.355347 4.821870 0.352206
280.360474 -524.006104 4.816701 0.452083
280.425049 -523.945557 4.283128 0.477328
280.460266 -523.912537 3.765110 0.458211
280.475983 -523.897827 3.256317 0.441789
280.473724 -523.899963 2.752865 0.480270
280.530884 -523.846436 2.249494 0.436642
280.542572 -523.835510 1.750768 0.425490
280.547638 -523.830750 1.252110 0.437745
280.550446 -523.828125 0.752048 0.465319
280.585297 -523.795471 0.254600 0.437010
281.820923 -522.638062 0.000579 0.213572
283.638794 -520.935303 0.000631 0.248943
284.901306 -519.752625 0.000401 0.236159
285.830994 -518.881836 -0.000016 0.326103
282.018555 -522.327454 5.287075 0.339951
275.860626 -528.015381 6.644765 0.397917
280.280457 -523.932861 4.818286 0.454167
277.824219 -526.201599 4.793543 0.438235
280.427673 -523.796875 3.758790 0.463358
262.776062 -540.101257 5.223877 0.284926
280.417633 -523.806213 2.751744 0.482108
280.382904 -523.838196 2.251176 0.469240
280.420044 -523.803894 1.749651 0.438358
280.436432 -523.788757 1.249514 0.439093
280.439758 -523.785706 0.747769 0.461275
280.475555 -523.752625 0.248709 0.432475
281.756348 -522.569580 0.000481 0.193195
283.586365 -520.879211 0.000585 0.190984
284.857147 -519.705444 0.000353 0.238947
285.793152 -518.840942 0.000039 0.330760
279.998535 -524.043335 5.950501 0.414338
276.517792 -527.213684 6.423131 0.396936
279.437988 -524.553955 5.007649 0.386275
262.628845 -539.864014 7.824558 0.198407
276.287384 -527.423584 4.391827 0.367525
275.911896 -527.765564 3.746416 0.404412
262.628845 -539.864014 3.929013 0.279657
262.628845 -539.864014 2.642545 0.018995
262.628845 -539.864014 1.357455 0.047794
261.565704 -540.832397 0.000340 0.222895
273.629700 -529.844238 0.000465 0.226740
278.807281 -525.128357 0.000292 0.227893
281.692352 -522.500610 0.000405 0.238658
283.534027 -520.823181 0.000467 0.212803
284.812103 -519.659058 -0.000036 0.280181
285.755554 -518.799744 0.000063 0.340319
281.948242 -522.144226 5.269199 0.409559
276.402802 -527.124817 6.428673 0.422672
279.886078 -523.996338 4.879127 0.410294
280.545959 -523.403687 4.215577 0.389216
276.339722 -527.181458 4.368670 0.375000
275.389648 -528.034729 3.792982 0.367402
262.482025 -539.627502 3.926566 0.277083
262.482025 -539.627502 2.641731 0.022672
262.482025 -539.627502 1.358270 0.053309
261.377960 -540.619080 0.000528 0.227124
273.517181 -529.716431 0.000652 0.235102
278.727020 -525.037354 0.000469 0.224914
281.630127 -522.429993 0.000583 0.236928
283.483490 -520.765442 0.000695 0.246444
284.768433 -519.611389 -0.000127 0.296328
285.717957 -518.758606 -0.000008 0.322181
281.349304 -522.553040 5.449312 0.450245
281.791656 -522.161255 4.846510 0.424265
281.417969 -522.492188 4.488930 0.410662
280.419983 -523.376038 4.226791 0.387623
279.948792 -523.793274 3.799378 0.340809
280.490997 -523.313110 3.223119 0.374142
276.344421 -526.985352 3.004930 0.356863
262.335541 -539.391479 2.640949 0.047181
262.335541 -539.391479 1.359051 0.072672
261.186890 -540.408752 0.000402 0.225682
273.402710 -529.590454 0.000525 0.218858
278.645721 -524.947266 0.000383 0.222222
281.567047 -522.360168 0.000492 0.247309
283.431915 -520.708618 0.000568 0.215206
284.726074 -519.562500 0.000066 0.224048
285.680756 -518.717041 -0.000042 0.338971
281.279236 -522.486572 5.451501 0.412990
281.764343 -522.062927 4.836916 0.412500
279.133331 -524.360352 5.025576 0.395343
280.314789 -523.328735 4.233876 0.353554
277.117035 -526.121033 4.220850 0.391422
280.431763 -523.226624 3.222083 0.459069
262.189423 -539.156067 3.921973 0.315196
262.189423 -539.156067 2.640199 0.038113
262.189423 -539.156067 1.359800 0.060539
261.001984 -540.192932 0.000581 0.230296
273.289612 -529.463196 0.000451 0.234429
278.566772 -524.855103 0.000566 0.240100
281.505798 -522.288696 0.000674 0.211938
283.382172 -520.650269 0.000785 0.213764
284.682983 -519.514343 -0.000054 0.246155
285.644073 -518.675171 -0.000007 0.333088
280.156250 -523.326477 5.801861 0.352574
280.682800 -522.873108 5.128044 0.369853
281.226196 -522.405273 4.504805 0.367647
281.164948 -522.458008 4.053985 0.369118
279.286499 -524.075317 3.878104 0.372672
280.299194 -523.203430 3.229048 0.434559
262.043640 -538.921143 3.919824 0.258333
262.043640 -538.921143 2.639485 0.049265
262.043640 -538.921143 1.360515 0.063848
260.814270 -539.979675 0.000479 0.227893
273.177155 -529.335388 0.000350 0.217224
278.486633 -524.763977 0.000465 0.230008
281.443665 -522.218079 0.000575 0.222607
283.328949 -520.594849 0.000073 0.224048
284.640442 -519.465698 -0.000110 0.195982
285.607544 -518.632996 -0.000008 0.336397
281.133392 -522.358032 5.458183 0.460417
280.556793 -522.847473 5.145128 0.352328
280.226685 -523.127686 4.728466 0.377941
281.049072 -522.429565 4.064301 0.357475
279.454956 -523.782837 3.841511 0.482230
279.456451 -523.781555 3.312376 0.348529
261.898193 -538.686768 3.917773 0.277819
261.898193 -538.686768 2.638801 0.043750
261.898193 -538.686768 1.361199 0.081005
261.898193 -538.686768 0.082226 0.118015
273.065521 -529.206848 0.000242 0.225586
278.407043 -524.672424 0.000354 0.194444
281.382263 -522.146729 0.000525 0.209535
283.277649 -520.537720 -0.000271 0.191945
284.598053 -519.416870 -0.000215 0.271722
285.571350 -518.590576 0.000011 0.328186
280.114594 -523.085022 5.770667 0.433824
280.429535 -522.821411 5.162513 0.372059
280.324677 -522.909180 4.689203 0.348407
280.710480 -522.586304 4.117694 0.348162
280.666168 -522.623352 3.649004 0.446078
279.285736 -523.778748 3.322929 0.328554
261.753021 -538.452881 3.915820 0.242647
261.753021 -538.452881 2.638152 0.018750
261.753021 -538.452881 1.361849 0.053064
260.448090 -539.545044 0.000580 0.225010
272.957275 -529.075378 0.000401 0.222895
278.330200 -524.578491 0.000564 0.222799
281.322449 -522.074036 0.000686 0.244137
283.227600 -520.479553 -0.000406 0.202518
284.556061 -519.367676 -0.000300 0.246251
285.535217 -518.548157 -0.000052 0.339583
280.499634 -522.631042 5.623816 0.369730
280.418457 -522.697998 5.147317 0.401471
280.245697 -522.840576 4.692277 0.330760
280.726593 -522.443787 4.102337 0.439828
280.691162 -522.473022 3.635738 0.378799
279.809387 -523.200623 3.259609 0.354412
261.608154 -538.219482 3.913965 0.278431
261.608154 -538.219482 2.637533 0.018015
261.608154 -538.219482 1.362467 0.031005
260.264801 -539.327942 0.000474 0.228566
272.847870 -528.944946 0.000338 0.229239
278.252014 -524.485657 0.000464 0.225779
281.261688 -522.002197 0.000571 0.248174
283.179474 -520.419739 -0.000185 0.207132
284.515533 -519.317261 -0.000079 0.227413
285.499664 -518.505249 -0.000043 0.299510
280.917877 -522.160645 5.468098 0.393995
280.443359 -522.546631 5.122441 0.370833
280.134583 -522.797791 4.702982 0.360662
280.414978 -522.569702 4.149938 0.374387
280.723389 -522.318787 3.621627 0.457598
280.085175 -522.838013 3.223275 0.350613
261.463562 -537.986450 3.912207 0.290441
261.463562 -537.986450 2.636946 0.049265
261.463562 -537.986450 1.363053 0.025123
260.087738 -539.105713 0.000663 0.228374
272.741760 -528.811768 0.000527 0.232699
278.176331 -524.390808 0.000649 0.251826
281.196899 -521.933594 -0.000418 0.208670
283.130371 -520.360779 -0.000297 0.231642
284.474182 -519.267578 -0.000185 0.189254
285.464600 -518.461914 0.000049 0.337623
280.845825 -522.094482 5.471729 0.407966
279.252808 -523.372070 5.434491 0.365196
279.767273 -522.959412 4.773460 0.385784
280.244598 -522.576660 4.170244 0.459314
280.082123 -522.706970 3.707075 0.423284
280.040009 -522.740723 3.221143 0.356250
261.319214 -537.753906 3.910544 0.249265
261.319214 -537.753906 2.636393 0.042525
261.319214 -537.753906 1.363607 0.033824
261.319214 -537.753906 0.089456 0.093873
272.633759 -528.680176 0.000419 0.235198
278.099701 -524.296753 0.000592 0.227220
281.138702 -521.859558 -0.000232 0.219050
283.082977 -520.300354 -0.000101 0.198770
284.434448 -519.216614 0.000063 0.232795
285.429565 -518.418579 0.000042 0.329167
280.773560 -522.028259 5.475562 0.381618
275.793640 -525.965088 6.367812 0.409191
279.722839 -522.858948 4.768390 0.373039
280.461029 -522.275391 4.117288 0.403554
280.079315 -522.577148 3.698023 0.376716
279.995209 -522.643555 3.219056 0.405515
261.175110 -537.521729 3.908977 0.326225
261.175110 -537.521729 2.635872 0.058824
261.175110 -537.521729 1.364129 0.037868
261.175110 -537.521729 0.091022 0.101471
272.526642 -528.547791 0.000309 0.222703
278.023407 -524.202393 0.000484 0.236544
281.079468 -521.786438 -0.000347 0.204248
283.034882 -520.240601 -0.000173 0.226451
284.393799 -519.166321 -0.000043 0.235679
285.394714 -518.375061 0.000005 0.323897
275.246277 -526.212646 7.211808 0.347304
279.658295 -522.774597 5.285754 0.356863
279.696075 -522.745117 4.759432 0.362132
280.338654 -522.244385 4.128729 0.372917
279.593048 -522.825378 3.759664 0.376103
279.949585 -522.547607 3.217137 0.522794
261.031250 -537.289917 3.907506 0.274142
261.031250 -537.289917 2.635381 0.031373
261.031250 -537.289917 1.364619 0.058578
261.031250 -537.289917 0.092495 0.094853
272.423309 -528.412476 0.000494 0.232603
277.945465 -524.109253 0.000046 0.237024
281.021088 -521.712585 -0.000397 0.236159
282.987091 -520.180542 -0.000270 0.267974
284.352539 -519.116516 -0.000414 0.212899
285.360352 -518.331177 0.000022 0.333701
260.887573 -537.058472 11.718933 0.448039
279.691742 -522.614929 5.258946 0.394118
279.669342 -522.632141 4.750708 0.394363
280.092773 -522.306946 4.163256 0.397426
279.566376 -522.711243 3.754052 0.373652
260.887573 -537.058472 5.181431 0.311642
260.887573 -537.058472 3.906129 0.286642
260.887573 -537.058472 2.634922 0.035172
260.887573 -537.058472 1.365077 0.030637
259.380707 -538.215942 0.000524 0.225202
272.318085 -528.278625 0.000388 0.225586
277.872559 -524.012268 0.000238 0.209246
280.964417 -521.637390 -0.000223 0.191753
282.941071 -520.119080 -0.000048 0.235294
284.313629 -519.064880 -0.000227 0.226740
285.326141 -518.287170 -0.000008 0.339216
279.283356 -522.791992 5.887871 0.386397
280.210175 -522.090332 5.101203 0.354779
280.118073 -522.160034 4.633693 0.378431
280.104065 -522.170654 4.149665 0.354289
279.538757 -522.598633 3.748726 0.347672
260.744141 -536.827332 5.179292 0.291054
260.744141 -536.827332 3.904847 0.241422
260.744141 -536.827332 2.634495 0.043260
260.744141 -536.827332 1.365504 0.039583
260.744141 -536.827332 0.095152 0.101838
272.214264 -528.143738 0.000324 0.232795
277.796417 -523.917725 -0.000128 0.244233
280.906708 -521.563049 -0.000335 0.215975
282.894043 -520.058472 -0.000162 0.250096
284.274078 -519.013672 -0.000324 0.197520
285.292480 -518.242676 0.000036 0.337377
260.600861 -536.596497 11.706346 0.438113
280.546448 -521.714294 4.994357 0.371201
280.460114 -521.778809 4.542257 0.397181
280.108551 -522.041077 4.137589 0.404534
279.121765 -522.777344 3.799427 0.357721
260.600861 -536.596497 5.177310 0.298775
260.600861 -536.596497 3.903660 0.281740
260.600861 -536.596497 2.634100 0.041054
260.600861 -536.596497 1.365900 0.003064
260.600861 -536.596497 0.096338 0.082353
272.113770 -528.006226 0.000510 0.221838
277.722687 -523.821228 -0.000244 0.209727
280.849854 -521.487976 -0.000392 0.244041
282.847412 -519.997498 -0.000285 0.232891
284.234894 -518.962280 -0.000420 0.242599
285.259033 -518.198120 0.000046 0.335417
279.680969 -522.230652 5.723955 0.378676
280.361633 -521.730103 5.028461 0.356005
279.914307 -522.059021 4.652419 0.384436
280.019196 -521.981934 4.143014 0.437255
279.481934 -522.376953 3.738715 0.362745
260.457764 -536.365906 5.175486 0.294975
260.457764 -536.365906 3.902568 0.299632
260.457764 -536.365906 2.633737 0.030515
260.457764 -536.365906 1.366264 0.013725
260.457764 -536.365906 0.097432 0.086765
272.008209 -527.872620 0.000080 0.233468
277.651764 -523.722778 -0.000056 0.211073
280.794739 -521.411621 -0.000219 0.242215
282.801483 -519.936035 -0.000337 0.243752
284.197083 -518.909790 -0.000237 0.259323
285.225708 -518.153442 -0.000002 0.333946
260.314819 -536.135620 11.695681 0.407966
280.190338 -521.733337 5.058749 0.398529
279.862671 -521.970764 4.650537 0.439216
280.153534 -521.760010 4.107514 0.462010
279.454926 -522.266235 3.733714 0.390441
260.314819 -536.135620 5.173819 0.312990
260.314819 -536.135620 3.901568 0.294118
260.314819 -536.135620 2.633403 0.033824
260.314819 -536.135620 1.366596 0.026716
260.314819 -536.135620 0.098431 0.080760
271.906708 -527.735840 -0.000032 0.228085
277.579407 -523.625305 -0.000169 0.215302
280.738647 -521.335999 -0.000327 0.241349
282.755768 -519.874390 -0.000445 0.212130
284.158813 -518.857727 -0.000274 0.258747
285.192993 -518.108337 0.000045 0.333824
279.488159 -522.113220 5.745807 0.392402
280.184235 -521.616211 5.045051 0.396569
280.042542 -521.717407 4.597043 0.343750
278.567871 -522.770325 4.385976 0.361887
275.636810 -524.863220 4.264747 0.356005
260.172028 -535.905518 5.172307 0.291299
260.172028 -535.905518 3.900663 0.313971
260.172028 -535.905518 2.633101 0.024877
260.172028 -535.905518 1.366899 0.037990
260.172028 -535.905518 0.099337 0.092770
271.806427 -527.598267 -0.000120 0.224914
277.508331 -523.526855 -0.000192 0.217705
280.685364 -521.258362 -0.000021 0.228758
282.710754 -519.812195 -0.000491 0.211073
284.120728 -518.805420 -0.000362 0.253556
285.160461 -518.062988 0.000051 0.331127
279.382477 -522.059937 5.759682 0.350368
280.005737 -521.621399 5.077157 0.370221
278.830444 -522.448303 4.853884 0.432475
280.128235 -521.535278 4.091192 0.383333
275.601440 -524.720032 4.258543 0.417157
260.029388 -535.675598 5.170953 0.276593
260.029388 -535.675598 3.899851 0.271691
260.029388 -535.675598 2.632831 0.040196
260.029388 -535.675598 1.367169 0.047181
260.029388 -535.675598 0.100149 0.085417
271.709869 -527.457947 0.000074 0.228854
277.439484 -523.426941 -0.000004 0.216455
280.631897 -521.180908 0.000156 0.251730
282.667267 -519.748962 -0.000287 0.201845
284.084229 -518.752075 -0.000127 0.205306
285.128082 -518.017700 0.000006 0.338603
279.288208 -521.997803 5.770126 0.354657
280.172241 -521.385071 5.018437 0.417525
278.567322 -522.497437 4.898258 0.355515
279.848389 -521.609436 4.131530 0.356495
259.886810 -535.445984 6.447214 0.000000
259.886810 -535.445984 5.169752 0.282843
259.886810 -535.445984 3.899132 0.268505
259.886810 -535.445984 2.632592 0.043873
259.886810 -535.445984 1.367408 0.020956
259.886810 -535.445984 0.100868 0.081373
271.611603 -527.318848 -0.000002 0.236448
277.369080 -523.328003 -0.000130 0.203864
280.577271 -521.104248 0.000024 0.209535
282.622742 -519.686401 -0.000419 0.244137
284.046783 -518.699402 -0.000244 0.261053
285.096191 -517.971985 0.000011 0.328799
279.288879 -521.870056 5.751862 0.362255
279.555267 -521.688171 5.165331 0.342524
279.658417 -521.617737 4.643969 0.345221
280.139587 -521.289185 4.069012 0.348652
259.744354 -535.216431 6.445748 0.006127
259.744354 -535.216431 5.168709 0.307966
259.744354 -535.216431 3.898507 0.265319
259.744354 -535.216431 2.632383 0.049265
259.744354 -535.216431 1.367616 0.064583
259.744354 -535.216431 0.101494 0.072426
271.516998 -527.177307 0.000187 0.229143
277.301666 -523.227051 0.000062 0.221549
280.525024 -521.026001 0.000221 0.241734
282.581818 -519.621460 0.000150 0.221165
284.010834 -518.645630 -0.000059 0.247693
285.064575 -517.926025 0.000006 0.332108
259.601990 -534.987061 11.677351 0.431495
279.183105 -521.815186 5.247255 0.363113
279.934875 -521.309509 4.570862 0.391176
259.601990 -534.987061 7.730834 0.167279
259.601990 -534.987061 6.444501 0.035294
259.601990 -534.987061 5.167819 0.254657
259.601990 -534.987061 3.897973 0.260907
259.601990 -534.987061 2.632206 0.044608
259.601990 -534.987061 1.367794 0.066422
259.601990 -534.987061 0.102026 0.070221
271.420624 -527.036865 0.000103 0.221165
277.232941 -523.127014 -0.000026 0.255286
280.472046 -520.948181 0.000188 0.226067
282.538330 -519.558228 0.000059 0.227028
283.974457 -518.592163 -0.000083 0.225202
285.033386 -517.879822 0.000025 0.335417
279.221344 -521.664001 5.737080 0.371078
279.149506 -521.711548 5.240864 0.348407
279.919708 -521.201233 4.562221 0.454167
279.722504 -521.331909 4.123887 0.348897
259.459717 -534.757751 6.443469 0.030760
259.459717 -534.757751 5.167085 0.267402
259.459717 -534.757751 3.897533 0.308701
259.459717 -534.757751 2.632059 0.035907
259.459717 -534.757751 1.367941 0.040809
259.459717 -534.757751 0.102467 0.086520
271.324890 -526.896057 -0.000013 0.234814
277.165009 -523.026489 -0.000103 0.222511
280.419159 -520.870300 0.000080 0.215782
282.495178 -519.494751 -0.000062 0.250673
283.938110 -518.538696 -0.000206 0.207805
285.002594 -517.833374 0.000080 0.331740
259.317474 -534.528625 11.673334 0.438235
279.928741 -521.078003 5.025061 0.468750
279.844025 -521.133240 4.566925 0.367770
279.702820 -521.225403 4.117644 0.356495
259.317474 -534.528625 6.442656 0.065931
259.317474 -534.528625 5.166505 0.239338
259.317474 -534.528625 3.897185 0.272426
259.317474 -534.528625 2.631944 0.042525
259.317474 -534.528625 1.368056 0.038358
259.317474 -534.528625 0.102814 0.085907
271.233215 -526.752502 0.000172 0.227413
277.099640 -522.924194 0.000082 0.232699
280.368469 -520.790955 0.000257 0.268070
282.454163 -519.429871 0.000184 0.217032
283.902344 -518.484863 -0.000262 0.195790
284.971893 -517.786865 0.000065 0.330882
279.157867 -521.457153 5.722088 0.388848
279.085052 -521.503906 5.228021 0.353309
279.820496 -521.031311 4.560443 0.375123
279.650238 -521.140686 4.117366 0.370098
259.175293 -534.299500 6.442058 0.055882
259.175293 -534.299500 5.166079 0.254412
259.175293 -534.299500 3.896930 0.271814
259.175293 -534.299500 2.631858 0.079289
259.175293 -534.299500 1.368141 0.061397
259.175293 -534.299500 0.103068 0.062745
271.139893 -526.610107 0.000098 0.228470
277.033112 -522.822632 0.000003 0.225875
280.315460 -520.713135 -0.000067 0.216647
282.412018 -519.365723 0.000097 0.210208
283.866913 -518.430725 -0.000340 0.225106
284.941559 -517.740051 0.000047 0.332598
279.385010 -521.190613 5.638215 0.391667
279.052399 -521.401123 5.222017 0.355760
279.771027 -520.946350 4.559716 0.388603
279.624023 -521.039368 4.112560 0.359436
259.033112 -534.070435 6.441679 0.002819
259.033112 -534.070435 5.165807 0.274877
259.033112 -534.070435 3.896769 0.247181
259.033112 -534.070435 2.631805 0.046078
259.033112 -534.070435 1.368196 0.093505
259.033112 -534.070435 0.103231 0.063358
271.047058 -526.467407 -0.000029 0.236640
276.966919 -522.720947 -0.000121 0.222222
280.264130 -520.634277 -0.000193 0.235967
282.370209 -519.301453 -0.000027 0.243272
283.831604 -518.376587 -0.000477 0.200308
284.911621 -517.693115 0.000053 0.333333
258.890991 -533.841431 11.670851 0.412010
279.745087 -520.846802 5.031657 0.443137
258.890991 -533.841431 9.024999 0.312255
258.890991 -533.841431 7.726984 0.093873
258.890991 -533.841431 6.441515 0.005392
258.890991 -533.841431 5.165691 0.270221
258.890991 -533.841431 3.896699 0.245588
258.890991 -533.841431 2.631781 0.049755
258.890991 -533.841431 1.368219 0.059191
258.890991 -533.841431 0.103301 0.048284
270.956177 -526.323364 -0.000059 0.221646
276.904053 -522.617126 0.000105 0.236159
280.215302 -520.553772 0.000025 0.211169
282.330475 -519.235779 0.000206 0.226259
283.799500 -518.320374 0.000113 0.237120
284.882080 -517.645813 0.000087 0.338113
258.748840 -533.612427 11.670966 0.430882
279.557129 -520.847107 5.066223 0.393260
258.748840 -533.612427 9.025084 0.319485
279.546234 -520.853821 4.107797 0.357230
258.748840 -533.612427 6.441567 0.014338
258.748840 -533.612427 5.165730 0.326225
258.748840 -533.612427 3.896721 0.247794
258.748840 -533.612427 2.631789 0.038113
258.748840 -533.612427 1.368211 0.052941
258.748840 -533.612427 0.103279 0.054167
270.865295 -526.179321 -0.000187 0.216551
276.839722 -522.514160 0.000039 0.230488
280.165161 -520.474121 -0.000089 0.234045
282.289795 -519.170715 0.000134 0.271915
283.765076 -518.265686 0.000000 0.220396
284.852661 -517.598450 0.000052 0.328186
258.606720 -533.383423 11.671549 0.452083
258.606720 -533.383423 10.339177 0.062500
279.649750 -520.675415 4.552560 0.351225
258.606720 -533.383423 7.727400 0.145956
258.606720 -533.383423 6.441836 0.004289
258.606720 -533.383423 5.165921 0.270956
258.606720 -533.383423 3.896836 0.264216
258.606720 -533.383423 2.631827 0.046078
258.606720 -533.383423 1.368173 0.082353
258.606720 -533.383423 0.103164 0.051103
270.775848 -526.034424 -0.000273 0.221357
276.776001 -522.410889 -0.000044 0.222126
280.115692 -520.394043 -0.000181 0.244329
282.249420 -519.105469 0.000034 0.277970
283.731140 -518.210693 -0.000083 0.185890
284.823517 -517.550903 0.000013 0.335784
258.464539 -533.154297 11.672606 0.464706
279.558807 -520.615540 5.040052 0.353064
258.464539 -533.154297 9.026276 0.326471
258.464539 -533.154297 7.728026 0.113113
258.464539 -533.154297 6.442322 0.012010
258.464539 -533.154297 5.166267 0.289216
258.464539 -533.154297 3.897042 0.274265
258.464539 -533.154297 2.631897 0.044485
258.464539 -533.154297 1.368104 0.095588
258.464539 -533.154297 0.102956 0.025613
270.690338 -525.887146 -0.000080 0.235871
276.714966 -522.305969 0.000135 0.218570
280.068695 -520.312439 0.000057 0.243656
282.210815 -519.039124 0.000209 0.241253
283.698639 -518.154724 0.000099 0.331250
284.794922 -517.503113 0.000022 0.337745
258.322327 -532.925171 11.674138 0.441176
279.494843 -520.539124 5.043569 0.373774
258.322327 -532.925171 9.027388 0.356373
258.322327 -532.925171 7.728931 0.192034
258.322327 -532.925171 6.443025 0.000000
258.322327 -532.925171 5.166768 0.286765
258.322327 -532.925171 3.897343 0.272059
258.322327 -532.925171 2.631997 0.015931
258.322327 -532.925171 1.368004 0.084681
258.322327 -532.925171 0.102656 0.054534
270.602936 -525.740906 -0.000165 0.216744
276.652771 -522.201721 0.000062 0.215206
280.020386 -520.231628 -0.000022 0.229815
282.170380 -518.973877 -0.000103 0.233564
283.665588 -518.099182 0.000046 0.325000
284.766541 -517.455078 0.000010 0.334681
258.180054 -532.695984 11.676142 0.425613
258.180054 -532.695984 10.343132 0.068750
258.180054 -532.695984 9.028841 0.341299
258.180054 -532.695984 7.730118 0.214093
258.180054 -532.695984 6.443945 0.026961
258.180054 -532.695984 5.167422 0.304167
258.180054 -532.695984 3.897735 0.267525
258.180054 -532.695984 2.632127 0.052819
258.180054 -532.695984 1.367873 0.085417
258.180054 -532.695984 0.102263 0.066544
270.516205 -525.594421 -0.000285 0.216263
276.590942 -522.097290 -0.000059 0.216744
279.972443 -520.150635 -0.000144 0.245386
282.131287 -518.907898 -0.000222 0.238081
283.633179 -518.043213 0.000053 0.333824
284.738617 -517.406860 0.000024 0.332721
258.037750 -532.466614 11.678613 0.476716
258.037750 -532.466614 10.345263 0.115196
258.037750 -532.466614 9.030639 0.344608
258.037750 -532.466614 7.731582 0.152206
258.037720 -532.466614 6.445081 0.035784
258.037720 -532.466614 5.168233 0.268995
258.037750 -532.466614 3.898221 0.282966
258.037750 -532.466614 2.632288 0.079044
258.037750 -532.466614 1.367711 0.091912
258.037750 -532.466614 0.101779 0.074142
270.434052 -525.445190 -0.000066 0.227797
276.532410 -521.990906 0.000160 0.232891
279.926971 -520.068237 0.000065 0.207228
282.094208 -518.840637 -0.000013 0.241638
283.601288 -517.987000 0.000100 0.338971
284.711029 -517.358398 0.000039 0.340319
257.895325 -532.237183 11.681559 0.466422
257.895325 -532.237183 10.347808 0.091422
257.895325 -532.237183 9.032780 0.358088
257.895355 -532.237183 7.733327 0.133333
257.895355 -532.237183 6.446434 0.009681
257.895355 -532.237183 5.169197 0.271569
257.895325 -532.237183 3.898800 0.288848
257.895325 -532.237183 2.632482 0.044975
257.895325 -532.237183 1.367519 0.081618
257.895325 -532.237183 0.101200 0.093382
270.349457 -525.297363 -0.000179 0.233948
276.472382 -521.885498 0.000080 0.230296
279.880554 -519.986328 0.000008 0.233756
282.056091 -518.774048 -0.000128 0.242791
283.609680 -517.908325 0.010002 1.000000
284.683716 -517.309875 0.000034 0.336765
257.752838 -532.007629 11.684981 0.482598
257.752838 -532.007629 10.350756 0.055515
257.752838 -532.007629 9.035265 0.378064
257.752838 -532.007629 7.735354 0.155270
257.752838 -532.007629 6.448006 0.023039
257.752838 -532.007629 5.170317 0.282230
257.752838 -532.007629 3.899470 0.259681
257.752838 -532.007629 2.632704 0.054657
257.752838 -532.007629 1.367296 0.084926
257.752838 -532.007629 0.100529 0.067157
270.266602 -525.148621 -0.000225 0.223568
276.412994 -521.779602 -0.000009 0.246059
279.834442 -519.904236 -0.000087 0.236736
282.018860 -518.706970 -0.000147 0.210784
283.578552 -517.851990 0.009999 1.000000
284.656708 -517.261108 0.000027 0.337500
257.610229 -531.777832 11.688880 0.479902
257.610229 -531.777832 10.354117 0.061642
257.610229 -531.777832 9.038095 0.346936
257.610229 -531.777832 7.737661 0.141299
257.610229 -531.777832 6.449795 0.002574
257.610229 -531.777832 5.171592 0.285294
257.610229 -531.777832 3.900234 0.264706
257.610229 -531.777832 2.632960 0.036642
257.610229 -531.777832 1.367041 0.114828
257.610229 -531.777832 0.099766 0.047549
270.187286 -524.997864 -0.000035 0.226740
276.356506 -521.672180 0.000184 0.240004
279.790649 -519.820923 0.000107 0.225971
281.983032 -518.639038 0.000019 0.217993
283.547821 -517.795532 0.009999 1.000000
284.630096 -517.212097 0.000023 0.333088
257.467499 -531.547913 11.693251 0.454534
257.467499 -531.547852 10.357886 0.055882
257.467499 -531.547913 9.041272 0.354412
257.467499 -531.547791 7.740248 0.147304
257.467499 -531.547791 6.451803 0.024510
257.467499 -531.547791 5.173023 0.259314
257.467499 -531.547852 3.901092 0.266422
257.467499 -531.547791 2.633245 0.037255
257.467529 -531.547791 1.366755 0.121324
257.467499 -531.547852 0.098908 0.067402
270.107300 -524.847534 -0.000005 0.333456
276.298523 -521.565552 0.000088 0.217128
279.745667 -519.738281 0.000003 0.223087
281.946411 -518.571655 -0.000075 0.212130
283.517517 -517.738770 0.009995 1.000000
284.603729 -517.163025 -0.000005 0.332843
257.324646 -531.317627 11.698099 0.443627
257.324646 -531.317627 10.362068 0.038725
257.324646 -531.317627 9.044794 0.334804
257.324646 -531.317627 7.743120 0.155760
257.324646 -531.317627 6.454030 0.044118
257.324646 -531.317627 5.174611 0.264828
257.324646 -531.317627 3.902043 0.240564
257.324646 -531.317627 2.633562 0.043260
257.324646 -531.317627 1.366439 0.087623
255.553070 -532.240967 -0.000185 0.225490
270.136200 -524.640442 0.009989 1.000000
276.241394 -521.458496 -0.000002 0.240869
279.701385 -519.655151 -0.000079 0.250096
281.911011 -518.503601 -0.000004 0.337010
283.446686 -517.703186 0.000038 0.338480
284.577637 -517.113708 -0.000042 0.333211
257.181610 -531.087219 11.703426 0.455882
257.181610 -531.087219 10.366661 0.053186
257.181610 -531.087219 9.048663 0.289093
257.181610 -531.087219 7.746276 0.161887
257.181610 -531.087219 6.456478 0.043505
257.181610 -531.087219 5.176353 0.255637
257.181610 -531.087219 3.903087 0.226471
257.181610 -531.087219 2.633910 0.035417
257.181610 -531.087219 1.366090 0.076471
257.181610 -531.087219 0.096912 0.075858
269.949921 -524.545471 -0.000007 0.332108
276.187134 -521.349915 0.000188 0.227028
279.659302 -519.570984 0.000116 0.250192
281.875824 -518.435364 -0.000004 0.334681
283.416962 -517.645752 0.000027 0.334191
284.552063 -517.064209 -0.000039 0.336152
257.038452 -530.856567 11.709232 0.481495
257.038452 -530.856567 10.371666 0.153922
257.038452 -530.856567 9.052881 0.291299
257.038452 -530.856567 7.749714 0.182721
257.038452 -530.856567 6.459143 0.049510
257.038452 -530.856567 5.178255 0.316789
257.038452 -530.856567 3.904226 0.252819
257.038452 -530.856567 2.634288 0.025490
257.038452 -530.856567 1.365711 0.090809
257.038452 -530.856567 0.095774 0.054044
269.872803 -524.393677 -0.000008 0.334436
276.131439 -521.242126 0.000094 0.215590
279.616425 -519.487183 0.000068 0.206459
281.890137 -518.342224 0.009997 1.000000
283.387787 -517.588074 0.000051 0.337500
284.526825 -517.014526 -0.000036 0.328186
256.895081 -530.625549 11.715518 0.477819
256.895081 -530.625549 10.377087 0.068382
256.895081 -530.625549 9.057447 0.307108
256.895081 -530.625549 7.753439 0.152696
256.895081 -530.625549 6.462030 0.039461
256.895111 -530.625549 5.180312 0.290931
256.895081 -530.625549 3.905459 0.268995
256.895081 -530.625549 2.634700 0.018750
256.895111 -530.625549 1.365300 0.073284
256.895111 -530.625549 0.094541 0.044240
269.796722 -524.241333 -0.000006 0.331863
276.076508 -521.133850 -0.000001 0.331005
279.573914 -519.403198 -0.000006 0.235679
281.856049 -518.273926 0.009999 1.000000
283.358551 -517.530457 -0.000040 0.333211
284.502014 -516.964600 -0.000015 0.344240
256.751526 -530.394287 11.722289 0.453431
256.751526 -530.394287 10.382924 0.106618
256.751526 -530.394287 9.062365 0.327696
256.751526 -530.394287 7.757447 0.217525
256.751526 -530.394287 6.465139 0.084559
256.751526 -530.394287 5.182530 0.276348
256.751556 -530.394287 3.906787 0.243873
256.751556 -530.394287 2.635142 0.040319
256.751556 -530.394287 1.364859 0.111520
256.751556 -530.394287 0.093212 0.024387
269.721710 -524.088440 -0.000008 0.331127
276.023041 -521.024841 -0.000001 0.332108
279.532532 -519.318665 -0.000001 0.333456
281.822418 -518.205383 0.009997 1.000000
283.330109 -517.472351 -0.000032 0.334681
284.477509 -516.914551 -0.000006 0.342647
256.607788 -530.162598 11.729540 0.458824
256.607788 -530.162598 10.389177 0.083333
256.607788 -530.162598 9.067635 0.300613
256.607788 -530.162598 7.761741 0.159069
256.607788 -530.162598 6.468471 0.063235
256.607788 -530.162598 5.184904 0.308456
256.607788 -530.162598 3.908209 0.222794
256.607788 -530.162598 2.635616 0.041667
256.607788 -530.162598 1.364384 0.101348
256.607788 -530.162598 0.091790 0.048039
269.647766 -523.935059 -0.000010 0.331740
276.048767 -520.878113 0.009992 1.000000
279.491669 -519.233826 0.000000 0.332230
281.739655 -518.160278 -0.000004 0.336520
283.302032 -517.414124 -0.000034 0.332966
284.453369 -516.864319 0.000013 0.321814
256.463806 -529.930603 11.737279 0.458456
256.463806 -529.930603 10.395849 0.071569
256.463806 -529.930603 9.073255 0.312377
256.463806 -529.930603 7.766323 0.205760
256.463806 -529.930603 6.472023 0.012745
256.463806 -529.930603 5.187437 0.269363
256.463806 -529.930603 3.909728 0.282353
256.463806 -529.930603 2.636121 0.017279
256.463806 -529.930603 1.363879 0.077941
256.463806 -529.930603 0.090272 0.065441
269.574890 -523.781128 -0.000012 0.331863
275.918427 -520.805847 -0.000002 0.333701
279.512390 -519.120178 0.009996 1.000000
281.706848 -518.090942 -0.000004 0.333701
283.274567 -517.355591 0.000015 0.335907
284.429535 -516.813904 0.000012 0.337377
256.319580 -529.698303 11.745507 0.465441
256.319580 -529.698303 10.402945 0.013725
256.319580 -529.698303 9.079231 0.310539
256.319580 -529.698303 7.771196 0.193137
256.319611 -529.698303 6.475801 0.003186
256.319580 -529.698303 5.190129 0.268382
256.319580 -529.698303 3.911342 0.280637
256.319580 -529.698303 2.636659 0.044608
256.319580 -529.698303 1.363341 0.041176
254.676514 -530.454956 -0.000209 0.224145
269.503113 -523.626709 -0.000014 0.334681
275.867279 -520.695801 -0.000003 0.332230
279.472900 -519.035278 0.009993 1.000000
281.674530 -518.021362 -0.000004 0.323775
283.247375 -517.296997 0.000026 0.331250
284.405975 -516.763428 -0.000006 0.338235
256.175110 -529.465515 11.754222 0.457721
256.175110 -529.465515 10.410460 0.120588
256.175110 -529.465515 9.085562 0.317279
256.175140 -529.465515 7.776357 0.167279
256.175140 -529.465515 6.479807 0.023775
256.175110 -529.465515 5.192984 0.297794
256.175110 -529.465515 3.913051 0.283211
256.175110 -529.465515 2.637228 0.041176
256.175110 -529.465515 1.362772 0.035417
254.562500 -530.194580 0.000006 0.227893
269.432465 -523.471802 -0.000010 0.332966
275.816895 -520.585388 -0.000003 0.332598
279.372620 -518.977844 0.000001 0.332475
281.642639 -517.951477 -0.000004 0.332353
283.220551 -517.238098 0.000028 0.331005
284.382813 -516.712708 -0.000007 0.345098
256.030396 -529.232300 11.763433 0.441299
256.030396 -529.232300 10.418398 0.275980
256.030396 -529.232300 9.092252 0.329412
256.030396 -529.232300 7.781812 0.182353
256.030396 -529.232300 6.484036 0.006495
256.030396 -529.232300 5.195997 0.265809
256.030396 -529.232300 3.914857 0.290441
256.030396 -529.232300 2.637829 0.072059
256.030396 -529.232300 1.362170 0.048407
254.444199 -529.936096 -0.000108 0.229719
269.362915 -523.316345 -0.000007 0.334314
275.767273 -520.474609 -0.000003 0.334191
279.334167 -518.891907 0.000001 0.332843
281.611298 -517.881470 -0.000004 0.331985
283.194061 -517.179199 0.000012 0.328676
284.360291 -516.661743 0.000064 0.338848
255.885376 -528.998657 11.773133 0.431373
255.885376 -528.998657 10.426765 0.425613
255.885376 -528.998657 9.099300 0.443627
255.885376 -528.998657 7.787557 0.214338
255.885376 -528.998657 6.488492 0.050490
255.885376 -528.998657 5.199173 0.263358
255.885391 -528.998657 3.916759 0.304167
255.885376 -528.998657 2.638463 0.062132
255.885376 -528.998657 1.361537 0.102819
254.328110 -529.676697 -0.000200 0.227316
269.294403 -523.160461 -0.000005 0.333578
275.718414 -520.363525 -0.000003 0.333701
279.296295 -518.805725 0.000001 0.336520
281.580383 -517.811218 -0.000004 0.332108
283.168152 -517.119934 0.000037 0.341789
284.337677 -516.610779 0.000010 0.336520
255.740067 -528.764526 11.783333 0.449020
255.740067 -528.764526 10.435559 0.454289
255.740067 -528.764526 9.106709 0.450368
255.740082 -528.764526 7.793597 0.235539
255.740067 -528.764526 6.493175 0.023775
255.740067 -528.764526 5.202511 0.231863
255.740082 -528.764526 3.918760 0.280760
255.740082 -528.764526 2.639129 0.053431
255.740082 -528.764526 1.360870 0.078676
254.219498 -529.414001 0.000011 0.223568
269.226959 -523.004089 -0.000005 0.333701
275.670349 -520.252014 -0.000003 0.335417
279.259033 -518.719299 0.000001 0.339951
281.550018 -517.740784 -0.000005 0.336887
283.142609 -517.060547 0.000053 0.334926
284.315674 -516.559509 0.000031 0.335539
255.594467 -528.529907 11.794028 0.450980
255.594452 -528.529907 10.444783 0.429657
255.594452 -528.529907 9.114479 0.431985
255.594452 -528.529907 7.799932 0.197549
255.594467 -528.529907 6.498088 0.040441
255.594467 -528.529907 5.206014 0.239583
255.594467 -528.529907 3.920857 0.287500
255.594452 -528.529907 2.639828 0.063848
255.594452 -528.529907 1.360172 0.034681
255.594467 -528.529907 0.079143 0.082966
269.160522 -522.847290 -0.000012 0.331863
275.623077 -520.140259 -0.000003 0.336275
279.222351 -518.632629 0.000000 0.335417
281.520111 -517.670105 -0.000005 0.335294
283.117401 -517.001038 0.000051 0.336887
284.294037 -516.508179 0.000052 0.341789
255.448517 -528.294739 11.805228 0.443260
255.448502 -528.294739 10.454443 0.463971
255.448517 -528.294739 9.122614 0.427819
255.448502 -528.294739 7.806563 0.223039
255.448502 -528.294739 6.503232 0.047304
255.448502 -528.294739 5.209679 0.237377
255.448517 -528.294739 3.923053 0.332230
255.448517 -528.294739 2.640560 0.065319
255.448517 -528.294739 1.359439 0.013848
255.448517 -528.294739 0.076945 0.085417
269.095276 -522.690063 -0.000015 0.333333
275.576569 -520.028198 -0.000003 0.331863
279.186279 -518.545654 0.000000 0.327819
281.490723 -517.599182 -0.000004 0.337377
283.092438 -516.941406 -0.000002 0.337255
284.272766 -516.456604 0.000079 0.337745
255.302216 -528.059021 11.816936 0.423897
255.302231 -528.059021 10.464531 0.472549
255.302216 -528.059021 9.131119 0.427696
255.302216 -528.059021 7.813495 0.198162
255.302216 -528.059021 6.508609 0.034681
255.302216 -528.059021 5.213511 0.288603
255.302231 -528.059021 3.925350 0.338848
255.302216 -528.059021 2.641325 0.083824
255.302216 -528.059021 1.358675 0.043750
253.893585 -528.626160 0.000050 0.224625
269.031158 -522.532288 -0.000015 0.331495
275.530884 -519.915771 -0.000004 0.333211
279.150848 -518.458435 0.000000 0.337255
281.461823 -517.528137 -0.000004 0.332475
283.068085 -516.881531 -0.000004 0.329902
284.251740 -516.405029 0.000068 0.334804
255.155563 -527.822754 11.829150 0.410294
255.155563 -527.822754 10.475063 0.177574
255.155563 -527.822754 9.139990 0.432475
255.155563 -527.822754 7.820729 0.231618
255.155563 -527.822754 6.514217 0.014583
255.155579 -527.822754 5.217508 0.269118
255.155579 -527.822754 3.927745 0.311642
255.155579 -527.822754 2.642122 0.080270
255.155579 -527.822754 1.357877 0.058211
253.786758 -528.362732 -0.000035 0.224817
268.968048 -522.374084 -0.000017 0.333578
275.485901 -519.802979 -0.000004 0.332230
279.115967 -518.371033 0.000000 0.332353
281.433411 -517.456848 -0.000004 0.334559
283.044128 -516.821472 -0.000004 0.332843
284.231079 -516.353210 0.000059 0.341544
255.008560 -527.585938 11.841868 0.422181
255.008560 -527.585938 10.486032 0.043750
255.008560 -527.585938 9.149232 0.406495
255.008560 -527.585938 7.828261 0.279534
255.008560 -527.585938 6.520059 0.000000
255.008575 -527.585938 5.221673 0.225613
255.008560 -527.585938 3.930240 0.303922
255.008560 -527.585938 2.642954 0.072549
255.008560 -527.585938 1.357046 0.069363
253.681107 -528.098877 -0.000154 0.226932
268.906128 -522.215454 -0.000017 0.332721
275.441772 -519.689941 -0.000004 0.334191
279.081757 -518.283386 0.000000 0.334804
281.405518 -517.385376 -0.000004 0.333456
283.020630 -516.761230 -0.000004 0.330760
284.210815 -516.301270 0.000066 0.334804
254.861160 -527.348389 11.855107 0.429412
254.861160 -527.348389 10.497446 0.005025
254.861160 -527.348389 9.158845 0.378922
254.861160 -527.348389 7.836101 0.260417
254.861160 -527.348389 6.526139 0.018260
254.861160 -527.348389 5.226007 0.225000
254.861160 -527.348389 3.932836 0.302328
254.861160 -527.348389 2.643819 0.117770
254.861160 -527.348389 1.356181 0.061397
253.578033 -527.833984 -0.000236 0.227509
268.845306 -522.056396 -0.000017 0.331127
275.398438 -519.576599 -0.000004 0.333824
279.048096 -518.195435 0.000000 0.333456
281.378082 -517.313721 -0.000003 0.340319
282.997528 -516.700867 -0.000003 0.336152
284.191010 -516.249207 0.000093 0.334681
254.713348 -527.110291 11.868861 0.439338
254.713348 -527.110229 10.509306 0.072549
254.713348 -527.110291 9.168838 0.364583
254.713348 -527.110291 7.844245 0.274265
254.713348 -527.110291 6.532456 0.015931
254.713348 -527.110229 5.230508 0.234559
254.713348 -527.110229 3.935533 0.279289
254.713348 -527.110229 2.644717 0.112132
254.713348 -527.110229 1.355283 0.040809
253.482300 -527.566345 -0.000029 0.225586
268.785583 -521.896912 -0.000017 0.333088
275.355865 -519.462891 -0.000005 0.330760
279.015137 -518.107239 0.000000 0.333211
281.351196 -517.241821 -0.000003 0.332230
282.974854 -516.640320 -0.000004 0.333211
284.171051 -516.197205 -0.000020 0.326961
254.565140 -526.871399 11.883136 0.466912
254.565125 -526.871399 10.521614 0.087623
254.565125 -526.871399 9.179207 0.365564
254.565125 -526.871399 7.852699 0.267647
254.565125 -526.871399 6.539011 0.011275
254.565125 -526.871399 5.235182 0.226593
254.565125 -526.871399 3.938333 0.275858
254.565125 -526.871399 2.645649 0.116422
254.565140 -526.871399 1.354350 0.063235
253.382767 -527.300110 -0.000119 0.226259
268.726990 -521.737061 -0.000018 0.332108
275.314087 -519.348938 -0.000004 0.332230
278.982727 -518.018860 0.000000 0.333211
281.324768 -517.169800 -0.000003 0.332353
282.952637 -516.579590 -0.000002 0.333456
284.151794 -516.144836 -0.000037 0.325735
254.416473 -526.631836 11.897936 0.432475
254.416458 -526.631836 10.534374 0.054289
254.416458 -526.631836 9.189957 0.347794
254.416458 -526.631836 7.861464 0.301471
254.416458 -526.631836 6.545809 0.023897
254.416458 -526.631836 5.240026 0.190931
254.416458 -526.631836 3.941236 0.316912
254.416458 -526.631836 2.646616 0.113113
254.416458 -526.631836 1.353384 0.068873
253.285065 -527.033203 -0.000211 0.224721
268.669495 -521.576782 -0.000018 0.333211
275.273132 -519.234680 -0.000004 0.336765
278.950928 -517.930298 0.000000 0.329167
281.298889 -517.097595 -0.000003 0.328309
282.930817 -516.518738 -0.000002 0.333946
284.133087 -516.092346 -0.000011 0.337623
254.267334 -526.391602 11.913262 0.484804
254.267334 -526.391602 10.547590 0.095588
254.267349 -526.391602 9.201090 0.391912
254.267334 -526.391602 7.870540 0.309436
254.267334 -526.391602 6.552848 0.049510
254.267334 -526.391602 5.245045 0.196691
254.267334 -526.391602 3.944242 0.281618
254.267334 -526.391602 2.647619 0.087132
254.267334 -526.391602 1.352382 0.075735
253.195190 -526.763428 0.000008 0.225298
268.613129 -521.416077 -0.000018 0.333211
275.232941 -519.120178 -0.000005 0.333946
278.919769 -517.841492 -0.000000 0.335049
281.273499 -517.025146 -0.000002 0.330760
282.909393 -516.457764 -0.000002 0.332230
284.114594 -516.039795 -0.000022 0.334804
254.117752 -526.150635 11.929126 0.480025
254.117752 -526.150635 10.561268 0.070098
254.117752 -526.150635 9.212612 0.369730
254.117752 -526.150635 7.879932 0.290319
254.117752 -526.150635 6.560132 0.096446
254.117752 -526.150635 5.250235 0.204167
254.117767 -526.150635 3.947353 0.297917
254.117767 -526.150635 2.648654 0.098897
254.117767 -526.150635 1.351346 0.077451
253.101227 -526.495178 -0.000085 0.225682
268.557922 -521.255005 -0.000018 0.335539
275.193573 -519.005371 -0.000005 0.331863
278.889252 -517.752441 -0.000000 0.334191
281.248566 -516.952576 -0.000002 0.333946
282.888428 -516.396606 -0.000001 0.334804
284.096771 -515.986938 0.000050 0.330760
253.967682 -525.908813 11.945521 0.463848
253.967682 -525.908813 10.575405 0.017034
253.967682 -525.908813 9.224524 0.354289
253.967682 -525.908813 7.889643 0.292279
253.967682 -525.908813 6.567664 0.042034
253.967682 -525.908813 5.255603 0.200980
253.967682 -525.908813 3.950568 0.305392
253.967682 -525.908813 2.649724 0.089338
253.967682 -525.908813 1.350275 0.104902
253.009140 -526.226318 -0.000176 0.228278
268.503784 -521.093567 -0.000018 0.332353
275.155029 -518.890259 -0.000005 0.333946
278.859344 -517.663147 0.000000 0.334314
281.224213 -516.879822 -0.000002 0.330637
282.867889 -516.335327 -0.000002 0.331373
284.079010 -515.934143 0.000035 0.336397
253.817093 -525.666138 11.962458 0.472304
253.817093 -525.666138 10.590006 0.022549
253.817093 -525.666138 9.236827 0.344730
253.817093 -525.666138 7.899672 0.339951
253.817093 -525.666138 6.575442 0.002206
253.817108 -525.666138 5.261147 0.189216
253.817108 -525.666138 3.953890 0.260294
253.817108 -525.666138 2.650832 0.085294
253.817108 -525.666138 1.349168 0.072181
252.924866 -525.954834 0.000039 0.228181
268.450806 -520.931702 -0.000019 0.332721
275.117249 -518.774902 -0.000005 0.334191
278.830048 -517.573730 0.000000 0.334191
281.200317 -516.806824 -0.000002 0.331863
282.847778 -516.273865 -0.000002 0.334681
284.061615 -515.881165 0.000021 0.333578
253.666016 -525.422729 11.979939 0.500368
253.666000 -525.422729 10.605080 0.055882
253.666000 -525.422729 9.249525 0.326103
253.666016 -525.422729 7.910025 0.317892
253.666000 -525.422729 6.583470 0.000000
253.666016 -525.422729 5.266870 0.214828
253.666000 -525.422729 3.957318 0.312623
253.666016 -525.422729 2.651973 0.111275
253.666016 -525.422729 1.348027 0.066912
252.836594 -525.684692 -0.000050 0.225394
268.398956 -520.769531 -0.000017 0.332230
275.080292 -518.659302 -0.000005 0.334069
278.801392 -517.484070 0.000000 0.338235
281.176971 -516.733826 -0.000001 0.334804
282.828094 -516.212280 -0.000002 0.334804
284.044708 -515.828064 0.000042 0.333456
253.514359 -525.178345 11.997972 0.474510
253.514359 -525.178345 10.620626 0.090564
253.514359 -525.178345 9.262624 0.333824
253.514374 -525.178345 7.920702 0.378676
253.514374 -525.178345 6.591752 0.013603
253.514359 -525.178345 5.272772 0.169853
253.514374 -525.178345 3.960855 0.313480
253.514359 -525.178345 2.653151 0.107843
253.514359 -525.178345 1.346848 0.075123
252.750168 -525.413879 -0.000141 0.226067
268.348236 -520.606934 -0.000018 0.333824
275.044159 -518.543457 -0.000005 0.334069
278.773376 -517.394226 -0.000000 0.333088
281.154114 -516.660522 -0.000001 0.336642
282.808807 -516.150574 -0.000002 0.331985
284.028046 -515.774841 0.000026 0.331250
253.362183 -524.933167 12.016555 0.452574
253.362167 -524.933167 10.636652 0.122181
253.362167 -524.933167 9.276125 0.346569
253.362167 -524.933167 7.931709 0.368015
253.362167 -524.933167 6.600288 0.006863
253.362167 -524.933167 5.278856 0.207353
253.362167 -524.933167 3.964500 0.324632
253.362167 -524.933167 2.654366 0.083088
253.362167 -524.933167 1.345634 0.067647
252.665710 -525.142456 -0.000228 0.225106
268.298645 -520.444031 -0.000018 0.332843
275.008789 -518.427368 -0.000006 0.335907
278.745941 -517.304138 -0.000001 0.337990
281.131775 -516.587158 -0.000001 0.335907
282.790009 -516.088745 -0.000002 0.332843
284.011841 -515.721497 0.000023 0.340809
253.209396 -524.687012 12.035700 0.501716
253.209396 -524.687012 10.653162 0.074632
253.209396 -524.687012 9.290031 0.361029
253.209396 -524.687012 7.943048 0.361275
253.209396 -524.687012 6.609082 0.043750
253.209396 -524.687012 5.285123 0.218260
253.209396 -524.687012 3.968256 0.359559
253.209412 -524.687012 2.655616 0.125735
253.209412 -524.687012 1.344384 0.080147
252.588943 -524.868774 -0.000019 0.227316
268.250214 -520.280823 -0.000018 0.332843
274.974274 -518.310974 -0.000006 0.332721
278.719177 -517.213928 -0.000001 0.330392
281.109924 -516.513550 -0.000002 0.330760
282.771606 -516.026733 -0.000002 0.334191
283.995972 -515.668091 0.000030 0.326593
253.056046 -524.439880 12.055410 0.477574
253.056046 -524.439880 10.670156 0.055025
253.056046 -524.439880 9.304348 0.336642
253.056046 -524.439880 7.954720 0.371569
253.056030 -524.439880 6.618133 0.018627
253.056046 -524.439880 5.291575 0.275858
253.056046 -524.439880 3.972121 0.299632
253.056046 -524.439880 2.656904 0.109314
253.056046 -524.439880 1.343096 0.077451
252.509232 -524.595947 -0.000057 0.226163
268.202881 -520.117188 -0.000018 0.334559
274.940552 -518.194397 -0.000006 0.334069
278.693024 -517.123535 -0.000001 0.334314
281.088623 -516.439819 -0.000003 0.333946
282.753632 -515.964661 -0.000003 0.337132
283.980377 -515.614563 0.000001 0.338725
252.902069 -524.191833 12.075692 0.481495
252.902069 -524.191833 10.687641 0.016544
252.902069 -524.191833 9.319078 0.281740
252.902054 -524.191833 7.966728 0.421446
252.902054 -524.191833 6.627446 0.014951
252.902069 -524.191833 5.298213 0.197059
252.902054 -524.191833 3.976099 0.334804
252.902054 -524.191833 2.658230 0.082598
252.902069 -524.191833 1.341771 0.085172
252.430435 -524.322876 -0.000147 0.226067
268.156738 -519.953308 -0.000018 0.332475
274.907654 -518.077576 -0.000006 0.334926
278.667511 -517.032898 -0.000002 0.333456
281.067810 -516.365967 -0.000003 0.330637
282.736115 -515.902405 -0.000004 0.326103
283.965302 -515.560913 0.000007 0.332843
252.747467 -523.942688 12.096544 0.486397
252.747467 -523.942688 10.705621 0.043137
252.747467 -523.942688 9.334229 0.262623
252.747467 -523.942688 7.979078 0.398162
252.747467 -523.942688 6.637024 0.012255
252.747467 -523.942688 5.305039 0.251103
252.747467 -523.942688 3.980187 0.339338
252.747467 -523.942688 2.659591 0.088971
252.747467 -523.942688 1.340408 0.093873
252.359375 -524.047668 0.000061 0.228181
268.111755 -519.789063 -0.000018 0.332108
274.875580 -517.960510 -0.000006 0.334191
278.642639 -516.942139 -0.000001 0.330515
281.047546 -516.291992 -0.000002 0.332598
282.719055 -515.840027 -0.000003 0.333946
283.950653 -515.507080 0.000027 0.337255
