# This PCD file was generated using the MATLABÂ® pcwrite function
# from Computer Vision ToolboxÂ®.
# .PCD v.7 - Point Cloud Data file format
VERSION .7
FIELDS x y z intensity
SIZE 4 4 4 4
TYPE F F F F
COUNT 1 1 1 1
WIDTH 1187
HEIGHT 1
VIEWPOINT 0 0 0 1 0 0 0
POINTS 1187
DATA ascii
-47.259209 113.778221 2.185138 0.678431
-47.259209 113.778221 1.814862 0.678431
-47.259209 113.778221 1.444189 0.678431
-47.259209 113.778221 1.072322 0.678431
-47.259209 113.778221 0.698454 0.678431
-47.259209 113.778221 0.321758 0.678431
-46.940155 113.822365 -0.000007 0.233972
-45.224968 114.059654 -0.000005 0.209641
-43.961300 114.234482 -0.000005 0.280694
-47.164204 113.870354 4.807289 0.682841
-47.164207 113.870354 4.420551 0.501839
-47.164207 113.870354 4.039243 0.575326
-47.259209 113.857887 3.676663 0.678431
-47.259209 113.857887 3.300322 0.678431
-47.259209 113.857887 2.926805 0.678431
-47.259209 113.857887 2.555288 0.678431
-47.259209 113.857887 2.184964 0.678431
-47.259209 113.857887 1.815036 0.678431
-47.259205 113.857887 1.444712 0.678431
-47.259209 113.857887 1.073195 0.678431
-47.259209 113.857887 0.699678 0.678431
-47.259209 113.857887 0.323337 0.678431
-46.950405 113.898415 -0.000006 0.299352
-45.233608 114.123726 -0.000006 0.220065
-43.968742 114.289726 -0.000004 0.199014
-47.164204 113.949196 4.804788 0.727245
-47.164204 113.949196 4.418394 0.543648
-47.164207 113.949196 4.037426 0.663645
-47.259209 113.937401 3.675169 0.678431
-47.259209 113.937401 3.299163 0.678431
-47.259209 113.937401 2.925979 0.678431
-47.259209 113.937401 2.554793 0.678431
-47.259209 113.937401 2.184799 0.678431
-47.259205 113.937401 1.815201 0.678431
-47.259209 113.937401 1.445207 0.678431
-47.259209 113.937401 1.074021 0.678431
-47.259209 113.937401 0.700837 0.678431
-47.259209 113.937401 0.324831 0.678431
-46.960125 113.974533 -0.000007 0.216774
-45.241795 114.187851 -0.000005 0.243618
-43.975807 114.345016 -0.000005 0.253778
-47.164204 114.027901 4.802426 0.754009
-47.164204 114.027901 4.416359 0.325277
-47.164207 114.027901 4.035711 0.730846
-47.259209 114.016777 3.673759 0.678431
-47.259209 114.016777 3.298070 0.678431
-47.259209 114.016777 2.925200 0.678431
-47.259209 114.016777 2.554326 0.678431
-47.259209 114.016777 2.184644 0.678431
-47.259209 114.016777 1.815357 0.678431
-47.259209 114.016777 1.445674 0.678431
-47.259209 114.016777 1.074800 0.678431
-47.259209 114.016777 0.701929 0.678431
-47.259209 114.016777 0.326241 0.678431
-46.969315 114.050713 -0.000007 0.222626
-45.249535 114.252037 -0.000006 0.247902
-43.982483 114.400360 -0.000005 0.263580
-47.164204 114.106476 4.800207 0.588464
-47.164204 114.106476 4.414444 0.356329
-47.164207 114.106476 4.034098 0.694347
-47.234211 114.098778 3.668703 0.094118
-47.234207 114.098778 3.294149 0.081743
-47.234207 114.098778 2.922404 0.094118
-47.234207 114.098778 2.552651 0.094118
-47.234207 114.098778 2.184085 0.073777
-47.234207 114.098778 1.815914 0.094118
-47.234207 114.098778 1.447348 0.086305
-47.234207 114.098778 1.077595 0.081437
-47.234207 114.098778 0.705852 0.031495
-47.234207 114.098778 0.331297 0.094118
-46.977970 114.126961 -0.000007 0.217935
-45.256828 114.316269 -0.000005 0.220496
-43.988770 114.455750 -0.000005 0.206158
-47.164204 114.184937 4.798126 0.728801
-47.164204 114.184937 4.412650 0.693599
-47.164207 114.184937 4.032587 0.677302
-47.259209 114.175156 3.671191 0.676555
-47.259205 114.175156 3.296078 0.662257
-47.259209 114.175156 2.923780 0.662257
-47.259205 114.175156 2.553475 0.662257
-47.259205 114.175156 2.184360 0.662257
-47.259209 114.175156 1.815640 0.662257
-47.259209 114.175156 1.446525 0.662257
-47.259209 114.175156 1.076220 0.662257
-47.259209 114.175156 0.703922 0.662257
-47.259209 114.175156 0.328809 0.671397
-46.986092 114.203262 -0.000007 0.230788
-45.263672 114.380554 -0.000006 0.211580
-43.994671 114.511177 -0.000005 0.215733
-47.164200 114.263275 4.796184 0.547570
-47.164200 114.263275 4.410976 0.820539
-47.164207 114.263275 4.031177 0.814298
-47.259212 114.254166 3.670032 0.676966
-47.259209 114.254166 3.295179 0.666667
-47.259209 114.254166 2.923139 0.666667
-47.259209 114.254166 2.553092 0.666667
-47.259209 114.254166 2.184232 0.666667
-47.259209 114.254166 1.815768 0.666667
-47.259209 114.254166 1.446908 0.666667
-47.259209 114.254166 1.076861 0.666667
-47.259209 114.254166 0.704821 0.666667
-47.259212 114.254166 0.329968 0.673747
-46.993687 114.279625 -0.000007 0.193532
-45.270065 114.444885 -0.000006 0.211364
-44.000183 114.566643 -0.000005 0.223679
-47.164200 114.341515 4.794382 0.405798
-47.164204 114.341515 4.409422 0.336416
-47.164207 114.341515 4.029867 0.560754
-47.259209 114.333076 3.668955 0.678431
-47.259209 114.333076 3.294344 0.678431
-47.259209 114.333076 2.922544 0.678431
-47.259209 114.333076 2.552735 0.678431
-47.259209 114.333076 2.184113 0.678431
-47.259209 114.333076 1.815887 0.678431
-47.259209 114.333076 1.447265 0.678431
-47.259209 114.333076 1.077456 0.678431
-47.259209 114.333076 0.705656 0.678431
-47.259209 114.333076 0.331045 0.678431
-47.000744 114.356033 -0.000007 0.198200
-45.276012 114.509262 -0.000006 0.187931
-44.005310 114.622147 -0.000005 0.190959
-47.164204 114.419655 4.792718 0.359411
-47.164204 114.419655 4.407988 0.465980
-47.164207 114.419655 4.028658 0.800000
-47.259209 114.411888 3.667961 0.678431
-47.259209 114.411888 3.293573 0.678431
-47.259209 114.411888 2.921994 0.678431
-47.259209 114.411888 2.552406 0.678431
-47.259209 114.411888 2.184004 0.678431
-47.259209 114.411888 1.815996 0.678431
-47.259209 114.411888 1.447594 0.678431
-47.259209 114.411888 1.078005 0.678431
-47.259209 114.411888 0.706427 0.678431
-47.259209 114.411888 0.332039 0.678431
-47.007267 114.432495 -0.000007 0.192766
-45.281506 114.573677 -0.000005 0.226827
-44.010048 114.677689 -0.000005 0.229352
-47.274105 114.489487 4.818799 0.753399
-47.164204 114.497711 4.406671 0.342687
-47.164207 114.497711 4.027550 0.433509
-47.259209 114.490601 3.667050 0.678431
-47.259209 114.490601 3.292867 0.678431
-47.259209 114.490608 2.921491 0.678431
-47.259209 114.490608 2.552104 0.678431
-47.259209 114.490608 2.183903 0.678431
-47.259209 114.490608 1.816097 0.678431
-47.259209 114.490608 1.447896 0.678431
-47.259209 114.490608 1.078509 0.678431
-47.259209 114.490601 0.707134 0.678431
-47.259209 114.490608 0.332950 0.678431
-47.013256 114.508995 -0.000007 0.226300
-45.286556 114.638123 -0.000006 0.220257
-44.014400 114.733261 -0.000005 0.240147
-47.354202 114.562805 4.837506 0.678431
-47.164204 114.575684 4.405475 0.284459
-47.164207 114.575684 4.026542 0.708797
-47.259209 114.569244 3.666221 0.476692
-47.259209 114.569244 3.292223 0.368841
-47.259209 114.569244 2.921032 0.368841
-47.259209 114.569244 2.551829 0.513756
-47.259209 114.569244 2.183811 0.513756
-47.259209 114.569244 1.816188 0.513756
-47.259209 114.569244 1.448170 0.513756
-47.259209 114.569244 1.078967 0.513756
-47.259209 114.569244 0.707777 0.678431
-47.259209 114.569244 0.333780 0.678431
-47.018711 114.585541 -0.000007 0.257955
-45.291145 114.702614 -0.000006 0.218090
-44.018360 114.788864 -0.000005 0.210287
-47.354206 114.642036 4.836233 0.678431
-47.164204 114.653580 4.404396 0.364523
-47.164207 114.653580 4.025633 0.312520
-47.259209 114.647804 3.665473 0.678431
-47.259205 114.647804 3.291643 0.678431
-47.259209 114.647804 2.920619 0.678431
-47.259205 114.647804 2.551581 0.495369
-47.259205 114.647804 2.183729 0.495369
-47.259205 114.647804 1.816271 0.488045
-47.259205 114.647804 1.448418 0.495369
-47.259205 114.647804 1.079381 0.495369
-47.259205 114.647804 0.708357 0.488045
-47.259205 114.647804 0.334527 0.495369
-47.023636 114.662117 -0.000007 0.215601
-45.295296 114.767128 -0.000006 0.203932
-44.021938 114.844490 -0.000005 0.222650
-47.354210 114.721199 4.835101 0.678431
-47.164204 114.731407 4.403435 0.251286
-47.164204 114.731407 4.024822 0.599069
-47.259209 114.726303 3.664807 0.675258
-47.259209 114.726303 3.291127 0.678431
-47.259209 114.726303 2.920252 0.678431
-47.259205 114.726303 2.551361 0.678431
-47.259205 114.726303 2.183656 0.678431
-47.259205 114.726303 1.816344 0.678431
-47.259205 114.726303 1.448639 0.678431
-47.259209 114.726303 1.079748 0.678431
-47.259209 114.726303 0.708873 0.678431
-47.259205 114.726303 0.335193 0.678431
-47.028015 114.738731 -0.000007 0.234678
-45.298992 114.831665 -0.000006 0.214524
-44.025124 114.900139 -0.000005 0.194921
-47.354206 114.800301 4.834105 0.678431
-47.164204 114.809181 4.402592 0.401450
-47.164207 114.809181 4.024113 0.543572
-47.259205 114.804741 3.664223 0.666667
-47.259209 114.804741 3.290674 0.678431
-47.259205 114.804741 2.919928 0.678431
-47.259205 114.804741 2.551167 0.678431
-47.259205 114.804741 2.183591 0.678431
-47.259205 114.804741 1.816409 0.678431
-47.259205 114.804741 1.448832 0.678431
-47.259209 114.804741 1.080071 0.678431
-47.259209 114.804741 0.709326 0.678431
-47.259205 114.804741 0.335777 0.678431
-47.031872 114.815369 -0.000008 0.230321
-45.302235 114.896233 -0.000006 0.193616
-44.027924 114.955811 -0.000005 0.251481
-47.354206 114.879349 4.833251 0.678431
-47.164204 114.886902 4.401866 0.374838
-47.164204 114.886902 4.023500 0.598962
-47.259209 114.883125 3.663721 0.666667
-47.259205 114.883125 3.290284 0.678431
-47.259209 114.883125 2.919651 0.678431
-47.259209 114.883125 2.551001 0.678431
-47.259209 114.883125 2.183536 0.678431
-47.259209 114.883125 1.816464 0.678431
-47.259209 114.883125 1.448998 0.678431
-47.259209 114.883125 1.080349 0.678431
-47.259209 114.883125 0.709715 0.678431
-47.259209 114.883125 0.336279 0.678431
-47.035187 114.892036 -0.000008 0.220292
-45.305031 114.960823 -0.000006 0.218366
-44.030331 115.011505 -0.000005 0.272424
-47.354210 114.958359 4.832534 0.678431
-47.164204 114.964584 4.401258 0.410956
-47.164204 114.964584 4.022989 0.452674
-47.259205 114.961472 3.663300 0.666667
-47.259205 114.961472 3.289958 0.678431
-47.259205 114.961472 2.919418 0.678431
-47.259209 114.961472 2.550862 0.678431
-47.259205 114.961472 2.183489 0.678431
-47.259205 114.961472 1.816511 0.678431
-47.259209 114.961472 1.449138 0.678431
-47.259209 114.961472 1.080582 0.678431
-47.259209 114.961472 0.710042 0.678431
-47.259209 114.961472 0.336700 0.678431
-47.037971 114.968719 -0.000008 0.248932
-45.307373 115.025429 -0.000006 0.202017
-44.032352 115.067207 -0.000005 0.269935
-47.354210 115.037331 4.831955 0.678431
-47.164204 115.042229 4.400768 0.237354
-47.164204 115.042229 4.022575 0.527245
-47.259209 115.039780 3.662960 0.647059
-47.259205 115.039780 3.289695 0.678431
-47.259205 115.039780 2.919230 0.678431
-47.259209 115.039780 2.550749 0.678431
-47.259209 115.039780 2.183452 0.678431
-47.259209 115.039780 1.816548 0.678431
-47.259209 115.039780 1.449250 0.647059
-47.259209 115.039780 1.080769 0.673777
-47.259209 115.039780 0.710305 0.647059
-47.259209 115.039780 0.337040 0.678431
-47.040215 115.045425 -0.000008 0.205895
-45.309265 115.090050 -0.000006 0.230728
-44.033981 115.122925 -0.000005 0.228155
-47.354210 115.116272 4.831515 0.678431
-47.164207 115.119843 4.400395 0.239368
-47.164204 115.119843 4.022261 0.471809
-47.234207 115.118530 3.658991 0.094118
-47.234207 115.118523 3.286617 0.062745
-47.234207 115.118530 2.917037 0.094118
-47.234207 115.118523 2.549435 0.094118
-47.234207 115.118530 2.183014 0.075364
-47.234207 115.118530 1.816986 0.062745
-47.234207 115.118523 1.450565 0.094118
-47.234207 115.118530 1.082963 0.081636
-47.234207 115.118523 0.713383 0.074510
-47.234207 115.118530 0.341008 0.086275
-47.041924 115.122139 -0.000007 0.209007
-45.310707 115.154678 -0.000006 0.213148
-44.035225 115.178658 -0.000005 0.247663
-47.314209 115.195663 4.821191 0.095338
-47.164207 115.197433 4.400138 0.459693
-47.164207 115.197433 4.022045 0.642512
-47.259209 115.196312 3.662524 0.678431
-47.259209 115.196312 3.289356 0.678431
-47.259205 115.196312 2.918989 0.678431
-47.259209 115.196312 2.550605 0.678431
-47.259205 115.196312 2.183404 0.678431
-47.259205 115.196312 1.816596 0.678431
-47.259205 115.196312 1.449395 0.678431
-47.259205 115.196312 1.081011 0.678431
-47.259205 115.196312 0.710644 0.678431
-47.259205 115.196312 0.337477 0.678431
-47.043098 115.198868 -0.000008 0.278851
-45.311699 115.219322 -0.000006 0.189870
-44.036079 115.234390 -0.000005 0.251217
-47.164207 115.275017 4.783453 0.545480
-47.164207 115.275017 4.399998 0.452735
-47.164204 115.275017 4.021927 0.727947
-47.259209 115.274559 3.662427 0.678431
-47.259209 115.274559 3.289281 0.678431
-47.259209 115.274559 2.918936 0.678431
-47.259205 115.274559 2.550573 0.678431
-47.259209 115.274559 2.183393 0.678431
-47.259209 115.274559 1.816607 0.678431
-47.259205 115.274559 1.449427 0.678431
-47.259209 115.274559 1.081064 0.678431
-47.259209 115.274559 0.710719 0.678431
-47.259209 115.274559 0.337573 0.678431
-47.043739 115.275604 -0.000008 0.229484
-45.312233 115.283966 -0.000006 0.251911
-44.036541 115.290131 -0.000005 0.282047
-47.164204 115.352600 4.783427 0.385580
-47.164207 115.352592 4.399976 0.463264
-47.164204 115.352600 4.021908 0.630991
-47.259205 115.352798 3.662411 0.678431
-47.259205 115.352798 3.289269 0.678431
-47.259205 115.352798 2.918927 0.678431
-47.259209 115.352798 2.550568 0.678431
-47.259205 115.352798 2.183391 0.678431
-47.259205 115.352798 1.816609 0.678431
-47.259209 115.352798 1.449432 0.678431
-47.259205 115.352798 1.081073 0.678431
-47.259205 115.352798 0.710731 0.678431
-47.259209 115.352798 0.337589 0.678431
-47.043839 115.352341 -0.000008 0.212801
-45.312321 115.348618 -0.000006 0.206039
-44.036617 115.345871 -0.000005 0.225092
-47.164207 115.430176 4.783537 0.469856
-47.164207 115.430176 4.400070 0.474968
-47.164204 115.430176 4.021988 0.528099
-47.259209 115.431046 3.662477 0.678431
-47.259209 115.431046 3.289320 0.511269
-47.259209 115.431046 2.918963 0.511269
-47.259209 115.431046 2.550589 0.511269
-47.259205 115.431046 2.183398 0.499870
-47.259209 115.431046 1.816601 0.499870
-47.259209 115.431046 1.449410 0.488487
-47.259209 115.431046 1.081036 0.488487
-47.259209 115.431046 0.710680 0.488487
-47.259209 115.431046 0.337523 0.488487
-47.043407 115.429070 -0.000008 0.205404
-45.311958 115.413261 -0.000006 0.214189
-44.036301 115.401611 -0.000005 0.193125
-47.164204 115.507767 4.783782 0.490120
-47.164207 115.507767 4.400282 0.335958
-47.164207 115.507767 4.022166 0.439704
-47.234207 115.508896 3.658914 0.094118
-47.234207 115.508896 3.286557 0.062745
-47.234207 115.508896 2.916994 0.094118
-47.234207 115.508896 2.549409 0.094118
-47.234207 115.508896 2.183006 0.075975
-47.234207 115.508896 1.816994 0.094118
-47.234207 115.508896 1.450590 0.094118
-47.234207 115.508896 1.083006 0.094118
-47.234207 115.508896 0.713443 0.074510
-47.234211 115.508896 0.341085 0.086275
-47.042442 115.505806 -0.000008 0.224062
-45.311142 115.477905 -0.000006 0.203657
-44.035599 115.457352 -0.000005 0.206924
-47.164204 115.585373 4.784163 0.477409
-47.164207 115.585373 4.400611 0.311940
-47.164204 115.585373 4.022443 0.555947
-47.259209 115.587570 3.662851 0.678431
-47.259209 115.587570 3.289610 0.678431
-47.259209 115.587570 2.919170 0.678431
-47.259205 115.587570 2.550714 0.678431
-47.259209 115.587570 2.183440 0.678431
-47.259209 115.587570 1.816560 0.678431
-47.259205 115.587570 1.449287 0.678431
-47.259205 115.587570 1.080830 0.678431
-47.259205 115.587570 0.710390 0.678431
-47.259205 115.587570 0.337150 0.678431
-47.040936 115.582527 -0.000008 0.197709
-45.309872 115.542542 -0.000006 0.205524
-44.034508 115.513084 -0.000006 0.270809
-47.164207 115.663002 4.784680 0.459525
-47.164207 115.663002 4.401057 0.381140
-47.164207 115.663002 4.022819 0.680873
-47.259209 115.665863 3.663159 0.678431
-47.259209 115.665863 3.289849 0.678431
-47.259209 115.665863 2.919340 0.678431
-47.259209 115.665863 2.550816 0.678431
-47.259209 115.665863 2.183474 0.678431
-47.259209 115.665863 1.816526 0.678431
-47.259209 115.665863 1.449184 0.678431
-47.259205 115.665863 1.080659 0.678431
-47.259205 115.665863 0.710151 0.678431
-47.259205 115.665863 0.336841 0.678431
-47.038895 115.659233 -0.000008 0.267530
-45.308155 115.607162 -0.000006 0.201635
-44.033028 115.568802 -0.000006 0.275309
-47.164204 115.740669 4.785333 0.489281
-47.164207 115.740669 4.401619 0.435340
-47.164204 115.740669 4.023293 0.422080
-47.259209 115.744186 3.663549 0.678431
-47.259209 115.744186 3.290152 0.678431
-47.259209 115.744186 2.919556 0.678431
-47.259209 115.744186 2.550945 0.678431
-47.259209 115.744186 2.183517 0.678431
-47.259209 115.744186 1.816483 0.678431
-47.259209 115.744186 1.449055 0.678431
-47.259205 115.744186 1.080444 0.678431
-47.259209 115.744186 0.709848 0.678431
-47.259205 115.744186 0.336451 0.678431
-47.036324 115.735924 -0.000008 0.242792
-45.305984 115.671776 -0.000006 0.213602
-44.031158 115.624512 -0.000006 0.225307
-47.164204 115.818375 4.786121 0.486030
-47.164207 115.818375 4.402300 0.472496
-47.164204 115.818375 4.023866 0.786221
-47.259209 115.822563 3.664021 0.678431
-47.259209 115.822563 3.290518 0.678431
-47.259209 115.822563 2.919816 0.678431
-47.259209 115.822563 2.551101 0.678431
-47.259209 115.822563 2.183569 0.678431
-47.259209 115.822563 1.816431 0.678431
-47.259209 115.822563 1.448899 0.678431
-47.259209 115.822563 1.080183 0.678431
-47.259209 115.822563 0.709482 0.678431
-47.259205 115.822563 0.335979 0.678431
-47.033215 115.812599 -0.000008 0.231674
-45.303364 115.736374 -0.000007 0.251732
-44.028896 115.680214 -0.000006 0.238125
-47.164207 115.896126 4.787047 0.513542
-47.164207 115.896126 4.403098 0.303181
-47.164207 115.896126 4.024538 0.432837
-47.259209 115.900978 3.664573 0.678431
-47.259209 115.900978 3.290946 0.678431
-47.259209 115.900978 2.920122 0.678431
-47.259209 115.900978 2.551284 0.678431
-47.259209 115.900978 2.183630 0.678431
-47.259209 115.900978 1.816370 0.678431
-47.259209 115.900978 1.448716 0.678431
-47.259209 115.900978 1.079877 0.678431
-47.259209 115.900978 0.709054 0.678431
-47.259205 115.900978 0.335427 0.678431
-47.029564 115.889252 -0.000008 0.229400
-45.300293 115.800949 -0.000007 0.233301
-44.026249 115.735893 -0.000006 0.240279
-47.164207 115.973930 4.788110 0.450767
-47.164204 115.973930 4.404013 0.437903
-47.164204 115.973930 4.025309 0.787747
-47.259205 115.979446 3.665207 0.678431
-47.259205 115.979446 3.291438 0.678431
-47.259209 115.979446 2.920473 0.678431
-47.259209 115.979446 2.551494 0.678431
-47.259209 115.979446 2.183700 0.678431
-47.259209 115.979446 1.816300 0.678431
-47.259209 115.979446 1.448506 0.678431
-47.259209 115.979446 1.079527 0.678431
-47.259205 115.979446 0.708562 0.678431
-47.259205 115.979446 0.334793 0.678431
-47.025383 115.965874 -0.000008 0.246191
-45.296772 115.865501 -0.000007 0.199971
-44.023209 115.791550 -0.000006 0.217743
-47.164204 116.051804 4.789308 0.440253
-47.164204 116.051804 4.405046 0.404715
-47.164207 116.051804 4.026180 0.593545
-47.259209 116.057983 3.665923 0.555093
-47.259209 116.057983 3.291993 0.555093
-47.259209 116.057983 2.920868 0.596201
-47.259209 116.057983 2.551731 0.555093
-47.259209 116.057983 2.183779 0.595285
-47.259209 116.057983 1.816221 0.590600
-47.259209 116.057983 1.448269 0.590600
-47.259209 116.057983 1.079131 0.596201
-47.259209 116.057983 0.708007 0.596201
-47.259209 116.057983 0.334077 0.678431
-47.020672 116.042465 -0.000008 0.215613
-45.292797 115.930023 -0.000006 0.211580
-44.019787 115.847183 -0.000006 0.228251
-47.164207 116.129745 4.790644 0.420661
-47.164204 116.129745 4.406198 0.340505
-47.164207 116.129745 4.027151 0.682536
-47.234207 116.134796 3.663003 0.094118
-47.234207 116.134796 3.289729 0.079652
-47.234207 116.134796 2.919254 0.099077
-47.234207 116.134796 2.550764 0.094118
-47.234207 116.134796 2.183457 0.076967
-47.234207 116.134796 1.816543 0.062745
-47.234207 116.134796 1.449236 0.086275
-47.234207 116.134796 1.080745 0.081910
-47.234207 116.134796 0.710271 0.062745
-47.234207 116.134796 0.336997 0.094118
-47.015419 116.119019 -0.000008 0.195615
-45.288376 115.994522 -0.000006 0.229472
-44.015972 115.902802 -0.000006 0.191498
-47.164200 116.207764 4.792116 0.432944
-47.164204 116.207764 4.407469 0.429282
-47.164207 116.207764 4.028221 0.645441
-47.259209 116.215286 3.667601 0.678431
-47.259209 116.215286 3.293294 0.678431
-47.259209 116.215286 2.921796 0.678431
-47.259209 116.215286 2.552286 0.678431
-47.259209 116.215286 2.183964 0.678431
-47.259209 116.215286 1.816036 0.678431
-47.259209 116.215286 1.447713 0.678431
-47.259209 116.215286 1.078204 0.678431
-47.259209 116.215286 0.706705 0.678431
-47.259209 116.215286 0.332399 0.678431
-47.009636 116.195541 -0.000008 0.209641
-45.283501 116.058983 -0.000007 0.197099
-44.011768 115.958382 -0.000006 0.251816
-47.164204 116.285873 4.793727 0.280766
-47.164204 116.285873 4.408857 0.427466
-47.164204 116.285873 4.029391 0.640879
-47.259209 116.294060 3.668563 0.678431
-47.259209 116.294060 3.294040 0.678431
-47.259209 116.294060 2.922328 0.678431
-47.259209 116.294060 2.552605 0.678431
-47.259209 116.294060 2.184070 0.678431
-47.259209 116.294060 1.815930 0.678431
-47.259209 116.294060 1.447395 0.678431
-47.259209 116.294060 1.077672 0.678431
-47.259209 116.294060 0.705960 0.678431
-47.259209 116.294060 0.331436 0.678431
-47.003319 116.272018 -0.000008 0.196381
-45.278179 116.123413 -0.000007 0.212047
-44.007179 116.013931 -0.000006 0.195902
-47.164204 116.364075 4.795476 0.386404
-47.164207 116.364075 4.410366 0.522728
-47.164207 116.364075 4.030662 0.618769
-47.259205 116.372925 3.669608 0.678431
-47.259209 116.372925 3.294851 0.678431
-47.259205 116.372925 2.922905 0.678431
-47.259205 116.372925 2.552951 0.678431
-47.259209 116.372925 2.184185 0.678431
-47.259209 116.372925 1.815814 0.678431
-47.259209 116.372925 1.447049 0.678431
-47.259209 116.372925 1.077095 0.678431
-47.259209 116.372925 0.705149 0.678431
-47.259209 116.372925 0.330392 0.678431
-46.996464 116.348442 -0.000008 0.240291
-45.272408 116.187805 -0.000007 0.237215
-44.002201 116.069450 -0.000006 0.238148
-47.164204 116.442375 4.797364 0.518486
-47.164204 116.442375 4.411993 0.633051
-47.164204 116.442375 4.032033 0.527245
-47.259209 116.451897 3.670736 0.678431
-47.259209 116.451897 3.295725 0.678431
-47.259205 116.451897 2.923528 0.678431
-47.259209 116.451897 2.553324 0.678431
-47.259205 116.451897 2.184310 0.678431
-47.259209 116.451897 1.815690 0.678431
-47.259209 116.451897 1.446675 0.678431
-47.259209 116.451897 1.076471 0.678431
-47.259209 116.451897 0.704275 0.678431
-47.259209 116.451897 0.329264 0.678431
-46.989079 116.424828 -0.000008 0.244013
-45.266182 116.252151 -0.000007 0.239405
-43.996838 116.124939 -0.000006 0.183216
-47.164204 116.520790 4.799391 0.359564
-47.164204 116.520790 4.413740 0.439323
-47.164207 116.520790 4.033505 0.515511
-47.259205 116.530983 3.671946 0.678431
-47.259205 116.530975 3.296663 0.678431
-47.259205 116.530983 2.924198 0.678431
-47.259205 116.530983 2.553725 0.678431
-47.259205 116.530983 2.184443 0.678431
-47.259209 116.530983 1.815557 0.678431
-47.259209 116.530983 1.446274 0.678431
-47.259209 116.530983 1.075802 0.678431
-47.259209 116.530983 0.703336 0.678431
-47.259209 116.530983 0.328054 0.678431
-46.981159 116.501152 -0.000008 0.223835
-45.259514 116.316452 -0.000007 0.206410
-43.991085 116.180382 -0.000006 0.196680
-47.164204 116.599319 4.801558 0.575296
-47.164204 116.599319 4.415609 0.606699
-47.164207 116.599319 4.035079 0.803357
-47.259205 116.610184 3.673240 0.678431
-47.259205 116.610184 3.297667 0.678431
-47.259201 116.610184 2.924912 0.678431
-47.259205 116.610184 2.554154 0.678431
-47.259205 116.610184 2.184586 0.678431
-47.259209 116.610184 1.815414 0.678431
-47.259209 116.610184 1.445846 0.678431
-47.259205 116.610184 1.075087 0.678431
-47.259209 116.610184 0.702333 0.678431
-47.259209 116.610184 0.326760 0.678431
-46.972710 116.577423 -0.000008 0.193425
-45.252396 116.380714 -0.000007 0.242493
-43.984947 116.235786 -0.000006 0.235659
-47.164204 116.677971 4.803864 0.477195
-47.164204 116.677971 4.417598 0.650477
-47.164207 116.677971 4.036755 0.618860
-47.248245 116.688179 3.672980 0.252110
-47.248245 116.688179 3.297466 0.155764
-47.248245 116.688179 2.924769 0.169665
-47.248249 116.688179 2.554068 0.162875
-47.248245 116.688179 2.184557 0.158221
-47.248245 116.688179 1.815443 0.143404
-47.248249 116.688179 1.445932 0.094118
-47.248249 116.688179 1.075231 0.083925
-47.248249 116.688179 0.702534 0.073732
-47.248249 116.688179 0.327020 0.086275
-46.963722 116.653633 -0.000008 0.250751
-45.244827 116.444916 -0.000007 0.224230
-43.978420 116.291145 -0.000006 0.211831
-47.354206 116.781181 4.854297 0.678431
-47.164204 116.756760 4.419708 0.645594
-47.164207 116.756760 4.038533 0.677897
-47.259209 116.768974 3.676080 0.678431
-47.259209 116.768974 3.299869 0.678431
-47.259209 116.768974 2.926482 0.678431
-47.259205 116.768974 2.555094 0.569741
-47.259205 116.768974 2.184900 0.563684
-47.259205 116.768974 1.815101 0.563684
-47.259205 116.768974 1.444906 0.563684
-47.259205 116.768974 1.073518 0.563684
-47.259205 116.768974 0.700131 0.563684
-47.259209 116.768974 0.323920 0.535866
-46.954208 116.729774 -0.000008 0.275596
-45.236809 116.509064 -0.000007 0.224553
-43.971508 116.346451 -0.000006 0.226947
-47.354210 116.861458 4.856930 0.678431
-47.164204 116.835693 4.421940 0.709224
-47.164204 116.835693 4.040413 0.710948
-47.259209 116.848572 3.677625 0.678431
-47.259209 116.848572 3.301069 0.678431
-47.259209 116.848572 2.927337 0.678431
-47.259209 116.848572 2.555606 0.678431
-47.259209 116.848572 2.185070 0.678431
-47.259209 116.848572 1.814930 0.678431
-47.259209 116.848572 1.444393 0.678431
-47.259209 116.848572 1.072663 0.678431
-47.259209 116.848572 0.698931 0.678431
-47.259209 116.848572 0.322375 0.678431
-46.944164 116.805847 -0.000008 0.219694
-45.228344 116.573151 -0.000007 0.216546
-43.964211 116.401718 -0.000006 0.265710
-47.354210 116.941895 4.859707 0.678431
-47.314205 116.936180 4.457020 0.103929
-47.164207 116.914772 4.042397 0.638621
-47.259205 116.928329 3.679256 0.678431
-47.259209 116.928329 3.302333 0.670207
-47.259205 116.928329 2.928238 0.670207
-47.259205 116.928329 2.556146 0.670207
-47.259205 116.928329 2.185250 0.670207
-47.259209 116.928329 1.814750 0.670207
-47.259209 116.928329 1.443853 0.670207
-47.259205 116.928329 1.071761 0.670207
-47.259209 116.928329 0.697667 0.678431
-47.259205 116.928329 0.320744 0.678431
-46.933586 116.881851 -0.000008 0.275512
-45.219433 116.637184 -0.000007 0.198499
-43.956528 116.456924 -0.000006 0.257907
-47.354210 117.022484 4.862629 0.678431
-47.314201 117.016487 4.459530 0.095048
-47.164207 116.994011 4.044483 0.653864
-47.259209 117.008247 3.680972 0.678431
-47.259209 117.008247 3.303664 0.666667
-47.259209 117.008247 2.929187 0.666667
-47.259209 117.008247 2.556715 0.666667
-47.259209 117.008247 2.185439 0.666667
-47.259209 117.008247 1.814561 0.666667
-47.259209 117.008247 1.443285 0.666667
-47.259209 117.008247 1.070813 0.666667
-47.259209 117.008247 0.696336 0.678431
-47.259209 117.008247 0.319028 0.678431
-46.922478 116.957779 -0.000008 0.211951
-45.210075 116.701149 -0.000007 0.247675
-43.948460 116.512077 -0.000006 0.275392
-47.354210 117.103241 4.865698 0.678431
-47.314201 117.096962 4.462166 0.099718
-47.164207 117.073410 4.046674 0.673777
-47.234207 117.084404 3.679020 0.079423
-47.234207 117.084404 3.302150 0.079011
-47.234207 117.084404 2.928108 0.094118
-47.234207 117.084404 2.556068 0.094118
-47.234207 117.084404 2.185224 0.078553
-47.234207 117.084404 1.814776 0.094118
-47.234207 117.084404 1.443932 0.094118
-47.234207 117.084404 1.071892 0.094118
-47.234207 117.084404 0.697850 0.062745
-47.234203 117.084404 0.320980 0.094118
-46.910839 117.033630 -0.000009 0.228287
-45.200272 116.765053 -0.000007 0.256040
-43.940002 116.567177 -0.000006 0.221920
-47.354210 117.184181 4.868912 0.678431
-47.314201 117.177612 4.464929 0.094118
-47.164207 117.152992 4.048971 0.732860
-47.259205 117.168587 3.684661 0.678431
-47.259205 117.168587 3.306525 0.678431
-47.259201 117.168587 2.931226 0.648646
-47.259205 117.168587 2.557936 0.648646
-47.259209 117.168587 2.185846 0.648646
-47.259209 117.168587 1.814154 0.648646
-47.259209 117.168587 1.442063 0.648646
-47.259205 117.168587 1.068774 0.678431
-47.259205 117.168587 0.693475 0.678431
-47.259209 117.168587 0.315338 0.677836
-46.898670 117.109398 -0.000008 0.196764
-45.190022 116.828880 -0.000007 0.234917
-43.931168 116.622215 -0.000006 0.190863
-47.354210 117.265305 4.872273 0.678431
-47.377876 117.269363 4.481769 0.305165
-47.164207 117.232750 4.051372 0.695994
-47.259205 117.249031 3.686635 0.678431
-47.259209 117.249031 3.308056 0.678431
-47.259205 117.249031 2.932317 0.678431
-47.259209 117.249031 2.558590 0.678431
-47.259209 117.249031 2.186064 0.678431
-47.259209 117.249031 1.813936 0.678431
-47.259209 117.249031 1.441409 0.678431
-47.259209 117.249031 1.067682 0.678431
-47.259209 117.249031 0.691944 0.678431
-47.259209 117.249031 0.313365 0.666667
-46.885979 117.185074 -0.000009 0.286235
-45.179325 116.892639 -0.000007 0.218533
-43.921944 116.677193 -0.000006 0.278025
-47.354210 117.346626 4.875784 0.678431
-47.354210 117.346626 4.479609 0.348684
-47.164207 117.312698 4.053879 0.732082
-47.259209 117.329666 3.688696 0.678431
-47.259209 117.329666 3.309655 0.678431
-47.259205 117.329666 2.933456 0.678431
-47.259205 117.329666 2.559273 0.678431
-47.259209 117.329666 2.186291 0.678431
-47.259209 117.329666 1.813709 0.678431
-47.259209 117.329666 1.440727 0.678431
-47.259209 117.329666 1.066543 0.678431
-47.259209 117.329666 0.690345 0.678431
-47.259209 117.329666 0.311303 0.674617
-46.872753 117.260666 -0.000009 0.233684
-45.168182 116.956322 -0.000007 0.223464
-43.912338 116.732094 -0.000006 0.219096
-47.314201 117.420715 4.869251 0.062745
-47.314205 117.420715 4.473977 0.062745
-47.164207 117.392853 4.056492 0.718990
-47.234203 117.405853 3.687073 0.087266
-47.234207 117.405853 3.308395 0.068757
-47.234203 117.405853 2.932559 0.094118
-47.234203 117.405853 2.558736 0.085176
-47.234203 117.405853 2.186112 0.085176
-47.234203 117.405853 1.813888 0.085176
-47.234203 117.405853 1.441264 0.094118
-47.234203 117.405853 1.067440 0.078553
-47.234207 117.405853 0.691604 0.049271
-47.234207 117.405853 0.312926 0.094118
-46.859001 117.336159 -0.000009 0.254389
-45.156601 117.019928 -0.000007 0.217348
-43.902351 116.786934 -0.000006 0.226970
-47.164207 117.473213 4.834781 0.341329
-47.164207 117.473213 4.444256 0.442863
-47.164207 117.473213 4.059213 0.712764
-47.259209 117.491547 3.693083 0.587869
-47.259209 117.491547 3.313056 0.538964
-47.259209 117.491547 2.935881 0.543938
-47.259209 117.491547 2.560726 0.541726
-47.259209 117.491547 2.186775 0.538964
-47.259209 117.491547 1.813225 0.538964
-47.259209 117.491547 1.439274 0.538964
-47.259209 117.491547 1.064118 0.543938
-47.259209 117.491547 0.686944 0.543938
-47.259209 117.491547 0.306918 0.543938
-46.844727 117.411552 -0.000009 0.237083
-45.144569 117.083443 -0.000007 0.222913
-43.891975 116.841705 -0.000006 0.229974
-47.164207 117.553787 4.838675 0.331563
-47.164207 117.553787 4.447613 0.548363
-47.164207 117.553787 4.062042 0.698848
-47.259209 117.572807 3.695408 0.678431
-47.259209 117.572807 3.314860 0.678431
-47.259209 117.572807 2.937167 0.678431
-47.259209 117.572807 2.561496 0.678431
-47.259209 117.572807 2.187032 0.678431
-47.259205 117.572807 1.812968 0.678431
-47.259205 117.572807 1.438504 0.678431
-47.259205 117.572807 1.062833 0.678431
-47.259205 117.572807 0.685140 0.678431
-47.259205 117.572807 0.304592 0.678431
-46.829922 117.486847 -0.000009 0.251804
-45.132099 117.146881 -0.000007 0.243271
-43.881222 116.896400 -0.000006 0.232416
-47.164207 117.634590 4.842719 0.710353
-47.164207 117.634590 4.451099 0.509010
-47.164207 117.634590 4.064979 0.623880
-47.259209 117.654305 3.697823 0.678431
-47.259209 117.654305 3.316732 0.678431
-47.259209 117.654305 2.938501 0.678431
-47.259209 117.654305 2.562295 0.678431
-47.259205 117.654305 2.187298 0.678431
-47.259205 117.654305 1.812702 0.678431
-47.259205 117.654305 1.437704 0.678431
-47.259209 117.654305 1.061498 0.678431
-47.259205 117.654305 0.683268 0.678431
-47.259205 117.654305 0.302177 0.678431
-46.814590 117.562042 -0.000008 0.223631
-45.119186 117.210220 -0.000007 0.269516
-43.870087 116.951019 -0.000006 0.253192
-47.164207 117.715622 4.846912 0.790280
-47.164207 117.715622 4.454715 0.548898
-47.164207 117.715622 4.068025 0.675593
-47.259205 117.736031 3.700328 0.678431
-47.259209 117.736031 3.318675 0.678431
-47.259205 117.736031 2.939886 0.678431
-47.259209 117.736031 2.563125 0.678431
-47.259205 117.736031 2.187574 0.678431
-47.259205 117.736031 1.812426 0.678431
-47.259205 117.736031 1.436875 0.678431
-47.259205 117.736031 1.060114 0.678431
-47.259205 117.736031 0.681325 0.678431
-47.259205 117.736031 0.299673 0.678431
-46.798737 117.637123 -0.000008 0.216774
-45.105827 117.273476 -0.000007 0.187656
-43.858570 117.005562 -0.000006 0.209031
-47.164207 117.796906 4.851258 0.361654
-47.164207 117.796906 4.458462 0.664164
-47.164207 117.796906 4.071181 0.700130
-47.259205 117.818008 3.702922 0.678431
-47.259209 117.818008 3.320687 0.678431
-47.259205 117.818008 2.941320 0.678431
-47.259209 117.818008 2.563984 0.678431
-47.259205 117.818008 2.187861 0.678431
-47.259205 117.818008 1.812139 0.678431
-47.259205 117.818008 1.436015 0.678431
-47.259205 117.818008 1.058680 0.678431
-47.259205 117.818008 0.679313 0.678431
-47.259205 117.818008 0.297078 0.678431
-46.782360 117.712090 -0.000009 0.195387
-45.092033 117.336632 -0.000007 0.218533
-43.846676 117.060013 -0.000006 0.305887
-47.164207 117.878433 4.855756 0.413535
-47.164207 117.878433 4.462340 0.606683
-47.164207 117.878433 4.074449 0.616861
-47.259205 117.900230 3.705609 0.678431
-47.259205 117.900230 3.322771 0.678431
-47.259205 117.900230 2.942805 0.678431
-47.259209 117.900230 2.564874 0.678431
-47.259205 117.900230 2.188157 0.678431
-47.259205 117.900230 1.811843 0.678431
-47.259205 117.900230 1.435126 0.678431
-47.259201 117.900230 1.057195 0.678431
-47.259201 117.900230 0.677229 0.678431
-47.259201 117.900230 0.294391 0.678431
-46.765457 117.786942 -0.000009 0.210981
-45.077793 117.399696 -0.000007 0.248453
-43.834400 117.114388 -0.000006 0.259882
-47.164207 117.960228 4.860407 0.835492
-47.164207 117.960228 4.466352 0.660410
-47.164207 117.960228 4.077827 0.516808
-47.259205 117.982727 3.708387 0.678431
-47.259205 117.982727 3.324925 0.678431
-47.259205 117.982727 2.944341 0.678431
-47.259201 117.982727 2.565794 0.678431
-47.259205 117.982727 2.188463 0.678431
-47.259205 117.982727 1.811537 0.678431
-47.259201 117.982727 1.434206 0.678431
-47.259201 117.982727 1.055659 0.678431
-47.259201 117.982727 0.675075 0.678431
-47.259205 117.982727 0.291613 0.678431
-46.748039 117.861671 -0.000008 0.195399
-45.063114 117.462654 -0.000007 0.206864
-43.821743 117.168678 -0.000006 0.241835
-47.164207 118.042297 4.865214 0.823423
-47.164207 118.042297 4.470495 0.709484
-47.164207 118.042297 4.081319 0.524407
-47.234207 118.059387 3.707441 0.094118
-47.234207 118.059387 3.324192 0.062745
-47.234211 118.059387 2.943818 0.094118
-47.234207 118.059387 2.565481 0.094118
-47.234211 118.059387 2.188359 0.080018
-47.234211 118.059387 1.811641 0.062745
-47.234207 118.059387 1.434519 0.094118
-47.234207 118.059387 1.056181 0.086275
-47.234207 118.059387 0.675808 0.094118
-47.234207 118.059387 0.292559 0.089677
-46.730091 117.936279 -0.000009 0.217348
-45.047997 117.525513 -0.000007 0.239513
-43.808708 117.222870 -0.000006 0.202652
-47.164204 118.124634 4.870177 0.693736
-47.164207 118.124641 4.474775 0.573938
-47.164207 118.124634 4.084924 0.741024
-47.259201 118.148537 3.714222 0.604746
-47.259201 118.148537 3.329451 0.678431
-47.259201 118.148537 2.947566 0.678431
-47.259201 118.148537 2.567727 0.678431
-47.259201 118.148537 2.189107 0.678431
-47.259201 118.148537 1.810893 0.678431
-47.259201 118.148537 1.432273 0.678431
-47.259201 118.148537 1.052433 0.678431
-47.259201 118.148537 0.670550 0.678431
-47.259201 118.148537 0.285778 0.678431
-46.711628 118.010765 -0.000009 0.238328
-45.032440 117.588257 -0.000007 0.224673
-43.795296 117.276978 -0.000006 0.222435
-47.164207 118.207275 4.875298 0.591638
-47.164207 118.207275 4.479190 0.580179
-47.164207 118.207275 4.088644 0.655146
-47.259201 118.231880 3.717280 0.593408
-47.259201 118.231880 3.331822 0.678431
-47.259201 118.231880 2.949256 0.678431
-47.259201 118.231880 2.568739 0.678431
-47.259201 118.231880 2.189444 0.678431
-47.259201 118.231880 1.810555 0.678431
-47.259201 118.231880 1.431260 0.678431
-47.259201 118.231880 1.050743 0.678431
-47.259201 118.231880 0.668178 0.678431
-47.259201 118.231880 0.282720 0.678431
-46.692646 118.085114 -0.000009 0.232751
-45.016449 117.650894 -0.000007 0.241751
-43.781506 117.330986 -0.000006 0.208253
-47.164207 118.290207 4.880576 0.403464
-47.164204 118.290207 4.483743 0.645274
-47.164207 118.290207 4.092480 0.618280
-47.259205 118.315529 3.720434 0.583215
-47.259205 118.315529 3.334268 0.678431
-47.259201 118.315521 2.950999 0.678431
-47.259201 118.315521 2.569784 0.678431
-47.259201 118.315521 2.189792 0.678431
-47.259201 118.315521 1.810208 0.678431
-47.259201 118.315521 1.430216 0.678431
-47.259201 118.315521 1.049000 0.678431
-47.259205 118.315529 0.665732 0.678431
-47.259205 118.315529 0.279566 0.678431
-46.673141 118.159332 -0.000009 0.247292
-45.000015 117.713425 -0.000007 0.248297
-43.767338 117.384895 -0.000006 0.205141
-47.164207 118.373451 4.886018 0.343297
-47.164204 118.373451 4.488433 0.544930
-47.164207 118.373451 4.096431 0.615152
-47.259205 118.399475 3.723683 0.571878
-47.259205 118.399483 3.336788 0.678431
-47.259205 118.399483 2.952796 0.678431
-47.259205 118.399475 2.570860 0.678431
-47.259201 118.399475 2.190151 0.678431
-47.259201 118.399475 1.809849 0.678431
-47.259205 118.399475 1.429140 0.678431
-47.259205 118.399483 1.047204 0.678431
-47.259205 118.399483 0.663212 0.678431
-47.259205 118.399475 0.276317 0.678431
-46.653122 118.233406 -0.000008 0.240566
-44.983150 117.775833 -0.000007 0.184341
-43.752796 117.438705 -0.000006 0.226492
-47.164204 118.457016 4.891619 0.297230
-47.164204 118.457016 4.493263 0.506554
-47.164207 118.457016 4.100501 0.359106
-47.259201 118.483757 3.727028 0.476661
-47.259205 118.483757 3.339383 0.678431
-47.259201 118.483757 2.954645 0.678431
-47.259205 118.483757 2.571968 0.678431
-47.259205 118.483757 2.190520 0.678431
-47.259205 118.483757 1.809480 0.678431
-47.259205 118.483757 1.428032 0.678431
-47.259201 118.483757 1.045354 0.678431
-47.259205 118.483757 0.660617 0.678431
-47.259205 118.483757 0.272971 0.678431
-46.632584 118.307350 -0.000009 0.224170
-44.965851 117.838120 -0.000007 0.239788
-43.737877 117.492416 -0.000006 0.209797
-47.164207 118.540901 4.897385 0.587777
-47.164204 118.540901 4.498234 0.425452
-47.164207 118.540901 4.104688 0.337362
-47.264904 118.570015 3.731352 0.355581
-47.264904 118.570015 3.342736 0.262989
-47.264908 118.570015 2.957035 0.351110
-47.264904 118.570015 2.573400 0.281163
-47.264904 118.570015 2.190997 0.253803
-47.264904 118.570015 1.809003 0.075196
-47.264904 118.570015 1.426600 0.353094
-47.264908 118.570015 1.042964 0.068482
-47.264904 118.570015 0.657264 0.079286
-47.264908 118.570015 0.268647 0.240223
-46.611534 118.381142 -0.000009 0.231267
-44.948112 117.900291 -0.000007 0.277032
-43.722584 117.546021 -0.000006 0.219562
-47.164204 118.625130 4.903314 0.443626
-47.164204 118.625130 4.503346 0.386892
-47.164204 118.625130 4.108995 0.401099
-47.259209 118.653313 3.734014 0.458305
-47.259209 118.653313 3.344800 0.655756
-47.259209 118.653313 2.958507 0.655756
-47.259205 118.653313 2.574282 0.655756
-47.259209 118.653313 2.191291 0.513481
-47.259209 118.653313 1.808709 0.516243
-47.259209 118.653313 1.425718 0.517250
-47.259209 118.653313 1.041493 0.526345
-47.259209 118.653320 0.655200 0.526345
-47.259209 118.653320 0.265985 0.452018
-46.589966 118.454781 -0.000009 0.250116
-44.929947 117.962334 -0.000007 0.235887
-43.706921 117.599518 -0.000007 0.274148
-47.164207 118.709717 4.909410 0.784146
-47.164204 118.709717 4.508604 0.486229
-47.164204 118.709717 4.113424 0.217594
-47.259209 118.738617 3.737655 0.457542
-47.259209 118.738617 3.347624 0.678431
-47.259209 118.738617 2.960520 0.678431
-47.259209 118.738617 2.575488 0.678431
-47.259209 118.738617 2.191692 0.678431
-47.259209 118.738617 1.808308 0.678431
-47.259209 118.738617 1.424512 0.678431
-47.259209 118.738617 1.039480 0.678431
-47.259209 118.738617 0.652376 0.678431
-47.259209 118.738617 0.262344 0.678431
-46.567886 118.528275 -0.000009 0.223643
-44.911339 118.024246 -0.000007 0.224565
-43.690880 117.652901 -0.000006 0.238867
-47.164204 118.794655 4.915674 0.784543
-47.164204 118.794655 4.514005 0.418814
-47.164204 118.794655 4.117974 0.454017
-47.259209 118.824287 3.741396 0.438239
-47.259209 118.824287 3.350526 0.678431
-47.259209 118.824287 2.962587 0.678431
-47.259209 118.824287 2.576726 0.678431
-47.259209 118.824287 2.192105 0.678431
-47.259209 118.824287 1.807895 0.678431
-47.259209 118.824287 1.423273 0.678431
-47.259209 118.824287 1.037412 0.678431
-47.259209 118.824287 0.649474 0.678431
-47.259209 118.824287 0.258603 0.678431
-46.545292 118.601608 -0.000009 0.228825
-44.892307 118.086029 -0.000007 0.262324
-43.674469 117.706169 -0.000006 0.243498
-47.164204 118.879967 4.922109 0.794049
-47.164204 118.879967 4.519552 0.811810
-47.164204 118.879967 4.122648 0.476387
-47.250587 118.907570 3.743897 0.218647
-47.259209 118.910324 3.353506 0.678431
-47.259209 118.910324 2.964712 0.678431
-47.259209 118.910324 2.578000 0.678431
-47.259209 118.910324 2.192529 0.678431
-47.259209 118.910324 1.807471 0.678431
-47.259209 118.910324 1.422000 0.678431
-47.259209 118.910324 1.035288 0.678431
-47.259212 118.910324 0.646494 0.678431
-47.259212 118.910324 0.254760 0.667704
-46.522186 118.674782 -0.000009 0.237849
-44.872841 118.147675 -0.000007 0.219108
-43.657684 117.759323 -0.000006 0.273609
-47.354202 119.027847 4.978791 0.678431
-47.354202 119.027847 4.568426 0.678431
-47.164204 118.965660 4.127447 0.461723
-47.243500 118.991608 3.746733 0.187518
-47.259209 118.996750 3.356566 0.678431
-47.259209 118.996750 2.966893 0.678431
-47.259209 118.996750 2.579306 0.678431
-47.259209 118.996750 2.192964 0.678431
-47.259209 118.996750 1.807036 0.678431
-47.259209 118.996750 1.420694 0.678431
-47.259212 118.996750 1.033107 0.678431
-47.259212 118.996750 0.643434 0.678431
-47.259212 118.996750 0.250815 0.660044
-46.498573 118.747795 -0.000009 0.229113
-44.852947 118.209190 -0.000007 0.224373
-43.640530 117.812363 -0.000006 0.215864
-47.354206 119.115402 4.985686 0.678431
-47.354202 119.115402 4.574371 0.678431
-47.164204 119.051743 4.132371 0.678553
-47.236233 119.075874 3.749640 0.131579
-47.259209 119.083572 3.359706 0.651164
-47.259209 119.083572 2.969131 0.639887
-47.259212 119.083572 2.580647 0.639887
-47.259209 119.083572 2.193410 0.655512
-47.259212 119.083572 1.806589 0.655512
-47.259212 119.083572 1.419353 0.655512
-47.259209 119.083572 1.030869 0.678431
-47.259212 119.083572 0.640294 0.678431
-47.259212 119.083572 0.246766 0.652384
-46.474449 118.820641 -0.000009 0.236856
-44.832626 118.270561 -0.000007 0.220125
-43.623005 117.865280 -0.000006 0.243043
-47.354202 119.203369 4.992759 0.678431
-47.354202 119.203369 4.580470 0.678431
-47.164207 119.138229 4.137423 0.491142
-47.234211 119.162231 3.753467 0.094118
-47.234211 119.162231 3.359887 0.062745
-47.234207 119.162231 2.969260 0.094118
-47.234207 119.162231 2.580724 0.094118
-47.234207 119.162231 2.193437 0.081865
-47.234207 119.162231 1.806563 0.062745
-47.234207 119.162231 1.419276 0.094118
-47.234207 119.162231 1.030740 0.074510
-47.234211 119.162231 0.640113 0.062745
-47.234211 119.162231 0.246533 0.088762
-46.449814 118.893318 -0.000009 0.277068
-44.811874 118.331787 -0.000008 0.209402
-43.605114 117.918076 -0.000006 0.221968
-47.354206 119.291756 5.000012 0.678431
-47.354202 119.291756 4.586724 0.678431
-47.164207 119.225136 4.142603 0.880964
-47.234215 119.249687 3.757717 0.062745
-47.259205 119.258446 3.366230 0.678431
-47.259205 119.258446 2.973780 0.678431
-47.259205 119.258446 2.583433 0.678431
-47.259205 119.258446 2.194339 0.678431
-47.259205 119.258446 1.805661 0.678431
-47.259205 119.258446 1.416567 0.678431
-47.259201 119.258446 1.026219 0.678431
-47.259205 119.258446 0.633770 0.678431
-47.259205 119.258446 0.238354 0.547402
-46.424675 118.965820 -0.000009 0.239956
-44.790695 118.392868 -0.000007 0.187441
-43.586853 117.970741 -0.000007 0.218844
-47.354202 119.380585 5.007447 0.678431
-47.354206 119.380585 4.593136 0.678431
-47.164207 119.312469 4.147914 0.402396
-47.234215 119.337563 3.762074 0.062745
-47.259209 119.346527 3.369616 0.678431
-47.259209 119.346527 2.976194 0.678431
-47.259209 119.346527 2.584879 0.678431
-47.259209 119.346527 2.194820 0.678431
-47.259209 119.346527 1.805179 0.678431
-47.259209 119.346527 1.415121 0.678431
-47.259205 119.346527 1.023806 0.678431
-47.259205 119.346527 0.630384 0.678431
-47.259209 119.346527 0.233988 0.531563
-46.399029 119.038147 -0.000008 0.218174
-44.769089 118.453796 -0.000007 0.204854
-43.568222 118.023277 -0.000006 0.234558
-47.354206 119.469849 5.015068 0.678431
-47.354206 119.469849 4.599705 0.678431
-47.164207 119.400238 4.153357 0.445579
-47.234207 119.425888 3.766538 0.094118
-47.259209 119.435043 3.373086 0.678431
-47.259209 119.435043 2.978668 0.678431
-47.259209 119.435043 2.586361 0.678431
-47.259209 119.435043 2.195314 0.678431
-47.259209 119.435043 1.804686 0.678431
-47.259209 119.435043 1.413639 0.678431
-47.259209 119.435043 1.021332 0.678431
-47.259209 119.435043 0.626914 0.678431
-47.259205 119.435043 0.229513 0.517159
-46.372883 119.110291 -0.000008 0.210084
-44.747059 118.514580 -0.000007 0.219850
-43.549229 118.075684 -0.000006 0.233194
-47.354206 119.559578 5.022874 0.678431
-47.354206 119.559578 4.606436 0.678431
-47.164207 119.488457 4.158931 0.424842
-47.234211 119.514656 3.771111 0.155428
-47.259209 119.524017 3.376641 0.678431
-47.259209 119.524017 2.981202 0.678431
-47.259209 119.524017 2.587879 0.678431
-47.259212 119.524017 2.195820 0.678431
-47.259212 119.524017 1.804180 0.678431
-47.259209 119.524017 1.412121 0.678431
-47.259209 119.524017 1.018798 0.678431
-47.259209 119.524017 0.623359 0.678431
-47.259209 119.524017 0.224929 0.393317
-46.346230 119.182251 -0.000008 0.228622
-44.724609 118.575203 -0.000008 0.212693
-43.529869 118.127953 -0.000006 0.206027
-47.354202 119.649780 5.030869 0.376043
-47.354202 119.649780 4.613330 0.376043
-47.164207 119.577133 4.164641 0.367422
-47.234211 119.603897 3.775796 0.164309
-47.259209 119.613457 3.380282 0.678431
-47.259209 119.613457 2.983797 0.678431
-47.259212 119.613457 2.589434 0.678431
-47.259209 119.613457 2.196338 0.678431
-47.259209 119.613457 1.803662 0.678431
-47.259212 119.613457 1.410566 0.678431
-47.259209 119.613457 1.016203 0.678431
-47.259212 119.613457 0.619717 0.678431
-47.259212 119.613457 0.220234 0.377478
-46.319077 119.254021 -0.000008 0.238172
-44.701729 118.635666 -0.000007 0.210491
-43.510143 118.180092 -0.000006 0.201682
-47.242817 119.696976 5.009103 0.578927
-47.242817 119.696976 4.594562 0.388861
-47.164211 119.666290 4.170488 0.797864
-47.234207 119.693619 3.780591 0.159640
-47.234207 119.693619 3.380922 0.062745
-47.234207 119.693619 2.984253 0.094118
-47.234207 119.693619 2.589707 0.094118
-47.234207 119.693619 2.196429 0.082719
-47.234207 119.693619 1.803571 0.062745
-47.234207 119.693619 1.410293 0.094118
-47.234203 119.693611 1.015747 0.094118
-47.234203 119.693611 0.619078 0.094118
-47.234207 119.693611 0.219409 0.094118
-46.291424 119.325600 -0.000009 0.212920
-44.678432 118.695969 -0.000007 0.245904
-43.490055 118.232086 -0.000006 0.253958
-47.164211 119.755936 4.996204 0.621759
-47.164215 119.755936 4.583441 0.567071
-47.164215 119.755936 4.176473 0.746502
-47.234207 119.783821 3.785500 0.212146
-47.259205 119.793785 3.387825 0.678431
-47.259205 119.793785 2.989173 0.671443
-47.259205 119.793785 2.592655 0.671443
-47.259205 119.793785 2.197411 0.671443
-47.259205 119.793785 1.802589 0.671443
-47.259205 119.793785 1.407345 0.671443
