# This PCD file was generated using the MATLABÂ® pcwrite function
# from Computer Vision ToolboxÂ®.
# .PCD v.7 - Point Cloud Data file format
VERSION .7
FIELDS x y z intensity
SIZE 4 4 4 4
TYPE F F F F
COUNT 1 1 1 1
WIDTH 1345
HEIGHT 1
VIEWPOINT 0 0 0 1 0 0 0
POINTS 1345
DATA ascii
nan nan nan 0.000000
-15.916589 -20.274979 3.404431 0.435920
-15.880927 -18.924162 2.775069 0.419608
nan nan nan 0.000000
nan nan nan 0.000000
-16.538973 -43.850365 -0.000042 0.234774
-16.108284 -27.536280 -0.000032 0.226492
-15.923375 -20.532045 -0.000023 0.246346
-15.820391 -16.631081 -0.000017 0.196704
-15.754644 -14.140659 -0.000014 0.191761
-15.708948 -12.409729 -0.000011 0.256005
-15.675281 -11.134459 -0.000009 0.273466
nan nan nan 0.000000
nan nan nan 0.000000
nan nan nan 0.000000
nan nan nan 0.000000
nan nan nan 0.000000
nan nan nan 0.000000
nan nan nan 0.000000
nan nan nan 0.000000
nan nan nan 0.000000
-16.823065 -43.841881 -0.000042 0.221358
-16.278498 -27.531197 -0.000032 0.212645
-16.044693 -20.528416 -0.000022 0.239357
-15.914477 -16.628265 -0.000017 0.258805
-15.831347 -14.138367 -0.000014 0.201694
-15.773567 -12.407797 -0.000011 0.224050
-15.730998 -11.132792 -0.000009 0.262228
nan nan nan 0.000000
nan nan nan 0.000000
nan nan nan 0.000000
nan nan nan 0.000000
nan nan nan 0.000000
-16.151188 -20.157524 3.395447 0.440391
-16.180744 -20.889500 2.872060 0.460044
nan nan nan 0.000000
nan nan nan 0.000000
-17.107094 -43.831394 -0.000042 0.228754
-16.448671 -27.524912 -0.000032 0.235228
-16.165983 -20.523943 -0.000022 0.239549
-16.008543 -16.624798 -0.000017 0.209354
-15.908031 -14.135536 -0.000013 0.235863
-15.838172 -12.405415 -0.000011 0.239537
-15.786702 -11.130738 -0.000009 0.207116
nan nan nan 0.000000
nan nan nan 0.000000
nan nan nan 0.000000
nan nan nan 0.000000
nan nan nan 0.000000
-16.211874 -18.927748 3.294926 0.429038
-16.222939 -19.161314 2.787332 0.432441
nan nan nan 0.000000
nan nan nan 0.000000
-17.391045 -43.818939 -0.000042 0.234678
-16.618793 -27.517448 -0.000032 0.224146
-16.287237 -20.518623 -0.000023 0.218330
-16.102581 -16.620672 -0.000017 0.202508
-15.984694 -14.132175 -0.000014 0.207726
-15.902758 -12.402578 -0.000010 0.232990
-15.842391 -11.128296 -0.000009 0.278265
nan nan nan 0.000000
nan nan nan 0.000000
nan nan nan 0.000000
nan nan nan 0.000000
nan nan nan 0.000000
-16.388542 -20.146235 3.395444 0.432288
-16.339769 -19.249226 2.791937 0.435050
nan nan nan 0.000000
nan nan nan 0.000000
-17.674900 -43.804493 -0.000042 0.232619
-16.788862 -27.508793 -0.000032 0.217193
-16.408455 -20.512447 -0.000022 0.218210
-16.196589 -16.615889 -0.000017 0.230645
-16.061331 -14.128275 -0.000013 0.203765
-15.967321 -12.399292 -0.000010 0.197853
-15.898062 -11.125463 -0.000009 0.207463
nan nan nan 0.000000
nan nan nan 0.000000
nan nan nan 0.000000
nan nan nan 0.000000
nan nan nan 0.000000
-16.498051 -19.991062 3.383260 0.431373
-16.453114 -19.258886 2.792732 0.438804
nan nan nan 0.000000
nan nan nan 0.000000
-17.958639 -43.788078 -0.000042 0.229615
-16.958862 -27.498951 -0.000031 0.225343
-16.529621 -20.505434 -0.000022 0.238148
-16.290560 -16.610447 -0.000016 0.193975
-16.137939 -14.123842 -0.000013 0.249171
-16.031862 -12.395559 -0.000011 0.237418
-15.953709 -11.122240 -0.000008 0.215900
nan nan nan 0.000000
nan nan nan 0.000000
nan nan nan 0.000000
nan nan nan 0.000000
nan nan nan 0.000000
nan nan nan 0.000000
-16.539030 -18.864115 2.773653 0.450980
nan nan nan 0.000000
nan nan nan 0.000000
-18.242268 -43.769672 -0.000042 0.222566
-17.128794 -27.487928 -0.000031 0.229472
-16.650740 -20.497578 -0.000022 0.239118
-16.384491 -16.604353 -0.000016 0.218617
-16.214516 -14.118870 -0.000013 0.238974
-16.096375 -12.391373 -0.000010 0.180176
-16.009335 -11.118631 -0.000009 0.237095
nan nan nan 0.000000
nan nan nan 0.000000
nan nan nan 0.000000
nan nan nan 0.000000
nan nan nan 0.000000
-16.633329 -18.652517 3.274516 0.410101
-16.652901 -18.912050 2.776402 0.432425
nan nan nan 0.000000
nan nan nan 0.000000
-18.525757 -43.749294 -0.000043 0.232045
-17.298647 -27.475718 -0.000031 0.223009
-16.771801 -20.488878 -0.000022 0.226492
-16.478378 -16.597607 -0.000017 0.226743
-16.291054 -14.113371 -0.000013 0.203549
-16.160856 -12.386736 -0.000010 0.198906
-16.064934 -11.114634 -0.000008 0.192335
nan nan nan 0.000000
nan nan nan 0.000000
nan nan nan 0.000000
nan nan nan 0.000000
nan nan nan 0.000000
-16.728571 -18.487026 3.261602 0.433478
-16.762173 -18.894648 2.775972 0.445609
-16.765627 -18.936544 2.259161 0.431373
nan nan nan 0.000000
-18.809103 -43.726948 -0.000042 0.224840
-17.468407 -27.462313 -0.000031 0.221190
-16.892797 -20.479332 -0.000022 0.208731
-16.572216 -16.590197 -0.000016 0.239944
-16.367554 -14.107332 -0.000013 0.255945
-16.225306 -12.381651 -0.000010 0.224182
-16.120502 -11.110249 -0.000008 0.200964
nan nan nan 0.000000
nan nan nan 0.000000
nan nan nan 0.000000
nan nan nan 0.000000
-16.931509 -19.549967 3.893881 0.431357
-16.804247 -18.127470 3.232760 0.431006
-16.873514 -18.901722 2.776787 0.450568
-16.880421 -18.978924 2.260012 0.443519
nan nan nan 0.000000
-19.092272 -43.702610 -0.000043 0.232643
-17.638065 -27.447731 -0.000031 0.228802
-17.013721 -20.468931 -0.000021 0.233158
-16.665997 -16.582134 -0.000016 0.249542
-16.444006 -14.100760 -0.000013 0.263209
-16.289715 -12.376112 -0.000010 0.220149
-16.176039 -11.105474 -0.000008 0.232392
nan nan nan 0.000000
nan nan nan 0.000000
nan nan nan 0.000000
nan nan nan 0.000000
-16.895058 -17.975790 3.713175 0.431449
-16.924934 -18.285368 3.246568 0.427878
-16.981367 -18.870134 2.775732 0.446220
nan nan nan 0.000000
nan nan nan 0.000000
-19.375278 -43.676304 -0.000043 0.233529
-17.807625 -27.431961 -0.000031 0.220807
-17.134573 -20.457695 -0.000022 0.235958
-16.759724 -16.573423 -0.000016 0.221429
-16.520414 -14.093658 -0.000013 0.197924
-16.354086 -12.370131 -0.000010 0.231973
-16.231543 -11.100313 -0.000008 0.215601
nan nan nan 0.000000
nan nan nan 0.000000
nan nan nan 0.000000
nan nan nan 0.000000
-16.995747 -17.938793 3.710093 0.438041
-17.023643 -18.208191 3.241076 0.431922
-17.098377 -18.929853 2.779224 0.452705
-17.149775 -19.426186 2.267721 0.428824
nan nan nan 0.000000
-19.658085 -43.648003 -0.000042 0.227150
-17.977064 -27.415012 -0.000030 0.218054
-17.255342 -20.445610 -0.000021 0.209390
-16.853384 -16.564051 -0.000016 0.241320
-16.596769 -14.086018 -0.000013 0.226288
-16.418411 -12.363693 -0.000010 0.196764
-16.287008 -11.094766 -0.000008 0.189511
nan nan nan 0.000000
nan nan nan 0.000000
nan nan nan 0.000000
nan nan nan 0.000000
-17.120396 -18.121746 3.732547 0.450828
-17.192408 -18.772745 3.288578 0.445502
-17.249378 -19.287766 2.797497 0.468650
-17.256571 -19.352804 2.266713 0.431800
nan nan nan 0.000000
-19.940693 -43.617741 -0.000042 0.231746
-18.146385 -27.396879 -0.000030 0.233002
-17.376026 -20.432688 -0.000021 0.232871
-16.946980 -16.554028 -0.000016 0.251505
-16.673071 -14.077843 -0.000012 0.254473
-16.482695 -12.356812 -0.000010 0.194262
-16.342434 -11.088831 -0.000008 0.291717
nan nan nan 0.000000
nan nan nan 0.000000
nan nan nan 0.000000
nan nan nan 0.000000
-17.220495 -18.072754 3.728253 0.476265
-17.428457 -19.839773 3.377700 0.444190
-17.363611 -19.288790 2.798183 0.446357
-17.330624 -19.008495 2.261252 0.443870
nan nan nan 0.000000
-20.223082 -43.585510 -0.000043 0.223284
-18.315577 -27.377569 -0.000031 0.220819
-17.496616 -20.418924 -0.000021 0.222818
-17.040501 -16.543358 -0.000016 0.247388
-16.749311 -14.069141 -0.000013 0.219203
-16.546925 -12.349478 -0.000010 0.250870
-16.397816 -11.082508 -0.000008 0.212166
nan nan nan 0.000000
nan nan nan 0.000000
nan nan nan 0.000000
nan nan nan 0.000000
-17.450954 -19.072704 3.845644 0.448951
-17.367638 -18.404963 3.260307 0.436149
-17.351336 -18.274313 2.748635 0.433417
-17.459782 -19.143457 2.263699 0.445060
-17.462477 -19.165056 1.735944 0.455070
-20.505238 -43.551319 -0.000043 0.227413
-18.484623 -27.357061 -0.000030 0.220005
-17.617104 -20.404316 -0.000021 0.220077
-17.133944 -16.532024 -0.000016 0.226611
-16.825489 -14.059904 -0.000012 0.218258
-16.611103 -12.341696 -0.000010 0.215781
-16.453152 -11.075799 -0.000008 0.214560
nan nan nan 0.000000
nan nan nan 0.000000
nan nan nan 0.000000
nan nan nan 0.000000
-17.520252 -18.741499 3.808866 0.432166
-17.410027 -17.905638 3.220140 0.443488
-17.672745 -19.897886 2.829757 0.420783
-17.567801 -19.102060 2.263253 0.420493
nan nan nan 0.000000
-20.787151 -43.515129 -0.000043 0.223117
-18.653526 -27.335382 -0.000029 0.228000
-17.737492 -20.388865 -0.000021 0.217743
-17.227310 -16.520041 -0.000016 0.237371
-16.901604 -14.050140 -0.000012 0.204650
-16.675226 -12.333466 -0.000010 0.255789
-16.508442 -11.068703 -0.000008 0.208767
nan nan nan 0.000000
nan nan nan 0.000000
nan nan nan 0.000000
nan nan nan 0.000000
-17.672173 -19.037182 3.844919 0.433356
-17.532537 -18.032471 3.231794 0.431373
-17.608377 -18.578167 2.765085 0.428534
-17.666023 -18.992941 2.261699 0.432105
-17.698734 -19.228302 1.734413 0.450126
-17.675478 -19.060976 1.210968 0.449470
-17.680164 -19.094700 0.680271 0.441398
-17.673248 -19.044928 0.154181 0.460288
-17.320585 -16.507408 -0.000016 0.216092
-16.977644 -14.039841 -0.000012 0.221788
-16.739288 -12.324791 -0.000010 0.261522
-16.563679 -11.061223 -0.000008 0.264562
nan nan nan 0.000000
nan nan nan 0.000000
nan nan nan 0.000000
nan nan nan 0.000000
-17.655697 -18.149969 3.743607 0.450980
-17.627045 -17.953856 3.226506 0.473732
-17.699196 -18.447697 2.759370 0.437034
-17.766607 -18.909088 2.260573 0.448661
nan nan nan 0.000000
-17.787630 -19.052975 1.210579 0.461662
-17.784935 -19.034540 0.683942 0.451911
-17.784208 -19.029572 0.154128 0.447135
-17.413774 -16.494123 -0.000015 0.209102
-17.053614 -14.029011 -0.000012 0.254353
-16.803291 -12.315668 -0.000010 0.194669
-16.618864 -11.053356 -0.000008 0.232871
nan nan nan 0.000000
nan nan nan 0.000000
nan nan nan 0.000000
nan nan nan 0.000000
-17.662388 -17.495089 3.669212 0.433173
-17.756985 -18.112404 3.240940 0.432563
-17.836248 -18.629656 2.769207 0.427649
-17.877792 -18.900749 2.260707 0.430106
nan nan nan 0.000000
-21.631268 -43.394825 -0.000043 0.228000
-19.159269 -27.263298 -0.000029 0.240099
-18.097958 -20.337486 -0.000021 0.245413
-17.506865 -16.480192 -0.000015 0.208289
-17.129505 -14.017653 -0.000012 0.204555
-16.867226 -12.306101 -0.000010 0.240063
-16.673992 -11.045107 -0.000008 0.240291
nan nan nan 0.000000
nan nan nan 0.000000
nan nan nan 0.000000
nan nan nan 0.000000
-17.855145 -18.057234 3.736537 0.426642
-17.901829 -18.348291 3.261888 0.450141
-17.962158 -18.724428 2.774765 0.426764
-17.978519 -18.826443 2.259761 0.437949
-18.052511 -19.287758 1.732594 0.460273
-21.912064 -43.350792 -0.000043 0.231458
-19.327505 -27.236916 -0.000029 0.217432
-18.217865 -20.318678 -0.000021 0.232930
-17.599857 -16.465611 -0.000015 0.226887
-17.205315 -14.005762 -0.000012 0.233337
-16.931095 -12.296083 -0.000010 0.248620
-16.729061 -11.036470 -0.000008 0.255514
nan nan nan 0.000000
nan nan nan 0.000000
nan nan nan 0.000000
nan nan nan 0.000000
-18.092569 -18.836502 3.829424 0.425864
-17.898483 -17.678209 3.207623 0.438254
-18.143440 -19.140095 2.796357 0.455344
-18.240128 -19.717115 2.274837 0.450019
nan nan nan 0.000000
-22.192532 -43.304802 -0.000044 0.233421
-19.495543 -27.209352 -0.000029 0.224673
-18.337635 -20.299032 -0.000020 0.218007
-17.692745 -16.450378 -0.000015 0.227222
-17.281040 -13.993349 -0.000012 0.234522
-16.994890 -12.285624 -0.000010 0.256160
-16.784067 -11.027451 -0.000008 0.261701
nan nan nan 0.000000
nan nan nan 0.000000
nan nan nan 0.000000
nan nan nan 0.000000
-18.071667 -18.071951 3.742324 0.457145
-18.004042 -17.684963 3.209630 0.427787
-18.167740 -18.621733 2.771458 0.436652
nan nan nan 0.000000
-18.281284 -19.271492 1.732237 0.456535
-22.472681 -43.256851 -0.000044 0.225582
-19.663391 -27.180624 -0.000029 0.226205
-18.457268 -20.278557 -0.000020 0.215206
-17.785526 -16.434496 -0.000015 0.200139
-17.356676 -13.980402 -0.000012 0.200761
-17.058611 -12.274715 -0.000010 0.261330
-16.839010 -11.018045 -0.000008 0.262982
nan nan nan 0.000000
nan nan nan 0.000000
nan nan nan 0.000000
nan nan nan 0.000000
-18.300955 -18.741463 3.822780 0.431373
-18.150373 -17.913874 3.230214 0.442359
-18.294167 -18.704159 2.776535 0.448814
-18.395554 -19.261372 2.267928 0.436515
nan nan nan 0.000000
-22.752489 -43.206966 -0.000044 0.225570
-19.831032 -27.150724 -0.000029 0.221633
-18.576756 -20.257250 -0.000020 0.240458
-17.878191 -16.417971 -0.000015 0.226935
-17.432220 -13.966928 -0.000012 0.215433
-17.122255 -12.263365 -0.000009 0.215649
-16.893887 -11.008260 -0.000008 0.241643
nan nan nan 0.000000
nan nan nan 0.000000
nan nan nan 0.000000
nan nan nan 0.000000
-18.211905 -17.675625 3.700354 0.447517
-18.303968 -18.162289 3.252539 0.435584
-18.387749 -18.605165 2.772592 0.451759
-18.380079 -18.564627 2.256672 0.443931
-18.551558 -19.471081 1.728232 0.453056
-23.031939 -43.155094 -0.000044 0.233960
-19.998463 -27.119656 -0.000028 0.234582
-18.696089 -20.235100 -0.000020 0.227712
-17.970741 -16.400793 -0.000015 0.191582
-17.507669 -13.952925 -0.000011 0.192659
-17.185820 -12.251570 -0.000009 0.246705
-16.948694 -10.998090 -0.000008 0.215290
-2.755804 61.551201 18.517168 0.179385
-2.785267 61.401207 16.208712 0.575280
-7.122995 39.316559 9.875201 0.404898
-7.053048 39.672695 8.473932 0.402914
-7.289284 38.469959 6.879797 0.401205
-6.868071 40.614471 5.657276 0.399939
-2.755801 61.551201 5.239435 0.094118
-2.766605 61.496216 3.078125 0.678431
-2.766605 61.496216 0.921876 0.678431
-7.618363 36.794510 0.000020 0.231111
-10.763552 20.781460 0.000009 0.220580
-12.113909 13.906406 0.000005 0.242421
-12.865988 10.077354 0.000002 0.237754
-13.346127 7.632827 -0.000000 0.265531
-13.679844 5.933780 -0.000001 0.240147
-13.925707 4.682018 -0.000006 0.277930
-2.316560 61.401199 18.501909 0.543145
-2.316555 61.401207 16.228569 0.383291
-2.316553 61.401215 13.987150 0.472908
-6.802651 39.375423 8.437979 0.404425
-6.890647 38.943378 6.942197 0.398383
-6.545808 40.636467 5.664227 0.395682
-2.316555 61.401222 5.236444 0.762493
-2.297201 61.496216 3.079631 0.678431
-2.297201 61.496216 0.920369 0.678431
-7.339674 36.738754 0.000020 0.228239
-10.596575 20.748055 0.000009 0.227844
-11.994895 13.882597 0.000004 0.219108
-12.773687 10.058887 0.000002 0.216235
-13.270882 7.617772 0.000000 0.224768
-13.616451 5.921099 -0.000001 0.202089
-13.871049 4.671082 -0.000005 0.277702
-1.806423 61.591232 18.574459 0.678431
-1.846507 61.401230 16.249184 0.571267
-1.806424 61.591232 14.039847 0.678431
-6.483542 39.420185 8.454088 0.399985
-6.321590 40.187889 7.095676 0.397772
-5.757720 42.860828 5.855937 0.402350
-6.239017 40.579323 4.195704 0.399390
-1.826468 61.496223 3.081193 0.678431
-1.826468 61.496223 0.918805 0.678431
-7.061381 36.681049 0.000021 0.234546
-10.429836 20.713486 0.000010 0.228431
-11.876053 13.857954 0.000005 0.240817
-12.681520 10.039778 0.000002 0.251576
-13.195744 7.602192 0.000000 0.239932
-13.553149 5.907976 -0.000001 0.211532
-13.816466 4.659767 -0.000005 0.204770
-1.375084 61.401230 18.550594 0.643030
-1.375082 61.401222 16.270546 0.503639
-1.375083 61.401215 14.022509 0.664256
-6.176847 39.400894 8.460836 0.399985
-5.961500 40.387566 7.126828 0.414328
-6.109780 39.708195 5.597130 0.400244
-1.375083 61.401215 5.245991 0.530388
-1.354347 61.496216 3.082815 0.678431
-1.354347 61.496216 0.917185 0.678431
-6.783497 36.621414 0.000021 0.223739
-10.263346 20.677748 0.000010 0.225953
-11.757384 13.832487 0.000005 0.201563
-12.589487 10.020027 0.000002 0.213662
-13.120716 7.586092 0.000000 0.204124
-13.489941 5.894411 -0.000001 0.214715
-13.761966 4.648071 -0.000005 0.214153
-0.859354 61.591217 18.625040 0.678431
-0.902213 61.401207 16.292667 0.491814
-0.859354 61.591202 14.076590 0.678431
-0.902216 61.401199 11.816296 0.523552
-5.728772 40.005394 7.089706 0.404807
-5.834239 39.537865 5.588391 0.389807
-0.859354 61.591209 5.260592 0.678431
-0.886421 61.471214 3.084076 0.094118
-0.886421 61.471214 0.915925 0.094118
-6.506039 36.559814 0.000022 0.228143
-10.097105 20.640856 0.000010 0.230932
-11.638895 13.806196 0.000005 0.224864
-12.497595 9.999634 0.000002 0.223943
-13.045803 7.569464 0.000001 0.220616
-13.426828 5.880404 -0.000001 0.269313
-13.707547 4.635995 -0.000005 0.193532
-0.427855 61.401230 18.602808 0.632380
-0.427859 61.401207 16.315563 0.540597
-0.427855 61.401215 14.060438 0.687922
-0.427855 61.401215 11.832023 0.583139
-5.527235 39.509102 7.039236 0.416068
-5.297535 40.495232 5.674740 0.401129
-5.426541 39.941406 4.173755 0.396612
-0.411548 61.471222 3.085812 0.094118
-0.411549 61.471222 0.914189 0.084291
-6.229014 36.496311 0.000022 0.222650
-9.931128 20.602800 0.000010 0.233182
-11.520594 13.779076 0.000005 0.238579
-12.405848 9.978600 0.000003 0.199588
-12.971008 7.552318 0.000001 0.198295
-13.363815 5.865959 -0.000001 0.220257
-13.653215 4.623539 -0.000006 0.206541
0.093711 61.591217 18.679201 0.678431
0.048054 61.401222 16.339233 0.614939
0.093710 61.591209 14.115932 0.678431
0.048055 61.401215 11.848277 0.487266
-5.040748 40.224766 7.132243 0.401343
0.048054 61.401222 7.443807 0.456703
-5.144195 39.794285 4.169915 0.406516
0.070885 61.496231 3.088026 0.678431
0.070883 61.496223 0.911973 0.655863
-5.952439 36.430859 0.000022 0.231028
-9.765418 20.563591 0.000010 0.225893
-11.402486 13.751125 0.000005 0.246514
-12.314249 9.956924 0.000003 0.202269
-12.896334 7.534647 0.000001 0.190600
-13.300904 5.851073 -0.000000 0.199265
-13.598974 4.610688 -0.000001 0.186088
0.525563 61.401230 18.658609 0.596201
0.525554 61.401215 16.363678 0.513664
0.525562 61.401237 14.100977 0.539620
0.525560 61.401215 11.865067 0.517662
0.525559 61.401230 9.650771 0.505531
-4.736835 40.156326 5.658463 0.408484
0.525558 61.401215 5.267175 0.484016
0.549090 61.496223 3.089882 0.678431
0.549090 61.496223 0.910118 0.678431
-5.676330 36.363483 0.000023 0.229556
-9.599989 20.523220 0.000011 0.229101
-11.284574 13.722355 0.000005 0.207283
-12.222803 9.934612 0.000003 0.260313
-12.821783 7.516460 0.000000 0.218497
-13.238099 5.835747 -0.000001 0.246610
-13.544821 4.597475 -0.000001 0.203753
1.053187 61.591209 18.736984 0.678431
1.004714 61.401192 16.388908 0.612116
1.053189 61.591202 14.157908 0.678431
1.004718 61.401215 11.882397 0.578775
1.053191 61.591209 9.686769 0.678431
1.004720 61.401222 7.462667 0.758663
1.053199 61.591225 5.282548 0.678431
1.028958 61.496216 3.091797 0.678431
1.028958 61.496216 0.908204 0.678431
-5.400694 36.294182 0.000023 0.230669
-9.434845 20.481695 0.000011 0.235635
-11.166866 13.692760 0.000006 0.243869
-12.131516 9.911663 0.000003 0.224565
-12.747363 7.497750 0.000001 0.205704
-13.175402 5.819984 -0.000000 0.251780
-13.490762 4.583882 -0.000001 0.213650
1.485585 61.401199 18.718052 0.584482
1.485583 61.401199 16.414932 0.622583
1.485581 61.401192 14.144152 0.461357
1.485587 61.401199 11.900270 0.531960
1.485581 61.401192 9.678071 0.590723
1.485587 61.401199 7.472546 0.523873
1.485587 61.401199 5.278832 0.552254
1.507007 61.482788 3.093544 0.435477
1.507007 61.482788 0.906455 0.298405
-5.125552 36.222950 0.000023 0.230800
-9.269991 20.439028 0.000011 0.210335
-11.049368 13.662344 0.000006 0.250104
-12.040391 9.888073 0.000003 0.212848
-12.673078 7.478516 0.000001 0.247890
-13.112817 5.803783 0.000000 0.250894
-13.436798 4.569915 -0.000002 0.204974
2.019540 61.591225 18.798464 0.678431
1.968230 61.401230 16.441765 0.470497
2.019532 61.591209 14.202566 0.653925
1.968230 61.401237 11.918699 0.653284
2.019532 61.591202 9.715000 0.607965
1.968230 61.401222 7.482733 0.809842
2.019530 61.591202 5.294603 0.678431
1.987128 61.471222 3.095382 0.094118
1.987128 61.471214 0.904616 0.074784
-4.850920 36.149792 0.000024 0.222435
-9.105440 20.395206 0.000011 0.224996
-10.932085 13.631111 0.000006 0.249745
-11.949434 9.863850 0.000003 0.212908
-12.598925 7.458771 0.000001 0.276314
-13.050346 5.787146 0.000000 0.254221
-13.382934 4.555570 -0.000001 0.215673
2.449868 61.391052 18.778568 0.542870
2.452687 61.401215 16.469397 0.662623
2.449862 61.391045 14.188114 0.681727
2.452682 61.401199 11.937670 0.518822
2.449862 61.391045 9.705866 0.614878
2.452685 61.401207 7.493222 0.774029
2.449868 61.391052 5.290702 0.561563
2.479056 61.496216 3.097903 0.678431
2.479056 61.496216 0.902096 0.678431
-4.576795 36.074734 0.000024 0.232631
-8.941204 20.350231 0.000012 0.226420
-10.815025 13.599052 0.000006 0.211676
-11.858647 9.838991 0.000003 0.253767
-12.524914 7.438504 0.000001 0.238220
-12.987993 5.770074 -0.000000 0.196093
-13.329170 4.540850 -0.000001 0.225726
2.939027 61.401215 18.814203 0.504143
2.939017 61.401192 16.497833 0.605219
2.939015 61.401192 14.213996 0.729915
2.939019 61.401207 11.957208 0.491295
2.939021 61.401207 9.722229 0.709743
2.939025 61.401207 7.504021 0.469108
2.939015 61.401199 5.297690 0.665232
-6.442090 28.495226 2.538519 0.496345
-6.442090 28.495226 1.461481 0.808240
-6.442091 28.495232 0.383286 0.727001
-8.777283 20.304117 0.000012 0.214823
-10.698189 13.566187 0.000006 0.238005
-11.768037 9.813501 0.000003 0.197984
-12.451044 7.417725 0.000001 0.245174
-12.925761 5.752567 -0.000000 0.247759
-13.275512 4.525754 -0.000001 0.263784
3.471185 61.551163 18.887281 0.094118
3.427306 61.401230 16.527111 0.542123
3.471196 61.551201 14.267094 0.094118
3.427306 61.401237 11.977311 0.562142
3.471192 61.551201 9.755798 0.140887
3.427304 61.401222 7.515134 0.731823
3.471196 61.551201 5.312026 0.131121
-6.259116 28.302488 2.536321 0.507637
-6.259116 28.302488 1.463680 0.677699
-6.259114 28.302492 0.389888 0.544244
-8.613690 20.256853 0.000012 0.220292
-10.581587 13.532505 0.000006 0.219048
-11.677606 9.787380 0.000003 0.223907
-12.377323 7.396428 0.000001 0.237155
-12.863653 5.734627 -0.000000 0.239202
-13.221960 4.510284 -0.000001 0.228107
3.917584 61.401230 18.883051 0.340169
3.917590 61.401245 16.557209 0.629526
3.917588 61.401237 14.264015 0.406806
3.917590 61.401245 11.997987 0.458869
3.917586 61.401237 9.753853 0.859815
3.917586 61.401237 7.526560 0.651835
3.917588 61.401237 5.311194 0.452796
-6.465516 26.819384 2.512091 0.636667
-6.465507 26.819416 1.487907 0.640208
-6.465502 26.819429 0.462624 0.622080
-8.450428 20.208456 0.000012 0.233936
-10.465221 13.498007 0.000007 0.232332
-11.587361 9.760622 0.000004 0.230034
-12.303752 7.374617 0.000002 0.208660
-12.801672 5.716251 0.000000 0.220819
-13.168517 4.494440 -0.000000 0.242948
nan nan nan 0.000000
nan nan nan 0.000000
nan nan nan 0.000000
nan nan nan 0.000000
nan nan nan 0.000000
13.706103 91.595993 10.128815 0.679530
-6.432329 26.184698 3.508016 0.641337
-6.377454 26.362938 2.505365 0.522789
-6.377453 26.362936 1.494635 0.485298
-6.377458 26.362930 0.482822 0.635462
-8.287510 20.158918 0.000012 0.223643
-10.349100 13.462700 0.000007 0.235623
-11.497303 9.733240 0.000004 0.219993
-12.230335 7.352295 0.000001 0.250523
-12.739820 5.697444 0.000000 0.255526
-13.115186 4.478224 -0.000001 0.193030
nan nan nan 0.000000
nan nan nan 0.000000
nan nan nan 0.000000
nan nan nan 0.000000
nan nan nan 0.000000
14.431884 91.596100 10.146530 0.678431
-6.377450 25.646446 3.483573 0.737270
-6.377453 25.646441 2.494171 0.517739
-8.008543 20.477131 1.594530 0.556497
-8.008545 20.477127 0.782720 0.538491
-8.124938 20.108244 0.000013 0.232954
-10.233230 13.426577 0.000007 0.227832
-11.407439 9.705229 0.000004 0.244491
-12.157075 7.329459 0.000002 0.197266
-12.678101 5.678205 0.000000 0.230022
-13.061970 4.461637 -0.000001 0.237526
nan nan nan 0.000000
nan nan nan 0.000000
nan nan nan 0.000000
nan nan nan 0.000000
nan nan nan 0.000000
-6.379936 24.953276 4.421958 0.654215
-6.377448 24.960974 3.451495 0.573907
-6.377451 24.960968 2.483485 0.531991
-8.008538 19.914711 1.603297 0.715831
-8.019747 19.880032 0.810831 0.345312
-8.008541 19.914698 0.012226 0.819165
-10.117611 13.389658 0.000007 0.241990
-11.317775 9.676590 0.000004 0.196417
-12.083978 7.306114 0.000002 0.206410
-12.616518 5.658539 0.000000 0.223967
-13.008870 4.444679 -0.000001 0.253419
nan nan nan 0.000000
nan nan nan 0.000000
nan nan nan 0.000000
nan nan nan 0.000000
nan nan nan 0.000000
-6.459935 24.055241 4.349933 0.628183
-6.377453 24.304464 3.420840 0.667369
-6.377456 24.304459 2.473275 0.540337
-8.008536 19.376053 1.611675 0.541878
-8.008537 19.376055 0.834192 0.630121
-8.008539 19.376049 0.054204 0.577829
-10.002257 13.351917 0.000007 0.218856
-11.228312 9.647326 0.000004 0.214895
-12.011044 7.282256 0.000002 0.227365
-12.555073 5.638440 0.000000 0.207906
-12.955891 4.427349 -0.000001 0.246789
nan nan nan 0.000000
nan nan nan 0.000000
nan nan nan 0.000000
nan nan nan 0.000000
nan nan nan 0.000000
-6.246885 24.060572 4.355894 0.623896
-6.377454 23.675091 3.391521 0.557900
-6.377456 23.675087 2.463509 0.536355
-8.008532 18.859665 1.619688 0.495003
-8.008534 18.859659 0.858248 0.823270
-8.008534 18.859661 0.094355 0.617823
-9.887167 13.313379 0.000007 0.233182
-11.139053 9.617439 0.000004 0.228000
-11.938278 7.257890 0.000002 0.292818
-12.493771 5.617913 0.000001 0.185466
-12.903033 4.409650 -0.000000 0.238795
nan nan nan 0.000000
nan nan nan 0.000000
nan nan nan 0.000000
nan nan nan 0.000000
nan nan nan 0.000000
-5.967811 24.253307 4.378261 0.429770
-6.465490 22.817085 3.350243 0.658991
-7.444001 19.993267 2.400855 0.330541
-7.880725 18.732954 1.620971 0.536248
-7.880725 18.732954 0.862102 0.684596
-7.880725 18.732954 0.100787 0.532753
-9.772348 13.274044 0.000007 0.229998
-11.050008 9.586929 0.000004 0.231339
-11.865685 7.233021 0.000002 0.234762
-12.432612 5.596960 0.000000 0.244108
-12.850300 4.391584 -0.000001 0.293165
nan nan nan 0.000000
nan nan nan 0.000000
nan nan nan 0.000000
nan nan nan 0.000000
nan nan nan 0.000000
-5.749852 24.262135 4.384855 0.354055
-6.293884 22.726877 3.348849 0.622721
-7.452409 19.457525 2.392536 0.456764
-7.742792 18.638063 1.621690 0.482872
-7.742791 18.638067 0.864260 0.663890
-7.742792 18.638067 0.104389 0.567239
-9.657806 13.233900 0.000008 0.239968
-10.961175 9.555799 0.000004 0.212896
-11.793266 7.207641 0.000002 0.232296
-12.371602 5.575578 0.000001 0.230908
-12.797694 4.373148 -0.000000 0.201838
nan nan nan 0.000000
nan nan nan 0.000000
nan nan nan 0.000000
nan nan nan 0.000000
nan nan nan 0.000000
-5.530610 24.271194 4.391618 0.330800
-6.465508 21.690290 3.298065 0.632212
-7.384679 19.152800 2.388216 0.321569
-7.605158 18.544140 1.622378 0.512596
-7.605157 18.544142 0.866323 0.708629
-7.605158 18.544140 0.107833 0.597620
-9.543550 13.192965 0.000008 0.249291
-10.872564 9.524052 0.000004 0.257393
-11.721027 7.181758 0.000002 0.263808
-12.310743 5.553772 0.000001 0.244300
-12.745219 4.354346 -0.000000 0.235456
nan nan nan 0.000000
nan nan nan 0.000000
nan nan nan 0.000000
nan nan nan 0.000000
nan nan nan 0.000000
-5.310045 24.280476 4.398551 0.355077
-6.377450 21.396795 3.286013 0.507027
-7.244050 19.055607 2.387513 0.482353
-7.468002 18.450581 1.623044 0.482902
-7.468004 18.450581 0.868322 0.543832
-7.468001 18.450586 0.111169 0.541512
-9.429581 13.151224 0.000008 0.245485
-10.784176 9.491684 0.000004 0.246717
-11.648971 7.155370 0.000002 0.207367
-12.250037 5.531543 0.000001 0.207750
-12.692877 4.335178 -0.000000 0.231853
nan nan nan 0.000000
nan nan nan 0.000000
nan nan nan 0.000000
nan nan nan 0.000000
nan nan nan 0.000000
-6.465496 20.647219 4.086329 0.652033
-6.377448 20.880081 3.262238 0.593561
-7.103915 18.958782 2.386833 0.321569
-7.331367 18.357235 1.623691 0.569345
-7.331367 18.357237 0.870265 0.652705
-7.331367 18.357237 0.114413 0.683543
-9.315905 13.108698 0.000008 0.199049
-10.696016 9.458698 0.000005 0.272065
-11.577101 7.128482 0.000002 0.235910
-12.189489 5.508890 0.000001 0.242445
-12.640669 4.315647 -0.000000 0.194418
nan nan nan 0.000000
nan nan nan 0.000000
nan nan nan 0.000000
nan nan nan 0.000000
nan nan nan 0.000000
-6.382721 20.368437 4.067398 0.666407
-6.377443 20.382105 3.239385 0.499809
-6.964253 18.862316 2.386174 0.378103
-7.195296 18.263939 1.624322 0.540642
-7.195295 18.263939 0.872161 0.652018
-7.195296 18.263939 0.117576 0.498909
-9.202531 13.065376 0.000008 0.221537
-10.608088 9.425104 0.000004 0.253288
-11.505419 7.101093 0.000002 0.224900
-12.129099 5.485815 0.000001 0.188410
-12.588599 4.295750 -0.000000 0.204435
nan nan nan 0.000000
nan nan nan 0.000000
nan nan nan 0.000000
nan nan nan 0.000000
-3.471842 27.273485 5.762345 0.640436
-6.377447 19.901800 4.031910 0.617594
-6.377439 19.901817 3.217403 0.546532
-6.825057 18.766188 2.385537 0.223270
-7.059836 18.170538 1.624940 0.534051
-7.059837 18.170536 0.874017 0.574823
-7.059836 18.170538 0.120674 0.505974
-9.089460 13.021261 0.000008 0.215182
-10.520398 9.390888 0.000005 0.237323
-11.433931 7.073202 0.000003 0.196309
-12.068872 5.462317 0.000001 0.230788
-12.536669 4.275490 -0.000000 0.234594
nan nan nan 0.000000
nan nan nan 0.000000
nan nan nan 0.000000
-3.113883 27.551584 6.909217 0.647623
-6.282223 19.674952 4.830609 0.623362
-6.377449 19.438217 3.996594 0.621149
-6.377444 19.438231 3.196244 0.533440
-6.668290 18.715172 2.385710 0.338399
-8.008543 15.383247 1.673059 0.747417
-8.008544 15.383244 1.018476 0.583261
-8.008544 15.383244 0.361784 0.578927
-8.976702 12.976360 0.000008 0.228814
-10.432949 9.356064 0.000005 0.253958
-11.362638 7.044816 0.000002 0.245712
-12.008811 5.438402 0.000001 0.213172
-12.484882 4.254868 0.000000 0.208899
nan nan nan 0.000000
nan nan nan 0.000000
nan nan nan 0.000000
-2.978258 27.273499 6.878575 0.635645
-3.450943 26.121670 5.640306 0.780133
-6.465499 18.775894 3.943563 0.635126
-6.377451 18.990448 3.175864 0.612253
-6.489355 18.717762 2.386851 0.414893
-8.008547 15.015842 1.678629 0.704784
-8.008548 15.015841 1.035198 0.552148
-8.008547 15.015842 0.389694 0.671824
-8.864258 12.930672 0.000009 0.237323
-10.345743 9.320635 0.000005 0.195950
-11.291547 7.015930 0.000002 0.221609
-11.948919 5.414064 0.000001 0.247735
-12.433240 4.233886 -0.000000 0.293404
nan nan nan 0.000000
nan nan nan 0.000000
nan nan nan 0.000000
-2.847406 26.991451 6.847355 0.352224
-3.450942 25.549517 5.579501 0.542916
-6.432958 18.425053 3.918010 0.612329
-6.377456 18.557655 3.156222 0.608835
-6.377447 18.557674 2.385133 0.564095
-8.008554 14.660727 1.683997 0.648386
-8.020815 14.631437 1.052874 0.470649
-8.008554 14.660728 0.416593 0.741604
-8.752136 12.884201 0.000009 0.203406
-10.258788 9.284595 0.000005 0.229759
-11.220659 6.986549 0.000003 0.202843
-11.889196 5.389314 0.000001 0.219862
-12.381746 4.212543 0.000000 0.242636
nan nan nan 0.000000
nan nan nan 0.000000
nan nan nan 0.000000
-3.059548 25.913202 6.687779 0.335821
-3.488122 24.909019 5.509965 0.399558
-6.255488 18.424858 3.923660 0.643183
-6.377465 18.139055 3.137280 0.672465
-6.377453 18.139082 2.378823 0.600519
-8.008558 14.317272 1.689174 0.782147
-8.008556 14.317276 1.066856 0.576379
-8.008559 14.317270 0.442533 0.704417
-8.640343 12.836950 0.000009 0.226336
-10.172087 9.247948 0.000005 0.252043
-11.149979 6.956669 0.000003 0.233289
-11.829651 5.364145 0.000001 0.187237
-12.330402 4.190841 0.000000 0.237299
nan nan nan 0.000000
nan nan nan 0.000000
nan nan nan 0.000000
-3.652753 23.996698 6.391877 0.627192
-3.461431 24.436449 5.461254 0.365805
-5.995541 18.611799 3.946172 0.163134
-6.465493 17.531614 3.108163 0.658671
-7.531086 15.082348 2.325416 0.329946
-8.008564 13.984867 1.694170 0.597467
-8.008562 13.984869 1.081853 0.696635
-8.008562 13.984869 0.467564 0.725689
-8.528883 12.788912 0.000009 0.223296
-10.085643 9.210699 0.000005 0.242708
-11.079507 6.926303 0.000003 0.233840
-11.770279 5.338562 0.000001 0.202592
-12.279211 4.168782 0.000000 0.242624
nan nan nan 0.000000
nan nan nan 0.000000
nan nan nan 0.000000
-3.652754 23.486752 6.322619 0.652445
-3.450934 23.941917 5.409650 0.548608
-5.810247 18.620897 3.952965 0.288975
-6.364842 17.370102 3.102887 0.617090
-7.536394 14.727871 2.320070 0.379217
-7.976604 13.735052 1.697702 0.601724
-7.976603 13.735058 1.092458 0.454765
-7.976604 13.735052 0.485265 0.566751
-8.417758 12.740105 0.000009 0.234714
-9.999462 9.172844 0.000005 0.191785
-11.009251 6.895442 0.000003 0.244803
-11.711090 5.312562 0.000001 0.198954
-12.228175 4.146366 0.000000 0.190038
nan nan nan 0.000000
nan nan nan 0.000000
nan nan nan 0.000000
-3.652749 22.992624 6.255718 0.629297
-3.450933 23.439346 5.356878 0.610605
-5.623579 18.630207 3.959916 0.237781
-6.465479 16.766668 3.073809 0.639078
-7.541514 14.384872 2.314912 0.467994
-7.868440 13.661224 1.698082 0.858869
-7.868441 13.661221 1.093598 0.527169
-7.868440 13.661221 0.487167 0.575158
-8.306977 12.690523 0.000009 0.225235
-9.913549 9.134386 0.000006 0.221633
-10.939209 6.864096 0.000003 0.224122
-11.652083 5.286152 0.000001 0.234199
-12.177298 4.123592 0.000000 0.259200
nan nan nan 0.000000
nan nan nan 0.000000
-1.462185 27.273485 8.094372 0.637888
-3.652749 22.513531 6.191056 0.624445
-3.450933 22.952065 5.305874 0.516030
-5.435506 18.639723 3.967023 0.415244
-6.389975 16.565727 3.066365 0.638788
-7.535788 14.075951 2.310351 0.348455
-7.760546 13.587564 1.698446 0.645808
-7.760548 13.587563 1.094692 0.839216
-7.760548 13.587561 0.488992 0.792325
-8.196547 12.640163 0.000009 0.230453
-9.827904 9.095335 0.000005 0.243331
-10.869390 6.832254 0.000004 0.244467
-11.593262 5.259330 0.000001 0.191462
-12.126580 4.100465 0.000001 0.201694
nan nan nan 0.000000
nan nan nan 0.000000
-1.203946 27.273491 8.114166 0.646326
-3.543914 22.280972 6.166569 0.627741
-3.450933 22.479359 5.256553 0.512596
-5.245982 18.649466 3.974294 0.331365
-6.376397 16.237625 3.052028 0.725216
-7.425247 13.999813 2.309983 0.180728
-7.652953 13.513985 1.698796 0.728618
-7.652951 13.513988 1.095743 0.423651
-7.652953 13.513988 0.490747 0.523461
-8.086472 12.589039 0.000009 0.229232
-9.742535 9.055685 0.000005 0.212154
-10.799793 6.799936 0.000003 0.226911
-11.534630 5.232098 0.000002 0.221046
-12.076025 4.076986 0.000000 0.245533
nan nan nan 0.000000
nan nan nan 0.000000
-1.382889 26.353872 7.948977 0.306600
-3.450929 22.020521 6.137540 0.482353
-3.450924 22.020529 5.208837 0.634516
-6.457808 15.719927 3.714663 0.675608
-6.376113 15.891111 3.036644 0.556573
-7.314952 13.923876 2.309632 0.345098
-7.545679 13.440414 1.699134 0.630625
-7.545678 13.440414 1.096757 0.584985
-7.545680 13.440411 0.492440 0.535515
-7.976751 12.537148 0.000010 0.215290
-9.657444 9.015440 0.000006 0.257728
-10.730425 6.767123 0.000004 0.216056
-11.476189 5.204458 0.000002 0.226528
-12.025635 4.053152 0.000000 0.226324
nan nan nan 0.000000
nan nan nan 0.000000
-1.637863 25.306744 7.757184 0.353933
-3.450926 21.574919 6.077987 0.674540
-3.450918 21.574932 5.162650 0.484123
-6.377535 15.551081 3.705045 0.688548
-6.875548 14.526018 2.965578 0.352270
-7.204896 13.848122 2.309297 0.204807
-7.438760 13.366762 1.699461 0.634211
-7.438760 13.366760 1.097739 0.625238
-7.438760 13.366760 0.494078 0.583886
-7.867398 12.484493 0.000009 0.229986
-9.572637 8.974602 0.000006 0.248142
-10.661287 6.733831 0.000003 0.242481
-11.417942 5.176409 0.000002 0.283770
-11.975411 4.028971 0.000000 0.222578
nan nan nan 0.000000
nan nan nan 0.000000
-1.876128 24.326582 7.577957 0.384451
-3.450924 21.141935 6.020315 0.565881
-6.465500 15.045683 4.335544 0.632410
-6.377217 15.224215 3.680990 0.511040
-6.757338 14.455513 2.965023 0.291798
-7.095066 13.772537 2.308976 0.337102
-7.331375 13.294661 1.699747 0.611536
-7.331375 13.294659 1.098598 0.549874
-7.331377 13.294657 0.495511 0.572992
-7.758417 12.431070 0.000009 0.210598
-9.488116 8.933172 0.000006 0.239632
-10.592382 6.700059 0.000003 0.263556
-11.359893 5.147955 0.000002 0.212932
-11.925360 4.004436 0.000000 0.215589
nan nan nan 0.000000
nan nan nan 0.000000
-2.099263 23.407063 7.410114 0.384848
-3.450920 20.721018 5.964443 0.498405
-6.381150 14.898003 4.324672 0.626581
-6.377424 14.905407 3.657590 0.494255
-6.601417 14.460285 2.968652 0.289204
-6.985449 13.697126 2.308673 0.268559
-7.225089 13.220909 1.700051 0.604105
-7.225089 13.220909 1.099509 0.469703
-7.225087 13.220913 0.497032 0.555917
-7.649813 12.376892 0.000010 0.227425
-9.403887 8.891157 0.000006 0.256387
-10.523718 6.665803 0.000004 0.260229
-11.302044 5.119098 0.000001 0.212980
-11.875480 3.979553 0.000000 0.207355
nan nan nan 0.000000
nan nan nan 0.000000
-2.308643 22.542635 7.252617 0.305028
-3.450915 20.311617 5.910292 0.576059
-6.377409 14.595757 4.293862 0.824521
-6.377450 14.595676 3.634943 0.776989
-6.444136 14.465431 2.972374 0.402518
-6.876033 13.621876 2.308385 0.406577
-7.118090 13.149105 1.700306 0.579934
-7.118089 13.149103 1.100275 0.697963
-7.118090 13.149101 0.498311 0.534478
-7.541584 12.321955 0.000010 0.241105
-9.319952 8.848553 0.000006 0.207283
-10.455292 6.631071 0.000003 0.210419
-11.244396 5.089836 0.000002 0.203334
-11.825774 3.954323 0.000000 0.223560
nan nan nan 0.000000
0.382594 27.273485 9.409346 0.672435
-2.505493 21.728416 7.104545 0.391531
-3.450914 19.913223 5.857783 0.490715
-6.377427 14.294376 4.263055 0.483589
-6.377435 14.294361 3.612992 0.772351
-6.377451 14.294331 2.966409 0.520592
-6.766808 13.546774 2.308114 0.240330
-7.012550 13.074951 1.700592 0.573205
-7.012552 13.074949 1.101133 0.608042
-7.012552 13.074949 0.499743 0.547021
-7.433747 12.266260 0.000010 0.249733
-9.236320 8.805355 0.000007 0.210323
-10.387112 6.595859 0.000004 0.208696
-11.186956 5.060173 0.000002 0.251684
-11.776247 3.928745 0.000001 0.201407
nan nan nan 0.000000
0.501327 26.985998 9.366302 0.380819
-2.690893 20.960058 6.965086 0.382361
-3.465782 19.497303 5.802138 0.442100
-6.465517 13.834717 4.211528 0.617945
-6.377452 14.000954 3.591692 0.587503
-6.377437 14.000986 2.953651 0.571435
-6.621142 13.540943 2.309138 0.378775
-6.906025 13.003168 1.700821 0.630213
-6.906023 13.003172 1.101821 0.576883
-6.906023 13.003172 0.500892 0.497215
-7.326299 12.209820 0.000010 0.213914
-9.152988 8.761585 0.000006 0.257094
-10.319178 6.560174 0.000004 0.266584
-11.129725 5.030109 0.000002 0.233661
-11.726900 3.902822 0.000001 0.261546
nan nan nan 0.000000
0.179114 25.885851 9.123931 0.356191
-2.865799 20.233727 6.833519 0.401831
-3.450910 19.147612 5.757425 0.586191
-6.402112 13.669439 4.198195 0.634455
-6.377437 13.715244 3.571029 0.622446
-6.377424 13.715267 2.941272 0.507897
-6.471333 13.540949 2.310292 0.294179
-6.799687 12.931438 1.701036 0.593362
-6.799687 12.931438 1.102468 0.599939
-6.799687 12.931438 0.501971 0.549523
-7.219248 12.152630 0.000010 0.222375
-9.069964 8.717234 0.000006 0.252366
-10.251493 6.524019 0.000004 0.218629
-11.072704 4.999647 0.000002 0.192324
-11.677733 3.876558 0.000001 0.236138
nan nan nan 0.000000
-0.121476 24.857767 8.897827 0.377768
-3.031070 19.545980 6.709202 0.374884
-3.450907 18.779520 5.709446 0.549020
-6.245404 13.677851 4.207650 0.674754
-6.377434 13.436817 3.550969 0.556771
-6.377455 13.436777 2.929249 0.761273
-6.377451 13.436787 2.309529 0.657420
-6.674025 12.895357 1.700573 0.696376
-6.674026 12.895355 1.101079 0.730083
-6.674025 12.895357 0.499652 0.555077
-7.112597 12.094694 0.000011 0.217779
-8.987253 8.672300 0.000007 0.210251
-10.184065 6.487389 0.000004 0.277870
-11.015896 4.968787 0.000002 0.256854
-11.628752 3.849951 0.000001 0.213531
nan nan nan 0.000000
-0.402515 23.894812 8.686422 0.303059
-3.652741 18.058243 6.417549 0.602365
-3.450909 18.420681 5.662850 0.634653
-5.975817 13.886597 4.243666 0.384710
-6.465505 13.007244 3.516644 0.626352
-6.377446 13.165375 2.917578 0.820447
-6.377446 13.165375 2.305641 0.520943
-6.529538 12.892258 1.699475 0.611307
-6.529535 12.892262 1.097780 0.615534
-6.529534 12.892262 0.494146 0.540276
-7.006354 12.036016 0.000010 0.237454
-8.904858 8.626793 0.000006 0.226264
-10.116894 6.450286 0.000004 0.247507
-10.959307 4.937531 0.000002 0.267613
-11.579959 3.822999 0.000001 0.228287
nan nan nan 0.000000
-0.665861 22.990837 8.488334 0.337453
-3.652741 17.714174 6.362958 0.641627
-3.450910 18.070732 5.617588 0.498863
-5.811237 13.900946 4.254375 0.377935
-6.464474 12.746927 3.498074 0.593683
-6.377438 12.900688 2.906239 0.673945
-6.377443 12.900679 2.301864 0.531640
-6.383883 12.889299 1.698350 0.550286
-6.383883 12.889303 1.094404 0.486610
-6.383883 12.889301 0.488511 0.547814
-6.900525 11.976595 0.000011 0.233325
-8.822783 8.580709 0.000007 0.251720
-10.049984 6.412719 0.000004 0.204232
-10.902936 4.905881 0.000002 0.212190
-11.531354 3.795710 0.000001 0.271742
nan nan nan 0.000000
-0.913094 22.140526 8.302362 0.292439
-3.652742 17.378487 6.309908 0.650950
-3.450912 17.729309 5.573600 0.543740
-5.644968 13.915613 4.265320 0.342916
-6.319493 12.743155 3.503698 0.648737
-6.465501 12.489365 2.886544 0.632029
-6.465502 12.489367 2.295304 0.637278
-6.465502 12.489367 1.704696 0.639017
-6.465502 12.489363 1.113456 0.621439
-6.465501 12.489365 0.520310 0.619303
-6.795111 11.916439 0.000011 0.200282
-8.741030 8.534054 0.000007 0.193939
-9.983335 6.374686 0.000004 0.214811
-10.846788 4.873837 0.000002 0.230884
-11.482941 3.768081 0.000001 0.209150
nan nan nan 0.000000
-1.145640 21.339138 8.127439 0.345892
-3.652741 17.050850 6.258338 0.613291
-3.450912 17.396070 5.530840 0.637903
-5.476963 13.930601 4.276509 0.415274
-6.158199 12.765377 3.511909 0.647272
-6.465494 12.239761 2.875937 0.624704
-6.465491 12.239765 2.291770 0.620386
-6.465490 12.239767 1.708229 0.645060
-6.465492 12.239763 1.124063 0.600031
-6.465494 12.239761 0.538014 0.643244
-6.690124 11.855541 0.000011 0.228825
-8.659605 8.486832 0.000007 0.232272
-9.916956 6.336188 0.000004 0.230513
-10.790865 4.841405 0.000002 0.201970
-11.434722 3.740115 0.000001 0.283890
nan nan nan 0.000000
-1.364750 20.582495 7.962622 0.346532
-3.652741 16.730949 6.208189 0.632105
-3.450917 17.070694 5.489258 0.748760
-5.307174 13.945923 4.287944 0.369955
-5.906922 12.936323 3.534445 0.328420
-6.322386 12.236942 2.879387 0.636881
-6.322509 12.236734 2.292916 0.633646
-6.322421 12.236883 1.707081 0.645136
-6.322489 12.236769 1.120622 0.635294
-6.322463 12.236813 0.532267 0.654902
-6.585560 11.793922 0.000011 0.212537
-8.578510 8.439041 0.000006 0.218653
-9.850845 6.297228 0.000004 0.212753
-10.735168 4.808583 0.000002 0.238675
-11.386700 3.711814 0.000001 0.213231
nan nan nan 0.000000
-1.571553 19.866837 7.807064 0.319173
-3.637302 16.444059 6.164846 0.649836
-3.450921 16.752878 5.448810 0.458579
-5.135549 13.961586 4.299634 0.320409
-5.748363 12.946203 3.541820 0.325200
-6.465496 11.757973 2.855587 0.641764
-6.465494 11.757975 2.284992 0.644816
-6.465494 11.757975 1.715008 0.654994
-6.465496 11.757973 1.144413 0.632898
-6.465495 11.757973 0.571978 0.633890
-6.465495 11.757973 -0.003537 0.627771
-8.497755 8.390682 0.000007 0.224278
-9.785011 6.257805 0.000004 0.262994
-10.679705 4.775371 0.000003 0.222291
-11.338876 3.683177 0.000001 0.216259
nan nan nan 0.000000
-1.767027 19.188885 7.660024 0.382467
-3.488852 16.380468 6.168998 0.645060
-3.450920 16.442337 5.409455 0.524880
-4.962040 13.977596 4.311581 0.236057
-5.588193 12.956293 3.549352 0.347524
-6.465502 11.525345 2.845824 0.653483
-6.465505 11.525339 2.281739 0.576455
-6.465507 11.525335 1.718260 0.605295
-6.465507 11.525337 1.154177 0.637552
-6.465510 11.525330 0.588276 0.647059
-6.465510 11.525330 0.019330 0.646647
-8.417337 8.341764 0.000007 0.206266
-9.719453 6.217924 0.000005 0.239573
-10.624473 4.741773 0.000002 0.211089
-11.291252 3.654209 0.000001 0.224457
1.216777 23.634190 9.904471 0.347326
-1.952077 18.545637 7.520828 0.432822
-3.450899 16.138821 6.135223 0.479606
-3.450923 16.138784 5.371149 0.657496
-4.786594 13.993961 4.323791 0.320394
-6.465506 11.297960 3.395863 0.630472
-6.377428 11.439396 2.844506 0.537362
-6.377428 11.439392 2.281301 0.538766
-6.377428 11.439392 1.718699 0.566827
-6.377428 11.439396 1.155494 0.571557
-6.377429 11.439394 0.590474 0.446418
-6.377428 11.439394 0.022413 0.598917
-8.337265 8.292282 0.000008 0.208001
-9.654174 6.177588 0.000005 0.228574
-10.569477 4.707791 0.000003 0.267482
-11.243833 3.624909 0.000001 0.184149
0.908454 22.734558 9.672546 0.357519
-2.127497 17.934429 7.388876 0.355596
-3.450903 15.841995 6.089477 0.509407
-3.450922 15.841967 5.333857 0.580392
-4.609159 14.010685 4.336272 0.351492
-6.447534 11.104036 3.383179 0.647059
-6.377428 11.214880 2.835164 0.551919
-6.377428 11.214880 2.278189 0.555657
-6.377428 11.214880 1.721811 0.461799
-6.377429 11.214880 1.164836 0.496788
-6.377428 11.214878 0.606067 0.570596
-6.377428 11.214880 0.044291 0.561791
-8.257537 8.242247 0.000007 0.198487
-9.589178 6.136796 0.000005 0.217372
-10.514720 4.673425 0.000002 0.218102
-11.196619 3.595278 0.000001 0.260074
0.618937 21.888111 9.454772 0.417197
-2.294013 17.352852 7.263622 0.284993
-3.450903 15.551659 6.044928 0.620264
-3.450927 15.551620 5.297537 0.675715
-4.429675 14.027781 4.349029 0.333440
-6.377435 10.995256 3.378746 0.521126
-6.377429 10.995266 2.826066 0.547448
-6.377431 10.995264 2.275159 0.567178
-6.377431 10.995264 1.724842 0.549203
-6.377429 10.995266 1.173935 0.531334
-6.377429 10.995266 0.621252 0.562600
-6.377431 10.995264 0.065596 0.561624
-8.178160 8.191658 0.000007 0.243510
-9.524467 6.095553 0.000004 0.218940
-10.460204 4.638677 0.000003 0.232727
-11.149612 3.565317 0.000001 0.237670
0.346601 21.090206 9.249918 0.348928
-2.452262 16.798763 7.144586 0.405463
-3.450907 15.267559 6.001531 0.525902
-3.450927 15.267529 5.262158 0.513039
-6.465505 10.645334 3.895103 0.619852
-6.377438 10.780365 3.363954 0.534340
-6.377430 10.780376 2.817203 0.576944
-6.377429 10.780378 2.272206 0.539117
-6.377429 10.780378 1.727793 0.563806
-6.377429 10.780378 1.182797 0.514916
-6.377429 10.780378 0.636044 0.536507
-6.377428 10.780378 0.086349 0.501823
-8.099139 8.140512 0.000007 0.205656
-9.460049 6.053856 0.000005 0.214644
-10.405932 4.603551 0.000003 0.258087
-11.102818 3.535029 0.000001 0.254604
0.089977 20.336695 9.056881 0.413809
-2.602840 16.270180 7.031319 0.341009
-3.450907 14.989483 5.959246 0.567361
-3.450928 14.989452 5.227688 0.676570
-6.465502 10.437040 3.875079 0.679271
-6.377437 10.570030 3.349541 0.738415
-6.377430 10.570040 2.808567 0.538521
-6.377430 10.570042 2.269330 0.566842
-6.377430 10.570042 1.730670 0.571038
-6.377429 10.570042 1.191432 0.447730
-6.377429 10.570042 0.650457 0.542504
-6.377429 10.570042 0.106570 0.502571
-8.020480 8.088814 0.000008 0.252438
-9.395922 6.011714 0.000005 0.212908
-10.351906 4.568048 0.000002 0.278444
-11.056236 3.504415 0.000002 0.258434
-0.152246 19.623869 8.874678 0.297795
-2.746284 15.765314 6.923419 0.348257
-3.450910 14.717205 5.918035 0.680034
-3.467029 14.693228 5.189811 0.487160
-6.377448 10.364065 3.873717 0.540978
-6.377436 10.364082 3.335494 0.569818
-6.377431 10.364090 2.800151 0.646632
-6.377430 10.364092 2.266526 0.786358
-6.377430 10.364092 1.733473 0.679683
-6.377430 10.364094 1.199849 0.671427
-6.377430 10.364090 0.664504 0.797711
-6.377431 10.364090 0.126279 0.761837
-7.942181 8.036570 0.000008 0.216511
-9.332089 5.969122 0.000005 0.239226
-10.298131 4.532164 0.000003 0.203478
-11.009869 3.473475 0.000002 0.266788
-0.381222 18.948458 8.702438 0.347112
-2.883070 15.282570 6.820527 0.400046
-3.450909 14.450529 5.877860 0.560784
-6.465501 10.033329 4.368067 0.641276
-6.377447 10.162352 3.854504 0.806973
-6.377435 10.162371 3.321801 0.581247
-6.377429 10.162378 2.791946 0.518074
-6.377429 10.162378 2.263794 0.588052
-6.377429 10.162378 1.736206 0.519356
-6.377429 10.162378 1.208053 0.464759
-6.377430 10.162376 0.678198 0.782055
-6.377428 10.162380 0.145492 0.628046
-7.864248 7.983783 0.000008 0.230573
-9.268557 5.926089 0.000005 0.213710
-10.244606 4.495910 0.000003 0.209234
-10.963717 3.442217 0.000001 0.209007
-0.598010 18.307484 8.539371 0.274495
-3.013651 14.820446 6.722304 0.361608
-3.450909 14.189255 5.838685 0.553338
-6.465499 9.837618 4.344145 0.640345
-6.377446 9.964725 3.835770 0.562966
-6.377433 9.964745 3.308448 0.681193
-6.377430 9.964748 2.783946 0.610620
-6.377428 9.964750 2.261129 0.544366
-6.377429 9.964750 1.738871 0.521843
-6.377430 9.964748 1.216053 0.560296
-6.377429 9.964750 0.691551 0.662562
-6.377428 9.964750 0.164226 0.566506
-7.786688 7.930450 0.000008 0.213231
-9.205324 5.882613 0.000005 0.234067
-10.191336 4.459281 0.000003 0.288904
-10.917786 3.410634 0.000002 0.270713
-0.803509 17.698353 8.384792 0.360616
-3.138416 14.377621 6.628454 0.370459
-3.450914 13.933184 5.800476 0.796841
-6.377457 9.771025 4.343519 0.516197
-6.377445 9.771040 3.817499 0.843534
