# This PCD file was generated using the MATLABÂ® pcwrite function
# from Computer Vision ToolboxÂ®.
# .PCD v.7 - Point Cloud Data file format
VERSION .7
FIELDS x y z intensity
SIZE 4 4 4 4
TYPE F F F F
COUNT 1 1 1 1
WIDTH 1320
HEIGHT 1
VIEWPOINT 0 0 0 1 0 0 0
POINTS 1320
DATA ascii
112.285194 38.038055 -0.000005 0.257955
nan nan nan 0.000000
nan nan nan 0.000000
nan nan nan 0.000000
nan nan nan 0.000000
nan nan nan 0.000000
nan nan nan 0.000000
nan nan nan 0.000000
nan nan nan 0.000000
nan nan nan 0.000000
142.108261 51.516075 -0.000026 0.227330
127.248367 44.769897 -0.000024 0.224852
120.868401 41.873489 -0.000015 0.246729
117.315132 40.260353 -0.000011 0.219000
115.046677 39.230511 -0.000008 0.276709
113.470024 38.514732 -0.000007 0.246502
112.308418 37.987377 -0.000005 0.248142
nan nan nan 0.000000
nan nan nan 0.000000
nan nan nan 0.000000
nan nan nan 0.000000
nan nan nan 0.000000
nan nan nan 0.000000
nan nan nan 0.000000
nan nan nan 0.000000
nan nan nan 0.000000
142.224854 51.256874 -0.000026 0.227641
127.318214 44.614597 -0.000024 0.232045
120.918190 41.762798 -0.000015 0.235743
117.353745 40.174511 -0.000011 0.248058
115.078156 39.160530 -0.000008 0.283076
113.496544 38.455772 -0.000006 0.238304
112.331284 37.936543 -0.000005 0.257106
nan nan nan 0.000000
nan nan nan 0.000000
nan nan nan 0.000000
nan nan nan 0.000000
nan nan nan 0.000000
nan nan nan 0.000000
nan nan nan 0.000000
nan nan nan 0.000000
nan nan nan 0.000000
142.339615 50.996857 -0.000026 0.230860
127.386986 44.458813 -0.000024 0.227964
120.967209 41.651764 -0.000015 0.232907
117.391754 40.088398 -0.000011 0.221082
115.109146 39.090324 -0.000008 0.235492
113.522652 38.396629 -0.000007 0.260098
112.353798 37.885548 -0.000005 0.227748
nan nan nan 0.000000
nan nan nan 0.000000
nan nan nan 0.000000
nan nan nan 0.000000
nan nan nan 0.000000
nan nan nan 0.000000
nan nan nan 0.000000
nan nan nan 0.000000
nan nan nan 0.000000
142.452576 50.736046 -0.000026 0.230010
127.454651 44.302551 -0.000024 0.229508
121.015442 41.540390 -0.000015 0.220651
117.429169 40.002022 -0.000011 0.228861
115.139648 39.019913 -0.000009 0.248393
113.548340 38.337307 -0.000006 0.213650
112.375946 37.834396 -0.000005 0.215050
nan nan nan 0.000000
nan nan nan 0.000000
nan nan nan 0.000000
nan nan nan 0.000000
nan nan nan 0.000000
nan nan nan 0.000000
nan nan nan 0.000000
139.385834 49.137466 2.609781 0.635294
139.385834 49.137466 1.390218 0.662226
139.385834 49.137466 0.169348 0.721569
127.521240 44.145821 -0.000024 0.231087
121.062897 41.428680 -0.000015 0.241021
117.465973 39.915390 -0.000011 0.219179
115.169647 38.949284 -0.000008 0.224134
113.573624 38.277805 -0.000006 0.241990
112.397743 37.783092 -0.000005 0.196297
nan nan nan 0.000000
nan nan nan 0.000000
nan nan nan 0.000000
nan nan nan 0.000000
nan nan nan 0.000000
nan nan nan 0.000000
nan nan nan 0.000000
139.385834 48.856052 2.608010 0.588754
139.385834 48.856056 1.391990 0.615412
139.385834 48.856052 0.174664 0.698039
127.586731 43.988628 -0.000024 0.235133
121.109573 41.316643 -0.000015 0.229879
117.502174 39.828499 -0.000011 0.224661
115.199158 38.878448 -0.000008 0.203968
113.598488 38.218132 -0.000007 0.233661
112.419182 37.731636 -0.000005 0.246969
nan nan nan 0.000000
nan nan nan 0.000000
nan nan nan 0.000000
nan nan nan 0.000000
nan nan nan 0.000000
nan nan nan 0.000000
nan nan nan 0.000000
139.385834 48.576248 2.606278 0.612802
139.385834 48.576252 1.393721 0.624292
139.385834 48.576252 0.179862 0.730877
127.651123 43.830986 -0.000024 0.220017
121.155472 41.204285 -0.000016 0.229197
117.537766 39.741356 -0.000011 0.245760
115.228180 38.807411 -0.000009 0.193748
113.622932 38.158283 -0.000007 0.266895
112.440254 37.680035 -0.000005 0.210527
nan nan nan 0.000000
nan nan nan 0.000000
nan nan nan 0.000000
nan nan nan 0.000000
nan nan nan 0.000000
nan nan nan 0.000000
nan nan nan 0.000000
139.385834 48.298027 2.604587 0.585138
139.385834 48.298027 1.395413 0.565957
139.385834 48.298027 0.184942 0.678431
127.714409 43.672897 -0.000024 0.233768
121.200577 41.091606 -0.000016 0.254604
117.572746 39.653973 -0.000012 0.240578
115.256699 38.736172 -0.000009 0.197673
113.646957 38.098267 -0.000007 0.246670
112.460976 37.628284 -0.000005 0.241559
nan nan nan 0.000000
nan nan nan 0.000000
nan nan nan 0.000000
nan nan nan 0.000000
nan nan nan 0.000000
nan nan nan 0.000000
nan nan nan 0.000000
139.385818 48.021343 2.602933 0.756680
139.385818 48.021343 1.397066 0.730373
139.385818 48.021339 0.189905 0.698039
127.776588 43.514366 -0.000024 0.223655
121.244904 40.978615 -0.000015 0.227461
117.607117 39.566345 -0.000011 0.245760
115.284721 38.664734 -0.000009 0.225151
113.670563 38.038082 -0.000007 0.218844
112.481331 37.576393 -0.000005 0.286140
nan nan nan 0.000000
nan nan nan 0.000000
nan nan nan 0.000000
nan nan nan 0.000000
nan nan nan 0.000000
nan nan nan 0.000000
nan nan nan 0.000000
139.385818 47.746147 2.601319 0.683833
139.385818 47.746147 1.398682 0.635294
139.385818 47.746147 0.194754 0.695796
127.837662 43.355408 -0.000024 0.222889
121.288437 40.865318 -0.000016 0.226468
117.640877 39.478477 -0.000011 0.239453
115.312241 38.593102 -0.000009 0.252294
113.693748 37.977734 -0.000007 0.185873
112.501320 37.524361 -0.000006 0.202484
nan nan nan 0.000000
nan nan nan 0.000000
nan nan nan 0.000000
nan nan nan 0.000000
nan nan nan 0.000000
nan nan nan 0.000000
nan nan nan 0.000000
139.385818 47.472412 2.599741 0.671321
139.385818 47.472412 1.400259 0.603616
139.385818 47.472412 0.199490 0.684810
127.897629 43.196026 -0.000024 0.245054
121.331169 40.751717 -0.000016 0.226731
117.674026 39.390377 -0.000012 0.202412
115.339264 38.521282 -0.000009 0.236593
113.716515 37.917225 -0.000007 0.206302
112.520950 37.472187 -0.000006 0.204591
nan nan nan 0.000000
nan nan nan 0.000000
nan nan nan 0.000000
nan nan nan 0.000000
139.370819 47.194633 6.203606 0.454475
139.412125 47.209682 4.999727 0.636057
139.412125 47.209679 3.797262 0.747860
139.385818 47.200096 2.598202 0.688975
139.385818 47.200096 1.401799 0.648997
139.385818 47.200096 0.204113 0.696361
127.956482 43.036232 -0.000025 0.226528
121.373108 40.637825 -0.000016 0.242768
117.706558 39.302048 -0.000012 0.214584
115.365776 38.449272 -0.000009 0.235516
113.738853 37.856560 -0.000007 0.198906
112.540215 37.419880 -0.000006 0.245365
nan nan nan 0.000000
nan nan nan 0.000000
nan nan nan 0.000000
nan nan nan 0.000000
139.370819 46.923817 6.193044 0.482353
139.412125 46.938538 4.992189 0.551904
139.412125 46.938538 3.792746 0.623880
139.385818 46.929161 2.596699 0.711894
139.385818 46.929161 1.403301 0.681010
139.385818 46.929161 0.208625 0.678431
128.014206 42.876030 -0.000024 0.234953
121.414268 40.523643 -0.000016 0.228754
117.738464 39.213493 -0.000012 0.207224
115.391800 38.377079 -0.000010 0.231291
113.760773 37.795742 -0.000007 0.227557
112.559113 37.367439 -0.000006 0.195244
nan nan nan 0.000000
nan nan nan 0.000000
nan nan nan 0.000000
nan nan nan 0.000000
139.370819 46.654346 6.182738 0.479515
139.412125 46.668743 4.984835 0.612757
139.412125 46.668747 3.788339 0.679805
139.385818 46.659576 2.595232 0.639765
139.385818 46.659576 1.404768 0.681193
139.385818 46.659576 0.213028 0.605539
128.070816 42.715427 -0.000024 0.240027
121.454620 40.409176 -0.000016 0.225187
117.769760 39.124718 -0.000012 0.204160
115.417305 38.304710 -0.000009 0.224457
113.782265 37.734772 -0.000007 0.213016
112.577644 37.314869 -0.000006 0.218653
nan nan nan 0.000000
nan nan nan 0.000000
nan nan nan 0.000000
nan nan nan 0.000000
139.370819 46.386185 6.172686 0.432471
139.412125 46.400261 4.977661 0.643732
139.412125 46.400261 3.784041 0.792935
139.385818 46.391296 2.593802 0.584710
139.385818 46.391296 1.406199 0.723400
139.385818 46.391296 0.217322 0.657771
128.126312 42.554436 -0.000025 0.235803
121.494164 40.294426 -0.000016 0.227162
117.800430 39.035728 -0.000012 0.231877
115.442314 38.232162 -0.000009 0.228969
113.803329 37.673653 -0.000007 0.241595
112.595810 37.262169 -0.000006 0.247208
nan nan nan 0.000000
nan nan nan 0.000000
nan nan nan 0.000000
nan nan nan 0.000000
139.370819 46.119293 6.162884 0.462745
139.412125 46.133049 4.970666 0.656458
139.412125 46.133049 3.779850 0.720348
139.385834 46.124290 2.592407 0.609339
139.385834 46.124290 1.407594 0.698116
139.385834 46.124290 0.221510 0.721569
128.180679 42.393059 -0.000025 0.235875
121.532913 40.179405 -0.000017 0.213411
117.830482 38.946526 -0.000012 0.227150
115.466812 38.159439 -0.000009 0.255382
113.823975 37.612389 -0.000008 0.237981
112.613602 37.209343 -0.000006 0.199636
nan nan nan 0.000000
nan nan nan 0.000000
nan nan nan 0.000000
nan nan nan 0.000000
139.370819 45.853645 6.153330 0.397681
139.412140 45.867081 4.963849 0.690196
139.412125 45.867077 3.775766 0.750500
139.385834 45.858524 2.591046 0.630289
139.385834 45.858524 1.408953 0.600961
139.385834 45.858521 0.225592 0.650309
128.233917 42.231312 -0.000025 0.230944
121.570862 40.064117 -0.000017 0.214320
117.859917 38.857117 -0.000012 0.252199
115.490799 38.086552 -0.000010 0.219072
113.844177 37.550980 -0.000007 0.209856
112.631027 37.156395 -0.000006 0.231279
nan nan nan 0.000000
nan nan nan 0.000000
nan nan nan 0.000000
nan nan nan 0.000000
139.370819 45.589195 6.144022 0.406119
139.412140 45.602310 4.957206 0.720928
139.412140 45.602310 3.771787 0.687694
139.385834 45.593956 2.589723 0.572427
139.385834 45.593956 1.410278 0.619654
139.385818 45.593956 0.229569 0.619791
128.286011 42.069187 -0.000024 0.218210
121.608002 39.948570 -0.000017 0.215254
117.888710 38.767502 -0.000012 0.200115
115.514282 38.013493 -0.000010 0.216319
113.863960 37.489433 -0.000008 0.235336
112.648087 37.103329 -0.000007 0.236030
nan nan nan 0.000000
nan nan nan 0.000000
nan nan nan 0.000000
nan nan nan 0.000000
139.370819 45.325912 6.134955 0.396429
139.412125 45.338715 4.950736 0.647456
139.412140 45.338718 3.767910 0.662348
139.385834 45.330566 2.588432 0.616327
139.385834 45.330566 1.411568 0.553521
139.385834 45.330566 0.233442 0.525979
128.336990 41.906708 -0.000025 0.233888
121.644325 39.832760 -0.000017 0.225582
117.916893 38.677689 -0.000012 0.219419
115.537247 37.940277 -0.000010 0.230106
113.883316 37.427750 -0.000008 0.254580
112.664772 37.050140 -0.000007 0.255669
nan nan nan 0.000000
nan nan nan 0.000000
nan nan nan 0.000000
nan nan nan 0.000000
139.370819 45.063774 6.126130 0.459312
139.412140 45.076263 4.944439 0.572885
139.412140 45.076260 3.764137 0.614130
139.385834 45.068314 2.587177 0.715526
139.385834 45.068314 1.412824 0.730373
139.385834 45.068310 0.237213 0.766979
128.386826 41.743877 -0.000025 0.225271
121.679848 39.716702 -0.000017 0.238759
117.944443 38.587681 -0.000013 0.200246
115.559708 37.866898 -0.000010 0.221860
113.902237 37.365929 -0.000008 0.198260
112.681084 36.996841 -0.000006 0.233577
nan nan nan 0.000000
nan nan nan 0.000000
nan nan nan 0.000000
nan nan nan 0.000000
139.370819 44.802734 6.117541 0.468452
139.412140 44.814907 4.938310 0.578775
139.412140 44.814907 3.760465 0.698482
139.385818 44.807156 2.585954 0.702647
139.385818 44.807156 1.414046 0.750210
139.385818 44.807156 0.240883 0.683528
128.435516 41.580700 -0.000025 0.220173
121.714561 39.600399 -0.000017 0.241176
117.971359 38.497482 -0.000013 0.229627
115.581657 37.793369 -0.000010 0.230992
113.920723 37.303982 -0.000008 0.239465
112.697029 36.943424 -0.000006 0.258637
nan nan nan 0.000000
nan nan nan 0.000000
nan nan nan 0.000000
nan nan nan 0.000000
139.412125 44.554626 6.114132 0.583124
139.412140 44.554630 4.932350 0.610666
139.412140 44.554626 3.756894 0.549020
139.385818 44.547073 2.584766 0.658885
139.385818 44.547073 1.415235 0.733577
139.385818 44.547073 0.244451 0.672923
128.483078 41.417191 -0.000025 0.227617
121.748459 39.483856 -0.000017 0.221417
117.997650 38.407101 -0.000013 0.229579
115.603088 37.719685 -0.000010 0.227569
113.938782 37.241905 -0.000008 0.223751
112.712593 36.889900 -0.000007 0.205392
nan nan nan 0.000000
nan nan nan 0.000000
nan nan nan 0.000000
nan nan nan 0.000000
139.412125 44.295387 6.106004 0.675212
139.467117 44.310764 4.931237 0.800992
139.412140 44.295395 3.753423 0.611765
139.385834 44.288040 2.583610 0.678431
139.432831 44.301178 1.415591 0.784314
139.385818 44.288036 0.247919 0.640650
128.529510 41.253349 -0.000025 0.248704
121.781540 39.367081 -0.000017 0.231004
118.023308 38.316536 -0.000013 0.237119
115.624001 37.645855 -0.000010 0.202604
113.956398 37.179707 -0.000008 0.235611
112.727791 36.836269 -0.000006 0.199408
nan nan nan 0.000000
nan nan nan 0.000000
nan nan nan 0.000000
nan nan nan 0.000000
139.412140 44.037163 6.098106 0.594827
139.516113 44.065453 4.929763 0.807843
139.412140 44.037167 3.750051 0.715404
139.385818 44.030006 2.582487 0.610178
139.432831 44.042793 1.416716 0.796811
139.385834 44.030006 0.251289 0.672801
128.574768 41.089191 -0.000025 0.229567
121.813812 39.250076 -0.000017 0.222770
118.048332 38.225796 -0.000013 0.252665
115.644402 37.571880 -0.000010 0.259332
113.973587 37.117386 -0.000008 0.212082
112.742607 36.782536 -0.000006 0.220460
nan nan nan 0.000000
nan nan nan 0.000000
nan nan nan 0.000000
nan nan nan 0.000000
139.412125 43.779915 6.090437 0.682872
139.516129 43.807426 4.924281 0.807843
139.412140 43.779919 3.746776 0.638926
139.385818 43.772957 2.581398 0.669474
139.385834 43.772961 1.418602 0.671901
139.385818 43.772957 0.254561 0.685405
128.618896 40.924721 -0.000025 0.243223
121.845253 39.132851 -0.000017 0.236868
118.072723 38.134880 -0.000013 0.210922
115.664284 37.497765 -0.000010 0.255466
113.990341 37.054943 -0.000008 0.214991
112.757050 36.728695 -0.000007 0.188829
nan nan nan 0.000000
nan nan nan 0.000000
nan nan nan 0.000000
nan nan nan 0.000000
139.412125 43.523613 6.082997 0.565164
139.516129 43.550350 4.918962 0.807843
139.412140 43.523613 3.743598 0.662806
139.385834 43.516853 2.580340 0.570993
139.385834 43.516857 1.419660 0.681147
139.385818 43.516850 0.257736 0.694911
128.661865 40.759941 -0.000025 0.224828
121.875885 39.015408 -0.000017 0.233505
118.096474 38.043797 -0.000013 0.236150
115.683647 37.423512 -0.000010 0.240614
114.006653 36.992390 -0.000008 0.276278
112.771118 36.674759 -0.000007 0.280682
nan nan nan 0.000000
nan nan nan 0.000000
nan nan nan 0.000000
nan nan nan 0.000000
139.412140 43.268234 6.075782 0.653407
139.412125 43.268234 4.905014 0.683024
139.412140 43.268234 3.740516 0.710292
139.385834 43.261669 2.579314 0.605081
139.385834 43.261669 1.420686 0.740337
139.385834 43.261669 0.260815 0.721767
128.703690 40.594872 -0.000025 0.233409
121.905693 38.897755 -0.000017 0.223404
118.119598 37.952553 -0.000013 0.227832
115.702499 37.349125 -0.000010 0.202185
114.022530 36.929722 -0.000008 0.203047
112.784813 36.620724 -0.000007 0.227282
nan nan nan 0.000000
nan nan nan 0.000000
nan nan nan 0.000000
nan nan nan 0.000000
139.412125 43.013741 6.068788 0.703349
139.412140 43.013741 4.900031 0.631418
139.412140 43.013741 3.737531 0.776440
139.385834 43.007370 2.578320 0.624247
139.385834 43.007370 1.421679 0.677073
139.385818 43.007370 0.263799 0.776654
128.744354 40.429512 -0.000025 0.244324
121.934685 38.779892 -0.000017 0.221214
118.142075 37.861149 -0.000013 0.221214
115.720825 37.274609 -0.000010 0.203262
114.037971 36.866943 -0.000008 0.208181
112.798119 36.566593 -0.000007 0.191007
nan nan nan 0.000000
nan nan nan 0.000000
nan nan nan 0.000000
nan nan nan 0.000000
139.412125 42.760101 6.062017 0.709987
139.412125 42.760105 4.895205 0.679469
139.412140 42.760105 3.734640 0.735241
139.385834 42.753929 2.577358 0.626871
139.385834 42.753929 1.422642 0.605753
139.385818 42.753925 0.266688 0.618662
128.783875 40.263870 -0.000025 0.226947
121.962845 38.661835 -0.000017 0.226217
118.163918 37.769588 -0.000013 0.238448
115.738632 37.199966 -0.000010 0.237993
114.052971 36.804058 -0.000008 0.220268
112.811058 36.512375 -0.000007 0.257010
nan nan nan 0.000000
nan nan nan 0.000000
nan nan nan 0.000000
nan nan nan 0.000000
139.412140 42.507305 6.055469 0.673350
139.412125 42.507301 4.890536 0.732250
139.412140 42.507301 3.731842 0.711589
139.385834 42.501320 2.576427 0.689494
139.385834 42.501320 1.423573 0.668910
139.385834 42.501320 0.269483 0.673045
128.822235 40.097961 -0.000026 0.218354
121.990189 38.543583 -0.000018 0.215086
118.185120 37.677879 -0.000013 0.204938
115.755920 37.125202 -0.000010 0.197218
114.067535 36.741074 -0.000008 0.287947
112.823616 36.458065 -0.000007 0.254377
nan nan nan 0.000000
nan nan nan 0.000000
nan nan nan 0.000000
nan nan nan 0.000000
139.412125 42.255299 6.049135 0.734066
139.467133 42.267410 4.890639 0.786343
139.412140 42.255302 3.729138 0.704906
139.385834 42.249512 2.575526 0.613108
139.385834 42.249512 1.424473 0.586343
139.385834 42.249512 0.272185 0.698497
128.859436 39.931786 -0.000026 0.238376
122.016701 38.425140 -0.000018 0.229615
118.205681 37.586021 -0.000013 0.220795
115.772682 37.050320 -0.000010 0.206685
114.081657 36.677986 -0.000008 0.259703
112.835793 36.403667 -0.000007 0.218629
nan nan nan 0.000000
nan nan nan 0.000000
nan nan nan 0.000000
nan nan nan 0.000000
139.412125 42.004070 6.043019 0.709804
139.516113 42.026207 4.890381 0.807843
139.412140 42.004074 3.726525 0.661723
139.385834 41.998474 2.574657 0.692958
139.385834 41.998474 1.425343 0.736538
139.385834 41.998474 0.274795 0.691020
128.895477 39.765354 -0.000026 0.222794
122.042389 38.306519 -0.000018 0.225211
118.225601 37.494026 -0.000013 0.214464
115.788918 36.975319 -0.000010 0.247807
114.095337 36.614803 -0.000009 0.198248
112.847588 36.349190 -0.000007 0.228754
nan nan nan 0.000000
nan nan nan 0.000000
nan nan nan 0.000000
nan nan nan 0.000000
139.412140 41.753593 6.037118 0.634928
139.516113 41.774967 4.886160 0.807843
139.412140 41.753593 3.724006 0.725612
139.385834 41.748184 2.573818 0.696086
139.385834 41.748184 1.426181 0.757290
139.385834 41.748184 0.277313 0.718608
128.930344 39.598679 -0.000026 0.217803
122.067245 38.187717 -0.000018 0.214356
118.244873 37.401890 -0.000013 0.199600
115.804642 36.900211 -0.000011 0.220807
114.108582 36.551525 -0.000009 0.204375
112.859001 36.294628 -0.000007 0.200593
nan nan nan 0.000000
nan nan nan 0.000000
nan nan nan 0.000000
nan nan nan 0.000000
139.412125 41.503826 6.031429 0.690929
139.412125 41.503826 4.873403 0.580392
139.412140 41.503830 3.721576 0.572137
139.385834 41.498611 2.573010 0.664836
139.385834 41.498611 1.426990 0.753491
139.385834 41.498611 0.279741 0.765011
128.964066 39.431763 -0.000026 0.224804
122.091270 38.068748 -0.000018 0.239261
118.263519 37.309628 -0.000014 0.211939
115.819824 36.824993 -0.000010 0.210766
114.121376 36.488155 -0.000009 0.241942
112.870041 36.239990 -0.000007 0.234618
nan nan nan 0.000000
nan nan nan 0.000000
nan nan nan 0.000000
nan nan nan 0.000000
139.412125 41.254753 6.025953 0.649149
139.412125 41.254753 4.869498 0.715877
139.412140 41.254753 3.719237 0.627665
139.385834 41.249725 2.572231 0.678431
139.385834 41.249725 1.427768 0.679301
139.385834 41.249729 0.282076 0.635294
128.996613 39.264614 -0.000026 0.227425
122.114471 37.949612 -0.000018 0.218497
118.281502 37.217232 -0.000013 0.239884
115.834496 36.749672 -0.000011 0.237179
114.133728 36.424698 -0.000009 0.200964
112.880692 36.185276 -0.000007 0.276338
nan nan nan 0.000000
nan nan nan 0.000000
nan nan nan 0.000000
nan nan nan 0.000000
139.412125 41.006344 6.020689 0.764340
139.412125 41.006340 4.865746 0.717037
139.412125 41.006344 3.716990 0.671229
139.385834 41.001507 2.571484 0.625986
139.385834 41.001507 1.428516 0.728542
139.385834 41.001507 0.284324 0.707225
129.027985 39.097240 -0.000026 0.221896
122.136826 37.830318 -0.000018 0.226779
118.298843 37.124714 -0.000014 0.231052
115.848633 36.674248 -0.000011 0.233744
114.145645 36.361156 -0.000009 0.212681
112.890961 36.130489 -0.000008 0.241033
nan nan nan 0.000000
nan nan nan 0.000000
nan nan nan 0.000000
nan nan nan 0.000000
139.412125 40.758568 6.015632 0.730388
139.412125 40.758568 4.862143 0.687755
139.412125 40.758568 3.714830 0.567987
139.385834 40.753922 2.570764 0.645731
139.385834 40.753922 1.429235 0.678431
139.385834 40.753922 0.286481 0.690196
129.058182 38.929653 -0.000025 0.227270
122.158363 37.710873 -0.000018 0.222028
118.315544 37.032078 -0.000014 0.230094
115.862244 36.598728 -0.000011 0.195950
114.157104 36.297535 -0.000009 0.230992
112.900848 36.075630 -0.000007 0.202305
nan nan nan 0.000000
nan nan nan 0.000000
nan nan nan 0.000000
nan nan nan 0.000000
139.412125 40.511406 6.010784 0.655039
139.412125 40.511406 4.858687 0.617761
139.412125 40.511406 3.712759 0.618997
139.385834 40.506950 2.570076 0.587472
139.385834 40.506950 1.429924 0.702281
139.385834 40.506950 0.288550 0.698039
129.087219 38.761860 -0.000026 0.225893
122.179054 37.591278 -0.000018 0.240686
118.331589 36.939327 -0.000014 0.253013
115.875328 36.523117 -0.000011 0.242098
114.168137 36.233833 -0.000009 0.221046
112.910355 36.020702 -0.000007 0.208408
nan nan nan 0.000000
nan nan nan 0.000000
nan nan nan 0.000000
nan nan nan 0.000000
139.412125 40.264828 6.006142 0.625513
139.412125 40.264828 4.855380 0.645274
139.412125 40.264828 3.710777 0.660822
139.385834 40.260559 2.569416 0.595071
139.385834 40.260559 1.430584 0.727382
139.385834 40.260559 0.290531 0.735622
129.115082 38.593868 -0.000026 0.230956
122.198914 37.471542 -0.000018 0.211592
118.346992 36.846470 -0.000014 0.210215
115.887878 36.447414 -0.000011 0.255334
114.178711 36.170055 -0.000009 0.226540
112.919472 35.965714 -0.000008 0.208839
nan nan nan 0.000000
nan nan nan 0.000000
nan nan nan 0.000000
nan nan nan 0.000000
139.686340 40.061340 6.033628 0.693401
139.686340 40.061344 4.874969 0.705898
139.686340 40.061340 3.722514 0.651865
139.385834 40.014729 2.568785 0.626093
139.385834 40.014729 1.431215 0.668788
139.385834 40.014729 0.292423 0.776471
129.141769 38.425686 -0.000026 0.241176
122.217941 37.351669 -0.000018 0.228024
118.361748 36.753502 -0.000014 0.219538
115.899910 36.371628 -0.000011 0.209641
114.188843 36.106209 -0.000009 0.204722
112.928207 35.910660 -0.000007 0.254784
nan nan nan 0.000000
nan nan nan 0.000000
nan nan nan 0.000000
nan nan nan 0.000000
141.358414 40.061325 6.223814 0.446754
142.671310 40.255604 5.119349 0.807843
142.164032 40.180538 3.843740 0.757931
139.385834 39.769428 2.568183 0.629740
139.385834 39.769428 1.431816 0.626200
139.385834 39.769428 0.294229 0.592920
129.167282 38.257320 -0.000026 0.226851
122.236130 37.231667 -0.000018 0.225857
118.375854 36.660439 -0.000014 0.214189
115.911407 36.295757 -0.000011 0.222076
114.198532 36.042290 -0.000009 0.202221
112.936562 35.855549 -0.000008 0.213794
nan nan nan 0.000000
nan nan nan 0.000000
nan nan nan 0.000000
nan nan nan 0.000000
nan nan nan 0.000000
143.797211 40.145977 5.209435 0.800580
143.797211 40.145977 3.922908 0.788113
139.385818 39.524632 2.567611 0.630259
139.385818 39.524632 1.432389 0.652003
139.385834 39.524635 0.295948 0.731273
129.191620 38.088779 -0.000026 0.231650
122.253479 37.111542 -0.000019 0.232978
118.389305 36.567276 -0.000014 0.211484
115.922379 36.219807 -0.000011 0.272077
114.207771 35.978306 -0.000009 0.216726
112.944534 35.800377 -0.000008 0.270234
nan nan nan 0.000000
nan nan nan 0.000000
nan nan nan 0.000000
nan nan nan 0.000000
nan nan nan 0.000000
145.226212 40.061394 5.324575 0.646601
145.226227 40.061394 3.991893 0.678904
139.385818 39.280315 2.567068 0.677150
139.385818 39.280315 1.432932 0.602289
139.385818 39.280315 0.297581 0.769833
129.214783 37.920074 -0.000026 0.239908
122.269981 36.991295 -0.000019 0.224912
118.402115 36.474018 -0.000014 0.214799
115.932816 36.143784 -0.000011 0.275680
114.216568 35.914257 -0.000009 0.189583
112.952110 35.745152 -0.000008 0.241464
nan nan nan 0.000000
nan nan nan 0.000000
nan nan nan 0.000000
nan nan nan 0.000000
nan nan nan 0.000000
148.233368 40.156887 5.570096 0.764035
148.233368 40.156891 4.138996 0.811902
139.385834 39.036461 2.566552 0.652567
139.385834 39.036461 1.433447 0.729290
139.385834 39.036461 0.299127 0.749920
129.236771 37.751209 -0.000026 0.227078
122.285652 36.870941 -0.000018 0.224673
118.414261 36.380676 -0.000014 0.225247
115.942719 36.067688 -0.000011 0.258278
114.224915 35.850151 -0.000010 0.207200
112.959312 35.689877 -0.000008 0.271431
nan nan nan 0.000000
nan nan nan 0.000000
nan nan nan 0.000000
nan nan nan 0.000000
nan nan nan 0.000000
150.574585 40.130653 5.760367 0.661585
150.574600 40.130653 4.252994 0.681529
139.385834 38.793034 2.566065 0.665400
139.385834 38.793034 1.433934 0.739086
139.385834 38.793034 0.300588 0.795590
129.257568 37.582199 -0.000026 0.230513
122.300476 36.750477 -0.000018 0.229699
118.425766 36.287254 -0.000014 0.235516
115.952095 35.991528 -0.000011 0.268595
114.232811 35.785988 -0.000009 0.220424
112.966118 35.634552 -0.000008 0.245066
nan nan nan 0.000000
nan nan nan 0.000000
nan nan nan 0.000000
nan nan nan 0.000000
nan nan nan 0.000000
153.575272 40.145969 6.004916 0.775692
153.766281 40.167450 4.408956 0.790448
139.385834 38.550014 2.565608 0.691691
139.385834 38.550014 1.434392 0.674296
139.385834 38.550014 0.301964 0.769894
129.277191 37.413044 -0.000026 0.237191
122.314468 36.629913 -0.000018 0.223990
118.436615 36.193752 -0.000014 0.265304
115.960945 35.915302 -0.000011 0.200761
114.240265 35.721767 -0.000010 0.170877
112.972542 35.579182 -0.000008 0.271156
115.637497 35.804047 4.669722 0.803143
115.637497 35.804047 4.301935 0.839216
115.637497 35.804047 3.939312 0.839216
115.637497 35.804047 3.580984 0.839216
115.637497 35.804047 3.226119 0.839216
115.637497 35.804047 2.873917 0.839216
115.637497 35.804047 2.523600 0.839216
115.637497 35.804047 2.174408 0.839216
115.637497 35.804047 1.825591 0.803326
115.637497 35.804047 1.476400 0.655360
115.637497 35.804047 1.126083 0.533730
115.637497 35.804047 0.773882 0.661906
115.637497 35.804047 0.419016 0.911559
115.637497 35.804047 0.060688 0.839216
114.247261 35.657501 -0.000009 0.232619
112.978577 35.523769 -0.000008 0.206482
115.637497 35.729282 4.667824 0.810910
115.637497 35.729282 4.300299 0.839216
115.637497 35.729282 3.937933 0.839216
115.637497 35.729282 3.579860 0.839216
115.637497 35.729282 3.225247 0.839216
115.637497 35.729282 2.873295 0.839216
115.637497 35.729282 2.523228 0.839216
115.637497 35.729279 2.174284 0.839216
115.637497 35.729279 1.825715 0.805844
115.637497 35.729279 1.476772 0.663294
115.637497 35.729279 1.126705 0.790127
115.637497 35.729279 0.774753 0.714397
115.637497 35.729279 0.420141 0.910475
115.637497 35.729279 0.062067 0.839216
114.253815 35.593185 -0.000009 0.235922
112.984230 35.468315 -0.000008 0.262623
115.637497 35.654617 4.666058 0.553094
115.637497 35.654617 4.298777 0.839216
115.637497 35.654617 3.936651 0.839216
115.637497 35.654617 3.578814 0.839216
115.637497 35.654617 3.224436 0.839216
115.637497 35.654617 2.872717 0.839216
115.637497 35.654617 2.522881 0.839216
115.637497 35.654617 2.174169 0.839216
115.637497 35.654617 1.825831 0.803326
115.637497 35.654617 1.477118 0.627741
115.637497 35.654617 1.127283 0.779126
115.637497 35.654617 0.775564 0.540658
115.637497 35.654617 0.421186 0.894118
115.637497 35.654617 0.063350 0.839216
114.259918 35.528828 -0.000010 0.236234
112.989494 35.412819 -0.000008 0.251612
115.637497 35.580048 4.664424 0.554101
115.637497 35.580048 4.297368 0.839216
115.637497 35.580048 3.935464 0.839216
115.637497 35.580048 3.577847 0.839216
115.637497 35.580048 3.223686 0.839216
115.637497 35.580048 2.872182 0.839216
115.637497 35.580048 2.522561 0.839216
115.637497 35.580048 2.174062 0.839216
115.637497 35.580048 1.825937 0.795560
115.637497 35.580048 1.477439 0.663294
115.637497 35.580048 1.127817 0.770336
115.637497 35.580048 0.776314 0.558892
115.637497 35.580048 0.422154 0.811765
115.637497 35.580048 0.064536 0.839216
114.265572 35.464424 -0.000010 0.223260
112.994370 35.357292 -0.000008 0.196129
115.637497 35.505569 4.662922 0.554101
115.637497 35.505569 4.296072 0.839216
115.637497 35.505569 3.934373 0.839216
115.637497 35.505569 3.576957 0.839216
115.637497 35.505569 3.222996 0.839216
115.637497 35.505569 2.871691 0.839216
115.637497 35.505569 2.522267 0.812009
115.637497 35.505569 2.173965 0.839216
115.637497 35.505569 1.826035 0.801801
115.637497 35.505569 1.477733 0.839216
115.637497 35.505569 1.128309 0.779721
115.637497 35.505569 0.777004 0.552209
115.637489 35.505566 0.423043 0.814343
115.637497 35.505569 0.065627 0.839216
114.270775 35.399986 -0.000010 0.230405
112.998856 35.301731 -0.000008 0.220424
115.637497 35.431168 4.661552 0.454154
115.637497 35.431168 4.294891 0.775280
115.637497 35.431168 3.933377 0.769955
115.637497 35.431168 3.576146 0.764721
115.637497 35.431168 3.222366 0.763317
115.637497 35.431168 2.871242 0.762036
115.637497 35.431168 2.521998 0.730602
115.637497 35.431168 2.173875 0.766079
115.637497 35.431168 1.826125 0.730663
115.637497 35.431168 1.478002 0.760006
115.637497 35.431168 1.128758 0.662989
115.637497 35.431168 0.777634 0.450477
115.637497 35.431168 0.423855 0.813596
115.637497 35.431168 0.066623 0.839216
114.275528 35.335514 -0.000010 0.198583
113.002960 35.246140 -0.000009 0.232512
115.637497 35.356838 4.660313 0.554101
115.637497 35.356838 4.293822 0.839216
115.637497 35.356838 3.932477 0.905882
115.637497 35.356838 3.575412 0.839216
115.637497 35.356838 3.221798 0.839216
115.637497 35.356838 2.870836 0.839216
115.637497 35.356838 2.521755 0.813138
115.637497 35.356838 2.173794 0.905882
115.637497 35.356838 1.826206 0.801801
115.637497 35.356838 1.478245 0.839216
115.637497 35.356838 1.129164 0.779141
115.637497 35.356838 0.778203 0.486183
115.637497 35.356838 0.424589 0.587655
115.637497 35.356838 0.067524 0.821820
114.279831 35.271008 -0.000010 0.222315
113.006668 35.190521 -0.000009 0.209701
115.637497 35.282578 4.659203 0.554101
115.637497 35.282578 4.292866 0.839216
115.637497 35.282578 3.931672 0.905882
115.637497 35.282578 3.574755 0.839216
115.637497 35.282578 3.221288 0.839216
115.637497 35.282578 2.870473 0.839216
115.637497 35.282578 2.521537 0.813138
115.637497 35.282578 2.173722 0.905882
115.637497 35.282578 1.826278 0.802945
115.637497 35.282578 1.478463 0.839216
115.637497 35.282578 1.129526 0.779141
115.637497 35.282578 0.778712 0.485298
115.637489 35.282578 0.425245 0.612604
115.637489 35.282578 0.068329 0.821820
114.283691 35.206478 -0.000010 0.240075
113.009987 35.134880 -0.000008 0.188913
115.637497 35.208374 4.658226 0.543999
115.637497 35.208374 4.292023 0.839216
115.637497 35.208374 3.930961 0.905882
115.637497 35.208374 3.574176 0.839216
115.637497 35.208374 3.220839 0.839216
115.637497 35.208374 2.870153 0.839216
115.637497 35.208374 2.521345 0.805753
115.637497 35.208374 2.173658 0.905882
115.637497 35.208374 1.826342 0.787335
115.637497 35.208374 1.478655 0.839216
115.637497 35.208374 1.129847 0.761364
115.637497 35.208374 0.779161 0.436637
115.637497 35.208374 0.425825 0.475578
115.637497 35.208374 0.069039 0.637079
114.287094 35.141918 -0.000010 0.190899
113.012924 35.079212 -0.000009 0.247268
115.637497 35.134220 4.657377 0.787655
115.637497 35.134220 4.291290 0.839216
115.637497 35.134220 3.930345 0.905882
115.637497 35.134220 3.573673 0.839216
115.637497 35.134220 3.220449 0.839216
115.637497 35.134220 2.869875 0.839216
115.637497 35.134220 2.521179 0.805753
115.637497 35.134220 2.173602 0.905882
115.637497 35.134220 1.826398 0.805844
115.637497 35.134220 1.478821 0.839216
115.637497 35.134220 1.130124 0.769970
115.637497 35.134220 0.779551 0.500221
115.637497 35.134220 0.426327 0.659724
115.637497 35.134220 0.069656 0.776471
114.290039 35.077335 -0.000010 0.218617
113.015472 35.023529 -0.000009 0.234187
115.637497 35.060112 4.656659 0.785122
115.637497 35.060112 4.290671 0.839216
115.637497 35.060112 3.929822 0.905882
115.637497 35.060112 3.573248 0.839216
115.637497 35.060112 3.220119 0.839216
115.637497 35.060112 2.869640 0.839216
115.637497 35.060112 2.521038 0.805310
115.637497 35.060112 2.173555 0.905882
115.637497 35.060112 1.826445 0.805249
115.637497 35.060112 1.478962 0.839216
115.637497 35.060112 1.130359 0.771466
115.637497 35.060112 0.779881 0.516884
115.637497 35.060112 0.426752 0.646128
115.637497 35.060112 0.070178 0.776471
114.292542 35.012737 -0.000010 0.220364
113.017624 34.967831 -0.000008 0.227641
115.637497 34.986038 4.656071 0.724910
115.637497 34.986038 4.290164 0.839216
115.637497 34.986038 3.929395 0.839216
115.637497 34.986038 3.572899 0.923278
115.637497 34.986038 3.219849 0.905882
115.637497 34.986038 2.869448 0.839216
115.637497 34.986038 2.520922 0.804334
115.637497 34.986038 2.173517 0.839216
115.637497 34.986038 1.826483 0.803326
115.637497 34.986038 1.479077 0.839216
115.637497 34.986038 1.130552 0.850874
115.637497 34.986038 0.780151 0.487129
115.637497 34.986038 0.427101 0.614008
115.637497 34.986038 0.070605 0.763424
114.294594 34.948120 -0.000010 0.275668
113.019394 34.912113 -0.000008 0.260756
115.637497 34.911995 4.655612 0.731151
115.637497 34.911995 4.289769 0.839216
115.637497 34.911995 3.929062 0.839216
115.637497 34.911995 3.572628 0.905882
115.637497 34.911995 3.219639 0.905882
115.637497 34.911995 2.869298 0.839216
115.637497 34.911995 2.520833 0.805753
115.637497 34.911995 2.173487 0.839216
115.637497 34.911995 1.826513 0.806867
115.637497 34.911995 1.479167 0.839216
115.637497 34.911995 1.130702 0.817395
115.637497 34.911995 0.780362 0.516823
115.637497 34.911995 0.427372 0.610330
115.637497 34.911995 0.070938 0.763424
114.296196 34.883492 -0.000010 0.239728
113.020775 34.856388 -0.000009 0.207068
115.637497 34.837975 4.655282 0.731151
115.637497 34.837975 4.289485 0.839216
115.637497 34.837975 3.928823 0.839216
115.637497 34.837975 3.572433 0.905882
115.637497 34.837975 3.219488 0.905882
115.637497 34.837975 2.869190 0.839216
115.637497 34.837975 2.520768 0.807157
115.637497 34.837975 2.173465 0.839216
115.637497 34.837975 1.826535 0.803326
115.637497 34.837975 1.479232 0.839216
115.637497 34.837975 1.130810 0.814542
115.637497 34.837975 0.780513 0.541207
115.637489 34.837975 0.427568 0.619898
115.637497 34.837975 0.071177 0.811276
114.297340 34.818855 -0.000010 0.235240
113.021767 34.800655 -0.000009 0.232631
115.637497 34.763969 4.655083 0.731151
115.637497 34.763969 4.289312 0.839216
115.637497 34.763969 3.928678 0.839216
115.637497 34.763969 3.572315 0.905882
115.637497 34.763969 3.219395 0.905882
115.637497 34.763969 2.869124 0.839216
115.637497 34.763969 2.520729 0.810330
115.637497 34.763969 2.173452 0.839216
115.637497 34.763969 1.826548 0.797757
115.637497 34.763969 1.479271 0.839216
115.637497 34.763969 1.130876 0.812802
115.637497 34.763969 0.780605 0.553460
115.637497 34.763969 0.427686 0.599084
115.637497 34.763969 0.071323 0.839216
114.298042 34.754211 -0.000010 0.217923
113.022362 34.744919 -0.000009 0.230764
115.637497 34.689968 4.655012 0.730266
115.637497 34.689968 4.289251 0.839216
115.637497 34.689968 3.928627 0.839216
115.637497 34.689968 3.572273 0.905882
115.637497 34.689968 3.219363 0.905882
115.637497 34.689968 2.869102 0.839216
115.637497 34.689968 2.520715 0.810330
115.637497 34.689968 2.173448 0.839216
115.637497 34.689968 1.826552 0.802945
115.637497 34.689968 1.479285 0.839216
115.637497 34.689968 1.130898 0.820706
115.637497 34.689968 0.780637 0.565042
115.637497 34.689968 0.427727 0.629938
115.637497 34.689968 0.071373 0.839216
114.298286 34.689564 -0.000010 0.255083
113.022575 34.689178 -0.000008 0.193209
115.637497 34.615971 4.655071 0.546654
115.637497 34.615971 4.289303 0.722133
115.637497 34.615971 3.928669 0.711315
115.637497 34.615971 3.572308 0.750820
115.637497 34.615971 3.219390 0.779431
115.637497 34.615971 2.869121 0.687434
115.637497 34.615971 2.520726 0.653849
115.637497 34.615971 2.173452 0.692454
115.637497 34.615971 1.826548 0.623270
115.637497 34.615971 1.479273 0.684901
115.637489 34.615971 1.130879 0.601144
115.637497 34.615971 0.780610 0.425544
115.637497 34.615971 0.427692 0.614008
115.637497 34.615971 0.071331 0.839216
114.298080 34.624916 -0.000010 0.224888
113.022400 34.633434 -0.000009 0.199325
115.637497 34.541965 4.655260 0.787655
115.637497 34.541965 4.289465 0.905882
115.637497 34.541965 3.928806 0.905882
115.637497 34.541965 3.572420 0.839216
115.637497 34.541965 3.219477 0.839216
115.637497 34.541965 2.869183 0.839216
115.637497 34.541965 2.520764 0.810330
115.637497 34.541965 2.173464 0.776471
115.637497 34.541965 1.826536 0.801801
115.637497 34.541965 1.479236 0.839216
115.637497 34.541965 1.130818 0.835538
115.637497 34.541965 0.780523 0.553033
115.637497 34.541965 0.427581 0.660609
115.637497 34.541965 0.071194 0.839216
114.297424 34.560268 -0.000010 0.187788
113.021828 34.577694 -0.000009 0.187177
115.637497 34.467945 4.655578 0.788663
115.637497 34.467945 4.289740 0.905882
115.637497 34.467945 3.929038 0.905882
115.637497 34.467945 3.572608 0.839216
115.637497 34.467945 3.219623 0.839216
115.637497 34.467945 2.869287 0.839216
115.637497 34.467945 2.520826 0.810330
115.637497 34.467945 2.173485 0.776471
115.637497 34.467945 1.826515 0.801801
115.637497 34.467945 1.479174 0.839216
115.637497 34.467945 1.130713 0.812802
115.637497 34.467945 0.780377 0.565347
115.637497 34.467945 0.427392 0.667338
115.637497 34.467945 0.070963 0.839216
114.296310 34.495632 -0.000010 0.217360
113.020874 34.521961 -0.000009 0.252654
115.637497 34.393902 4.656025 0.788663
115.637497 34.393902 4.290126 0.905882
115.637497 34.393902 3.929363 0.905882
115.637497 34.393902 3.572873 0.839216
115.637497 34.393902 3.219829 0.839216
115.637497 34.393902 2.869433 0.815839
115.637497 34.393902 2.520914 0.810483
115.637497 34.393906 2.173514 0.776471
115.637497 34.393906 1.826486 0.790646
115.637497 34.393906 1.479086 0.839216
115.637497 34.393906 1.130567 0.801373
115.637497 34.393906 0.780172 0.478584
115.637497 34.393906 0.427128 0.467903
115.637497 34.393906 0.070638 0.784619
114.294754 34.431004 -0.000010 0.254616
113.019531 34.466236 -0.000009 0.240183
115.637497 34.319832 4.656603 0.787655
115.637497 34.319832 4.290623 0.905882
115.637497 34.319832 3.929781 0.905882
115.637497 34.319832 3.573215 0.839216
115.637497 34.319832 3.220093 0.839216
115.637497 34.319832 2.869622 0.815839
115.637497 34.319832 2.521027 0.821958
115.637497 34.319832 2.173552 0.776471
115.637497 34.319832 1.826448 0.805844
115.637497 34.319832 1.478973 0.839216
115.637497 34.319832 1.130378 0.820005
115.637497 34.319832 0.779907 0.564218
115.637497 34.319832 0.426786 0.632288
115.637497 34.319832 0.070218 0.839216
114.292740 34.366386 -0.000010 0.244467
113.017799 34.410519 -0.000009 0.267218
115.637497 34.245728 4.657310 0.784360
115.637497 34.245728 4.291232 0.905882
115.637497 34.245728 3.930295 0.905882
115.637497 34.245728 3.573633 0.839216
115.637497 34.245728 3.220418 0.839216
115.637497 34.245728 2.869853 0.800336
115.637497 34.245728 2.521166 0.822614
115.637497 34.245728 2.173598 0.776471
115.637497 34.245728 1.826402 0.803708
115.637497 34.245728 1.478834 0.839216
115.637497 34.245728 1.130146 0.829786
115.637497 34.245728 0.779582 0.569940
115.637497 34.245728 0.426367 0.694057
115.637497 34.245728 0.069705 0.839216
114.290283 34.301785 -0.000010 0.204016
113.015678 34.354820 -0.000009 0.224445
115.637497 34.171577 4.658147 0.546227
115.637497 34.171577 4.291954 0.839216
115.637497 34.171577 3.930903 0.839216
115.637497 34.171577 3.574129 0.776471
115.637497 34.171577 3.220802 0.811276
115.637497 34.171577 2.870127 0.927077
115.637497 34.171577 2.521330 0.753216
115.637497 34.171577 2.173652 0.839216
115.637497 34.171577 1.826348 0.800793
115.637497 34.171577 1.478670 0.905882
115.637497 34.171577 1.129873 0.782422
115.637497 34.171577 0.779198 0.489113
115.637489 34.171577 0.425872 0.608774
115.637489 34.171577 0.069097 0.839216
114.287369 34.237202 -0.000010 0.217755
113.013161 34.299133 -0.000009 0.206553
115.637497 34.097382 4.659113 0.555306
115.637497 34.097382 4.292789 0.839216
115.637497 34.097382 3.931606 0.839216
115.637497 34.097382 3.574702 0.776471
115.637497 34.097382 3.221247 0.752682
115.637497 34.097382 2.870444 0.905882
115.637497 34.097382 2.521519 0.756039
115.637497 34.097382 2.173716 0.839216
115.637497 34.097382 1.826284 0.805844
115.637497 34.097382 1.478480 0.905882
115.637497 34.097382 1.129556 0.793606
115.637497 34.097382 0.778754 0.487953
115.637497 34.097382 0.425299 0.683085
115.637497 34.097382 0.068394 0.839216
114.284004 34.172642 -0.000010 0.249685
113.010262 34.243465 -0.000009 0.244096
115.637497 34.023125 4.660211 0.557137
115.637497 34.023125 4.293735 0.839216
115.637497 34.023125 3.932403 0.839216
115.637497 34.023125 3.575352 0.776471
115.637497 34.023125 3.221751 0.746014
115.637497 34.023125 2.870803 0.919234
115.637497 34.023125 2.521735 0.748898
115.637497 34.023125 2.173787 0.839216
115.637497 34.023125 1.826213 0.803326
115.637497 34.023125 1.478265 0.905882
115.637497 34.023125 1.129197 0.771328
115.637497 34.023125 0.778249 0.492470
115.637497 34.023125 0.424649 0.578866
115.637497 34.023125 0.067598 0.839216
114.280190 34.108105 -0.000010 0.276027
113.006973 34.187820 -0.000009 0.196093
115.637497 33.948803 4.661439 0.557137
115.637497 33.948803 4.294793 0.839216
115.637497 33.948803 3.933295 0.839216
115.637497 33.948803 3.576078 0.776471
115.637497 33.948803 3.222315 0.746014
115.637497 33.948803 2.871205 0.905882
115.637497 33.948803 2.521976 0.760021
115.637497 33.948803 2.173868 0.839216
115.637497 33.948803 1.826133 0.803326
115.637497 33.948803 1.478024 0.905882
115.637497 33.948803 1.128795 0.780987
115.637497 33.948803 0.777685 0.487068
115.637497 33.948803 0.423922 0.810910
115.637497 33.948803 0.066705 0.839216
114.275925 34.043598 -0.000010 0.238101
113.003296 34.132202 -0.000010 0.189116
115.637497 33.874409 4.662798 0.556680
115.637497 33.874409 4.295965 0.839216
115.637497 33.874409 3.934282 0.839216
115.637497 33.874409 3.576884 0.776471
115.637497 33.874409 3.222939 0.746014
115.637497 33.874409 2.871650 0.905882
115.637497 33.874409 2.522242 0.756039
115.637497 33.874409 2.173956 0.839216
115.637497 33.874409 1.826044 0.805844
115.637497 33.874409 1.477758 0.905882
115.637497 33.874409 1.128350 0.764279
115.637497 33.874409 0.777061 0.502419
115.637497 33.874409 0.423116 0.819669
115.637497 33.874409 0.065717 0.839216
114.271210 33.979122 -0.000010 0.245461
112.999229 34.076607 -0.000009 0.242565
115.637497 33.799934 4.664288 0.502174
115.637497 33.799934 4.297250 0.798413
115.637497 33.799934 3.935365 0.805844
115.637497 33.799934 3.577766 0.743099
115.637497 33.799934 3.223624 0.761471
115.637497 33.799934 2.872138 0.868101
115.637497 33.799934 2.522535 0.743099
115.637497 33.799934 2.174054 0.805844
115.637497 33.799934 1.825946 0.766934
115.637489 33.799934 1.477466 0.603311
115.637497 33.799934 1.127861 0.732692
115.637489 33.799934 0.776377 0.469490
115.637497 33.799934 0.422234 0.810910
115.637489 33.799934 0.064635 0.839216
114.266045 33.914680 -0.000010 0.207511
112.994774 34.021042 -0.000009 0.190612
115.637497 33.725372 4.665910 0.555611
115.637497 33.725372 4.298649 0.839216
115.637497 33.725372 3.936544 0.839216
115.637497 33.725372 3.578727 0.839216
115.637497 33.725372 3.224369 0.839216
115.637497 33.725372 2.872669 0.839216
115.637497 33.725372 2.522852 0.839216
115.637497 33.725372 2.174160 0.776471
115.637497 33.725372 1.825840 0.805844
115.637497 33.725372 1.477147 0.664820
115.637497 33.725372 1.127331 0.785534
115.637497 33.725372 0.775632 0.565042
115.637497 33.725372 0.421273 0.808789
115.637497 33.725372 0.063456 0.839216
114.260429 33.850277 -0.000010 0.222734
112.989937 33.965511 -0.000009 0.225917
115.637497 33.650719 4.667665 0.794385
115.637497 33.650719 4.300161 0.839216
115.637497 33.650719 3.937818 0.839216
115.637497 33.650719 3.579766 0.839216
115.637497 33.650719 3.225174 0.839216
115.637497 33.650719 2.873243 0.839216
115.637497 33.650719 2.523196 0.839216
115.637497 33.650719 2.174274 0.776471
115.637497 33.650719 1.825726 0.806867
115.637497 33.650719 1.476803 0.663798
115.637497 33.650719 1.126757 0.774075
115.637497 33.650719 0.774826 0.699565
115.637497 33.650719 0.420235 0.808789
115.637497 33.650719 0.062183 0.839216
114.254364 33.785912 -0.000010 0.210874
112.984703 33.910015 -0.000009 0.190397
115.637497 33.575962 4.669551 0.479622
115.637497 33.575962 4.301787 0.839216
115.637497 33.575962 3.939188 0.839216
115.637497 33.575962 3.580884 0.839216
115.637497 33.575962 3.226040 0.839216
115.637497 33.575962 2.873861 0.839216
115.637497 33.575962 2.523566 0.839216
115.637497 33.575962 2.174397 0.776471
115.637497 33.575962 1.825602 0.789822
115.637497 33.575962 1.476433 0.591852
115.637497 33.575962 1.126139 0.458518
115.637489 33.575962 0.773960 0.491005
115.637497 33.575962 0.419117 0.546380
115.637497 33.575962 0.060812 0.651713
114.247856 33.721592 -0.000010 0.169644
112.979088 33.854557 -0.000009 0.210874
115.637497 33.501095 4.671571 0.799466
115.637497 33.501095 4.303529 0.839216
115.637497 33.501095 3.940655 0.839216
115.637497 33.501095 3.582079 0.839216
115.637497 33.501095 3.226968 0.839216
115.637497 33.501095 2.874522 0.839216
115.637497 33.501095 2.523963 0.839216
115.637497 33.501095 2.174530 0.776471
115.637497 33.501095 1.825470 0.805844
115.637497 33.501095 1.476037 0.664820
115.637497 33.501095 1.125478 0.455909
115.637489 33.501095 0.773032 0.689158
115.637497 33.501095 0.417921 0.790860
115.637497 33.501095 0.059345 0.839216
114.240891 33.657322 -0.000011 0.242505
112.973091 33.799137 -0.000009 0.237275
115.637497 33.426113 4.673725 0.806912
115.637497 33.426113 4.305386 0.839216
115.637497 33.426113 3.942220 0.839216
115.637497 33.426113 3.583354 0.839216
115.637497 33.426113 3.227957 0.839216
115.637497 33.426113 2.875227 0.839216
115.637497 33.426113 2.524385 0.839216
115.637497 33.426113 2.174670 0.776471
115.637497 33.426113 1.825330 0.806104
115.637497 33.426113 1.475615 0.662745
115.637489 33.426113 1.124773 0.467109
115.637497 33.426113 0.772043 0.686519
115.637497 33.426113 0.416646 0.788083
115.637489 33.426113 0.057781 0.839216
114.233482 33.593102 -0.000011 0.237263
112.966698 33.743767 -0.000009 0.216894
115.637497 33.351006 4.676011 0.725185
115.637497 33.351006 4.307359 0.695583
115.637497 33.351006 3.943881 0.839216
115.637497 33.351006 3.584708 0.839216
115.637497 33.351006 3.229007 0.839216
115.637497 33.351006 2.875975 0.776471
115.637497 33.351006 2.524834 0.839216
115.637497 33.351006 2.174819 0.839216
115.637497 33.351006 1.825180 0.804410
115.637497 33.351006 1.475166 0.566049
115.637497 33.351006 1.124024 0.404089
115.637497 33.351006 0.770993 0.602304
115.637497 33.351006 0.415292 0.807477
115.637497 33.351006 0.056120 0.839216
114.225624 33.528931 -0.000011 0.239226
112.959923 33.688435 -0.000009 0.262838
115.637497 33.275764 4.678433 0.827451
115.637497 33.275764 4.309446 0.691173
115.637497 33.275764 3.945640 0.839216
115.637497 33.275764 3.586143 0.839216
115.637497 33.275764 3.230120 0.839216
115.637497 33.275764 2.876768 0.776471
115.637497 33.275764 2.525309 0.839216
115.637497 33.275764 2.174978 0.839216
115.637497 33.275764 1.825022 0.806867
115.637497 33.275764 1.474691 0.664302
115.637497 33.275764 1.123232 0.454643
115.637489 33.275764 0.769881 0.653834
115.637497 33.275764 0.413858 0.839216
115.637497 33.275764 0.054360 0.839216
114.217316 33.464817 -0.000010 0.201982
112.952759 33.633156 -0.000009 0.228957
115.637497 33.200382 4.680990 0.837171
115.637497 33.200382 4.311651 0.679408
115.637497 33.200382 3.947497 0.839216
115.637497 33.200382 3.587657 0.839216
115.637497 33.200382 3.231294 0.839216
115.637497 33.200382 2.877605 0.776471
115.637497 33.200382 2.525810 0.839216
115.637497 33.200382 2.175145 0.839216
115.637497 33.200382 1.824855 0.804410
115.637497 33.200382 1.474190 0.644419
115.637497 33.200382 1.122395 0.448325
115.637497 33.200382 0.768706 0.644877
115.637497 33.200382 0.412343 0.839216
115.637497 33.200382 0.052503 0.839216
114.208557 33.400764 -0.000011 0.197518
112.945206 33.577927 -0.000009 0.215948
115.637497 33.124855 4.683682 0.839216
115.637497 33.124855 4.313972 0.726070
115.637497 33.124855 3.949453 0.839216
115.637497 33.124855 3.589251 0.839216
115.637497 33.124855 3.232530 0.839216
115.637497 33.124855 2.878486 0.775021
115.637497 33.124855 2.526338 0.839216
