# This PCD file was generated using the MATLABÂ® pcwrite function
# from Computer Vision ToolboxÂ®.
# .PCD v.7 - Point Cloud Data file format
VERSION .7
FIELDS x y z intensity
SIZE 4 4 4 4
TYPE F F F F
COUNT 1 1 1 1
WIDTH 1303
HEIGHT 1
VIEWPOINT 0 0 0 1 0 0 0
POINTS 1303
DATA ascii
nan nan nan 0.000000
67.960571 41.493694 -0.000036 0.229939
82.824783 34.756420 -0.000021 0.224481
89.206467 31.863890 -0.000014 0.204124
92.760712 30.252914 -0.000010 0.222674
95.029785 29.224443 -0.000007 0.247986
96.606873 28.509621 -0.000005 0.231063
97.768799 27.982971 -0.000004 0.223308
83.962112 34.418877 7.815607 0.461769
87.296478 32.879410 6.221232 0.443534
87.026566 33.004028 5.610357 0.450202
85.607185 33.659351 5.175171 0.424414
86.140945 33.412918 4.394845 0.484245
85.115555 33.886333 3.799531 0.439887
83.942108 34.428112 3.141670 0.422232
nan nan nan 0.000000
nan nan nan 0.000000
68.078827 41.752144 -0.000036 0.227808
82.895630 34.911270 -0.000020 0.225331
89.256966 31.974258 -0.000014 0.217995
92.799873 30.338509 -0.000010 0.235372
95.061714 29.294224 -0.000007 0.212094
96.633774 28.568409 -0.000005 0.297712
97.791992 28.033661 -0.000004 0.240219
83.978287 34.590378 7.830079 0.438514
87.365448 32.997753 6.218525 0.432654
86.976509 33.180634 5.632185 0.433402
86.190872 33.550034 5.089842 0.463508
83.205406 34.953781 4.775823 0.427054
82.549431 35.262218 4.037904 0.550546
83.822815 34.663479 3.151866 0.475486
nan nan nan 0.000000
nan nan nan 0.000000
68.198860 42.009769 -0.000036 0.230106
82.967552 35.065620 -0.000020 0.224302
89.308228 32.084274 -0.000013 0.236102
92.839622 30.423830 -0.000010 0.231195
95.094116 29.363781 -0.000007 0.226731
96.661072 28.627007 -0.000005 0.207128
97.815536 28.084187 -0.000004 0.231458
81.020935 36.186352 8.670718 0.455161
87.371101 33.146229 6.231168 0.431235
86.767181 33.435356 5.686465 0.440803
85.711716 33.940655 5.178894 0.435309
86.642715 33.494942 4.346621 0.450828
85.040466 34.262012 3.818211 0.453864
nan nan nan 0.000000
nan nan nan 0.000000
nan nan nan 0.000000
68.320694 42.266556 -0.000036 0.231554
83.040543 35.219471 -0.000020 0.232248
89.360252 32.193928 -0.000013 0.242313
92.879974 30.508871 -0.000010 0.228837
95.127014 29.433109 -0.000007 0.224649
96.688782 28.685413 -0.000005 0.188374
97.839432 28.134546 -0.000004 0.240961
81.581131 36.120159 8.537151 0.432258
87.178261 33.392357 6.291793 0.450416
86.802719 33.575382 5.691724 0.440955
85.800766 34.063690 5.174939 0.430030
86.680626 33.634880 4.349696 0.423499
85.140579 34.385437 3.815222 0.422065
nan nan nan 0.000000
nan nan nan 0.000000
nan nan nan 0.000000
68.444328 42.522484 -0.000035 0.227521
83.114609 35.372807 -0.000020 0.221752
89.413040 32.303219 -0.000013 0.223572
92.920921 30.593628 -0.000009 0.223272
95.160393 29.502205 -0.000007 0.235121
96.716904 28.743626 -0.000005 0.221621
97.863678 28.184742 -0.000003 0.219311
80.941734 36.640694 8.738412 0.431373
87.129379 33.571457 6.318335 0.570306
88.168961 33.055801 5.426920 0.434058
86.445038 33.910912 5.079176 0.435660
86.719772 33.774632 4.352748 0.563638
84.033508 35.107094 3.922791 0.438972
nan nan nan 0.000000
nan nan nan 0.000000
nan nan nan 0.000000
68.569725 42.777538 -0.000035 0.227665
83.189751 35.525620 -0.000020 0.226181
89.466599 32.412136 -0.000013 0.227856
92.962456 30.678099 -0.000009 0.230405
95.194252 29.571068 -0.000007 0.219311
96.745430 28.801641 -0.000005 0.199145
97.888268 28.234762 -0.000003 0.250212
81.082672 36.779926 8.722446 0.438819
87.514862 33.533241 6.240186 0.552789
86.869934 33.858772 5.703682 0.424475
88.196144 33.189362 4.798985 0.429709
86.396240 34.097874 4.402674 0.565057
84.193634 35.209652 3.914813 0.438300
nan nan nan 0.000000
nan nan nan 0.000000
nan nan nan 0.000000
68.696930 43.031708 -0.000035 0.230226
83.265953 35.677906 -0.000020 0.225486
89.520912 32.520679 -0.000013 0.218042
93.004578 30.762276 -0.000009 0.250463
95.228592 29.639692 -0.000006 0.212250
96.774361 28.859455 -0.000005 0.246131
97.913216 28.284613 -0.000004 0.207499
83.065887 35.972080 8.187939 0.449073
87.172104 33.863342 6.338506 0.431373
88.272400 33.298286 5.429998 0.421744
88.077957 33.398140 4.828659 0.432395
nan nan nan 0.000000
81.971474 36.534107 4.126460 0.436606
nan nan nan 0.000000
nan nan nan 0.000000
nan nan nan 0.000000
68.825874 43.284996 -0.000035 0.231411
83.343216 35.829659 -0.000020 0.223608
89.575974 32.628838 -0.000013 0.211137
93.047287 30.846159 -0.000009 0.202125
95.263405 29.708075 -0.000007 0.254269
96.803696 28.917065 -0.000005 0.238472
97.938507 28.334286 -0.000004 0.213830
87.721718 33.734444 6.894583 0.445228
87.201500 34.006203 6.347058 0.434623
84.226410 35.560394 6.273018 0.540658
87.762672 33.713047 4.891673 0.437461
86.877151 34.175644 4.357546 0.421759
85.249146 35.026115 3.830947 0.583810
78.756683 38.417793 3.456852 0.437858
nan nan nan 0.000000
nan nan nan 0.000000
68.956612 43.537361 -0.000034 0.227306
83.421539 35.980862 -0.000020 0.232942
89.631805 32.736610 -0.000013 0.214859
93.090576 30.929741 -0.000009 0.225474
95.298706 29.776213 -0.000006 0.213435
96.833427 28.974470 -0.000005 0.261689
97.964142 28.383781 -0.000003 0.232548
87.446838 34.034962 6.990588 0.437385
87.947571 33.768913 6.180608 0.425727
86.800720 34.378258 5.758342 0.425727
87.730133 33.884445 4.907794 0.458900
87.138138 34.198982 4.332235 0.420340
77.645309 39.242718 4.543715 0.432135
79.785744 38.105461 3.404973 0.439216
nan nan nan 0.000000
nan nan nan 0.000000
69.089096 43.788807 -0.000034 0.229244
83.500908 36.131516 -0.000020 0.238771
89.688377 32.843987 -0.000013 0.221393
93.134453 31.013018 -0.000009 0.236413
95.334473 29.844103 -0.000006 0.241631
96.863564 29.031664 -0.000005 0.255885
97.990128 28.433098 -0.000003 0.226504
87.974815 33.907791 6.858972 0.437385
87.269112 34.289085 6.362830 0.478691
nan nan nan 0.000000
87.673935 34.070362 4.928166 0.430091
81.199486 37.568542 5.117506 0.419608
79.216339 38.640053 4.406830 0.415167
nan nan nan 0.000000
nan nan nan 0.000000
nan nan nan 0.000000
69.223335 44.039330 -0.000034 0.231075
83.581345 36.281612 -0.000019 0.223919
89.745697 32.950970 -0.000013 0.226719
93.178909 31.095985 -0.000009 0.195423
95.370712 29.911739 -0.000006 0.206122
96.894096 29.088648 -0.000005 0.205751
98.016457 28.482231 -0.000003 0.226647
88.132614 33.975613 6.832389 0.433600
87.299393 34.433350 6.371994 0.427970
87.024956 34.584118 5.740252 0.461967
87.984627 34.056911 4.886742 0.420508
nan nan nan 0.000000
81.919846 37.388657 4.163078 0.422187
83.044952 36.770569 3.232927 0.526467
79.874977 38.512032 2.469868 0.429450
nan nan nan 0.000000
69.359306 44.288918 -0.000034 0.227174
83.662811 36.431145 -0.000019 0.223691
89.803772 33.057549 -0.000012 0.238747
93.223938 31.178642 -0.000009 0.221980
95.407425 29.979126 -0.000006 0.200605
96.925026 29.145416 -0.000005 0.244348
98.043121 28.531179 -0.000003 0.246670
87.246918 34.624527 7.105222 0.444266
87.200912 34.650219 6.413296 0.436347
86.788193 34.880718 5.804086 0.436912
87.614670 34.419144 4.960783 0.441871
38.719955 61.726028 10.738860 0.484672
82.483391 37.284878 4.118533 0.449271
83.163956 36.904793 3.231008 0.470634
nan nan nan 0.000000
nan nan nan 0.000000
69.497040 44.537544 -0.000034 0.225654
83.745323 36.580109 -0.000019 0.227617
89.862579 33.163719 -0.000012 0.226683
93.269554 31.260986 -0.000009 0.208947
95.444611 30.046253 -0.000006 0.200366
96.956345 29.201969 -0.000005 0.300908
98.070129 28.579943 -0.000003 0.211412
86.878571 34.997242 7.231427 0.419608
86.147636 35.412178 6.692265 0.461341
86.944878 34.959602 5.786285 0.429465
86.298828 35.326347 5.196887 0.439826
84.494133 36.350838 4.718054 0.470283
80.331116 38.714092 4.329807 0.538949
79.331017 39.281830 3.452383 0.440528
nan nan nan 0.000000
nan nan nan 0.000000
69.636482 44.785202 -0.000033 0.229472
83.828873 36.728493 -0.000019 0.228849
89.922127 33.269482 -0.000012 0.227389
93.315735 31.343004 -0.000008 0.213543
95.482254 30.113117 -0.000006 0.225941
96.988068 29.258301 -0.000004 0.210096
98.097481 28.628513 -0.000003 0.208995
87.279526 34.934242 7.136420 0.423621
87.033081 35.076427 6.490265 0.469932
86.866371 35.172611 5.817936 0.435996
87.768867 34.651920 4.957937 0.427100
82.275696 37.821182 5.023575 0.432776
86.432144 35.423138 3.761591 0.439078
80.077324 39.089523 3.415869 0.446418
38.556244 63.044952 3.256042 0.658030
38.603142 63.017899 0.744846 0.643198
69.777664 45.031879 -0.000034 0.230824
83.913460 36.876282 -0.000019 0.225115
89.982414 33.374821 -0.000013 0.232703
93.362488 31.424700 -0.000008 0.235384
95.520370 30.179718 -0.000006 0.201563
97.020180 29.314411 -0.000005 0.237215
98.125168 28.676893 -0.000003 0.262826
86.659340 35.463799 7.337398 0.436210
86.856483 35.348213 6.552748 0.433021
86.179802 35.744946 5.978283 0.442329
87.858398 34.760799 4.954577 0.418143
88.846146 34.181698 4.159677 0.422293
82.708656 37.780041 4.122671 0.460868
80.359695 39.157211 3.405549 0.430289
nan nan nan 0.000000
nan nan nan 0.000000
69.920555 45.277565 -0.000034 0.225283
83.999069 37.023487 -0.000019 0.223907
90.043442 33.479736 -0.000012 0.228885
93.409821 31.506065 -0.000009 0.217899
95.558960 30.246048 -0.000006 0.260277
97.052681 29.370293 -0.000004 0.191222
98.153191 28.725075 -0.000003 0.191486
85.936089 36.067795 7.570339 0.440986
86.796524 35.555229 6.586646 0.432746
87.008301 35.429070 5.819260 0.425437
86.341316 35.826397 5.228734 0.431540
84.704849 36.801254 4.723151 0.430121
88.377213 34.613598 3.590430 0.431250
84.524376 36.908768 3.173211 0.580148
nan nan nan 0.000000
nan nan nan 0.000000
70.065170 45.522240 -0.000033 0.225606
84.085709 37.170082 -0.000019 0.234379
90.105194 33.584221 -0.000012 0.253060
93.457703 31.587101 -0.000009 0.227341
95.597992 30.312111 -0.000006 0.256830
97.085571 29.425949 -0.000004 0.254891
98.181549 28.773064 -0.000003 0.258458
85.683815 36.401943 7.667600 0.571221
86.318634 36.017746 6.726557 0.420005
86.337906 36.006081 5.977885 0.426001
86.815666 35.716938 5.160051 0.437110
87.478531 35.315765 4.361617 0.414282
nan nan nan 0.000000
84.609444 37.052162 3.173254 0.564828
40.512947 63.739685 3.234257 0.480156
nan nan nan 0.000000
70.211487 45.765911 -0.000033 0.231363
84.173370 37.316071 -0.000018 0.222770
90.167671 33.688278 -0.000012 0.214464
93.506165 31.667801 -0.000008 0.202807
95.637497 30.377899 -0.000006 0.270151
97.118858 29.481373 -0.000004 0.220173
98.210251 28.820852 -0.000002 0.211101
86.395882 36.149597 7.482415 0.427466
86.370216 36.165375 6.733651 0.431769
86.751022 35.931267 5.906624 0.433646
86.113449 36.323231 5.295812 0.438270
87.199722 35.655411 4.409347 0.440894
87.210587 35.648731 3.716217 0.458854
84.591309 37.259026 3.179307 0.589151
84.323769 37.423508 2.397961 0.585885
nan nan nan 0.000000
70.359497 46.008549 -0.000033 0.232452
84.598732 37.254463 0.032388 0.485481
90.230881 33.791893 -0.000012 0.213315
93.555183 31.748158 -0.000008 0.249781
95.677460 30.443409 -0.000006 0.240183
97.152519 29.536562 -0.000004 0.232655
98.239281 28.868439 -0.000002 0.206553
87.556450 35.605026 7.163449 0.429007
87.122528 35.875988 6.562609 0.438392
81.441521 39.423485 7.062542 0.459663
84.761414 37.350380 5.546546 0.596643
87.721664 35.501858 4.349000 0.429862
nan nan nan 0.000000
84.660370 37.413479 3.180419 0.592859
84.561554 37.475182 2.395099 0.533150
84.388405 37.583309 1.601561 0.559991
84.396744 37.578102 0.804312 0.536492
84.735153 37.366783 0.037045 0.491005
90.294807 33.895069 -0.000011 0.230884
93.604759 31.828173 -0.000008 0.236664
95.717880 30.508638 -0.000005 0.187560
97.186569 29.591518 -0.000004 0.204938
98.268639 28.915825 -0.000003 0.252223
nan nan nan 0.000000
87.174667 36.017563 6.569365 0.431373
85.561745 37.040466 6.197080 0.566522
84.881416 37.471924 5.541082 0.554482
87.842941 35.593746 4.342824 0.427832
86.013008 36.754276 3.847524 0.636378
84.807724 37.518661 3.177044 0.576394
85.423920 37.127872 2.380128 0.451469
84.591095 37.656048 1.603734 0.530877
84.661392 37.611465 0.814442 0.495796
84.867821 37.480545 0.041284 0.511543
90.359451 33.997787 -0.000011 0.232021
93.654892 31.907837 -0.000008 0.228742
95.758751 30.573586 -0.000005 0.210227
97.221001 29.646233 -0.000004 0.218808
98.298325 28.963001 -0.000002 0.304570
82.509354 39.197826 8.713106 0.457969
85.669037 37.162903 6.976585 0.446036
85.755981 37.106911 6.173811 0.586801
81.213783 40.032211 6.204024 0.451759
87.648514 35.888069 4.379904 0.437613
86.035011 36.927208 3.853640 0.519677
84.879539 37.671364 3.178112 0.539742
84.726044 37.770218 2.395411 0.528801
84.712334 37.779053 1.604322 0.541268
84.817719 37.711182 0.818275 0.567361
84.946793 37.628052 0.040226 0.548898
90.424812 34.100056 -0.000011 0.224038
93.705589 31.987150 -0.000008 0.200593
95.800072 30.638245 -0.000005 0.222195
97.255821 29.700705 -0.000004 0.267159
98.328346 29.009968 -0.000002 0.239273
82.469910 39.447174 8.755394 0.432013
nan nan nan 0.000000
84.964630 37.815758 6.364811 0.571939
nan nan nan 0.000000
88.066078 35.787567 4.333314 0.424613
86.052567 37.104301 3.860338 0.475319
87.376755 36.238346 3.036878 0.427543
85.349564 37.564030 2.385015 0.438193
84.788559 37.930897 1.604016 0.577096
84.940689 37.831409 0.820128 0.569284
85.010941 37.785469 0.037612 0.485206
90.490883 34.201866 -0.000011 0.221860
93.756828 32.066109 -0.000008 0.214308
95.841843 30.702614 -0.000005 0.246119
97.291008 29.754934 -0.000004 0.219622
98.358688 29.056728 -0.000002 0.230896
84.643631 38.229912 8.132965 0.610788
83.542725 38.960869 7.573486 0.441337
83.422058 39.040989 6.721851 0.420035
88.594391 35.606754 4.928430 0.419608
84.144150 38.561546 4.885650 0.578317
87.949280 36.035080 3.682234 0.423682
87.497826 36.334835 3.034520 0.425620
84.140945 38.563679 2.410531 0.540917
85.652023 37.560375 1.619150 0.568017
85.049988 37.960106 0.821133 0.598169
85.093575 37.931164 0.036698 0.594919
90.557663 34.303215 -0.000011 0.227078
93.808624 32.144707 -0.000008 0.238531
95.884064 30.766691 -0.000006 0.229472
97.326584 29.808916 -0.000004 0.236246
98.389359 29.103271 -0.000002 0.209019
84.671516 38.417248 8.153253 0.451286
83.542313 39.178406 7.599682 0.434699
80.893661 40.963776 7.298772 0.431846
82.449364 39.915131 6.041416 0.584466
87.526451 36.492828 4.429914 0.505837
87.964149 36.197792 3.688639 0.437522
87.641548 36.415249 3.030848 0.570275
80.417114 41.285004 2.485941 0.432441
85.403084 37.924122 1.612455 0.550942
85.098640 38.129341 0.818496 0.544366
85.183151 38.072372 0.036364 0.576425
90.625160 34.404091 -0.000011 0.253455
93.860962 32.222942 -0.000007 0.214835
95.926735 30.830469 -0.000005 0.247424
97.362534 29.862646 -0.000003 0.236844
98.420357 29.149601 -0.000002 0.252031
85.288025 38.203194 7.995378 0.459174
nan nan nan 0.000000
nan nan nan 0.000000
81.532600 40.772919 6.225403 0.456748
88.601212 35.936085 4.291645 0.419379
88.563980 35.961555 3.637069 0.422492
87.672813 36.571358 3.033886 0.430411
nan nan nan 0.000000
85.617188 37.977959 1.614858 0.581888
71.443062 47.676872 0.000003 0.338842
85.232407 38.241257 0.031924 0.607385
90.693352 34.504498 -0.000011 0.207104
93.913849 32.300812 -0.000007 0.225044
95.969849 30.893948 -0.000005 0.212872
97.398849 29.916128 -0.000003 0.220065
98.451675 29.195715 -0.000002 0.267793
84.814011 38.735874 8.168867 0.444099
87.228714 37.058701 6.684048 0.524376
nan nan nan 0.000000
83.326218 39.769249 5.921849 0.423743
88.331902 36.292458 4.340422 0.419394
88.597641 36.107880 3.641606 0.419928
84.975479 38.623718 3.200213 0.417655
nan nan nan 0.000000
85.827408 38.032001 1.617188 0.581308
71.604385 47.910866 0.000003 0.337896
85.281456 38.411201 0.027327 0.529961
90.762238 34.604424 -0.000011 0.231470
93.967270 32.378307 -0.000008 0.246394
96.013405 30.957125 -0.000005 0.202400
97.435547 29.969353 -0.000003 0.210946
98.483315 29.241606 -0.000002 0.249279
88.438019 36.391422 7.088413 0.450156
85.601189 38.391304 7.137065 0.573541
49.235989 64.027618 14.423645 0.667567
83.262329 40.040127 5.952651 0.428626
81.999031 40.930710 5.243259 0.444923
88.320999 36.473919 3.677400 0.430640
85.081398 38.757736 3.199724 0.441367
87.921631 36.755463 2.342757 0.447974
86.863281 37.501564 1.636054 0.519356
71.767334 48.143738 0.000003 0.337652
85.193474 38.678726 0.008840 0.613321
90.831825 34.703865 -0.000011 0.234702
94.021240 32.455429 -0.000007 0.213112
96.057404 31.019997 -0.000005 0.245437
97.472610 30.022320 -0.000003 0.207487
98.515266 29.287279 -0.000002 0.206888
88.374260 36.611420 7.133344 0.431083
nan nan nan 0.000000
84.644066 39.280266 6.563476 0.424002
84.672935 39.259613 5.715013 0.441688
88.812370 36.297966 4.295610 0.461173
88.661064 36.406223 3.651452 0.423911
85.322525 38.794853 3.191123 0.440742
87.941223 36.921249 2.344066 0.451255
87.231300 37.429176 1.641649 0.602350
87.436234 37.282551 0.936559 0.566735
85.203804 38.879795 -0.000017 0.216511
90.902107 34.802818 -0.000010 0.220855
94.075745 32.532173 -0.000007 0.207092
96.101837 31.082560 -0.000005 0.233649
97.510040 30.075029 -0.000003 0.203358
98.547546 29.332724 -0.000001 0.188171
88.311218 36.834000 7.178755 0.433600
85.646957 38.768463 7.176425 0.620401
86.243317 38.335457 6.226887 0.448569
86.431168 38.199066 5.411447 0.438087
88.497910 36.698444 4.351896 0.419379
83.487007 40.336761 4.184068 0.431373
88.834000 36.454418 2.983946 0.433310
87.981155 37.073650 2.344995 0.441077
86.383209 38.233887 1.622691 0.523354
72.098083 48.606026 0.000003 0.337469
85.303368 39.017937 -0.000017 0.222315
90.973068 34.901283 -0.000010 0.221393
94.130783 32.608532 -0.000007 0.217971
96.146706 31.144812 -0.000005 0.214105
97.547844 30.127472 -0.000003 0.203107
98.580139 29.377943 -0.000001 0.289419
86.173439 38.588390 7.870405 0.607858
nan nan nan 0.000000
86.610687 38.266228 6.165496 0.441642
86.455307 38.380711 5.424464 0.431449
82.943550 40.968155 5.157625 0.435752
89.691521 35.996284 3.563330 0.438682
88.069519 37.191364 3.035633 0.425010
87.419998 37.669926 2.358167 0.429496
86.501129 38.346951 1.623156 0.585504
87.610588 37.529503 0.936361 0.439216
85.403908 39.155380 -0.000016 0.227222
91.044724 34.999245 -0.000010 0.224314
94.186356 32.684505 -0.000007 0.199648
96.192009 31.206747 -0.000004 0.222842
97.586014 30.179653 -0.000003 0.247615
98.613052 29.422935 -0.000002 0.227617
88.174057 37.296967 7.275207 0.433005
88.075043 37.370987 6.575182 0.481575
84.670670 39.916176 6.627881 0.446693
86.469269 38.571503 5.439668 0.424903
83.049026 41.128551 5.158878 0.423896
89.971916 35.952843 3.542745 0.435996
88.085556 37.363132 3.040030 0.465660
88.679626 36.918991 2.334291 0.592401
86.585350 38.484718 1.622919 0.539406
87.693741 37.656055 0.935936 0.432074
85.505394 39.292118 -0.000016 0.225474
91.117058 35.096706 -0.000011 0.242852
94.242455 32.760090 -0.000007 0.220412
96.237740 31.268368 -0.000005 0.225558
97.624542 30.231564 -0.000003 0.200988
98.646271 29.467697 -0.000002 0.219706
88.656128 37.115822 7.151449 0.460029
88.192032 37.467865 6.567585 0.429557
89.681549 36.337975 5.507874 0.428000
86.685127 38.610950 5.417610 0.428016
89.192657 36.708828 4.288425 0.436408
90.258591 35.900249 3.521373 0.474098
53.174347 64.031021 5.198204 0.632486
53.174446 64.030937 3.065305 0.648753
53.174393 64.030983 0.934695 0.666911
72.606262 49.290665 0.000005 0.337926
85.607834 39.428146 -0.000016 0.238244
91.190079 35.193657 -0.000010 0.216977
94.299080 32.835281 -0.000007 0.248489
96.283905 31.329664 -0.000004 0.193305
97.663437 30.283205 -0.000002 0.258949
98.679802 29.512222 -0.000001 0.179135
86.867195 38.673790 7.744451 0.451575
89.952934 36.298943 6.112103 0.421393
82.332291 42.163944 7.214062 0.446006
89.227577 36.857193 4.959991 0.428840
89.444344 36.690361 4.264130 0.546258
90.233574 36.082954 3.532099 0.474449
82.630356 41.934551 3.389281 0.428305
89.028336 37.010532 2.330651 0.553185
53.919548 64.030983 0.944384 0.674006
72.778809 49.516502 0.000004 0.337804
85.711220 39.563454 -0.000016 0.227545
91.263771 35.290096 -0.000010 0.206458
94.356232 32.910072 -0.000006 0.205345
96.330498 31.390638 -0.000004 0.224852
97.702682 30.334574 -0.000002 0.218964
98.713646 29.556515 -0.000001 0.209306
88.832504 37.342411 7.151055 0.428305
88.626579 37.503193 6.497860 0.419654
83.968056 41.140556 6.864740 0.452522
89.322861 36.959541 4.958122 0.590738
86.386810 39.252003 4.722676 0.442222
86.329651 39.296631 3.946534 0.425559
54.568657 64.095535 5.145854 0.678431
88.909737 37.282108 2.334907 0.427100
54.651356 64.030968 0.953848 0.635203
72.952942 49.741127 0.000004 0.338140
85.815552 39.698040 -0.000016 0.229711
91.338127 35.386024 -0.000010 0.228969
94.413895 32.984467 -0.000006 0.215230
96.377510 31.451286 -0.000004 0.241224
97.742294 30.385668 -0.000002 0.192108
98.747803 29.600571 -0.000001 0.267745
89.375008 37.095837 7.006058 0.441810
84.673897 40.819572 7.611687 0.429206
90.022522 36.582943 5.486147 0.446799
89.473389 37.017914 4.945923 0.516991
90.432312 36.258350 4.143956 0.437919
89.416153 37.063248 3.634397 0.432395
85.249771 40.363430 3.240349 0.449256
89.359161 37.108391 2.327369 0.437583
88.008224 38.178467 1.644430 0.463188
73.128647 49.964523 0.000005 0.338781
85.920815 39.831894 -0.000015 0.228502
91.413155 35.481426 -0.000010 0.232524
94.472084 33.058460 -0.000007 0.229197
96.424942 31.511604 -0.000004 0.208516
97.782257 30.436483 -0.000002 0.265363
98.782257 29.644386 -0.000001 0.213207
89.231697 37.389977 7.080068 0.545068
88.924591 37.636742 6.465314 0.473320
83.276344 42.175232 7.080301 0.452552
89.569038 37.118916 4.944176 0.430411
86.856567 39.298447 4.683630 0.416327
56.076370 64.031006 7.150400 0.648234
83.376457 42.094788 3.365335 0.539528
88.905960 37.651711 2.338711 0.430365
87.978531 38.396927 1.641821 0.434989
73.305885 50.186714 0.000005 0.337819
86.027016 39.965004 -0.000016 0.239477
91.488846 35.576305 -0.000010 0.223823
94.530792 33.132038 -0.000006 0.211472
96.472801 31.571590 -0.000004 0.245724
97.822571 30.487020 -0.000002 0.249781
98.817017 29.687960 -0.000001 0.243678
89.501587 37.352646 7.021634 0.419654
nan nan nan 0.000000
88.242439 38.378952 5.943338 0.429999
89.706345 37.185757 4.934581 0.439277
89.378784 37.452744 4.324504 0.431373
84.116432 41.741959 4.213452 0.582635
85.560135 40.565228 3.234672 0.546746
86.213943 40.032326 2.397461 0.428611
88.271317 38.355412 1.645972 0.460075
73.484688 50.407631 0.000005 0.338476
86.134140 40.097370 -0.000015 0.230106
91.565201 35.670650 -0.000010 0.240003
94.590004 33.205208 -0.000006 0.283327
96.521072 31.631237 -0.000004 0.206015
97.863243 30.537271 -0.000002 0.264023
98.852089 29.731289 -0.000000 0.209976
88.622169 38.261318 7.336317 0.440757
84.658630 41.538216 7.711897 0.460639
57.374638 64.095573 13.253585 0.678431
57.452728 64.031013 11.159223 0.653498
90.762566 36.491718 4.131311 0.427146
86.985710 39.614281 3.920912 0.419196
85.663147 40.707718 3.235203 0.425437
87.667244 39.050812 2.368889 0.502831
57.452724 64.031021 0.989586 0.634012
73.665016 50.627316 0.000005 0.339025
86.242188 40.228992 -0.000016 0.230190
91.642212 35.764462 -0.000010 0.220089
94.649727 33.277962 -0.000006 0.228634
96.569763 31.690552 -0.000004 0.251181
97.904259 30.587242 -0.000003 0.202580
98.887451 29.774374 -0.000001 0.173295
89.469109 37.745186 7.090559 0.431373
nan nan nan 0.000000
87.656555 39.265167 6.128253 0.446052
60.557861 61.989670 10.611498 0.624292
90.900398 36.544930 4.123043 0.441260
87.027878 39.792358 3.927598 0.426520
84.370026 42.021194 3.325312 0.429633
87.789108 39.154007 2.368436 0.593088
58.123573 64.031021 0.998023 0.646281
73.846893 50.845715 0.000006 0.337560
86.351151 40.359852 -0.000015 0.225056
91.719879 35.857727 -0.000009 0.207212
94.709961 33.350296 -0.000006 0.208456
96.618866 31.749519 -0.000004 0.231578
97.945625 30.636921 -0.000002 0.234965
98.923126 29.817209 -0.000000 0.244216
nan nan nan 0.000000
90.389130 37.148926 6.154369 0.420478
89.092407 38.251846 5.809683 0.431174
85.893341 40.972794 5.728733 0.556542
90.696220 36.887733 4.166434 0.431373
87.077827 39.965332 3.933620 0.438209
61.106266 62.055298 4.833507 0.678431
87.816772 39.336826 2.370021 0.518822
60.893085 62.236618 1.051592 0.676402
74.030273 51.062855 0.000006 0.338598
86.461029 40.489952 -0.000015 0.230202
91.798187 35.950459 -0.000010 0.253862
94.770699 33.422211 -0.000006 0.223284
96.668381 31.808146 -0.000004 0.206027
97.987343 30.686312 -0.000002 0.248608
98.959091 29.859797 -0.000001 0.211496
nan nan nan 0.000000
84.908043 42.054520 7.742693 0.425818
89.607635 38.000423 5.708720 0.431373
87.713737 39.634193 5.394477 0.460838
90.810631 36.962662 4.162045 0.419608
87.113770 40.151752 3.941326 0.421927
90.020905 37.643917 2.974514 0.431846
85.391525 41.637440 2.424653 0.429557
89.498665 38.094429 1.664107 0.429511
74.215164 51.278709 0.000005 0.338476
86.571808 40.619278 -0.000015 0.225367
91.877144 36.042637 -0.000010 0.239800
94.831924 33.493698 -0.000006 0.217959
96.718300 31.866423 -0.000004 0.189355
98.029396 30.735411 -0.000002 0.243654
98.995354 29.902130 -0.000000 0.241823
nan nan nan 0.000000
90.546860 37.367767 6.159449 0.430976
89.823753 38.000412 5.679034 0.435294
87.380684 40.137852 5.480771 0.428550
90.924385 37.037468 4.157811 0.433753
86.991936 40.477966 3.966410 0.475547
90.199547 37.671631 2.968782 0.443198
90.078705 37.777355 2.325324 0.446677
89.593605 38.201767 1.664128 0.428748
74.401566 51.493263 0.000005 0.338399
86.683495 40.747818 -0.000015 0.231446
91.956749 36.134258 -0.000010 0.246203
94.893661 33.564754 -0.000006 0.224541
96.768631 31.924351 -0.000003 0.226791
98.071793 30.784212 -0.000002 0.216906
99.031906 29.944210 -0.000001 0.196321
nan nan nan 0.000000
61.248734 63.543732 14.644732 0.668101
89.499619 38.476730 5.780582 0.420340
87.654251 40.114120 5.447995 0.547967
91.037506 37.112167 4.153728 0.438834
85.934166 41.640354 4.094495 0.508736
88.111206 39.708672 3.111917 0.590021
62.988201 62.000305 2.919989 0.774121
88.538574 39.329468 1.638975 0.464866
74.589462 51.706512 0.000006 0.338689
86.796074 40.875587 -0.000015 0.221010
92.036987 36.225323 -0.000009 0.220532
94.955894 33.635380 -0.000005 0.249362
96.819359 31.981930 -0.000003 0.264238
98.114532 30.832718 -0.000002 0.256735
99.068764 29.986034 -0.000000 0.220987
nan nan nan 0.000000
90.512810 37.760139 6.221195 0.457542
89.641632 38.544071 5.769477 0.454185
87.504761 40.466942 5.499403 0.570397
86.581284 41.297935 4.856851 0.432914
83.438416 44.126068 4.382897 0.427390
90.347450 37.908939 2.971085 0.439033
63.667061 61.917427 2.910801 0.723461
89.894379 38.316639 1.666562 0.430762
74.778839 51.918434 0.000006 0.339239
86.909531 41.002567 -0.000014 0.229520
92.117859 36.315826 -0.000009 0.227641
95.018608 33.705570 -0.000005 0.212824
96.870483 32.039150 -0.000003 0.249303
98.157608 30.880924 -0.000002 0.282418
99.105904 30.027597 -0.000000 0.215134
nan nan nan 0.000000
61.934052 64.024979 14.604229 0.639750
89.779602 38.613960 5.759414 0.450126
90.522011 37.936462 4.915696 0.441123
88.073868 40.170563 4.642523 0.451270
64.149536 62.003189 6.539193 0.694682
64.149536 62.003189 4.719622 0.693812
90.486977 37.968433 2.322426 0.439338
90.114082 38.308727 1.669313 0.395590
74.969681 52.129051 0.000005 0.337407
87.023880 41.128754 -0.000014 0.236712
92.199356 36.405766 -0.000009 0.213949
95.081818 33.775318 -0.000005 0.213830
96.922020 32.096008 -0.000003 0.233720
98.201019 30.928829 -0.000001 0.243965
99.143333 30.068903 0.000000 0.292770
nan nan nan 0.000000
90.318985 38.311321 6.332364 0.445289
89.614822 38.962990 5.824464 0.463432
88.024193 40.435028 5.439297 0.420249
86.367050 41.968628 4.927067 0.429541
88.150833 40.317829 3.886983 0.425391
64.662247 62.055283 4.702806 0.678431
88.714996 39.795727 2.364009 0.413550
89.234680 39.314789 1.647578 0.424140
75.162003 52.338310 0.000006 0.338704
87.139099 41.254135 -0.000015 0.215027
92.281479 36.495132 -0.000009 0.220280
95.145508 33.844627 -0.000005 0.205141
96.973938 32.152512 -0.000003 0.221405
98.244766 30.976431 -0.000002 0.232105
99.181053 30.109945 0.000000 0.200761
nan nan nan 0.000000
90.400558 38.426811 6.336481 0.419608
89.992538 38.809746 5.755174 0.425071
88.014297 40.666298 5.463759 0.431556
88.204254 40.488029 4.656321 0.420737
88.612152 40.105225 3.847425 0.534829
90.929588 37.930325 2.950737 0.434714
90.828033 38.025631 2.318965 0.434241
90.076035 38.731384 1.664159 0.454368
75.355774 52.546242 0.000006 0.338247
87.255203 41.378712 -0.000014 0.227796
92.364235 36.583920 -0.000009 0.212023
95.209686 33.913490 -0.000005 0.222387
97.026260 32.208649 -0.000003 0.283351
98.288841 31.023724 -0.000001 0.237610
99.219055 30.150726 -0.000000 0.218366
nan nan nan 0.000000
63.702679 64.028931 14.325352 0.665049
89.694763 39.292027 5.854828 0.424598
88.506195 40.423195 5.385959 0.435813
88.052933 40.854576 4.697937 0.462165
89.126221 39.833115 3.801465 0.480766
85.081619 43.682404 3.353635 0.556497
90.975029 38.073593 2.317756 0.425864
90.171387 38.838417 1.664090 0.431724
75.550987 52.752792 0.000006 0.338949
87.372169 41.502464 -0.000014 0.231829
92.447601 36.672127 -0.000008 0.251576
95.274338 33.981895 -0.000005 0.265818
97.078964 32.264420 -0.000003 0.250763
98.333244 31.070707 -0.000001 0.256244
99.257339 30.191236 0.000000 0.264047
nan nan nan 0.000000
90.349228 38.865952 6.409900 0.451637
90.176041 39.033096 5.759005 0.404120
88.530632 40.621086 5.403653 0.435248
88.345459 40.799789 4.669280 0.434501
88.768044 40.391960 3.854376 0.433371
86.511253 42.569992 3.265115 0.439048
66.476814 61.905296 2.877024 0.707500
89.781662 39.413712 1.652971 0.423194
75.747650 52.957981 0.000006 0.339788
87.489998 41.625404 -0.000014 0.212346
92.531586 36.759754 -0.000008 0.212070
95.339470 34.049854 -0.000005 0.208217
97.132057 32.319820 -0.000003 0.237801
98.377975 31.117380 -0.000001 0.201180
99.295914 30.231480 0.000000 0.217552
nan nan nan 0.000000
88.905327 40.478519 6.876273 0.432746
88.781776 40.599434 6.139571 0.407294
88.229454 41.139977 5.489336 0.433463
88.356178 41.015957 4.685727 0.441352
89.751930 39.649967 3.754119 0.423560
86.272339 43.055367 3.290151 0.428061
90.015869 39.391655 2.344029 0.435035
89.961494 39.444870 1.654726 0.419608
75.945724 53.161804 0.000006 0.338491
87.608673 41.747520 -0.000014 0.210503
92.616173 36.846794 -0.000009 0.230465
95.405075 34.117355 -0.000005 0.212310
97.185539 32.374847 -0.000003 0.210180
98.423035 31.163742 -0.000001 0.265196
99.334763 30.271454 0.000000 0.200569
nan nan nan 0.000000
65.703323 63.727211 13.970048 0.662882
86.687668 42.901482 6.704986 0.440482
67.387939 62.055328 9.869043 0.678431
89.119209 40.488319 4.580600 0.456992
89.332405 40.276733 3.814693 0.463294
85.406021 44.173439 3.359019 0.385565
67.538773 61.905632 2.864609 0.690822
65.397217 64.030998 1.086019 0.637934
76.145241 53.364220 0.000006 0.338766
87.728210 41.868805 -0.000014 0.225762
92.701370 36.933235 -0.000008 0.223715
95.471146 34.184395 -0.000005 0.235288
97.239410 32.429501 -0.000003 0.226085
98.468414 31.209785 -0.000001 0.256591
99.373886 30.311157 0.000000 0.256711
nan nan nan 0.000000
nan nan nan 0.000000
118.223785 11.419785 5.403092 0.406058
120.197861 9.433084 5.189746 0.401129
nan nan nan 0.000000
119.195717 10.441641 3.646608 0.401953
119.627731 10.006863 3.016663 0.409598
nan nan nan 0.000000
nan nan nan 0.000000
133.736313 -4.191948 -0.000008 0.229663
122.233643 7.384285 -0.000011 0.224397
117.295074 12.354437 -0.000007 0.238890
114.544563 15.122538 -0.000005 0.203394
112.788605 16.889730 -0.000004 0.225331
111.568138 18.118000 -0.000003 0.211723
110.668961 19.022926 -0.000003 0.220604
nan nan nan 0.000000
nan nan nan 0.000000
nan nan nan 0.000000
120.095375 9.323177 5.190674 0.402090
nan nan nan 0.000000
119.294350 10.140667 3.669855 0.400259
119.357018 10.076714 3.004879 0.397681
nan nan nan 0.000000
nan nan nan 0.000000
133.533997 -4.391573 -0.000008 0.226611
122.112427 7.264681 -0.000011 0.220999
117.208679 12.269189 -0.000008 0.220173
114.477562 15.056427 -0.000005 0.238184
112.733978 16.835835 -0.000004 0.200988
111.522125 18.072590 -0.000003 0.212310
110.629288 18.983776 -0.000003 0.230788
nan nan nan 0.000000
nan nan nan 0.000000
119.998268 9.207579 5.916588 0.410559
119.885101 9.324692 5.168759 0.400198
119.616837 9.602315 4.413093 0.390097
119.155037 10.080237 3.665440 0.399969
119.613205 9.606072 3.030227 0.396735
nan nan nan 0.000000
nan nan nan 0.000000
133.330292 -4.589775 -0.000007 0.230022
121.990387 7.145924 -0.000011 0.236258
117.121696 12.184546 -0.000008 0.241715
114.410103 14.990782 -0.000005 0.206015
112.678978 16.782320 -0.000004 0.232571
111.475792 18.027506 -0.000003 0.181876
110.589333 18.944901 -0.000003 0.193700
nan nan nan 0.000000
nan nan nan 0.000000
119.783516 9.215113 5.888544 0.400488
119.849220 9.146161 5.184182 0.399512
119.518967 9.492755 4.414392 0.400656
118.960815 10.078508 3.654516 0.406378
119.241150 9.784312 3.011254 0.399313
nan nan nan 0.000000
nan nan nan 0.000000
133.125229 -4.786562 -0.000008 0.229328
121.867516 7.028025 -0.000011 0.240674
117.034119 12.100514 -0.000007 0.204974
114.342178 14.925612 -0.000005 0.236198
112.623611 16.729191 -0.000004 0.206960
111.429146 17.982746 -0.000003 0.239405
110.549110 18.906309 -0.000002 0.283471
nan nan nan 0.000000
nan nan nan 0.000000
119.062271 9.764824 5.725690 0.397742
117.943840 10.955103 4.795015 0.403357
120.056053 8.707193 4.522501 0.410483
119.165977 9.654450 3.691334 0.392218
119.426514 9.377181 3.032041 0.403891
nan nan nan 0.000000
nan nan nan 0.000000
132.918762 -4.981892 -0.000007 0.231566
121.743828 6.910986 -0.000012 0.224206
116.945961 12.017091 -0.000008 0.246442
114.273811 14.860916 -0.000005 0.235001
112.567871 16.676453 -0.000004 0.278540
111.382187 17.938313 -0.000003 0.256136
110.508621 18.867996 -0.000003 0.213806
nan nan nan 0.000000
nan nan nan 0.000000
117.901260 10.807515 5.442852 0.389441
119.597542 8.976813 5.176925 0.406088
121.114937 7.339167 4.720674 0.410010
118.811607 9.825029 3.661285 0.403342
118.603256 10.049893 2.980286 0.399329
nan nan nan 0.000000
nan nan nan 0.000000
132.710968 -5.175793 -0.000007 0.226109
121.619324 6.794809 -0.000012 0.226671
116.857224 11.934286 -0.000008 0.240291
114.204987 14.796701 -0.000005 0.212681
112.511772 16.624100 -0.000004 0.197147
111.334915 17.894209 -0.000003 0.228167
110.467865 18.829967 -0.000002 0.264071
nan nan nan 0.000000
nan nan nan 0.000000
117.853600 10.663844 5.456218 0.405371
119.416107 8.953723 5.161222 0.395087
nan nan nan 0.000000
119.008736 9.399582 3.697901 0.396078
119.051178 9.353124 3.020375 0.410834
nan nan nan 0.000000
nan nan nan 0.000000
132.501816 -5.368235 -0.000008 0.224481
121.494019 6.679508 -0.000012 0.223536
116.767906 11.852109 -0.000008 0.217671
114.135719 14.732964 -0.000005 0.189152
112.455299 16.572140 -0.000004 0.231518
111.287346 17.850435 -0.000003 0.200007
110.426849 18.792225 -0.000003 0.208025
nan nan nan 0.000000
nan nan nan 0.000000
119.534134 8.600449 5.939747 0.396506
119.575333 8.554724 5.220926 0.403418
117.408264 10.960030 4.125513 0.396399
nan nan nan 0.000000
118.939453 9.260504 3.020057 0.399237
nan nan nan 0.000000
nan nan nan 0.000000
132.291336 -5.559221 -0.000008 0.230872
121.367897 6.565086 -0.000012 0.235887
116.678017 11.770552 -0.000008 0.238711
114.066010 14.669714 -0.000006 0.234714
112.398468 16.520576 -0.000004 0.240195
111.239464 17.806995 -0.000003 0.207762
110.385567 18.754770 -0.000002 0.185610
nan nan nan 0.000000
nan nan nan 0.000000
119.385712 8.539919 5.929948 0.413291
119.439484 8.479393 5.215818 0.422705
116.989349 11.237358 4.069604 0.405035
nan nan nan 0.000000
118.860611 9.130995 3.022216 0.392844
119.005554 8.967841 2.344067 0.404150
nan nan nan 0.000000
132.079514 -5.748722 -0.000007 0.231028
121.240990 6.451548 -0.000012 0.226623
116.587563 11.689627 -0.000008 0.262431
113.995857 14.606952 -0.000006 0.215290
112.341278 16.469412 -0.000005 0.245425
111.191284 17.763891 -0.000004 0.197386
110.344025 18.717602 -0.000003 0.211113
117.139534 10.875304 6.599202 0.399252
119.079865 8.660234 6.601605 0.399908
119.275345 8.437082 5.930695 0.404852
117.319115 10.670296 4.764030 0.404379
116.938461 11.104850 4.077162 0.405844
nan nan nan 0.000000
118.419502 9.414100 2.997450 0.411948
119.105049 8.631489 2.349271 0.425284
nan nan nan 0.000000
131.866364 -5.936741 -0.000008 0.229735
121.113297 6.338890 -0.000012 0.248764
116.496552 11.609331 -0.000009 0.199420
113.925270 14.544681 -0.000006 0.225726
112.283737 16.418648 -0.000004 0.236964
111.142807 17.721123 -0.000004 0.177088
110.302223 18.680727 -0.000003 0.202963
117.902557 9.795770 6.928665 0.404944
118.933029 8.602692 6.590169 0.395300
117.524315 10.233703 5.474938 0.392065
117.237816 10.565412 4.767855 0.409232
116.893890 10.963607 4.086057 0.398886
119.718025 7.693819 3.841103 0.458976
nan nan nan 0.000000
118.851387 8.697213 2.345735 0.416754
nan nan nan 0.000000
131.651917 -6.123255 -0.000007 0.225953
120.984810 6.227131 -0.000012 0.222483
116.404976 11.529675 -0.000009 0.235025
113.854248 14.482907 -0.000006 0.236305
112.225838 16.368286 -0.000004 0.198236
111.094025 17.678696 -0.000004 0.279749
110.260162 18.644144 -0.000003 0.192874
117.073212 10.557778 6.648536 0.402228
118.603867 8.760375 6.518036 0.404807
118.346802 9.062241 5.734167 0.405737
117.158760 10.457324 4.772390 0.410513
118.749687 8.589136 4.432393 0.392676
117.045456 10.590377 3.518158 0.393561
119.268372 7.980059 3.078027 0.404211
118.621361 8.739832 2.342755 0.400885
nan nan nan 0.000000
131.436188 -6.308290 -0.000007 0.226348
120.855553 6.116274 -0.000013 0.228909
116.312836 11.450665 -0.000008 0.246658
113.782799 14.421630 -0.000005 0.236090
112.167587 16.318333 -0.000004 0.208636
111.044952 17.636610 -0.000004 0.206793
110.217850 18.607855 -0.000003 0.277080
117.032364 10.404944 6.671164 0.402014
118.779427 8.324160 6.614461 0.421180
nan nan nan 0.000000
116.732666 10.761898 4.697080 0.399573
117.074455 10.354820 4.152846 0.396338
118.256248 8.947280 3.685139 0.402457
118.173454 9.045885 3.003313 0.397986
118.509918 8.645147 2.342761 0.397070
nan nan nan 0.000000
131.219162 -6.491808 -0.000007 0.231279
120.725525 6.006321 -0.000013 0.232703
116.220161 11.372299 -0.000008 0.199839
113.710922 14.360851 -0.000006 0.209569
112.108994 16.268784 -0.000005 0.240566
110.995590 17.594868 -0.000004 0.240865
110.175285 18.571863 -0.000003 0.250715
117.587959 9.529596 6.928694 0.391852
118.555115 8.361227 6.577289 0.394354
117.618179 9.493091 5.588875 0.396078
116.654648 10.657079 4.701612 0.406577
116.662796 10.647241 4.096683 0.419409
118.515526 8.409056 3.732651 0.396551
117.545624 9.580737 2.963380 0.399451
118.430206 8.512121 2.343598 0.406714
nan nan nan 0.000000
131.000854 -6.673807 -0.000008 0.230298
120.594727 5.897282 -0.000013 0.233672
116.126938 11.294578 -0.000008 0.225486
113.638626 14.300574 -0.000006 0.230633
112.050049 16.219646 -0.000005 0.252917
110.945938 17.553469 -0.000004 0.215362
110.132477 18.536171 -0.000003 0.193855
nan nan nan 0.000000
117.218277 9.765333 6.159674 0.396811
116.088364 11.149888 5.179230 0.449516
117.793999 9.059862 4.991962 0.406363
116.558647 10.573618 4.095618 0.400656
118.935577 7.661011 3.801905 0.392432
117.289223 9.678397 2.951675 0.397681
nan nan nan 0.000000
nan nan nan 0.000000
130.781296 -6.854282 -0.000008 0.232966
120.463173 5.789152 -0.000013 0.236844
116.033173 11.217509 -0.000009 0.240745
113.565903 14.240809 -0.000006 0.258470
111.990768 16.170921 -0.000004 0.216080
110.895988 17.512421 -0.000004 0.239309
110.089409 18.500776 -0.000003 0.178776
116.819710 10.046244 6.706754 0.400443
116.956902 9.875714 6.105612 0.390005
117.345528 9.392657 5.571665 0.455909
117.777359 8.855908 5.013914 0.402075
116.463043 10.489571 4.096206 0.397772
118.176132 8.360237 3.718157 0.445029
117.969360 8.617260 3.013214 0.417762
118.565979 7.875677 2.353072 0.396048
nan nan nan 0.000000
130.560471 -7.033203 -0.000008 0.231423
120.330872 5.681948 -0.000013 0.224182
115.938873 11.141098 -0.000009 0.237119
113.492775 14.181548 -0.000006 0.206984
111.931152 16.122612 -0.000005 0.199193
110.845764 17.471722 -0.000004 0.244815
110.046104 18.465683 -0.000003 0.217947
117.347160 9.170071 6.960693 0.431418
117.054199 9.539470 6.175468 0.417456
118.636192 7.544729 5.980954 0.428351
117.338852 9.180550 4.935690 0.411978
116.760414 9.909900 4.169662 0.388235
117.356857 9.157843 3.625130 0.415808
118.176872 8.123886 3.038514 0.404013
118.331978 7.928308 2.350009 0.458503
nan nan nan 0.000000
130.338394 -7.210581 -0.000008 0.228825
120.197823 5.575665 -0.000013 0.225020
115.844048 11.065347 -0.000009 0.241476
113.419228 14.122799 -0.000006 0.224780
111.871193 16.074718 -0.000005 0.222243
110.795250 17.431374 -0.000004 0.268870
110.002548 18.430893 -0.000003 0.199325
117.028740 9.352896 6.875369 0.411521
117.014977 9.370502 6.198900 0.430152
118.057632 8.036798 5.845481 0.400259
117.404968 8.871638 4.977760 0.403601
119.125244 6.671165 4.630697 0.399222
116.939041 9.467630 3.583980 0.417075
116.847061 9.585291 2.941692 0.396643
nan nan nan 0.000000
nan nan nan 0.000000
130.115082 -7.386404 -0.000007 0.227126
120.064034 5.470320 -0.000013 0.235575
115.748688 10.990259 -0.000009 0.244850
113.345276 14.064569 -0.000006 0.258374
111.810905 16.027245 -0.000005 0.235575
110.744461 17.391376 -0.000004 0.205213
109.958755 18.396408 -0.000003 0.227365
117.068878 9.078196 6.935890 0.439368
116.864960 9.342821 6.183756 0.415045
119.218437 6.288681 6.226265 0.405463
117.221069 8.880693 4.959973 0.406744
116.675270 9.588978 4.192716 0.407477
117.337448 8.729669 3.651810 0.436957
nan nan nan 0.000000
nan nan nan 0.000000
118.082054 7.763382 1.650384 0.430884
129.890564 -7.560675 -0.000007 0.231877
119.929512 5.365911 -0.000013 0.230716
115.652802 10.915847 -0.000009 0.226288
113.270912 14.006856 -0.000006 0.213183
111.750282 15.980196 -0.000005 0.235396
110.693390 17.351740 -0.000004 0.201084
109.914719 18.362232 -0.000003 0.203202
116.357956 9.786765 6.686720 0.397208
116.828926 9.166669 6.209244 0.408240
117.732651 7.976809 5.818034 0.400610
117.564598 8.198071 5.071359 0.400244
nan nan nan 0.000000
116.577652 9.497501 3.563952 0.406043
nan nan nan 0.000000
nan nan nan 0.000000
117.929611 7.717487 1.651303 0.456657
129.664825 -7.733366 -0.000007 0.231028
117.730667 7.979424 0.279739 0.435599
115.556412 10.842098 -0.000009 0.217229
113.196152 13.949659 -0.000006 0.235683
111.689339 15.933568 -0.000005 0.254987
110.642044 17.312458 -0.000004 0.227748
109.870445 18.328362 -0.000003 0.210610
117.440582 8.122534 7.182842 0.450599
117.010109 8.697591 6.313698 0.393225
117.574936 7.943045 5.805662 0.409766
118.777702 6.336292 5.400207 0.410468
116.724548 9.079073 4.242858 0.433814
118.717949 6.416121 3.871347 0.393668
117.304466 8.304363 3.005328 0.468177
nan nan nan 0.000000
117.721039 7.747877 1.653755 0.398657
129.437897 -7.904482 -0.000007 0.233565
117.417374 8.153536 0.306605 0.469978
115.459503 10.769022 -0.000009 0.229962
113.121002 13.892987 -0.000006 0.244695
111.628067 15.887368 -0.000005 0.249554
110.590424 17.273537 -0.000004 0.227090
109.825943 18.294800 -0.000003 0.187572
116.253769 9.487935 6.731006 0.402213
117.058182 8.397554 6.371903 0.415625
118.509964 6.429651 6.128167 0.409583
116.504196 9.148481 4.864230 0.414511
116.699257 8.884078 4.259129 0.405753
nan nan nan 0.000000
117.212494 8.188383 3.007206 0.462913
nan nan nan 0.000000
nan nan nan 0.000000
117.446419 7.871300 0.973436 0.468101
117.272240 8.107399 0.310667 0.437430
115.362083 10.696628 -0.000009 0.232500
113.045448 13.836842 -0.000006 0.206386
111.566475 15.841596 -0.000005 0.206888
110.538536 17.234974 -0.000004 0.249877
109.781197 18.261551 -0.000003 0.211604
117.189880 7.976088 7.175080 0.408911
116.747742 8.584249 6.299756 0.413703
118.446182 6.248032 6.147971 0.395880
116.407059 9.052860 4.867160 0.396353
nan nan nan 0.000000
nan nan nan 0.000000
nan nan nan 0.000000
117.187195 7.979782 2.338005 0.467948
117.311905 7.808235 1.658524 0.453056
117.263191 7.875244 0.978910 0.459159
117.163834 8.011909 0.309602 0.447135
115.264168 10.624913 -0.000009 0.238448
112.969505 13.781226 -0.000007 0.257082
111.504570 15.796257 -0.000005 0.228718
110.486382 17.196779 -0.000004 0.245042
109.736229 18.228617 -0.000003 0.207714
116.220367 9.081754 6.808382 0.408988
117.666817 7.062662 6.682405 0.404608
117.342415 7.515495 5.843430 0.411597
116.821304 8.242903 5.000545 0.395636
116.453445 8.756400 4.254380 0.402335
nan nan nan 0.000000
nan nan nan 0.000000
nan nan nan 0.000000
117.139313 7.799002 1.660055 0.435676
117.145119 7.790897 0.978945 0.442512
117.101006 7.852480 0.302016 0.439811
115.165741 10.553888 -0.000009 0.239094
112.893181 13.726141 -0.000007 0.263221
111.442345 15.751352 -0.000005 0.254269
110.433960 17.158943 -0.000005 0.231961
109.691025 18.195995 -0.000003 0.195363
117.821091 6.581650 7.551113 0.396918
117.745979 6.688057 6.758249 0.412421
118.225220 6.009136 6.159893 0.406516
116.215004 8.856968 4.874190 0.393271
116.386284 8.614311 4.263224 0.398154
116.481255 8.479774 3.626616 0.404532
nan nan nan 0.000000
117.067116 7.649792 2.341250 0.439277
117.037003 7.692450 1.659604 0.445487
117.087540 7.620857 0.973776 0.447715
119.107391 4.759386 -0.000014 0.218497
115.066833 10.483545 -0.000010 0.227365
112.816467 13.671592 -0.000007 0.232464
111.379807 15.706880 -0.000005 0.248369
110.381271 17.121479 -0.000004 0.203394
109.645599 18.163691 -0.000003 0.231650
117.087357 7.365700 7.284804 0.410208
117.328629 7.018789 6.648022 0.407965
nan nan nan 0.000000
116.735138 7.872150 5.038104 0.395727
117.066269 7.396023 4.422895 0.399481
116.247810 8.572872 3.609380 0.404135
116.449661 8.282629 2.981616 0.398932
116.907478 7.624353 2.340092 0.473289
nan nan nan 0.000000
128.285629 -8.736078 -0.000008 0.220879
118.967926 4.661671 -0.000014 0.219263
114.967438 10.413899 -0.000010 0.214644
112.739380 13.617577 -0.000007 0.228407
111.316963 15.662845 -0.000005 0.244838
110.328331 17.084381 -0.000005 0.275620
109.599953 18.131706 -0.000003 0.212190
116.591087 7.829420 7.118592 0.394675
116.845367 7.458294 6.510609 0.411597
116.872101 7.419285 5.808659 0.396063
116.620636 7.786293 5.038937 0.418006
115.938934 8.781245 4.218073 0.413169
116.161797 8.455982 3.613261 0.398810
nan nan nan 0.000000
116.795151 7.531593 2.340297 0.439261
nan nan nan 0.000000
128.051712 -8.897520 -0.000007 0.221836
118.827789 4.564930 -0.000014 0.234235
114.867554 10.344949 -0.000009 0.221776
112.661919 13.564103 -0.000007 0.249697
111.253815 15.619251 -0.000005 0.205249
110.275124 17.047657 -0.000004 0.217001
109.554077 18.100039 -0.000003 0.228383
116.743034 7.349297 7.239444 0.402335
116.772690 7.305359 6.529095 0.396445
116.536560 7.655207 5.738829 0.395071
117.024765 6.931898 5.177448 0.405875
115.830093 8.701908 4.218578 0.403876
116.081749 8.329052 3.618177 0.424613
116.701538 7.410782 3.023943 0.472694
nan nan nan 0.000000
nan nan nan 0.000000
127.816711 -9.057364 -0.000008 0.225092
118.686974 4.469175 -0.000014 0.216020
114.767189 10.276699 -0.000009 0.214332
112.584076 13.511174 -0.000006 0.201144
111.190361 15.576099 -0.000005 0.214213
110.221672 17.011303 -0.000004 0.206936
109.507980 18.068693 -0.000003 0.231231
115.069183 9.603240 6.537026 0.412894
116.344658 7.684750 6.409566 0.417945
116.519852 7.421236 5.772507 0.401480
116.809898 6.984968 5.153170 0.459022
115.602615 8.800877 4.194555 0.403342
116.001625 8.200718 3.623263 0.401022
116.155426 7.969379 2.986213 0.407874
nan nan nan 0.000000
nan nan nan 0.000000
127.580582 -9.215544 -0.000008 0.230537
118.545494 4.374401 -0.000014 0.233421
114.666351 10.209147 -0.000010 0.204842
112.505882 13.458783 -0.000007 0.220472
111.126602 15.533391 -0.000006 0.223799
110.167953 16.975323 -0.000005 0.198188
109.461670 18.037670 -0.000003 0.226097
115.474274 8.753769 6.770516 0.428473
114.582176 10.116140 5.761604 0.402670
116.338654 7.433746 5.752449 0.405539
115.517662 8.687517 4.836801 0.396796
115.378288 8.900356 4.170790 0.394247
nan nan nan 0.000000
116.329208 7.448166 3.012287 0.449760
nan nan nan 0.000000
nan nan nan 0.000000
127.343338 -9.372061 -0.000007 0.231327
118.403366 4.280615 -0.000015 0.227832
114.565048 10.142304 -0.000010 0.229699
112.427315 13.406941 -0.000007 0.215481
111.062553 15.491130 -0.000005 0.233972
110.113998 16.939718 -0.000005 0.229699
