# This PCD file was generated using the MATLABÂ® pcwrite function
# from Computer Vision ToolboxÂ®.
# .PCD v.7 - Point Cloud Data file format
VERSION .7
FIELDS x y z intensity
SIZE 4 4 4 4
TYPE F F F F
COUNT 1 1 1 1
WIDTH 1294
HEIGHT 1
VIEWPOINT 0 0 0 1 0 0 0
POINTS 1294
DATA ascii
21.770737 -37.656658 0.000002 0.228155
27.067356 -42.243263 0.000006 0.231554
30.017288 -44.797752 0.000008 0.213016
31.900497 -46.428516 -0.000006 0.215661
33.209450 -47.562000 -0.000007 0.256603
34.173824 -48.397099 -0.000008 0.243331
nan nan nan 0.000000
nan nan nan 0.000000
nan nan nan 0.000000
nan nan nan 0.000000
nan nan nan 0.000000
nan nan nan 0.000000
nan nan nan 0.000000
nan nan nan 0.000000
nan nan nan 0.000000
9.620737 -26.759411 -0.000005 0.230310
21.882662 -37.528320 0.000003 0.229436
27.147131 -42.151791 0.000006 0.219395
30.079153 -44.726810 0.000008 0.228790
31.950932 -46.370682 -0.000007 0.210922
33.251942 -47.513279 -0.000007 0.189236
34.210461 -48.355091 -0.000008 0.200198
nan nan nan 0.000000
nan nan nan 0.000000
nan nan nan 0.000000
nan nan nan 0.000000
nan nan nan 0.000000
nan nan nan 0.000000
nan nan nan 0.000000
nan nan nan 0.000000
nan nan nan 0.000000
9.809038 -26.546524 -0.000005 0.232057
21.995474 -37.400768 0.000003 0.227677
27.227539 -42.060875 0.000006 0.214775
30.141512 -44.656300 0.000008 0.224122
32.001774 -46.313202 -0.000006 0.223356
33.294769 -47.464851 -0.000007 0.241021
34.247391 -48.313335 -0.000007 0.270091
nan nan nan 0.000000
nan nan nan 0.000000
nan nan nan 0.000000
nan nan nan 0.000000
nan nan nan 0.000000
nan nan nan 0.000000
nan nan nan 0.000000
nan nan nan 0.000000
nan nan nan 0.000000
9.998812 -26.334949 -0.000005 0.228024
22.109175 -37.274006 0.000002 0.227198
27.308582 -41.970528 0.000006 0.226755
30.204365 -44.586231 0.000008 0.213088
32.053009 -46.256081 -0.000006 0.287037
33.337936 -47.416725 -0.000007 0.258625
34.284611 -48.271843 -0.000007 0.223081
nan nan nan 0.000000
nan nan nan 0.000000
nan nan nan 0.000000
nan nan nan 0.000000
nan nan nan 0.000000
nan nan nan 0.000000
nan nan nan 0.000000
nan nan nan 0.000000
nan nan nan 0.000000
10.190054 -26.124695 -0.000005 0.229460
22.223759 -37.148037 0.000002 0.226324
27.390247 -41.880741 0.000006 0.226767
30.267704 -44.516602 0.000008 0.216295
32.104645 -46.199314 -0.000006 0.198786
33.381439 -47.368904 -0.000007 0.251529
34.322121 -48.230606 -0.000007 0.269576
nan nan nan 0.000000
nan nan nan 0.000000
nan nan nan 0.000000
nan nan nan 0.000000
nan nan nan 0.000000
nan nan nan 0.000000
nan nan nan 0.000000
nan nan nan 0.000000
nan nan nan 0.000000
10.382763 -25.915789 -0.000005 0.231303
22.339218 -37.022873 0.000002 0.227485
27.472538 -41.791531 0.000006 0.230728
30.331524 -44.447414 0.000008 0.238268
32.156677 -46.142910 -0.000006 0.250248
33.425270 -47.321388 -0.000007 0.215828
34.359917 -48.189636 -0.000007 0.194681
nan nan nan 0.000000
nan nan nan 0.000000
nan nan nan 0.000000
nan nan nan 0.000000
nan nan nan 0.000000
nan nan nan 0.000000
nan nan nan 0.000000
nan nan nan 0.000000
nan nan nan 0.000000
10.576921 -25.708231 -0.000006 0.230142
22.455547 -36.898514 0.000002 0.224601
27.555456 -41.702896 0.000006 0.233289
30.395828 -44.378677 0.000008 0.234438
32.209099 -46.086872 -0.000006 0.184078
33.469437 -47.274178 -0.000006 0.237993
34.397995 -48.148930 -0.000007 0.187788
nan nan nan 0.000000
nan nan nan 0.000000
nan nan nan 0.000000
nan nan nan 0.000000
nan nan nan 0.000000
nan nan nan 0.000000
nan nan nan 0.000000
nan nan nan 0.000000
nan nan nan 0.000000
10.772520 -25.502026 -0.000006 0.231387
22.572744 -36.774979 0.000002 0.237933
27.638985 -41.614841 0.000005 0.243797
30.460609 -44.310387 0.000008 0.265363
32.261917 -46.031208 -0.000005 0.236521
33.513931 -47.227276 -0.000006 0.211843
34.436363 -48.108490 -0.000007 0.213459
nan nan nan 0.000000
nan nan nan 0.000000
nan nan nan 0.000000
nan nan nan 0.000000
nan nan nan 0.000000
nan nan nan 0.000000
nan nan nan 0.000000
nan nan nan 0.000000
nan nan nan 0.000000
10.969555 -25.297195 -0.000006 0.226372
22.690804 -36.652260 0.000002 0.232871
27.723133 -41.527378 0.000006 0.223979
30.525867 -44.242554 0.000007 0.215960
32.315117 -45.975903 -0.000005 0.225223
33.558754 -47.180687 -0.000006 0.206326
34.475006 -48.068317 -0.000006 0.188123
nan nan nan 0.000000
nan nan nan 0.000000
nan nan nan 0.000000
nan nan nan 0.000000
nan nan nan 0.000000
nan nan nan 0.000000
nan nan nan 0.000000
nan nan nan 0.000000
nan nan nan 0.000000
11.168022 -25.093746 -0.000007 0.228502
22.809711 -36.530365 0.000002 0.234127
27.807884 -41.440498 0.000005 0.226276
30.591595 -44.175175 0.000007 0.232930
32.368702 -45.920975 -0.000005 0.217253
33.603897 -47.134415 -0.000006 0.224326
34.513935 -48.028419 -0.000006 0.216068
nan nan nan 0.000000
nan nan nan 0.000000
nan nan nan 0.000000
nan nan nan 0.000000
nan nan nan 0.000000
nan nan nan 0.000000
nan nan nan 0.000000
nan nan nan 0.000000
nan nan nan 0.000000
11.367918 -24.891705 -0.000006 0.232691
22.929466 -36.409309 0.000002 0.227042
27.893238 -41.354210 0.000005 0.223189
30.657795 -44.108257 0.000007 0.219682
32.422668 -45.866425 -0.000005 0.228203
33.649361 -47.088455 -0.000006 0.296300
34.553135 -47.988792 -0.000006 0.232356
nan nan nan 0.000000
nan nan nan 0.000000
nan nan nan 0.000000
nan nan nan 0.000000
nan nan nan 0.000000
nan nan nan 0.000000
nan nan nan 0.000000
nan nan nan 0.000000
nan nan nan 0.000000
11.569212 -24.691059 -0.000006 0.230214
23.050070 -36.289093 0.000002 0.240506
27.979195 -41.268524 0.000005 0.220939
30.724457 -44.041801 0.000007 0.212226
32.477016 -45.812252 -0.000005 0.255981
33.695148 -47.042816 -0.000005 0.199420
34.592613 -47.949440 -0.000006 0.238136
nan nan nan 0.000000
nan nan nan 0.000000
nan nan nan 0.000000
nan nan nan 0.000000
nan nan nan 0.000000
nan nan nan 0.000000
nan nan nan 0.000000
nan nan nan 0.000000
nan nan nan 0.000000
11.771893 -24.491814 -0.000007 0.232081
23.171501 -36.169716 0.000001 0.233553
28.065754 -41.183445 0.000005 0.219921
30.791584 -43.975819 0.000007 0.229376
32.531742 -45.758457 -0.000005 0.199995
33.741253 -46.997498 -0.000005 0.196141
34.632366 -47.910362 -0.000006 0.224074
nan nan nan 0.000000
nan nan nan 0.000000
nan nan nan 0.000000
nan nan nan 0.000000
nan nan nan 0.000000
nan nan nan 0.000000
nan nan nan 0.000000
nan nan nan 0.000000
nan nan nan 0.000000
11.975964 -24.293989 -0.000007 0.228083
23.293768 -36.051186 0.000001 0.230226
28.152897 -41.098961 0.000005 0.242684
30.859171 -43.910305 0.000007 0.223141
32.586842 -45.705048 -0.000005 0.251134
33.787670 -46.952499 -0.000006 0.221142
34.672394 -47.871567 -0.000005 0.186806
nan nan nan 0.000000
nan nan nan 0.000000
nan nan nan 0.000000
nan nan nan 0.000000
nan nan nan 0.000000
nan nan nan 0.000000
nan nan nan 0.000000
nan nan nan 0.000000
nan nan nan 0.000000
12.181400 -24.097588 -0.000007 0.227138
23.416855 -35.933517 0.000001 0.225798
28.240627 -41.015099 0.000005 0.234893
30.927208 -43.845261 0.000007 0.240159
32.642307 -45.652023 -0.000004 0.192335
33.834404 -46.907829 -0.000005 0.267793
34.712685 -47.833050 -0.000006 0.214356
nan nan nan 0.000000
nan nan nan 0.000000
nan nan nan 0.000000
nan nan nan 0.000000
nan nan nan 0.000000
nan nan nan 0.000000
nan nan nan 0.000000
nan nan nan 0.000000
nan nan nan 0.000000
12.388222 -23.902639 -0.000007 0.228478
23.540771 -35.816719 0.000001 0.236198
28.328945 -40.931843 0.000004 0.237634
30.995701 -43.780693 0.000007 0.216211
32.698147 -45.599388 -0.000004 0.203585
33.881447 -46.863487 -0.000005 0.241392
34.753246 -47.794815 -0.000005 0.201048
nan nan nan 0.000000
nan nan nan 0.000000
nan nan nan 0.000000
nan nan nan 0.000000
nan nan nan 0.000000
nan nan nan 0.000000
nan nan nan 0.000000
nan nan nan 0.000000
nan nan nan 0.000000
12.596384 -23.709126 -0.000007 0.229400
23.665495 -35.700783 0.000001 0.236102
28.417841 -40.849209 0.000004 0.244910
31.064644 -43.716606 0.000006 0.223093
32.754356 -45.547146 -0.000004 0.202831
33.928799 -46.819469 -0.000005 0.215912
34.794075 -47.756863 -0.000005 0.238819
nan nan nan 0.000000
nan nan nan 0.000000
nan nan nan 0.000000
nan nan nan 0.000000
nan nan nan 0.000000
nan nan nan 0.000000
nan nan nan 0.000000
nan nan nan 0.000000
nan nan nan 0.000000
12.805897 -23.517076 -0.000007 0.230884
23.791019 -35.585716 0.000001 0.227904
28.507313 -40.767200 0.000005 0.233122
31.134029 -43.653000 0.000006 0.213650
32.810921 -45.495293 -0.000004 0.238125
33.976456 -46.775787 -0.000005 0.203130
34.835167 -47.719200 -0.000005 0.212130
nan nan nan 0.000000
nan nan nan 0.000000
nan nan nan 0.000000
nan nan nan 0.000000
nan nan nan 0.000000
nan nan nan 0.000000
nan nan nan 0.000000
nan nan nan 0.000000
nan nan nan 0.000000
13.016748 -23.326494 -0.000007 0.227712
23.917349 -35.471531 0.000001 0.231099
28.597353 -40.685810 0.000004 0.216056
31.203861 -43.589886 0.000006 0.227138
32.867851 -45.443840 -0.000004 0.231052
34.024414 -46.732441 -0.000004 0.203370
34.876522 -47.681824 -0.000005 0.210395
25.736366 -37.269955 7.470319 0.645243
25.736362 -37.269951 6.716717 0.666880
25.736366 -37.269958 5.973693 0.681834
25.736368 -37.269958 5.239470 0.643870
25.736364 -37.269955 4.512344 0.696010
25.736366 -37.269955 3.790674 0.612314
25.736366 -37.269955 3.072868 0.702037
25.736366 -37.269955 2.357368 0.678431
25.736366 -37.269955 1.642633 0.635126
25.736366 -37.269955 0.927132 0.637003
25.736366 -37.269955 0.209325 0.691463
28.687962 -40.605057 0.000004 0.217384
31.274132 -43.527260 0.000006 0.263616
32.925140 -45.392784 -0.000003 0.226887
34.072678 -46.689423 -0.000005 0.240099
34.918133 -47.644733 -0.000005 0.240195
25.938721 -37.269966 7.436858 0.656901
25.938721 -37.269966 6.687864 0.672877
25.938719 -37.269958 5.949388 0.659495
25.938721 -37.269962 5.219656 0.641672
25.938721 -37.269966 4.496977 0.683864
25.938721 -37.269962 3.779721 0.659159
25.938721 -37.269962 3.066306 0.683207
25.938721 -37.269962 2.355181 0.692943
25.938721 -37.269962 1.644819 0.680613
25.938719 -37.269958 0.933694 0.635294
25.938719 -37.269958 0.220278 0.724163
28.779129 -40.524940 0.000004 0.240147
31.344837 -43.465122 0.000006 0.244432
32.982780 -45.342129 -0.000003 0.195232
34.121239 -46.646751 -0.000004 0.217001
34.960007 -47.607941 -0.000004 0.202209
26.138622 -37.269966 7.404067 0.680720
26.138622 -37.269966 6.659589 0.677592
26.138626 -37.269970 5.925566 0.661448
26.138624 -37.269966 5.200236 0.668086
26.138622 -37.269966 4.481916 0.634455
26.138626 -37.269970 3.768987 0.682597
26.138622 -37.269966 3.059875 0.705577
26.138626 -37.269966 2.353039 0.686275
26.138626 -37.269966 1.646961 0.706386
26.138622 -37.269966 0.940125 0.580392
26.138624 -37.269966 0.231013 0.642618
28.870853 -40.445457 0.000004 0.218976
31.415972 -43.403481 0.000006 0.214344
33.040775 -45.291878 -0.000003 0.236652
34.170097 -46.604420 -0.000004 0.219514
35.002132 -47.571438 -0.000004 0.212741
26.336140 -37.269974 7.371926 0.683207
26.336140 -37.269974 6.631878 0.652781
26.336140 -37.269974 5.902220 0.621912
26.336136 -37.269974 5.181205 0.667063
26.336142 -37.269978 4.467155 0.644694
26.336142 -37.269978 3.758465 0.698314
26.336140 -37.269974 3.053571 0.645060
26.336142 -37.269978 2.350940 0.700206
26.336142 -37.269978 1.649060 0.672267
26.336140 -37.269974 0.946429 0.637369
26.336132 -37.269966 0.241533 0.629206
28.963131 -40.366619 0.000004 0.256639
31.487537 -43.342339 0.000006 0.217863
33.099117 -45.242035 -0.000002 0.215996
34.219250 -46.562424 -0.000004 0.227952
35.044514 -47.535229 -0.000004 0.249721
26.531330 -37.269978 7.340427 0.653071
26.531330 -37.269981 6.604718 0.670405
26.531334 -37.269981 5.879336 0.684047
26.531332 -37.269981 5.162550 0.667323
26.531334 -37.269981 4.452688 0.637858
26.531336 -37.269985 3.748155 0.675715
26.531334 -37.269981 3.047393 0.646510
26.531332 -37.269981 2.348881 0.675471
26.531330 -37.269981 1.651118 0.730602
26.531334 -37.269981 0.952607 0.636378
26.531322 -37.269966 0.251844 0.613703
29.055958 -40.288422 0.000004 0.225068
31.559528 -43.281696 0.000006 0.252833
33.157810 -45.192600 -0.000002 0.242002
34.268696 -46.520775 -0.000004 0.265842
35.087147 -47.499317 -0.000004 0.206111
26.724249 -37.269981 7.309553 0.616236
26.638950 -37.166542 6.607054 0.918486
26.724249 -37.269981 5.856912 0.702632
26.647297 -37.176659 5.162209 0.909468
26.647297 -37.176659 4.452425 0.932982
26.724247 -37.269981 3.738049 0.671855
26.724247 -37.269981 3.041337 0.640650
26.647312 -37.176682 2.348844 0.927367
26.647312 -37.176682 1.651156 0.929717
26.647312 -37.176678 0.952721 0.931655
26.724236 -37.269966 0.261949 0.650767
29.149328 -40.210884 0.000004 0.234211
31.631939 -43.221558 0.000006 0.239202
33.216843 -45.143574 -0.000002 0.199002
34.318428 -46.479473 -0.000003 0.232452
35.130028 -47.463703 -0.000004 0.211161
26.914963 -37.269981 7.279288 0.674327
26.757797 -37.076656 6.605813 0.678431
26.914959 -37.269978 5.834929 0.611749
26.714867 -37.023842 5.173398 0.855253
26.757813 -37.076675 4.453270 0.678431
26.914959 -37.269981 3.728142 0.652903
26.914959 -37.269981 3.035403 0.641718
26.714863 -37.023842 2.350078 0.899260
26.757811 -37.076672 1.651035 0.678431
26.757813 -37.076675 0.952358 0.678431
26.914948 -37.269966 0.271856 0.650370
29.243237 -40.133991 0.000004 0.213136
31.704769 -43.161926 0.000006 0.206027
33.276215 -45.094963 -0.000002 0.219371
34.368446 -46.438519 -0.000003 0.199325
35.173161 -47.428394 -0.000003 0.287289
27.028725 -37.176651 7.279583 0.917556
26.948597 -37.076668 6.579929 0.678431
27.103516 -37.269974 5.813379 0.625879
26.908520 -37.026657 5.155031 0.678431
26.948586 -37.076653 4.439487 0.678431
27.103519 -37.269978 3.718431 0.674495
27.103518 -37.269974 3.029585 0.676738
26.908516 -37.026657 2.348052 0.765377
26.948589 -37.076656 1.652996 0.678431
26.948589 -37.076660 0.958244 0.678431
27.103508 -37.269966 0.281567 0.641169
29.337681 -40.057758 0.000003 0.227425
31.778015 -43.102802 0.000005 0.227078
33.335930 -45.046764 -0.000002 0.247005
34.418758 -46.397915 -0.000003 0.208205
35.216537 -47.393383 -0.000003 0.279043
27.216251 -37.176655 7.250335 0.916457
27.137249 -37.076653 6.554562 0.689097
27.289974 -37.269974 5.792255 0.676219
27.137245 -37.076649 5.128103 0.937255
27.137245 -37.076645 4.425975 0.774990
27.289978 -37.269978 3.708912 0.674708
27.289974 -37.269974 3.023881 0.688914
27.129869 -37.067310 2.345277 0.937255
27.137245 -37.076649 1.654919 0.766384
27.137245 -37.076649 0.964015 0.738079
27.289967 -37.269966 0.291087 0.659541
29.432653 -39.982189 0.000003 0.225211
31.851669 -43.044197 0.000005 0.240171
33.395973 -44.998985 -0.000002 0.219538
34.469345 -46.357662 -0.000003 0.288473
35.260155 -47.358677 -0.000003 0.215697
27.401718 -37.176655 7.221663 0.928832
27.323845 -37.076653 6.529690 0.678431
27.474390 -37.269974 5.771546 0.716167
27.323841 -37.076653 5.111021 0.905882
27.323845 -37.076653 4.412726 0.678431
27.474392 -37.269974 3.699580 0.687449
27.474388 -37.269974 3.018290 0.729946
27.284912 -37.026657 2.344234 0.761151
27.323849 -37.076660 1.656803 0.678431
27.323851 -37.076660 0.969673 0.688563
27.474384 -37.269966 0.300418 0.722393
29.528151 -39.907280 0.000003 0.198056
31.925734 -42.986103 0.000005 0.231949
33.456356 -44.951630 -0.000002 0.207475
34.520214 -46.317768 -0.000002 0.208025
35.304016 -47.324276 -0.000003 0.215972
27.546383 -37.126106 7.209515 0.918105
27.689295 -37.312294 6.441148 0.626856
27.656811 -37.269974 5.751244 0.644923
27.508430 -37.076668 5.094271 0.937255
27.525070 -37.098343 4.396593 0.927977
27.656809 -37.269974 3.690431 0.708522
27.656811 -37.269974 3.012808 0.714076
27.508434 -37.076672 2.341349 0.937255
27.525070 -37.098343 1.659098 0.911162
27.525070 -37.098343 0.976562 0.923095
27.656803 -37.269966 0.309567 0.730541
29.624172 -39.833046 0.000003 0.249733
32.000198 -42.928528 0.000005 0.238208
33.517063 -44.904694 -0.000001 0.185705
34.571358 -46.278225 -0.000002 0.297916
35.348114 -47.290180 -0.000003 0.207858
27.728863 -37.126663 7.181699 0.928374
27.875536 -37.320534 6.415352 0.619028
27.837280 -37.269970 5.731340 0.700008
27.631653 -36.998169 5.092454 0.806790
27.691048 -37.076675 4.387001 0.678431
27.837284 -37.269974 3.681461 0.699733
27.837284 -37.269974 3.007435 0.756588
27.691044 -37.076675 2.339538 0.830884
27.691044 -37.076675 1.660462 0.678431
27.691048 -37.076675 0.980658 0.716854
27.837278 -37.269966 0.318537 0.730449
29.720703 -39.759480 0.000003 0.239585
32.075069 -42.871479 0.000005 0.223356
33.578098 -44.858185 -0.000001 0.212118
34.622780 -46.239040 -0.000002 0.227916
35.392452 -47.256393 -0.000002 0.193018
27.866241 -37.069309 7.172521 0.822583
28.053558 -37.320526 6.392263 0.625177
28.015858 -37.269966 5.711827 0.735378
27.946274 -37.176643 5.043257 0.919142
27.946274 -37.176643 4.360172 0.927153
28.015858 -37.269966 3.672669 0.664881
28.015862 -37.269974 3.002166 0.626780
27.871735 -37.076675 2.337762 0.884062
27.908991 -37.126640 1.663258 0.905638
27.908993 -37.126644 0.989051 0.905501
28.015858 -37.269966 0.327331 0.661082
29.817751 -39.686592 0.000003 0.230812
32.150330 -42.814949 0.000005 0.216391
33.639458 -44.812103 -0.000001 0.223320
34.674469 -46.200218 -0.000002 0.199756
35.437019 -47.222919 -0.000002 0.209749
28.192593 -37.269974 7.083486 0.656733
28.192589 -37.269970 6.383175 0.646036
28.192589 -37.269966 5.692695 0.600809
28.192589 -37.269970 5.010392 0.605325
28.192589 -37.269970 4.334684 0.612131
28.192589 -37.269970 3.664047 0.611002
28.192589 -37.269966 2.997000 0.580301
28.192591 -37.269970 2.332096 0.662577
28.192591 -37.269970 1.667904 0.664576
28.192589 -37.269966 1.002999 0.648173
28.192589 -37.269966 0.335952 0.610880
29.915304 -39.614380 0.000003 0.235264
32.225986 -42.758945 0.000005 0.224206
33.701134 -44.766449 -0.000000 0.231255
34.726433 -46.161758 -0.000001 0.207738
35.481827 -47.189758 -0.000002 0.262108
28.367514 -37.269966 7.057665 0.656641
28.367512 -37.269966 6.360910 0.610056
28.367512 -37.269966 5.673938 0.636912
28.367514 -37.269966 4.995101 0.629465
28.367512 -37.269966 4.322826 0.637308
28.367512 -37.269966 3.655594 0.610117
28.367514 -37.269966 2.991936 0.639368
28.367512 -37.269966 2.330410 0.675944
28.367512 -37.269966 1.669590 0.684047
28.367512 -37.269966 1.008063 0.680095
28.367512 -37.269966 0.344405 0.699519
30.013359 -39.542854 0.000003 0.236042
32.302032 -42.703476 0.000005 0.231147
33.763130 -44.721230 -0.000000 0.208181
34.778660 -46.123657 -0.000001 0.246514
35.526859 -47.156906 -0.000002 0.257165
28.540680 -37.269966 7.032348 0.624537
28.540676 -37.269966 6.339081 0.642863
28.540678 -37.269966 5.655547 0.625147
28.540680 -37.269966 4.980108 0.631769
28.540678 -37.269966 4.311198 0.638422
28.540676 -37.269966 3.647307 0.621530
28.540680 -37.269966 2.986971 0.625406
28.540680 -37.269966 2.328755 0.623850
28.540680 -37.269966 1.671245 0.665629
28.540680 -37.269966 1.013029 0.661433
28.540680 -37.269966 0.352692 0.673213
30.111910 -39.472012 0.000003 0.233409
32.378464 -42.648537 0.000005 0.228167
33.825439 -44.676441 -0.000000 0.242972
34.831158 -46.085930 -0.000001 0.241296
35.572121 -47.124374 -0.000001 0.285242
28.711956 -37.269722 7.007599 0.920501
28.712124 -37.269958 6.317679 0.697887
28.711956 -37.269722 5.637570 0.771206
28.711956 -37.269722 4.965453 0.937255
28.711952 -37.269718 4.299833 0.884703
28.712126 -37.269966 3.639182 0.627131
28.712128 -37.269966 2.982103 0.632303
28.711952 -37.269718 2.327139 0.866285
28.711952 -37.269718 1.672861 0.879805
28.711952 -37.269718 1.017882 0.893385
28.712128 -37.269966 0.360818 0.678309
30.210953 -39.401859 0.000003 0.220891
32.455276 -42.594131 0.000005 0.218413
33.888062 -44.632088 0.000000 0.206721
34.883911 -46.048561 -0.000001 0.214057
35.617611 -47.092155 -0.000001 0.238125
28.817284 -37.176682 7.011614 0.842191
28.881897 -37.269958 6.296695 0.702159
28.817265 -37.176651 5.640491 0.915007
28.817265 -37.176651 4.967835 0.925368
28.817265 -37.176651 4.301680 0.923491
28.881897 -37.269958 3.631216 0.659922
28.881901 -37.269966 2.977329 0.680522
28.817276 -37.176666 2.327401 0.915755
28.817276 -37.176666 1.672599 0.936889
28.817276 -37.176666 1.017094 0.914275
28.881897 -37.269958 0.368784 0.713558
30.310484 -39.332401 0.000003 0.221920
32.532467 -42.540260 0.000005 0.244204
33.950993 -44.588177 0.000000 0.246239
34.936928 -46.011566 -0.000000 0.247759
35.663322 -47.060257 -0.000001 0.226181
28.918129 -37.076656 7.017948 0.678431
29.050037 -37.269958 6.276122 0.649760
28.986366 -37.176651 5.623060 0.933272
28.897945 -37.047077 4.976893 0.897154
28.952259 -37.126671 4.297619 0.937255
29.050037 -37.269958 3.623405 0.656825
29.050037 -37.269958 2.972650 0.638132
28.918140 -37.076672 2.327814 0.937255
28.918140 -37.076672 1.672186 0.678431
28.952259 -37.126671 1.018827 0.791287
29.050041 -37.269966 0.376595 0.652873
30.410496 -39.263641 0.000002 0.200940
32.610027 -42.486931 0.000004 0.230118
34.014225 -44.544701 0.000000 0.203035
34.990200 -45.974941 -0.000000 0.208887
35.709255 -47.028679 -0.000001 0.222327
29.086639 -37.076653 6.994281 0.678431
29.216579 -37.269955 6.255952 0.659648
29.153866 -37.176659 5.605967 0.918242
29.053040 -37.026669 4.966498 0.678431
29.120266 -37.126675 4.286780 0.937255
29.216581 -37.269958 3.615747 0.679515
29.216583 -37.269962 2.968062 0.602090
29.086651 -37.076668 2.326268 0.937255
29.086651 -37.076668 1.673732 0.678431
29.078056 -37.063881 1.019739 0.580316
29.216583 -37.269958 0.384252 0.637064
30.510990 -39.195580 0.000003 0.227784
32.687965 -42.434147 0.000004 0.230788
34.077759 -44.501671 0.000000 0.211209
35.043728 -45.938690 -0.000000 0.178321
35.755409 -46.997421 -0.000001 0.192575
29.286694 -37.126663 6.956049 0.937255
29.381569 -37.269958 6.236176 0.680140
29.319796 -37.176659 5.589211 0.913436
29.220480 -37.026661 4.952716 0.678431
29.286699 -37.126671 4.276155 0.935225
29.381573 -37.269958 3.608239 0.665415
29.381571 -37.269958 2.963564 0.624308
29.253590 -37.076664 2.324752 0.937255
29.286701 -37.126675 1.676230 0.893721
29.286699 -37.126671 1.027994 0.923033
29.381573 -37.269958 0.391760 0.636088
30.611952 -39.128220 0.000002 0.246514
32.766266 -42.381908 0.000004 0.236126
34.141594 -44.459084 0.000001 0.207212
35.097507 -45.902813 0.000000 0.230046
35.801781 -46.966484 -0.000000 0.249793
29.418983 -37.076645 6.948322 0.678431
29.545044 -37.269955 6.216786 0.710216
29.484207 -37.176666 5.572782 0.913725
29.386377 -37.026649 4.939203 0.678431
29.433475 -37.098869 4.269556 0.817365
29.545044 -37.269958 3.600879 0.676707
29.545044 -37.269958 2.959154 0.631632
29.418991 -37.076660 2.323266 0.937255
29.418989 -37.076656 1.676734 0.678431
29.418991 -37.076660 1.029509 0.758831
29.545046 -37.269958 0.399121 0.629541
30.713387 -39.061569 0.000002 0.220412
32.844933 -42.330215 0.000004 0.225331
34.205727 -44.416946 0.000001 0.228478
35.151535 -45.867313 0.000000 0.249422
35.848366 -46.935875 -0.000000 0.229173
29.582890 -37.076653 6.926015 0.678431
29.707031 -37.269955 6.197779 0.649104
29.640163 -37.165833 5.559019 0.895766
29.550783 -37.026657 4.925952 0.678431
29.582897 -37.076660 4.262361 0.743145
29.707031 -37.269955 3.593662 0.637842
29.707031 -37.269955 2.954830 0.638392
29.582901 -37.076668 2.321808 0.914946
29.582901 -37.076668 1.678191 0.678431
29.582899 -37.076664 1.033884 0.724910
29.738400 -37.318794 0.411096 0.625299
30.815279 -38.995625 0.000002 0.236820
32.923954 -42.279076 0.000004 0.210311
34.270149 -44.375256 0.000001 0.217875
35.205811 -45.832188 0.000000 0.213937
35.895164 -46.905590 -0.000000 0.200019
29.745338 -37.076660 6.904143 0.678431
29.867573 -37.269951 6.179143 0.641047
29.755371 -37.092529 5.559002 0.924926
29.713715 -37.026657 4.912963 0.703700
29.745337 -37.076660 4.252318 0.660105
29.867575 -37.269955 3.586588 0.664240
29.867573 -37.269951 2.950591 0.627970
29.745335 -37.076656 2.320380 0.937255
29.745335 -37.076656 1.679620 0.678431
29.745335 -37.076656 1.038172 0.678431
29.899570 -37.320549 0.418320 0.632441
30.917633 -38.930397 0.000002 0.222052
33.003334 -42.228489 0.000004 0.218007
34.334862 -44.334019 0.000002 0.240183
35.260326 -45.797443 0.000000 0.203382
35.942169 -46.875633 0.000000 0.222518
29.906351 -37.076660 6.882705 0.678431
30.026707 -37.269951 6.160874 0.756466
29.906347 -37.076653 5.546846 0.910475
29.875216 -37.026657 4.900229 0.678431
29.906349 -37.076660 4.242473 0.678431
30.026707 -37.269951 3.579652 0.657969
30.026705 -37.269951 2.946436 0.605768
29.906349 -37.076660 2.318980 0.937255
29.906347 -37.076653 1.681020 0.678431
29.906347 -37.076653 1.042377 0.678431
30.058212 -37.320549 0.425234 0.628168
31.020435 -38.865879 0.000002 0.201934
33.083061 -42.178455 0.000004 0.219790
34.399860 -44.293228 0.000002 0.280311
35.315086 -45.763084 0.000001 0.256543
35.989388 -46.846004 0.000000 0.200964
30.065969 -37.076660 6.861690 0.678431
30.184460 -37.269951 6.142965 0.626444
30.065971 -37.076660 5.531579 0.925002
30.035316 -37.026657 4.887747 0.678431
30.096624 -37.126667 4.226073 0.937255
30.184460 -37.269951 3.572854 0.616938
30.184460 -37.269951 2.942362 0.619532
30.065969 -37.076660 2.317606 0.937255
30.096622 -37.126663 1.683353 0.937255
30.096621 -37.126663 1.049380 0.937255
30.215473 -37.320541 0.432012 0.623529
31.123692 -38.802090 0.000002 0.234187
33.163139 -42.128983 0.000004 0.251170
34.465141 -44.252899 0.000002 0.221549
35.370087 -45.729107 0.000001 0.205967
36.036808 -46.816708 0.000001 0.200162
30.340874 -37.269958 6.784540 0.628946
30.340870 -37.269951 6.125411 0.652171
30.340870 -37.269951 5.475538 0.746807
30.340870 -37.269951 4.833359 0.560128
30.340870 -37.269951 4.197388 0.651987
30.340870 -37.269951 3.566189 0.667399
30.340870 -37.269951 2.938369 0.582269
30.340872 -37.269955 2.312566 0.634913
30.340872 -37.269955 1.687433 0.661677
30.340870 -37.269951 1.061630 0.699184
30.340870 -37.269951 0.433810 0.655070
31.227386 -38.739021 0.000002 0.238136
33.243561 -42.080063 0.000004 0.227126
34.530704 -44.213020 0.000002 0.202053
35.425320 -45.695511 0.000002 0.226707
36.084435 -46.787743 0.000001 0.245868
30.495974 -37.269958 6.764582 0.695247
30.495970 -37.269951 6.108204 0.668910
30.495968 -37.269951 5.461041 0.667262
30.495970 -37.269951 4.821541 0.666514
30.495972 -37.269951 4.188223 0.637690
30.495970 -37.269951 3.559656 0.669795
30.495972 -37.269951 2.934455 0.612833
30.495974 -37.269958 2.311263 0.634409
30.495974 -37.269958 1.688738 0.652613
30.495972 -37.269958 1.065544 0.706981
30.495972 -37.269958 0.440344 0.697597
31.331520 -38.676674 0.000002 0.233373
33.324318 -42.031712 0.000004 0.240434
34.596542 -44.173607 0.000002 0.229208
35.480789 -45.662304 0.000002 0.226863
36.132259 -46.759109 0.000001 0.217121
30.649792 -37.269958 6.745020 0.662593
30.649790 -37.269958 6.091337 0.643366
30.649788 -37.269951 5.446831 0.661433
30.649788 -37.269955 4.809958 0.695949
30.649788 -37.269951 4.179239 0.657313
30.649788 -37.269955 3.553253 0.654719
30.649792 -37.269958 2.930619 0.686976
30.649792 -37.269958 2.309985 0.674174
30.649792 -37.269958 1.690015 0.628428
30.649792 -37.269962 1.069381 0.665522
30.649792 -37.269958 0.446746 0.683970
31.436087 -38.615051 0.000001 0.231506
33.405415 -41.983925 0.000003 0.217564
34.662655 -44.134651 0.000003 0.287995
35.536484 -45.629486 0.000002 0.196979
36.180283 -46.730812 0.000001 0.259451
30.802357 -37.269962 6.725850 0.652888
30.802357 -37.269958 6.074807 0.651011
30.802353 -37.269951 5.432905 0.593606
30.802353 -37.269955 4.798604 0.708202
30.802355 -37.269958 4.170434 0.661616
30.802353 -37.269955 3.546977 0.670573
30.802359 -37.269962 2.926859 0.712474
30.802361 -37.269966 2.308732 0.639353
30.802361 -37.269966 1.691268 0.652277
30.802361 -37.269966 1.073141 0.663386
30.802357 -37.269958 0.453022 0.764309
31.541080 -38.554169 0.000001 0.220041
33.486843 -41.936707 0.000003 0.222243
34.729038 -44.096157 0.000003 0.195986
35.592411 -45.597054 0.000002 0.274950
36.228504 -46.702850 0.000001 0.206493
30.914932 -37.201462 6.726779 0.922103
30.953705 -37.269962 6.058607 0.615702
30.914928 -37.201454 5.433579 0.924941
30.914928 -37.201454 4.799153 0.901503
30.914928 -37.201454 4.170860 0.886625
30.953705 -37.269966 3.540827 0.687434
30.953705 -37.269966 2.923174 0.628824
30.900902 -37.176670 2.309259 0.917449
30.900902 -37.176670 1.690741 0.921752
30.900904 -37.176674 1.071559 0.890806
30.900902 -37.176670 0.450383 0.907759
31.646496 -38.494015 0.000001 0.223584
33.568596 -41.890053 0.000003 0.237430
34.795689 -44.058128 0.000003 0.280814
35.648560 -45.565018 0.000002 0.241703
36.276920 -46.675224 0.000001 0.209581
31.025002 -37.128334 6.729253 0.917906
31.103859 -37.269958 6.042731 0.615167
31.051918 -37.176674 5.425308 0.921660
31.051914 -37.176670 4.792413 0.925826
31.051916 -37.176674 4.165632 0.909194
31.103859 -37.269958 3.534799 0.692927
31.103859 -37.269962 2.919563 0.690867
31.024075 -37.126671 2.308985 0.927565
31.024075 -37.126671 1.691014 0.925490
31.024075 -37.126671 1.072380 0.914916
31.024078 -37.126678 0.451753 0.916396
31.752331 -38.434601 0.000001 0.222674
33.650677 -41.843979 0.000003 0.242828
34.862602 -44.020565 0.000003 0.216331
35.704933 -45.533371 0.000002 0.208049
36.325527 -46.647938 0.000002 0.266871
31.146984 -37.076668 6.725811 0.678431
31.252850 -37.269962 6.027175 0.609613
31.119595 -37.026657 5.443251 0.707408
31.119595 -37.026657 4.807039 0.716350
31.146982 -37.076664 4.170417 0.678431
31.252850 -37.269962 3.528893 0.606577
31.252850 -37.269962 2.916024 0.698207
31.146988 -37.076675 2.308730 0.678431
31.146984 -37.076664 1.691270 0.007843
31.190636 -37.156368 1.077612 0.622980
31.146982 -37.076664 0.453035 0.008347
31.858578 -38.375927 0.000001 0.219143
33.733074 -41.798477 0.000003 0.229448
34.929779 -43.983475 0.000004 0.213399
35.761528 -45.502121 0.000003 0.209222
36.374321 -46.620995 0.000002 0.245461
31.296589 -37.076668 6.707927 0.678431
31.400707 -37.269966 6.011932 0.721218
31.269653 -37.026661 5.430218 0.678431
31.269653 -37.026665 4.796414 0.678431
31.296583 -37.076656 4.162202 0.678431
31.400709 -37.269966 3.523107 0.620127
31.400707 -37.269966 2.912558 0.708186
31.296591 -37.076668 2.307561 0.678431
31.288979 -37.062538 1.692176 0.019516
31.288979 -37.062538 1.075868 0.013672
31.288980 -37.062538 0.457574 0.019287
31.965229 -38.317993 0.000001 0.251840
33.815788 -41.753548 0.000003 0.242780
34.997208 -43.946846 0.000004 0.213746
35.818336 -45.471264 0.000003 0.237849
36.423306 -46.594391 0.000002 0.227126
31.471558 -37.126671 6.676228 0.912840
31.547457 -37.269962 5.996999 0.688411
31.418587 -37.026665 5.417449 0.678431
31.418587 -37.026661 4.786005 0.678431
31.445061 -37.076645 4.154156 0.678431
31.547459 -37.269966 3.517437 0.608392
31.547457 -37.269962 2.909161 0.611765
31.445072 -37.076668 2.306417 0.678431
31.434479 -37.056664 1.693213 0.678431
31.434479 -37.056664 1.078981 0.678431
31.434479 -37.056664 0.462770 0.678431
32.072285 -38.260811 0.000001 0.250679
33.898815 -41.709198 0.000003 0.216367
35.064892 -43.910690 0.000004 0.212047
35.875359 -45.440811 0.000003 0.205859
36.472473 -46.568127 0.000002 0.190050
31.592464 -37.076672 6.673234 0.678431
31.693127 -37.269966 5.982369 0.641993
31.566427 -37.026672 5.404940 0.678431
31.566423 -37.026665 4.775807 0.678431
31.592453 -37.076649 4.146272 0.678431
31.693127 -37.269966 3.511884 0.583185
31.693127 -37.269966 2.905833 0.614786
31.592461 -37.076668 2.305295 0.678431
31.582045 -37.056664 1.694336 0.678431
31.582043 -37.056656 1.082352 0.678431
31.582041 -37.056656 0.468395 0.678431
32.179737 -38.204372 0.000001 0.222578
33.982147 -41.665428 0.000003 0.237849
35.132832 -43.875015 0.000004 0.220113
35.932594 -45.410751 0.000004 0.222147
36.521824 -46.542206 0.000002 0.207487
31.738787 -37.076672 6.656418 0.678431
31.837738 -37.269966 5.968040 0.689693
31.713184 -37.026661 5.392690 0.678431
31.713184 -37.026665 4.765820 0.678431
31.738777 -37.076656 4.138548 0.678431
31.837738 -37.269966 3.506444 0.676783
31.837736 -37.269962 2.902574 0.647562
31.738781 -37.076660 2.304196 0.678431
31.728537 -37.056648 1.695435 0.678431
31.728539 -37.056652 1.085653 0.678431
31.728539 -37.056652 0.473907 0.678431
32.287582 -38.148689 0.000001 0.233421
34.065784 -41.622246 0.000003 0.242565
35.201012 -43.839806 0.000005 0.215972
35.990036 -45.381088 0.000004 0.227353
36.571350 -46.516636 0.000003 0.224912
31.909224 -37.126671 6.625928 0.937255
31.981321 -37.269966 5.954005 0.651881
31.884064 -37.076668 5.370504 0.927504
31.884060 -37.076660 4.747736 0.929442
31.909214 -37.126652 4.124545 0.937255
31.981321 -37.269966 3.501115 0.690394
31.981319 -37.269966 2.899382 0.614176
31.884060 -37.076660 2.303121 0.678431
31.873997 -37.056656 1.696513 0.678431
31.873995 -37.056656 1.088887 0.678431
31.873995 -37.056656 0.479305 0.678431
32.395809 -38.093754 0.000000 0.229400
34.149719 -41.579643 0.000003 0.254844
35.269444 -43.805080 0.000005 0.260780
36.047684 -45.351830 0.000004 0.212980
36.621059 -46.491409 0.000003 0.236880
32.028324 -37.076664 6.623822 0.678431
32.123901 -37.269970 5.940259 0.684123
32.003605 -37.026665 5.368937 0.678431
32.028320 -37.076656 4.738185 0.898650
32.028320 -37.076653 4.123577 0.678431
32.123901 -37.269970 3.495897 0.695644
32.123898 -37.269962 2.896255 0.701030
32.028320 -37.076660 2.302067 0.678431
32.018433 -37.056664 1.697568 0.672038
32.018433 -37.056664 1.092055 0.672038
32.018436 -37.056664 0.484592 0.672038
32.504421 -38.039589 0.000001 0.247352
34.233952 -41.537628 0.000003 0.221226
35.338112 -43.770832 0.000005 0.245640
36.105537 -45.322979 0.000004 0.269684
36.670940 -46.466530 0.000003 0.257010
32.171589 -37.076656 6.608030 0.678431
32.265495 -37.269970 5.926801 0.704494
32.147305 -37.026665 5.357431 0.678431
32.171589 -37.076656 4.728832 0.923491
32.171585 -37.076653 4.116323 0.678431
32.265495 -37.269970 3.490788 0.704051
32.265491 -37.269962 2.893193 0.645212
32.171589 -37.076653 2.301035 0.678431
32.171593 -37.076660 1.698965 0.019211
32.171593 -37.076660 1.096248 0.009216
32.171593 -37.076660 0.491590 0.016922
32.613403 -37.986172 0.000000 0.228646
34.318474 -41.496208 0.000003 0.246442
35.407017 -43.737064 0.000005 0.214967
36.163589 -45.294529 0.000004 0.212824
36.720993 -46.442001 0.000003 0.214165
32.361610 -37.176659 6.564812 0.908446
32.406136 -37.269974 5.913623 0.688731
32.361603 -37.176651 5.315926 0.914244
32.361603 -37.176651 4.703240 0.935042
32.361603 -37.176651 4.096475 0.917037
32.406136 -37.269974 3.485785 0.661402
32.406128 -37.269966 2.890197 0.656596
32.337746 -37.126652 2.299119 0.922576
32.337746 -37.126652 1.700881 0.905882
32.337746 -37.126652 1.102002 0.904738
32.337746 -37.126656 0.501194 0.901549
32.722759 -37.933521 0.000000 0.217013
34.403282 -41.455372 0.000002 0.220209
35.476158 -43.703777 0.000006 0.211173
36.221836 -45.266487 0.000005 0.204650
36.771217 -46.417820 0.000004 0.260062
32.545841 -37.269974 6.523954 0.630701
32.545837 -37.269970 5.900725 0.632929
32.545841 -37.269970 5.286244 0.635493
32.545841 -37.269970 4.679043 0.637949
32.545841 -37.269970 4.077709 0.617533
32.545841 -37.269970 3.480888 0.606897
32.545837 -37.269966 2.887262 0.659983
32.545837 -37.269966 2.295543 0.604868
32.545837 -37.269966 1.704457 0.687358
32.545837 -37.269966 1.112737 0.649424
32.545837 -37.269966 0.519111 0.656458
32.832481 -37.881634 0.000000 0.219742
34.488380 -41.415131 0.000003 0.234522
35.545528 -43.670975 0.000006 0.202436
36.280281 -45.238850 0.000005 0.205416
36.821609 -46.393990 0.000004 0.274411
32.684631 -37.269966 6.509313 0.648661
32.684631 -37.269970 5.888099 0.656077
32.684631 -37.269966 5.275608 0.602014
32.684631 -37.269966 4.670372 0.670283
32.684631 -37.269966 4.070985 0.638560
32.684631 -37.269966 3.476095 0.693797
32.684631 -37.269966 2.884390 0.715969
32.684631 -37.269966 2.294586 0.647776
32.684631 -37.269966 1.705414 0.694347
32.684628 -37.269962 1.115609 0.674372
32.684631 -37.269966 0.523905 0.674968
32.942562 -37.830517 0.000000 0.253850
34.573750 -41.375484 0.000003 0.224721
35.615128 -43.638657 0.000006 0.234474
36.338913 -45.211624 0.000005 0.257871
36.872169 -46.370514 0.000004 0.255574
32.822536 -37.269966 6.494984 0.616648
32.822536 -37.269966 5.875745 0.629694
32.822536 -37.269966 5.265200 0.666957
32.822536 -37.269966 4.661886 0.701045
32.822536 -37.269966 4.064404 0.676921
32.822536 -37.269966 3.471404 0.665415
32.822536 -37.269966 2.881580 0.673213
32.822536 -37.269966 2.293651 0.642390
32.822533 -37.269958 1.706350 0.676341
32.822533 -37.269958 1.118419 0.688823
32.822533 -37.269962 0.528595 0.682963
33.052998 -37.780163 0.000000 0.254078
34.659397 -41.336437 0.000002 0.217564
35.684948 -43.606823 0.000006 0.199277
36.397736 -45.184807 0.000005 0.205668
36.922886 -46.347389 0.000004 0.270186
32.959572 -37.269966 6.480963 0.631266
32.959572 -37.269966 5.863655 0.673136
32.959572 -37.269966 5.255014 0.720913
32.959572 -37.269966 4.653583 0.691005
32.959572 -37.269962 4.057964 0.695186
32.959572 -37.269962 3.466815 0.668971
32.959572 -37.269966 2.878830 0.619348
32.959572 -37.269966 2.292734 0.682338
32.959572 -37.269958 1.707266 0.659648
32.959568 -37.269958 1.121169 0.684520
32.959572 -37.269958 0.533185 0.678386
33.163780 -37.730587 0.000000 0.229232
34.745316 -41.297989 0.000003 0.231123
35.754990 -43.575478 0.000006 0.206302
36.456745 -45.158401 0.000006 0.243702
36.973766 -46.324623 0.000005 0.263365
33.095764 -37.269966 6.467245 0.755703
33.095764 -37.269966 5.851827 0.668833
33.095764 -37.269966 5.245050 0.681910
33.095764 -37.269966 4.645459 0.646326
33.095764 -37.269962 4.051664 0.667704
33.095764 -37.269966 3.462324 0.693004
33.095764 -37.269958 2.876140 0.607431
33.095764 -37.269958 2.291838 0.645228
33.095764 -37.269958 1.708162 0.630823
33.095760 -37.269955 1.123860 0.694697
33.095764 -37.269958 0.537675 0.707225
33.274906 -37.681786 0.000000 0.230884
34.831497 -41.260139 0.000002 0.240470
35.825253 -43.544624 0.000007 0.237095
36.515938 -45.132408 0.000006 0.225510
37.024803 -46.302212 0.000005 0.260959
33.231133 -37.269958 6.453829 0.667124
33.231133 -37.269958 5.840260 0.661067
33.231133 -37.269958 5.235305 0.579599
33.231133 -37.269958 4.637514 0.634897
33.231129 -37.269958 4.045503 0.650828
33.231129 -37.269958 3.457932 0.696330
33.231129 -37.269958 2.873509 0.705989
33.231129 -37.269958 2.290962 0.655406
33.231129 -37.269958 1.709038 0.649531
33.231129 -37.269958 1.126491 0.701778
33.231129 -37.269958 0.542067 0.660517
33.386372 -37.633755 0.000000 0.211101
34.917942 -41.222893 0.000002 0.222913
35.895721 -43.514259 0.000007 0.220580
36.575310 -45.106827 0.000006 0.301662
37.075996 -46.280155 0.000005 0.286247
33.365696 -37.269958 6.440709 0.667231
33.365696 -37.269958 5.828946 0.650996
33.365692 -37.269958 5.225774 0.651225
33.365696 -37.269962 4.629745 0.639414
33.365692 -37.269958 4.039476 0.679057
33.365692 -37.269958 3.453638 0.695644
33.365692 -37.269958 2.870935 0.733822
33.365692 -37.269958 2.290104 0.650721
33.365692 -37.269958 1.709896 0.606394
33.365692 -37.269955 1.129064 0.678126
33.365692 -37.269955 0.546362 0.657649
33.498169 -37.586510 -0.000000 0.242313
35.004646 -41.186253 0.000002 0.213674
35.966408 -43.484394 0.000007 0.250810
36.634857 -45.081661 0.000006 0.249350
37.127342 -46.258461 0.000005 0.189475
33.499474 -37.269958 6.427879 0.631754
33.499474 -37.269958 5.817885 0.675258
33.499474 -37.269958 5.216455 0.623606
33.499474 -37.269958 4.622149 0.619394
33.499470 -37.269958 4.033586 0.656703
33.499470 -37.269958 3.449438 0.679347
33.499470 -37.269958 2.868419 0.743877
33.499470 -37.269951 2.289267 0.653574
33.499470 -37.269951 1.710733 0.656779
33.499470 -37.269955 1.131580 0.681102
33.499470 -37.269951 0.550561 0.627543
33.610294 -37.540047 -0.000000 0.216774
35.091602 -41.150219 0.000002 0.271192
36.037300 -43.455021 0.000008 0.236006
36.694580 -45.056915 0.000007 0.239381
37.178837 -46.237118 0.000005 0.215194
33.632488 -37.269958 6.415339 0.695827
33.632488 -37.269958 5.807072 0.612222
33.632488 -37.269958 5.207345 0.664408
33.632488 -37.269958 4.614722 0.644602
33.632484 -37.269955 4.027826 0.654368
33.632488 -37.269958 3.445333 0.646860
33.632488 -37.269958 2.865960 0.738415
33.632484 -37.269951 2.288447 0.639368
33.632484 -37.269951 1.711553 0.643702
33.632484 -37.269951 1.134040 0.651972
33.632484 -37.269955 0.554666 0.641825
33.722740 -37.494362 -0.000000 0.219981
35.178810 -41.114788 0.000002 0.215828
36.108391 -43.426136 0.000008 0.210479
36.754478 -45.032585 0.000007 0.228287
37.230480 -46.216141 0.000006 0.221417
33.665894 -37.019096 6.470625 0.605875
33.664394 -37.015285 5.855627 0.698802
33.664665 -37.015972 5.248117 0.653483
33.666306 -37.020142 4.647294 0.659770
33.664314 -37.015083 4.053713 0.644755
33.664276 -37.014984 3.463793 0.693843
33.663948 -37.014153 2.877064 0.685161
33.664860 -37.016468 2.292105 0.624857
33.664421 -37.015350 1.707875 0.672374
33.664856 -37.016464 1.123058 0.728237
33.664654 -37.015953 0.536291 0.686351
33.835503 -37.449467 -0.000000 0.251433
35.266262 -41.079971 0.000002 0.228730
36.179688 -43.397751 0.000008 0.189176
36.814541 -45.008675 0.000007 0.239884
37.282269 -46.195522 0.000006 0.208360
33.665199 -36.671326 6.551846 0.637491
33.663834 -36.667786 5.925592 0.663874
33.664265 -36.668896 5.306978 0.677943
33.666077 -36.673592 4.695199 0.699870
33.664124 -36.668533 4.090863 0.687739
33.664154 -36.668617 3.490255 0.647334
33.663879 -36.667900 2.892913 0.613687
33.664848 -36.670418 2.297381 0.641001
33.664429 -36.669323 1.702600 0.704051
33.664879 -36.670494 1.107224 0.635493
33.664669 -36.669949 0.509861 0.661021
33.948578 -37.405361 -0.000000 0.223655
35.353954 -41.045765 0.000002 0.229484
36.251175 -43.369869 0.000008 0.225917
36.874767 -44.985180 0.000007 0.262180
37.334202 -46.175266 0.000006 0.225630
33.664364 -36.310360 6.636383 0.648920
33.667049 -36.317459 5.996026 0.667918
33.663792 -36.308842 5.368210 0.670710
33.665798 -36.314156 4.745020 0.633982
33.663898 -36.309124 4.129497 0.664195
33.664017 -36.309444 3.517771 0.716487
33.665436 -36.313198 2.909163 0.680079
33.664841 -36.311623 2.302866 0.636255
33.664436 -36.310555 1.697116 0.649241
33.664310 -36.310215 1.090680 0.656748
33.664684 -36.311207 0.482383 0.634775
34.061954 -37.362045 -0.000000 0.228909
35.441883 -41.012169 0.000002 0.237706
36.322861 -43.342484 0.000008 0.221669
36.935158 -44.962109 0.000007 0.229149
37.386272 -46.155373 0.000007 0.207008
33.663361 -35.935349 6.724454 0.637736
33.666397 -35.943550 6.071713 0.632898
33.663231 -35.934994 5.431958 0.630671
33.665466 -35.941032 4.796877 0.697749
33.663635 -35.936085 4.169702 0.670054
33.663860 -35.936695 3.546402 0.698344
33.665386 -35.940819 2.926298 0.709667
33.664825 -35.939312 2.308572 0.611215
33.664448 -35.938290 1.691410 0.637705
33.664333 -35.937977 1.073552 0.663417
33.664700 -35.938965 0.453796 0.726192
34.175632 -37.319527 -0.000000 0.214979
35.530045 -40.979191 0.000002 0.234738
36.394733 -43.315601 0.000009 0.261522
36.995708 -44.939461 0.000008 0.240494
37.438480 -46.135845 0.000007 0.190911
33.667023 -35.558777 6.812715 0.643778
33.665615 -35.554897 6.150595 0.733852
33.666138 -35.556339 5.496475 0.593530
33.665070 -35.553387 4.850894 0.646708
33.665890 -35.555656 4.210710 0.731472
33.663677 -35.549545 3.576217 0.662181
33.665329 -35.554100 2.944139 0.629038
33.664814 -35.552681 2.314513 0.601480
33.664463 -35.551712 1.685470 0.689784
33.664360 -35.551434 1.055721 0.720562
33.664715 -35.552410 0.424032 0.669596
34.289604 -37.277802 0.000000 0.236305
35.618435 -40.946827 0.000001 0.217827
36.466789 -43.289219 0.000009 0.254868
37.056416 -44.917236 0.000008 0.212992
37.490826 -46.116684 0.000007 0.234163
33.665806 -35.153702 6.908340 0.663920
33.664684 -35.150536 6.232881 0.677989
33.665497 -35.152824 5.565635 0.645472
33.664600 -35.150299 4.907209 0.677821
33.665615 -35.153160 4.254312 0.604944
33.665649 -35.153252 3.606753 0.684855
33.665253 -35.152142 2.962731 0.640955
33.664791 -35.150837 2.320704 0.655253
33.664474 -35.149940 1.679281 0.682277
33.664391 -35.149696 1.037141 0.696742
33.664501 -35.150017 0.392965 0.652079
34.403866 -37.236866 0.000000 0.229316
35.707050 -40.915085 0.000001 0.227389
36.539032 -43.263344 0.000009 0.238328
37.117275 -44.895432 0.000008 0.207128
37.543301 -46.097885 0.000008 0.246933
33.664364 -34.731659 7.008231 0.650706
33.663589 -34.729427 6.318795 0.683360
33.664738 -34.732742 5.637818 0.714275
33.664055 -34.730766 4.965965 0.681804
33.665291 -34.734341 4.299795 0.644633
33.665470 -34.734856 3.639135 0.650324
33.665173 -34.733994 2.982119 0.623117
33.664772 -34.732838 2.327159 0.689265
33.664494 -34.732037 1.672827 0.682597
33.664421 -34.731831 1.017768 0.636530
33.664528 -34.732140 0.360629 0.637842
34.518410 -37.196732 -0.000000 0.226480
35.795883 -40.883957 0.000001 0.228766
36.611450 -43.237968 0.000009 0.237023
37.178288 -44.874058 0.000008 0.188063
37.595909 -46.079453 0.000008 0.221657
33.662651 -34.291443 7.112687 0.674754
33.662300 -34.290413 6.408587 0.673075
33.663849 -34.294987 5.713226 0.672374
33.663422 -34.293724 5.027328 0.591257
33.664913 -34.298134 4.347283 0.639216
33.665260 -34.299156 3.672938 0.639551
33.665073 -34.298603 3.002356 0.672374
33.664749 -34.297638 2.333896 0.681788
33.664513 -34.296944 1.666091 0.684627
33.664459 -34.296791 0.997549 0.673060
33.664555 -34.297073 0.326881 0.676966
34.633228 -37.157402 0.000000 0.227341
35.884930 -40.853455 0.000001 0.226935
36.684044 -43.213104 0.000010 0.227210
37.239445 -44.853107 0.000008 0.239860
37.648640 -46.061390 0.000008 0.230728
33.660625 -33.831734 7.222044 0.684657
33.665653 -33.846928 6.499187 0.641901
33.662807 -33.838318 5.792081 0.674617
33.662682 -33.837940 5.091474 0.687877
33.664471 -33.843349 4.396912 0.648173
33.665016 -33.845001 3.708257 0.686244
33.664959 -33.844830 3.023498 0.675364
33.664719 -33.844093 2.340935 0.696345
33.664532 -33.843536 1.659055 0.699092
33.664501 -33.843437 0.976430 0.669932
33.664581 -33.843678 0.291628 0.587030
34.748322 -37.118866 -0.000000 0.214823
35.974190 -40.823570 0.000001 0.275548
36.756813 -43.188744 0.000010 0.213806
37.300751 -44.832588 0.000009 0.246430
37.701500 -46.043697 0.000008 0.202688
33.664238 -33.369614 7.331784 0.639994
33.664089 -33.369152 6.597371 0.651225
33.661594 -33.361427 5.874625 0.732067
33.665436 -33.373314 5.156855 0.661738
33.663956 -33.368744 4.448825 0.663066
33.664734 -33.371140 3.745194 0.674556
33.664829 -33.371437 3.045604 0.635233
33.664684 -33.370987 2.348294 0.663447
33.664555 -33.370590 1.651700 0.662120
33.664543 -33.370552 0.954350 0.652384
33.664600 -33.370728 0.254769 0.633234
34.863682 -37.081142 -0.000001 0.234666
36.063656 -40.794312 0.000001 0.236880
36.829750 -43.164894 0.000010 0.253551
37.362198 -44.812492 0.000009 0.197482
37.754482 -46.026371 0.000008 0.221800
33.666466 -32.882751 7.447790 0.654246
33.665695 -32.880310 6.697843 0.670771
33.667099 -32.884766 5.956943 0.667872
33.666260 -32.882103 5.226230 0.657862
33.664444 -32.876335 4.502771 0.701808
33.665035 -32.878212 3.783689 0.638117
33.664974 -32.878025 3.068693 0.726040
33.664722 -32.877224 2.355990 0.646097
33.664532 -32.876617 1.643999 0.620417
33.664501 -32.876526 0.931230 0.642847
33.664585 -32.876793 0.216188 0.710750
34.979298 -37.044220 -0.000001 0.252917
36.153320 -40.765682 0.000001 0.208169
36.902847 -43.141552 0.000010 0.220580
37.423782 -44.792831 0.000009 0.254556
37.807579 -46.009415 0.000008 0.240398
33.663818 -32.358044 7.573468 0.653574
33.663765 -32.357872 6.805693 0.659464
33.665802 -32.364491 6.047393 0.655360
33.665371 -32.363091 5.299771 0.650172
33.663826 -32.358070 4.559713 0.679286
33.664692 -32.360886 3.824195 0.668299
33.664822 -32.361298 3.092931 0.638102
33.664684 -32.360855 2.364057 0.672984
33.664562 -32.360458 1.635935 0.625788
33.664551 -32.360428 0.907024 0.685634
33.664608 -32.360607 0.175780 0.673167
35.095173 -37.008110 -0.000001 0.225080
36.243187 -40.737675 0.000001 0.221920
36.976109 -43.118725 0.000010 0.237682
37.485500 -44.773598 0.000010 0.230298
37.860798 -45.992832 0.000009 0.249255
33.667652 -31.830538 7.699608 0.623682
33.667320 -31.829430 6.914669 0.681498
33.664268 -31.819263 6.142395 0.649882
33.664326 -31.819447 5.376972 0.646021
33.663109 -31.815393 4.619469 0.693233
33.664295 -31.819353 3.866688 0.662257
33.664639 -31.820492 3.118352 0.665858
33.664639 -31.820496 2.372518 0.662562
