# This PCD file was generated using the MATLABÂ® pcwrite function
# from Computer Vision ToolboxÂ®.
# .PCD v.7 - Point Cloud Data file format
VERSION .7
FIELDS x y z intensity
SIZE 4 4 4 4
TYPE F F F F
COUNT 1 1 1 1
WIDTH 1287
HEIGHT 1
VIEWPOINT 0 0 0 1 0 0 0
POINTS 1287
DATA ascii
-11.400875 123.692284 4.762536 0.713878
-11.413414 123.649353 3.972666 0.658274
-11.413415 123.649353 3.181907 0.127108
-11.413415 123.649353 2.393688 0.114015
-11.413415 123.649353 1.606312 0.099947
-11.361126 123.828339 0.827253 0.623835
-11.413420 123.649338 0.027333 0.646494
-9.542146 130.054642 -0.000011 0.235312
-8.447858 133.800339 -0.000009 0.191797
-7.749249 136.191650 -0.000007 0.255538
-7.263691 137.853699 -0.000006 0.191845
-6.905953 139.078217 -0.000005 0.231901
-11.650400 123.443680 8.092529 0.741176
-11.550373 123.777397 7.177964 0.622171
-11.620431 123.543671 6.406680 0.738216
-11.650400 123.443680 5.607938 0.741176
-11.650400 123.443680 4.798106 0.741176
-11.588754 123.649353 3.976745 0.651545
-11.618731 123.549347 3.189480 0.741176
-11.618731 123.549339 2.396210 0.741176
-11.618731 123.549339 1.603790 0.731380
-11.535105 123.828339 0.824828 0.618723
-11.588757 123.649338 0.023253 0.666133
-9.658528 130.089081 -0.000011 0.234857
-8.538116 133.827057 -0.000009 0.240434
-7.822831 136.213425 -0.000007 0.207750
-7.325681 137.872040 -0.000006 0.205620
-6.959404 139.094040 -0.000005 0.221393
-11.828046 123.443687 8.105453 0.741176
-11.725473 123.777397 7.188950 0.630701
-11.797314 123.543671 6.416027 0.770199
-11.828047 123.443680 5.615592 0.741176
-11.828045 123.443687 4.804042 0.741176
-11.764830 123.649353 3.980939 0.656458
-11.795570 123.549347 3.192004 0.741176
-11.795568 123.549347 2.397051 0.741176
-11.795568 123.549347 1.602949 0.730388
-11.709816 123.828339 0.822335 0.618631
-11.764833 123.649338 0.019059 0.634943
-9.774666 130.124329 -0.000011 0.234426
-8.628187 133.854401 -0.000009 0.236317
-7.896260 136.235718 -0.000007 0.236856
-7.387543 137.890823 -0.000006 0.222758
-7.012743 139.110229 -0.000005 0.202628
-12.006451 123.443680 8.118732 0.741176
-11.901321 123.777397 7.200234 0.632990
-11.974949 123.543671 6.425631 0.762966
-12.006448 123.443687 5.623453 0.741176
-12.006449 123.443680 4.810140 0.741176
-11.941660 123.649353 3.985247 0.666209
-11.973165 123.549339 3.194596 0.741176
-11.973165 123.549339 2.397914 0.741176
-11.973165 123.549339 1.602086 0.729412
-11.885277 123.828331 0.819774 0.635294
-11.941663 123.649338 0.014751 0.630426
-9.890554 130.160400 -0.000011 0.247459
-8.718063 133.882355 -0.000009 0.245030
-7.969529 136.258514 -0.000007 0.242481
-7.449269 137.910034 -0.000006 0.256064
-7.065967 139.126785 -0.000005 0.225331
-12.185646 123.443680 8.132368 0.741176
-12.077951 123.777405 7.211823 0.623529
-12.153379 123.543671 6.435495 0.745052
-12.185646 123.443687 5.631529 0.741176
-12.185646 123.443680 4.816403 0.741176
-12.119273 123.649353 3.989671 0.680262
-12.151549 123.549347 3.197258 0.741176
-12.151548 123.549347 2.398802 0.741176
-12.151549 123.549339 1.601199 0.728435
-12.061513 123.828339 0.817144 0.614847
-12.119276 123.649345 0.010327 0.627894
-10.006191 130.197266 -0.000011 0.223368
-8.807745 133.910950 -0.000009 0.229723
-8.042641 136.281830 -0.000008 0.229627
-7.510863 137.929672 -0.000006 0.195447
-7.119076 139.143723 -0.000006 0.246287
-12.340870 123.518669 8.126583 0.057694
-12.257475 123.771057 7.225163 0.623667
-12.330976 123.548615 6.444671 0.741344
-12.340870 123.518677 5.628103 0.074510
-12.340871 123.518669 4.813745 0.072633
-12.297690 123.649353 3.994213 0.679026
-12.321466 123.577393 3.198540 0.209140
-12.321466 123.577400 2.399228 0.215030
-12.321466 123.577400 1.600772 0.214145
-12.238546 123.828331 0.814443 0.639277
-12.319891 123.582161 -0.000016 0.224972
-10.121569 130.234940 -0.000011 0.218737
-8.897223 133.940186 -0.000009 0.214009
-8.115585 136.305649 -0.000007 0.234403
-7.572318 137.949738 -0.000006 0.236664
-7.172064 139.161026 -0.000006 0.255143
-12.546483 123.443687 8.160726 0.741176
-12.521122 123.518677 7.294914 0.074510
-12.492714 123.602676 6.444672 0.746670
-12.546484 123.443680 5.648324 0.741176
-12.546486 123.443680 4.829428 0.741176
-12.476927 123.649353 3.998872 0.662669
-12.510750 123.549347 3.202795 0.741176
-12.510751 123.549339 2.400645 0.741176
-12.510751 123.549339 1.599355 0.741176
-12.416395 123.828339 0.811674 0.636896
-12.481390 123.636154 -0.000015 0.225103
-10.236675 130.273438 -0.000011 0.215625
-8.986495 133.970032 -0.000009 0.234307
-8.188362 136.329987 -0.000007 0.225319
-7.633630 137.970245 -0.000006 0.197518
-7.224930 139.178696 -0.000005 0.280263
-12.728177 123.443680 8.175459 0.741176
-12.702228 123.518677 7.307573 0.074647
-12.654068 123.657875 6.444672 0.738811
-12.728178 123.443680 5.657047 0.741176
-12.728177 123.443687 4.836192 0.741176
-12.657019 123.649345 4.003653 0.677638
-12.691620 123.549339 3.205671 0.741176
-12.691619 123.549347 2.401603 0.741176
-12.691619 123.549347 1.598397 0.741176
-12.595087 123.828339 0.808832 0.618494
-12.657021 123.649338 -0.003654 0.625238
-10.351516 130.312714 -0.000011 0.209569
-9.075558 134.000488 -0.000009 0.198080
-8.260968 136.354813 -0.000007 0.183695
-7.694799 137.991165 -0.000006 0.228933
-7.277671 139.196747 -0.000005 0.194023
-12.910748 123.443680 8.190563 0.741176
-12.884212 123.518677 7.320555 0.062867
-12.822781 123.692291 6.448900 0.733333
-12.910747 123.443680 5.665992 0.741176
-12.910747 123.443680 4.843130 0.741176
-12.837976 123.649345 4.008553 0.675608
-12.873360 123.549347 3.208620 0.741176
-12.873361 123.549347 2.402586 0.741176
-12.873361 123.549347 1.597414 0.741176
-12.774644 123.828339 0.805918 0.615824
-12.803239 123.747520 -0.000015 0.220221
-10.466076 130.352798 -0.000011 0.214285
-9.164404 134.031586 -0.000009 0.224876
-8.333397 136.380157 -0.000007 0.232571
-7.755818 138.012512 -0.000006 0.198619
-7.330285 139.215149 -0.000005 0.203418
-13.094222 123.443680 8.206044 0.741176
-13.067093 123.518684 7.333859 0.084443
-13.004296 123.692291 6.460027 0.764706
-13.094223 123.443680 5.675161 0.741176
-13.094220 123.443680 4.850240 0.741176
-13.019830 123.649353 4.013576 0.685954
-13.056002 123.549347 3.211642 0.741176
-13.056002 123.549347 2.403592 0.741176
-13.056002 123.549347 1.596408 0.741176
-12.955088 123.828339 0.802932 0.628122
-12.963572 123.804886 -0.000015 0.230633
-10.580353 130.393692 -0.000011 0.237035
-9.253032 134.063278 -0.000009 0.208552
-8.405649 136.406006 -0.000007 0.234139
-7.816688 138.034286 -0.000006 0.231686
-7.382769 139.233932 -0.000005 0.220987
-13.236073 123.558807 8.191164 0.764172
-13.236075 123.558800 7.338256 0.736553
-13.186733 123.692291 6.471426 0.718074
-13.236076 123.558800 5.666348 0.725689
-13.236073 123.558807 4.843406 0.745357
-13.202607 123.649345 4.018723 0.672557
-13.239568 123.549355 3.214739 0.741176
-13.239567 123.549355 2.404624 0.741176
-13.239567 123.549355 1.595376 0.741176
-13.136447 123.828339 0.799873 0.626078
-13.123504 123.863358 -0.000015 0.232380
-10.694342 130.435364 -0.000011 0.255921
-9.341434 134.095612 -0.000009 0.221944
-8.477718 136.432358 -0.000007 0.222100
-7.877405 138.056488 -0.000006 0.234091
-7.435120 139.253082 -0.000005 0.308902
-13.370118 123.692291 8.171593 0.763851
-13.370120 123.692284 7.321381 0.748806
-13.370115 123.692291 6.483103 0.724758
-13.370118 123.692284 5.654758 0.733333
-13.370119 123.692284 4.834418 0.764706
-13.386333 123.649345 4.023995 0.661997
-13.386333 123.649345 3.212660 0.105333
-13.386334 123.649345 2.403931 0.097047
-13.386334 123.649345 1.596068 0.106111
-13.318747 123.828346 0.796739 0.610010
-13.283022 123.922958 -0.000015 0.220245
-10.808041 130.477844 -0.000011 0.216271
-9.429610 134.128555 -0.000009 0.221334
-8.549603 136.459229 -0.000007 0.252498
-7.937965 138.079117 -0.000006 0.235683
-7.487338 139.272583 -0.000005 0.196668
-13.571025 123.649345 8.199583 0.669963
-13.571026 123.649345 7.345515 0.662501
-13.571023 123.649353 6.503436 0.671519
-13.571025 123.649345 5.671334 0.659831
-13.571024 123.649345 4.847272 0.653574
-13.571025 123.649345 4.029394 0.666560
-13.551772 123.699280 3.213266 0.695949
-13.551770 123.699280 2.404133 0.698161
-13.551770 123.699280 1.595867 0.698161
-13.502008 123.828339 0.793529 0.613931
-13.442119 123.983665 -0.000015 0.232859
-10.921436 130.521118 -0.000011 0.236222
-9.517553 134.162109 -0.000008 0.220711
-8.621297 136.486572 -0.000007 0.203669
-7.998365 138.102158 -0.000006 0.252139
-7.539417 139.292450 -0.000005 0.250380
-13.756716 123.649345 8.216468 0.653544
-13.756716 123.649345 7.360073 0.675608
-13.756716 123.649353 6.515703 0.653742
-13.756717 123.649345 5.681334 0.678752
-13.756717 123.649345 4.855027 0.657938
-13.756717 123.649345 4.034921 0.663951
-13.737060 123.699280 3.216570 0.719631
-13.737062 123.699280 2.405234 0.735180
-13.737062 123.699280 1.594766 0.687053
-13.686259 123.828346 0.790243 0.632959
-13.600790 124.045486 -0.000015 0.226288
-11.034530 130.565170 -0.000011 0.229723
-9.605261 134.196289 -0.000009 0.259738
-8.692798 136.514435 -0.000007 0.250834
-8.058602 138.125641 -0.000006 0.219120
-7.591357 139.312683 -0.000005 0.224900
-13.926185 123.692276 8.222161 0.737636
-13.926177 123.692299 7.364978 0.766629
-13.926181 123.692284 6.519837 0.729061
-13.926182 123.692276 5.684703 0.743755
-13.926178 123.692291 4.857640 0.718105
-13.943429 123.649345 4.040579 0.673777
-13.943435 123.649338 3.222597 0.118975
-13.943435 123.649330 2.407241 0.114199
-13.943435 123.649330 1.592759 0.110552
-13.871527 123.828339 0.786880 0.623529
-13.759025 124.108398 -0.000015 0.231853
-11.147312 130.610016 -0.000011 0.218701
-9.692728 134.231064 -0.000009 0.252294
-8.764104 136.542786 -0.000007 0.204088
-8.118675 138.149521 -0.000006 0.248381
-7.643154 139.333282 -0.000005 0.210981
-14.215485 123.443680 8.307109 0.741176
-14.215484 123.443680 7.438227 0.741176
-14.113595 123.692291 6.532657 0.723033
-14.215482 123.443680 5.735010 0.741176
-14.215482 123.443680 4.896655 0.741176
-14.131194 123.649353 4.046366 0.662531
-14.172176 123.549347 3.231374 0.741176
-14.172178 123.549347 2.410164 0.741176
-14.172178 123.549347 1.589835 0.741176
-14.057836 123.828346 0.783439 0.628489
-13.916816 124.172432 -0.000015 0.229077
-11.259776 130.655655 -0.000011 0.232536
-9.779950 134.266464 -0.000009 0.227940
-8.835211 136.571640 -0.000007 0.277822
-8.178580 138.173828 -0.000006 0.248908
-7.694805 139.354248 -0.000005 0.197673
-14.406005 123.443680 8.325361 0.741176
-14.406003 123.443680 7.453966 0.741176
-14.302081 123.692291 6.545774 0.749310
-14.406002 123.443680 5.745819 0.741176
-14.406003 123.443680 4.905038 0.741176
-14.320033 123.649345 4.052289 0.662089
-14.361832 123.549347 3.234937 0.741176
-14.361832 123.549347 2.411352 0.741176
-14.361832 123.549347 1.588648 0.741176
-14.245208 123.828346 0.779918 0.634607
-14.074155 124.237556 -0.000015 0.232811
-11.371919 130.702072 -0.000011 0.250571
-9.866922 134.302460 -0.000009 0.230968
-8.906111 136.600983 -0.000007 0.241703
-8.238312 138.198547 -0.000006 0.261378
-7.746308 139.375565 -0.000005 0.186627
-14.597645 123.443680 8.344030 0.741176
-14.597646 123.443680 7.470062 0.741176
-14.491677 123.692291 6.559192 0.754498
-14.597644 123.443680 5.756874 0.741176
-14.597646 123.443672 4.913612 0.741176
-14.509980 123.649345 4.058346 0.649638
-14.552604 123.549347 3.238582 0.741176
-14.552605 123.549347 2.412566 0.741176
-14.552605 123.549347 1.587434 0.741176
-14.433683 123.828346 0.776317 0.624521
-14.231036 124.303787 -0.000015 0.223883
-11.483737 130.749268 -0.000011 0.226444
-9.953641 134.339066 -0.000008 0.231087
-8.976807 136.630829 -0.000007 0.211281
-8.297873 138.223694 -0.000006 0.269564
-7.797663 139.397247 -0.000005 0.173917
-14.790426 123.443672 8.363121 0.741176
-14.790425 123.443672 7.486523 0.741176
-14.701061 123.649345 6.581430 0.636927
-14.790424 123.443680 5.768178 0.741176
-14.790425 123.443680 4.922379 0.741176
-14.701059 123.649345 4.064539 0.662974
-14.744512 123.549347 3.242309 0.741176
-14.744513 123.549347 2.413807 0.741176
-14.744513 123.549347 1.586193 0.741176
-14.623282 123.828346 0.772635 0.638010
-14.387449 124.371101 -0.000015 0.237143
-11.595220 130.797256 -0.000011 0.216846
-10.040102 134.376266 -0.000009 0.220604
-9.047293 136.661163 -0.000007 0.230872
-8.357253 138.249252 -0.000006 0.240327
-7.848864 139.419281 -0.000005 0.231602
-14.984390 123.443665 8.382639 0.741176
-14.984385 123.443672 7.503351 0.741176
-14.893308 123.649345 6.595480 0.683085
-14.955397 123.509140 5.769116 0.064897
-14.984384 123.443680 4.931343 0.741176
-14.893308 123.649345 4.070871 0.669230
-14.893305 123.649353 3.240746 0.104921
-14.893305 123.649353 2.413287 0.104021
-14.893304 123.649353 1.586713 0.110658
-14.814040 123.828346 0.768871 0.635294
-14.543398 124.439507 -0.000015 0.225582
-11.706371 130.846008 -0.000011 0.206146
-10.126304 134.414093 -0.000008 0.235539
-9.117567 136.691986 -0.000007 0.250092
-8.416457 138.275223 -0.000006 0.234235
-7.899913 139.441666 -0.000005 0.220687
-15.179551 123.443665 8.402590 0.741176
-15.179547 123.443672 7.520554 0.741176
-15.086744 123.649345 6.609845 0.656092
-15.145706 123.518669 5.779346 0.083711
-15.179546 123.443672 4.940506 0.741176
-15.086744 123.649345 4.077344 0.647059
-15.131865 123.549347 3.250014 0.741176
-15.131863 123.549347 2.416373 0.741176
-15.131863 123.549347 1.583626 0.741176
-15.005976 123.828346 0.765023 0.633417
-14.698859 124.509003 -0.000015 0.231877
-11.817177 130.895538 -0.000011 0.233996
-10.212236 134.452499 -0.000008 0.260660
-9.187622 136.723312 -0.000007 0.261582
-8.475476 138.301605 -0.000006 0.244599
-7.950801 139.464417 -0.000005 0.267709
-15.375941 123.443665 8.422979 0.741176
-15.375940 123.443665 7.538135 0.741176
-15.281403 123.649345 6.624526 0.640391
-15.341465 123.518669 5.791381 0.048829
-15.375939 123.443665 4.949870 0.741176
-15.281402 123.649345 4.083961 0.672511
-15.327363 123.549355 3.253995 0.741176
-15.327364 123.549347 2.417700 0.741176
-15.327365 123.549347 1.582300 0.741176
-15.199124 123.828346 0.761090 0.623209
-14.853828 124.579575 -0.000015 0.231195
-11.927635 130.945847 -0.000011 0.232595
-10.297899 134.491516 -0.000008 0.205644
-9.257458 136.755112 -0.000007 0.246095
-8.534310 138.328400 -0.000006 0.228155
-8.001530 139.487518 -0.000005 0.247567
-15.573601 123.443657 8.443815 0.741176
-15.573599 123.443665 7.556099 0.741176
-15.477317 123.649338 6.639526 0.677958
-15.538486 123.518669 5.803680 0.078965
-15.573599 123.443665 4.959439 0.741176
-15.477313 123.649345 4.090720 0.665858
-15.524125 123.549347 3.258063 0.741176
-15.524124 123.549347 2.419055 0.741176
-15.524124 123.549347 1.580946 0.741176
-15.393518 123.828354 0.757071 0.623529
-15.008306 124.651230 -0.000015 0.227593
-12.037733 130.996918 -0.000010 0.231566
-10.383287 134.531128 -0.000009 0.206565
-9.327067 136.787399 -0.000007 0.247495
-8.592957 138.355606 -0.000006 0.198463
-8.052095 139.510986 -0.000005 0.259212
-15.724878 123.543671 8.437347 0.765759
-15.724880 123.543671 7.550525 0.748089
-15.674510 123.649345 6.654852 0.691417
-15.724879 123.543671 5.812137 0.733333
-15.724882 123.543671 4.956471 0.753719
-15.674510 123.649345 4.097626 0.672328
-15.722171 123.549355 3.262218 0.741176
-15.722167 123.549362 2.420438 0.741176
-15.722167 123.549362 1.579561 0.741176
-15.674505 123.649353 0.743224 0.615488
-15.162275 124.723969 -0.000015 0.231411
-12.147474 131.048767 -0.000010 0.218378
-10.468399 134.571320 -0.000009 0.205297
-9.396452 136.820175 -0.000007 0.251744
-8.651409 138.383209 -0.000006 0.209067
-8.102497 139.534790 -0.000005 0.258805
-15.852193 123.692276 8.417624 0.733059
-15.852192 123.692276 7.533518 0.771145
-15.873028 123.649338 6.670509 0.703593
-15.852196 123.692268 5.800457 0.764706
-15.852195 123.692268 4.947413 0.737011
-15.873023 123.649353 4.104681 0.685725
-15.921545 123.549355 3.266463 0.741176
-15.921547 123.549355 2.421853 0.741176
-15.921547 123.549355 1.578147 0.741176
-15.873020 123.649353 0.738997 0.615854
-15.315734 124.797783 -0.000014 0.217384
-12.256855 131.101364 -0.000010 0.214057
-10.553227 134.612122 -0.000009 0.234726
-9.465607 136.853439 -0.000007 0.215745
-8.709671 138.411240 -0.000006 0.256555
-8.152731 139.558945 -0.000005 0.238926
-16.072889 123.649338 8.451593 0.642344
-16.072889 123.649345 7.562806 0.649668
-16.072891 123.649338 6.686499 0.671473
-16.072891 123.649338 5.820572 0.687877
-16.072891 123.649338 4.963013 0.680720
-16.072891 123.649338 4.111888 0.674983
-16.048229 123.699272 3.262585 0.689845
-16.048229 123.699265 2.420561 0.698039
-16.048229 123.699265 1.579439 0.699596
-16.072886 123.649353 0.734679 0.624018
-15.468677 124.872658 -0.000014 0.233613
-12.365866 131.154739 -0.000011 0.218940
-10.637766 134.653519 -0.000008 0.229950
-9.534527 136.887177 -0.000007 0.227605
-8.767733 138.439667 -0.000006 0.196895
-8.202795 139.583466 -0.000005 0.223787
-16.274145 123.649323 8.474079 0.661631
-16.274143 123.649330 7.582193 0.619760
-16.274139 123.649338 6.702831 0.628305
-16.274141 123.649330 5.833886 0.672526
-16.274141 123.649338 4.973338 0.648798
-16.274143 123.649330 4.119248 0.678676
-16.221312 123.754440 3.263951 0.685283
-16.221241 123.754585 2.421014 0.708629
-16.221231 123.754608 1.578987 0.715221
-16.274145 123.649330 0.730269 0.620844
-15.621093 124.948601 -0.000014 0.224074
-12.474498 131.208862 -0.000010 0.231566
-10.722017 134.695496 -0.000008 0.237323
-9.603209 136.921402 -0.000006 0.232416
-8.825598 138.468491 -0.000006 0.217588
-8.252688 139.608322 -0.000005 0.230896
-16.454834 123.692291 8.484946 0.752163
-16.454832 123.692291 7.591563 0.732326
-16.476803 123.649338 6.719507 0.653483
-16.454834 123.692291 5.840323 0.764981
-16.454830 123.692299 4.978330 0.744625
-16.476803 123.649338 4.126761 0.639979
-16.417221 123.765839 3.267804 0.719295
-16.417221 123.765839 2.422300 0.663233
-16.417221 123.765839 1.577700 0.730755
-16.417221 123.765839 0.732196 0.720104
-15.772971 125.025604 -0.000014 0.231770
-12.582748 131.263748 -0.000010 0.242134
-10.805971 134.738052 -0.000008 0.223943
-9.671651 136.956100 -0.000007 0.229567
-8.883257 138.497726 -0.000006 0.251923
-8.302404 139.633530 -0.000005 0.202843
-16.735889 123.543671 8.550305 0.749172
-16.787912 123.443680 7.672264 0.741176
-16.680918 123.649338 6.736533 0.627710
-16.787909 123.443680 5.895748 0.741176
-16.787910 123.443680 5.021315 0.741176
-16.680920 123.649338 4.134434 0.683009
-16.680908 123.649353 3.278828 0.636698
-16.680908 123.649353 2.425972 0.645380
-16.680908 123.649353 1.574028 0.692805
-16.680908 123.649353 0.721171 0.721141
-15.924310 125.103668 -0.000015 0.231566
-12.690616 131.319397 -0.000010 0.235575
-10.889626 134.781219 -0.000008 0.232536
-9.739849 136.991287 -0.000007 0.212238
-8.940710 138.527359 -0.000005 0.212525
-8.351944 139.659073 -0.000005 0.226217
-16.942436 123.543671 8.574344 0.754299
-16.995342 123.443680 7.693079 0.741176
-16.886520 123.649338 6.753914 0.662501
-16.995346 123.443680 5.910044 0.741176
-16.995342 123.443680 5.032402 0.741176
-16.886520 123.649338 4.142267 0.692195
-16.886515 123.649353 3.283521 0.764569
-16.886520 123.649338 2.427535 0.775250
-16.886518 123.649345 1.572465 0.766873
-16.886520 123.649338 0.716478 0.766217
-16.075102 125.182785 -0.000015 0.229855
-12.798093 131.375778 -0.000010 0.211544
-10.972978 134.824951 -0.000008 0.240602
-9.807800 137.026932 -0.000007 0.203633
-8.997957 138.557404 -0.000006 0.227521
-8.401304 139.684982 -0.000005 0.267554
-17.096928 123.643250 8.570555 0.735485
-17.204321 123.443680 7.714329 0.741176
-17.093649 123.649338 6.771656 0.666453
-17.204319 123.443680 5.924638 0.741176
-17.204319 123.443680 5.043720 0.741176
-17.093647 123.649345 4.150261 0.673991
-17.147461 123.549339 3.293891 0.741176
-17.147465 123.549332 2.430989 0.058656
-17.174368 123.499344 1.568082 0.741176
-17.173050 123.501793 0.703456 0.056962
-16.225334 125.262962 -0.000013 0.218342
-12.905174 131.432922 -0.000010 0.245808
-11.056023 134.869263 -0.000008 0.235157
-9.875502 137.063065 -0.000007 0.185370
-9.054994 138.587830 -0.000006 0.204232
-8.450482 139.711212 -0.000005 0.210395
-17.275604 123.698204 8.579803 0.732250
-17.373837 123.518669 7.717554 0.075807
-17.302338 123.649338 6.789767 0.637171
-17.373838 123.518661 5.926854 0.074784
-17.373835 123.518677 5.045439 0.088502
-17.302340 123.649338 4.158423 0.662593
-17.357054 123.549347 3.298802 0.741176
-17.357056 123.549339 2.432625 0.056214
-17.384415 123.499336 1.566442 0.741176
-17.383072 123.501793 0.698534 0.057893
-16.375004 125.344177 -0.000014 0.234032
-13.011847 131.490814 -0.000010 0.236724
-11.138754 134.914154 -0.000008 0.206122
-9.942946 137.099655 -0.000007 0.226384
-9.111814 138.618668 -0.000005 0.214739
-8.499475 139.737808 -0.000005 0.246382
-17.488747 123.692276 8.606893 0.752178
-17.627033 123.443680 7.758152 0.741176
-17.512629 123.649345 6.808250 0.641245
-17.627033 123.443680 5.954737 0.741176
-17.627031 123.443680 5.067062 0.741176
-17.512630 123.649345 4.166753 0.660594
-17.568260 123.549339 3.303814 0.741176
-17.568260 123.549339 2.434294 0.077043
-17.568264 123.549332 1.565705 0.087266
-17.594707 123.501793 0.693512 0.084779
-16.524105 125.426437 -0.000014 0.233948
-13.118120 131.549438 -0.000010 0.221358
-11.221174 134.959625 -0.000008 0.244432
-10.010136 137.136734 -0.000006 0.189284
-9.168421 138.649902 -0.000005 0.240315
-8.548283 139.764740 -0.000005 0.200222
-17.700281 123.692284 8.632812 0.749660
-17.840847 123.443687 7.780741 0.741176
-17.724556 123.649353 6.827112 0.649943
-17.840851 123.443680 5.970251 0.741176
-17.840851 123.443680 5.079095 0.741176
-17.724556 123.649353 4.175252 0.658564
-17.781107 123.549339 3.308929 0.741176
-17.781101 123.549347 2.435998 0.050980
-17.809380 123.499336 1.563062 0.741176
-17.807991 123.501793 0.688387 0.062745
-16.672626 125.509735 -0.000014 0.231758
-13.223981 131.608810 -0.000010 0.230657
-11.303271 135.005661 -0.000008 0.206458
-10.077065 137.174271 -0.000007 0.225415
-9.224806 138.681519 -0.000006 0.278372
-8.596900 139.791992 -0.000005 0.197003
-17.913498 123.692276 8.659260 0.743862
-18.056362 123.443680 7.803793 0.741176
-17.938168 123.649353 6.846362 0.649973
-18.056362 123.443687 5.986082 0.741176
-18.056362 123.443680 5.091373 0.741176
-17.938166 123.649353 4.183927 0.692058
-17.995644 123.549339 3.314149 0.741176
-17.995638 123.549347 2.437737 0.074510
-18.014538 123.516464 1.561643 0.066117
-17.999401 123.542801 0.685480 0.073960
-16.820568 125.594063 -0.000014 0.230573
-13.329424 131.668915 -0.000010 0.239070
-11.385046 135.052277 -0.000008 0.195854
-10.143730 137.212265 -0.000007 0.222722
-9.280970 138.713531 -0.000006 0.227808
-8.645327 139.819611 -0.000005 0.221788
-18.128426 123.692291 8.686247 0.765713
-18.215218 123.543671 7.802305 0.738582
-18.153496 123.649361 6.866002 0.680354
-18.215218 123.543671 5.985061 0.763287
-18.215214 123.543678 5.090580 0.768429
-18.153496 123.649361 4.192777 0.643381
-18.211910 123.549339 3.319475 0.741176
-18.211725 123.549652 2.439505 0.046647
-18.211182 123.550583 1.560513 0.062745
-18.210890 123.551086 0.680624 0.062745
-16.967911 125.679428 -0.000014 0.231530
-13.434443 131.729767 -0.000010 0.229939
-11.466494 135.099472 -0.000008 0.200713
-10.210127 137.250732 -0.000006 0.247699
-9.336908 138.745941 -0.000006 0.233014
-8.693560 139.847549 -0.000005 0.216271
-18.370588 123.649361 8.726286 0.632471
-18.345119 123.692284 7.788879 0.728649
-18.370590 123.649361 6.886041 0.649226
-18.345116 123.692291 5.975838 0.770260
-18.345119 123.692284 5.083429 0.742321
-18.370588 123.649361 4.201808 0.619776
-18.370605 123.649330 3.319197 0.696513
-18.370609 123.649330 2.439418 0.697108
-18.370607 123.649338 1.560582 0.689952
-18.370607 123.649330 0.680803 0.705287
-17.114658 125.765816 -0.000014 0.228347
-13.539036 131.791336 -0.000010 0.229735
-11.547609 135.147217 -0.000008 0.237742
-10.276258 137.289673 -0.000007 0.198894
-9.392619 138.778748 -0.000006 0.249015
-8.741595 139.875824 -0.000005 0.231028
-18.589497 123.649353 8.754436 0.644114
-18.589497 123.649353 7.823930 0.692744
-18.589499 123.649353 6.906488 0.663584
-18.589497 123.649353 5.999913 0.650446
-18.589493 123.649353 5.102098 0.662196
-18.589497 123.649353 4.211022 0.662882
-18.563677 123.692177 3.322259 0.690547
-18.563677 123.692177 2.440439 0.721523
-18.563677 123.692177 1.559561 0.699840
-18.563679 123.692177 0.677740 0.729534
-17.260794 125.853233 -0.000014 0.230489
-13.643196 131.853638 -0.000010 0.225965
-11.628389 135.195541 -0.000008 0.228730
-10.342111 137.329056 -0.000006 0.204650
-9.448099 138.811935 -0.000005 0.198355
-8.789433 139.904434 -0.000005 0.196991
-18.810261 123.649338 8.783157 0.676280
-18.810257 123.649338 7.848693 0.634180
-18.810257 123.649338 6.927351 0.670054
-18.810257 123.649338 6.016920 0.638346
-18.810253 123.649338 5.115288 0.697810
-18.810257 123.649338 4.220423 0.675456
-18.810257 123.649338 3.330349 0.717617
-18.810257 123.649338 2.443132 0.726787
-18.810257 123.649338 1.556867 0.698131
-18.810257 123.649338 0.669651 0.727993
-17.406319 125.941666 -0.000014 0.229879
-13.746920 131.916672 -0.000010 0.226444
-11.708832 135.244431 -0.000008 0.213734
-10.407690 137.368912 -0.000007 0.229843
-9.503347 138.845505 -0.000005 0.187357
-8.837070 139.933380 -0.000005 0.220017
-43.880211 83.707855 20.595219 0.598581
-43.880199 83.707886 18.033497 0.552163
-43.880207 83.707870 15.507748 0.580331
-43.880207 83.707855 13.011912 0.643641
-43.880211 83.707870 10.540196 0.757687
-43.880211 83.707870 8.087027 0.625193
-43.880196 83.707886 5.646992 0.575463
-43.975128 83.555283 3.217738 0.678431
-43.975128 83.555283 0.782264 0.678431
-26.171593 112.174057 -0.000021 0.230250
-17.551224 126.031113 -0.000014 0.232344
-13.850198 131.980423 -0.000010 0.226779
-11.788929 135.293869 -0.000008 0.198595
-10.472987 137.409210 -0.000006 0.249506
-9.558358 138.879456 -0.000005 0.208085
-8.884502 139.962662 -0.000005 0.210443
-43.880104 84.678291 20.389252 0.478004
-43.880119 84.678268 17.855915 0.572396
-43.880112 84.678276 15.358136 0.578042
-43.880100 84.678299 12.889939 0.441611
-43.880116 84.678268 10.445606 0.518975
-43.880116 84.678268 8.019608 0.496376
-43.880108 84.678284 5.606599 0.645640
-43.975201 84.527786 3.204255 0.672709
-43.975201 84.527786 0.795746 0.663325
-26.412395 112.325027 -0.000021 0.230034
-17.695496 126.121567 -0.000014 0.232236
-13.953028 132.044891 -0.000010 0.247447
-11.868679 135.343872 -0.000008 0.253419
-10.538002 137.449982 -0.000006 0.229939
-9.613131 138.913803 -0.000005 0.249733
-8.931729 139.992279 -0.000005 0.200462
-43.880173 85.627266 20.188749 0.595239
-43.880173 85.627258 17.683025 0.615167
-43.880165 85.627274 15.212485 0.582788
-43.880173 85.627258 12.771204 0.597879
-43.880165 85.627274 10.353518 0.552117
-43.880165 85.627274 7.953970 0.603784
-43.880169 85.627274 5.567276 0.485481
-43.950199 85.518127 3.190364 0.090562
-43.950199 85.518127 0.809635 0.090501
-26.652142 112.477676 -0.000021 0.228107
-17.839142 126.213020 -0.000014 0.223907
-14.055412 132.110077 -0.000010 0.233421
-11.948079 135.394424 -0.000008 0.253647
-10.602732 137.491196 -0.000006 0.199480
-9.667665 138.948517 -0.000006 0.256615
-8.978749 140.022217 -0.000005 0.218030
-43.880203 86.555847 19.993425 0.695613
-43.880203 86.555847 17.514610 0.748348
-43.880207 86.555855 15.070600 0.493751
-43.880207 86.555847 12.655535 0.362936
-43.880211 86.555855 10.263811 0.685679
-43.880207 86.555847 7.890032 0.594156
-43.880207 86.555847 5.528966 0.688365
-43.975197 86.410057 3.178330 0.678431
-43.975201 86.410049 0.821670 0.678431
-26.890812 112.632011 -0.000021 0.227078
-17.982143 126.305481 -0.000013 0.235073
-14.157335 132.175980 -0.000010 0.253587
-12.027126 135.445526 -0.000008 0.232775
-10.667172 137.532852 -0.000006 0.207559
-9.721953 138.983627 -0.000005 0.225989
-9.025559 140.052475 -0.000005 0.224960
-43.880127 87.464935 19.803055 0.623560
-44.070183 87.177635 17.424868 0.678431
-44.070190 87.177628 14.994996 0.659892
-43.880131 87.464935 12.542801 0.456733
-44.070179 87.177635 10.216008 0.658869
-43.880135 87.464920 7.827719 0.455665
-44.070183 87.177628 5.508554 0.661250
-43.975178 87.321243 3.165864 0.651423
-43.975185 87.321236 0.834135 0.656687
-27.128418 112.787979 -0.000021 0.226408
-18.124489 126.398933 -0.000013 0.234271
-14.258798 132.242584 -0.000010 0.214596
-12.105812 135.497192 -0.000007 0.195088
-10.731319 137.574966 -0.000006 0.251361
-9.775997 139.019104 -0.000006 0.260935
-9.072158 140.083069 -0.000005 0.246502
-44.047901 88.105072 19.692940 0.696162
-44.047894 88.105072 17.255522 0.451087
-44.047886 88.105087 14.852322 0.506706
-44.047886 88.105087 12.477590 0.579599
-44.047894 88.105080 10.125807 0.509026
-44.047890 88.105080 7.791670 0.611139
-44.047886 88.105080 5.470033 0.463523
-44.111687 88.010086 3.157723 0.678431
-44.111687 88.010086 0.842275 0.678431
-27.364902 112.945618 -0.000021 0.230034
-18.266182 126.493385 -0.000013 0.227844
-14.359785 132.309906 -0.000010 0.217336
-12.184134 135.549393 -0.000007 0.251265
-10.795170 137.617523 -0.000006 0.249458
-9.829786 139.054962 -0.000005 0.271587
-9.118538 140.113983 -0.000004 0.197697
-44.644730 88.105057 19.776728 0.779065
-44.745434 87.957359 17.366375 0.669276
-44.745411 87.957382 14.945708 0.611963
-44.644730 88.105057 12.527208 0.525093
-44.745426 87.957367 10.184853 0.570855
-44.644718 88.105080 7.819097 0.561654
-44.745430 87.957367 5.495248 0.560662
-44.709492 88.010071 3.163208 0.678431
-44.709488 88.010071 0.836794 0.678431
-27.600300 113.104904 -0.000021 0.232691
-18.407215 126.588821 -0.000013 0.229292
-14.460309 132.377930 -0.000010 0.232141
-12.262094 135.602142 -0.000008 0.227006
-10.858725 137.660538 -0.000006 0.203992
-9.883331 139.091187 -0.000005 0.227736
-9.164705 140.145233 -0.000004 0.224278
-45.247215 88.105118 19.862165 0.670954
-45.378719 87.915085 17.451344 0.678431
-45.378735 87.915070 15.017303 0.678431
-45.378731 87.915077 12.612083 0.556207
-45.378723 87.915085 10.230112 0.678431
-45.247219 88.105103 7.847066 0.483787
-45.378731 87.915077 5.514577 0.678431
-45.312977 88.010086 3.168797 0.678431
-45.312977 88.010086 0.831203 0.678431
-27.834557 113.265839 -0.000020 0.230657
-18.547573 126.685234 -0.000013 0.237071
-14.560346 132.446655 -0.000009 0.244096
-12.339680 135.655441 -0.000007 0.245186
-10.921974 137.703979 -0.000006 0.252187
-9.936617 139.127792 -0.000005 0.235851
-9.210651 140.176788 -0.000005 0.208049
-45.855606 88.105095 19.949329 0.632319
-45.855606 88.105087 17.476589 0.536950
-45.855614 88.105087 15.038571 0.744274
-45.855598 88.105103 12.629419 0.669871
-45.855606 88.105095 10.243559 0.554299
-45.855606 88.105087 7.875598 0.534554
-45.855598 88.105103 5.520317 0.552117
-45.922348 88.010086 3.174500 0.678431
-45.922348 88.010078 0.825498 0.678431
-28.067699 113.428406 -0.000020 0.229029
-18.687262 126.782623 -0.000013 0.226492
-14.659910 132.516068 -0.000010 0.254126
-12.416893 135.709274 -0.000007 0.245676
-10.984921 137.747879 -0.000006 0.219096
-9.989649 139.164764 -0.000005 0.206697
-9.256376 140.208664 -0.000005 0.219275
-46.043221 88.703720 19.854074 0.734066
-46.043228 88.703705 17.394459 0.553628
-46.043224 88.703720 14.969374 0.553750
-46.043224 88.703712 12.573012 0.599649
-46.043228 88.703705 10.199812 0.549447
-46.043217 88.703728 7.844418 0.603387
-46.043224 88.703720 5.501637 0.571725
-46.138191 88.570511 3.169055 0.642893
-46.138191 88.570511 0.830944 0.565225
-28.299706 113.592575 -0.000020 0.234462
-18.826267 126.880997 -0.000013 0.231782
-14.758986 132.586166 -0.000010 0.212561
-12.493732 135.763657 -0.000008 0.195148
-11.047561 137.792191 -0.000006 0.234127
-10.042420 139.202103 -0.000005 0.306700
-9.301878 140.240875 -0.000005 0.255358
-46.043179 89.552689 19.681345 0.611765
-46.192856 89.345795 17.300674 0.154467
-46.192852 89.345802 14.890364 0.079469
-46.043186 89.552673 12.470725 0.563592
-46.192856 89.345795 10.149861 0.094118
-46.043198 89.552658 7.787879 0.564660
-46.192856 89.345795 5.480304 0.111208
-46.105583 89.466423 3.156836 0.074540
-46.105591 89.466415 0.843163 0.101457
-28.530556 113.758369 -0.000020 0.236174
-18.964569 126.980331 -0.000013 0.229280
-14.857565 132.656982 -0.000010 0.215601
-12.570183 135.818558 -0.000007 0.218318
-11.109886 137.836960 -0.000006 0.223033
-10.094928 139.239822 -0.000005 0.241954
-9.347153 140.273392 -0.000005 0.225199
-46.043213 90.385338 19.512794 0.621149
-46.043232 90.385315 17.100201 0.591562
-46.043228 90.385315 14.721469 0.484993
-46.043224 90.385323 12.370913 0.538262
-46.043221 90.385330 10.043074 0.482567
-46.043228 90.385315 7.732705 0.583612
-46.043232 90.385315 5.434704 0.610513
-46.138206 90.255951 3.146710 0.678431
-46.138199 90.255966 0.853290 0.678431
-28.760246 113.925781 -0.000020 0.224792
-19.102182 127.080635 -0.000012 0.231949
-14.955650 132.728470 -0.000009 0.222052
-12.646252 135.874008 -0.000007 0.251289
-11.171902 137.882156 -0.000006 0.237131
-10.147173 139.277893 -0.000005 0.266620
-9.392200 140.306213 -0.000004 0.244719
-44.016899 93.922287 18.498663 0.468849
-43.880192 94.105789 16.176348 0.671839
-44.016899 93.922287 13.984787 0.517906
-43.880196 94.105782 11.736409 0.638132
-44.016899 93.922287 9.577312 0.640986
-43.880192 94.105789 7.381970 0.707393
-44.016895 93.922287 5.235805 0.711421
-43.975147 93.978325 3.076688 0.677424
-43.975147 93.978325 0.923312 0.677806
-28.988747 114.094788 -0.000020 0.225367
-19.239098 127.181885 -0.000012 0.233649
-15.053233 132.800629 -0.000009 0.228622
-12.721932 135.929977 -0.000007 0.288294
-11.233598 137.927780 -0.000006 0.241152
-10.199150 139.316345 -0.000005 0.211807
-9.437017 140.339355 -0.000004 0.191941
-43.880211 94.865677 18.289103 0.458671
-43.880211 94.865677 16.045078 0.605615
-43.880203 94.865692 13.832561 0.594354
-43.880203 94.865692 11.646250 0.595972
-43.880203 94.865692 9.481067 0.603586
-43.880215 94.865677 7.332135 0.549142
-43.880199 94.865692 5.194706 0.650629
-43.975174 94.740051 3.066719 0.678431
-43.975166 94.740067 0.933282 0.678431
-29.216087 114.265373 -0.000021 0.229412
-19.375301 127.284096 -0.000012 0.221561
-15.150311 132.873489 -0.000009 0.229579
-12.797219 135.986481 -0.000007 0.193006
-11.294974 137.973846 -0.000006 0.236150
-10.250858 139.355148 -0.000005 0.187608
-9.481602 140.372818 -0.000004 0.209988
-43.880188 95.611710 18.140419 0.709789
-43.880180 95.611725 15.916873 0.508003
-43.880169 95.611740 13.724549 0.594171
-43.880177 95.611732 11.558198 0.492851
-43.880173 95.611740 9.412779 0.523537
-43.880169 95.611740 7.283460 0.479011
-43.880173 95.611740 5.165543 0.581857
-43.950176 95.520462 3.056310 0.085145
-43.950176 95.520462 0.943690 0.086275
-29.442211 114.437553 -0.000020 0.231494
-19.510788 127.387253 -0.000012 0.233086
-15.246879 132.947006 -0.000010 0.225642
-12.872109 136.043488 -0.000007 0.237765
-11.356029 138.020325 -0.000006 0.233505
-10.302296 139.394302 -0.000005 0.175198
-9.525951 140.406586 -0.000005 0.207810
-44.070175 96.100090 18.072701 0.678431
-43.880146 96.344330 15.791653 0.587732
-44.070168 96.100098 13.675362 0.678431
-43.880142 96.344322 11.472195 0.541421
-44.070175 96.100098 9.381681 0.678431
-43.966896 96.232834 7.247505 0.565942
-44.070179 96.100098 5.152263 0.678431
-43.975189 96.222168 3.047474 0.678431
-43.975185 96.222176 0.952527 0.678431
-29.667141 114.611298 -0.000020 0.228454
-19.645550 127.491348 -0.000012 0.243283
-15.342929 133.021210 -0.000009 0.220915
-12.946602 136.101044 -0.000007 0.207642
-11.416755 138.067245 -0.000005 0.219694
-10.353456 139.433823 -0.000005 0.233720
-9.570065 140.440659 -0.000004 0.251026
-43.923733 97.008606 17.870953 0.546914
-43.880119 97.063858 15.669332 0.536507
-43.923721 97.008614 13.528812 0.440742
-43.880123 97.063858 11.388184 0.587747
-43.923733 97.008606 9.289026 0.600732
-43.923729 97.008606 7.195254 0.587320
-43.923729 97.008614 5.112696 0.748882
-43.975174 96.943436 3.038183 0.678431
-43.975174 96.943436 0.961817 0.678431
-29.890835 114.786621 -0.000020 0.227892
-19.779573 127.596390 -0.000012 0.234319
-15.438455 133.096069 -0.000009 0.214739
-13.020690 136.159103 -0.000007 0.249075
-11.477154 138.114578 -0.000006 0.209856
-10.404339 139.473709 -0.000005 0.220304
-9.613937 140.475052 -0.000004 0.178010
-43.880119 97.770767 17.714714 0.584360
-43.880119 97.770767 15.549821 0.520958
-43.880123 97.770767 13.415321 0.492195
-43.880135 97.770752 11.306106 0.666529
-43.880131 97.770752 9.217274 0.611811
-43.880131 97.770752 7.144114 0.485084
-43.880131 97.770752 5.082055 0.664897
-43.975166 97.652069 3.029105 0.678431
-43.975166 97.652069 0.970894 0.678431
-30.113308 114.963501 -0.000020 0.226599
-19.912868 127.702370 -0.000012 0.233984
-15.533461 133.171600 -0.000009 0.233840
-13.094369 136.217682 -0.000007 0.274148
-11.537220 138.162323 -0.000006 0.246538
-10.454943 139.513931 -0.000005 0.246837
-9.657570 140.509735 -0.000004 0.261426
-44.070137 98.231506 17.654758 0.678431
-43.880196 98.465347 15.433054 0.477745
-44.070137 98.231506 13.371769 0.678431
-44.043404 98.264420 11.264310 0.258137
-44.070137 98.231506 9.189734 0.678431
-44.070141 98.231499 7.124485 0.678431
-44.070141 98.231491 5.070295 0.678431
-43.975147 98.348450 3.020236 0.678431
-43.975155 98.348442 0.979764 0.678431
-30.334549 115.141922 -0.000019 0.225654
-20.045422 127.809265 -0.000012 0.234414
-15.627939 133.247803 -0.000009 0.203861
-13.167640 136.276764 -0.000007 0.220675
-11.596952 138.210495 -0.000006 0.278899
-10.505264 139.554520 -0.000005 0.229651
-9.700960 140.544724 -0.000004 0.253826
-43.947750 99.066208 17.473518 0.659602
-43.947754 99.066193 15.341854 0.532662
-43.947758 99.066193 13.240118 0.582406
-43.947750 99.066200 11.163270 0.647028
-43.947746 99.066208 9.106498 0.446189
-43.947750 99.066200 7.065157 0.559243
-43.947750 99.066200 5.034748 0.841505
-43.975182 99.032906 3.011567 0.678431
-43.975185 99.032898 0.988434 0.678431
-30.554237 115.322250 0.000003 0.339925
-20.177223 127.917084 -0.000012 0.219239
-15.721879 133.324646 -0.000009 0.214069
-13.240494 136.336365 -0.000007 0.244898
-11.656345 138.259094 -0.000006 0.270067
-10.555302 139.595459 -0.000005 0.209605
-9.744106 140.580017 -0.000005 0.229268
nan nan nan 0.000000
nan nan nan 0.000000
nan nan nan 0.000000
nan nan nan 0.000000
nan nan nan 0.000000
nan nan nan 0.000000
nan nan nan 0.000000
nan nan nan 0.000000
nan nan nan 0.000000
21.438957 177.980743 0.000015 0.539696
10.974481 165.458908 -0.000021 0.234893
6.481412 160.082474 -0.000006 0.242050
3.979062 157.088150 -0.000003 0.260086
2.381535 155.176544 -0.000002 0.253060
1.271189 153.847900 -0.000001 0.289263
0.453142 152.869019 -0.000001 0.222626
nan nan nan 0.000000
nan nan nan 0.000000
nan nan nan 0.000000
nan nan nan 0.000000
nan nan nan 0.000000
nan nan nan 0.000000
nan nan nan 0.000000
nan nan nan 0.000000
nan nan nan 0.000000
21.656406 177.797729 0.000015 0.543450
11.104762 165.349243 -0.000020 0.221872
6.574270 160.004318 -0.000006 0.227306
4.051079 157.027542 -0.000003 0.238555
2.440243 155.127136 -0.000002 0.216846
1.320651 153.806274 -0.000001 0.200426
0.495787 152.833130 -0.000001 0.176299
nan nan nan 0.000000
nan nan nan 0.000000
nan nan nan 0.000000
nan nan nan 0.000000
nan nan nan 0.000000
nan nan nan 0.000000
nan nan nan 0.000000
nan nan nan 0.000000
nan nan nan 0.000000
21.872570 177.613205 0.000015 0.540398
11.234282 165.238693 -0.000021 0.225211
6.666582 159.925522 -0.000006 0.228299
4.122670 156.966431 -0.000003 0.238759
2.498606 155.077301 -0.000002 0.225498
1.369820 153.764297 -0.000001 0.203346
0.538183 152.796936 -0.000001 0.194801
nan nan nan 0.000000
nan nan nan 0.000000
nan nan nan 0.000000
nan nan nan 0.000000
nan nan nan 0.000000
nan nan nan 0.000000
nan nan nan 0.000000
nan nan nan 0.000000
nan nan nan 0.000000
22.087444 177.427185 0.000015 0.534051
11.363019 165.127228 -0.000021 0.228359
6.758341 159.846069 -0.000006 0.226432
4.193833 156.904816 -0.000003 0.207235
2.556620 155.027084 -0.000002 0.229711
1.418694 153.721985 -0.000001 0.250798
0.580325 152.760452 -0.000001 0.249123
nan nan nan 0.000000
nan nan nan 0.000000
nan nan nan 0.000000
nan nan nan 0.000000
nan nan nan 0.000000
nan nan nan 0.000000
nan nan nan 0.000000
nan nan nan 0.000000
nan nan nan 0.000000
22.301003 177.239639 0.000015 0.537697
11.490977 165.014862 -0.000021 0.226588
6.849546 159.765991 -0.000006 0.248477
4.264564 156.842712 -0.000003 0.250404
2.614281 154.976456 -0.000002 0.214069
1.467275 153.679337 -0.000002 0.244300
0.622211 152.723663 -0.000001 0.217300
nan nan nan 0.000000
nan nan nan 0.000000
nan nan nan 0.000000
nan nan nan 0.000000
nan nan nan 0.000000
nan nan nan 0.000000
nan nan nan 0.000000
nan nan nan 0.000000
nan nan nan 0.000000
22.513256 177.050629 0.000015 0.536538
11.618152 164.901627 -0.000021 0.233589
6.940189 159.685287 -0.000006 0.250021
4.334859 156.780106 -0.000003 0.218306
2.671589 154.925415 -0.000002 0.234008
1.515553 153.636337 -0.000001 0.174767
0.663840 152.686600 -0.000001 0.214799
nan nan nan 0.000000
nan nan nan 0.000000
nan nan nan 0.000000
nan nan nan 0.000000
nan nan nan 0.000000
nan nan nan 0.000000
nan nan nan 0.000000
nan nan nan 0.000000
nan nan nan 0.000000
22.724186 176.860138 0.000014 0.540185
11.744531 164.787491 -0.000021 0.221980
7.030261 159.603928 -0.000006 0.209438
4.404717 156.717026 -0.000003 0.244013
2.728539 154.873993 -0.000002 0.185430
1.563532 153.593002 -0.000002 0.251792
0.705209 152.649246 -0.000001 0.198307
nan nan nan 0.000000
nan nan nan 0.000000
nan nan nan 0.000000
nan nan nan 0.000000
nan nan nan 0.000000
nan nan nan 0.000000
nan nan nan 0.000000
nan nan nan 0.000000
nan nan nan 0.000000
22.933777 176.668182 0.000015 0.537758
11.870107 164.672485 -0.000021 0.227198
7.119767 159.521957 -0.000006 0.239920
4.474134 156.653442 -0.000004 0.269612
2.785128 154.822159 -0.000002 0.189798
1.611206 153.549347 -0.000002 0.186938
0.746315 152.611588 -0.000001 0.212789
nan nan nan 0.000000
nan nan nan 0.000000
nan nan nan 0.000000
nan nan nan 0.000000
nan nan nan 0.000000
nan nan nan 0.000000
nan nan nan 0.000000
nan nan nan 0.000000
nan nan nan 0.000000
23.142033 176.474762 0.000015 0.540719
11.994878 164.556595 -0.000021 0.228921
7.208700 159.439362 -0.000006 0.223308
4.543105 156.589386 -0.000004 0.220257
2.841355 154.769943 -0.000003 0.264657
1.658576 153.505356 -0.000002 0.225929
0.787158 152.573654 -0.000001 0.232835
nan nan nan 0.000000
nan nan nan 0.000000
nan nan nan 0.000000
nan nan nan 0.000000
nan nan nan 0.000000
nan nan nan 0.000000
nan nan nan 0.000000
nan nan nan 0.000000
nan nan nan 0.000000
23.348919 176.279892 0.000015 0.540368
12.118842 164.439835 -0.000021 0.241200
7.297053 159.356140 -0.000007 0.225630
4.611626 156.524857 -0.000004 0.192910
2.897214 154.717331 -0.000002 0.270330
1.705636 153.461029 -0.000002 0.223033
0.827736 152.535446 -0.000001 0.194705
nan nan nan 0.000000
nan nan nan 0.000000
nan nan nan 0.000000
nan nan nan 0.000000
nan nan nan 0.000000
nan nan nan 0.000000
nan nan nan 0.000000
nan nan nan 0.000000
nan nan nan 0.000000
23.554436 176.083588 0.000015 0.536309
12.241990 164.322235 -0.000021 0.223308
7.384823 159.272324 -0.000007 0.212968
4.679692 156.459839 -0.000004 0.212705
2.952706 154.664322 -0.000002 0.253635
1.752386 153.416367 -0.000002 0.191665
0.868046 152.496933 -0.000001 0.234307
nan nan nan 0.000000
nan nan nan 0.000000
nan nan nan 0.000000
nan nan nan 0.000000
nan nan nan 0.000000
nan nan nan 0.000000
nan nan nan 0.000000
nan nan nan 0.000000
nan nan nan 0.000000
23.758591 175.885849 0.000015 0.544762
12.364305 164.203751 -0.000021 0.229927
7.472002 159.187866 -0.000006 0.251947
4.747305 156.394348 -0.000004 0.223009
3.007824 154.610931 -0.000002 0.212465
1.798823 153.371399 -0.000002 0.232978
0.908086 152.458160 -0.000001 0.235336
nan nan nan 0.000000
nan nan nan 0.000000
nan nan nan 0.000000
nan nan nan 0.000000
nan nan nan 0.000000
nan nan nan 0.000000
nan nan nan 0.000000
nan nan nan 0.000000
nan nan nan 0.000000
23.961357 175.686691 0.000015 0.545541
12.485791 164.084427 -0.000021 0.223751
7.558591 159.102829 -0.000006 0.223045
4.814459 156.328400 -0.000004 0.241619
3.062573 154.557159 -0.000003 0.195770
1.844945 153.326096 -0.000002 0.210419
0.947854 152.419098 -0.000001 0.204076
nan nan nan 0.000000
nan nan nan 0.000000
nan nan nan 0.000000
nan nan nan 0.000000
nan nan nan 0.000000
nan nan nan 0.000000
nan nan nan 0.000000
nan nan nan 0.000000
nan nan nan 0.000000
24.162739 175.486145 0.000014 0.534966
12.606441 163.964249 -0.000021 0.229472
7.644588 159.017181 -0.000007 0.241930
4.881153 156.261978 -0.000004 0.198655
3.116941 154.503006 -0.000003 0.247352
1.890750 153.280472 -0.000002 0.211747
0.987348 152.379761 -0.000001 0.256340
nan nan nan 0.000000
nan nan nan 0.000000
nan nan nan 0.000000
nan nan nan 0.000000
nan nan nan 0.000000
nan nan nan 0.000000
nan nan nan 0.000000
nan nan nan 0.000000
nan nan nan 0.000000
24.362705 175.284180 0.000014 0.551766
12.726253 163.843246 -0.000021 0.227306
7.729977 158.930923 -0.000006 0.222159
4.947377 156.195084 -0.000004 0.263197
3.170930 154.448486 -0.000003 0.208097
1.936233 153.234528 -0.000002 0.250344
1.026565 152.340149 -0.000001 0.220161
nan nan nan 0.000000
nan nan nan 0.000000
nan nan nan 0.000000
nan nan nan 0.000000
nan nan nan 0.000000
nan nan nan 0.000000
nan nan nan 0.000000
nan nan nan 0.000000
nan nan nan 0.000000
24.561245 175.080811 0.000015 0.536294
12.845214 163.721405 -0.000021 0.226623
7.814765 158.844086 -0.000006 0.235025
5.013136 156.127731 -0.000004 0.193269
3.224538 154.393585 -0.000003 0.200222
1.981396 153.188278 -0.000002 0.254473
1.065506 152.300262 -0.000001 0.184149
nan nan nan 0.000000
nan nan nan 0.000000
nan nan nan 0.000000
nan nan nan 0.000000
nan nan nan 0.000000
nan nan nan 0.000000
nan nan nan 0.000000
nan nan nan 0.000000
nan nan nan 0.000000
24.758366 174.876053 0.000015 0.548821
12.963326 163.598740 -0.000021 0.219167
7.898949 158.756653 -0.000006 0.219215
5.078424 156.059921 -0.000004 0.221477
3.277763 154.338303 -0.000003 0.200737
2.026237 153.141708 -0.000002 0.194933
1.104169 152.260117 -0.000002 0.228454
nan nan nan 0.000000
nan nan nan 0.000000
nan nan nan 0.000000
nan nan nan 0.000000
nan nan nan 0.000000
nan nan nan 0.000000
nan nan nan 0.000000
nan nan nan 0.000000
nan nan nan 0.000000
24.954060 174.669952 0.000015 0.539757
13.080575 163.475250 -0.000022 0.236892
7.982521 158.668640 -0.000006 0.231530
5.143234 155.991669 -0.000004 0.225666
3.330599 154.282654 -0.000003 0.218605
2.070750 153.094818 -0.000002 0.244503
1.142550 152.219681 -0.000002 0.180188
nan nan nan 0.000000
nan nan nan 0.000000
nan nan nan 0.000000
nan nan nan 0.000000
nan nan nan 0.000000
nan nan nan 0.000000
nan nan nan 0.000000
nan nan nan 0.000000
nan nan nan 0.000000
25.148308 174.462479 0.000015 0.545342
13.196954 163.350937 -0.000021 0.217324
8.065466 158.580032 -0.000006 0.220855
5.207563 155.922943 -0.000004 0.206697
3.383043 154.226639 -0.000003 0.217265
2.114933 153.047623 -0.000002 0.196620
1.180646 152.179001 -0.000001 0.224493
nan nan nan 0.000000
nan nan nan 0.000000
nan nan nan 0.000000
nan nan nan 0.000000
nan nan nan 0.000000
nan nan nan 0.000000
nan nan nan 0.000000
nan nan nan 0.000000
nan nan nan 0.000000
25.341099 174.253647 0.000015 0.542306
13.312470 163.225815 -0.000021 0.236425
8.147799 158.490845 -0.000006 0.234271
5.271418 155.853790 -0.000004 0.217887
3.435098 154.170258 -0.000003 0.235133
2.158786 153.000122 -0.000002 0.261223
1.218459 152.138046 -0.000001 0.238244
nan nan nan 0.000000
nan nan nan 0.000000
nan nan nan 0.000000
nan nan nan 0.000000
nan nan nan 0.000000
nan nan nan 0.000000
nan nan nan 0.000000
nan nan nan 0.000000
nan nan nan 0.000000
25.532440 174.043488 0.000015 0.538705
13.427114 163.099899 -0.000021 0.225869
8.229510 158.401108 -0.000006 0.207271
5.334786 155.784180 -0.000004 0.211364
3.486758 154.113510 -0.000003 0.204028
2.202308 152.952332 -0.000002 0.226767
1.255985 152.096817 -0.000002 0.222518
nan nan nan 0.000000
nan nan nan 0.000000
nan nan nan 0.000000
nan nan nan 0.000000
nan nan nan 0.000000
nan nan nan 0.000000
nan nan nan 0.000000
nan nan nan 0.000000
nan nan nan 0.000000
25.722313 173.832001 0.000014 0.548501
13.540870 162.973175 -0.000021 0.223667
