# This PCD file was generated using the MATLABÂ® pcwrite function
# from Computer Vision ToolboxÂ®.
# .PCD v.7 - Point Cloud Data file format
VERSION .7
FIELDS x y z intensity
SIZE 4 4 4 4
TYPE F F F F
COUNT 1 1 1 1
WIDTH 1285
HEIGHT 1
VIEWPOINT 0 0 0 1 0 0 0
POINTS 1285
DATA ascii
0.690197 134.679214 -0.000005 0.198559
1.065893 136.369476 -0.000004 0.288904
1.342684 137.614777 -0.000006 0.343999
-6.064071 105.605408 12.229728 0.643183
-6.107697 105.415405 10.862561 0.678431
-6.107698 105.415405 9.466447 0.678431
-6.064074 105.605392 8.057951 0.562707
-6.107694 105.415421 6.720616 0.678431
-6.107697 105.415405 5.364619 0.678431
-6.064074 105.605400 4.006310 0.425238
-6.085886 105.510406 2.669888 0.678431
-6.085886 105.510406 1.330113 0.678431
-6.064072 105.605408 -0.006309 0.591180
-2.383384 121.635818 -0.000016 0.233720
-0.815423 128.464722 -0.000010 0.235061
0.057844 132.268036 -0.000007 0.216128
0.615348 134.696121 -0.000005 0.243366
1.002835 136.383728 -0.000004 0.229268
1.288313 137.627060 -0.000006 0.337179
-6.357083 105.605408 12.246405 0.448478
-6.357081 105.605408 10.834835 0.615213
-6.357083 105.605408 9.443087 0.469017
-6.357083 105.605392 8.067823 0.669963
-6.357083 105.605408 6.705849 0.631037
-6.357082 105.605408 5.354096 0.634592
-6.357081 105.605408 4.009579 0.569329
-6.379594 105.510406 2.670979 0.614908
-6.379594 105.510406 1.329021 0.614908
-6.312254 105.794579 -0.000029 0.227701
-2.549218 121.674507 -0.000016 0.237861
-0.933623 128.492294 -0.000010 0.243702
-0.033825 132.289413 -0.000007 0.244587
0.540617 134.713547 -0.000005 0.196907
0.939876 136.398407 -0.000004 0.206218
1.234028 137.639725 -0.000006 0.339681
-6.651055 105.605408 12.263632 0.533944
-6.651054 105.605408 10.849690 0.673716
-6.651054 105.605408 9.455603 0.545617
-6.651054 105.605408 8.078026 0.499901
-6.651055 105.605408 6.713762 0.523079
-6.651055 105.605408 5.359735 0.526574
-6.651056 105.605408 4.012958 0.589685
-6.674266 105.510422 2.672107 0.678431
-6.674266 105.510422 1.327893 0.678431
-6.588585 105.861061 -0.000030 0.230465
-2.714776 121.714355 -0.000016 0.228036
-1.051623 128.520691 -0.000010 0.237299
-0.125340 132.311447 -0.000007 0.218856
0.466012 134.731506 -0.000005 0.260720
0.877023 136.413544 -0.000004 0.219347
1.189316 137.691574 0.010000 1.000000
-6.946036 105.605408 12.281420 0.552743
-6.946037 105.605408 10.865028 0.559823
-6.946037 105.605408 9.468525 0.536294
-6.946035 105.605415 8.088558 0.707210
-6.946036 105.605408 6.721930 0.678187
-6.946037 105.605408 5.365559 0.491768
-6.946037 105.605408 4.016447 0.616876
-6.969951 105.510422 2.673271 0.678431
-6.969951 105.510422 1.326728 0.678431
-6.864442 105.929497 -0.000030 0.228861
-2.880054 121.755348 -0.000016 0.235539
-1.169426 128.549911 -0.000010 0.217145
-0.216700 132.334106 -0.000007 0.201072
0.391533 134.749985 -0.000005 0.180810
0.814276 136.429108 -0.000004 0.232141
1.135483 137.704926 0.010000 1.000000
-7.242061 105.605408 12.299775 0.635508
-7.242060 105.605415 10.880854 0.732845
-7.242061 105.605408 9.481857 0.601175
-7.242061 105.605408 8.099428 0.526574
-7.242060 105.605415 6.730360 0.599466
-7.242058 105.605423 5.371565 0.463432
-7.242059 105.605423 4.020047 0.464958
-7.266682 105.510422 2.674474 0.678431
-7.266682 105.510422 1.325526 0.678431
-7.139820 105.999855 -0.000030 0.230345
-3.045044 121.797501 -0.000016 0.235875
-1.287023 128.579956 -0.000010 0.207666
-0.307901 132.357407 -0.000007 0.200055
0.317183 134.768982 -0.000005 0.242636
0.751640 136.445114 -0.000004 0.227545
1.081747 137.718658 0.010001 1.000000
-7.539153 105.605415 12.318697 0.495003
-7.589813 105.415436 10.939635 0.678431
-7.589813 105.415436 9.531378 0.678431
-7.539153 105.605415 8.110634 0.555001
-7.589814 105.415428 6.761672 0.678431
-7.589814 105.415436 5.393883 0.678431
-7.539151 105.605423 4.023759 0.612238
-7.564487 105.510406 2.675714 0.678431
-7.564487 105.510406 1.324287 0.678431
-7.414697 106.072121 -0.000030 0.230681
-3.209736 121.840790 -0.000017 0.222973
-1.404403 128.610809 -0.000011 0.226887
-0.398935 132.381332 -0.000007 0.225738
0.242969 134.788483 -0.000005 0.222913
0.689117 136.461548 -0.000004 0.206015
1.028108 137.732773 0.010002 1.000000
-7.837356 105.605408 12.338197 0.533089
-7.889439 105.415436 10.956528 0.678431
-7.889439 105.415436 9.545610 0.678431
-7.837352 105.605423 8.122181 0.555108
-7.889439 105.415436 6.770669 0.678431
-7.889441 105.415428 5.400295 0.678431
-7.837354 105.605423 4.027583 0.583352
-7.863400 105.510406 2.676989 0.678431
-7.863400 105.510406 1.323010 0.678431
-7.689062 106.146317 -0.000030 0.229711
-3.374117 121.885246 -0.000017 0.235635
-1.521569 128.642487 -0.000011 0.238879
-0.489800 132.405914 -0.000007 0.231446
0.168894 134.808517 -0.000005 0.204172
0.626710 136.478424 -0.000004 0.229687
0.964003 137.708710 -0.000007 0.336049
-8.136702 105.605415 12.358273 0.586572
-8.136705 105.605408 10.931297 0.731533
-8.136700 105.605423 9.524350 0.791730
-8.136698 105.605423 8.134069 0.634226
-8.136700 105.605423 6.757227 0.779919
-8.136700 105.605423 5.390715 0.715923
-8.136698 105.605423 4.031519 0.739971
-8.163462 105.510414 2.678305 0.678431
-8.163462 105.510414 1.321695 0.678431
-7.962903 106.222427 -0.000029 0.229424
-3.538187 121.930847 -0.000017 0.234211
-1.638507 128.674988 -0.000011 0.223117
-0.580492 132.431107 -0.000007 0.230453
0.094959 134.829071 -0.000005 0.234666
0.564422 136.495728 -0.000004 0.239261
0.910296 137.723633 -0.000007 0.342687
-8.437223 105.605423 12.378934 0.739315
-8.437223 105.605423 10.949109 0.366583
-8.437222 105.605423 9.539358 0.685695
-8.437223 105.605415 8.146308 0.747036
-8.437223 105.605423 6.766716 0.750362
-8.437222 105.605423 5.397477 0.541772
-8.437222 105.605423 4.035573 0.637339
-8.464705 105.510406 2.679657 0.678431
-8.464705 105.510406 1.320342 0.458534
-8.236206 106.300430 -0.000030 0.229005
-3.701933 121.977577 -0.000017 0.243725
-1.755218 128.708313 -0.000011 0.204387
-0.671004 132.456955 -0.000007 0.241727
0.021170 134.850128 -0.000005 0.234295
0.502258 136.513474 -0.000004 0.201862
0.856708 137.738983 0.000004 0.210012
-8.738964 105.605415 12.400187 0.580804
-8.738960 105.605431 10.967433 0.514885
-8.738964 105.605423 9.554798 0.656306
-8.738964 105.605423 8.158892 0.608179
-8.738960 105.605431 6.776476 0.689921
-8.738962 105.605423 5.404435 0.529885
-8.738962 105.605423 4.039741 0.451957
-8.767157 105.510437 2.681049 0.621393
-8.767157 105.510437 1.318951 0.641535
-8.508968 106.380310 -0.000031 0.230681
-3.865350 122.025459 -0.000017 0.233002
-1.871692 128.742432 -0.000011 0.242026
-0.761335 132.483414 -0.000007 0.210251
-0.052469 134.871704 -0.000005 0.208085
0.440218 136.531647 -0.000004 0.189894
0.803215 137.754654 0.000004 0.244408
nan nan nan 0.000000
nan nan nan 0.000000
nan nan nan 0.000000
nan nan nan 0.000000
nan nan nan 0.000000
nan nan nan 0.000000
nan nan nan 0.000000
nan nan nan 0.000000
nan nan nan 0.000000
-8.781153 106.462151 -0.000031 0.228837
-4.028428 122.074486 -0.000017 0.226420
-1.987926 128.777374 -0.000011 0.223105
-0.851479 132.510513 -0.000007 0.219167
-0.125957 134.893799 -0.000005 0.259451
0.378307 136.550262 -0.000004 0.228072
0.749832 137.770691 0.000003 0.257512
nan nan nan 0.000000
nan nan nan 0.000000
nan nan nan 0.000000
nan nan nan 0.000000
nan nan nan 0.000000
nan nan nan 0.000000
nan nan nan 0.000000
nan nan nan 0.000000
nan nan nan 0.000000
-9.052759 106.545876 -0.000031 0.229053
-4.191160 122.124641 -0.000017 0.232488
-2.103912 128.813126 -0.000011 0.209988
-0.941431 132.538239 -0.000007 0.212944
-0.199289 134.916397 -0.000005 0.222650
0.316527 136.569305 -0.000004 0.224002
0.696564 137.787109 0.000003 0.223129
nan nan nan 0.000000
nan nan nan 0.000000
nan nan nan 0.000000
nan nan nan 0.000000
nan nan nan 0.000000
nan nan nan 0.000000
nan nan nan 0.000000
nan nan nan 0.000000
nan nan nan 0.000000
-9.323778 106.631500 -0.000031 0.228610
-4.353537 122.175941 -0.000017 0.224721
-2.219646 128.849686 -0.000011 0.215003
-1.031188 132.566589 -0.000007 0.245760
-0.272460 134.939514 -0.000005 0.202640
0.254883 136.588791 -0.000004 0.205883
0.643411 137.803909 0.000003 0.208097
nan nan nan 0.000000
nan nan nan 0.000000
nan nan nan 0.000000
nan nan nan 0.000000
nan nan nan 0.000000
nan nan nan 0.000000
nan nan nan 0.000000
nan nan nan 0.000000
nan nan nan 0.000000
-9.594193 106.718994 -0.000031 0.228993
-4.515551 122.228371 -0.000017 0.238603
-2.335122 128.887054 -0.000011 0.240506
-1.120744 132.595581 -0.000007 0.215625
-0.345470 134.963135 -0.000005 0.257955
0.193374 136.608688 -0.000004 0.203430
0.590376 137.821060 0.000003 0.255645
nan nan nan 0.000000
nan nan nan 0.000000
nan nan nan 0.000000
nan nan nan 0.000000
nan nan nan 0.000000
nan nan nan 0.000000
nan nan nan 0.000000
nan nan nan 0.000000
nan nan nan 0.000000
-9.863991 106.808380 -0.000031 0.229412
-4.677197 122.281921 -0.000017 0.232117
-2.450335 128.925232 -0.000011 0.236054
-1.210096 132.625183 -0.000007 0.235671
-0.418311 134.987274 -0.000005 0.231901
0.132007 136.629013 -0.000004 0.208731
0.537463 137.838593 0.000002 0.217145
nan nan nan 0.000000
nan nan nan 0.000000
nan nan nan 0.000000
nan nan nan 0.000000
nan nan nan 0.000000
nan nan nan 0.000000
nan nan nan 0.000000
nan nan nan 0.000000
nan nan nan 0.000000
-10.133160 106.899643 -0.000031 0.230262
-4.838465 122.336609 -0.000017 0.224098
-2.565278 128.964203 -0.000011 0.231434
-1.299240 132.655411 -0.000008 0.201802
-0.490984 135.011917 -0.000006 0.220759
0.070784 136.649780 -0.000004 0.271539
0.484673 137.856491 0.000002 0.237574
nan nan nan 0.000000
nan nan nan 0.000000
nan nan nan 0.000000
nan nan nan 0.000000
nan nan nan 0.000000
nan nan nan 0.000000
nan nan nan 0.000000
nan nan nan 0.000000
nan nan nan 0.000000
-10.401680 106.992798 -0.000031 0.230908
-4.999345 122.392418 -0.000017 0.228454
-2.679945 129.003983 -0.000011 0.249733
-1.388169 132.686249 -0.000008 0.268547
-0.563482 135.037064 -0.000005 0.203107
0.009705 136.670959 -0.000004 0.218425
0.432010 137.874771 0.000002 0.214201
nan nan nan 0.000000
nan nan nan 0.000000
nan nan nan 0.000000
nan nan nan 0.000000
nan nan nan 0.000000
nan nan nan 0.000000
nan nan nan 0.000000
nan nan nan 0.000000
nan nan nan 0.000000
-10.669546 107.087814 -0.000031 0.229675
-5.159833 122.449348 -0.000017 0.232500
-2.794333 129.044556 -0.000011 0.201850
-1.476881 132.717728 -0.000008 0.232188
-0.635803 135.062714 -0.000006 0.196237
-0.051222 136.692581 -0.000004 0.270186
0.379475 137.893402 0.000002 0.221010
nan nan nan 0.000000
nan nan nan 0.000000
nan nan nan 0.000000
nan nan nan 0.000000
nan nan nan 0.000000
nan nan nan 0.000000
nan nan nan 0.000000
nan nan nan 0.000000
nan nan nan 0.000000
-10.936745 107.184708 -0.000031 0.230681
-5.319921 122.507401 -0.000017 0.229831
-2.908436 129.085938 -0.000011 0.222818
-1.565373 132.749817 -0.000008 0.242648
-0.707943 135.088882 -0.000005 0.204603
-0.111999 136.714615 -0.000004 0.249171
0.327072 137.912399 0.000002 0.256052
nan nan nan 0.000000
nan nan nan 0.000000
nan nan nan 0.000000
nan nan nan 0.000000
nan nan nan 0.000000
nan nan nan 0.000000
nan nan nan 0.000000
nan nan nan 0.000000
nan nan nan 0.000000
-11.203257 107.283463 -0.000031 0.229125
-5.479600 122.566566 -0.000017 0.220412
-3.022247 129.128098 -0.000011 0.223320
-1.653637 132.782516 -0.000008 0.253946
-0.779899 135.115540 -0.000005 0.245078
-0.172620 136.737076 -0.000004 0.268116
0.274802 137.931763 0.000001 0.214476
nan nan nan 0.000000
nan nan nan 0.000000
nan nan nan 0.000000
nan nan nan 0.000000
nan nan nan 0.000000
nan nan nan 0.000000
nan nan nan 0.000000
nan nan nan 0.000000
nan nan nan 0.000000
-11.469072 107.384064 -0.000031 0.229280
-5.638857 122.626846 -0.000017 0.228718
-3.135757 129.171066 -0.000010 0.228454
-1.741671 132.815842 -0.000008 0.228670
-0.851666 135.142700 -0.000005 0.231746
-0.233082 136.759964 -0.000005 0.211520
0.222669 137.951492 0.000001 0.242529
nan nan nan 0.000000
nan nan nan 0.000000
nan nan nan 0.000000
nan nan nan 0.000000
nan nan nan 0.000000
nan nan nan 0.000000
nan nan nan 0.000000
nan nan nan 0.000000
nan nan nan 0.000000
-11.734184 107.486526 -0.000031 0.227844
-5.797697 122.688232 -0.000017 0.225139
-3.248970 129.214828 -0.000011 0.206051
-1.829470 132.849777 -0.000008 0.195339
-0.923244 135.170364 -0.000006 0.285062
-0.293383 136.783264 -0.000004 0.210096
0.170675 137.971588 0.000001 0.224373
nan nan nan 0.000000
nan nan nan 0.000000
nan nan nan 0.000000
nan nan nan 0.000000
nan nan nan 0.000000
nan nan nan 0.000000
nan nan nan 0.000000
nan nan nan 0.000000
nan nan nan 0.000000
-11.998564 107.590843 -0.000031 0.229639
-5.956100 122.750732 -0.000017 0.232763
-3.361870 129.259369 -0.000011 0.215206
-1.917029 132.884323 -0.000008 0.263437
-0.994624 135.198532 -0.000005 0.244994
-0.353519 136.806992 -0.000004 0.216439
0.118823 137.992050 0.000001 0.260361
nan nan nan 0.000000
nan nan nan 0.000000
nan nan nan 0.000000
nan nan nan 0.000000
nan nan nan 0.000000
nan nan nan 0.000000
nan nan nan 0.000000
nan nan nan 0.000000
nan nan nan 0.000000
-12.262218 107.696991 -0.000031 0.228766
-6.114064 122.814331 -0.000017 0.234450
-3.474457 129.304703 -0.000011 0.247854
-2.004346 132.919479 -0.000008 0.230154
-1.065807 135.227188 -0.000006 0.222267
-0.413489 136.831146 -0.000004 0.220221
0.067115 138.012863 0.000000 0.206434
nan nan nan 0.000000
nan nan nan 0.000000
nan nan nan 0.000000
nan nan nan 0.000000
nan nan nan 0.000000
nan nan nan 0.000000
nan nan nan 0.000000
nan nan nan 0.000000
nan nan nan 0.000000
-12.525118 107.805008 -0.000031 0.228371
-6.271580 122.879036 -0.000017 0.214117
-3.586730 129.350815 -0.000011 0.212322
-2.091416 132.955246 -0.000008 0.222447
-1.136788 135.256348 -0.000005 0.213339
-0.473289 136.855698 -0.000005 0.221693
0.015554 138.034058 0.000000 0.186220
nan nan nan 0.000000
nan nan nan 0.000000
nan nan nan 0.000000
nan nan nan 0.000000
nan nan nan 0.000000
nan nan nan 0.000000
nan nan nan 0.000000
nan nan nan 0.000000
-16.070612 100.153900 1.195903 0.486641
-12.787266 107.914818 -0.000031 0.227820
-6.428638 122.944839 -0.000017 0.232176
-3.698676 129.397705 -0.000012 0.217025
-2.178235 132.991608 -0.000008 0.237454
-1.207565 135.285995 -0.000006 0.211317
-0.532915 136.880692 -0.000005 0.198295
-0.035859 138.055588 0.000000 0.233457
nan nan nan 0.000000
nan nan nan 0.000000
nan nan nan 0.000000
nan nan nan 0.000000
nan nan nan 0.000000
nan nan nan 0.000000
nan nan nan 0.000000
nan nan nan 0.000000
-16.407751 100.238419 1.195007 0.464759
-13.048639 108.026459 -0.000032 0.227808
-6.585235 123.011734 -0.000017 0.227748
-3.810287 129.445389 -0.000011 0.238160
-2.264793 133.028595 -0.000008 0.220436
-1.278131 135.316147 -0.000006 0.206948
-0.592366 136.906082 -0.000004 0.229771
-0.087120 138.077484 -0.000000 0.226935
nan nan nan 0.000000
nan nan nan 0.000000
nan nan nan 0.000000
nan nan nan 0.000000
nan nan nan 0.000000
nan nan nan 0.000000
nan nan nan 0.000000
-17.244949 99.187408 2.826231 0.474968
-16.581257 100.697098 1.200756 0.492927
-13.309221 108.139938 -0.000031 0.230848
-6.741363 123.079712 -0.000017 0.222949
-3.921567 129.493851 -0.000011 0.232811
-2.351096 133.066162 -0.000008 0.231746
-1.348487 135.346786 -0.000006 0.231303
-0.651637 136.931900 -0.000004 0.236964
-0.138227 138.099731 -0.000000 0.205943
nan nan nan 0.000000
nan nan nan 0.000000
nan nan nan 0.000000
nan nan nan 0.000000
nan nan nan 0.000000
nan nan nan 0.000000
nan nan nan 0.000000
nan nan nan 0.000000
-16.672401 101.327682 1.209582 0.459556
-13.569012 108.255226 -0.000031 0.228682
-6.897011 123.148788 -0.000017 0.236234
-4.032505 129.543091 -0.000012 0.241152
-2.437133 133.104355 -0.000008 0.226719
-1.418627 135.377914 -0.000006 0.282130
-0.710727 136.958115 -0.000004 0.305958
-0.189178 138.122345 -0.000001 0.249398
nan nan nan 0.000000
nan nan nan 0.000000
nan nan nan 0.000000
nan nan nan 0.000000
nan nan nan 0.000000
nan nan nan 0.000000
nan nan nan 0.000000
-17.683199 99.925079 2.818147 0.481819
-16.940575 101.552261 1.211122 0.477684
-13.827980 108.372337 -0.000032 0.229998
-7.052170 123.218948 -0.000017 0.232141
-4.143095 129.593094 -0.000011 0.220424
-2.522899 133.143127 -0.000008 0.211616
-1.488545 135.409531 -0.000005 0.220017
-0.769633 136.984756 -0.000004 0.187309
-0.239968 138.145309 -0.000001 0.224972
nan nan nan 0.000000
nan nan nan 0.000000
nan nan nan 0.000000
nan nan nan 0.000000
-17.850670 100.392853 7.710871 0.478721
-17.862270 100.367889 6.072681 0.478950
-17.962778 100.151680 4.451828 0.498634
-17.205605 101.780533 2.787299 0.476051
nan nan nan 0.000000
-14.086134 108.491241 -0.000032 0.229496
-7.206838 123.290199 -0.000017 0.229005
-4.253335 129.643860 -0.000012 0.236940
-2.608394 133.182510 -0.000008 0.242744
-1.558244 135.441635 -0.000006 0.252402
-0.828352 137.011795 -0.000004 0.199971
-0.290597 138.168640 -0.000001 0.213411
nan nan nan 0.000000
nan nan nan 0.000000
nan nan nan 0.000000
nan nan nan 0.000000
-17.904663 101.088799 7.641026 0.495628
nan nan nan 0.000000
-17.651108 101.624443 4.379823 0.479698
-17.662727 101.599899 2.793152 0.464622
-17.455599 102.037460 1.214770 0.479454
-14.343454 108.611938 -0.000032 0.231506
-7.361005 123.362518 -0.000017 0.234833
-4.363219 129.695404 -0.000012 0.222566
-2.693614 133.222488 -0.000008 0.241918
-1.627717 135.474213 -0.000006 0.195076
-0.886880 137.039261 -0.000004 0.190181
-0.341064 138.192307 -0.000002 0.208145
-10.616163 117.000488 9.899267 0.561761
nan nan nan 0.000000
nan nan nan 0.000000
nan nan nan 0.000000
-18.361372 100.929657 7.680192 0.477348
-18.329727 100.995316 6.042582 0.470283
-18.737181 100.149872 4.468186 0.481529
-18.408348 100.832184 2.809747 0.464622
-17.672546 102.358925 1.217987 0.485328
-14.599922 108.734436 -0.000032 0.229220
-7.514664 123.435913 -0.000017 0.238855
-4.472738 129.747726 -0.000012 0.228275
-2.778551 133.263062 -0.000008 0.243869
-1.696960 135.507294 -0.000005 0.236760
-0.945215 137.067123 -0.000004 0.214823
-0.391363 138.216324 -0.000002 0.221034
-10.861385 117.000488 9.926128 0.494484
nan nan nan 0.000000
nan nan nan 0.000000
nan nan nan 0.000000
-18.757719 100.904373 7.702746 0.473960
-18.437105 101.557922 6.004945 0.482353
-10.853359 117.016853 3.553618 0.715496
-18.343973 101.747772 2.795811 0.478660
-18.425354 101.581879 1.201164 0.491966
-14.855520 108.858734 -0.000031 0.228885
-7.667810 123.510368 -0.000017 0.232775
-4.581888 129.800797 -0.000011 0.220879
-2.863202 133.304230 -0.000008 0.210886
-1.765971 135.540848 -0.000006 0.210168
-1.003355 137.095383 -0.000004 0.223033
-0.441493 138.240707 -0.000002 0.280730
-10.888544 117.440643 9.830332 0.780041
-10.853342 117.511154 8.734588 0.654780
-10.853342 117.511147 7.673689 0.632776
-10.853342 117.511154 6.625358 0.653361
-10.853342 117.511147 5.587158 0.687907
-10.853342 117.511147 4.556747 0.666804
-10.853342 117.511147 3.531855 0.654612
-10.853342 117.511147 2.510254 0.631357
-10.853342 117.511147 1.489747 0.681514
-10.853342 117.511147 0.468145 0.669337
-7.820428 123.585907 -0.000018 0.231135
-4.690669 129.854630 -0.000012 0.232524
-2.947565 133.345978 -0.000008 0.221046
-1.834746 135.574890 -0.000006 0.204591
-1.061296 137.124069 -0.000004 0.229998
-0.491452 138.265427 -0.000002 0.198643
-10.853338 117.991783 9.703064 0.654597
-10.853340 117.991776 8.641874 0.636194
-10.853342 117.991776 7.595582 0.660273
-10.853340 117.991776 6.561682 0.658564
-10.853344 117.991776 5.537776 0.651255
-10.853342 117.991776 4.521550 0.666621
-10.853340 117.991776 3.510766 0.669520
-10.853340 117.991776 2.503228 0.657374
-10.853342 117.991776 1.496771 0.665721
-10.853342 117.991776 0.489233 0.647913
-7.972517 123.662498 -0.000017 0.223931
-4.799067 129.909225 -0.000012 0.206613
-3.031634 133.388306 -0.000008 0.227724
-1.903279 135.609406 -0.000006 0.213411
-1.119034 137.153137 -0.000004 0.233026
-0.541237 138.290497 -0.000002 0.251876
-10.853338 118.459381 9.598825 0.673915
-10.853342 118.459373 8.551996 0.660197
-10.853340 118.459373 7.519862 0.693355
-10.853342 118.459373 6.499954 0.662089
-10.853340 118.459373 5.489900 0.632349
-10.853342 118.459373 4.487428 0.654414
-10.853342 118.459373 3.490322 0.666682
-10.853342 118.459373 2.496419 0.658595
-10.853342 118.459366 1.503581 0.700481
-10.853342 118.459373 0.509677 0.648554
-8.124063 123.740158 -0.000017 0.228036
-4.907084 129.964584 -0.000011 0.233553
-3.115404 133.431244 -0.000008 0.243678
-1.971573 135.644394 -0.000006 0.220795
-1.176568 137.182617 -0.000004 0.255921
-0.590845 138.315918 -0.000003 0.208193
-10.853338 118.914505 9.497731 0.652735
-10.853340 118.914505 8.464827 0.661189
-10.853340 118.914505 7.446426 0.677562
-10.853338 118.914505 6.440085 0.649607
-10.853340 118.914505 5.443471 0.663035
-10.853338 118.914505 4.454335 0.662181
-10.853342 118.914505 3.470495 0.674113
-10.853340 118.914505 2.489815 0.648157
-10.853340 118.914505 1.510185 0.662287
-10.853342 118.914505 0.529504 0.659052
-8.275066 123.818871 -0.000017 0.216343
-5.014711 130.020676 -0.000012 0.229388
-3.198873 133.474747 -0.000008 0.256232
-2.039618 135.679871 -0.000006 0.272999
-1.233895 137.212509 -0.000004 0.207954
-0.640275 138.341690 -0.000003 0.207343
-10.853336 119.357712 9.399645 0.636866
-10.853336 119.357719 8.380253 0.659220
-10.853338 119.357712 7.375175 0.654688
-10.853334 119.357719 6.381999 0.672114
-10.853338 119.357712 5.398422 0.648569
-10.853336 119.357719 4.422227 0.657679
-10.853336 119.357712 3.451257 0.680400
-10.853336 119.357712 2.483407 0.659175
-10.853338 119.357712 1.516593 0.656855
-10.853336 119.357712 0.548741 0.651240
-8.425516 123.898636 -0.000017 0.232763
-5.121945 130.077530 -0.000011 0.214727
-3.282037 133.518845 -0.000008 0.215601
-2.107417 135.715820 -0.000006 0.233289
-1.291012 137.242783 -0.000004 0.253874
-0.689524 138.367798 -0.000003 0.193413
-10.853336 119.789490 9.304445 0.632959
-10.853336 119.789490 8.298168 0.664317
-10.853336 119.789490 7.306019 0.647929
-10.853333 119.789497 6.325622 0.669978
-10.853336 119.789490 5.354701 0.640330
-10.853336 119.789490 4.391064 0.649393
-10.853336 119.789490 3.432586 0.662943
-10.853338 119.789490 2.477187 0.646113
-10.853338 119.789490 1.522812 0.666835
-10.853336 119.789490 0.567413 0.677226
-8.575409 123.979446 -0.000017 0.231040
-5.228777 130.135132 -0.000012 0.224326
-3.364891 133.563507 -0.000008 0.224709
-2.174961 135.752228 -0.000006 0.225223
-1.347917 137.273468 -0.000004 0.211125
-0.738589 138.394241 -0.000003 0.213064
-10.853338 120.210320 9.212011 0.669230
-10.853338 120.210320 8.218470 0.664759
-10.853340 120.210312 7.238877 0.664439
-10.853338 120.210320 6.270885 0.653864
-10.853338 120.210320 5.312248 0.626947
-10.853340 120.210312 4.360806 0.623514
-10.853338 120.210320 3.414459 0.660655
-10.853336 120.210320 2.471150 0.656886
-10.853338 120.210320 1.528851 0.649424
-10.853340 120.210312 0.585541 0.653407
-8.724730 124.061302 -0.000018 0.226923
-5.335208 130.193481 -0.000012 0.212860
-3.447431 133.608765 -0.000008 0.209545
-2.242250 135.789124 -0.000006 0.240494
-1.404607 137.304550 -0.000004 0.242816
-0.787470 138.421036 -0.000004 0.171942
-10.853338 120.620644 9.122232 0.649927
-10.853336 120.620651 8.141056 0.649973
-10.853336 120.620644 7.173657 0.670115
-10.853336 120.620644 6.217717 0.622049
-10.853336 120.620644 5.271015 0.628794
-10.853336 120.620651 4.331417 0.672236
-10.853336 120.620651 3.396849 0.651621
-10.853336 120.620644 2.465284 0.656321
-10.853336 120.620644 1.534716 0.648829
-10.853336 120.620644 0.603150 0.647120
-8.873476 124.144196 -0.000017 0.225845
-5.441224 130.252563 -0.000011 0.241954
-3.529651 133.654587 -0.000008 0.243235
-2.309279 135.826477 -0.000006 0.202963
-1.461076 137.336014 -0.000004 0.217743
-0.836160 138.448181 -0.000004 0.222877
-10.853336 121.020905 9.034994 0.658183
-10.853334 121.020912 8.065836 0.664179
-10.853334 121.020912 7.110288 0.651133
-10.853334 121.020912 6.166055 0.672358
-10.853334 121.020912 5.230950 0.686336
-10.853334 121.020912 4.302860 0.650309
-10.853336 121.020912 3.379741 0.692363
-10.853334 121.020912 2.459585 0.667308
-10.853334 121.020912 1.540415 0.665431
-10.853336 121.020905 0.620259 0.668223
-9.021635 124.228142 -0.000017 0.234594
-5.546830 130.312378 -0.000012 0.239644
-3.611553 133.700974 -0.000008 0.244264
-2.376046 135.864304 -0.000006 0.223452
-1.517325 137.367889 -0.000004 0.261905
-0.884661 138.475647 -0.000004 0.183024
-10.853334 121.411499 8.950205 0.657404
-10.853333 121.411507 7.992727 0.647608
-10.853333 121.411507 7.048696 0.636851
-10.853331 121.411507 6.115843 0.645762
-10.853333 121.411507 5.192008 0.680888
-10.853333 121.411507 4.275105 0.651682
-10.853331 121.411507 3.363111 0.664332
-10.853333 121.411507 2.454046 0.663584
-10.853333 121.411507 1.545954 0.649042
-10.853333 121.411507 0.636889 0.658930
-9.169210 124.313110 -0.000017 0.225941
-5.652014 130.372940 -0.000012 0.226623
-3.693126 133.747940 -0.000008 0.232583
-2.442549 135.902588 -0.000006 0.257393
-1.573350 137.400146 -0.000004 0.250056
-0.932969 138.503464 -0.000004 0.233254
-10.853338 121.792809 8.867767 0.652781
-10.853336 121.792809 7.921648 0.683513
-10.853334 121.792816 6.988810 0.634531
-10.853334 121.792816 6.067025 0.659815
-10.853334 121.792809 5.154146 0.651316
-10.853333 121.792816 4.248118 0.662181
-10.853334 121.792816 3.346943 0.651728
-10.853336 121.792809 2.448660 0.693355
-10.853336 121.792809 1.551340 0.666667
-10.853334 121.792809 0.653057 0.671931
-9.316189 124.399101 -0.000017 0.233337
-5.756772 130.434235 -0.000011 0.214883
-3.774370 133.795486 -0.000008 0.203741
-2.508781 135.941345 -0.000006 0.243247
-1.629151 137.432785 -0.000005 0.224876
-0.981081 138.531616 -0.000004 0.201646
-10.853334 122.165192 8.787585 0.657145
-10.853334 122.165192 7.852514 0.634714
-10.853333 122.165192 6.930568 0.655085
-10.853333 122.165192 6.019544 0.615259
-10.853334 122.165192 5.117324 0.641962
-10.853333 122.165199 4.221872 0.654673
-10.853334 122.165192 3.331217 0.656382
-10.853334 122.165192 2.443423 0.662562
-10.853334 122.165192 1.556578 0.662760
-10.853334 122.165192 0.668782 0.650278
-9.462563 124.486115 -0.000017 0.233014
-5.861098 130.496262 -0.000011 0.213279
-3.855280 133.843582 -0.000008 0.236748
-2.574739 135.980545 -0.000006 0.211568
-1.684719 137.465820 -0.000005 0.276745
-1.028996 138.560104 -0.000005 0.278839
-10.853334 122.529007 8.709579 0.648661
-10.853334 122.529007 7.785253 0.612787
-10.853333 122.529007 6.873904 0.667262
-10.853331 122.529007 5.973349 0.652216
-10.853331 122.529007 5.081498 0.673823
-10.853333 122.529007 4.196337 0.631891
-10.853334 122.529007 3.315918 0.669123
-10.853331 122.529007 2.438326 0.686839
-10.853333 122.529007 1.561674 0.651026
-10.853334 122.529007 0.684081 0.675227
-9.608328 124.574158 -0.000017 0.231219
-5.964990 130.559006 -0.000012 0.209318
-3.935854 133.892242 -0.000008 0.233110
-2.640428 136.020218 -0.000006 0.251469
-1.740057 137.499252 -0.000004 0.209497
-1.076712 138.588913 -0.000005 0.256890
-10.853333 122.884560 8.633667 0.666453
-10.853333 122.884567 7.719798 0.652216
-10.853333 122.884560 6.818759 0.653056
-10.853333 122.884567 5.928393 0.674159
-10.853331 122.884567 5.046633 0.665888
-10.853333 122.884567 4.171488 0.675364
-10.853333 122.884560 3.301030 0.660761
-10.853331 122.884567 2.433367 0.685069
-10.853331 122.884567 1.566633 0.647059
-10.853333 122.884560 0.698970 0.677729
-9.753469 124.663216 -0.000017 0.234654
-6.068444 130.622482 -0.000012 0.212166
-4.016085 133.941467 -0.000008 0.246909
-2.705834 136.060349 -0.000006 0.197757
-1.795160 137.533051 -0.000004 0.205440
-1.124223 138.618073 -0.000005 0.223967
-10.853331 123.232193 8.559766 0.652049
-10.853331 123.232185 7.656078 0.653040
-10.853331 123.232185 6.765078 0.649210
-10.853331 123.232193 5.884630 0.643595
-10.853331 123.232185 5.012692 0.666407
-10.853329 123.232193 4.147297 0.660471
-10.853333 123.232185 3.286537 0.653330
-10.853329 123.232193 2.428539 0.655329
-10.853329 123.232193 1.571461 0.649836
-10.853333 123.232185 0.713463 0.650645
-9.897991 124.753281 -0.000017 0.222483
-6.171449 130.686676 -0.000012 0.231758
-4.095970 133.991257 -0.000008 0.210311
-2.770958 136.100937 -0.000006 0.233780
-1.850028 137.567245 -0.000005 0.260062
-1.171531 138.647552 -0.000005 0.249745
-10.853334 123.572159 8.487808 0.658885
-10.853333 123.572159 7.594034 0.667964
-10.853333 123.572159 6.712807 0.669749
-10.853331 123.572159 5.842018 0.701885
-10.853333 123.572159 4.979646 0.689357
-10.853331 123.572159 4.123743 0.662638
-10.853331 123.572159 3.272424 0.686671
-10.853331 123.572159 2.423838 0.669566
-10.853331 123.572159 1.576162 0.689433
-10.853333 123.572159 0.727576 0.662745
-10.041878 124.844353 -0.000017 0.231758
-6.274007 130.751587 -0.000012 0.235563
-4.175507 134.041595 -0.000008 0.241667
-2.835798 136.141983 -0.000006 0.244827
-1.904653 137.601822 -0.000005 0.220520
-1.218632 138.677353 -0.000005 0.269265
-11.018785 123.649330 8.493958 0.648005
-11.018787 123.649323 7.599335 0.653727
-11.018787 123.649323 6.717275 0.662684
-11.018785 123.649330 5.845659 0.672648
-11.018784 123.649330 4.982469 0.668391
-11.018784 123.649330 4.125755 0.666697
-11.018772 123.649353 3.273628 0.732143
-11.018772 123.649353 2.424239 0.689799
-11.018772 123.649353 1.575761 0.706401
-11.018772 123.649353 0.726371 0.630137
-10.185127 124.936424 -0.000017 0.226767
-6.376105 130.817215 -0.000011 0.250176
-4.254689 134.092499 -0.000008 0.218784
-2.900350 136.183472 -0.000006 0.251636
-1.959037 137.636780 -0.000005 0.235061
-1.265522 138.707504 -0.000005 0.185023
-11.235395 123.649353 8.523608 0.636820
-11.235397 123.649353 7.624900 0.662196
-11.235397 123.649353 6.738813 0.642405
-11.235394 123.649353 5.863218 0.660380
-11.235394 123.649353 4.996087 0.652476
-11.235397 123.649353 4.135462 0.690013
-11.202570 123.699265 3.276510 0.721492
-11.202570 123.699265 2.425199 0.737606
-11.202570 123.699265 1.574800 0.709026
-11.235395 123.649353 0.720555 0.641016
-10.327728 125.029495 -0.000017 0.229340
-6.477740 130.883560 -0.000011 0.239118
-4.333514 134.143936 -0.000008 0.222423
-2.964611 136.225403 -0.000006 0.252091
-2.013173 137.672104 -0.000005 0.221094
-1.312202 138.737961 -0.000006 0.225630
-11.425360 123.692276 8.540932 0.770977
-11.425364 123.692268 7.639838 0.736156
-11.454016 123.649353 6.760786 0.671885
-11.425360 123.692276 5.873478 0.745174
-11.425364 123.692261 5.004044 0.768292
-11.454018 123.649353 4.145364 0.675196
-11.520809 123.549324 3.291286 0.735103
-11.520805 123.549324 2.430121 0.741176
-11.520805 123.549332 1.569879 0.741176
-11.454023 123.649345 0.714621 0.626856
-10.469679 125.123558 -0.000017 0.226097
-6.578914 130.950607 -0.000011 0.236509
-4.411978 134.195938 -0.000008 0.256639
-3.028576 136.267807 -0.000006 0.223344
-2.067063 137.707825 -0.000005 0.272077
-1.358669 138.768753 -0.000006 0.214416
-11.649168 123.687004 8.573319 0.732128
-11.814123 123.443649 7.731260 0.741176
-11.674688 123.649353 6.783199 0.692409
-11.814119 123.443657 5.936265 0.741176
-11.814119 123.443657 5.052738 0.741176
-11.674690 123.649353 4.155465 0.674571
-11.742493 123.549324 3.297365 0.726711
-11.742489 123.549332 2.432147 0.741176
-11.742487 123.549332 1.567854 0.741176
-11.674698 123.649338 0.708570 0.630426
-10.610964 125.218613 -0.000017 0.231351
-6.679619 131.018341 -0.000011 0.221022
-4.490077 134.248474 -0.000008 0.224984
-3.092246 136.310638 -0.000006 0.226312
-2.120703 137.743912 -0.000005 0.208073
-1.404920 138.799866 -0.000006 0.224373
-11.867920 123.692276 8.603132 0.771801
-12.038996 123.443649 7.758652 0.741176
-11.897459 123.649345 6.806062 0.667704
-12.038994 123.443657 5.955079 0.741176
-12.038994 123.443657 5.067328 0.741176
-11.897459 123.649345 4.165767 0.681926
-11.966274 123.549339 3.303565 0.703685
-11.966276 123.549332 2.434211 0.741176
-11.966274 123.549332 1.565788 0.741176
-11.897470 123.649330 0.702397 0.622370
-10.751581 125.314651 -0.000017 0.225690
-6.779842 131.086807 -0.000011 0.216355
-4.567806 134.301559 -0.000008 0.224840
-3.155612 136.353912 -0.000006 0.219550
-2.174087 137.780365 -0.000005 0.220556
-1.450951 138.831299 -0.000007 0.229939
-12.092394 123.692276 8.635166 0.753124
-12.266047 123.443649 7.786592 0.741176
-12.122379 123.649345 6.829378 0.670695
-12.266043 123.443649 5.974267 0.741176
-12.266041 123.443657 5.082209 0.741176
-12.122383 123.649345 4.176273 0.640558
-12.192228 123.549339 3.309890 0.680232
-12.192230 123.549332 2.436318 0.741176
-12.192228 123.549339 1.563682 0.741176
-12.122396 123.649323 0.696101 0.634028
-10.891531 125.411674 -0.000017 0.232883
-6.879594 131.155945 -0.000011 0.221370
-4.645166 134.355194 -0.000008 0.212370
-3.218678 136.397629 -0.000006 0.256818
-2.227217 137.817200 -0.000005 0.210120
-1.496761 138.863068 -0.000007 0.184353
-12.319082 123.692268 8.667845 0.726299
-12.495321 123.443642 7.815087 0.741176
-12.349510 123.649338 6.853161 0.622705
-12.495317 123.443649 5.993839 0.741176
-12.495316 123.443649 5.097388 0.741176
-12.349510 123.649338 4.186991 0.650416
-12.349508 123.649345 3.310318 0.098528
-12.349508 123.649345 2.436461 0.098253
-12.349504 123.649353 1.563539 0.097337
-12.349527 123.649315 0.689680 0.626078
-11.030796 125.509666 -0.000017 0.227282
-6.978854 131.225800 -0.000011 0.232978
-4.722147 134.409363 -0.000008 0.249889
-3.281435 136.441788 -0.000006 0.187010
-2.280088 137.854401 -0.000005 0.201156
-1.542349 138.895142 -0.000006 0.206362
-12.578897 123.649330 8.714418 0.648875
-12.726870 123.443649 7.844151 0.741176
-12.578896 123.649338 6.877418 0.661723
-12.726864 123.443649 6.013799 0.741176
-12.726866 123.443649 5.112869 0.741176
-12.578896 123.649338 4.197922 0.648005
-12.650827 123.549347 3.322919 0.532204
-12.650829 123.549347 2.440658 0.741176
-12.650829 123.549347 1.559342 0.741176
-12.578911 123.649315 0.683131 0.627802
-11.169376 125.608627 -0.000017 0.233816
-7.077625 131.296326 -0.000011 0.211927
-4.798747 134.464066 -0.000008 0.220292
-3.343883 136.486389 -0.000006 0.235133
-2.332697 137.891968 -0.000005 0.256160
-1.587713 138.927536 -0.000007 0.218425
-12.810598 123.649330 8.748477 0.650278
-12.960760 123.443642 7.873795 0.741176
-12.810596 123.649338 6.902158 0.651316
-12.960754 123.443649 6.034158 0.741176
-12.960756 123.443649 5.128657 0.741176
-12.810596 123.649330 4.209070 0.665248
-12.883823 123.549026 3.329648 0.381292
-12.883598 123.549339 2.442893 0.741176
-12.883598 123.549339 1.557107 0.741176
-12.810606 123.649323 0.676452 0.631601
-11.307264 125.708549 -0.000017 0.224110
-7.175902 131.367554 -0.000011 0.214883
-4.874966 134.519302 -0.000008 0.250667
-3.406017 136.531418 -0.000006 0.228478
-2.385046 137.929901 -0.000005 0.224948
-1.632848 138.960236 -0.000007 0.227940
-13.044680 123.649323 8.783215 0.653880
-13.153538 123.502380 7.888243 0.063462
-13.044676 123.649330 6.927394 0.654902
-13.191040 123.451752 6.053428 0.767391
-13.191044 123.451752 5.143602 0.763500
-13.044678 123.649323 4.220442 0.659907
-13.044678 123.649323 3.330359 0.120485
-13.118757 123.549324 2.445173 0.741176
-13.118761 123.549324 1.554827 0.741176
-13.044678 123.649323 0.669639 0.615579
-11.444448 125.809441 -0.000017 0.230537
-7.273683 131.439453 -0.000011 0.201778
-4.950798 134.575058 -0.000008 0.210670
-3.467837 136.576874 -0.000006 0.194274
-2.437125 137.968216 -0.000004 0.221046
-1.677755 138.993271 -0.000007 0.233026
-13.281187 123.649323 8.818647 0.618021
-13.248905 123.692261 7.867692 0.741009
-13.281183 123.649323 6.953131 0.636759
-13.248899 123.692276 6.029967 0.770794
-13.248911 123.692261 5.125410 0.724727
-13.281187 123.649323 4.232041 0.646586
-13.281185 123.649323 3.337309 0.147433
-13.356356 123.549316 2.447499 0.657771
-13.356359 123.549316 1.552501 0.661372
-13.281176 123.649330 0.662691 0.645609
-11.580925 125.911278 -0.000017 0.229711
-7.370954 131.512039 -0.000011 0.249374
-5.026234 134.631363 -0.000008 0.214883
-3.529335 136.622772 -0.000006 0.214931
-2.488937 138.006866 -0.000004 0.233074
-1.722430 139.026596 -0.000008 0.225451
-13.520191 123.649323 8.854787 0.655131
-13.520189 123.649323 7.910454 0.674937
-13.520187 123.649323 6.979383 0.644831
-13.520187 123.649330 6.059338 0.635294
-13.520187 123.649323 5.148187 0.647059
-13.520187 123.649330 4.243870 0.668070
-13.482092 123.699280 3.341311 0.699107
-13.482090 123.699280 2.446784 0.693355
-13.482092 123.699280 1.553216 0.718715
-13.520178 123.649338 0.655603 0.604303
-11.716686 126.014069 -0.000017 0.220257
-7.467718 131.585312 -0.000011 0.217121
-5.101280 134.688187 -0.000008 0.249291
-3.590516 136.669098 -0.000006 0.215529
-2.540479 138.045898 -0.000004 0.223835
-1.766870 139.060257 -0.000008 0.195495
-13.761740 123.649338 8.891644 0.655634
-13.761738 123.649338 7.942234 0.663386
-13.761736 123.649345 7.006155 0.622934
-13.761738 123.649338 6.081165 0.653391
-13.761738 123.649338 5.165113 0.660166
-13.761738 123.649338 4.255935 0.640513
-13.723114 123.699257 3.348525 0.702861
-13.723114 123.699257 2.449187 0.734249
-13.723114 123.699257 1.550813 0.716579
-13.761726 123.649353 0.648375 0.612497
-11.851728 126.117813 -0.000017 0.232344
-7.563971 131.659241 -0.000011 0.248572
-5.175926 134.745529 -0.000008 0.248644
-3.651370 136.715836 -0.000006 0.237179
-2.591745 138.085281 -0.000004 0.195818
-1.811076 139.094208 -0.000008 0.209988
-14.005915 123.649345 8.929239 0.629221
-14.167383 123.443649 8.031130 0.741176
-14.005913 123.649353 7.033466 0.662486
-14.167389 123.443642 6.142220 0.741176
-14.108484 123.518684 5.201490 0.081132
-14.005913 123.649353 4.268242 0.652201
-14.005907 123.649353 3.358999 0.117021
-14.084406 123.549355 2.454756 0.722423
-14.084408 123.549355 1.545243 0.741176
-14.005907 123.649353 0.641001 0.620066
-11.986040 126.222488 -0.000017 0.234103
-7.659700 131.733856 -0.000011 0.231040
-5.250168 134.803391 -0.000008 0.220292
-3.711895 136.763016 -0.000006 0.211005
-2.642738 138.125015 -0.000005 0.233026
-1.855043 139.128479 -0.000008 0.247735
-14.252790 123.649345 8.967591 0.662959
-14.416592 123.443649 8.064512 0.741176
-14.252787 123.649353 7.061327 0.649271
-14.416594 123.443649 6.165145 0.741176
-14.356842 123.518684 5.219210 0.057008
-14.252790 123.649345 4.280797 0.658351
-14.252783 123.649353 3.366521 0.152544
-14.332420 123.549355 2.457273 0.715145
-14.332420 123.549355 1.542726 0.741176
-14.252783 123.649353 0.633479 0.632151
-12.119617 126.328102 -0.000017 0.221310
-7.754910 131.809128 -0.000011 0.222100
-5.324007 134.861771 -0.000008 0.202927
-3.772089 136.810608 -0.000006 0.212166
-2.693448 138.165115 -0.000004 0.235216
-1.898769 139.163040 -0.000008 0.270438
-14.502430 123.649345 9.006716 0.661051
-14.668589 123.443657 8.098566 0.741176
-14.502428 123.649353 7.089746 0.653223
-14.668594 123.443649 6.188534 0.741176
-14.626629 123.495598 5.240701 0.080674
-14.502428 123.649353 4.293604 0.612070
-14.502426 123.649353 3.374194 0.131609
-14.583204 123.549355 2.459841 0.703029
-14.583204 123.549355 1.540159 0.741176
-14.502420 123.649361 0.625805 0.614130
-12.252459 126.434647 -0.000017 0.229424
-7.849591 131.885071 -0.000011 0.244994
-5.397438 134.920654 -0.000008 0.249051
-3.831950 136.858612 -0.000006 0.189978
-2.743881 138.205566 -0.000005 0.244719
-1.942255 139.197922 -0.000009 0.205704
-14.754890 123.649353 9.046625 0.661173
-14.861971 123.518669 8.112357 0.072099
-14.754889 123.649353 7.118737 0.654902
-14.861971 123.518669 6.198006 0.081971
-14.861973 123.518669 5.255728 0.065202
-14.754887 123.649353 4.306668 0.648524
-14.754889 123.649353 3.382022 0.131930
-14.836830 123.549355 2.462460 0.690715
-14.836830 123.549355 1.537539 0.754131
-14.754889 123.649353 0.617978 0.638758
-12.384550 126.542114 -0.000017 0.228239
-7.943736 131.961670 -0.000011 0.221741
-5.470449 134.980072 -0.000008 0.230800
-3.891473 136.907043 -0.000006 0.209593
-2.794027 138.246368 -0.000004 0.262012
-1.985493 139.233093 -0.000009 0.265495
-15.010263 123.649353 9.087341 0.676265
-15.181227 123.443657 8.168740 0.741176
-14.911110 123.768654 7.120088 0.625711
-15.181225 123.443657 6.236730 0.741176
-15.181227 123.443657 5.285761 0.741176
-15.010265 123.649353 4.319996 0.668040
-15.109240 123.530273 3.397614 0.688838
-15.010263 123.649353 2.463005 0.107790
-15.010263 123.649353 1.536995 0.108370
-15.010265 123.649353 0.609993 0.532143
-12.515884 126.650505 -0.000017 0.224637
-8.037348 132.038925 -0.000011 0.231901
-5.543050 135.039978 -0.000008 0.234391
-3.950660 136.955887 -0.000006 0.233026
-2.843889 138.287506 -0.000005 0.218784
-2.028486 139.268570 -0.000009 0.218066
-15.268618 123.649353 9.128878 0.675013
-15.442019 123.443665 8.204892 0.741176
-15.160666 123.777412 7.148011 0.605295
-15.442020 123.443665 6.261561 0.741176
-15.442019 123.443665 5.305018 0.741176
-15.268620 123.649353 4.333592 0.650065
-15.187792 123.745232 3.391994 0.690852
-15.352926 123.549347 2.467858 0.666438
-15.352930 123.549347 1.532141 0.741176
-15.268631 123.649338 0.601845 0.573999
-12.646465 126.759804 -0.000017 0.224625
-8.130419 132.116821 -0.000011 0.222961
-5.615231 135.100388 -0.000008 0.199061
-4.009503 137.005142 -0.000006 0.192108
-2.893462 138.329010 -0.000004 0.260552
-2.071231 139.304352 -0.000009 0.247627
-15.530031 123.649353 9.171257 0.647410
-15.691069 123.461014 8.236849 0.771054
-15.420540 123.777412 7.178615 0.632486
-15.691065 123.461021 6.283507 0.756466
-15.691071 123.461014 5.322040 0.765332
-15.530031 123.649361 4.347466 0.673930
-15.441420 123.752991 3.399767 0.717205
-15.615541 123.549347 2.470640 0.652430
-15.615541 123.549347 1.529360 0.741176
-15.530054 123.649330 0.593532 0.636759
-12.776279 126.870010 -0.000017 0.220460
-8.222940 132.195389 -0.000011 0.247519
-5.686987 135.161316 -0.000008 0.226671
-4.067999 137.054810 -0.000005 0.196560
-2.942746 138.370850 -0.000005 0.225786
-2.113725 139.340439 -0.000009 0.215110
-15.794582 123.649361 9.214499 0.686992
-15.757345 123.692299 8.208338 0.760113
-15.683533 123.777412 7.209840 0.633616
-15.757347 123.692299 6.263926 0.734951
-15.757347 123.692299 5.306851 0.760586
-15.794579 123.649361 4.361619 0.654902
-15.697842 123.760918 3.407692 0.693690
-15.881304 123.549355 2.473478 0.644907
-15.881304 123.549355 1.526522 0.741176
-15.794619 123.649315 0.585051 0.630564
-12.905312 126.981140 -0.000016 0.232990
-8.314913 132.274582 -0.000011 0.229256
-5.758316 135.222733 -0.000008 0.194968
-4.126147 137.104874 -0.000005 0.215637
-2.991733 138.413040 -0.000004 0.259008
-2.155965 139.376801 -0.000009 0.204866
-16.062361 123.649353 9.258619 0.654856
-16.062365 123.649345 8.258659 0.657511
-16.062366 123.649345 7.272734 0.647059
-16.062365 123.649345 6.298487 0.658381
-16.062363 123.649345 5.333655 0.664607
-16.062365 123.649345 4.376064 0.641367
-15.959911 123.765839 3.415978 0.706874
-16.030357 123.685738 2.473401 0.704692
-16.030357 123.685738 1.526598 0.706493
-16.062401 123.649307 0.576397 0.635294
-13.033571 127.093147 -0.000017 0.217312
-8.406326 132.354416 -0.000011 0.240446
-5.829211 135.284653 -0.000008 0.238591
-4.183944 137.155350 -0.000005 0.256770
-3.040426 138.455551 -0.000005 0.242529
-2.197950 139.413467 -0.000009 0.217193
-16.333467 123.649330 9.303650 0.652918
-16.305691 123.680473 8.288469 0.735866
-16.305691 123.680473 7.297850 0.752300
-16.305687 123.680481 6.318961 0.765805
-16.305689 123.680473 5.349535 0.741451
-16.333475 123.649323 4.390804 0.654047
-16.229549 123.765839 3.424761 0.695735
-16.230898 123.764328 2.474614 0.691936
-16.230911 123.764313 1.525385 0.708202
-16.333488 123.649307 0.567567 0.629328
-13.161049 127.206055 -0.000016 0.227784
-8.497187 132.434891 -0.000010 0.222291
-5.899677 135.347061 -0.000008 0.216534
-4.241390 137.206238 -0.000005 0.228754
-3.088822 138.498428 -0.000004 0.211580
-2.239680 139.450424 -0.000010 0.225319
-16.607944 123.649338 9.349594 0.622614
-16.793999 123.443649 8.396998 0.741176
-16.793991 123.443657 7.389278 0.741176
-16.821966 123.412735 6.399684 0.760754
-16.793989 123.443657 5.407340 0.741176
-16.607946 123.649330 4.405844 0.645869
-16.502554 123.765839 3.433723 0.685115
-16.607920 123.649361 2.480137 0.726436
-16.607922 123.649361 1.519863 0.690944
-16.607922 123.649361 0.558560 0.738521
-13.287733 127.319839 -0.000016 0.222973
-8.587482 132.515991 -0.000011 0.209234
-5.969702 135.409958 -0.000008 0.242433
-4.298477 137.257507 -0.000006 0.211807
-3.136916 138.541626 -0.000005 0.230417
-2.281148 139.487671 -0.000010 0.220424
-16.885916 123.649338 9.396482 0.628687
-17.074593 123.443657 8.437809 0.741176
-17.074587 123.443665 7.423661 0.741176
-16.982855 123.543663 6.401398 0.751888
-17.074589 123.443665 5.429079 0.741176
-16.885920 123.649338 4.421192 0.669825
-16.779041 123.765839 3.442871 0.703365
-16.885920 123.649338 2.483201 0.746624
-16.885920 123.649338 1.516799 0.763027
-16.885920 123.649330 0.549362 0.750576
-13.413620 127.434517 -0.000017 0.230226
-8.677204 132.597733 -0.000010 0.216534
-6.039289 135.473358 -0.000008 0.256256
-4.355206 137.309189 -0.000006 0.205572
-3.184707 138.585159 -0.000004 0.224170
-2.322357 139.525208 -0.000010 0.191713
-17.167467 123.649338 9.444338 0.656794
-17.308380 123.497864 8.463470 0.073213
-17.308380 123.497864 7.445283 0.073426
-17.265774 123.543663 6.429875 0.735973
-17.308376 123.497864 5.442748 0.076753
-17.167467 123.649338 4.436857 0.656596
-17.068661 123.755547 3.452897 0.706508
-17.260498 123.549332 2.488561 0.065049
-17.307013 123.499329 1.510320 0.741176
-17.304729 123.501785 0.530076 0.062928
-13.538700 127.550072 -0.000017 0.226252
-8.766357 132.680084 -0.000010 0.226492
-6.108429 135.537216 -0.000008 0.248848
-4.411572 137.361252 -0.000006 0.254784
-3.232195 138.629028 -0.000005 0.189571
-2.363302 139.563034 -0.000010 0.275775
-17.452700 123.649338 9.493185 0.660136
-17.646730 123.443665 8.521976 0.741176
-17.646727 123.443665 7.494570 0.741176
-17.486536 123.613472 6.444707 0.740627
-17.646729 123.443665 5.473911 0.741176
-17.344137 123.764420 4.439874 0.594797
-17.362150 123.745323 3.463121 0.693172
-17.547024 123.549355 2.491767 0.067826
-17.546993 123.549385 1.508233 0.070283
-17.591906 123.501778 0.520430 0.082719
-13.662971 127.666489 -0.000016 0.240219
-8.854935 132.763062 -0.000011 0.235755
-6.177122 135.601578 -0.000007 0.231566
-4.467574 137.413712 -0.000005 0.241906
-3.279374 138.673218 -0.000004 0.240075
-2.403982 139.601151 -0.000010 0.242002
-17.741714 123.649338 9.543045 0.622538
-17.842810 123.543663 8.535486 0.751675
-17.938471 123.443672 7.531132 0.741176
-17.700611 123.692307 6.458099 0.735225
-17.938477 123.443665 5.497026 0.741176
-17.619219 123.777382 4.454638 0.622003
-17.693974 123.699242 3.475990 0.696544
-17.837349 123.549377 2.495040 0.067353
-17.885197 123.499359 1.503828 0.741176
-17.882887 123.501770 0.510585 0.063844
-13.786428 127.783775 -0.000017 0.220508
-8.942928 132.846664 -0.000011 0.226851
-6.245365 135.666412 -0.000008 0.258518
-4.523207 137.466568 -0.000006 0.257776
-3.326244 138.717743 -0.000005 0.229388
-2.444396 139.639542 -0.000011 0.207882
-18.034616 123.649338 9.593949 0.660685
-18.107988 123.573715 8.570547 0.751125
-18.191065 123.488075 7.557201 0.765621
-17.992941 123.692307 6.488185 0.758541
-18.191071 123.488068 5.513509 0.763882
-17.910402 123.777382 4.471204 0.636393
-17.986204 123.699249 3.485950 0.697169
-18.131554 123.549423 2.498379 0.069810
-18.130527 123.550476 1.501645 0.059983
-18.133690 123.547218 0.503644 0.059663
-13.909069 127.901917 -0.000017 0.233732
-9.030338 132.930862 -0.000011 0.240841
-6.313156 135.731720 -0.000008 0.222231
-4.578469 137.519806 -0.000005 0.201563
-3.372799 138.762604 -0.000004 0.219084
-2.484540 139.678207 -0.000010 0.201311
-18.331511 123.649345 9.645918 0.654902
-18.289253 123.692299 8.579584 0.733135
-18.289240 123.692314 7.543102 0.742702
-18.289246 123.692307 6.518900 0.732509
-18.289242 123.692307 5.504595 0.753384
-18.205551 123.777382 4.488115 0.626154
-18.282417 123.699249 3.496119 0.696132
-18.331514 123.649338 2.499496 0.690440
-18.331516 123.649338 1.500504 0.719661
-18.331512 123.649338 0.500442 0.740246
-14.030872 128.020920 -0.000016 0.228993
-9.117153 133.015686 -0.000011 0.225642
-6.380485 135.797485 -0.000008 0.210048
-4.633359 137.573441 -0.000005 0.197972
-3.419044 138.807785 -0.000004 0.260469
-2.524414 139.717163 -0.000011 0.237598
-18.632523 123.649345 9.698983 0.661433
-18.632513 123.649353 8.638351 0.671427
