# This PCD file was generated using the MATLABÂ® pcwrite function
# from Computer Vision ToolboxÂ®.
# .PCD v.7 - Point Cloud Data file format
VERSION .7
FIELDS x y z intensity
SIZE 4 4 4 4
TYPE F F F F
COUNT 1 1 1 1
WIDTH 1201
HEIGHT 1
VIEWPOINT 0 0 0 1 0 0 0
POINTS 1201
DATA ascii
nan nan nan 0.000000
nan nan nan 0.000000
nan nan nan 0.000000
nan nan nan 0.000000
nan nan nan 0.000000
nan nan nan 0.000000
nan nan nan 0.000000
nan nan nan 0.000000
0.467227 108.185989 -0.000050 0.231363
-5.587765 123.341141 -0.000029 0.235539
-8.187356 129.847717 -0.000021 0.242253
-9.635181 133.471497 -0.000016 0.218773
-10.559492 135.784973 -0.000012 0.223787
-11.201920 137.392914 -0.000010 0.224002
-11.675230 138.577576 -0.000009 0.262000
nan nan nan 0.000000
nan nan nan 0.000000
nan nan nan 0.000000
nan nan nan 0.000000
nan nan nan 0.000000
nan nan nan 0.000000
nan nan nan 0.000000
nan nan nan 0.000000
nan nan nan 0.000000
0.202918 108.081482 -0.000050 0.229436
-5.746116 123.278511 -0.000029 0.210694
-8.300220 129.803070 -0.000021 0.218354
-9.722713 133.436890 -0.000016 0.250619
-10.630849 135.756744 -0.000013 0.237526
-11.262036 137.369141 -0.000010 0.203609
-11.727066 138.557068 -0.000009 0.208839
nan nan nan 0.000000
nan nan nan 0.000000
nan nan nan 0.000000
nan nan nan 0.000000
nan nan nan 0.000000
nan nan nan 0.000000
nan nan nan 0.000000
nan nan nan 0.000000
nan nan nan 0.000000
-0.062107 107.978806 -0.000050 0.228586
-5.904902 123.216995 -0.000029 0.226779
-8.413394 129.759216 -0.000021 0.222518
-9.810484 133.402878 -0.000016 0.222865
-10.702402 135.729019 -0.000013 0.231817
-11.322319 137.345779 -0.000010 0.215493
-11.779042 138.536942 -0.000009 0.261091
0.525375 105.605415 12.805853 0.566003
0.525374 105.605415 11.317214 0.579705
0.525375 105.605415 9.849478 0.672999
0.525378 105.605408 8.399124 0.451942
0.525374 105.605415 6.962787 0.500893
0.525376 105.605408 5.537229 0.591974
0.525374 105.605415 4.119301 0.714015
0.561038 105.510429 2.707590 0.570764
0.561035 105.510437 1.292411 0.552270
-0.327842 107.877968 -0.000050 0.231590
-6.064112 123.156578 -0.000030 0.233720
-8.526874 129.716171 -0.000021 0.220795
-9.898491 133.369476 -0.000016 0.232021
-10.774148 135.701797 -0.000013 0.243965
-11.382763 137.322845 -0.000010 0.251241
-11.831160 138.517166 -0.000009 0.193604
0.204511 105.605423 12.777864 0.601785
0.204510 105.605423 11.293080 0.669520
0.204509 105.605423 9.829144 0.582101
0.204514 105.605415 8.382549 0.570764
0.204509 105.605431 6.949931 0.582162
0.204511 105.605423 5.528065 0.543191
0.204510 105.605423 4.113811 0.633341
0.239424 105.510422 2.705758 0.652354
0.239424 105.510422 1.294243 0.655177
-0.594273 107.778992 -0.000050 0.230992
-6.223742 123.097275 -0.000030 0.237299
-8.640648 129.673889 -0.000021 0.223440
-9.986730 133.336700 -0.000016 0.241344
-10.846083 135.675079 -0.000013 0.220675
-11.443363 137.300339 -0.000010 0.196668
-11.883413 138.497757 -0.000008 0.249650
-0.114708 105.605438 12.750540 0.692287
-0.114709 105.605431 11.269521 0.637415
-0.114706 105.605423 9.809299 0.609613
-0.114706 105.605423 8.366367 0.694041
-0.114708 105.605438 6.937383 0.499550
-0.114706 105.605423 5.519122 0.666880
-0.114709 105.605438 4.108454 0.547448
-0.080548 105.510437 2.703967 0.678431
-0.080548 105.510437 1.296032 0.678431
-0.861388 107.681870 -0.000050 0.227473
-6.383780 123.039093 -0.000030 0.231087
-8.754717 129.632431 -0.000021 0.221992
-10.075193 133.304535 -0.000016 0.236676
-10.918200 135.648865 -0.000013 0.212489
-11.504122 137.278259 -0.000010 0.190145
-11.935800 138.478699 -0.000009 0.247148
-0.365491 105.415405 12.774337 0.678431
-0.379563 105.455414 11.280881 0.195941
-0.365491 105.415405 9.826584 0.678431
-0.432323 105.605423 8.350583 0.628916
-0.365495 105.415421 6.948312 0.678431
-0.365494 105.415421 5.526911 0.678431
-0.432327 105.605423 4.103226 0.572061
-0.398909 105.510422 2.702223 0.678431
-0.398909 105.510422 1.297778 0.678431
-1.129179 107.586632 -0.000050 0.230046
-6.544227 122.982040 -0.000030 0.227796
-8.869070 129.591751 -0.000021 0.249925
-10.163880 133.273010 -0.000016 0.223320
-10.990500 135.623154 -0.000013 0.198236
-11.565032 137.256592 -0.000010 0.257704
-11.988319 138.460022 -0.000009 0.199492
-0.683040 105.415398 12.748211 0.678431
-0.690147 105.436066 11.262791 0.211688
-0.683045 105.415421 9.807602 0.678431
-0.748387 105.605408 8.335182 0.660456
-0.683043 105.415405 6.936312 0.678431
-0.683044 105.415405 5.518357 0.678431
-0.748386 105.605408 4.098125 0.538521
-0.724314 105.535416 2.700087 0.090929
-0.724314 105.535416 1.299913 0.085664
-1.397626 107.493256 -0.000051 0.229831
-6.705064 122.926094 -0.000030 0.229460
-8.983707 129.551880 -0.000021 0.231937
-10.252785 133.242081 -0.000016 0.223512
-11.062979 135.597946 -0.000013 0.228143
-11.626092 137.235352 -0.000011 0.244994
-12.040968 138.441711 -0.000009 0.215134
-1.062938 105.605423 12.672512 0.739712
-1.062934 105.605408 11.202247 0.529473
-1.062934 105.605408 9.752621 0.773114
-1.062933 105.605408 8.320163 0.631159
-1.062932 105.605408 6.901550 0.459632
-1.062931 105.605400 5.493581 0.556115
-1.062935 105.605408 4.093151 0.701350
-1.031007 105.510422 2.698859 0.678431
-1.031007 105.510422 1.301142 0.678431
-1.666719 107.401764 -0.000050 0.227377
-6.866285 122.871277 -0.000030 0.226599
-9.098619 129.512817 -0.000021 0.222554
-10.341903 133.211777 -0.000016 0.215326
-11.135631 135.573242 -0.000013 0.199588
-11.687299 137.214539 -0.000011 0.247220
-12.093743 138.423767 -0.000009 0.250715
-1.376017 105.605423 12.647786 0.569284
-1.376012 105.605408 11.180927 0.534524
-1.376012 105.605408 9.734659 0.675425
-1.376013 105.605408 8.305519 0.582696
-1.376012 105.605400 6.890193 0.601175
-1.376011 105.605400 5.485487 0.536950
-1.376015 105.605408 4.088301 0.603281
-1.347925 105.519875 2.697077 0.062745
-1.347925 105.519875 1.302923 0.134386
-1.936447 107.312149 -0.000050 0.233014
-7.027889 122.817581 -0.000030 0.230908
-9.213802 129.474548 -0.000021 0.209067
-10.431231 133.182098 -0.000016 0.252163
-11.208453 135.549042 -0.000013 0.252498
-11.748651 137.194153 -0.000010 0.250775
-12.146643 138.406189 -0.000009 0.219143
-1.687659 105.605415 12.623693 0.752895
-1.687654 105.605408 11.160153 0.699031
-1.687655 105.605408 9.717157 0.731106
-1.687656 105.605408 8.291250 0.464988
-1.687654 105.605400 6.879128 0.640848
-1.687655 105.605408 5.477599 0.568521
-1.687654 105.605400 4.083576 0.558755
-1.657194 105.510406 2.695662 0.678431
-1.657194 105.510406 1.304338 0.678431
-2.206789 107.224419 -0.000050 0.227222
-7.189862 122.765030 -0.000030 0.235551
-9.329248 129.437088 -0.000021 0.214775
-10.520765 133.153046 -0.000016 0.238699
-11.281443 135.525360 -0.000013 0.229065
-11.810142 137.174194 -0.000011 0.193568
-12.199662 138.388992 -0.000009 0.223871
-1.975740 105.534576 12.618815 0.618158
-1.975741 105.534576 11.155944 0.514611
-1.975742 105.534576 9.713611 0.690288
-1.997909 105.605408 8.277351 0.553079
-1.975743 105.534584 6.876886 0.567285
-1.975742 105.534576 5.476001 0.574334
-1.997908 105.605408 4.078973 0.729122
-1.968173 105.510399 2.694125 0.678431
-1.968173 105.510399 1.305875 0.678431
-2.477737 107.138573 -0.000051 0.229651
-7.352198 122.713593 -0.000030 0.235743
-9.444952 129.400421 -0.000021 0.232524
-10.610498 133.124619 -0.000016 0.229974
-11.354596 135.502182 -0.000013 0.209162
-11.871771 137.154678 -0.000010 0.260708
-12.252802 138.372162 -0.000009 0.191929
-2.248799 105.415421 12.627132 0.664897
-2.248797 105.415413 11.163114 0.678431
-2.248796 105.415405 9.719654 0.678431
-2.306808 105.605408 8.263819 0.789715
-2.248798 105.415413 6.880705 0.678431
-2.248797 105.415413 5.478724 0.678431
-2.306808 105.605408 4.074491 0.572793
-2.277801 105.510399 2.692628 0.678431
-2.277801 105.510399 1.307371 0.678431
-2.749279 107.054619 -0.000051 0.228550
-7.514889 122.663300 -0.000030 0.224050
-9.560909 129.364578 -0.000021 0.224924
-10.700427 133.096817 -0.000016 0.237813
-11.427909 135.479523 -0.000013 0.207212
-11.933536 137.135590 -0.000011 0.236102
-12.306057 138.355698 -0.000009 0.209773
-2.557837 105.415443 12.604777 0.464805
-2.557838 105.415443 11.143841 0.678431
-2.557835 105.415436 9.703417 0.678431
-2.614393 105.605423 8.250648 0.604929
-2.557833 105.415436 6.870441 0.678431
-2.557835 105.415436 5.471406 0.678431
-2.614396 105.605423 4.070128 0.573556
-2.586117 105.510437 2.691172 0.678431
-2.586117 105.510437 1.308828 0.678431
-3.021399 106.972572 -0.000051 0.231267
-7.677923 122.614136 -0.000031 0.233146
-9.677114 129.329544 -0.000021 0.228933
-10.790548 133.069641 -0.000016 0.223500
-11.501378 135.457367 -0.000013 0.262539
-11.995431 137.116913 -0.000011 0.193748
-12.359426 138.339600 -0.000009 0.249805
-2.920710 105.605431 12.533490 0.611749
-2.920708 105.605423 11.082375 0.573297
-2.920708 105.605423 9.651629 0.549813
-2.920706 105.605423 8.237835 0.595087
-2.920709 105.605423 6.837699 0.495949
-2.920707 105.605423 5.448072 0.584939
-2.920709 105.605423 4.065885 0.683833
-2.893147 105.510422 2.689755 0.678431
-2.893147 105.510422 1.310245 0.678431
-3.294097 106.892448 -0.000051 0.227748
-7.841304 122.566124 -0.000030 0.234929
-9.793560 129.295319 -0.000021 0.220245
-10.880858 133.043091 -0.000016 0.202101
-11.575003 135.435730 -0.000013 0.230824
-12.057456 137.098694 -0.000011 0.193185
-12.412907 138.323883 -0.000009 0.222566
-3.225777 105.605423 12.512455 0.482078
-3.225774 105.605415 11.064238 0.665949
-3.225775 105.605423 9.636353 0.690822
-3.225776 105.605423 8.225377 0.580636
-3.225775 105.605415 6.828040 0.593088
-3.225774 105.605408 5.441187 0.605600
-3.225774 105.605415 4.061759 0.648493
-3.198931 105.510414 2.688378 0.678431
-3.198931 105.510414 1.311622 0.678431
-3.567330 106.814194 -0.000051 0.231411
-8.005013 122.519249 -0.000030 0.232930
-9.910244 129.261917 -0.000021 0.225989
-10.971350 133.017181 -0.000017 0.237957
-11.648773 135.414612 -0.000013 0.219467
-12.119606 137.080887 -0.000011 0.213339
-12.466494 138.308533 -0.000009 0.246095
-3.529646 105.605423 12.492013 0.532403
-3.529644 105.605408 11.046612 0.541039
-3.529645 105.605423 9.621502 0.493568
-3.529646 105.605423 8.213270 0.484794
-3.529644 105.605408 6.818650 0.680644
-3.529644 105.605415 5.434496 0.660761
-3.529643 105.605408 4.057751 0.637415
-3.510388 105.535408 2.686615 0.064576
-3.510388 105.535408 1.313385 0.082109
-3.841115 106.737869 -0.000051 0.228670
-8.169044 122.473518 -0.000030 0.237658
-10.027157 129.229309 -0.000021 0.228550
-11.062019 132.991898 -0.000017 0.237119
-11.722691 135.393997 -0.000013 0.245030
-12.181879 137.063538 -0.000011 0.222842
-12.520188 138.293564 -0.000009 0.249817
-3.832352 105.605408 12.472165 0.550820
-3.781517 105.415405 11.071976 0.344366
-3.781515 105.415398 9.642873 0.500740
-3.832353 105.605408 8.201515 0.586038
-3.781517 105.415405 6.832160 0.419577
-3.781519 105.415413 5.444123 0.446235
-3.832353 105.605408 4.053858 0.608454
-3.806940 105.510429 2.685739 0.678431
-3.806940 105.510429 1.314261 0.678431
-4.115426 106.663452 -0.000051 0.229603
-8.333393 122.428932 -0.000030 0.230058
-10.144297 129.197525 -0.000022 0.216235
-11.152867 132.967255 -0.000017 0.229795
-11.796751 135.373901 -0.000013 0.204136
-12.244273 137.046600 -0.000011 0.197374
-12.573986 138.278976 -0.000009 0.238962
-4.133934 105.605438 12.452888 0.760113
-4.084510 105.415398 11.055285 0.678431
-4.084512 105.415405 9.628807 0.678431
-4.133930 105.605423 8.190103 0.633524
-4.084510 105.415398 6.823271 0.678431
-4.084514 105.415421 5.437786 0.678431
-4.133930 105.605423 4.050077 0.511376
-4.109224 105.510422 2.684478 0.678431
-4.109224 105.510422 1.315523 0.678431
-4.390245 106.590958 -0.000051 0.232344
-8.498044 122.385483 -0.000031 0.231626
-10.261652 129.166565 -0.000022 0.233110
-11.243882 132.943253 -0.000016 0.225714
-11.870949 135.354324 -0.000013 0.215697
-12.306783 137.030121 -0.000011 0.202819
-12.627884 138.264755 -0.000009 0.204591
-4.434417 105.605431 12.434199 0.471275
-4.386407 105.415390 11.039094 0.678431
-4.386409 105.415405 9.615168 0.656245
-4.434416 105.605423 8.179035 0.762463
-4.386410 105.415405 6.814646 0.636301
-4.386409 105.415405 5.431639 0.638834
-4.434417 105.605431 4.046412 0.700481
-4.410414 105.510422 2.683253 0.659068
-4.410414 105.510422 1.316746 0.659068
-4.665565 106.520378 -0.000051 0.226468
-8.663000 122.343201 -0.000031 0.228921
-10.379223 129.136429 -0.000022 0.246071
-11.335063 132.919876 -0.000017 0.234666
-11.945282 135.335266 -0.000013 0.203549
-12.369406 137.014069 -0.000011 0.246215
-12.681881 138.250916 -0.000009 0.244970
-4.733844 105.605438 12.416080 0.688075
-4.733842 105.605423 10.981140 0.442069
-4.733843 105.605423 9.566344 0.609751
-4.733844 105.605431 8.168304 0.730663
-4.733843 105.605431 6.783777 0.573404
-4.733843 105.605431 5.409638 0.787793
-4.733845 105.605438 4.042857 0.562127
-4.710546 105.510422 2.682067 0.678431
-4.710546 105.510422 1.317933 0.678431
-4.941373 106.451721 -0.000051 0.231315
-8.828246 122.302063 -0.000031 0.226181
-10.497003 129.107117 -0.000022 0.212214
-11.426405 132.897141 -0.000017 0.284201
-12.019747 135.316742 -0.000013 0.239297
-12.432140 136.998444 -0.000011 0.220424
-12.735972 138.237442 -0.000009 0.202951
-5.032244 105.605438 12.398532 0.661982
-5.032243 105.605431 10.966008 0.536873
-5.032242 105.605423 9.553596 0.727626
-5.032242 105.605423 8.157914 0.675410
-5.032243 105.605431 6.775717 0.828580
-5.032242 105.605431 5.403893 0.777462
-5.032242 105.605423 4.039417 0.701198
-5.009645 105.510422 2.680917 0.491051
-5.009645 105.510422 1.319082 0.446906
-5.217649 106.384987 -0.000051 0.226372
-8.993772 122.262085 -0.000031 0.223464
-10.614981 129.078613 -0.000022 0.215027
-11.517902 132.875046 -0.000017 0.213973
-12.094337 135.298721 -0.000013 0.200234
-12.494981 136.983261 -0.000011 0.231578
-12.790155 138.224365 -0.000009 0.241320
-5.329649 105.605408 12.381554 0.626139
-5.329653 105.605423 10.951365 0.500404
-5.329653 105.605423 9.541260 0.760678
-5.329653 105.605423 8.147856 0.713893
-5.329651 105.605415 6.767919 0.630701
-5.329652 105.605423 5.398335 0.553780
-5.329652 105.605423 4.036085 0.602045
-5.307754 105.510406 2.679806 0.678431
-5.307754 105.510406 1.320194 0.678431
-5.494374 106.320145 -0.000053 0.231794
-9.159575 122.223251 -0.000031 0.236605
-10.733156 129.050949 -0.000022 0.233661
-11.609551 132.853577 -0.000017 0.216223
-12.169053 135.281219 -0.000013 0.199217
-12.557926 136.968521 -0.000011 0.239980
-12.844430 138.211655 -0.000010 0.185981
-5.626108 105.605408 12.365130 0.620996
-5.583716 105.415421 10.979250 0.678431
-5.583716 105.415421 9.564751 0.678431
-5.626110 105.605415 8.138128 0.553079
-5.583716 105.415421 6.782769 0.678431
-5.583716 105.415421 5.408919 0.678431
-5.626109 105.605415 4.032864 0.453620
-5.604913 105.510422 2.678730 0.678431
-5.604912 105.510414 1.321269 0.678431
-5.771564 106.257294 -0.000053 0.226599
-9.325645 122.185593 -0.000031 0.219503
-10.851523 129.024109 -0.000022 0.232033
-11.701350 132.832764 -0.000017 0.213578
-12.243889 135.264252 -0.000013 0.204399
-12.620974 136.954224 -0.000011 0.230944
-12.898792 138.199326 -0.000009 0.276673
-5.921639 105.605400 12.349264 0.429709
-5.880639 105.415421 10.965501 0.678431
-5.880637 105.415413 9.553171 0.678431
-5.921642 105.605415 8.128733 0.795254
-5.880637 105.415413 6.775450 0.678431
-5.880637 105.415413 5.403702 0.678431
-5.921642 105.605415 4.029752 0.504005
-5.901142 105.510422 2.677691 0.678431
-5.901142 105.510422 1.322309 0.678431
-6.049178 106.196365 -0.000053 0.231758
-9.491974 122.149086 -0.000031 0.224469
-10.970074 128.998077 -0.000022 0.238926
-11.793290 132.812576 -0.000017 0.200378
-12.318842 135.247803 -0.000013 0.230597
-12.684118 136.940369 -0.000011 0.237646
-12.953238 138.187378 -0.000010 0.207056
-6.216287 105.605408 12.333945 0.567498
-6.176671 105.415421 10.952233 0.678431
-6.176669 105.415405 9.541994 0.678431
-6.216288 105.605408 8.119663 0.618738
-6.176668 105.415405 6.768382 0.664271
-6.176668 105.415405 5.398665 0.663417
-6.216288 105.605408 4.026748 0.482292
-6.196479 105.510406 2.676687 0.678431
-6.196479 105.510406 1.323312 0.678431
-6.327214 106.137390 -0.000052 0.225654
-9.658556 122.113747 -0.000031 0.229687
-11.088803 128.972885 -0.000022 0.225678
-11.885370 132.793045 -0.000017 0.240231
-12.393908 135.231873 -0.000014 0.244731
-12.747360 136.926956 -0.000011 0.200916
-13.007767 138.175812 -0.000009 0.210203
-6.510076 105.605408 12.319172 0.718090
-6.510077 105.605408 10.897579 0.700755
-6.510076 105.605408 9.495949 0.704387
-6.510076 105.605408 8.110916 0.583627
-6.510077 105.605408 6.739269 0.665492
-6.510077 105.605408 5.377915 0.595270
-6.510077 105.605408 4.023851 0.596704
-6.490957 105.510406 2.675721 0.678431
-6.490957 105.510406 1.324279 0.678431
-6.605653 106.080338 -0.000052 0.230393
-9.825378 122.079567 -0.000031 0.223117
-11.207705 128.948532 -0.000022 0.243115
-11.977584 132.774155 -0.000017 0.211460
-12.469083 135.216476 -0.000014 0.240745
-12.810692 136.913971 -0.000011 0.229891
-13.062374 138.164612 -0.000010 0.232571
-6.803040 105.605408 12.304946 0.578943
-6.803041 105.605423 10.885312 0.651774
-6.803041 105.605415 9.485611 0.420356
-6.803041 105.605415 8.102489 0.613016
-6.803041 105.605415 6.732735 0.591867
-6.803041 105.605415 5.373259 0.678294
-6.803041 105.605408 4.021061 0.513817
-6.789463 105.535416 2.674373 0.080583
-6.789463 105.535416 1.325627 0.086275
-6.884481 106.025238 -0.000053 0.230417
-9.992434 122.046555 -0.000031 0.229998
-11.326775 128.925003 -0.000022 0.232021
-12.069926 132.755905 -0.000016 0.250667
-12.544364 135.201599 -0.000013 0.257309
-12.874114 136.901443 -0.000011 0.258015
-13.117058 138.153809 -0.000010 0.218653
-7.095214 105.605423 12.291256 0.592401
-7.095213 105.605408 10.873513 0.596063
-7.095213 105.605415 9.475672 0.463340
-7.095212 105.605408 8.094385 0.686351
-7.095212 105.605408 6.726449 0.668818
-7.095213 105.605415 5.368777 0.472740
-7.095213 105.605408 4.018375 0.602792
-7.077473 105.510422 2.673892 0.678431
-7.077473 105.510422 1.326107 0.678431
-7.163689 105.972076 -0.000053 0.228957
-10.159718 122.014702 -0.000031 0.235480
-11.446006 128.902298 -0.000022 0.231602
-12.162395 132.738297 -0.000017 0.245162
-12.619745 135.187241 -0.000014 0.250607
-12.937622 136.889359 -0.000011 0.292195
-13.171817 138.143387 -0.000010 0.256926
-7.386623 105.605415 12.278109 0.576181
-7.352513 105.415421 10.903864 0.595987
-7.352509 105.415405 9.501243 0.585412
-7.386623 105.605415 8.086597 0.511666
-7.352510 105.415405 6.742617 0.629740
-7.352509 105.415405 5.380302 0.646922
-7.386623 105.605415 4.015797 0.523003
-7.369568 105.510422 2.673031 0.580697
-7.369568 105.510422 1.326968 0.580697
-7.443260 105.920868 -0.000053 0.231734
-10.327219 121.984032 -0.000031 0.225510
-11.565392 128.880432 -0.000022 0.223225
-12.254983 132.721344 -0.000017 0.224326
-12.695227 135.173416 -0.000014 0.230537
-13.001211 136.877701 -0.000011 0.203166
-13.226646 138.133347 -0.000010 0.217719
-7.677306 105.605423 12.265491 0.770840
-7.644563 105.415428 10.892934 0.678431
-7.644561 105.415421 9.492033 0.678431
-7.677305 105.605415 8.079126 0.596887
-7.644560 105.415421 6.736796 0.678431
-7.644560 105.415421 5.376152 0.678431
-7.677305 105.605408 4.013324 0.481346
-7.660935 105.510422 2.672205 0.678431
-7.660935 105.510422 1.327795 0.678431
-7.723184 105.871628 -0.000053 0.226647
-10.494932 121.954529 -0.000031 0.229041
-11.684928 128.859406 -0.000022 0.237167
-12.347689 132.705032 -0.000017 0.206709
-12.770802 135.160126 -0.000014 0.232966
-13.064882 136.866501 -0.000011 0.203992
-13.281546 138.123688 -0.000009 0.219646
-10.947447 123.649345 7.672405 0.638239
-10.947448 123.649353 6.890961 0.673838
-10.947447 123.649353 6.120490 0.651637
-10.947447 123.649353 5.359144 0.665492
-10.947448 123.649353 4.605156 0.691417
-10.955692 123.699272 3.852677 0.691981
-10.947448 123.649353 3.112502 0.696895
-10.947447 123.649345 2.370570 0.697581
-10.947447 123.649345 1.629431 0.719921
-10.947448 123.649353 0.887497 0.701152
-10.947447 123.649345 0.143173 0.632517
-11.804610 128.839203 -0.000022 0.215398
-12.440507 132.689362 -0.000017 0.222399
-12.846471 135.147354 -0.000014 0.264394
-13.128630 136.855743 -0.000011 0.257656
-13.336512 138.114410 -0.000009 0.258183
-11.107501 123.649338 7.666012 0.629602
-11.107501 123.649345 6.885449 0.663111
-11.107502 123.649353 6.115844 0.619135
-11.107502 123.649345 5.355356 0.642390
-11.107502 123.649353 4.602219 0.664866
-11.115391 123.699272 3.850587 0.689754
-11.125906 123.765823 3.105455 0.698039
-11.125906 123.765823 2.368222 0.693111
-11.125906 123.765823 1.631778 0.720974
-11.125906 123.765831 0.894545 0.698039
-11.107502 123.649353 0.145267 0.630900
-11.924428 128.819855 -0.000022 0.228251
-12.533430 132.674347 -0.000017 0.256399
-12.922224 135.135117 -0.000014 0.214847
-13.192451 136.845428 -0.000011 0.206733
-13.391540 138.105515 -0.000010 0.208121
-11.267202 123.649330 7.659909 0.657832
-11.267202 123.649338 6.880186 0.651560
-11.267203 123.649338 6.111412 0.654124
-11.267203 123.649338 5.351743 0.628992
-11.267203 123.649338 4.599416 0.638727
-11.274734 123.699272 3.848594 0.703563
-11.274734 123.699272 3.107570 0.706401
-11.274734 123.699265 2.368926 0.721569
-11.274734 123.699265 1.631073 0.732494
-11.274734 123.699272 0.892429 0.726162
-11.267203 123.649338 0.147265 0.585184
-12.044379 128.801331 -0.000022 0.224589
-12.626456 132.659988 -0.000017 0.223823
-12.998062 135.123413 -0.000014 0.200629
-13.256341 136.835571 -0.000011 0.200785
-13.446629 138.097015 -0.000010 0.213052
-11.432741 123.692276 7.643224 0.739315
-11.426570 123.649338 6.875170 0.666529
-11.432742 123.692291 6.099291 0.732738
-11.432742 123.692291 5.341862 0.750820
-11.432742 123.692284 4.591753 0.731685
-11.433746 123.699272 3.846694 0.705440
-11.412199 123.549339 3.113873 0.516228
-11.412199 123.549347 2.371026 0.516228
-11.412199 123.549347 1.628974 0.391546
-11.426570 123.649338 0.891089 0.102373
-11.426571 123.649338 0.149169 0.634440
-12.164455 128.783646 -0.000022 0.242014
-12.719581 132.646271 -0.000017 0.229256
-13.073979 135.112228 -0.000014 0.225068
-13.320299 136.826141 -0.000012 0.220400
-13.501776 138.088882 -0.000010 0.255442
-11.557522 123.443665 7.700558 0.741176
-11.585616 123.649338 6.870402 0.655619
-11.557523 123.443672 6.140939 0.741176
-11.557522 123.443672 5.375816 0.741176
-11.557522 123.443672 4.618085 0.741176
-11.592437 123.699272 3.844888 0.722255
-11.571957 123.549347 3.112783 0.741176
-11.571957 123.549347 2.370662 0.741176
-11.571957 123.549339 1.629337 0.584634
-11.585616 123.649338 0.892174 0.103105
-11.585616 123.649338 0.150979 0.638880
-12.284653 128.766800 -0.000022 0.211843
-12.812799 132.633209 -0.000017 0.206505
-13.149973 135.101578 -0.000014 0.196010
-13.384321 136.817169 -0.000011 0.256352
-13.556978 138.081146 -0.000010 0.217911
-11.717727 123.443665 7.695265 0.741176
-11.744360 123.649338 6.865880 0.667292
-11.717728 123.443672 6.137094 0.741176
-11.717728 123.443672 5.372681 0.741176
-11.717728 123.443672 4.615654 0.741176
-11.750826 123.699272 3.843175 0.723491
-11.731411 123.549347 3.111751 0.741176
-11.731411 123.549347 2.370319 0.741176
-11.731411 123.549347 1.629681 0.577325
-11.744360 123.649338 0.893202 0.104158
-11.744360 123.649338 0.152695 0.623972
-12.404965 128.750793 -0.000022 0.238687
-12.906105 132.620789 -0.000017 0.229161
-13.226039 135.091461 -0.000014 0.261043
-13.448405 136.808655 -0.000012 0.203382
-13.612234 138.073807 -0.000010 0.200940
-11.877644 123.443665 7.690259 0.741176
-11.902820 123.649338 6.861603 0.654108
-11.877645 123.443672 6.133459 0.741176
-11.877644 123.443665 5.369718 0.741176
-11.889885 123.543671 4.601766 0.764614
-11.908930 123.699272 3.841555 0.693843
-11.890579 123.549347 3.110773 0.741176
-11.890579 123.549347 2.369993 0.741176
-11.890579 123.549347 1.630007 0.574807
-11.902819 123.649338 0.894175 0.098161
-11.902819 123.649338 0.154319 0.615641
-12.525387 128.735626 -0.000022 0.222554
-12.999497 132.609039 -0.000017 0.203478
-13.302176 135.081863 -0.000014 0.208600
-13.512547 136.800568 -0.000012 0.228981
-13.667540 138.066833 -0.000010 0.219000
-12.037287 123.443665 7.685539 0.741176
-12.061006 123.649345 6.857571 0.673198
-12.037287 123.443672 6.130030 0.741176
-12.037287 123.443672 5.366921 0.741176
-12.048819 123.543671 4.599608 0.733333
-12.066763 123.699272 3.840028 0.708980
-12.049474 123.549347 3.109853 0.741176
-12.049474 123.549347 2.369686 0.741176
-12.049473 123.549339 1.630314 0.575036
-12.061006 123.649345 0.895092 0.127840
-12.061005 123.649338 0.155849 0.628031
-12.645910 128.721298 -0.000023 0.211771
-13.092968 132.597916 -0.000017 0.223225
-13.378375 135.072815 -0.000014 0.215828
-13.576743 136.792938 -0.000011 0.239656
-13.722892 138.060257 -0.000010 0.200474
-12.196671 123.443665 7.681104 0.741176
-12.218937 123.649345 6.853781 0.644831
-12.196672 123.443672 6.126808 0.741176
-12.196672 123.443665 5.364295 0.741176
-12.207497 123.543671 4.597580 0.764065
-12.224342 123.699272 3.838592 0.697093
-12.208111 123.549339 3.108987 0.741176
-12.208112 123.549347 2.369398 0.741176
-12.208111 123.549339 1.630602 0.572610
-12.218937 123.649338 0.895954 0.107576
-12.218937 123.649338 0.157289 0.611765
-12.766530 128.707809 -0.000022 0.223979
-13.186514 132.587463 -0.000017 0.260612
-13.454637 135.064285 -0.000014 0.227066
-13.640991 136.785751 -0.000011 0.210515
-13.778288 138.054062 -0.000010 0.217911
-12.363407 123.518669 7.658069 0.072587
-12.376631 123.649345 6.850234 0.633036
-12.363407 123.518677 6.110075 0.078141
-12.363407 123.518677 5.350653 0.065019
-12.365936 123.543671 4.595681 0.760296
-12.381683 123.699280 3.837249 0.691936
-12.376630 123.649338 3.103239 0.112840
-12.376630 123.649338 2.367484 0.113787
-12.376631 123.649338 1.632517 0.110597
-12.376630 123.649338 0.896761 0.105928
-12.376631 123.649338 0.158636 0.646326
-12.887242 128.695160 -0.000023 0.245365
-13.280130 132.577652 -0.000018 0.226444
-13.530955 135.056290 -0.000014 0.226061
-13.705288 136.779022 -0.000011 0.242876
-13.833727 138.048248 -0.000010 0.244515
-12.514739 123.443665 7.673082 0.741176
-12.534102 123.649345 6.846928 0.649241
-12.514739 123.443672 6.120981 0.741176
-12.514738 123.443665 5.359545 0.741176
-12.524153 123.543663 4.593913 0.753445
-12.538803 123.699272 3.835996 0.620401
-12.524688 123.549347 3.107420 0.741176
-12.524687 123.549339 2.368876 0.741176
-12.524687 123.549339 1.631123 0.562158
-12.534101 123.649338 0.897513 0.109865
-12.534101 123.649338 0.159891 0.606638
-13.008040 128.683380 -0.000023 0.207894
-13.373815 132.568512 -0.000017 0.234690
-13.607329 135.048828 -0.000014 0.228514
-13.769630 136.772736 -0.000011 0.245078
-13.889206 138.042831 -0.000010 0.189020
-12.673450 123.443672 7.669492 0.741176
-12.691365 123.649345 6.843863 0.656931
-12.673450 123.443672 6.118375 0.741176
-12.673450 123.443672 5.357420 0.741176
-12.682159 123.543671 4.592272 0.753124
-12.695714 123.699272 3.834835 0.702632
-12.682654 123.549347 3.106719 0.741176
-12.682654 123.549339 2.368644 0.741176
-12.682654 123.549339 1.631356 0.565393
-12.691365 123.649338 0.898210 0.112413
-12.691364 123.649338 0.161054 0.620172
-13.128917 128.672424 -0.000022 0.235204
-13.467559 132.560013 -0.000017 0.232416
-13.683752 135.041901 -0.000014 0.235910
-13.834014 136.766907 -0.000011 0.255598
-13.944720 138.037811 -0.000010 0.195722
-12.831969 123.443672 7.666187 0.741176
-12.848439 123.649345 6.841036 0.649668
-12.831969 123.443665 6.115973 0.741176
-12.831969 123.443672 5.355462 0.741176
-12.839976 123.543663 4.590759 0.754208
-12.852438 123.699280 3.833764 0.689357
-12.840431 123.549347 3.106075 0.741176
-12.840431 123.549339 2.368428 0.741176
-12.840431 123.549339 1.631572 0.562997
-12.848438 123.649338 0.898853 0.118929
-12.848439 123.649345 0.162127 0.647059
-13.249868 128.662308 -0.000022 0.236736
-13.561361 132.552170 -0.000017 0.231434
-13.760222 135.035507 -0.000014 0.209079
-13.898438 136.761520 -0.000012 0.254066
-14.000269 138.033157 -0.000010 0.242457
-12.990311 123.443672 7.663157 0.741176
-13.005337 123.649353 6.838448 0.642023
-12.990311 123.443672 6.113773 0.741176
-12.990311 123.443665 5.353668 0.741176
-12.997617 123.543671 4.589374 0.780331
-13.008984 123.699272 3.832785 0.721035
-12.998031 123.549339 3.105484 0.741176
-12.998031 123.549339 2.368231 0.741176
-12.998031 123.549339 1.631769 0.560586
-13.005336 123.649338 0.899442 0.117830
-13.005337 123.649338 0.163109 0.635294
-13.370886 128.653046 -0.000022 0.236509
-13.655215 132.544983 -0.000017 0.247292
-13.836735 135.029648 -0.000014 0.240003
-13.962897 136.756592 -0.000011 0.206254
-14.055848 138.028900 -0.000010 0.251086
-13.148493 123.443680 7.660408 0.741176
-13.162075 123.649353 6.836098 0.659144
-13.148492 123.443672 6.111775 0.741176
-13.148492 123.443672 5.352039 0.741176
-13.155096 123.543671 4.588118 0.748928
-13.165372 123.699272 3.831895 0.716701
-13.155470 123.549339 3.104947 0.741176
-13.155471 123.549339 2.368053 0.741176
-13.155471 123.549339 1.631947 0.558175
-13.162074 123.649338 0.899976 0.099123
-13.162075 123.649338 0.164001 0.644205
-13.491966 128.644623 -0.000023 0.203789
-13.749118 132.538452 -0.000017 0.205871
-13.913287 135.024323 -0.000014 0.246107
-14.027390 136.752106 -0.000011 0.208372
-14.111456 138.025040 -0.000010 0.235001
-13.321202 123.692276 7.595557 0.761151
-13.318668 123.649353 6.833988 0.671260
-13.321202 123.692284 6.064666 0.746593
-13.321202 123.692284 5.313634 0.765850
-13.321202 123.692284 4.569862 0.738415
-13.321615 123.699272 3.831096 0.689357
-13.312764 123.549347 3.104464 0.746548
-13.312764 123.549339 2.367892 0.748486
-13.312764 123.549339 1.632108 0.553368
-13.318667 123.649338 0.900456 0.116777
-13.318667 123.649345 0.164803 0.601648
-13.613102 128.637054 -0.000022 0.225834
-13.843063 132.532578 -0.000017 0.246717
-13.989874 135.019547 -0.000014 0.215948
-14.091912 136.748062 -0.000012 0.208995
-14.167089 138.021561 -0.000010 0.247663
-13.475132 123.649353 7.604156 0.655421
-13.475132 123.649353 6.832115 0.654688
-13.475132 123.649345 6.070913 0.635294
-13.475132 123.649345 5.318728 0.633890
-13.475132 123.649345 4.573812 0.661219
-13.477730 123.699265 3.830386 0.690120
-13.477730 123.699272 3.096661 0.707271
-13.477730 123.699272 2.365293 0.696605
-13.477730 123.699272 1.634707 0.708293
-13.477730 123.699272 0.903339 0.731884
-13.475132 123.649345 0.165514 0.638148
-13.734288 128.630310 -0.000023 0.245580
-13.937048 132.527359 -0.000017 0.214308
-14.066493 135.015289 -0.000014 0.209438
-14.156462 136.744476 -0.000012 0.253312
-14.222746 138.018463 -0.000010 0.221238
-13.631482 123.649345 7.602258 0.676493
-13.631482 123.649338 6.830479 0.674769
-13.631482 123.649338 6.069536 0.607355
-13.631482 123.649338 5.317605 0.663142
-13.631482 123.649338 4.572941 0.655802
-13.633731 123.699272 3.829766 0.683070
-13.633731 123.699272 3.096289 0.718059
-13.633731 123.699280 2.365168 0.693935
-13.633731 123.699280 1.634831 0.699733
-13.633731 123.699272 0.903710 0.697993
-13.631482 123.649345 0.166136 0.630381
-13.855517 128.624435 -0.000023 0.241751
-14.031067 132.522797 -0.000017 0.238843
-14.143139 135.011566 -0.000014 0.267171
-14.221034 136.741348 -0.000012 0.206793
-14.278422 138.015762 -0.000010 0.228849
-13.787734 123.649338 7.600636 0.653162
-13.787734 123.649338 6.829080 0.652796
-13.787733 123.649338 6.068357 0.657053
-13.787734 123.649338 5.316644 0.619852
-13.787734 123.649338 4.572194 0.668788
-13.789633 123.699272 3.829236 0.699580
-13.789633 123.699280 3.095971 0.721569
-13.789633 123.699280 2.365063 0.734478
-13.789633 123.699272 1.634937 0.714351
-13.789633 123.699272 0.904028 0.727474
-13.787734 123.649338 0.166667 0.619089
-13.976785 128.619400 -0.000022 0.198666
-14.125114 132.518890 -0.000017 0.225451
-14.219810 135.008377 -0.000014 0.230932
-14.285626 136.738663 -0.000011 0.254149
-14.334117 138.013458 -0.000010 0.206182
-13.945235 123.692284 7.588522 0.732387
-13.943901 123.649338 6.827915 0.646860
-13.945235 123.692284 6.059557 0.733333
-13.945235 123.692284 5.309470 0.746258
-13.945234 123.692276 4.566632 0.726619
-13.945452 123.699272 3.828794 0.737560
-13.943901 123.649338 3.098162 0.104509
-13.943901 123.649338 2.365792 0.124269
-13.943901 123.649338 1.634208 0.110201
-13.943901 123.649338 0.901838 0.104967
-13.943902 123.649345 0.167109 0.615183
-14.098083 128.615204 -0.000023 0.217336
-14.219187 132.515640 -0.000017 0.220520
-14.296499 135.005737 -0.000014 0.197733
-14.350235 136.736435 -0.000011 0.231111
-14.389825 138.011536 -0.000010 0.221741
-14.095056 123.443680 7.649739 0.741176
-14.100004 123.649338 6.826986 0.651896
-14.095056 123.443680 6.104025 0.741176
-14.095056 123.443672 5.345722 0.741176
-14.097462 123.543671 4.583239 0.744335
-14.101206 123.699272 3.828443 0.733898
-14.097598 123.549339 3.102864 0.741176
-14.097598 123.549339 2.367359 0.741176
-14.097598 123.549339 1.632641 0.538933
-14.100004 123.649338 0.902049 0.108202
-14.100004 123.649338 0.167462 0.619425
-14.219411 128.611862 -0.000023 0.238292
-14.313281 132.513062 -0.000017 0.212334
-14.373208 135.003616 -0.000014 0.256340
-14.414860 136.734650 -0.000011 0.230812
-14.445546 138.009995 -0.000010 0.222578
-14.252541 123.443672 7.648928 0.741176
-14.256053 123.649338 6.826294 0.653498
-14.252541 123.443672 6.103436 0.741176
-14.252541 123.443680 5.345241 0.741176
-14.254249 123.543671 4.582869 0.760479
-14.256906 123.699272 3.828180 0.723720
-14.254345 123.549347 3.102706 0.741176
-14.254345 123.549339 2.367306 0.741176
-14.254345 123.549339 1.632694 0.529305
-14.256053 123.649338 0.902207 0.121675
-14.256053 123.649345 0.167725 0.629221
-14.340757 128.609360 -0.000023 0.251193
-14.407390 132.511108 -0.000017 0.218054
-14.449928 135.002045 -0.000014 0.243462
-14.479494 136.733322 -0.000012 0.224685
-14.501277 138.008850 -0.000010 0.238041
-14.409989 123.443680 7.648392 0.741176
-14.412066 123.649338 6.825836 0.631891
-14.409989 123.443672 6.103048 0.741176
-14.409989 123.443672 5.344924 0.741176
-14.410999 123.543671 4.582623 0.760159
-14.412570 123.699280 3.828006 0.708339
-14.411057 123.549347 3.102602 0.741176
-14.411057 123.549332 2.367272 0.741176
-14.411057 123.549339 1.632729 0.526772
-14.412066 123.649338 0.902311 0.112963
-14.412066 123.649338 0.167898 0.636576
-14.462119 128.607712 -0.000023 0.200462
-14.501511 132.509842 -0.000017 0.229986
-14.526658 135.001007 -0.000014 0.253036
-14.544137 136.732437 -0.000012 0.253886
-14.557014 138.008087 -0.000010 0.259439
-14.567413 123.443672 7.648133 0.741176
-14.568053 123.649338 6.825613 0.662562
-14.567413 123.443672 6.102858 0.741176
-14.567413 123.443680 5.344769 0.741176
-14.567724 123.543671 4.582505 0.721477
-14.568209 123.699272 3.827923 0.679500
-14.567742 123.549347 3.102550 0.741176
-14.567742 123.549339 2.367254 0.741176
-14.567742 123.549339 1.632746 0.524254
-14.568053 123.649338 0.902362 0.114366
-14.568053 123.649338 0.167983 0.596948
-14.583488 128.606918 -0.000023 0.225774
-14.595636 132.509216 -0.000017 0.226252
-14.603392 135.000488 -0.000014 0.234391
-14.608783 136.732010 -0.000012 0.208013
-14.612754 138.007721 -0.000010 0.223990
-14.724833 123.443672 7.648148 0.741176
-14.724038 123.649345 6.825624 0.641398
-14.724833 123.443672 6.102869 0.741176
-14.724833 123.443672 5.344778 0.741176
-14.724446 123.543671 4.582511 0.750164
-14.723845 123.699272 3.827927 0.690700
-14.724424 123.549339 3.102554 0.741176
-14.724424 123.549339 2.367255 0.741176
-14.724424 123.549339 1.632745 0.526909
-14.724038 123.649338 0.902359 0.112612
-14.724038 123.649345 0.167978 0.633371
-14.704861 128.606964 -0.000023 0.222267
-14.689766 132.509247 -0.000017 0.252606
-14.680129 135.000519 -0.000014 0.231255
-14.673431 136.732040 -0.000011 0.269444
-14.668497 138.007751 -0.000010 0.224457
-14.881371 123.525696 7.627892 0.075502
-14.880029 123.649338 6.825874 0.656809
-14.881371 123.525696 6.088155 0.074220
-14.881371 123.525696 5.332782 0.062058
-14.881175 123.543671 4.582644 0.741939
-14.879487 123.699272 3.828021 0.698039
-14.881114 123.549339 3.102611 0.309071
-14.881114 123.549339 2.367274 0.302678
-14.881114 123.549339 1.632726 0.286458
-14.880029 123.649338 0.902302 0.111482
-14.880029 123.649338 0.167884 0.621271
-14.826229 128.607849 -0.000023 0.239585
-14.783892 132.509949 -0.000017 0.217683
-14.756864 135.001083 -0.000014 0.211855
-14.738077 136.732513 -0.000011 0.198810
-14.724237 138.008148 -0.000010 0.242529
-15.039713 123.443665 7.649005 0.741176
-15.036045 123.649338 6.826357 0.690333
-15.039713 123.443672 6.103490 0.741176
-15.039713 123.443672 5.345286 0.741176
-15.037930 123.543671 4.582901 0.752483
-15.035196 123.696915 3.828397 0.730465
-15.037828 123.549339 3.102721 0.741176
-15.037828 123.549339 2.367311 0.741176
-15.037828 123.549339 1.632689 0.516670
-15.036045 123.649338 0.902192 0.118334
-15.036045 123.649338 0.167701 0.634424
-14.947590 128.609589 -0.000022 0.212765
-14.878012 132.511292 -0.000017 0.227437
-14.833592 135.002182 -0.000014 0.243893
-14.802720 136.733444 -0.000012 0.234307
-14.779974 138.008957 -0.000010 0.233888
-15.197202 123.443665 7.649844 0.741176
-15.192098 123.649338 6.827076 0.652140
-15.197202 123.443665 6.104102 0.741176
-15.197202 123.443672 5.345784 0.741176
-15.194719 123.543671 4.583287 0.753658
-15.190924 123.696617 3.828693 0.685130
-15.194579 123.549339 3.102884 0.741176
-15.194579 123.549347 2.367366 0.741176
-15.194579 123.549339 1.632634 0.522103
-15.192098 123.649338 0.902029 0.095521
-15.192098 123.649338 0.167428 0.622019
-15.068933 128.612183 -0.000023 0.227198
-14.972118 132.513306 -0.000017 0.230860
-14.910311 135.003830 -0.000014 0.206338
-14.867352 136.734818 -0.000012 0.208696
-14.835703 138.010147 -0.000010 0.221178
-15.354748 123.443665 7.650961 0.741176
-15.348207 123.649345 6.828029 0.659419
-15.354748 123.443665 6.104913 0.741176
-15.354748 123.443672 5.346446 0.741176
-15.351567 123.543671 4.583797 0.764630
-15.346716 123.696228 3.829087 0.693080
-15.351387 123.549339 3.103103 0.741176
-15.351387 123.549339 2.367438 0.741176
-15.351387 123.549339 1.632561 0.509087
-15.348207 123.649338 0.901812 0.113649
-15.348207 123.649338 0.167066 0.635370
-15.190258 128.615616 -0.000023 0.232895
-15.066211 132.515961 -0.000017 0.214344
-14.987018 135.005997 -0.000014 0.219048
-14.931975 136.736649 -0.000012 0.295750
-14.891423 138.011719 -0.000010 0.194550
-15.512362 123.443665 7.652355 0.741176
-15.504384 123.649345 6.829219 0.670970
-15.512362 123.443672 6.105925 0.741176
-15.512362 123.443672 5.347270 0.741176
-15.508483 123.543678 4.584434 0.763348
-15.502584 123.695740 3.829578 0.696925
-15.508264 123.549347 3.103375 0.741176
-15.508264 123.549339 2.367529 0.741176
-15.508264 123.549347 1.632471 0.506554
-15.504383 123.649345 0.901542 0.101656
-15.504384 123.649338 0.166614 0.599786
-15.311555 128.619904 -0.000023 0.219155
-15.160281 132.519287 -0.000017 0.228502
-15.063706 135.008698 -0.000014 0.225295
-14.996584 136.738937 -0.000011 0.251122
-14.947130 138.013687 -0.000010 0.238651
-15.670065 123.443665 7.654025 0.741176
-15.660646 123.649338 6.830646 0.647089
-15.670064 123.443672 6.107138 0.741176
-15.670064 123.443672 5.348258 0.741176
-15.665485 123.543671 4.585196 0.734859
-15.658549 123.695152 3.830166 0.719875
-15.665226 123.549339 3.103701 0.741176
-15.665226 123.549339 2.367637 0.741176
-15.665226 123.549339 1.632362 0.505745
-15.660646 123.649338 0.901217 0.118746
-15.660646 123.649338 0.166072 0.613733
-15.432819 128.625031 -0.000023 0.222614
-15.254327 132.523270 -0.000017 0.213483
-15.140375 135.011948 -0.000014 0.231135
-15.061174 136.741669 -0.000012 0.246538
-15.002823 138.016037 -0.000010 0.209761
-15.814742 123.692284 7.593606 0.758877
-15.817009 123.649338 6.832308 0.654963
-15.814742 123.692284 6.063251 0.765072
-15.814742 123.692284 5.312482 0.761074
-15.814742 123.692284 4.568968 0.737102
-15.814627 123.694466 3.830853 0.722148
-15.822288 123.549339 3.104081 0.741176
-15.822288 123.549339 2.367764 0.741176
-15.822288 123.549339 1.632236 0.510079
-15.817009 123.649345 0.900839 0.118334
-15.817009 123.649338 0.165441 0.619760
-15.554046 128.630997 -0.000023 0.211759
-15.348342 132.527893 -0.000017 0.256232
-15.217019 135.015717 -0.000014 0.224649
-15.125745 136.744843 -0.000012 0.204866
-15.058497 138.018784 -0.000010 0.240638
-15.973486 123.649345 7.606580 0.651987
-15.973486 123.649345 6.834206 0.654185
-15.973486 123.649338 6.072676 0.623255
-15.973486 123.649345 5.320164 0.634852
-15.973486 123.649345 4.574925 0.652811
-15.970835 123.693687 3.831636 0.695537
-15.973486 123.649345 3.099592 0.107744
-15.973486 123.649345 2.366269 0.104326
-15.973486 123.649345 1.633731 0.094850
-15.973486 123.649345 0.900407 0.114916
-15.973486 123.649338 0.164720 0.617548
-15.675225 128.637817 -0.000022 0.245497
-15.442322 132.533188 -0.000017 0.219526
-15.293634 135.020035 -0.000014 0.197829
-15.190290 136.748474 -0.000012 0.239872
-15.114152 138.021912 -0.000010 0.249267
-16.130093 123.649345 7.609059 0.657572
-16.130095 123.649338 6.836342 0.640635
-16.130093 123.649345 6.074475 0.646845
-16.130093 123.649345 5.321631 0.648539
-16.130093 123.649338 4.576064 0.661570
-16.127190 123.692802 3.832518 0.720851
-16.126759 123.699272 3.097620 0.735653
-16.126759 123.699272 2.365612 0.709484
-16.126759 123.699272 1.634388 0.701213
-16.126759 123.699272 0.902379 0.698039
-16.130093 123.649338 0.163909 0.595071
-15.796355 128.645493 -0.000022 0.222506
-15.536263 132.539139 -0.000017 0.247112
-15.370217 135.024872 -0.000014 0.224278
-15.254809 136.752563 -0.000012 0.246251
-15.169783 138.025436 -0.000010 0.194968
-16.286848 123.649338 7.611814 0.629557
-16.286848 123.649345 6.838716 0.651743
-16.286848 123.649345 6.076475 0.640406
-16.286848 123.649338 5.323263 0.658564
-16.286848 123.649338 4.577329 0.639963
-16.283163 123.699265 3.832887 0.713115
-16.286848 123.649338 3.100618 0.716014
-16.286848 123.649345 2.366611 0.730663
-16.286848 123.649345 1.633389 0.705623
-16.286848 123.649338 0.899380 0.709804
-16.286848 123.649338 0.163008 0.619715
-15.917428 128.654007 -0.000022 0.248429
-15.630160 132.545731 -0.000017 0.233397
-15.446765 135.030258 -0.000014 0.232799
-15.319299 136.757095 -0.000012 0.227844
-15.225388 138.029343 -0.000010 0.209043
-16.440292 123.692284 7.604053 0.736507
-16.443764 123.649338 6.841330 0.652155
-16.440292 123.692276 6.070839 0.733333
-16.440292 123.692276 5.318667 0.757717
-16.440292 123.692276 4.573765 0.726986
-16.439728 123.699265 3.833877 0.698054
-16.434347 123.765823 3.095472 0.696529
-16.434347 123.765831 2.364897 0.682002
-16.434347 123.765831 1.635103 0.682231
-16.434347 123.765831 0.904528 0.718349
-16.434347 123.765831 0.171598 0.718578
-16.038441 128.663361 -0.000022 0.256172
-15.724010 132.552994 -0.000017 0.212418
-15.523273 135.036179 -0.000014 0.193736
-15.383755 136.762085 -0.000012 0.212382
-15.280964 138.033646 -0.000010 0.248321
-16.618927 123.443665 7.669869 0.741176
-16.600855 123.649338 6.844182 0.652766
-16.618927 123.443672 6.118648 0.741176
-16.618927 123.443665 5.357642 0.741176
-16.610140 123.543671 4.592443 0.756161
-16.596468 123.699265 3.834957 0.690471
-16.600855 123.649338 3.101861 0.695979
-16.600855 123.649345 2.367024 0.723201
-16.600855 123.649345 1.632975 0.709529
-16.600855 123.649338 0.898138 0.706554
-16.591833 123.752014 0.169384 0.631983
-16.159380 128.673569 -0.000022 0.235192
-15.817804 132.560898 -0.000017 0.226839
-15.599737 135.042633 -0.000014 0.242421
-15.448174 136.767517 -0.000012 0.244240
-15.336508 138.038330 -0.000010 0.223464
-16.777660 123.443672 7.673486 0.741176
-16.758141 123.649338 6.847275 0.678965
-16.777660 123.443672 6.121276 0.741176
-16.777660 123.443665 5.359784 0.741176
-16.768169 123.543678 4.594095 0.755901
-16.753403 123.699265 3.836127 0.710658
-16.758141 123.649338 3.102565 0.720790
-16.758141 123.649345 2.367259 0.717403
-16.758141 123.649345 1.632741 0.706615
-16.758141 123.649345 0.897435 0.735683
-16.748396 123.752014 0.168216 0.639612
-16.280251 128.684601 -0.000022 0.223979
-15.911543 132.569473 -0.000017 0.226264
-15.676156 135.049606 -0.000014 0.225127
-15.512553 136.773392 -0.000012 0.202771
-15.392019 138.043411 -0.000010 0.182103
-16.936607 123.443665 7.677388 0.741176
-16.915636 123.649345 6.850605 0.647257
-16.936605 123.443665 6.124109 0.741176
-16.936607 123.443665 5.362095 0.741176
-16.926411 123.543671 4.595880 0.757443
-16.910545 123.699272 3.837390 0.695491
-16.925831 123.549347 3.108261 0.741176
-16.925833 123.549339 2.369157 0.043519
-16.925833 123.549332 1.630843 0.050980
-16.925920 123.548477 0.891696 0.050980
-16.905169 123.752014 0.166956 0.623529
-16.401039 128.696503 -0.000022 0.244838
-16.005220 132.578690 -0.000017 0.217911
-15.752523 135.057129 -0.000014 0.199169
-15.576891 136.779724 -0.000011 0.229771
-15.447493 138.048859 -0.000010 0.200474
-17.095776 123.443665 7.681570 0.741176
-17.073353 123.649345 6.854179 0.669352
-17.095776 123.443665 6.127147 0.741176
-17.095776 123.443665 5.364572 0.741176
-17.084873 123.543678 4.597792 0.711269
-17.067911 123.699265 3.838744 0.698039
-17.084255 123.549339 3.109078 0.741176
-17.083639 123.554993 2.369335 0.050248
-17.083639 123.554993 1.630665 0.054994
-17.084719 123.545090 0.890712 0.052888
-17.062162 123.751999 0.165605 0.625406
-16.521740 128.709229 -0.000022 0.261522
-16.098829 132.588562 -0.000017 0.210563
-15.828836 135.065186 -0.000014 0.227246
-15.641182 136.786514 -0.000011 0.246849
-15.502927 138.054718 -0.000010 0.210802
-17.255188 123.443665 7.686037 0.741176
-17.231312 123.649345 6.857995 0.640589
-17.255188 123.443665 6.130392 0.741176
-17.255188 123.443665 5.367216 0.741176
-17.243580 123.543671 4.599833 0.744854
-17.225517 123.699265 3.840189 0.667826
-17.242920 123.549347 3.109949 0.741176
-17.248726 123.499344 2.370542 0.741176
-17.248726 123.499344 1.629457 0.741176
-17.243395 123.545258 0.889848 0.067567
-17.219397 123.751999 0.164163 0.623652
-16.642351 128.722809 -0.000022 0.221956
-16.192368 132.599091 -0.000017 0.234750
-15.905091 135.073761 -0.000014 0.240865
-15.705425 136.793747 -0.000012 0.226396
-15.558320 138.060944 -0.000010 0.213363
-17.414862 123.443665 7.690785 0.741176
-17.389528 123.649345 6.862054 0.671778
-17.414862 123.443665 6.133843 0.741176
-17.414862 123.443665 5.370029 0.741176
-17.402544 123.543671 4.602006 0.748547
-17.383381 123.699272 3.841726 0.717571
-17.401846 123.549339 3.110876 0.741176
-17.408005 123.499344 2.370852 0.741176
-17.408005 123.499336 1.629148 0.741176
-17.402334 123.545380 0.888927 0.070481
-17.376886 123.751991 0.162629 0.629969
-16.762867 128.737213 -0.000022 0.224912
-16.285831 132.610275 -0.000017 0.235300
-15.981286 135.082870 -0.000014 0.200689
-15.769615 136.801422 -0.000011 0.201658
-15.613667 138.067566 -0.000010 0.203813
-17.574806 123.443665 7.695823 0.741176
-17.548014 123.649345 6.866356 0.659495
-17.574806 123.443665 6.137501 0.741176
-17.574806 123.443665 5.373012 0.741176
-17.574806 123.443665 4.615911 0.741176
-17.541512 123.699265 3.843357 0.734051
-17.561041 123.549347 3.111860 0.741176
-17.561041 123.549339 2.370356 0.071473
-17.561041 123.549339 1.629644 0.080491
-17.561560 123.545357 0.887942 0.049165
-17.534643 123.751984 0.161002 0.613565
-16.883274 128.752472 -0.000022 0.224505
-16.379211 132.622101 -0.000017 0.214883
-16.057411 135.092529 -0.000014 0.212453
-15.833751 136.809555 -0.000011 0.200330
-15.668967 138.074570 -0.000010 0.260828
-17.735046 123.443665 7.701148 0.741176
-17.706795 123.649345 6.870905 0.657542
-17.735046 123.443665 6.141369 0.741176
-17.735046 123.443665 5.376164 0.741176
-17.735046 123.443665 4.618357 0.741176
-17.699936 123.699272 3.845079 0.733562
-17.720531 123.549339 3.112899 0.741176
-17.727398 123.499344 2.371527 0.741176
-17.727398 123.499344 1.628473 0.741176
-17.721077 123.545364 0.886903 0.066880
-17.692694 123.751991 0.159284 0.623529
-17.003576 128.768585 -0.000022 0.220388
-16.472511 132.634598 -0.000017 0.204555
-16.133472 135.102707 -0.000014 0.225702
-15.897829 136.818130 -0.000011 0.246023
-15.724217 138.081970 -0.000010 0.221693
-17.895592 123.443665 7.706760 0.741176
-17.865875 123.649345 6.875700 0.654948
