# This PCD file was generated using the MATLAB® pcwrite function
# from Computer Vision Toolbox®.
# .PCD v.7 - Point Cloud Data file format
VERSION .7
FIELDS x y z intensity
SIZE 4 4 4 4
TYPE F F F F
COUNT 1 1 1 1
WIDTH 1247
HEIGHT 1
VIEWPOINT 0 0 0 1 0 0 0
POINTS 1247
DATA ascii
84.847931 117.570023 -0.000009 0.254161
85.323601 116.386314 -0.000007 0.253946
80.487488 128.820145 7.341733 0.875532
80.186188 129.585327 6.783458 0.704967
80.186180 129.585342 6.029923 0.683268
80.186172 129.585358 5.285315 0.642252
80.186172 129.585373 4.547899 0.680842
80.186180 129.585358 3.816014 0.669200
80.186188 129.585342 3.088050 0.605463
80.186180 129.585358 2.362424 0.636927
80.186172 129.585373 1.637575 0.660090
80.186165 129.585388 0.911947 0.537606
80.186172 129.585358 0.183984 0.525902
81.931076 125.154053 -0.000020 0.238855
83.360825 121.523087 -0.000013 0.250356
84.273590 119.205040 -0.000010 0.259583
84.907997 117.593918 -0.000009 0.198834
85.375397 116.406914 -0.000007 0.214787
80.402214 129.454910 7.497637 0.620996
80.186188 130.014969 6.869917 0.613458
80.186180 130.014984 6.102764 0.584009
80.186172 130.015015 5.344695 0.708171
80.186172 130.015015 4.593952 0.678248
80.186165 130.015030 3.848841 0.680079
80.186172 130.015015 3.107718 0.629648
80.186165 130.015030 2.368976 0.639780
80.186157 130.015060 1.631024 0.655726
80.186165 130.015045 0.892281 0.615747
80.186172 130.014999 0.151160 0.618112
82.044159 125.198135 -0.000020 0.230321
83.448532 121.557266 -0.000013 0.219874
84.345093 119.232910 -0.000010 0.210515
84.968231 117.617393 -0.000008 0.220484
85.427338 116.427162 -0.000008 0.239692
80.309685 130.133514 7.664707 0.887770
80.186188 130.460464 6.959808 0.607645
80.186180 130.460480 6.178494 0.577768
80.186172 130.460495 5.406433 0.627253
80.186165 130.460510 4.641833 0.677684
80.186157 130.460526 3.882968 0.613214
80.186157 130.460526 3.128166 0.630106
80.186150 130.460556 2.375787 0.602823
80.186150 130.460556 1.624213 0.677165
80.186157 130.460526 0.871835 0.653529
80.186172 130.460480 0.117034 0.628580
82.157555 125.241417 -0.000020 0.213136
83.536469 121.590836 -0.000013 0.193365
84.416779 119.260277 -0.000010 0.219862
85.028633 117.640450 -0.000008 0.197314
85.479408 116.447037 -0.000008 0.267218
80.210785 130.856201 7.842947 0.903960
80.204628 130.872849 7.041844 0.662257
80.186180 130.922745 6.257283 0.613184
80.186172 130.922760 5.470664 0.544640
80.186165 130.922775 4.691648 0.689158
80.186157 130.922791 3.918474 0.599374
80.254227 130.738693 3.139795 0.573541
80.254211 130.738739 2.379661 0.609140
80.254250 130.738647 1.620340 0.375296
80.254295 130.738525 0.860213 0.313848
80.254333 130.738419 0.097644 0.285191
82.271248 125.283905 -0.000019 0.207271
83.624641 121.623787 -0.000013 0.237466
84.488663 119.287140 -0.000011 0.209928
85.089188 117.663078 -0.000009 0.259236
85.531624 116.466553 -0.000008 0.243414
80.104973 131.627197 8.033426 0.641306
80.287491 131.122818 7.086400 0.640620
80.186172 131.402802 6.339317 0.692042
80.186165 131.402817 5.537541 0.581857
80.186157 131.402832 4.743513 0.635218
80.186157 131.402847 3.955441 0.660060
80.426483 130.738693 3.136889 0.638834
80.426468 130.738739 2.378693 0.675029
80.426498 130.738647 1.621309 0.657557
80.426537 130.738541 0.863119 0.671687
80.426575 130.738434 0.102495 0.574746
82.385231 125.325607 -0.000020 0.219706
83.713043 121.656128 -0.000013 0.202353
84.560730 119.313499 -0.000011 0.214548
85.149902 117.685295 -0.000009 0.218653
85.583977 116.485703 -0.000008 0.201539
79.991638 132.451324 8.237350 0.924697
80.372002 131.376755 7.131887 0.654902
80.186172 131.901749 6.424794 0.553094
80.186165 131.901764 5.607224 0.655116
80.186157 131.901779 4.797556 0.689006
80.186157 131.901779 3.993959 0.602731
80.597862 130.738693 3.134051 0.551263
80.597855 130.738724 2.377747 0.597192
80.597878 130.738663 1.622253 0.667155
80.597916 130.738556 0.865956 0.661204
80.597954 130.738449 0.107230 0.576288
82.499504 125.366501 -0.000020 0.219742
83.801666 121.687843 -0.000013 0.236784
84.632973 119.339363 -0.000011 0.236293
85.210770 117.707077 -0.000009 0.218677
85.636459 116.504486 -0.000008 0.247196
79.869888 133.334503 8.456231 0.911086
80.458176 131.634949 7.178370 0.654108
80.186172 132.420761 6.513929 0.596170
80.186165 132.420776 5.679891 0.586496
80.186157 132.420807 4.853910 0.680415
80.186157 132.420792 4.034125 0.626459
80.768402 130.738693 3.131283 0.572305
80.768394 130.738708 2.376825 0.580194
80.768410 130.738663 1.623175 0.663844
80.768448 130.738556 0.868723 0.648188
80.768486 130.738449 0.111848 0.584070
82.614059 125.406601 -0.000019 0.218270
83.890503 121.718948 -0.000013 0.243510
84.705399 119.364716 -0.000011 0.206553
85.271782 117.728439 -0.000009 0.231602
85.689072 116.522903 -0.000008 0.205596
79.726234 134.320511 8.701561 0.888777
82.257919 126.837898 6.072253 0.668452
80.186172 132.961151 6.606960 0.669902
80.186165 132.961166 5.755732 0.632380
80.186157 132.961166 4.912726 0.648005
80.186165 132.961166 4.076047 0.617197
80.938110 130.738708 3.128584 0.607675
80.938110 130.738708 2.375926 0.622858
80.938118 130.738678 1.624074 0.664668
80.938156 130.738571 0.871422 0.664607
80.938194 130.738464 0.116353 0.593881
82.728889 125.445900 -0.000020 0.217911
83.979561 121.749428 -0.000014 0.245078
84.778000 119.389565 -0.000011 0.218665
85.332947 117.749367 -0.000009 0.241619
85.741806 116.540955 -0.000008 0.198044
79.584824 135.343353 8.955776 0.936019
82.396561 126.837898 6.062755 0.666667
80.186165 133.524307 6.704141 0.644846
80.186157 133.524323 5.834956 0.558862
80.186165 133.524323 4.974166 0.564309
80.186165 133.524323 4.119838 0.613001
81.107033 130.738708 3.125951 0.553841
81.107033 130.738693 2.375049 0.551644
81.107033 130.738693 1.624951 0.663447
81.107071 130.738586 0.874054 0.682704
81.107109 130.738480 0.120745 0.608103
82.843994 125.484398 -0.000019 0.234319
84.068832 121.779282 -0.000014 0.222506
84.850777 119.413902 -0.000011 0.221657
85.394257 117.769875 -0.000009 0.193760
85.794670 116.558640 -0.000008 0.206027
82.534554 126.837906 6.701139 0.615976
82.534554 126.837891 6.053499 0.668742
80.186165 134.111771 6.805748 0.632441
80.186165 134.111771 5.917787 0.672969
80.186165 134.111771 5.038406 0.604822
80.186165 134.111755 4.165624 0.650462
81.275169 130.738708 3.123386 0.496391
81.275177 130.738678 2.374194 0.526055
81.275177 130.738678 1.625806 0.667353
81.275200 130.738602 0.876619 0.677394
81.275238 130.738495 0.125026 0.621973
82.959366 125.522087 -0.000020 0.250439
84.158310 121.808517 -0.000014 0.212094
84.923721 119.437737 -0.000011 0.238017
85.455711 117.789955 -0.000009 0.249638
85.847656 116.575951 -0.000008 0.218413
82.671936 126.837891 6.690680 0.611765
82.671936 126.837891 6.044481 0.669398
nan nan nan 0.000000
nan nan nan 0.000000
nan nan nan 0.000000
nan nan nan 0.000000
81.442551 130.738693 3.120888 0.645823
81.442558 130.738678 2.373362 0.641352
81.442558 130.738678 1.626638 0.677775
81.442581 130.738602 0.879117 0.690776
81.442612 130.738510 0.129195 0.630900
83.074997 125.558975 -0.000020 0.231817
84.247986 121.837128 -0.000014 0.205811
84.996826 119.461060 -0.000011 0.236796
85.517303 117.809601 -0.000009 0.230298
85.900764 116.592888 -0.000008 0.182821
82.808708 126.837891 6.680495 0.612528
82.808708 126.837891 6.035699 0.666667
80.178986 135.389740 7.027925 0.648951
nan nan nan 0.000000
nan nan nan 0.000000
nan nan nan 0.000000
81.609192 130.738708 3.118454 0.622477
81.609207 130.738663 2.372551 0.555184
81.609207 130.738663 1.627449 0.688701
81.609222 130.738617 0.881550 0.686290
81.609253 130.738510 0.133257 0.614115
83.190887 125.595055 -0.000019 0.215709
84.337852 121.865105 -0.000014 0.221896
85.070091 119.483871 -0.000011 0.206637
85.579025 117.828819 -0.000009 0.241009
85.953987 116.609459 -0.000008 0.203525
82.944901 126.837883 6.670581 0.624811
82.944901 126.837883 6.027150 0.666667
82.346672 128.832794 5.771710 0.658045
nan nan nan 0.000000
nan nan nan 0.000000
nan nan nan 0.000000
81.775131 130.738708 3.116085 0.628840
81.775146 130.738663 2.371762 0.530251
81.775146 130.738663 1.628238 0.682780
81.775146 130.738632 0.883919 0.699138
81.775185 130.738525 0.137209 0.609064
83.307022 125.630325 -0.000020 0.247998
84.427925 121.892456 -0.000014 0.224637
85.143517 119.506165 -0.000011 0.241045
85.640884 117.847603 -0.000009 0.221358
86.007324 116.625656 -0.000008 0.207463
83.080521 126.837883 6.660936 0.632944
83.080521 126.837883 6.018835 0.673167
82.520569 128.753647 5.748919 0.649531
nan nan nan 0.000000
nan nan nan 0.000000
nan nan nan 0.000000
81.940369 130.738708 3.113781 0.612238
81.940384 130.738647 2.370994 0.563317
81.940384 130.738647 1.629006 0.682719
81.940384 130.738647 0.886223 0.699413
81.940414 130.738525 0.141055 0.636393
83.423401 125.664780 -0.000019 0.237909
84.518181 121.919182 -0.000014 0.220903
85.217102 119.527954 -0.000011 0.237897
85.702873 117.865959 -0.000009 0.210120
86.060768 116.641479 -0.000008 0.240470
83.122589 127.164505 6.736624 0.649042
83.128296 127.144470 6.079597 0.655055
82.655914 128.803574 5.750820 0.651637
nan nan nan 0.000000
nan nan nan 0.000000
nan nan nan 0.000000
82.104935 130.738708 3.111540 0.702663
82.104950 130.738647 2.370247 0.618631
82.104950 130.738647 1.629753 0.679561
82.104950 130.738647 0.888463 0.701167
82.104980 130.738541 0.144794 0.643320
83.540016 125.698425 -0.000019 0.228155
84.608620 121.945274 -0.000014 0.212872
85.290833 119.549225 -0.000012 0.222016
85.764992 117.883881 -0.000010 0.257704
86.114326 116.656929 -0.000008 0.230728
83.119942 127.668274 6.858287 0.653803
83.137154 127.606171 6.175082 0.657038
82.791382 128.853592 5.752914 0.651652
nan nan nan 0.000000
nan nan nan 0.000000
nan nan nan 0.000000
82.268845 130.738708 3.109361 0.677424
82.268867 130.738632 2.369522 0.560235
82.268867 130.738632 1.630478 0.692897
82.268867 130.738632 0.890642 0.690913
82.268890 130.738556 0.148429 0.636011
83.656860 125.731247 -0.000019 0.213758
84.699242 121.970734 -0.000014 0.200797
85.364708 119.569977 -0.000011 0.211831
85.827225 117.901367 -0.000010 0.242900
86.167992 116.672012 -0.000008 0.223584
83.240997 127.739410 6.867477 0.558145
83.240997 127.739410 6.196923 0.658213
83.240997 127.739410 5.535784 0.681666
83.240997 127.739410 4.882474 0.644907
83.240997 127.739410 4.235479 0.532143
83.240997 127.739410 3.593338 0.549020
83.240997 127.739410 2.954635 0.595956
83.240997 127.739418 2.317985 0.517647
83.240997 127.739418 1.682015 0.549020
83.240997 127.739418 1.045364 0.534920
83.240997 127.739418 0.406661 0.517647
83.773941 125.763260 -0.000019 0.210431
84.790039 121.995560 -0.000014 0.222351
85.438721 119.590218 -0.000012 0.214512
85.889587 117.918419 -0.000010 0.245401
86.221756 116.686714 -0.000009 0.221046
83.381248 127.739388 6.858443 0.518959
83.381248 127.739388 6.189134 0.527764
83.381248 127.739395 5.529221 0.608499
83.381248 127.739388 4.877124 0.705226
83.381248 127.739388 4.231329 0.539345
83.381248 127.739388 3.590380 0.506752
83.381241 127.739418 2.952866 0.597208
83.381241 127.739418 2.317395 0.542153
83.381241 127.739418 1.682605 0.509926
83.381241 127.739418 1.047134 0.549020
83.381241 127.739410 0.409616 0.549645
83.891235 125.794456 -0.000019 0.222973
84.881004 122.019753 -0.000015 0.230884
85.512878 119.609940 -0.000012 0.194095
85.952065 117.935028 -0.000010 0.225020
86.275627 116.701042 -0.000009 0.265974
83.520988 127.739372 6.849679 0.584726
83.520988 127.739380 6.181578 0.553368
83.520988 127.739372 5.522855 0.641733
83.520988 127.739372 4.871934 0.727611
83.520988 127.739365 4.227304 0.517647
83.520988 127.739372 3.587512 0.517647
83.520981 127.739418 2.951147 0.592508
83.520981 127.739418 2.316823 0.517647
83.520981 127.739410 1.683177 0.517647
83.520981 127.739418 1.048853 0.562341
83.520981 127.739418 0.412484 0.579202
84.008743 125.824829 -0.000019 0.222949
84.972137 122.043304 -0.000014 0.220484
85.587181 119.629143 -0.000012 0.233900
86.014656 117.951210 -0.000010 0.209773
86.329597 116.714989 -0.000009 0.275392
83.660233 127.739349 6.841180 0.598917
83.660233 127.739357 6.174251 0.549020
83.660233 127.739357 5.516682 0.657618
83.660233 127.739357 4.866902 0.618540
83.660233 127.739349 4.223402 0.549020
83.660225 127.739388 3.584733 0.517647
83.660217 127.739410 2.949482 0.496696
83.660217 127.739410 2.316268 0.549020
83.660217 127.739418 1.683732 0.517647
83.660217 127.739410 1.050518 0.488289
83.660217 127.739418 0.415264 0.664607
84.126465 125.854385 -0.000019 0.221034
85.063431 122.066231 -0.000015 0.207654
85.661606 119.647827 -0.000012 0.227629
86.077354 117.966949 -0.000010 0.195902
86.383659 116.728561 -0.000009 0.232942
83.798996 127.739334 6.832949 0.635294
83.798988 127.739334 6.167152 0.517647
83.798988 127.739334 5.510703 0.633875
83.798988 127.739334 4.862027 0.523903
83.798988 127.739334 4.219621 0.596674
83.798973 127.739403 3.582041 0.517647
83.798973 127.739410 2.947867 0.521691
83.798973 127.739410 2.315730 0.549020
83.798973 127.739410 1.684270 0.517647
83.798973 127.739410 1.052132 0.523461
83.798973 127.739410 0.417957 0.678340
84.244385 125.883118 -0.000019 0.218330
85.154884 122.088516 -0.000015 0.259272
85.736160 119.666000 -0.000012 0.217743
86.140167 117.982262 -0.000010 0.249482
86.437820 116.741753 -0.000008 0.254844
83.937286 127.739319 6.824980 0.628901
83.937286 127.739319 6.160280 0.530266
83.937286 127.739319 5.504913 0.673091
83.937286 127.739319 4.857307 0.532479
83.937279 127.739349 4.215965 0.549020
83.937263 127.739418 3.579435 0.549020
83.937263 127.739410 2.946306 0.528313
83.937271 127.739410 2.315210 0.549020
83.937271 127.739410 1.684790 0.550362
83.937263 127.739410 1.053694 0.537255
83.937263 127.739418 0.420564 0.666804
84.362503 125.911018 -0.000018 0.227928
85.246490 122.110161 -0.000015 0.214225
85.810837 119.683640 -0.000012 0.232165
86.203079 117.997124 -0.000010 0.220125
86.492065 116.754578 -0.000009 0.254963
84.075134 127.739296 6.817271 0.599970
84.075134 127.739304 6.153633 0.598825
84.075134 127.739304 5.499313 0.690196
84.075134 127.739304 4.852744 0.587945
84.075119 127.739365 4.212428 0.517647
84.075111 127.739410 3.576913 0.588418
84.075111 127.739418 2.944795 0.578851
84.075111 127.739410 2.314706 0.517647
84.075111 127.739410 1.685293 0.543267
84.075111 127.739410 1.055205 0.556603
84.075111 127.739410 0.423087 0.557427
84.480820 125.938095 -0.000018 0.221537
85.338249 122.131165 -0.000015 0.217217
85.885643 119.700760 -0.000012 0.257046
86.266098 118.011551 -0.000010 0.209473
86.546402 116.767014 -0.000009 0.206386
84.212555 127.739281 6.809821 0.549020
84.212555 127.739281 6.147210 0.664408
84.212555 127.739281 5.493901 0.604669
84.212547 127.739319 4.848336 0.519097
84.212532 127.739380 4.209011 0.517647
84.212524 127.739410 3.574476 0.570428
84.212524 127.739418 2.943335 0.522850
84.212524 127.739418 2.314220 0.517647
84.212524 127.739418 1.685780 0.575845
84.212524 127.739418 1.056665 0.531929
84.212524 127.739418 0.425524 0.595163
84.599319 125.964355 -0.000018 0.212059
85.430145 122.151520 -0.000015 0.239968
85.960564 119.717361 -0.000012 0.289024
86.329216 118.025536 -0.000010 0.221693
86.600830 116.779068 -0.000009 0.251983
84.349548 127.739258 6.802628 0.549020
84.349548 127.739273 6.141009 0.658015
84.349548 127.739273 5.488678 0.489769
84.349533 127.739334 4.844081 0.566857
84.349518 127.739395 4.205711 0.517647
84.349518 127.739410 3.572123 0.508644
84.349518 127.739410 2.941924 0.549020
84.349518 127.739418 2.313750 0.517647
84.349518 127.739410 1.686249 0.541665
84.349518 127.739410 1.058075 0.575677
84.349518 127.739410 0.427877 0.650507
84.717995 125.989777 -0.000018 0.222411
85.522186 122.171242 -0.000015 0.227641
86.035591 119.733437 -0.000012 0.248752
86.392433 118.039078 -0.000010 0.225941
86.655334 116.790749 -0.000009 0.217947
84.486145 127.739243 6.795689 0.647089
84.486145 127.739250 6.135027 0.669581
84.486137 127.739288 5.483643 0.517647
84.486122 127.739357 4.839977 0.586328
84.486115 127.739410 4.202528 0.523323
84.486107 127.739410 3.569852 0.521141
84.486107 127.739418 2.940565 0.564858
84.486107 127.739410 2.313298 0.517647
84.486107 127.739418 1.686702 0.597971
84.486107 127.739418 1.059435 0.589883
84.486107 127.739410 0.430147 0.656184
84.836845 126.014381 -0.000018 0.229017
85.614365 122.190323 -0.000015 0.236629
86.110741 119.748993 -0.000012 0.247579
86.455742 118.052177 -0.000011 0.225367
86.709915 116.802048 -0.000009 0.204686
84.622353 127.739220 6.789002 0.575555
84.638992 127.654350 6.110579 0.371420
84.628174 127.709526 5.473271 0.689952
84.628174 127.709526 4.831512 0.678431
84.622314 127.739410 4.199459 0.549020
84.622314 127.739410 3.567666 0.517647
84.622314 127.739410 2.939254 0.495048
84.622314 127.739410 2.312861 0.549020
84.622314 127.739410 1.687139 0.611673
84.622314 127.739410 1.060745 0.634592
84.622314 127.739410 0.432334 0.718532
84.955872 126.038147 -0.000018 0.232284
85.706673 122.208755 -0.000015 0.208133
86.185989 119.764015 -0.000012 0.233505
86.519135 118.064835 -0.000010 0.209138
86.764580 116.812958 -0.000009 0.219419
84.758186 127.739204 6.782569 0.775967
84.774208 127.654350 6.105061 0.416373
84.763794 127.709526 5.468608 0.678431
84.763794 127.709534 4.827712 0.678431
84.758148 127.739395 4.196505 0.648768
84.758148 127.739410 3.565560 0.642344
84.758148 127.739410 2.937993 0.636912
84.758148 127.739410 2.312441 0.593500
84.758148 127.739410 1.687559 0.627222
84.758148 127.739410 1.062007 0.692042
84.758148 127.739410 0.434439 0.658549
85.075058 126.061081 -0.000018 0.235192
85.799103 122.226540 -0.000015 0.228395
86.261345 119.778519 -0.000013 0.188961
86.582619 118.077057 -0.000011 0.261306
86.819321 116.823494 -0.000009 0.248991
84.893661 127.739189 6.776385 0.661173
84.909073 127.654343 6.099755 0.490532
84.899048 127.709534 5.464127 0.678431
84.899048 127.709534 4.824058 0.678431
84.893631 127.739380 4.193665 0.681376
84.893623 127.739395 3.563536 0.635294
84.893623 127.739410 2.936781 0.611322
84.893623 127.739410 2.312037 0.609064
84.893623 127.739410 1.687963 0.710445
84.893623 127.739410 1.063219 0.723507
84.893623 127.739410 0.436462 0.597345
85.194397 126.083183 -0.000018 0.214476
85.891655 122.243683 -0.000015 0.226707
86.336800 119.792496 -0.000013 0.246215
86.646187 118.088829 -0.000011 0.236078
86.874130 116.833649 -0.000009 0.213961
85.028801 127.739166 6.770446 0.682261
85.043594 127.654350 6.094665 0.545342
85.033966 127.709534 5.459826 0.678431
85.033966 127.709534 4.820550 0.678431
85.028763 127.739372 4.190939 0.679759
85.028763 127.739388 3.561594 0.553674
85.028755 127.739410 2.935617 0.589944
85.028755 127.739410 2.311650 0.545953
85.028755 127.739410 1.688350 0.664805
85.028755 127.739410 1.064382 0.722393
85.028755 127.739418 0.438403 0.620188
85.313896 126.104454 -0.000018 0.238675
85.984329 122.260185 -0.000015 0.235192
86.412346 119.805939 -0.000013 0.214991
86.709831 118.100159 -0.000010 0.218761
86.929008 116.843414 -0.000009 0.231291
85.163605 127.739151 6.764758 0.567208
85.177780 127.654343 6.089784 0.527291
85.168556 127.709526 5.455701 0.678431
85.168556 127.709534 4.817189 0.678431
85.163567 127.739365 4.188327 0.536858
85.163567 127.739372 3.559732 0.578134
85.163567 127.739388 2.934501 0.587228
85.177780 127.654350 2.309867 0.422614
85.168556 127.709534 1.689217 0.678431
85.168556 127.709534 1.066985 0.678431
85.168556 127.709534 0.442749 0.678431
85.433525 126.124901 -0.000019 0.215445
86.077118 122.276031 -0.000015 0.225259
86.487984 119.818863 -0.000012 0.223260
86.773560 118.111038 -0.000010 0.268439
86.983955 116.852798 -0.000010 0.241811
85.298096 127.739136 6.759314 0.551812
85.311668 127.654343 6.085114 0.528222
85.302834 127.709526 5.451756 0.678431
85.302834 127.709534 4.813973 0.678431
85.298065 127.739349 4.185828 0.581674
85.298058 127.739365 3.557950 0.565927
85.298058 127.739380 2.933434 0.581170
85.311668 127.654350 2.309513 0.437720
85.302834 127.709534 1.689572 0.678431
85.302834 127.709534 1.068050 0.678431
85.302834 127.709534 0.444527 0.678431
85.553314 126.144493 -0.000019 0.218390
86.170013 122.291229 -0.000015 0.228143
86.563721 119.831253 -0.000013 0.197972
86.837357 118.121483 -0.000011 0.213243
87.038963 116.861801 -0.000009 0.204411
85.432289 127.739113 6.754113 0.589426
85.445244 127.654350 6.080655 0.430381
85.445244 127.654350 5.437831 0.592859
85.445244 127.654350 4.802621 0.524910
85.432251 127.739334 4.183439 0.731792
85.432251 127.739349 3.556248 0.697520
85.432251 127.739365 2.932415 0.640894
85.445244 127.654358 2.309175 0.391363
85.436806 127.709534 1.689911 0.678431
85.436806 127.709534 1.069068 0.678431
85.436806 127.709534 0.446225 0.678431
85.673225 126.163261 -0.000020 0.207247
86.263008 122.305779 -0.000015 0.201264
86.639534 119.843117 -0.000013 0.229364
86.901230 118.131477 -0.000011 0.252079
87.094040 116.870415 -0.000009 0.225965
85.566185 127.739098 6.749155 0.526543
85.578537 127.654350 6.076403 0.623529
85.570496 127.709534 5.444395 0.678431
85.570496 127.709526 4.807972 0.678431
85.566154 127.739319 4.181163 0.673289
85.566154 127.739342 3.554626 0.519646
85.566147 127.739365 2.931443 0.581079
85.578537 127.654350 2.308854 0.433310
85.570496 127.709534 1.690234 0.678431
85.570496 127.709534 1.070038 0.678431
85.570496 127.709534 0.447844 0.678431
85.793266 126.181183 -0.000020 0.227760
86.356102 122.319679 -0.000015 0.202185
86.715424 119.854446 -0.000013 0.201970
86.965172 118.141022 -0.000011 0.298167
87.149170 116.878654 -0.000010 0.287025
85.699821 127.739082 6.744438 0.607721
85.711563 127.654350 6.072359 0.636439
85.703918 127.709526 5.440978 0.678431
85.703918 127.709526 4.805184 0.678431
85.699783 127.739311 4.178997 0.627832
85.699783 127.739326 3.553082 0.582528
85.699776 127.739365 2.930519 0.611032
85.711563 127.654343 2.308547 0.394507
85.703918 127.709526 1.690541 0.678431
85.703918 127.709534 1.070961 0.678431
85.703918 127.709534 0.449384 0.678431
85.913429 126.198273 -0.000020 0.227796
86.449295 122.332932 -0.000015 0.216391
86.791397 119.865250 -0.000013 0.231925
87.029175 118.150124 -0.000011 0.211759
87.204353 116.886497 -0.000009 0.193293
85.833191 127.739059 6.739961 0.588968
85.845970 127.641922 6.065813 0.650736
85.837074 127.709526 5.437734 0.678431
85.837074 127.709526 4.802541 0.678431
85.833160 127.739296 4.176942 0.583673
85.833160 127.739319 3.551617 0.655344
85.833153 127.739365 2.929641 0.642496
85.844330 127.654350 2.308256 0.463737
85.837074 127.709526 1.690833 0.678431
85.837074 127.709526 1.071836 0.678431
85.837074 127.709526 0.450846 0.678431
86.033707 126.214523 -0.000020 0.225295
86.542580 122.345535 -0.000015 0.220376
86.867447 119.875526 -0.000013 0.252151
87.093239 118.158783 -0.000011 0.269768
87.259598 116.893959 -0.000010 0.228490
85.966316 127.739044 6.735725 0.592157
85.976852 127.654343 6.064887 0.555764
85.969986 127.709534 5.434665 0.678431
85.969994 127.709526 4.800039 0.678431
85.966286 127.739288 4.174996 0.659907
85.966286 127.739311 3.550232 0.741085
85.966278 127.739365 2.928812 0.592157
85.976860 127.654350 2.307981 0.485252
85.969994 127.709534 1.691109 0.678431
85.969994 127.709526 1.072666 0.678431
85.969986 127.709534 0.452229 0.678431
86.154099 126.229927 -0.000020 0.207403
86.635941 122.357483 -0.000015 0.226911
86.943558 119.885262 -0.000013 0.210682
87.157364 118.166985 -0.000011 0.244934
87.314888 116.901039 -0.000010 0.205057
86.099213 127.739029 6.731727 0.615747
86.106804 127.674355 6.065808 0.684092
86.102676 127.709534 5.431767 0.678431
86.102676 127.709526 4.797676 0.678431
86.099182 127.739273 4.173161 0.581659
86.099182 127.739319 3.548924 0.728618
86.099174 127.739365 2.928028 0.550759
86.109154 127.654350 2.307721 0.519951
86.102676 127.709526 1.691370 0.678431
86.102676 127.709526 1.073448 0.678431
86.102676 127.709534 0.453534 0.678431
86.274590 126.244492 -0.000020 0.224338
86.729393 122.368782 -0.000016 0.202496
87.019745 119.894478 -0.000013 0.218007
87.221542 118.174744 -0.000011 0.223763
87.370224 116.907730 -0.000010 0.223464
86.231895 127.739014 6.727962 0.679713
86.237381 127.689217 6.065807 0.556466
86.235146 127.709526 5.429041 0.678431
86.235146 127.709534 4.795455 0.678431
86.231865 127.739265 4.171433 0.544945
86.231857 127.739311 3.547693 0.695247
86.231857 127.739365 2.927291 0.580468
86.241226 127.654350 2.307476 0.520317
86.235146 127.709534 1.691615 0.678431
86.235146 127.709526 1.074184 0.678431
86.235146 127.709534 0.454763 0.678431
86.395187 126.258224 -0.000020 0.225427
86.822914 122.379425 -0.000016 0.229029
87.095985 119.903152 -0.000013 0.254963
87.285782 118.182053 -0.000011 0.217085
87.425613 116.914032 -0.000010 0.236772
86.364365 127.738991 6.724435 0.640894
86.364365 127.739006 6.073590 0.549020
86.364357 127.739090 5.431894 0.549020
86.364349 127.739182 4.797794 0.517647
86.364342 127.739258 4.169815 0.549020
86.364334 127.739311 3.546541 0.630091
86.364326 127.739365 2.926600 0.588098
86.373100 127.654350 2.307248 0.520745
86.367409 127.709526 1.691845 0.678431
86.367409 127.709534 1.074873 0.678431
86.367409 127.709526 0.455914 0.678431
86.515869 126.271103 -0.000020 0.216199
86.916512 122.389420 -0.000016 0.239740
87.172287 119.911301 -0.000013 0.220891
87.350060 118.188919 -0.000011 0.218605
87.481041 116.919945 -0.000010 0.192479
86.496651 127.738976 6.721145 0.674617
86.496651 127.738983 6.070752 0.612818
86.496643 127.739075 5.429504 0.581094
86.496628 127.739166 4.795846 0.548623
86.496620 127.739250 4.168304 0.618219
86.496620 127.739319 3.545465 0.680049
86.496613 127.739357 2.925956 0.548409
86.504791 127.654350 2.307034 0.526940
86.499481 127.709526 1.692059 0.678431
86.499481 127.709526 1.075517 0.678431
86.499481 127.709526 0.456988 0.678431
86.636650 126.283142 -0.000020 0.229316
87.010178 122.398758 -0.000016 0.227174
87.248650 119.918907 -0.000013 0.224529
87.414391 118.195328 -0.000011 0.261773
87.536507 116.925476 -0.000010 0.231375
86.628754 127.738953 6.718086 0.663081
86.628754 127.738968 6.068117 0.549020
86.628746 127.739059 5.427284 0.525490
86.628738 127.739151 4.794036 0.604685
86.628731 127.739235 4.166901 0.549020
86.628723 127.739304 3.544465 0.732708
86.628716 127.739365 2.925357 0.604044
86.636292 127.654343 2.306835 0.467872
86.631378 127.709526 1.692258 0.678431
86.631378 127.709526 1.076115 0.678431
86.631378 127.709526 0.457986 0.678431
86.757500 126.294334 -0.000020 0.211484
87.103905 122.407433 -0.000016 0.213124
87.325058 119.925987 -0.000013 0.253048
87.478767 118.201294 -0.000011 0.246670
87.592010 116.930618 -0.000010 0.226552
86.760696 127.738937 6.715263 0.699458
86.767639 127.654350 6.047348 0.394888
86.767639 127.654343 5.409771 0.498009
86.767639 127.654350 4.779745 0.509300
86.760674 127.739227 4.165606 0.652842
86.760666 127.739304 3.543542 0.709392
86.760658 127.739365 2.924804 0.640757
86.767639 127.654350 2.306652 0.462745
86.763107 127.709526 1.692442 0.678431
86.763107 127.709526 1.076667 0.678431
86.763107 127.709526 0.458907 0.678431
86.878433 126.304688 -0.000020 0.213435
87.197693 122.415466 -0.000016 0.227784
87.401512 119.932533 -0.000013 0.257752
87.543175 118.206810 -0.000011 0.226073
87.647545 116.935379 -0.000010 0.225163
86.892487 127.738914 6.712673 0.614481
86.894691 127.709534 6.057080 0.671687
86.894691 127.709526 5.417968 0.678431
86.894691 127.709534 4.786428 0.678431
86.892464 127.739227 4.164417 0.627863
86.892456 127.739288 3.542695 0.649180
86.892448 127.739357 2.924296 0.606058
86.898834 127.654350 2.306484 0.476417
86.894691 127.709534 1.692611 0.678431
86.894691 127.709526 1.077173 0.678431
86.894691 127.709526 0.459753 0.678431
86.999428 126.314201 -0.000020 0.215673
87.291534 122.422836 -0.000016 0.216965
87.478012 119.938545 -0.000013 0.281723
87.607628 118.211876 -0.000011 0.239441
87.703117 116.939743 -0.000010 0.205165
87.024132 127.738899 6.710315 0.788510
87.026138 127.709526 6.055054 0.709804
87.026138 127.709526 5.416262 0.678431
87.026131 127.709526 4.785037 0.678431
87.024117 127.739227 4.163337 0.718364
87.024109 127.739304 3.541925 0.770428
87.024101 127.739357 2.923835 0.731823
87.029892 127.654343 2.306331 0.529564
87.026131 127.709526 1.692764 0.678431
87.026131 127.709526 1.077634 0.678431
87.026131 127.709534 0.460521 0.678431
87.120491 126.322861 -0.000020 0.224409
87.385422 122.429558 -0.000016 0.227054
87.554558 119.944023 -0.000013 0.249243
87.672112 118.216484 -0.000011 0.202353
87.758720 116.943718 -0.000010 0.226085
87.155663 127.738884 6.708189 0.772290
87.157448 127.709526 6.053226 0.709804
87.157455 127.709534 5.414724 0.678431
87.157448 127.709534 4.783782 0.678431
87.155640 127.739212 4.162360 0.666102
87.155632 127.739304 3.541231 0.664439
87.155632 127.739365 2.923419 0.743008
87.155624 127.739410 2.307587 0.556390
87.155624 127.739418 1.692413 0.708888
87.155624 127.739418 1.076578 0.659358
87.155624 127.739410 0.458760 0.702998
87.241615 126.330673 -0.000020 0.218713
87.479355 122.435623 -0.000016 0.260983
87.631134 119.948967 -0.000013 0.238089
87.736626 118.220650 -0.000011 0.210694
87.814346 116.947311 -0.000010 0.236090
87.287071 127.738869 6.706295 0.684840
87.288658 127.709526 6.051599 0.709804
87.288658 127.709526 5.413352 0.678431
87.288658 127.709526 4.782664 0.678431
87.287056 127.739204 4.161491 0.593805
87.287048 127.739304 3.540611 0.696468
87.287048 127.739372 2.923048 0.732692
87.287041 127.739418 2.307464 0.539895
87.287041 127.739418 1.692536 0.714305
87.287041 127.739418 1.076949 0.631418
87.287041 127.739418 0.459378 0.610239
87.362785 126.337654 -0.000020 0.216894
87.573326 122.441025 -0.000016 0.280670
87.707741 119.953377 -0.000013 0.220161
87.801163 118.224365 -0.000012 0.226432
87.869995 116.950508 -0.000010 0.227796
87.418388 127.738846 6.704629 0.691890
87.419762 127.709526 6.050170 0.709804
87.419762 127.709526 5.412148 0.678431
87.419762 127.709526 4.781682 0.678431
87.418373 127.739189 4.160727 0.619120
87.418365 127.739304 3.540068 0.705562
87.418358 127.739380 2.922723 0.638453
87.418358 127.739418 2.307356 0.549020
87.418358 127.739410 1.692645 0.593454
87.418358 127.739418 1.077275 0.768551
87.418358 127.739418 0.459922 0.656687
87.484001 126.343781 -0.000020 0.226731
87.667336 122.445778 -0.000016 0.225439
87.784378 119.957245 -0.000014 0.271072
87.865730 118.227631 -0.000012 0.207630
87.925667 116.953323 -0.000010 0.242684
87.549614 127.738838 6.703197 0.611032
87.550789 127.709526 6.048938 0.698039
87.550789 127.709526 5.411111 0.678431
87.550789 127.709534 4.780837 0.678431
87.549599 127.739174 4.160069 0.575219
87.549591 127.739304 3.539600 0.591287
87.549591 127.739380 2.922443 0.619043
87.549591 127.739418 2.307262 0.549020
87.549591 127.739418 1.692738 0.625498
87.549591 127.739418 1.077555 0.664866
87.549591 127.739426 0.460390 0.610300
87.605255 126.349052 -0.000020 0.238172
87.761375 122.449875 -0.000016 0.232272
87.861046 119.960587 -0.000014 0.215852
87.930321 118.230438 -0.000012 0.240710
87.981354 116.955750 -0.000010 0.283172
87.680763 127.738823 6.701993 0.551354
87.683556 127.654350 6.035983 0.472984
87.683556 127.654350 5.400196 0.609216
87.683556 127.654350 4.771938 0.537255
87.680756 127.739166 4.159516 0.549020
87.680748 127.739304 3.539207 0.580392
87.680748 127.739380 2.922208 0.684291
87.680748 127.739426 2.307184 0.549020
87.680748 127.739426 1.692816 0.644770
87.680748 127.739418 1.077790 0.591791
87.680748 127.739418 0.460783 0.517647
87.726547 126.353485 -0.000020 0.206625
87.855446 122.453308 -0.000016 0.226049
87.937729 119.963387 -0.000014 0.234391
87.994926 118.232803 -0.000012 0.222291
88.037064 116.957787 -0.000010 0.250021
87.811859 127.738800 6.701019 0.627527
87.812622 127.709534 6.047071 0.709804
87.812622 127.709534 5.409538 0.678431
87.812622 127.709534 4.779555 0.678431
87.811852 127.739151 4.159069 0.567636
87.811852 127.739304 3.538890 0.580392
87.811844 127.739388 2.922017 0.674205
87.782616 128.860962 2.325479 0.732662
87.782616 128.860962 1.674521 0.536156
87.782616 128.860962 1.022864 0.635157
87.782616 128.860962 0.369108 0.663127
87.847870 126.357071 -0.000020 0.210874
87.949532 122.456093 -0.000016 0.244551
88.014435 119.965652 -0.000014 0.242696
88.059547 118.234711 -0.000012 0.291346
88.092781 116.959435 -0.000010 0.190469
87.942902 127.738785 6.700273 0.505409
87.943466 127.709534 6.046434 0.692653
87.943466 127.709534 5.409001 0.678431
87.943466 127.709534 4.779117 0.678431
87.942894 127.739136 4.158728 0.662364
87.942894 127.739304 3.538648 0.591653
87.942894 127.739380 2.921873 0.666194
87.921501 128.860886 2.325427 0.692378
87.921501 128.860886 1.674573 0.517647
87.921501 128.860886 1.023022 0.610727
87.921501 128.860886 0.369371 0.544610
87.969208 126.359818 -0.000021 0.229244
88.043633 122.458214 -0.000016 0.238316
88.091148 119.967384 -0.000014 0.200916
88.124176 118.236168 -0.000012 0.210694
88.148506 116.960693 -0.000010 0.253731
88.073914 127.738770 6.699759 0.553399
88.074265 127.709534 6.045994 0.708522
88.074265 127.709534 5.408630 0.678431
88.074265 127.709534 4.778814 0.678431
88.073914 127.739120 4.158491 0.568368
88.073906 127.739304 3.538480 0.549020
88.073906 127.739388 2.921772 0.671839
88.060349 128.860809 2.325390 0.667124
88.060349 128.860825 1.674610 0.517647
88.060349 128.860809 1.023131 0.606989
88.060349 128.860809 0.369554 0.577966
88.090569 126.361702 -0.000020 0.234762
88.137756 122.459679 -0.000016 0.242014
88.167877 119.968582 -0.000014 0.238280
88.188812 118.237175 -0.000012 0.215493
88.204239 116.961555 -0.000010 0.220616
88.204903 127.738747 6.699471 0.594354
88.205055 127.709534 6.045753 0.709804
88.205055 127.709534 5.408425 0.678431
88.205055 127.709534 4.778648 0.678431
88.204903 127.739113 4.158360 0.610956
88.204903 127.739304 3.538387 0.580392
88.204903 127.739380 2.921717 0.696468
88.199173 128.860748 2.325370 0.670588
88.199173 128.860748 1.674631 0.517647
88.199173 128.860748 1.023193 0.564584
88.199173 128.860748 0.369658 0.642557
88.211937 126.362747 -0.000020 0.204088
88.231880 122.460487 -0.000016 0.204279
88.244614 119.969238 -0.000014 0.203346
88.253464 118.237732 -0.000012 0.205153
88.259979 116.962036 -0.000010 0.233960
88.335884 127.738724 6.699411 0.517647
88.335831 127.709534 6.045705 0.709804
88.335823 127.709534 5.408387 0.678431
88.335823 127.709534 4.778616 0.678431
88.335884 127.739098 4.158335 0.669856
88.335884 127.739304 3.538371 0.517647
88.335884 127.739388 2.921706 0.595834
88.337982 128.860687 2.325365 0.655680
88.337982 128.860687 1.674635 0.517647
88.337982 128.860672 1.023208 0.683757
88.337982 128.860672 0.369682 0.705516
88.333305 126.362946 -0.000020 0.233924
88.326012 122.460648 -0.000016 0.248800
88.321350 119.969368 -0.000014 0.243797
88.318108 118.237839 -0.000012 0.260373
88.315727 116.962128 -0.000010 0.251540
88.466866 127.738701 6.699581 0.524880
88.466606 127.709534 6.045856 0.678431
88.466606 127.709534 5.408514 0.678431
88.466606 127.709534 4.778721 0.678431
88.466866 127.739082 4.158414 0.557946
88.466866 127.739288 3.538427 0.547677
88.466873 127.739388 2.921740 0.617121
88.476799 128.860596 2.325376 0.696040
88.476799 128.860611 1.674624 0.549020
88.476799 128.860596 1.023175 0.713451
88.476799 128.860611 0.369627 0.692805
88.454681 126.362297 -0.000020 0.235468
88.420135 122.460144 -0.000016 0.216175
88.398087 119.968956 -0.000014 0.242804
88.382759 118.237488 -0.000012 0.206470
88.371468 116.961830 -0.000011 0.198427
88.597862 127.738678 6.699980 0.527321
88.597862 127.738739 6.052514 0.549020
88.597862 127.738846 5.414143 0.623911
88.597862 127.738953 4.783324 0.654231
88.597862 127.739075 4.158598 0.570031
88.597870 127.739281 3.538558 0.580392
88.597870 127.739380 2.921820 0.624445
88.615623 128.860519 2.325402 0.655756
88.615089 128.826752 1.675150 0.094118
88.615089 128.826752 1.024754 0.284977
88.615089 128.826752 0.372262 0.062745
88.576042 126.360794 -0.000020 0.259128
88.514259 122.458977 -0.000016 0.215517
88.474815 119.968010 -0.000014 0.264322
88.447403 118.236694 -0.000012 0.268990
88.427200 116.961143 -0.000011 0.213243
88.728889 127.738655 6.700609 0.591134
88.728889 127.738724 6.053057 0.566888
88.728889 127.738823 5.414599 0.664088
88.728889 127.738937 4.783697 0.760479
88.728897 127.739075 4.158889 0.651682
88.728897 127.739265 3.538765 0.580392
88.728905 127.739388 2.921944 0.685359
88.754486 128.860443 2.325445 0.655985
88.754639 128.867126 1.674446 0.450980
88.753716 128.826767 1.024622 0.097475
88.753716 128.826752 0.372042 0.181582
88.697395 126.358444 -0.000020 0.210503
88.608368 122.457161 -0.000016 0.218162
88.551537 119.966522 -0.000013 0.264179
88.512039 118.235443 -0.000012 0.270641
88.482933 116.960068 -0.000010 0.269672
88.859955 127.738632 6.701467 0.513085
88.859955 127.738708 6.053798 0.560815
88.859955 127.738808 5.415224 0.589853
88.859962 127.738922 4.784207 0.719234
88.859962 127.739075 4.159286 0.549020
88.859970 127.739250 3.539046 0.580392
88.859978 127.739380 2.922114 0.719600
88.893387 128.860367 2.325503 0.640986
88.893585 128.867126 1.674386 0.453468
88.892380 128.826752 1.024443 0.095537
88.892380 128.826752 0.371743 0.128756
88.818718 126.355255 -0.000020 0.236952
88.702469 122.454681 -0.000016 0.208935
88.628250 119.964508 -0.000014 0.231530
88.576660 118.233749 -0.000012 0.236174
88.538658 116.958603 -0.000010 0.222590
88.991074 127.738609 6.702554 0.510750
88.991074 127.738686 6.054737 0.517647
88.991081 127.738792 5.416015 0.668910
88.991081 127.738922 4.784854 0.720729
88.991089 127.739075 4.159787 0.517647
88.991096 127.739235 3.539402 0.610269
88.991104 127.739380 2.922328 0.704417
89.032341 128.860275 2.325578 0.641779
89.031113 128.826752 1.674971 0.256809
89.031113 128.826752 1.024216 0.098070
89.031113 128.826767 0.371364 0.138537
88.940025 126.351219 -0.000020 0.219395
88.796539 122.451546 -0.000016 0.271455
88.704941 119.961952 -0.000014 0.219574
88.641273 118.231598 -0.000012 0.205907
88.594368 116.956741 -0.000010 0.197386
89.122261 127.738586 6.703871 0.558618
89.122261 127.738670 6.055873 0.548318
89.122269 127.738777 5.416972 0.580392
89.122276 127.738922 4.785638 0.767056
89.122284 127.739067 4.160395 0.625498
89.122292 127.739227 3.539835 0.580392
89.122299 127.739388 2.922587 0.692409
89.171371 128.860199 2.325668 0.648096
89.171677 128.867126 1.674218 0.568704
89.169907 128.826767 1.023941 0.103014
89.169907 128.826767 0.370906 0.160784
89.061302 126.346336 -0.000020 0.261294
88.890594 122.447762 -0.000016 0.219622
88.781616 119.958870 -0.000014 0.271730
88.705872 118.228996 -0.000012 0.240231
88.650063 116.954498 -0.000010 0.228359
89.253532 127.738564 6.705419 0.572137
89.253532 127.738655 6.057209 0.630106
89.253540 127.738770 5.418100 0.643595
89.253548 127.738922 4.786557 0.619669
89.253555 127.739067 4.161108 0.575509
89.253563 127.739212 3.540343 0.545098
89.253571 127.739388 2.922892 0.681300
89.310486 128.860107 2.325774 0.609171
89.310844 128.867126 1.674111 0.549020
89.308792 128.826752 1.023619 0.088060
89.308792 128.826767 0.370368 0.128237
89.182541 126.340599 -0.000021 0.220197
88.984619 122.443314 -0.000016 0.239046
88.858269 119.955246 -0.000014 0.220580
88.770447 118.225937 -0.000012 0.196093
88.705750 116.951866 -0.000010 0.248453
89.384888 127.738541 6.707196 0.598352
89.384895 127.738640 6.058744 0.573114
89.384903 127.738770 5.419395 0.595590
89.384911 127.738922 4.787614 0.718029
89.384918 127.739067 4.161927 0.568734
89.384933 127.739212 3.540926 0.517647
89.384941 127.739388 2.923242 0.733166
89.449699 128.860031 2.325896 0.601587
89.447769 128.826752 1.674649 0.127199
89.447769 128.826752 1.023250 0.084749
89.447777 128.826752 0.369750 0.109926
89.303734 126.334023 -0.000021 0.225738
89.078613 122.438217 -0.000016 0.205009
88.934891 119.951080 -0.000014 0.243091
88.834999 118.222435 -0.000012 0.239166
88.761406 116.948845 -0.000010 0.219227
89.516357 127.738518 6.709205 0.667018
89.516365 127.738617 6.060478 0.590387
89.516373 127.738770 5.420858 0.596551
89.516388 127.738922 4.788807 0.568231
89.516396 127.739067 4.162852 0.549020
89.516403 127.739212 3.541586 0.636362
89.514076 127.703308 2.921862 0.675166
89.589020 128.859940 2.326034 0.585946
89.586868 128.826752 1.674510 0.317159
89.586868 128.826752 1.022831 0.305913
89.586868 128.826752 0.369053 0.266911
89.424873 126.326591 -0.000020 0.239441
89.172562 122.432457 -0.000016 0.219718
89.011482 119.946388 -0.000014 0.222937
88.899529 118.218483 -0.000012 0.288078
88.817047 116.945435 -0.000010 0.238747
89.647942 127.738495 6.711445 0.641047
89.647949 127.738617 6.062413 0.582437
89.647964 127.738770 5.422491 0.610361
89.647972 127.738922 4.790135 0.530510
89.647980 127.739067 4.163884 0.589990
89.647995 127.739212 3.542321 0.588113
89.645432 127.703568 2.922314 0.667063
89.728462 128.859848 2.326188 0.570214
89.728447 128.859680 1.673814 0.575311
89.728439 128.859543 1.020751 0.609659
89.728432 128.859406 0.365592 0.517647
89.545959 126.318329 -0.000020 0.211173
89.266472 122.426041 -0.000016 0.225367
89.088043 119.941154 -0.000014 0.202568
88.964027 118.214073 -0.000012 0.292064
88.872658 116.941635 -0.000010 0.239932
89.779663 127.738480 6.713920 0.500114
89.779671 127.738617 6.064549 0.621790
89.779686 127.738770 5.424291 0.611032
89.779694 127.738914 4.791603 0.511162
89.779709 127.739067 4.165022 0.577691
89.779716 127.739212 3.543132 0.617136
89.776932 127.703850 2.922813 0.654902
89.868050 128.859726 2.326358 0.565682
89.868034 128.859558 1.673645 0.513191
89.868019 128.859390 1.020243 0.599756
89.868011 128.859253 0.364745 0.568704
89.666992 126.309204 -0.000020 0.216882
89.360336 122.418976 -0.000016 0.224780
89.164558 119.935394 -0.000014 0.225654
89.028488 118.209221 -0.000012 0.246299
88.928238 116.937454 -0.000011 0.232452
89.911522 127.738464 6.716628 0.595712
89.911537 127.738617 6.066887 0.527993
89.911552 127.738770 5.426258 0.562249
89.911560 127.738922 4.793209 0.518029
89.911575 127.739067 4.166267 0.517647
89.911591 127.739212 3.544020 0.727428
89.911598 127.739365 2.925094 0.681270
90.007782 128.859604 2.326543 0.547341
90.007767 128.859436 1.673460 0.563058
90.007751 128.859253 1.019686 0.592218
90.007736 128.859100 0.363817 0.549020
89.787956 126.299255 -0.000020 0.211460
89.454147 122.411247 -0.000016 0.212465
89.241043 119.929100 -0.000014 0.233254
89.092926 118.203918 -0.000012 0.221776
88.983795 116.932877 -0.000011 0.257752
90.043549 127.738464 6.719569 0.636973
90.043556 127.738617 6.069425 0.534325
90.043571 127.738770 5.428397 0.589242
90.043587 127.738914 4.794952 0.549020
90.043602 127.739067 4.167620 0.523201
90.043617 127.739212 3.544983 0.647715
90.043625 127.739365 2.925672 0.593866
90.322250 130.738739 2.357630 0.719738
90.322243 130.738663 1.642372 0.611124
90.322235 130.738556 0.926353 0.654902
90.322227 130.738434 0.208035 0.611765
89.908844 126.288445 -0.000020 0.224098
89.547905 122.402870 -0.000016 0.252079
89.317474 119.922264 -0.000014 0.229939
89.157310 118.198158 -0.000012 0.202137
89.039314 116.927917 -0.000011 0.226875
90.349457 129.476685 7.160321 0.670451
nan nan nan 0.000000
nan nan nan 0.000000
nan nan nan 0.000000
nan nan nan 0.000000
nan nan nan 0.000000
90.475586 130.738708 3.074378 0.549020
90.475586 130.738739 2.357870 0.637934
90.475578 130.738663 1.642131 0.629282
90.475571 130.738556 0.925630 0.656794
90.475555 130.738449 0.206828 0.611765
90.029663 126.276802 -0.000020 0.233996
89.641602 122.393837 -0.000017 0.251959
89.393852 119.914902 -0.000014 0.238974
89.221664 118.191956 -0.000012 0.202209
89.094803 116.922569 -0.000011 0.219610
nan nan nan 0.000000
nan nan nan 0.000000
nan nan nan 0.000000
nan nan nan 0.000000
nan nan nan 0.000000
nan nan nan 0.000000
90.629135 130.738708 3.075154 0.539345
90.629128 130.738724 2.358129 0.518654
90.629128 130.738678 1.641872 0.626596
90.629112 130.738571 0.924853 0.655726
90.629105 130.738464 0.205531 0.611765
90.150391 126.264305 -0.000020 0.218162
89.735229 122.384148 -0.000016 0.226540
89.470184 119.907005 -0.000014 0.219419
89.285965 118.185303 -0.000012 0.241260
89.150246 116.916824 -0.000010 0.224266
nan nan nan 0.000000
nan nan nan 0.000000
nan nan nan 0.000000
nan nan nan 0.000000
nan nan nan 0.000000
nan nan nan 0.000000
90.782906 130.738708 3.075983 0.650752
90.782906 130.738708 2.358405 0.532097
90.782906 130.738678 1.641595 0.623896
90.782890 130.738571 0.924022 0.667994
90.782883 130.738464 0.204145 0.611765
90.271027 126.250969 -0.000020 0.229855
89.828789 122.373810 -0.000017 0.256842
89.546455 119.898575 -0.000014 0.214668
89.350227 118.178200 -0.000012 0.224828
89.205650 116.910706 -0.000011 0.171176
nan nan nan 0.000000
nan nan nan 0.000000
nan nan nan 0.000000
nan nan nan 0.000000
nan nan nan 0.000000
nan nan nan 0.000000
90.936928 130.738708 3.076867 0.563058
90.936928 130.738708 2.358699 0.555062
90.936928 130.738693 1.641301 0.621195
90.936913 130.738586 0.923138 0.670115
90.936897 130.738480 0.202670 0.611765
90.391563 126.236794 -0.000020 0.216199
89.922272 122.362816 -0.000016 0.244252
89.622665 119.889618 -0.000014 0.247938
89.414429 118.170647 -0.000012 0.239549
89.261009 116.904190 -0.000010 0.193329
nan nan nan 0.000000
nan nan nan 0.000000
nan nan nan 0.000000
nan nan nan 0.000000
nan nan nan 0.000000
nan nan nan 0.000000
91.091217 130.738708 3.077805 0.604028
91.091209 130.738693 2.359011 0.592554
91.091209 130.738693 1.640988 0.619516
91.091202 130.738586 0.922200 0.690196
91.091187 130.738495 0.201103 0.631693
90.512009 126.221779 -0.000021 0.217624
90.015678 122.351166 -0.000016 0.218952
89.698814 119.880119 -0.000014 0.198690
89.478584 118.162651 -0.000012 0.276936
89.316330 116.897301 -0.000010 0.226121
nan nan nan 0.000000
nan nan nan 0.000000
nan nan nan 0.000000
nan nan nan 0.000000
nan nan nan 0.000000
nan nan nan 0.000000
91.245773 130.738708 3.078797 0.614130
91.245773 130.738678 2.359342 0.579202
91.245773 130.738678 1.640658 0.621012
91.245758 130.738602 0.921208 0.678706
91.245743 130.738495 0.199447 0.647059
90.632339 126.205925 -0.000021 0.237251
90.109001 122.338867 -0.000016 0.240638
89.774895 119.870094 -0.000014 0.274327
89.542679 118.154205 -0.000012 0.215864
89.371590 116.890015 -0.000011 0.264083
nan nan nan 0.000000
nan nan nan 0.000000
nan nan nan 0.000000
92.013596 135.041809 5.905282 0.639902
nan nan nan 0.000000
nan nan nan 0.000000
91.400627 130.738708 3.079844 0.549020
91.400620 130.738678 2.359691 0.690608
91.400620 130.738678 1.640310 0.619837
91.400612 130.738617 0.920160 0.685100
91.400597 130.738510 0.197699 0.647059
90.752556 126.189224 -0.000020 0.230369
90.202232 122.325920 -0.000016 0.232009
89.850899 119.859535 -0.000014 0.203382
89.606712 118.145309 -0.000012 0.285206
89.426804 116.882347 -0.000011 0.226839
nan nan nan 0.000000
nan nan nan 0.000000
nan nan nan 0.000000
92.135773 134.616165 5.845423 0.648341
nan nan nan 0.000000
nan nan nan 0.000000
91.555786 130.738708 3.080945 0.546319
91.555779 130.738663 2.360057 0.648066
91.555779 130.738663 1.639943 0.635218
91.555771 130.738617 0.919059 0.684596
91.555756 130.738510 0.195861 0.587091
90.872658 126.171692 -0.000020 0.226935
90.295372 122.312317 -0.000016 0.197302
89.926834 119.848450 -0.000014 0.248620
89.670677 118.135971 -0.000012 0.205476
89.481964 116.874290 -0.000011 0.265854
nan nan nan 0.000000
nan nan nan 0.000000
nan nan nan 0.000000
92.252769 134.193817 5.786123 0.659007
nan nan nan 0.000000
nan nan nan 0.000000
91.711273 130.738708 3.082102 0.760876
91.711266 130.738663 2.360442 0.361761
91.711266 130.738663 1.639558 0.615930
91.711258 130.738632 0.917902 0.690929
91.711243 130.738525 0.193930 0.637751
90.992630 126.153313 -0.000020 0.212154
90.388420 122.298065 -0.000016 0.206493
90.002686 119.836830 -0.000014 0.211340
89.734581 118.126183 -0.000012 0.208372
89.537064 116.865852 -0.000010 0.197410
nan nan nan 0.000000
nan nan nan 0.000000
92.285538 133.292023 6.483168 0.917098
92.383919 133.892288 5.745040 0.672053
nan nan nan 0.000000
nan nan nan 0.000000
91.867096 130.738708 3.083313 0.633051
91.867081 130.738647 2.360846 0.388235
91.867081 130.738647 1.639154 0.616693
91.867081 130.738647 0.916690 0.697993
91.867065 130.738541 0.191906 0.647059
91.112473 126.134102 -0.000020 0.246849
90.481361 122.283173 -0.000016 0.210012
