# This PCD file was generated using the MATLABÂ® pcwrite function
# from Computer Vision ToolboxÂ®.
# .PCD v.7 - Point Cloud Data file format
VERSION .7
FIELDS x y z intensity
SIZE 4 4 4 4
TYPE F F F F
COUNT 1 1 1 1
WIDTH 1279
HEIGHT 1
VIEWPOINT 0 0 0 1 0 0 0
POINTS 1279
DATA ascii
9.617690 4.819817 2.510382 0.554223
9.617690 4.819817 1.489618 0.783459
9.617689 4.819817 0.467759 0.593927
12.216819 11.101645 0.000036 0.227162
14.895459 17.575645 0.000026 0.217480
16.387331 21.181343 0.000019 0.259906
17.339767 23.483286 0.000015 0.232548
18.001751 25.083229 0.000012 0.234163
18.489471 26.262001 0.000011 0.198810
9.617688 5.379892 9.683112 0.543374
9.617689 5.379894 8.624670 0.613474
9.617688 5.379890 7.581089 0.621256
9.617687 5.379890 6.549865 0.635798
9.617691 5.379900 5.528609 0.483955
9.617690 5.379898 4.515018 0.742290
9.617691 5.379902 3.506853 0.555840
9.617690 5.379898 2.501925 0.525353
9.617690 5.379898 1.498074 0.680735
9.617691 5.379902 0.493147 0.616892
12.059703 11.167292 0.000036 0.225702
14.783474 17.622435 0.000026 0.229759
16.300480 21.217628 0.000019 0.248465
17.268967 23.512875 0.000016 0.215314
17.942102 25.108154 0.000013 0.203813
18.438040 26.283489 0.000011 0.253156
9.617687 5.921759 9.558243 0.503502
9.617689 5.921762 8.517002 0.688411
9.617688 5.921762 7.490381 0.596185
9.617690 5.921766 6.475918 0.704173
9.617690 5.921766 5.471261 0.710002
9.617692 5.921770 4.474141 0.679454
9.617692 5.921770 3.482362 0.494270
9.617691 5.921770 2.493768 0.523293
9.617691 5.921770 1.506232 0.502556
9.617693 5.921772 0.517638 0.566857
11.903045 11.234041 0.000036 0.230070
14.671815 17.670006 0.000025 0.225654
16.213884 21.254528 0.000019 0.247316
17.198370 23.542950 0.000015 0.202879
17.882627 25.133495 0.000013 0.217300
18.386757 26.305340 0.000010 0.217300
9.617692 6.446323 9.437723 0.562127
9.617691 6.446323 8.413086 0.578424
9.617691 6.446321 7.402834 0.691722
9.617692 6.446323 6.404549 0.604593
9.617692 6.446325 5.415910 0.564904
9.617693 6.446327 4.434691 0.539513
9.617693 6.446325 3.458726 0.531075
9.617694 6.446329 2.485894 0.591714
9.617694 6.446329 1.514106 0.535729
9.617693 6.446325 0.541274 0.505425
11.746854 11.301870 0.000035 0.233804
14.560491 17.718355 0.000025 0.236760
16.127550 21.292027 0.000019 0.224445
17.127987 23.573521 0.000015 0.253228
17.823330 25.159248 0.000012 0.257153
18.335630 26.327545 0.000010 0.221645
9.617690 6.954430 9.321341 0.773205
9.617690 6.954430 8.312737 0.565988
9.617691 6.954432 7.318293 0.679759
9.617691 6.954433 6.335628 0.692210
9.617692 6.954433 5.362460 0.874098
9.617693 6.954435 4.396594 0.572412
9.617693 6.954433 3.435900 0.661982
9.617693 6.954437 2.478291 0.488334
9.617693 6.954437 1.521709 0.671366
9.617693 6.954435 0.564100 0.539147
11.591148 11.370802 0.000036 0.231423
14.449512 17.767490 0.000026 0.240386
16.041479 21.330128 0.000019 0.233984
17.057819 23.604582 0.000015 0.205452
17.764217 25.185417 0.000012 0.264430
18.284660 26.350109 0.000010 0.221896
9.531952 7.258579 9.260723 0.442893
9.531950 7.258574 8.260469 0.669963
9.531953 7.258581 7.274259 0.694926
9.531954 7.258583 6.299730 0.709743
9.531954 7.258583 5.334620 0.718868
9.531954 7.258585 4.376751 0.740154
9.531954 7.258585 3.424012 0.544884
9.531954 7.258583 2.474331 0.521004
9.531954 7.258583 1.525668 0.528862
9.531955 7.258587 0.575989 0.517739
11.435924 11.440815 0.000036 0.228275
14.338871 17.817385 0.000025 0.227018
15.955673 21.368824 0.000019 0.225391
16.987869 23.636131 0.000015 0.184688
17.705286 25.211996 0.000012 0.227988
18.233847 26.373028 0.000010 0.201946
9.308891 7.258575 9.284052 0.547921
9.308894 7.258581 8.280583 0.666972
9.308895 7.258583 7.291204 0.615305
9.308895 7.258583 6.313544 0.689662
9.308897 7.258587 5.345334 0.823301
9.308895 7.258581 4.384387 0.578836
9.308896 7.258587 3.428586 0.606104
9.308894 7.258583 2.475856 0.537896
9.308894 7.258583 1.524144 0.494484
9.308896 7.258587 0.571413 0.746883
11.281194 11.511908 0.000036 0.229053
14.228588 17.868057 0.000025 0.214332
15.870144 21.408127 0.000019 0.225175
16.918142 23.668169 0.000015 0.231255
17.646544 25.238991 0.000013 0.217671
18.183197 26.396301 0.000010 0.213590
9.084386 7.258577 9.307887 0.495216
9.084387 7.258577 8.301136 0.576059
9.084386 7.258577 7.308521 0.529335
9.084388 7.258579 6.327661 0.656825
9.084390 7.258583 5.356281 0.579873
9.084391 7.258585 4.392189 0.664820
9.084389 7.258581 3.433261 0.597391
9.084391 7.258583 2.477412 0.476097
9.084391 7.258583 1.522587 0.528786
9.084389 7.258581 0.566738 0.565072
11.126965 11.584082 0.000036 0.221705
14.118662 17.919502 0.000025 0.233816
15.784889 21.448017 0.000018 0.274926
16.848640 23.700691 0.000015 0.209198
17.587990 25.266390 0.000012 0.220891
18.132711 26.419928 0.000011 0.254317
8.858391 7.258574 9.332239 0.544717
8.858392 7.258577 8.322132 0.765621
8.858393 7.258581 7.326209 0.529824
8.858395 7.258583 6.342080 0.591562
8.858398 7.258591 5.367463 0.645014
8.858397 7.258587 4.400160 0.549767
8.858397 7.258589 3.438036 0.625132
8.978250 7.507872 2.474477 0.647303
8.978250 7.507872 1.525523 0.649668
8.978251 7.507874 0.575551 0.654978
10.973241 11.657326 0.000036 0.233661
14.009095 17.971710 0.000025 0.229927
15.699916 21.488510 0.000019 0.214117
16.779367 23.733700 0.000015 0.219993
17.529629 25.294197 0.000012 0.255262
18.082390 26.443905 0.000010 0.247208
8.630873 7.258575 9.357111 0.644511
8.630875 7.258581 8.343577 0.486183
8.630875 7.258579 7.344276 0.552239
8.630878 7.258587 6.356810 0.533806
8.630878 7.258587 5.378887 0.544915
8.630878 7.258587 4.408303 0.555566
8.962238 7.935650 3.405883 0.643458
8.909322 7.827528 2.470263 0.598077
8.909324 7.827532 1.529737 0.600778
8.909328 7.827539 0.588203 0.711940
10.820029 11.731646 0.000035 0.228227
13.899891 18.024677 0.000025 0.220915
15.615227 21.529594 0.000019 0.229220
16.710325 23.767193 0.000015 0.235192
17.471462 25.322414 0.000012 0.231411
18.032236 26.468233 0.000011 0.197099
8.401798 7.258577 9.382515 0.567727
8.401798 7.258577 8.365482 0.653925
8.401796 7.258574 7.362731 0.519112
8.401799 7.258579 6.371854 0.549371
8.401802 7.258585 5.390554 0.450278
8.401804 7.258589 4.416618 0.489433
8.909309 8.277489 3.391977 0.536446
8.909323 8.277512 2.463660 0.580987
8.909323 8.277512 1.536340 0.777600
8.909324 8.277515 0.608025 0.602579
10.667347 11.807035 0.000036 0.216941
13.791064 18.078409 0.000025 0.217683
15.530827 21.571266 0.000019 0.204818
16.641520 23.801165 0.000015 0.216690
17.413496 25.351032 0.000012 0.207786
17.982256 26.492908 0.000010 0.253431
8.171122 7.258574 9.408458 0.419608
8.171123 7.258575 8.387852 0.697963
8.171123 7.258577 7.381576 0.587213
8.171127 7.258585 6.387216 0.550240
8.171128 7.258587 5.402469 0.500145
8.997373 8.888790 4.275252 0.640696
8.909309 8.715038 3.372769 0.564462
8.909318 8.715055 2.457263 0.512856
8.909323 8.715065 1.542738 0.807980
8.909324 8.715067 0.627232 0.739818
10.515190 11.883486 0.000035 0.233337
13.682613 18.132900 0.000024 0.198631
15.446718 21.613525 0.000019 0.270701
16.572952 23.835615 0.000015 0.239836
17.355732 25.380058 0.000012 0.239968
17.932447 26.517937 0.000010 0.201012
7.938808 7.258575 9.434946 0.543175
7.938813 7.258581 8.410690 0.614176
7.938809 7.258575 7.400817 0.628672
7.938815 7.258585 6.402902 0.609888
7.938818 7.258591 5.414633 0.571694
8.909292 9.140665 4.260152 0.672023
8.909307 9.140690 3.354151 0.655665
8.909317 9.140709 2.451061 0.597330
8.952728 9.224901 1.550489 0.346807
8.909322 9.140720 0.645851 0.530907
10.363567 11.960987 0.000035 0.224397
13.574547 18.188145 0.000025 0.239381
15.362907 21.656368 0.000019 0.219718
16.504627 23.870544 0.000015 0.230585
17.298168 25.409485 0.000012 0.217552
17.882816 26.543308 0.000010 0.233505
7.704818 7.258579 9.461988 0.614145
7.704818 7.258581 8.434008 0.502022
7.704816 7.258575 7.420460 0.682658
7.704821 7.258585 6.418919 0.553903
7.704823 7.258591 5.427054 0.580194
8.909290 9.554953 4.230013 0.471931
8.909303 9.554976 3.336094 0.657023
8.909311 9.554995 2.445046 0.450980
8.931199 9.596720 1.555725 0.494469
8.909320 9.555008 0.663908 0.521416
10.212496 12.039560 0.000035 0.223895
13.466870 18.244146 0.000025 0.240171
15.279400 21.699802 0.000019 0.259834
16.436548 23.905951 0.000015 0.233313
17.240814 25.439314 0.000012 0.213052
17.833363 26.569029 0.000010 0.250583
7.469107 7.258572 9.489597 0.675700
7.509639 7.334553 8.439215 0.807843
7.509645 7.334562 7.424846 0.518975
7.469114 7.258585 6.435267 0.684947
7.469116 7.258589 5.439734 0.586023
8.997381 10.123482 4.185430 0.652949
8.909300 9.958364 3.318576 0.758816
8.909311 9.958385 2.439211 0.663828
8.909318 9.958399 1.560789 0.732692
8.909321 9.958403 0.681425 0.622858
10.061978 12.119183 0.000035 0.226611
13.359588 18.300896 0.000024 0.240829
15.196196 21.743813 0.000019 0.202424
16.368721 23.941830 0.000015 0.231626
17.183670 25.469543 0.000013 0.202065
17.784090 26.595091 0.000010 0.261534
7.231633 7.258574 9.517778 0.506569
7.245892 7.284863 8.475653 0.327230
7.272624 7.334143 7.445345 0.806867
7.231635 7.258581 6.451955 0.668437
7.245892 7.284861 5.449237 0.261570
8.951900 10.429882 4.165071 0.632120
8.909299 10.351345 3.301575 0.540078
8.909305 10.351357 2.433548 0.590555
8.909312 10.351370 1.566452 0.482353
8.909320 10.351383 0.698427 0.650828
9.912015 12.199852 0.000035 0.236748
13.252702 18.358395 0.000024 0.229879
15.113303 21.788408 0.000019 0.234091
16.301142 23.978186 0.000015 0.276888
17.126736 25.500168 0.000012 0.241547
17.735001 26.621500 0.000010 0.195878
6.992355 7.258572 9.546541 0.572427
7.005396 7.282217 8.501080 0.461631
7.028134 7.323446 7.468401 0.805890
6.992361 7.258583 6.468987 0.692836
7.005370 7.282171 5.462788 0.494240
8.731714 10.412342 4.174996 0.656657
8.909296 10.734329 3.285067 0.537255
8.909307 10.734348 2.428050 0.582391
8.909311 10.734360 1.571951 0.488838
8.909319 10.734371 0.714935 0.758175
9.762623 12.281565 0.000035 0.220101
13.146222 18.416637 0.000024 0.223691
15.030720 21.833572 0.000018 0.223548
16.233818 24.015007 0.000015 0.246119
17.070021 25.531189 0.000012 0.219742
17.686096 26.648247 0.000010 0.221202
6.751218 7.258568 9.575895 0.546639
6.765965 7.284868 8.525711 0.377447
6.772933 7.297300 7.495124 0.712291
6.751223 7.258575 6.486372 0.584634
6.765971 7.284880 5.475899 0.495445
8.415797 10.227547 4.200828 0.430762
8.997386 11.264875 3.260185 0.631922
8.909301 11.107763 2.422709 0.464790
8.909307 11.107777 1.577291 0.447669
8.909318 11.107796 0.730968 0.695476
9.613793 12.364313 0.000034 0.228909
13.040145 18.475620 0.000024 0.226348
14.948454 21.879318 0.000018 0.201551
16.166752 24.052299 0.000015 0.257297
17.013519 25.562607 0.000012 0.206888
17.637379 26.675337 0.000010 0.224744
6.508194 7.258566 9.605851 0.605264
6.508195 7.258570 8.558052 0.487434
6.508198 7.258574 7.524963 0.607324
6.508196 7.258570 6.504112 0.603677
6.508204 7.258585 5.493125 0.599878
8.195862 10.220068 4.210236 0.413657
9.003807 11.637838 3.244079 0.579568
8.997356 11.626518 2.414609 0.621042
8.997356 11.626518 1.585390 0.667643
8.997354 11.626513 0.755280 0.634516
9.465553 12.448105 0.000034 0.229053
12.934485 18.535341 0.000024 0.212645
14.866512 21.925636 0.000019 0.214500
16.099949 24.090057 0.000014 0.219455
16.957241 25.594421 0.000012 0.203190
17.588854 26.702766 0.000010 0.266034
6.263229 7.258568 9.636418 0.704540
6.263229 7.258568 8.584408 0.669352
6.263233 7.258575 7.547167 0.847364
6.263225 7.258560 6.522215 0.569009
6.263233 7.258574 5.507164 0.751064
7.973952 10.212391 4.219846 0.343389
8.800850 11.640158 3.248948 0.634836
8.901270 11.813547 2.412740 0.625406
8.901066 11.813194 1.587254 0.654627
8.901146 11.813335 0.760884 0.641123
9.317904 12.532930 0.000034 0.235228
12.829244 18.595795 0.000023 0.227844
14.784895 21.972527 0.000018 0.233732
16.033415 24.128284 0.000014 0.209055
16.901184 25.626621 0.000012 0.231758
17.540520 26.730532 0.000010 0.265555
6.016275 7.258568 9.667608 0.524880
6.016275 7.258570 8.611300 0.606317
6.016277 7.258574 7.569823 0.565255
6.016274 7.258568 6.540685 0.522789
6.016278 7.258575 5.521488 0.532006
7.749916 10.204351 4.229678 0.325536
8.501872 11.482069 3.263060 0.358679
8.997381 12.324030 2.404733 0.633524
8.997382 12.324030 1.595268 0.634958
8.997382 12.324034 0.784934 0.667414
9.170847 12.618782 0.000034 0.225415
12.724433 18.656994 0.000024 0.236246
14.703608 22.019985 0.000018 0.205524
15.967147 24.166977 0.000015 0.248501
16.845356 25.659218 0.000012 0.226348
17.492382 26.758638 0.000010 0.233074
5.767286 7.258572 9.699428 0.584619
5.767285 7.258570 8.638737 0.544503
5.767288 7.258575 7.592938 0.499245
5.795818 7.306286 6.551281 0.365332
5.967817 7.593935 5.491152 0.522728
7.523581 10.195744 4.239753 0.328939
8.997358 12.660442 3.200852 0.639200
8.943533 12.570423 2.401714 0.647456
8.943532 12.570423 1.598285 0.645045
8.943531 12.570423 0.793995 0.647913
9.024398 12.705664 0.000034 0.224230
12.620050 18.718918 0.000024 0.222830
14.622654 22.068007 0.000018 0.226013
15.901150 24.206123 0.000014 0.278229
16.789757 25.692200 0.000012 0.264538
17.444443 26.787077 0.000010 0.225439
5.516201 7.258570 9.731892 0.492988
5.516199 7.258568 8.666731 0.590234
5.516203 7.258575 7.616522 0.522545
6.171925 8.337999 6.391407 0.619745
5.968866 8.003729 5.450713 0.497978
7.295044 10.186840 4.250051 0.456748
8.909307 12.844185 3.195353 0.574548
8.909304 12.844183 2.398167 0.517647
8.909304 12.844183 1.601833 0.745464
8.909306 12.844183 0.804646 0.517647
8.909302 12.844177 0.004890 0.554101
12.516098 18.781567 0.000024 0.228179
14.542034 22.116596 0.000018 0.190875
15.835426 24.245735 0.000014 0.265758
16.734385 25.725571 0.000011 0.237371
17.396700 26.815851 0.000010 0.210658
5.262985 7.258572 9.765013 0.700343
5.262985 7.258570 8.695287 0.604318
5.262985 7.258574 7.640580 0.606439
6.171924 8.731564 6.341618 0.644862
5.969958 8.404266 5.411349 0.678309
7.064318 10.177740 4.260566 0.326772
8.909306 13.167656 3.181801 0.524880
8.909302 13.167650 2.393653 0.554726
8.909301 13.167648 1.606348 0.811582
8.909303 13.167650 0.818199 0.549020
8.909303 13.167652 0.027511 0.642130
12.412588 18.844940 0.000023 0.216187
14.461760 22.165745 0.000018 0.258602
15.769983 24.285805 0.000014 0.183587
16.679253 25.759327 0.000012 0.229065
17.349163 26.844959 0.000010 0.186866
5.007570 7.258568 9.798801 0.696834
5.007570 7.258568 8.724419 0.774548
5.007574 7.258572 7.665123 0.766110
6.171923 9.116325 6.293151 0.654017
5.970093 8.794300 5.373238 0.551675
8.997353 13.624378 3.936875 0.655818
8.909307 13.483898 3.168608 0.521187
8.909304 13.483894 2.389258 0.547478
8.909303 13.483892 1.610742 0.583047
8.909300 13.483889 0.831391 0.544808
8.909301 13.483891 0.049530 0.479377
12.309524 18.909039 0.000024 0.235396
14.381824 22.215452 0.000018 0.218270
15.704822 24.326328 0.000015 0.227270
16.624353 25.793468 0.000012 0.208791
17.301826 26.874393 0.000010 0.225139
4.749916 7.258560 9.833266 0.717067
4.749922 7.258570 8.754135 0.542123
4.749924 7.258574 7.690159 0.780362
6.171922 9.492601 6.245961 0.632670
6.059830 9.316498 5.316935 0.445228
8.909295 13.793144 3.929030 0.598489
8.909307 13.793161 3.155762 0.527245
8.909302 13.793154 2.384979 0.517647
8.909301 13.793152 1.615021 0.624170
8.909299 13.793150 0.844237 0.580392
8.909299 13.793148 0.070969 0.695277
12.206911 18.973850 0.000024 0.226623
14.302245 22.265717 0.000018 0.220759
15.639942 24.367304 0.000014 0.238400
16.569696 25.827991 0.000012 0.199660
17.254700 26.904161 0.000010 0.208815
4.489960 7.258566 9.868423 0.657465
4.489958 7.258564 8.784451 0.710170
4.489962 7.258568 7.715699 0.550118
6.171926 9.860727 6.199997 0.626184
6.059817 9.687284 5.281031 0.415610
8.909296 14.095703 3.908149 0.516365
8.909307 14.095720 3.143251 0.567834
8.909304 14.095715 2.380812 0.568780
8.909301 14.095711 1.619188 0.613596
8.909298 14.095707 0.856748 0.482353
8.909297 14.095705 0.091850 0.679286
12.104751 19.039379 0.000023 0.217743
14.223017 22.316540 0.000018 0.210658
15.575354 24.408735 0.000014 0.292866
16.515282 25.862896 0.000012 0.221920
17.207779 26.934258 0.000010 0.243929
nan nan nan 0.000000
nan nan nan 0.000000
4.179092 7.184584 7.757851 0.369543
6.138614 10.170221 6.164225 0.634974
8.997351 14.525959 4.630159 0.662730
8.909297 14.391796 3.887805 0.616449
8.909307 14.391811 3.131063 0.689677
8.952735 14.457981 2.375457 0.405982
8.931196 14.425163 1.623901 0.294697
8.909297 14.391794 0.868936 0.549554
8.909298 14.391798 0.112194 0.468421
12.003050 19.105616 0.000023 0.220484
14.144144 22.367908 0.000018 0.250224
15.511052 24.450615 0.000014 0.225881
16.461111 25.898176 0.000012 0.208719
17.161072 26.964678 0.000010 0.208743
nan nan nan 0.000000
nan nan nan 0.000000
4.323681 7.799965 7.649940 0.364630
5.970131 10.270811 6.165565 0.498543
8.997367 14.813824 4.602536 0.628656
8.909300 14.681660 3.867980 0.504326
8.909312 14.681679 3.119184 0.768261
8.936358 14.722269 2.371996 0.328313
8.952741 14.746853 1.628487 0.352300
8.909295 14.681654 0.880814 0.524712
8.909296 14.681654 0.132019 0.499733
11.901814 19.172565 0.000023 0.224721
14.065632 22.419834 0.000018 0.249386
15.447047 24.492943 0.000014 0.235025
16.407188 25.933838 0.000011 0.229603
17.114578 26.995426 0.000010 0.264753
nan nan nan 0.000000
2.500187 5.491274 9.339911 0.622889
4.462311 8.391771 7.546478 0.353765
5.970137 10.620707 6.122473 0.602029
8.873343 14.912354 4.601079 0.644816
8.909299 14.965504 3.848657 0.553429
8.909311 14.965523 3.107607 0.743374
8.909305 14.965513 2.368939 0.747524
8.909298 14.965504 1.631061 0.534676
8.909296 14.965502 0.892391 0.535607
8.909296 14.965500 0.151342 0.714015
11.801051 19.240219 0.000023 0.244599
13.987484 22.472301 0.000018 0.244874
15.383339 24.535715 0.000014 0.237754
16.353518 25.969875 0.000012 0.219431
17.068300 27.026497 0.000010 0.232129
nan nan nan 0.000000
2.240900 5.532812 9.364037 0.653666
4.595350 8.961439 7.447192 0.275715
5.970131 10.963444 6.080464 0.682261
8.528315 14.688753 4.644689 0.399573
8.909301 15.243559 3.829818 0.523720
8.909313 15.243578 3.096320 0.523217
8.909307 15.243568 2.365179 0.504143
8.909301 15.243559 1.634821 0.576043
8.909295 15.243551 0.903678 0.829999
8.909296 15.243553 0.170181 0.504570
11.700759 19.308575 0.000023 0.218856
13.909700 22.525311 0.000017 0.214297
15.319931 24.578934 0.000014 0.224924
16.300097 26.006283 0.000012 0.237191
17.022238 27.057892 0.000010 0.213997
nan nan nan 0.000000
2.008286 5.615353 9.377962 0.357839
4.723104 9.510214 7.351850 0.334462
5.970126 11.299273 6.039497 0.534707
8.319914 14.670437 4.660062 0.411307
8.997361 15.642345 3.798819 0.639979
8.909313 15.516027 3.085313 0.760235
8.909307 15.516020 2.361512 0.517647
8.909301 15.516010 1.638487 0.663020
8.909296 15.516001 0.914685 0.656138
8.909295 15.516001 0.188552 0.500237
11.600946 19.377623 0.000023 0.231949
13.832294 22.578865 0.000017 0.242684
15.256826 24.622593 0.000014 0.215098
16.246933 26.043064 0.000011 0.213052
16.976400 27.089607 0.000010 0.242960
nan nan nan 0.000000
2.204298 6.305357 9.231672 0.309575
4.845871 10.039289 7.260229 0.321645
5.970120 11.628450 5.999537 0.617563
8.108722 14.651419 4.675816 0.340551
8.997372 15.907549 3.781023 0.650767
8.909315 15.783079 3.074576 0.482704
8.909307 15.783068 2.357936 0.529732
8.909301 15.783058 1.642064 0.603922
8.909295 15.783051 0.925422 0.807752
8.909295 15.783051 0.206472 0.679835
11.501621 19.447372 0.000023 0.223320
13.755262 22.632957 0.000017 0.221537
15.194027 24.666691 0.000014 0.214033
16.194025 26.080215 0.000011 0.248369
16.930780 27.121639 0.000009 0.214979
nan nan nan 0.000000
2.391794 6.967299 9.091745 0.344732
4.963928 10.549768 7.172122 0.342840
5.970122 11.951199 5.960549 0.740078
7.895033 14.632215 4.691882 0.445579
8.879930 16.003983 3.780173 0.632578
8.909316 16.044910 3.064101 0.566445
8.909310 16.044903 2.354447 0.545556
8.909305 16.044895 1.645553 0.556359
8.909297 16.044884 0.935897 0.628260
8.909293 16.044880 0.223955 0.715267
11.402783 19.517815 0.000023 0.217157
13.678612 22.687590 0.000017 0.225463
15.131538 24.711227 0.000014 0.206876
16.141380 26.117737 0.000011 0.255442
16.885387 27.153992 0.000010 0.246562
nan nan nan 0.000000
2.571266 7.602886 8.957800 0.317769
5.077541 11.042686 7.087332 0.364279
5.970123 12.267731 5.922504 0.544488
7.678582 14.612547 4.708308 0.287724
8.549959 15.808489 3.809018 0.342657
8.909312 16.301691 3.053879 0.520806
8.909308 16.301687 2.351042 0.541283
8.909303 16.301680 1.648957 0.580301
8.909296 16.301668 0.946119 0.545144
8.909291 16.301662 0.241015 0.500954
11.304440 19.588943 0.000023 0.224242
13.602343 22.742752 0.000018 0.222471
15.069361 24.756197 0.000013 0.271299
16.088997 26.155622 0.000011 0.261390
16.840221 27.186659 0.000010 0.264286
nan nan nan 0.000000
2.743242 8.213795 8.829453 0.346166
5.186941 11.518974 7.005687 0.238773
5.970126 12.578257 5.885370 0.477440
7.459291 14.592402 4.725103 0.267063
8.347718 15.794031 3.819785 0.374594
8.997353 16.672680 3.036627 0.648890
8.997355 16.672684 2.345296 0.657282
8.997353 16.672682 1.654704 0.652491
8.997354 16.672682 0.963372 0.633661
8.997355 16.672686 0.269813 0.648280
11.206598 19.660755 0.000023 0.214033
13.526461 22.798447 0.000017 0.197865
15.007501 24.801601 0.000014 0.188697
16.036880 26.193874 0.000011 0.192443
16.795284 27.219641 0.000010 0.241739
nan nan nan 0.000000
2.908142 8.801455 8.706386 0.420783
5.292345 11.979513 6.927025 0.375448
5.970122 12.882965 5.849120 0.691737
7.237115 14.571823 4.742269 0.385290
8.143023 15.779364 3.830775 0.383658
8.957363 16.864853 3.030230 0.654902
8.965491 16.875687 2.342943 0.635294
8.965706 16.875973 1.657063 0.670329
8.965666 16.875919 0.970450 0.633555
8.965640 16.875885 0.281622 0.653773
11.109256 19.733250 0.000022 0.224002
13.450970 22.854671 0.000017 0.216247
14.945955 24.847435 0.000013 0.238304
15.985034 26.232491 0.000011 0.236676
16.750580 27.252934 0.000009 0.239920
nan nan nan 0.000000
3.066391 9.367264 8.588284 0.365057
5.393963 12.425127 6.851189 0.377676
5.970115 13.182051 5.813725 0.672221
5.970078 13.182005 4.957710 0.567025
7.935643 15.764280 3.842013 0.381964
8.772630 16.863878 3.035739 0.642420
8.781901 16.876057 2.344750 0.652232
8.781667 16.875750 1.655244 0.652384
8.781720 16.875820 0.964998 0.656214
8.781752 16.875862 0.272530 0.650782
11.012425 19.806427 0.000022 0.233230
13.375872 22.911419 0.000017 0.251361
14.884735 24.893700 0.000013 0.231291
15.933456 26.271465 0.000011 0.241894
16.706108 27.286541 0.000009 0.219299
nan nan nan 0.000000
3.218367 9.912468 8.474863 0.353643
5.491983 12.856573 6.778036 0.358587
5.970115 13.475706 5.779157 0.562982
5.970197 13.475811 4.930879 0.547753
7.725538 15.748800 3.853503 0.422446
8.997359 17.395681 3.008288 0.637644
8.997354 17.395674 2.335856 0.648844
8.997354 17.395674 1.664144 0.646799
8.997353 17.395674 0.991711 0.646448
8.997352 17.395672 0.317111 0.635599
10.916111 19.880272 0.000022 0.210886
13.301174 22.968693 0.000017 0.252570
14.823839 24.940390 0.000014 0.228263
15.882154 26.310799 0.000011 0.237562
16.661873 27.320457 0.000009 0.206721
nan nan nan 0.000000
3.364422 10.438251 8.365860 0.338384
5.586583 13.274574 6.707433 0.328618
5.970110 13.764097 5.745390 0.658625
5.970185 13.764193 4.904693 0.687312
7.512850 15.733219 3.865219 0.415290
8.997375 17.628035 2.999278 0.649393
8.997375 17.628035 2.332855 0.645762
8.997375 17.628036 1.667145 0.621088
8.997374 17.628035 1.000722 0.660639
8.997375 17.628035 0.332151 0.638880
10.820307 19.954788 0.000022 0.248010
13.226874 23.026480 0.000017 0.230824
14.763270 24.987503 0.000014 0.234103
15.831125 26.350491 0.000011 0.279509
16.617874 27.354681 0.000009 0.233026
nan nan nan 0.000000
3.504879 10.945681 8.261033 0.404410
5.677948 13.679806 6.639250 0.379858
5.970113 14.047403 5.712399 0.582696
5.970174 14.047482 4.879109 0.710842
7.297158 15.717075 3.877213 0.242863
8.909307 17.745457 2.997429 0.778073
8.909309 17.745461 2.332239 0.801526
8.909307 17.745457 1.667761 0.508934
8.909307 17.745455 1.002570 0.511070
8.909305 17.745453 0.335237 0.599970
10.725025 20.029968 0.000022 0.219838
13.152981 23.084787 0.000017 0.265722
14.703029 25.035036 0.000013 0.208564
15.780375 26.390537 0.000011 0.259499
16.574116 27.389210 0.000009 0.274818
nan nan nan 0.000000
3.640055 11.435781 8.160151 0.325307
5.766212 14.072874 6.573379 0.457618
6.038758 14.410917 5.663940 0.459556
5.970162 14.325834 4.854111 0.860471
8.997359 18.080496 3.638804 0.635294
8.909308 17.971287 2.988768 0.618448
8.909307 17.971287 2.329354 0.757000
8.909305 17.971283 1.670646 0.535119
8.909304 17.971281 1.011231 0.530602
8.909304 17.971281 0.349692 0.575296
10.630275 20.105816 0.000022 0.228849
13.079498 23.143614 0.000017 0.235396
14.643122 25.082993 0.000013 0.258434
15.729904 26.430939 0.000011 0.210311
16.530598 27.424046 0.000009 0.214141
nan nan nan 0.000000
3.770201 11.909435 8.063019 0.334707
6.171927 14.846125 6.417619 0.613275
6.038774 14.683311 5.632572 0.431342
5.970156 14.599409 4.829679 0.560372
8.997367 18.300903 3.624774 0.642512
8.909307 18.193230 2.980304 0.508293
8.909307 18.193230 2.326535 0.823392
8.909307 18.193228 1.673465 0.572198
8.909305 18.193226 1.019695 0.566217
8.909306 18.193226 0.363819 0.859068
10.536057 20.182325 0.000022 0.203980
13.006431 23.202950 0.000017 0.230345
14.583557 25.131367 0.000014 0.201192
15.679722 26.471691 0.000011 0.200246
16.487328 27.459185 0.000009 0.234678
nan nan nan 0.000000
3.895622 12.367586 7.969418 0.348409
6.171935 15.111610 6.380332 0.639017
5.970109 14.868315 5.617865 0.553582
5.970158 14.868372 4.805797 0.517647
8.909307 18.411427 3.622370 0.510506
8.909308 18.411427 2.972030 0.586831
8.909309 18.411427 2.323779 0.811566
8.909309 18.411427 1.676221 0.833646
8.909307 18.411423 1.027970 0.571817
8.909306 18.411423 0.377629 0.785840
10.442374 20.259491 0.000022 0.247783
12.933773 23.262791 0.000017 0.251277
14.524323 25.180149 0.000013 0.200258
15.629820 26.512791 0.000011 0.267087
16.444302 27.494621 0.000009 0.267924
1.387192 9.686050 9.841493 0.475502
4.016523 12.810972 7.879185 0.468406
6.171930 15.372641 6.343883 0.661570
5.970122 15.132793 5.587756 0.521279
5.970152 15.132830 4.782449 0.585534
8.909307 18.625969 3.608870 0.486152
8.909309 18.625973 2.963942 0.604150
8.909310 18.625977 2.321084 0.672847
8.909309 18.625973 1.678916 0.488380
8.909307 18.625971 1.036058 0.514153
8.909306 18.625969 0.391130 0.795773
10.349235 20.337303 0.000022 0.218019
12.861538 23.323139 0.000016 0.209509
14.465436 25.229347 0.000013 0.284416
15.580210 26.554239 0.000011 0.221202
16.401524 27.530361 0.000009 0.225379
1.565697 10.231892 9.708274 0.347250
4.133150 13.240383 7.792145 0.335454
6.171930 15.629389 6.308241 0.635294
5.970137 15.392927 5.558316 0.632242
8.997358 18.940170 4.223145 0.619425
8.909308 18.836992 3.595669 0.521309
8.909312 18.836998 2.956032 0.547097
8.909307 18.836992 2.318449 0.831128
8.909307 18.836990 1.681550 0.480903
8.909308 18.836994 1.043967 0.534279
8.909306 18.836990 0.404330 0.618280
10.256638 20.415768 0.000021 0.211711
12.789726 23.383993 0.000017 0.237442
14.406893 25.278961 0.000013 0.190851
15.530886 26.596031 0.000010 0.191976
16.358997 27.566397 0.000009 0.212513
1.737225 10.758337 9.580261 0.338674
4.245722 13.656527 7.708133 0.353323
6.171934 15.881969 6.273385 0.671717
5.970113 15.648796 5.529533 0.628672
8.997364 19.146324 4.205158 0.647059
8.909307 19.044590 3.582760 0.621592
8.909308 19.044590 2.948298 0.542504
8.909309 19.044590 2.315873 0.782498
8.909308 19.044590 1.684126 0.528679
8.909306 19.044586 1.051702 0.522728
8.909305 19.044586 0.417239 0.490074
10.164590 20.494877 0.000021 0.235875
12.718336 23.445343 0.000016 0.231614
14.348696 25.328976 0.000013 0.216798
15.481858 26.638172 0.000011 0.226432
16.316723 27.602730 0.000009 0.265507
1.902161 11.266472 9.457168 0.346288
4.354414 14.060022 7.627016 0.374975
6.171933 16.130501 6.239297 0.655543
5.970126 15.900606 5.501375 0.605005
8.909307 19.248857 4.202924 0.548837
8.909308 19.248859 3.570134 0.806470
8.909311 19.248863 2.940733 0.582818
8.909309 19.248859 2.313354 0.692622
8.909307 19.248857 1.686646 0.505241
8.909306 19.248856 1.059267 0.585397
8.909306 19.248856 0.429865 0.543191
10.073100 20.574625 0.000021 0.228957
12.647385 23.507193 0.000016 0.195363
14.290854 25.379395 0.000013 0.230633
15.433126 26.680649 0.000011 0.217288
16.274704 27.639357 0.000009 0.191953
2.060873 11.757317 9.338718 0.264302
4.459421 14.451517 7.548644 0.429953
6.171931 16.375114 6.205950 0.629084
5.970133 16.148441 5.473831 0.517830
8.909307 19.449909 4.185595 0.524346
8.909309 19.449909 3.557783 0.768429
8.909308 19.449909 2.933333 0.614847
8.952744 19.498699 2.309820 0.348150
8.952742 19.498695 1.690180 0.388235
8.909305 19.449905 1.066666 0.707042
8.909306 19.449905 0.442216 0.573693
9.982166 20.655012 0.000021 0.238603
12.576861 23.569538 0.000016 0.213902
14.233359 25.430218 0.000013 0.213148
15.384690 26.723467 0.000010 0.256005
16.232941 27.676275 0.000009 0.257668
2.213678 12.231775 9.224678 0.305028
4.560928 14.831579 7.472889 0.258167
6.171932 16.615921 6.173325 0.651179
8.997364 19.745358 4.776801 0.611765
8.909307 19.647827 4.168641 0.502480
8.909308 19.647827 3.545700 0.666712
8.909312 19.647831 2.926093 0.508522
8.931188 19.672062 2.307943 0.474510
8.931193 19.672070 1.692057 0.501228
8.909308 19.647827 1.073906 0.667521
8.909306 19.647825 0.454300 0.498741
9.891796 20.736027 0.000021 0.232212
12.506776 23.632370 0.000016 0.188602
14.176224 25.481441 0.000013 0.234055
15.336555 26.766621 0.000010 0.270055
16.191439 27.713486 0.000009 0.234522
2.360895 12.690739 9.114808 0.361715
4.659088 15.200752 7.399632 0.359808
6.087215 16.760513 6.164228 0.622797
8.824318 19.749889 4.793571 0.641550
8.909306 19.842709 4.152052 0.474327
8.909309 19.842714 3.533876 0.583764
8.909310 19.842716 2.919010 0.484199
8.952747 19.890156 2.305065 0.345098
8.945881 19.882656 1.694769 0.321080
8.909307 19.842712 1.080990 0.770428
8.909305 19.842709 0.466123 0.488411
9.801995 20.817677 0.000021 0.241535
12.437132 23.695692 0.000016 0.219874
14.119448 25.533066 0.000013 0.232188
15.288723 26.810112 0.000010 0.191426
16.150196 27.750984 0.000009 0.227701
2.502811 13.135000 9.008898 0.319356
4.754051 15.559532 7.328760 0.286412
5.970117 16.869207 6.164131 0.466270
5.970128 16.869219 5.394719 0.682078
8.909308 20.034645 4.135819 0.512642
8.909311 20.034647 3.522305 0.561517
8.909312 20.034649 2.912077 0.488701
8.909310 20.034645 2.303809 0.549187
8.909307 20.034643 1.696191 0.538735
8.909308 20.034645 1.087922 0.712688
8.909307 20.034643 0.477693 0.502327
9.712763 20.899944 0.000020 0.209605
12.367931 23.759499 0.000016 0.209079
14.063032 25.585079 0.000013 0.194681
15.241195 26.853933 0.000010 0.189248
16.109215 27.788769 0.000009 0.215122
2.639671 13.565302 8.906754 0.370230
4.845964 15.908403 7.260165 0.438468
5.970119 17.102268 6.133155 0.501991
5.970131 17.102280 5.369467 0.566720
8.997366 20.317230 4.105155 0.633921
8.909310 20.223717 3.510982 0.595834
8.909312 20.223719 2.905293 0.609232
8.909309 20.223715 2.301549 0.509071
8.909308 20.223713 1.698451 0.529030
8.909308 20.223715 1.094707 0.612345
8.909306 20.223711 0.489017 0.544686
9.624110 20.982841 0.000020 0.201623
12.299175 23.823784 0.000016 0.197769
14.006983 25.637489 0.000013 0.211699
15.193974 26.898087 0.000010 0.175772
16.068497 27.826839 0.000009 0.210981
2.771746 13.982351 8.808186 0.349676
4.934959 16.247803 7.193747 0.390951
5.970124 17.331896 6.102836 0.778668
5.970131 17.331903 5.344749 0.548775
8.997375 20.502224 4.089711 0.617365
8.909312 20.410000 3.499898 0.819303
8.909313 20.410002 2.898652 0.759091
8.909311 20.410000 2.299337 0.482658
8.909310 20.409998 1.700663 0.562112
8.909307 20.409996 1.101347 0.593759
8.909308 20.409996 0.500101 0.852522
9.536043 21.066353 0.000021 0.207188
12.230873 23.888548 0.000016 0.220747
13.951299 25.690287 0.000012 0.264514
15.147062 26.942568 0.000010 0.237718
16.028049 27.865192 0.000008 0.225307
2.899267 14.386822 8.713016 0.400717
5.021168 16.578173 7.129408 0.336965
5.970124 17.558191 6.073155 0.598230
5.970128 17.558195 5.320554 0.573373
8.997374 20.684525 4.074594 0.662608
8.909310 20.593582 3.489048 0.535958
8.909313 20.593582 2.892151 0.773693
8.909310 20.593582 2.297171 0.516121
8.909309 20.593578 1.702829 0.597742
8.909307 20.593578 1.107848 0.522393
8.909307 20.593576 0.510951 0.631449
9.448555 21.150475 0.000020 0.215733
12.163024 23.953793 0.000016 0.224218
13.895985 25.743473 0.000012 0.202221
15.100465 26.987377 0.000010 0.222590
15.987870 27.903830 0.000008 0.208552
3.022453 14.779316 8.621082 0.315953
5.104708 16.899899 7.067061 0.339391
5.970122 17.781242 6.044097 0.560250
5.970127 17.781246 5.296866 0.710109
8.862539 20.726902 4.081933 0.666926
8.909311 20.774532 3.478425 0.526558
8.909313 20.774534 2.885786 0.772717
8.909312 20.774532 2.295051 0.783368
8.909310 20.774532 1.704949 0.562997
8.909309 20.774530 1.114213 0.807157
8.909307 20.774529 0.521574 0.801862
9.361654 21.235203 0.000020 0.198942
12.095629 24.019501 0.000015 0.188901
13.841043 25.797045 0.000012 0.234247
15.054177 27.032509 0.000010 0.220257
15.947960 27.942743 0.000008 0.272077
3.141497 15.160402 8.532240 0.335729
5.185678 17.213343 7.006628 0.339788
5.970124 18.001150 6.015645 0.493294
5.970126 18.001152 5.273671 0.824277
8.465328 20.507046 4.132048 0.297154
8.909311 20.952932 3.468023 0.520684
8.909312 20.952934 2.879554 0.777356
8.909310 20.952930 2.292976 0.518776
8.909310 20.952930 1.707025 0.551339
8.909308 20.952930 1.120445 0.560174
8.909306 20.952927 0.531976 0.843442
9.275352 21.320543 0.000020 0.215039
12.028699 24.085686 0.000015 0.213531
13.786482 25.851002 0.000012 0.249697
15.008208 27.077965 0.000010 0.223021
15.908322 27.981936 0.000008 0.219120
52.229069 64.031006 12.818354 0.655039
52.228981 64.030914 11.327967 0.660487
52.229012 64.030945 9.858541 0.661112
52.229008 64.030945 8.406513 0.625345
52.229004 64.030945 6.968517 0.621088
52.229004 64.030937 5.541312 0.660655
52.229004 64.030937 4.121749 0.666697
52.229080 64.031013 2.706747 0.631525
52.229076 64.031013 1.293254 0.642924
50.468575 62.287476 -0.000030 0.231231
38.872967 50.803654 -0.000008 0.337270
33.894699 45.873375 -0.000012 0.226432
31.122038 43.127441 -0.000010 0.219826
29.351934 41.374401 -0.000008 0.222315
28.121643 40.155972 -0.000006 0.267865
27.215227 39.258293 -0.000006 0.251146
52.660606 64.031006 12.895424 0.638911
52.660576 64.030975 11.394436 0.624048
52.660591 64.030983 9.914537 0.684779
52.660583 64.030975 8.452162 0.667765
52.660587 64.030983 7.003921 0.663066
52.660583 64.030983 5.566545 0.615366
52.660583 64.030983 4.136868 0.649058
52.660591 64.030991 2.711781 0.633219
52.660622 64.031013 1.288219 0.644709
50.667862 62.084831 -0.000030 0.230070
38.992371 50.682243 -0.000009 0.338796
33.979805 45.786842 -0.000012 0.227449
31.188038 43.060329 -0.000010 0.248572
29.405741 41.319691 -0.000008 0.214835
28.166975 40.109879 -0.000006 0.251098
27.254311 39.218548 -0.000006 0.181481
53.098358 64.030998 12.974138 0.658991
53.098373 64.031006 11.462318 0.665629
53.098366 64.031006 9.971722 0.612024
53.098358 64.030998 8.498779 0.618524
53.098358 64.030998 7.040075 0.648005
53.098358 64.030998 5.592315 0.612863
53.098366 64.030998 4.152307 0.639826
53.098385 64.031021 2.716923 0.677592
53.098373 64.031013 1.283076 0.647059
50.865738 61.880806 -0.000030 0.230321
39.110977 50.560055 -0.000015 0.337804
34.064304 45.699715 -0.000013 0.224409
31.253572 42.992760 -0.000010 0.209773
29.459164 41.264603 -0.000008 0.206805
28.211983 40.063473 -0.000007 0.180691
27.293118 39.178532 -0.000006 0.205536
53.610474 64.095551 13.078018 0.678431
53.542503 64.030998 11.531642 0.651911
53.610474 64.095551 10.047179 0.678431
53.542503 64.030998 8.546391 0.665263
53.610481 64.095551 7.087785 0.678431
53.542503 64.030991 5.618632 0.634745
53.610481 64.095551 4.172681 0.678431
53.542480 64.030975 2.722175 0.647059
53.542526 64.031013 1.277824 0.651682
51.062183 61.675407 -0.000030 0.230812
39.228714 50.437031 -0.000020 0.337743
34.148193 45.612000 -0.000013 0.227341
31.318630 42.924732 -0.000010 0.230561
29.512201 41.209148 -0.000008 0.258314
28.256666 40.016750 -0.000007 0.183659
27.331646 39.138248 -0.000006 0.253934
54.062164 64.095558 13.160331 0.678431
53.993233 64.030998 11.602462 0.613581
54.062172 64.095566 10.106976 0.678431
53.993233 64.030991 8.595032 0.594888
54.062164 64.095558 7.125587 0.678431
53.993233 64.030991 5.645520 0.652949
54.062172 64.095558 4.188825 0.678431
53.993202 64.030975 2.727541 0.669337
53.993240 64.031006 1.272458 0.625360
51.257187 61.468636 -0.000031 0.228191
39.345451 50.313057 -0.000009 0.339132
34.231468 45.523705 -0.000013 0.223225
31.383213 42.856255 -0.000010 0.205991
29.564850 41.153320 -0.000008 0.278791
28.301022 39.969719 -0.000007 0.295869
27.369892 39.097698 -0.000006 0.192958
54.520653 64.095573 13.244434 0.678431
54.450729 64.030998 11.674818 0.642054
54.520653 64.095581 10.168067 0.678431
54.450714 64.030991 8.644726 0.632746
54.520653 64.095573 7.164212 0.678431
54.450714 64.030991 5.672988 0.646891
54.520653 64.095573 4.205318 0.678431
54.450714 64.030983 2.733023 0.618173
54.450737 64.031006 1.266976 0.632883
51.450752 61.260521 -0.000031 0.230369
39.461292 50.188244 0.000005 0.336065
34.314125 45.434830 -0.000014 0.246203
31.447315 42.787327 -0.000010 0.243426
29.617109 41.097130 -0.000008 0.209725
28.345047 39.922379 -0.000007 0.228502
27.407852 39.056881 -0.000006 0.255346
54.986092 64.095558 13.330359 0.678431
54.915192 64.030998 11.748754 0.673304
54.986084 64.095551 10.230481 0.678431
54.915176 64.030983 8.695503 0.647059
54.986084 64.095558 7.203674 0.678431
54.915184 64.030991 5.701056 0.620523
54.986092 64.095558 4.222170 0.678431
54.915192 64.030998 2.738625 0.619257
54.915207 64.031006 1.261374 0.630564
51.642853 61.051048 -0.000032 0.229256
39.576271 50.062637 0.000018 0.335348
34.396156 45.345375 -0.000013 0.213830
31.510935 42.717953 -0.000010 0.268020
29.668972 41.040573 -0.000008 0.203454
28.388742 39.874733 -0.000007 0.217899
27.445528 39.015797 -0.000006 0.248309
55.386833 64.030991 13.393965 0.638483
55.386833 64.030998 11.824307 0.639902
55.386826 64.030991 10.276686 0.646555
55.386826 64.030983 8.747395 0.647059
55.386826 64.030991 7.232886 0.632303
55.386826 64.030991 5.729742 0.652125
55.386826 64.030991 4.234645 0.635294
55.386833 64.030998 2.744350 0.661036
55.386841 64.031006 1.255650 0.635691
51.833485 60.840237 -0.000031 0.226001
39.690495 49.936344 0.000017 0.337209
34.477562 45.255352 -0.000013 0.250523
31.574070 42.648140 -0.000010 0.234020
29.720444 40.983658 -0.000009 0.228562
28.432104 39.826786 -0.000007 0.215445
27.482914 38.974453 -0.000006 0.267542
55.865868 64.030998 13.483525 0.669795
55.865875 64.031006 11.901532 0.633982
55.865875 64.030998 10.341745 0.623529
55.865868 64.030998 8.800434 0.642847
55.865875 64.030998 7.274021 0.637415
55.865860 64.030991 5.759058 0.623072
55.865875 64.031006 4.252211 0.634379
55.865868 64.030991 2.750201 0.641810
55.904884 64.065536 1.248947 0.124697
52.022652 60.628109 -0.000031 0.223919
39.803844 49.809265 0.000014 0.337758
34.558342 45.164764 -0.000013 0.247747
31.636719 42.577885 -0.000010 0.253467
29.771515 40.926384 -0.000008 0.231937
28.475128 39.778530 -0.000007 0.233708
27.520012 38.932846 -0.000006 0.194442
56.352531 64.031006 13.575077 0.643748
56.352531 64.031006 11.980469 0.625177
56.352524 64.031006 10.408246 0.619669
56.352531 64.031006 8.854650 0.632715
56.352531 64.031006 7.316067 0.664668
56.352531 64.031006 5.789027 0.632959
56.352531 64.031006 4.270165 0.644556
56.352509 64.030983 2.756181 0.611765
56.392075 64.065529 1.242959 0.133272
52.210320 60.414658 -0.000031 0.229125
39.916367 49.681450 0.000006 0.338201
34.638485 45.073616 -0.000014 0.235492
31.698872 42.507195 -0.000010 0.206146
29.822182 40.868752 -0.000008 0.217073
28.517815 39.729980 -0.000007 0.274100
27.556818 38.890984 -0.000006 0.248848
56.847038 64.031021 13.668673 0.656550
56.847046 64.031021 12.061172 0.647059
56.847038 64.031013 10.476236 0.662928
56.847031 64.031013 8.910076 0.635294
56.847046 64.031021 7.359053 0.623896
56.847046 64.031021 5.819666 0.647059
56.847031 64.031013 4.288522 0.627298
56.847008 64.030991 2.762295 0.630701
56.847000 64.030991 1.237704 0.620722
52.396488 60.199898 -0.000032 0.232691
40.027992 49.552856 -0.000003 0.338109
34.717991 44.981911 -0.000014 0.208492
31.760529 42.436069 -0.000010 0.238400
29.872448 40.810776 -0.000009 0.205680
28.560162 39.681133 -0.000007 0.248166
27.593332 38.848866 -0.000006 0.208576
57.425690 64.095573 13.789360 0.678431
57.361473 64.041077 12.147042 0.752941
57.425682 64.095566 10.563904 0.678431
57.349617 64.031013 8.966745 0.623484
57.425682 64.095566 7.414479 0.678431
57.349617 64.031013 5.850991 0.632380
57.425674 64.095566 4.312191 0.678431
57.349579 64.030983 2.768546 0.647059
57.349586 64.030991 1.231453 0.611765
52.581161 59.983849 -0.000031 0.228730
40.138721 49.423492 -0.000013 0.337377
34.796848 44.889645 -0.000014 0.234295
31.821686 42.364517 -0.000010 0.214524
29.922306 40.752441 -0.000008 0.253790
28.602167 39.631989 -0.000007 0.192706
27.629551 38.806496 -0.000007 0.229053
57.937691 64.095573 13.887430 0.678431
57.937683 64.095566 12.249786 0.678431
57.937675 64.095566 10.635141 0.678431
57.860512 64.030991 9.024693 0.654902
57.937675 64.095566 7.459518 0.678431
57.860519 64.031006 5.883023 0.628717
57.937675 64.095566 4.331426 0.678431
57.860497 64.030983 2.774940 0.659403
57.860512 64.030991 1.225060 0.627512
52.764320 59.766518 -0.000031 0.228766
40.248455 49.293274 -0.000012 0.337881
34.875061 44.796837 -0.000014 0.228814
31.882347 42.292542 -0.000010 0.211424
29.971760 40.693764 -0.000009 0.245437
28.643829 39.582558 -0.000007 0.268607
27.665472 38.763870 -0.000006 0.242720
58.392258 64.041084 13.966286 0.772015
58.392334 64.041153 12.317804 0.709270
58.392334 64.041153 10.692444 0.707256
58.380013 64.030991 9.083963 0.614023
58.392326 64.041145 7.495747 0.708827
58.380013 64.030991 5.915786 0.639887
58.392342 64.041153 4.346897 0.710323
58.380005 64.030983 2.781479 0.613886
58.380020 64.030998 1.218521 0.636393
52.945961 59.547916 -0.000032 0.231243
40.357330 49.162342 -0.000019 0.336156
34.952629 44.703484 -0.000014 0.251612
31.942505 42.220142 -0.000011 0.257548
30.020798 40.634743 -0.000009 0.178189
28.685144 39.532833 -0.000008 0.191222
27.701096 38.720997 -0.000006 0.243390
58.628456 63.803307 13.974309 0.673915
58.912628 64.034431 12.403816 0.731838
58.912582 64.034393 10.764896 0.736141
58.908371 64.030975 9.144595 0.654200
58.912613 64.034424 7.541559 0.717922
58.908379 64.030975 5.949300 0.622309
58.912628 64.034431 4.366461 0.723095
58.908401 64.030991 2.788167 0.613931
58.908409 64.030998 1.211832 0.616999
53.126068 59.328049 -0.000032 0.231554
40.465279 49.030643 -0.000022 0.339742
35.029545 44.609596 -0.000014 0.218042
32.002148 42.147324 -0.000010 0.217803
30.069424 40.575378 -0.000009 0.245712
28.726109 39.482819 -0.000007 0.220735
27.736418 38.677876 -0.000006 0.261091
58.776825 63.494507 13.954629 0.653101
59.445915 64.030983 12.492957 0.640909
59.445915 64.030983 10.840004 0.669856
59.445923 64.030983 9.206633 0.622477
59.445923 64.030991 7.589043 0.617731
59.445923 64.030991 5.983592 0.625208
59.445923 64.030991 4.386738 0.631113
59.445930 64.030991 2.795011 0.654627
59.445946 64.031006 1.204989 0.634745
53.304642 59.106934 -0.000032 0.231913
40.572266 48.898163 -0.000022 0.336721
35.105797 44.515167 -0.000014 0.235839
32.061287 42.074093 -0.000011 0.243642
30.117636 40.515678 -0.000009 0.239932
28.766726 39.432526 -0.000007 0.201838
27.771439 38.634506 -0.000006 0.195938
59.107285 63.331005 13.993883 0.682567
59.992920 64.031006 12.585389 0.672404
59.992912 64.030998 10.917876 0.620127
59.992912 64.030998 9.270112 0.632074
59.992912 64.030998 7.638276 0.631571
59.992912 64.030998 6.018682 0.650126
59.992905 64.030991 4.407761 0.634974
59.992905 64.030991 2.802014 0.658030
59.992920 64.031006 1.197985 0.634516
53.481651 58.884560 -0.000032 0.229615
40.678299 48.764915 -0.000019 0.337255
35.181389 44.420212 -0.000014 0.234307
32.119915 42.000450 -0.000011 0.242732
30.165432 40.455643 -0.000009 0.200881
28.806992 39.381947 -0.000008 0.231231
27.806156 38.590897 -0.000006 0.293368
59.671982 63.347214 14.107667 0.676982
60.549622 64.030991 12.679978 0.659800
60.432083 63.939415 10.970451 0.648676
60.432091 63.939415 9.312976 0.623529
60.432030 63.939377 7.671509 0.647562
60.432030 63.939369 6.042369 0.658167
60.431999 63.939346 4.421952 0.635294
60.432114 63.939434 2.806742 0.647059
60.549637 64.031006 1.190819 0.636164
53.657120 58.660973 -0.000033 0.225941
40.783371 48.630913 -0.000015 0.336690
35.256321 44.324734 -0.000015 0.221848
32.178024 41.926399 -0.000011 0.257919
30.212805 40.395279 -0.000009 0.204255
28.846903 39.331093 -0.000008 0.213004
27.840569 38.547047 -0.000007 0.221453
61.111053 64.026878 14.496956 0.689433
61.116409 64.030975 12.776804 0.651926
60.432045 63.505424 10.922132 0.623529
60.432068 63.505447 9.273588 0.633127
60.431999 63.505394 7.640961 0.629602
60.432083 63.505455 6.020605 0.636210
60.432030 63.505417 4.408910 0.635828
60.432106 63.505478 2.802399 0.642481
61.116425 64.030998 1.183483 0.633646
53.831024 58.436165 -0.000033 0.228215
40.887573 48.496227 -0.000016 0.338720
35.330578 44.228725 -0.000014 0.216379
32.235615 41.851944 -0.000011 0.216164
30.259752 40.334579 -0.000009 0.247950
28.886456 39.279953 -0.000007 0.206254
27.874674 38.502956 -0.000007 0.211005
61.686569 64.025665 14.611413 0.661021
61.693588 64.030975 12.875934 0.628931
60.431854 63.075958 10.874724 0.633417
60.431877 63.075974 9.234940 0.633463
60.431885 63.075977 7.610998 0.633127
60.431847 63.075951 5.999237 0.635752
60.431892 63.075985 4.396114 0.631922
60.431938 63.076015 2.798136 0.663066
61.693611 64.030991 1.175972 0.647059
54.003342 58.210136 -0.000033 0.228586
40.990913 48.360878 -0.000025 0.337911
35.404167 44.132206 -0.000014 0.217145
32.292686 41.777092 -0.000011 0.214919
30.306278 40.273556 -0.000009 0.251301
28.925652 39.228542 -0.000007 0.249590
27.908470 38.458626 -0.000007 0.265746
62.069000 63.872433 14.664939 0.646830
62.281532 64.030975 12.977456 0.663890
60.432213 62.651413 10.828370 0.640299
60.432182 62.651382 9.197141 0.626215
60.432228 62.651421 7.581688 0.617975
60.432152 62.651367 5.978343 0.613092
60.432152 62.651363 4.383593 0.619120
60.432121 62.651344 2.793962 0.623392
62.281548 64.030991 1.168280 0.617655
54.174103 57.982933 -0.000034 0.229639
41.093060 48.224632 -0.000010 0.337530
35.477081 44.035179 -0.000015 0.224086
32.349236 41.701839 -0.000011 0.213746
30.352379 40.212212 -0.000010 0.230860
28.964489 39.176861 -0.000008 0.268726
27.941957 38.414066 -0.000007 0.220089
62.211258 63.538902 14.643852 0.656748
62.880585 64.030983 13.081432 0.670451
60.431618 62.230560 10.782711 0.656794
60.431610 62.230545 9.159920 0.679408
60.431633 62.230568 7.552820 0.657481
60.431648 62.230583 5.957776 0.677073
60.431641 62.230572 4.371269 0.614984
60.431580 62.230522 2.789858 0.615991
60.635796 62.380661 1.205995 0.667308
54.343269 57.754536 -0.000034 0.229376
41.194412 48.087791 -0.000011 0.335821
35.549316 43.937637 -0.000015 0.236676
32.405258 41.626198 -0.000011 0.227868
30.398048 40.150543 -0.000010 0.248549
29.002964 39.124908 -0.000008 0.189499
27.975132 38.369270 -0.000007 0.272819
62.352272 63.205921 14.623216 0.669245
63.580215 64.095535 13.211709 0.678431
60.675667 61.991257 10.792911 0.645319
60.675003 61.990776 9.168118 0.624491
60.675407 61.991066 7.559230 0.625925
60.557289 61.905491 5.950384 0.697978
60.677734 61.992752 4.374147 0.636774
60.556992 61.905281 2.788377 0.710765
63.538841 64.065559 1.151368 0.137255
54.510818 57.524956 -0.000034 0.227473
41.294716 47.950180 -0.000002 0.337850
35.620865 43.839603 -0.000015 0.240734
32.460747 41.550163 -0.000011 0.232141
30.443285 40.088558 -0.000010 0.197350
29.041075 39.072689 -0.000008 0.172648
28.007992 38.324242 -0.000007 0.208348
62.565643 62.925964 14.625664 0.670680
64.204010 64.095581 13.321094 0.678431
61.345993 62.055279 10.898736 0.678431
61.286514 62.012817 9.243668 0.749187
61.346001 62.055283 7.626175 0.678431
61.269707 62.000816 6.002371 0.746273
