# This PCD file was generated using the MATLABÂ® pcwrite function
# from Computer Vision ToolboxÂ®.
# .PCD v.7 - Point Cloud Data file format
VERSION .7
FIELDS x y z intensity
SIZE 4 4 4 4
TYPE F F F F
COUNT 1 1 1 1
WIDTH 1286
HEIGHT 1
VIEWPOINT 0 0 0 1 0 0 0
POINTS 1286
DATA ascii
nan nan nan 0.000000
nan nan nan 0.000000
nan nan nan 0.000000
68.090614 36.926239 -0.000049 0.228203
52.499069 41.747452 -0.000029 0.227114
45.805130 43.817348 -0.000021 0.213961
42.076981 44.970165 -0.000015 0.216451
39.696892 45.706139 -0.000012 0.221226
38.042641 46.217663 -0.000010 0.226085
36.823864 46.594532 -0.000009 0.289862
44.410641 44.131924 5.997905 0.223529
44.458965 44.116611 5.458094 0.223529
48.796410 42.742142 5.741244 0.223529
48.784969 42.745766 5.048191 0.223529
48.843761 42.727135 4.371094 0.223529
48.902473 42.708530 3.695048 0.223529
nan nan nan 0.000000
nan nan nan 0.000000
nan nan nan 0.000000
68.005692 36.655006 -0.000048 0.230728
52.448189 41.584946 -0.000029 0.223715
45.768867 43.701523 -0.000021 0.233062
42.048859 44.880337 -0.000015 0.249434
39.673965 45.632908 -0.000012 0.204543
38.023323 46.155972 -0.000010 0.212561
36.807213 46.541336 -0.000008 0.246705
44.395985 44.019535 6.003008 0.223529
44.444336 44.003841 5.462523 0.223529
44.492302 43.988274 4.926249 0.223529
44.701225 43.920456 4.418146 0.223529
48.762161 42.602341 4.366539 0.223529
48.820465 42.583416 3.691778 0.223529
48.878853 42.564465 3.016631 0.223529
nan nan nan 0.000000
nan nan nan 0.000000
67.918900 36.384361 -0.000048 0.229161
52.396187 41.422791 -0.000029 0.239453
45.731796 43.585949 -0.000020 0.218952
42.020111 44.790707 -0.000015 0.217312
39.650528 45.559837 -0.000012 0.267960
38.003578 46.094410 -0.000010 0.203382
36.790188 46.488258 -0.000008 0.201252
44.381271 43.906857 6.008314 0.223529
44.429638 43.890781 5.467128 0.223529
44.477631 43.874832 4.930153 0.223529
44.525345 43.858978 4.396206 0.223529
44.572887 43.843178 3.864120 0.223529
44.938732 43.721600 3.360263 0.223529
48.796837 42.439476 3.014719 0.223529
48.854984 42.420155 2.339001 0.223529
nan nan nan 0.000000
67.830200 36.114326 -0.000048 0.228921
52.343048 41.261002 -0.000029 0.236988
45.693924 43.470634 -0.000020 0.225726
41.990738 44.701275 -0.000015 0.215410
39.626579 45.486931 -0.000012 0.240877
37.983406 46.032990 -0.000010 0.195208
36.772789 46.435299 -0.000008 0.235492
48.390644 42.425312 7.078519 0.223529
nan nan nan 0.000000
44.462902 43.761097 4.934209 0.223529
44.510643 43.744858 4.399533 0.223529
44.558212 43.728680 3.866718 0.223529
44.605713 43.712528 3.334618 0.223529
44.758518 43.660561 2.807554 0.223529
48.772972 42.295288 2.338380 0.223529
48.831055 42.275532 1.660616 0.223529
48.889538 42.255642 0.978086 0.223529
52.288780 41.099594 -0.000029 0.230202
45.655243 43.355595 -0.000020 0.206553
41.960743 44.612053 -0.000015 0.206051
39.602127 45.414196 -0.000012 0.251672
37.962803 45.971710 -0.000010 0.257118
36.755028 46.382462 -0.000008 0.245760
48.311150 42.303101 7.069646 0.223529
nan nan nan 0.000000
nan nan nan 0.000000
nan nan nan 0.000000
44.543480 43.613865 3.869412 0.223529
44.591011 43.597328 3.336550 0.223529
44.638573 43.580780 2.803257 0.223529
44.686272 43.564186 2.268388 0.223529
44.988132 43.459171 1.726382 0.223529
48.807121 42.130554 0.979916 0.223529
48.865795 42.110142 0.292331 0.223529
45.615761 43.240822 -0.000020 0.225163
41.930122 44.523045 -0.000015 0.232583
39.577164 45.341629 -0.000012 0.207642
37.941772 45.910580 -0.000010 0.206697
36.736900 46.329750 -0.000009 0.201539
48.231911 42.181324 7.061046 0.223529
nan nan nan 0.000000
nan nan nan 0.000000
nan nan nan 0.000000
nan nan nan 0.000000
44.576244 43.481800 3.338552 0.223529
44.623840 43.464867 2.804464 0.223529
44.671574 43.447887 2.268792 0.223529
44.719543 43.430820 1.730374 0.223529
44.804722 43.400520 1.186104 0.223529
48.783329 41.985161 0.295309 0.223529
45.575485 43.126328 -0.000020 0.208169
41.898884 44.434250 -0.000015 0.271706
39.551701 45.269245 -0.000012 0.230274
37.920322 45.849594 -0.000010 0.228024
36.718399 46.277168 -0.000009 0.214931
48.152912 42.059956 7.052716 0.223529
nan nan nan 0.000000
nan nan nan 0.000000
89.017929 27.200329 11.442241 0.223529
89.030357 27.195812 9.324373 0.223529
nan nan nan 0.000000
nan nan nan 0.000000
44.656822 43.331230 2.269212 0.223529
44.704826 43.313774 1.729953 0.223529
44.753181 43.296192 1.186751 0.223529
44.801994 43.278442 0.638386 0.223529
45.042503 43.190987 0.060194 0.223529
41.867027 44.345676 -0.000015 0.221884
39.525726 45.197037 -0.000012 0.195986
37.898441 45.788761 -0.000010 0.187752
36.699532 46.224716 -0.000008 0.228778
48.074150 41.938995 7.044651 0.223529
nan nan nan 0.000000
nan nan nan 0.000000
nan nan nan 0.000000
88.033752 27.091936 9.220884 0.968627
88.033852 27.091900 7.146696 0.968627
87.271889 27.375008 5.043669 0.968856
48.482895 41.787125 2.336694 0.223529
44.690063 43.196358 1.729517 0.223529
44.738453 43.178379 1.185434 0.223529
44.787296 43.160229 0.636173 0.223529
44.836716 43.141869 0.080464 0.223529
41.834549 44.257328 -0.000015 0.232631
39.499252 45.125011 -0.000012 0.223284
37.876137 45.728085 -0.000010 0.267458
36.680298 46.172398 -0.000008 0.209043
47.995617 41.818417 7.036854 0.223529
nan nan nan 0.000000
nan nan nan 0.000000
nan nan nan 0.000000
86.457207 27.221565 9.045851 0.223529
86.457199 27.221567 7.021930 0.223529
86.052826 27.375032 4.987603 0.980392
48.402042 41.664169 2.336164 0.223529
44.702820 43.068089 1.728583 0.223529
67.258667 34.507751 -0.000048 0.231111
44.772560 43.041622 0.633885 0.223529
44.822014 43.022854 0.077235 0.223529
41.801456 44.169209 -0.000015 0.246131
39.472271 45.053173 -0.000011 0.219335
37.853409 45.667561 -0.000010 0.232847
36.660702 46.120216 -0.000008 0.257082
47.917297 41.698212 7.029317 0.223529
nan nan nan 0.000000
nan nan nan 0.000000
nan nan nan 0.000000
85.608269 27.091991 8.959999 0.968627
85.608353 27.091959 6.960751 0.968627
48.485016 41.478207 3.016287 0.271260
48.321445 41.541595 2.335650 0.223529
44.687927 42.949677 1.728117 0.223529
67.156876 34.242378 -0.000048 0.228371
51.939636 40.139454 -0.000028 0.228969
45.406395 42.671253 -0.000020 0.236605
41.767750 44.081322 -0.000014 0.215398
39.444798 44.981525 -0.000012 0.248896
37.830257 45.607201 -0.000010 0.247675
36.640743 46.068169 -0.000008 0.301099
47.839195 41.578369 7.022046 0.223529
nan nan nan 0.000000
nan nan nan 0.000000
86.229858 26.391882 11.098098 0.223529
84.459930 27.092028 8.836987 0.968627
46.676292 42.038387 3.541393 0.223529
46.676949 42.038128 2.923548 0.223529
46.043434 42.288731 2.296481 0.966796
44.672985 42.830849 1.727636 0.223529
67.053223 33.977730 -0.000046 0.229807
51.877548 39.980885 -0.000028 0.231159
45.362141 42.558235 -0.000019 0.226181
41.733433 43.993671 -0.000015 0.200916
39.416817 44.910072 -0.000011 0.227940
37.806686 45.547001 -0.000010 0.247148
36.620419 46.016266 -0.000008 0.246502
47.761292 41.458874 7.015033 0.223529
nan nan nan 0.000000
nan nan nan 0.000000
86.229828 25.930141 11.123510 0.223529
83.351471 27.092056 8.718572 0.968627
83.351547 27.092028 6.788671 0.968627
48.026508 41.351814 2.997626 0.309758
45.661331 42.306572 2.290566 0.977768
44.657986 42.711597 1.727139 0.223529
66.947769 33.713799 -0.000046 0.230776
51.814358 39.822758 -0.000028 0.220783
45.317108 42.445530 -0.000019 0.238029
41.698502 43.906265 -0.000015 0.206122
39.388344 44.838814 -0.000011 0.225702
37.782696 45.486973 -0.000009 0.223165
36.599735 45.964500 -0.000008 0.190624
47.789383 41.296143 7.036939 0.223529
nan nan nan 0.000000
nan nan nan 0.000000
81.593285 27.375166 10.405714 0.974411
82.280678 27.092085 8.604504 0.968627
82.280762 27.092051 6.707368 0.968627
47.850864 41.270824 2.991138 0.289235
45.288803 42.325924 2.284802 0.958038
44.642933 42.591904 1.726628 0.223529
66.840446 33.450615 -0.000046 0.231734
51.750061 39.665073 -0.000028 0.224290
45.271271 42.333141 -0.000019 0.204435
41.662960 43.819103 -0.000014 0.226576
39.359367 44.767757 -0.000011 0.224062
37.758289 45.427105 -0.000010 0.215996
36.578686 45.912884 -0.000008 0.236748
nan nan nan 0.000000
nan nan nan 0.000000
nan nan nan 0.000000
80.571625 27.375189 10.265782 0.970138
81.245621 27.092112 8.494556 0.968627
44.870415 42.369865 3.394009 0.223529
47.736771 41.165981 2.987940 0.301442
44.934158 42.343094 2.279335 0.980392
44.627823 42.471752 1.726101 0.223529
66.731308 33.188187 -0.000046 0.228143
51.684669 39.507847 -0.000028 0.222088
45.224670 42.221077 -0.000019 0.235599
41.626816 43.732193 -0.000015 0.220077
39.329899 44.696907 -0.000011 0.240494
37.733459 45.367416 -0.000009 0.201347
36.557281 45.861420 -0.000008 0.198738
nan nan nan 0.000000
nan nan nan 0.000000
nan nan nan 0.000000
79.583359 27.375212 10.130821 0.963500
80.244370 27.092138 8.388514 0.968627
44.537552 42.383293 3.368452 0.223529
47.561741 41.088211 2.981516 0.296666
44.586803 42.362202 2.273981 0.979431
44.612656 42.351131 1.725559 0.223529
66.620346 32.926517 -0.000046 0.227689
51.618172 39.351074 -0.000027 0.223428
45.177277 42.109337 -0.000019 0.227102
41.590061 43.645531 -0.000014 0.217779
39.299938 44.626259 -0.000011 0.203154
37.708218 45.307899 -0.000009 0.203837
36.535519 45.810101 -0.000008 0.218641
nan nan nan 0.000000
nan nan nan 0.000000
nan nan nan 0.000000
78.626793 27.375238 10.000580 0.972656
50.747723 39.545246 4.705290 0.223529
44.330666 42.346474 3.354080 0.223529
47.382545 41.014240 2.974878 0.320867
44.366486 42.330837 2.270875 0.972305
44.597435 42.230022 1.725001 0.223529
66.507538 32.665642 -0.000047 0.232416
51.550598 39.194767 -0.000028 0.229783
45.129112 41.997929 -0.000019 0.238101
41.552704 43.559135 -0.000014 0.200330
39.269482 44.555824 -0.000011 0.209306
37.682564 45.248558 -0.000009 0.238364
36.513397 45.758934 -0.000008 0.230525
nan nan nan 0.000000
nan nan nan 0.000000
nan nan nan 0.000000
77.700363 27.375259 9.874825 0.980392
50.677040 39.397007 4.704727 0.223529
44.141022 42.304657 3.341233 0.223529
47.201759 40.943043 2.968161 0.298543
44.170906 42.291363 2.268207 0.963989
44.582146 42.108418 1.724428 0.223529
66.392914 32.405556 -0.000046 0.228586
51.481915 39.038948 -0.000027 0.222686
45.080162 41.886868 -0.000019 0.230597
41.514744 43.473000 -0.000014 0.252426
39.238537 44.485607 -0.000011 0.242816
37.656494 45.189404 -0.000009 0.212501
36.490917 45.707928 -0.000008 0.196895
nan nan nan 0.000000
nan nan nan 0.000000
78.279419 26.705887 11.805653 0.223529
76.802559 27.375280 9.753331 0.973068
50.823181 39.150558 4.731678 0.223529
43.952511 42.264721 3.328474 0.223529
47.028069 40.870712 2.961833 0.292470
43.977333 42.253471 2.265571 0.968627
44.566795 41.986294 1.723838 0.223529
66.276489 32.146275 -0.000046 0.228275
51.412159 38.883602 -0.000027 0.223284
45.030441 41.776146 -0.000019 0.221788
41.476189 43.387127 -0.000015 0.214045
39.207100 44.415604 -0.000011 0.212250
37.630009 45.130424 -0.000009 0.236162
36.468079 45.657078 -0.000008 0.232057
nan nan nan 0.000000
nan nan nan 0.000000
77.721413 26.549133 11.725188 0.223529
76.265083 27.221518 9.690319 0.976013
50.970612 38.899902 4.759097 0.223529
43.768822 42.224949 3.316134 0.223529
46.855675 40.799759 2.955581 0.293324
43.792210 42.214149 2.263084 0.965331
44.551376 41.863644 1.723233 0.223529
66.158234 31.887823 -0.000046 0.229412
51.341309 38.728752 -0.000026 0.224553
44.979950 41.665775 -0.000019 0.220125
41.437027 43.301533 -0.000014 0.270270
39.175179 44.345821 -0.000011 0.214081
37.603115 45.071640 -0.000009 0.214584
36.444889 45.606388 -0.000007 0.195244
nan nan nan 0.000000
nan nan nan 0.000000
nan nan nan 0.000000
75.689392 27.092258 9.621012 0.968627
51.121544 38.643917 4.787274 0.223529
43.588398 42.185955 3.304074 0.223529
46.686283 40.729351 2.949499 0.298878
43.609985 42.175804 2.260646 0.968627
44.535896 41.740448 1.722611 0.223529
66.038193 31.630196 -0.000046 0.231291
51.269394 38.574398 -0.000026 0.226456
44.928684 41.555763 -0.000019 0.214416
41.397274 43.216209 -0.000015 0.276146
39.142769 44.276264 -0.000011 0.204662
37.575809 45.013039 -0.000009 0.227760
36.421349 45.555862 -0.000007 0.197577
nan nan nan 0.000000
nan nan nan 0.000000
75.665878 26.705856 11.374578 0.223529
74.858727 27.092278 9.509686 0.968627
74.858719 27.092281 7.824075 0.968627
43.410995 42.147789 3.292274 0.223529
46.519844 40.659435 2.943583 0.287251
43.430805 42.138306 2.258260 0.968627
44.520344 41.616692 1.721973 0.223529
65.916367 31.373405 -0.000046 0.228311
51.196396 38.420547 -0.000026 0.223751
44.876656 41.446106 -0.000018 0.238484
41.356918 43.131172 -0.000014 0.220879
39.109875 44.206936 -0.000011 0.231566
37.548100 44.954632 -0.000009 0.266022
36.397453 45.505501 -0.000007 0.227413
nan nan nan 0.000000
nan nan nan 0.000000
74.844833 26.705868 11.240054 0.223529
74.051926 27.092300 9.401920 0.968627
74.051941 27.092295 7.740499 0.968627
43.237633 42.109879 3.280826 0.223529
46.367828 40.584351 2.938463 0.303975
43.255920 42.100967 2.255949 0.961166
44.504715 41.492355 1.721318 0.223529
65.792725 31.117485 -0.000045 0.227581
51.122330 38.267212 -0.000026 0.224302
44.823868 41.336815 -0.000019 0.228191
41.315975 43.046410 -0.000014 0.250308
39.076496 44.137840 -0.000011 0.208708
37.519978 44.896420 -0.000009 0.245245
36.373207 45.455307 -0.000007 0.199408
nan nan nan 0.000000
nan nan nan 0.000000
74.047012 26.705872 11.109780 0.223529
73.267929 27.092321 9.297558 0.968627
73.267944 27.092318 7.659561 0.968627
43.067390 42.072594 3.269648 0.223529
43.237938 41.987995 2.770052 0.223529
43.083504 42.064598 2.253680 0.947799
44.489017 41.367428 1.720647 0.223529
65.667320 30.862425 -0.000045 0.230776
51.047188 38.114403 -0.000026 0.232524
44.770317 41.227898 -0.000019 0.229579
41.274445 42.961941 -0.000014 0.264466
39.042641 44.068977 -0.000011 0.192431
37.491455 44.838406 -0.000009 0.191761
36.348614 45.405285 -0.000007 0.237742
nan nan nan 0.000000
nan nan nan 0.000000
nan nan nan 0.000000
72.505692 27.092340 9.196440 0.968627
72.505692 27.092339 7.581139 0.968627
42.900181 42.035900 3.258733 0.223529
43.161777 41.903858 2.768556 0.223529
42.914177 42.028835 2.251464 0.941543
44.473248 41.241886 1.719958 0.223529
65.540115 30.608253 -0.000045 0.231662
50.970985 37.962112 -0.000026 0.242708
44.716003 41.119354 -0.000019 0.223871
41.232319 42.877766 -0.000013 0.212286
39.008297 44.000351 -0.000010 0.214320
37.462524 44.780594 -0.000008 0.223655
36.323669 45.355434 -0.000008 0.251361
nan nan nan 0.000000
nan nan nan 0.000000
nan nan nan 0.000000
71.764252 27.092363 9.098427 0.968627
71.764259 27.092361 7.505126 0.968627
42.735703 41.999889 3.248055 0.223529
46.146729 40.248169 2.936141 0.314748
42.747940 41.993607 2.249301 0.847944
44.457397 41.115719 1.719252 0.223529
65.411179 30.354967 -0.000045 0.228287
50.893723 37.810364 -0.000026 0.225666
44.660934 41.011192 -0.000019 0.210838
41.189613 42.793880 -0.000014 0.230357
38.973480 43.931969 -0.000011 0.210515
37.433189 44.722980 -0.000008 0.277547
36.298378 45.305759 -0.000007 0.191498
nan nan nan 0.000000
nan nan nan 0.000000
nan nan nan 0.000000
70.795349 27.221596 8.961992 0.223529
70.795357 27.221596 7.399314 0.223529
42.616364 41.942345 3.241535 0.223529
46.025108 40.161613 2.932791 0.324575
42.626572 41.937012 2.247963 0.818784
44.441467 40.988907 1.718529 0.223529
65.280426 30.102600 -0.000044 0.227246
50.815399 37.659157 -0.000026 0.228407
44.605106 40.903423 -0.000018 0.241631
41.146317 42.710300 -0.000014 0.226611
38.938187 43.863831 -0.000010 0.219048
37.403458 44.665577 -0.000009 0.273896
36.272739 45.256264 -0.000007 0.190445
nan nan nan 0.000000
nan nan nan 0.000000
69.807404 27.375484 10.367826 0.968627
70.340210 27.092396 8.911194 0.968627
70.203537 27.165010 7.342114 0.223529
42.499542 41.884716 3.235264 0.223529
45.951904 40.050404 2.932155 0.303487
42.509033 41.879673 2.246699 0.762524
44.425457 40.861439 1.717789 0.223529
65.147942 29.851152 -0.000044 0.232823
50.736023 37.508503 -0.000026 0.237143
44.548531 40.796043 -0.000018 0.227449
41.102444 42.627022 -0.000013 0.207212
38.902420 43.795940 -0.000010 0.214297
37.373322 44.608383 -0.000008 0.201287
36.246758 45.206951 -0.000007 0.230238
nan nan nan 0.000000
nan nan nan 0.000000
69.131973 27.375502 10.259496 0.979706
69.655907 27.092417 8.821718 0.968627
69.521576 27.164997 7.272962 0.223529
42.383739 41.827740 3.229101 0.223529
45.860237 39.949368 2.930531 0.290883
42.392731 41.822884 2.245461 0.728954
69.656006 27.092365 1.247450 0.968627
65.013702 29.600626 -0.000044 0.229603
50.655594 37.358406 -0.000025 0.232344
44.491211 40.689060 -0.000018 0.241188
41.057987 42.544052 -0.000013 0.209414
38.866177 43.728302 -0.000010 0.246658
37.342789 44.551399 -0.000008 0.221824
36.220428 45.157818 -0.000007 0.211699
nan nan nan 0.000000
nan nan nan 0.000000
68.473801 27.375513 10.154329 0.980392
68.989082 27.092434 8.734858 0.968627
68.979187 27.097872 7.221864 0.223529
42.270123 41.770760 3.223155 0.223529
45.726200 39.872131 2.926563 0.307897
42.317219 41.744888 2.244986 0.661006
68.989174 27.092384 1.257032 0.968627
64.877739 29.351042 -0.000044 0.227557
50.574127 37.208874 -0.000026 0.241284
44.433136 40.582485 -0.000018 0.206589
41.012955 42.461395 -0.000014 0.207535
38.829464 43.660919 -0.000010 0.240099
37.311859 44.494629 -0.000008 0.227653
36.193764 45.108868 -0.000007 0.211137
nan nan nan 0.000000
69.031189 26.705864 11.854458 0.223529
67.832108 27.375530 10.052187 0.960861
68.338974 27.092451 8.650497 0.968627
51.940277 36.250854 4.996951 0.223529
42.156521 41.714920 3.217225 0.223529
45.587894 39.798553 2.922371 0.308476
42.244350 41.665867 2.244570 0.452720
68.339058 27.092403 1.266338 0.968627
64.740005 29.102417 -0.000043 0.226252
50.491615 37.059906 -0.000025 0.224996
44.374329 40.476311 -0.000018 0.232643
40.967342 42.379055 -0.000013 0.239261
38.792282 43.593788 -0.000010 0.230657
37.280537 44.438076 -0.000008 0.236305
36.166752 45.060104 -0.000007 0.281508
nan nan nan 0.000000
68.385918 26.705887 11.733018 0.223529
67.206268 27.375546 9.952961 0.968627
67.704926 27.092470 8.568542 0.968627
67.704926 27.092468 7.094178 0.968627
42.044701 41.659225 3.211476 0.223529
45.456684 39.722317 2.918592 0.304570
42.156010 41.596035 2.243870 0.286458
67.705002 27.092428 1.275380 0.968627
64.600555 28.854753 -0.000043 0.231662
50.408066 36.911522 -0.000025 0.231315
44.314781 40.370552 -0.000018 0.233960
40.921158 42.297035 -0.000013 0.231004
38.754631 43.526924 -0.000010 0.220340
37.248817 44.381744 -0.000008 0.199744
36.139404 45.011536 -0.000007 0.210886
nan nan nan 0.000000
nan nan nan 0.000000
66.595650 27.375563 9.856529 0.972702
67.086296 27.092487 8.488895 0.968627
67.086304 27.092484 7.032410 0.968627
41.933403 41.604355 3.205791 0.223529
45.382080 39.614651 2.918038 0.283696
42.083221 41.517918 2.243472 0.296559
67.086365 27.092447 1.284166 0.968627
64.459381 28.608078 -0.000043 0.228395
50.323479 36.763733 -0.000025 0.224445
44.254498 40.265209 -0.000018 0.232703
40.874405 42.215340 -0.000013 0.257189
38.716515 43.460327 -0.000010 0.207439
37.216705 44.325634 -0.000008 0.214811
36.111717 44.963154 -0.000007 0.191211
nan nan nan 0.000000
67.141953 26.705845 11.500301 0.223529
65.999634 27.375576 9.762778 0.968627
66.482452 27.092503 8.411469 0.968627
66.482460 27.092499 6.972360 0.968627
41.823540 41.549759 3.200255 0.223529
45.338699 39.488861 2.919303 0.288731
42.010521 41.440132 2.243083 0.294759
66.482529 27.092463 1.292708 0.968627
64.316483 28.362391 -0.000043 0.227282
50.237869 36.616528 -0.000025 0.230728
44.193470 40.160294 -0.000017 0.215733
40.827080 42.133972 -0.000013 0.216917
38.677933 43.393993 -0.000010 0.248022
37.184204 44.269753 -0.000009 0.214739
36.083691 44.914970 -0.000007 0.252414
nan nan nan 0.000000
66.502060 26.729593 11.378712 0.223529
65.416573 27.376232 9.671385 0.976211
65.892830 27.092522 8.336168 0.968627
47.714321 37.921619 4.479750 0.223529
41.714630 41.495686 3.194822 0.223529
45.247688 39.391014 2.917899 0.282185
41.938423 41.362373 2.242715 0.291157
53.421104 34.522038 1.538569 0.223529
53.216614 34.643852 0.626413 0.223575
50.151226 36.469933 -0.000025 0.228933
44.131718 40.055809 -0.000017 0.225702
40.779190 42.052937 -0.000013 0.222590
38.638893 43.327930 -0.000010 0.245054
37.151310 44.214096 -0.000008 0.198906
36.055328 44.866982 -0.000007 0.206326
nan nan nan 0.000000
65.955750 26.705866 11.280191 0.223529
65.263832 27.124622 9.671126 0.969635
65.316864 27.092533 8.262920 0.968627
47.884663 37.642628 4.513072 0.223529
41.606762 41.442059 3.189503 0.223529
45.203602 39.265224 2.919223 0.303960
41.866936 41.284599 2.242367 0.299367
53.129684 34.468300 1.542206 0.223529
64.025551 27.874043 -0.000043 0.230106
50.063560 36.323940 -0.000024 0.224577
44.069237 39.951752 -0.000017 0.248872
40.730732 41.972237 -0.000013 0.206063
38.599388 43.262142 -0.000010 0.237406
37.118031 44.158672 -0.000008 0.259332
36.026634 44.819195 -0.000006 0.245281
39.396576 42.681969 4.999434 0.223529
39.462334 42.641541 4.602896 0.223529
39.528008 42.601162 4.206891 0.223529
64.754028 27.092548 8.191645 0.968627
64.754036 27.092543 6.801879 0.968627
41.499931 41.388851 3.184297 0.223529
45.159779 39.138828 2.920619 0.297841
41.796059 41.206795 2.242040 0.308003
53.085480 34.266216 1.541101 0.223529
63.877544 27.631399 -0.000042 0.228227
49.974884 36.178566 -0.000024 0.233421
44.006035 39.848133 -0.000018 0.233780
40.681713 41.891880 -0.000013 0.260756
38.559429 43.196632 -0.000010 0.227653
37.084366 44.103481 -0.000008 0.246682
35.997604 44.771606 -0.000006 0.181373
39.324234 42.628582 4.991073 0.223529
39.389347 42.587921 4.595595 0.223529
39.454369 42.547321 4.200660 0.223529
39.519440 42.506683 3.805423 0.223529
39.584702 42.465931 3.409032 0.223529
39.650299 42.424973 3.010629 0.223529
45.116272 39.011753 2.922091 0.315663
41.725777 41.128941 2.241734 0.307195
53.040985 34.063183 1.539970 0.223529
63.727852 27.389788 -0.000043 0.227090
49.885193 36.033813 -0.000024 0.238244
43.942104 39.744965 -0.000017 0.215589
40.632137 41.811867 -0.000013 0.236868
38.519012 43.131401 -0.000010 0.190409
37.050316 44.048527 -0.000008 0.222147
35.968246 44.724220 -0.000007 0.267601
39.252274 42.575508 4.982897 0.223529
39.316742 42.534622 4.588455 0.223529
39.381123 42.493790 4.194569 0.223529
39.445557 42.452927 3.800394 0.223529
39.510166 42.411953 3.405082 0.223529
39.575104 42.370770 3.007778 0.223529
39.640514 42.329285 2.607607 0.223529
39.706539 42.287415 2.203671 0.223529
52.996143 33.859222 1.538813 0.223529
63.395943 27.263731 0.010459 0.980392
49.794495 35.889687 -0.000025 0.227892
43.877460 39.642242 -0.000017 0.226312
40.582001 41.732201 -0.000013 0.217037
38.478142 43.066456 -0.000010 0.246131
37.015884 43.993813 -0.000008 0.235683
35.938557 44.677048 -0.000006 0.207343
39.241917 42.483292 4.993152 0.223529
39.244511 42.481621 4.581474 0.223529
39.308262 42.440563 4.188613 0.223529
39.372055 42.399479 3.795477 0.223529
39.436031 42.358276 3.401221 0.223529
39.500324 42.316872 3.004991 0.223529
39.565079 42.275166 2.605916 0.223529
39.630444 42.233070 2.203100 0.223529
39.696564 42.190483 1.795613 0.223529
39.763603 42.147308 1.382483 0.223529
39.831718 42.103439 0.962688 0.223529
43.812096 39.539970 -0.000017 0.224242
40.531311 41.652885 -0.000012 0.216439
38.436817 43.001797 -0.000010 0.247292
36.981068 43.939339 -0.000008 0.255478
35.908539 44.630077 -0.000006 0.239992
39.375179 42.296467 5.046628 0.223529
39.361691 42.305290 4.623436 0.223529
39.348404 42.313980 4.207278 0.223529
39.335308 42.322544 3.797117 0.223529
39.362286 42.304901 3.397447 0.223529
39.425941 42.263271 3.002268 0.223529
39.490059 42.221344 2.604264 0.223529
39.554768 42.179028 2.202543 0.223529
39.620228 42.136219 1.796177 0.223529
39.686596 42.092819 1.384199 0.223529
39.754028 42.048721 0.965589 0.223529
39.822704 42.003811 0.539266 0.223529
39.892811 41.957966 0.104072 0.223529
38.395042 42.937428 -0.000010 0.239644
36.945873 43.885109 -0.000008 0.203861
35.878197 44.583317 -0.000006 0.206470
nan nan nan 0.000000
nan nan nan 0.000000
62.120373 27.092607 9.191114 0.968627
39.472134 42.130169 3.829766 0.223529
39.458805 42.139019 3.417219 0.223529
39.445602 42.147785 3.008824 0.223529
39.432495 42.156487 2.603656 0.223529
39.479504 42.125278 2.201998 0.223529
39.544312 42.082245 1.796729 0.223529
39.610012 42.038624 1.385876 0.223529
39.676773 41.994297 0.968423 0.223529
39.744755 41.949158 0.543294 0.223529
39.814156 41.903080 0.109335 0.223529
38.352821 42.873352 -0.000010 0.249566
36.910301 43.831127 -0.000008 0.241811
35.847523 44.536774 -0.000006 0.238699
nan nan nan 0.000000
61.206745 27.375721 10.337739 0.978271
61.626732 27.092621 9.116459 0.968627
51.748009 33.751549 6.034351 0.223529
48.686081 35.815495 4.704009 0.223529
40.927757 41.045128 3.160108 0.223529
39.573109 41.958252 2.614812 0.223529
39.559669 41.967312 2.204526 0.223529
39.546284 41.976334 1.795738 0.223529
39.533852 41.984715 1.387513 0.223529
39.599945 41.940163 0.971191 0.223529
39.667248 41.894798 0.547228 0.223529
39.735947 41.848488 0.114474 0.223529
38.310150 42.809574 -0.000010 0.211412
36.874355 43.777397 -0.000007 0.221046
35.816528 44.490444 -0.000006 0.237347
nan nan nan 0.000000
60.729485 27.375731 10.252466 0.971206
61.143204 27.092636 9.043674 0.968627
51.692993 33.559120 6.043637 0.223529
61.143196 27.092640 6.453321 0.968627
40.850166 40.978535 3.157913 0.223529
61.143192 27.092640 3.901740 0.968627
41.407413 40.597229 2.242136 0.302388
40.172676 41.442123 1.782347 0.223529
39.677460 41.780983 1.376053 0.223529
39.663647 41.790436 0.959972 0.223529
39.649792 41.799915 0.542756 0.223529
39.658173 41.794178 0.119492 0.223529
38.267036 42.746094 -0.000009 0.225283
36.838036 43.723915 -0.000008 0.215541
35.785210 44.444328 -0.000006 0.280670
61.226292 26.705883 11.768682 0.223529
60.261864 27.375746 10.169313 0.968627
60.669449 27.092649 8.972700 0.968627
51.659035 33.351002 6.057012 0.223529
60.669441 27.092653 6.408449 0.968627
40.772888 40.912178 3.155784 0.223529
60.669441 27.092653 3.882578 0.968627
41.343735 40.515686 2.242035 0.296925
40.085915 41.389328 1.783026 0.223529
39.908802 41.512344 1.359205 0.223529
49.229370 35.038570 -0.000023 0.234666
43.474670 39.035603 -0.000016 0.213638
39.784554 41.598644 0.087595 0.223529
38.223480 42.682915 -0.000010 0.228299
36.801338 43.670692 -0.000008 0.258135
35.753571 44.398438 -0.000006 0.232859
60.831985 26.650743 11.695674 0.223529
59.803558 27.375750 10.088212 0.979751
60.205124 27.092659 8.903478 0.968627
60.205109 27.092667 7.627914 0.968627
50.142975 34.186157 4.948400 0.304646
40.695641 40.846237 3.153695 0.223529
60.205116 27.092667 3.863888 0.968627
41.280632 40.433834 2.241957 0.284718
40.081047 41.279503 1.782061 0.223529
40.066162 41.289997 1.346609 0.223529
49.131737 34.899052 -0.000023 0.231434
43.405083 38.936161 -0.000016 0.228048
40.215656 41.184608 -0.000012 0.240410
38.179485 42.620045 -0.000009 0.228814
36.764275 43.617722 -0.000007 0.233840
35.721611 44.352768 -0.000006 0.199337
nan nan nan 0.000000
59.354233 27.375761 10.009089 0.980392
59.749901 27.092672 8.835945 0.968627
59.749889 27.092680 7.572859 0.968627
48.699978 34.998577 4.758938 0.720241
40.618599 40.780571 3.151662 0.223529
59.749901 27.092674 3.845655 0.968627
41.218109 40.351643 2.241901 0.306203
40.245251 41.047691 1.777673 0.223529
40.229839 41.058720 1.333474 0.223529
49.033131 34.760216 -0.000023 0.231075
43.334801 38.837208 -0.000016 0.221094
40.161148 41.107864 -0.000012 0.217767
38.135052 42.557480 -0.000009 0.230884
36.726841 43.565014 -0.000007 0.208085
35.689335 44.307320 -0.000006 0.247663
59.836258 26.705847 11.484793 0.223529
58.913589 27.375778 9.931881 0.980392
59.303482 27.092686 8.770046 0.968627
48.642395 34.833481 5.564824 0.223529
48.651581 34.826813 4.765975 0.968627
40.541996 40.715019 3.149710 0.223529
59.303474 27.092690 3.827863 0.968627
41.156166 40.269081 2.241869 0.313069
40.416206 40.806351 1.773095 0.223529
40.400238 40.817944 1.319767 0.223529
48.933563 34.622070 -0.000023 0.222854
43.263832 38.738747 -0.000016 0.225857
40.106110 41.031506 -0.000011 0.221932
38.090183 42.495228 -0.000009 0.203765
36.689041 43.512569 -0.000007 0.201479
35.656742 44.262100 -0.000006 0.206709
59.390598 26.705853 11.394689 0.223529
58.481346 27.375784 9.856529 0.977539
58.865562 27.092695 8.705729 0.968627
48.594460 34.660404 5.574242 0.223529
48.602859 34.654217 4.773172 0.968627
40.465473 40.649807 3.147802 0.223529
58.865555 27.092703 3.810497 0.968627
41.094799 40.186123 2.241860 0.298619
40.594360 40.554844 1.768312 0.223529
40.577805 40.567043 1.305449 0.223529
48.833023 34.484631 -0.000023 0.222530
43.192181 38.640781 -0.000016 0.226264
40.050541 40.955528 -0.000011 0.255514
38.044880 42.433292 -0.000009 0.216032
36.650875 43.460388 -0.000007 0.225941
35.623833 44.217110 -0.000006 0.240374
58.953300 26.705864 11.306728 0.223529
58.057220 27.375793 9.782970 0.978561
58.263477 27.221592 8.603781 0.223529
48.546352 34.486340 5.583899 0.223529
48.553444 34.481037 4.780481 0.975891
40.389458 40.584621 3.145982 0.223529
58.263489 27.221584 3.782973 0.223529
41.034012 40.102737 2.241874 0.295232
40.780197 40.292496 1.763311 0.223529
51.873734 31.998713 0.608965 0.298741
48.731537 34.347893 -0.000023 0.221585
43.119850 38.543320 -0.000016 0.217707
39.994442 40.879944 -0.000011 0.222135
37.999146 42.371670 -0.000009 0.226468
36.612343 43.408478 -0.000007 0.258027
35.590614 44.172348 -0.000006 0.260325
58.524101 26.705868 11.220848 0.223529
57.640938 27.375803 9.711149 0.974975
58.014122 27.092720 8.581644 0.968627
48.881378 34.020493 5.665169 0.223529
48.503986 34.306763 4.787998 0.968627
40.313538 40.519745 3.144209 0.223529
58.014107 27.092731 3.776995 0.968627
40.948910 40.037773 2.241402 0.305470
40.974243 40.018555 1.758078 0.223529
51.513420 32.023918 0.623850 0.292119
48.629093 34.211861 -0.000022 0.220089
43.046825 38.446369 -0.000015 0.250176
39.937813 40.804756 -0.000011 0.230154
37.952984 42.310375 -0.000009 0.225259
36.573452 43.356838 -0.000007 0.226157
35.557079 44.127819 -0.000006 0.212406
58.102745 26.705866 11.136982 0.223529
57.291653 27.330101 9.657198 0.976410
57.600075 27.092730 8.521778 0.968627
51.427605 31.843195 6.161376 0.223529
48.454063 34.131695 4.795662 0.968627
40.237965 40.454975 3.142510 0.223529
52.373436 31.115263 3.436824 0.223529
40.887497 39.955086 2.241425 0.304524
41.177071 39.732224 1.752596 0.223529
51.145714 32.060146 0.639284 0.293385
48.525711 34.076557 -0.000023 0.226647
42.973137 38.349930 -0.000015 0.216654
39.880665 40.729961 -0.000011 0.243271
37.906395 42.249401 -0.000008 0.224074
36.534203 43.305470 -0.000007 0.242804
35.523235 44.083530 -0.000006 0.203513
57.688953 26.705866 11.055064 0.223529
57.139130 27.135168 9.656956 0.968627
57.193466 27.092745 8.463304 0.968627
57.100937 27.164989 7.251659 0.223529
48.392586 33.964451 4.801860 0.957122
40.162617 40.390392 3.140872 0.223529
42.800430 38.330791 2.847954 0.223529
40.826725 39.871857 2.241473 0.294514
41.389324 39.432579 1.746847 0.223529
50.786785 32.095062 0.654271 0.268498
48.421379 33.941967 -0.000023 0.225917
42.898773 38.254005 -0.000015 0.248596
39.822998 40.655567 -0.000011 0.250643
37.859379 42.188755 -0.000008 0.237418
36.494595 43.254375 -0.000007 0.226073
35.489082 44.039474 -0.000005 0.205931
nan nan nan 0.000000
56.794075 27.092749 9.604039 0.968627
56.794064 27.092754 8.406176 0.968627
56.702888 27.164976 7.205247 0.223529
48.306534 33.815701 4.804657 0.940398
40.087460 40.326004 3.139291 0.223529
42.755791 38.212429 2.849824 0.223529
40.766624 39.788040 2.241548 0.292363
41.611683 39.118671 1.740811 0.223529
50.444870 32.121933 0.668290 0.295018
48.316109 33.808113 -0.000022 0.218509
42.823750 38.158600 -0.000015 0.221657
39.764809 40.581573 -0.000011 0.207642
37.811943 42.128433 -0.000009 0.252115
36.454632 43.203556 -0.000007 0.298754
35.454628 43.995659 -0.000005 0.258051
nan nan nan 0.000000
56.401649 27.092758 9.537783 0.968627
56.401642 27.092764 8.350358 0.968627
56.401634 27.092772 7.176995 0.968627
56.401642 27.092768 6.014976 0.968627
40.012550 40.261761 3.137774 0.223529
56.401634 27.092775 3.714550 0.968627
40.707180 39.703609 2.241649 0.286717
56.401634 27.092772 1.428892 0.968627
49.283955 32.811985 0.734015 0.223529
48.209908 33.675003 -0.000022 0.217300
42.748058 38.063721 -0.000015 0.218545
39.706104 40.507996 -0.000011 0.218234
37.764088 42.068447 -0.000009 0.210934
36.414314 43.153019 -0.000007 0.246454
35.419865 43.952084 -0.000005 0.252187
nan nan nan 0.000000
56.015999 27.092768 9.473037 0.968627
56.015991 27.092775 8.295810 0.968627
56.015987 27.092779 7.132527 0.968627
56.015991 27.092777 5.980489 0.968627
39.937969 40.197575 3.136332 0.223529
56.015976 27.092787 3.699822 0.968627
40.648411 39.618511 2.241777 0.283604
56.015984 27.092783 1.433797 0.968627
49.859428 32.110840 0.690370 0.289738
48.102783 33.542637 -0.000022 0.221358
42.671703 37.969376 -0.000015 0.235420
39.646889 40.434830 -0.000010 0.212621
37.715813 42.008801 -0.000008 0.190804
36.373642 43.102768 -0.000007 0.191677
35.384796 43.908756 -0.000005 0.208935
nan nan nan 0.000000
55.636887 27.092775 9.409746 0.968627
55.636875 27.092787 8.242489 0.968627
55.636868 27.092793 7.089058 0.968627
55.636871 27.092791 5.946777 0.968627
39.863106 40.133934 3.134898 0.223529
39.938705 40.071434 2.684784 0.223529
39.939045 40.071152 2.228106 0.223529
55.636864 27.092794 1.438593 0.968627
49.580879 32.099648 0.700598 0.312016
47.994736 33.411015 -0.000022 0.223560
42.594692 37.875565 -0.000015 0.254305
39.587166 40.362072 -0.000011 0.271670
37.667122 41.949490 -0.000008 0.220831
36.332626 43.052799 -0.000007 0.230298
35.349430 43.865669 -0.000005 0.219203
nan nan nan 0.000000
55.264130 27.092791 9.347876 0.968627
55.264130 27.092793 8.190367 0.968627
55.264118 27.092798 7.046566 0.968627
55.264118 27.092800 5.913822 0.968627
39.789013 40.069962 3.133586 0.223529
39.852242 40.016937 2.683233 0.223529
39.852577 40.016659 2.227589 0.223529
48.971848 32.369392 1.577659 0.223529
49.312248 32.083939 0.710246 0.295369
47.885773 33.280155 -0.000021 0.221513
42.517025 37.782295 -0.000015 0.227832
39.526932 40.289738 -0.000011 0.221405
37.618023 41.890518 -0.000008 0.242816
36.291260 43.003120 -0.000006 0.229508
35.313759 43.822834 -0.000005 0.234271
54.564674 27.375900 10.342256 0.980392
54.897522 27.092800 9.287382 0.968627
54.897518 27.092804 8.139402 0.968627
54.897514 27.092808 7.005019 0.968627
54.897511 27.092810 5.881600 0.968627
39.714695 40.006466 3.132290 0.223529
39.843761 39.896690 2.686726 0.223529
39.845467 39.895237 2.228782 0.223529
48.833668 32.250374 1.578130 0.223529
49.019501 32.092316 0.721499 0.303365
47.775894 33.150059 -0.000021 0.228143
42.438713 37.689568 -0.000015 0.237849
39.466198 40.217823 -0.000010 0.241284
37.568508 41.831894 -0.000008 0.204914
36.249546 42.953728 -0.000007 0.209497
35.277794 43.780247 -0.000005 0.215984
54.208710 27.375908 10.274536 0.977264
54.387581 27.221603 9.185638 0.223529
54.387589 27.221601 8.053688 0.223529
54.387581 27.221607 6.935142 0.223529
54.387573 27.221613 5.827407 0.223529
39.653801 39.931675 3.132487 0.223529
54.387573 27.221615 3.634451 0.223529
40.642292 39.078957 2.247375 0.301732
48.708847 32.120354 1.578297 0.223529
48.727280 32.104454 0.732790 0.753704
47.665115 33.020729 -0.000021 0.219407
42.359756 37.597389 -0.000015 0.220867
39.404968 40.146332 -0.000011 0.209964
37.518585 41.773613 -0.000008 0.192850
36.207489 42.904633 -0.000006 0.190851
35.241531 43.737911 -0.000005 0.198774
53.858463 27.375921 10.208305 0.968627
54.182045 27.092821 9.170369 0.968627
54.182037 27.092827 8.040822 0.968627
54.182030 27.092834 6.924653 0.968627
54.182037 27.092829 5.819275 0.968627
39.597763 39.852589 3.133272 0.223529
54.182022 27.092840 3.630976 0.968627
40.584671 38.989143 2.247627 0.310277
48.584232 31.990341 1.578441 0.223529
48.601662 31.975092 0.733281 0.968627
47.553429 32.892189 -0.000021 0.244264
42.280155 37.505768 -0.000015 0.227928
39.343231 40.075279 -0.000011 0.239896
37.468258 41.715691 -0.000008 0.255083
36.165089 42.855827 -0.000006 0.214285
35.204975 43.695831 -0.000005 0.223727
53.513756 27.375931 10.143517 0.980392
53.832825 27.092825 9.113775 0.968627
53.832817 27.092833 7.993143 0.968627
53.832806 27.092840 6.885784 0.968627
53.832802 27.092842 5.789128 0.968627
39.541565 39.773453 3.134104 0.223529
53.832794 27.092850 3.618104 0.968627
40.527946 38.898239 2.247914 0.300862
48.459293 31.860758 1.578573 0.223529
48.476173 31.845776 0.733706 0.969818
47.440849 32.764420 -0.000021 0.223655
42.199913 37.414700 -0.000014 0.212980
39.281002 40.004654 -0.000010 0.230034
37.417534 41.658108 -0.000008 0.259655
36.122353 42.807323 -0.000006 0.216104
35.168121 43.654007 -0.000005 0.218390
53.174446 27.375937 10.080138 0.979477
53.489052 27.092836 9.058409 0.968627
53.489040 27.092846 7.946497 0.968627
53.489037 27.092848 6.847758 0.968627
53.489037 27.092848 5.759638 0.968627
39.485245 39.694237 3.134988 0.223529
53.489029 27.092859 3.605510 0.968627
40.472115 38.806198 2.248236 0.303593
48.334129 31.731520 1.578691 0.223529
48.350349 31.716923 0.734097 0.973312
47.327389 32.637440 -0.000020 0.232165
42.119045 37.324196 -0.000014 0.255478
39.218285 39.934464 -0.000010 0.232787
37.366402 41.600887 -0.000008 0.188757
36.079277 42.759117 -0.000006 0.222877
35.130981 43.612446 -0.000005 0.221238
52.840347 27.375944 10.018124 0.979019
53.150566 27.092848 9.004234 0.968627
53.150558 27.092852 7.900859 0.968627
47.219093 32.505730 5.619409 0.679713
53.150555 27.092859 5.730782 0.968627
39.429272 39.614487 3.135978 0.223529
53.150543 27.092867 3.593188 0.968627
40.417664 38.712513 2.248605 0.302037
48.209625 31.601803 1.578776 0.223529
48.225231 31.587561 0.734385 0.968627
47.213043 32.511253 -0.000020 0.230908
42.037544 37.234261 -0.000014 0.222901
39.155075 39.864716 -0.000010 0.225917
37.314873 41.544029 -0.000008 0.225929
36.035866 42.711212 -0.000006 0.207176
35.093552 43.571140 -0.000005 0.229663
52.511333 27.375950 9.957439 0.980392
52.817230 27.092855 8.951223 0.968627
47.079460 32.402863 6.433701 0.223529
47.100372 32.383507 5.618710 0.968627
52.817223 27.092865 5.702546 0.968627
39.372967 39.534817 3.136999 0.223529
52.817207 27.092876 3.581130 0.968627
40.326813 38.652081 2.248180 0.301411
48.121246 31.438745 1.578035 0.223529
48.088905 31.468672 0.735364 0.968627
47.097820 32.385872 -0.000021 0.238902
41.955418 37.144894 -0.000014 0.247447
39.091381 39.795410 -0.000010 0.231040
37.262947 41.487526 -0.000008 0.253719
35.992123 42.663609 -0.000006 0.227677
35.055832 43.530094 -0.000005 0.237885
52.187241 27.375954 9.898050 0.968627
52.488876 27.092869 8.899342 0.968627
46.931011 32.308887 6.425598 0.223529
46.950500 32.290596 5.611841 0.968627
52.488869 27.092876 5.674912 0.968627
39.316486 39.455059 3.138070 0.223529
52.488853 27.092888 3.569328 0.968627
40.271477 38.558807 2.248558 0.303853
52.488861 27.092886 1.477264 0.968627
47.929489 31.371822 0.737850 0.980392
46.981720 32.261292 -0.000020 0.241248
41.872665 37.056103 -0.000014 0.227629
39.027210 39.726543 -0.000010 0.209234
37.210629 41.431389 -0.000007 0.216116
35.948044 42.616318 -0.000006 0.198331
35.017830 43.489315 -0.000005 0.248405
51.867935 27.375967 9.839918 0.980392
52.165390 27.092876 8.848562 0.968627
46.783161 32.215195 6.417757 0.223529
46.801010 32.198200 5.605140 0.976165
52.165382 27.092884 5.647865 0.968627
39.259869 39.375179 3.139194 0.223529
52.165367 27.092897 3.557778 0.968627
40.217239 38.464043 2.248978 0.306966
52.165367 27.092899 1.481112 0.968627
51.985870 27.263727 0.454395 0.967987
46.864754 32.137539 -0.000020 0.225474
41.789299 36.967896 -0.000013 0.266321
38.962555 39.658138 -0.000010 0.250272
37.157925 41.375618 -0.000008 0.254149
35.903641 42.569332 -0.000006 0.220436
34.979542 43.448807 -0.000005 0.273370
51.553276 27.375971 9.783014 0.980392
51.846603 27.092882 8.798853 0.968627
46.658058 32.100365 6.415778 0.223529
46.652195 32.106026 5.598663 0.979065
51.846592 27.092894 5.621387 0.968627
39.203136 39.295132 3.140378 0.223529
51.846577 27.092909 3.546471 0.968627
40.164120 38.367683 2.249441 0.299687
51.846573 27.092909 1.484878 0.968627
51.669582 27.263727 0.465613 0.968261
46.746922 32.014603 -0.000020 0.227330
41.705318 36.880268 -0.000014 0.197494
38.897423 39.590179 -0.000010 0.211328
37.104828 41.320217 -0.000007 0.255717
35.858910 42.522659 -0.000006 0.262563
34.940971 43.408562 -0.000005 0.215613
51.243145 27.375977 9.727303 0.980392
51.532394 27.092894 8.750184 0.968627
48.895954 29.673124 7.015602 0.223529
46.503685 32.014389 5.592340 0.980392
51.532387 27.092901 5.595465 0.968627
39.146328 39.214874 3.141623 0.223529
51.532372 27.092918 3.535401 0.968627
40.112926 38.268887 2.249967 0.297276
40.899937 37.498653 1.732013 0.223529
51.357841 27.263727 0.476596 0.969451
46.628242 31.892483 -0.000020 0.240997
41.620731 36.793228 -0.000014 0.230202
38.831821 39.522675 -0.000010 0.244252
37.051346 41.265186 -0.000008 0.246430
35.813850 42.476299 -0.000006 0.239082
34.902122 43.368587 -0.000005 0.175604
50.937397 27.375986 9.672754 0.961639
51.092941 27.221615 8.663070 0.223529
51.092941 27.221617 7.613439 0.223529
46.355843 31.922909 5.586245 0.976440
51.092937 27.221622 5.549064 0.223529
39.089470 39.134357 3.142937 0.223529
51.092941 27.221621 3.515587 0.223529
40.063126 38.168064 2.250545 0.298863
40.564579 37.670399 1.737894 0.223529
51.050514 27.263723 0.487348 0.963760
46.508713 31.771198 -0.000020 0.248249
41.535530 36.706787 -0.000013 0.245808
38.765747 39.455635 -0.000009 0.222710
36.997478 41.210537 -0.000007 0.198092
35.768471 42.430252 -0.000006 0.244719
34.862995 43.328884 -0.000005 0.203071
3.890886 74.419998 10.992755 0.510475
3.890873 74.420006 9.753897 0.787900
3.890877 74.420006 8.532427 0.541604
4.007185 74.302948 7.300950 0.469291
3.890882 74.419998 6.130089 0.648737
3.890881 74.419998 4.943722 0.746944
3.937191 74.373398 3.760480 0.065324
3.912182 74.398560 2.586989 0.678431
3.912182 74.398560 1.413012 0.678431
3.912184 74.398560 0.237777 0.656550
12.003139 66.255859 -0.000021 0.235097
16.941753 61.285660 -0.000014 0.208241
19.739841 58.469677 0.009999 1.000000
21.448240 56.750355 -0.000011 0.346532
22.668755 55.522034 0.000004 0.342397
23.567924 54.617111 0.000004 0.333639
4.007185 74.659416 11.014984 0.578576
4.007183 74.659416 9.773060 0.419806
4.007177 74.659424 8.548574 0.701656
4.007193 74.659409 7.338587 0.336416
4.007185 74.659416 6.140297 0.506584
4.007187 74.659416 4.950998 0.568704
3.937193 74.730850 3.772980 0.234852
3.912188 74.756371 2.591156 0.678431
3.912186 74.756371 1.408844 0.678431
3.912188 74.756363 0.225265 0.435523
12.124353 66.375458 -0.000022 0.219694
17.028149 61.370911 -0.000014 0.203597
19.806486 58.535484 0.009993 1.000000
21.502922 56.804192 0.000004 0.332418
22.714771 55.567440 0.000004 0.336873
23.607605 54.656261 0.000004 0.338582
3.817192 75.217621 11.148386 0.678431
3.817190 75.217621 9.888084 0.678431
3.817194 75.217621 8.645475 0.678431
4.007189 75.020996 7.377028 0.675441
3.817190 75.217621 6.201565 0.678431
3.817188 75.217628 4.994667 0.678431
3.937180 75.093445 3.785748 0.172976
3.912182 75.119316 2.595412 0.678431
3.912182 75.119316 1.404587 0.678431
3.912182 75.119324 0.212485 0.430030
12.246393 66.494225 -0.000022 0.237227
17.115137 61.455551 -0.000014 0.207535
19.873592 58.600819 0.009990 1.000000
21.557915 56.857708 0.000003 0.335286
22.761105 55.612526 0.000004 0.330114
23.647556 54.695133 0.000004 0.323980
3.949129 75.448769 11.167281 0.770031
3.949127 75.448776 9.904377 0.708263
3.949129 75.448769 8.659202 0.755795
4.007166 75.387863 7.416296 0.509102
3.949127 75.448776 6.210243 0.580392
3.949135 75.448769 5.000851 0.700679
3.914152 75.485474 3.800427 0.556146
3.912180 75.487549 2.599761 0.678431
3.912180 75.487549 1.400240 0.678431
3.937168 75.461319 0.201212 0.062745
12.369268 66.612122 -0.000022 0.214416
17.202711 61.539581 -0.000014 0.247998
19.894779 58.714348 0.000014 0.336996
21.613262 56.910858 -0.000003 0.336126
22.807751 55.657284 0.000005 0.327291
23.687775 54.733727 0.000004 0.331792
4.007170 75.760117 11.213936 0.537682
4.007179 75.760109 9.944602 0.619730
4.007175 75.760109 8.693092 0.555734
4.007174 75.760117 7.456404 0.698390
4.007172 75.760117 6.231669 0.613382
4.007170 75.760117 5.016124 0.736095
4.099680 75.661667 3.800450 0.600015
3.912182 75.861206 2.604203 0.626841
3.912182 75.861206 1.395798 0.628672
3.937172 75.834610 0.187891 0.062745
12.492956 66.729164 -0.000022 0.225762
17.290867 61.623009 -0.000015 0.235288
19.963152 58.779041 0.000014 0.334691
21.669018 56.963585 0.000002 0.339223
22.854710 55.701717 0.000004 0.330892
23.728264 54.772041 0.000004 0.321767
3.940733 76.209656 11.307620 0.644007
3.817179 76.342995 10.064643 0.678431
3.817183 76.342995 8.794222 0.678431
4.007175 76.137939 7.497383 0.810208
3.817179 76.343002 6.295608 0.678431
3.817181 76.342995 5.061696 0.678431
4.007172 76.137947 3.820658 0.435142
3.912172 76.240479 2.608740 0.678431
3.912172 76.240479 1.391260 0.678431
3.937191 76.213470 0.174284 0.197299
12.617456 66.845337 -0.000022 0.247232
17.379604 61.705814 -0.000015 0.239656
20.031975 58.843254 0.000015 0.339696
21.725140 57.015915 0.000006 0.343221
22.901978 55.745819 0.000005 0.292439
23.769020 54.810066 0.000004 0.345373
4.007174 76.521515 11.353840 0.593942
4.007172 76.521515 10.065234 0.573617
4.007166 76.521523 8.794722 0.583322
4.007170 76.521523 7.539255 0.571481
4.007170 76.521515 6.295922 0.630442
4.007168 76.521523 5.061920 0.580056
4.007170 76.521523 3.834525 0.490318
3.912172 76.625496 2.613376 0.678431
3.912172 76.625496 1.386624 0.678431
3.937199 76.598099 0.160378 0.285435
12.742765 66.960648 -0.000023 0.232512
17.468924 61.787991 -0.000015 0.232069
20.101242 58.906990 0.000015 0.334752
21.781584 57.067902 -0.000000 0.341039
22.949551 55.789593 0.000004 0.339544
23.810040 54.847809 0.000004 0.343603
4.007179 76.910988 11.426089 0.706813
4.007177 76.910988 10.127531 0.678431
4.007177 76.910988 8.847203 0.625422
4.007174 76.910995 7.582041 0.482353
4.007174 76.910995 6.329105 0.569604
4.007168 76.910995 5.085572 0.631098
4.007174 76.910995 3.848695 0.678431
3.912165 77.016449 2.618114 0.678431
3.912165 77.016449 1.381886 0.678431
4.007174 76.910995 0.151304 0.800519
12.868883 67.075066 -0.000022 0.237478
17.558811 61.869545 -0.000015 0.233720
20.170952 58.970238 0.000015 0.334218
21.838388 57.119492 -0.000008 0.335180
22.997429 55.833031 0.000004 0.306752
23.851324 54.885265 0.000005 0.334524
4.007196 77.306526 11.499926 0.726116
3.857170 77.475403 10.239985 0.082963
3.857172 77.475403 8.941942 0.094118
4.007193 77.306534 7.625766 0.511009
3.857170 77.475403 6.389003 0.094118
3.857178 77.475395 5.128262 0.137255
4.007193 77.306534 3.863177 0.579446
3.912201 77.413460 2.622956 0.636469
3.912201 77.413460 1.377044 0.678431
4.007183 77.306549 0.136822 0.702876
12.995794 67.188606 -0.000023 0.227102
17.649265 61.950478 -0.000015 0.228227
20.241104 59.032997 0.000015 0.335882
21.895580 57.170654 -0.000007 0.338033
23.045609 55.876137 0.000005 0.322423
23.892866 54.922432 0.000005 0.340032
4.007195 77.708359 11.575409 0.472068
4.007202 77.708351 10.256276 0.474250
4.007196 77.708359 8.955669 0.739467
4.007198 77.708359 7.670465 0.656535
4.007195 77.708359 6.397683 0.897246
4.007196 77.708359 5.134448 0.377096
4.007198 77.708359 3.877980 0.528435
3.912170 77.816833 2.627906 0.678431
3.912170 77.816833 1.372093 0.678431
4.007185 77.708374 0.122019 0.712444
13.123491 67.301270 -0.000023 0.226276
17.740280 62.030769 -0.000016 0.224984
20.311691 59.095268 0.000015 0.340658
21.953171 57.221367 0.000006 0.341909
23.094090 55.918903 0.000005 0.337728
23.934668 54.959305 0.000004 0.334661
4.007179 78.116661 11.652578 0.519234
3.817171 78.336655 10.385600 0.678431
3.817173 78.336647 9.064619 0.678431
4.007177 78.116661 7.716165 0.528542
3.817173 78.336647 6.466564 0.678431
3.817175 78.336647 5.183544 0.678431
4.007177 78.116661 3.893116 0.646998
3.912178 78.226646 2.632966 0.678431
3.912178 78.226646 1.367034 0.678431
4.007183 78.116653 0.106884 0.587457
13.251968 67.413025 -0.000024 0.225702
17.831856 62.110428 -0.000016 0.233984
