# This PCD file was generated using the MATLABÂ® pcwrite function
# from Computer Vision ToolboxÂ®.
# .PCD v.7 - Point Cloud Data file format
VERSION .7
FIELDS x y z intensity
SIZE 4 4 4 4
TYPE F F F F
COUNT 1 1 1 1
WIDTH 1247
HEIGHT 1
VIEWPOINT 0 0 0 1 0 0 0
POINTS 1247
DATA ascii
58.488113 62.662010 -0.000022 0.254640
60.891556 59.587669 -0.000016 0.216846
62.425934 57.624973 -0.000014 0.195603
63.492386 56.260830 -0.000011 0.205440
64.278099 55.255795 -0.000010 0.191414
57.536667 64.095558 6.784596 0.678431
57.586407 64.031006 6.107860 0.633524
57.586407 64.031013 5.460751 0.646922
57.536667 64.095551 4.833392 0.678431
57.536667 64.095551 4.197414 0.678431
57.536667 64.095558 3.566207 0.678431
57.586411 64.031006 2.934377 0.670253
57.586403 64.031013 2.311237 0.660288
57.586403 64.031013 1.688763 0.657160
57.586403 64.031013 1.065622 0.647715
57.586403 64.031013 0.440473 0.648264
58.584000 62.736420 -0.000021 0.233936
60.965912 59.645378 -0.000016 0.252007
62.486557 57.672024 -0.000013 0.254138
63.543457 56.300468 -0.000011 0.188159
64.322136 55.289970 -0.000009 0.183659
57.704121 64.095558 6.759110 0.678431
57.753147 64.031006 6.085977 0.636622
57.753143 64.031013 5.442316 0.647059
57.704124 64.095551 4.818299 0.678431
57.704121 64.095558 4.185708 0.678431
57.712353 64.084717 3.556748 0.119631
57.753147 64.031006 2.929400 0.674479
57.753143 64.031013 2.309579 0.654536
57.753143 64.031013 1.690421 0.639490
57.753143 64.031013 1.070599 0.646632
57.753143 64.031013 0.448781 0.670726
58.680397 62.810173 -0.000021 0.230716
61.040672 59.702576 -0.000016 0.241332
62.547504 57.718651 -0.000014 0.224625
63.594803 56.339752 -0.000011 0.220388
64.366409 55.323841 -0.000009 0.235611
57.869808 64.095558 6.734123 0.678431
57.918125 64.031006 6.064526 0.667124
57.918125 64.031006 5.424242 0.653208
57.869808 64.095551 4.803502 0.678431
57.869808 64.095551 4.174232 0.678431
57.910591 64.041077 3.544105 0.709560
57.918125 64.031006 2.924520 0.646784
57.918121 64.031013 2.307953 0.655726
57.918121 64.031013 1.692046 0.633967
57.918121 64.031013 1.075479 0.646784
57.918121 64.031013 0.456925 0.667674
58.777302 62.883247 -0.000022 0.233098
61.115829 59.759247 -0.000017 0.256328
62.608772 57.764854 -0.000014 0.215769
63.646423 56.378674 -0.000011 0.289718
64.410912 55.357403 -0.000010 0.222123
58.033775 64.095551 6.709624 0.678431
58.081390 64.031006 6.043492 0.670710
58.081390 64.031013 5.406523 0.652094
58.033775 64.095551 4.788994 0.678431
58.033775 64.095558 4.162982 0.678431
58.073967 64.041077 3.536115 0.732784
58.081390 64.031013 2.919736 0.646250
58.081390 64.031013 2.306360 0.655177
58.081387 64.031013 1.693640 0.634012
58.081387 64.031013 1.080263 0.659022
58.081387 64.031013 0.464910 0.672496
58.874722 62.955643 -0.000022 0.233948
61.191383 59.815395 -0.000017 0.211592
62.670364 57.810623 -0.000014 0.209270
63.698311 56.417236 -0.000011 0.187548
64.455658 55.390652 -0.000010 0.238663
58.196060 64.095551 6.685605 0.678431
58.242985 64.031006 6.022871 0.626825
58.242981 64.031006 5.389149 0.619532
58.196056 64.095551 4.774772 0.678431
58.196056 64.095551 4.151951 0.678431
58.235664 64.041069 3.528281 0.709804
58.242981 64.031013 2.915046 0.618296
58.242977 64.031013 2.304797 0.647074
58.242973 64.031013 1.695202 0.633661
58.242973 64.031013 1.084953 0.643351
58.242977 64.031013 0.472739 0.663203
58.972641 63.027359 -0.000022 0.223272
61.267323 59.871010 -0.000017 0.243546
62.732273 57.855965 -0.000014 0.191079
63.750469 56.455433 -0.000011 0.201060
64.500626 55.423588 -0.000010 0.214763
58.356705 64.095551 6.662057 0.678431
58.402939 64.031006 6.002654 0.667750
58.397610 64.038452 5.373783 0.685344
58.356701 64.095551 4.760826 0.678431
58.356701 64.095551 4.141136 0.678431
58.395729 64.041069 3.520600 0.673411
58.402939 64.031006 2.910447 0.647471
58.402935 64.031013 2.303266 0.624537
58.402935 64.031013 1.696734 0.634745
58.402935 64.031013 1.089552 0.675074
58.402935 64.031013 0.480414 0.674205
59.071060 63.098385 -0.000022 0.229508
61.343651 59.926098 -0.000017 0.234498
62.794498 57.900871 -0.000014 0.231255
63.802891 56.493267 -0.000012 0.258290
64.545830 55.456207 -0.000010 0.263831
58.515739 64.095566 6.638973 0.678431
58.561310 64.031006 5.982831 0.624247
58.554195 64.041077 5.357661 0.776471
58.523979 64.083885 4.745036 0.124804
58.523979 64.083885 4.128890 0.129137
58.554199 64.041077 3.513070 0.776471
58.561310 64.031006 2.905938 0.650645
58.561302 64.031013 2.301764 0.655177
58.561302 64.031013 1.698236 0.658549
58.561302 64.031013 1.094061 0.623972
58.561302 64.031013 0.487940 0.657572
59.169971 63.168728 -0.000022 0.218976
61.420361 59.980648 -0.000017 0.209713
62.857033 57.945343 -0.000014 0.247316
63.855576 56.530731 -0.000012 0.273789
64.591255 55.488510 -0.000010 0.187118
58.673222 64.095566 6.616338 0.678431
58.718121 64.031006 5.963396 0.647791
58.711113 64.041077 5.341277 0.776471
58.673229 64.095558 4.733749 0.678431
58.673225 64.095558 4.120137 0.678431
58.711117 64.041077 3.505687 0.777447
58.718121 64.031006 2.901518 0.646418
58.718117 64.031013 2.300291 0.664820
58.718117 64.031013 1.699709 0.635218
58.718117 64.031013 1.098482 0.647059
58.718117 64.031013 0.495318 0.639368
59.269371 63.238373 -0.000022 0.223835
61.497448 60.034664 -0.000017 0.213160
62.919880 57.989376 -0.000014 0.219191
63.908520 56.567825 -0.000012 0.238926
64.636902 55.520496 -0.000010 0.215960
58.866524 64.041077 6.577597 0.776471
58.873421 64.031006 5.944341 0.647288
58.866520 64.041077 5.325212 0.800122
58.866520 64.041077 4.710810 0.776471
58.866524 64.041077 4.102345 0.776471
58.866520 64.041077 3.498448 0.777447
58.873417 64.031006 2.897184 0.640146
58.873413 64.031013 2.298848 0.667399
58.873413 64.031013 1.701152 0.614847
58.873413 64.031013 1.102816 0.636301
58.873413 64.031013 0.502552 0.629892
59.369255 63.307327 -0.000022 0.203154
61.574913 60.088135 -0.000017 0.256794
62.983032 58.032967 -0.000014 0.188099
63.961723 56.604553 -0.000012 0.205273
64.682777 55.552166 -0.000010 0.272018
59.027241 64.031006 6.552874 0.640665
59.027237 64.031006 5.925659 0.611170
59.027237 64.031006 5.307252 0.624292
59.027237 64.031006 4.696168 0.670527
59.027237 64.031006 4.090991 0.646387
59.027241 64.031006 3.490354 0.681163
59.027237 64.031006 2.892934 0.614984
59.027233 64.031013 2.297432 0.667582
59.027233 64.031013 1.702568 0.634012
59.027237 64.031006 1.107066 0.690486
59.027233 64.031013 0.509644 0.659800
59.469620 63.375576 -0.000022 0.229831
61.652752 60.141068 -0.000017 0.223272
63.046486 58.076122 -0.000014 0.192766
64.015182 56.640907 -0.000012 0.201455
64.728874 55.583511 -0.000010 0.221669
60.592934 61.905190 5.892199 0.686076
60.536243 61.990459 5.378117 0.659220
60.536282 61.990402 4.845950 0.660609
60.536217 61.990501 4.320120 0.672984
60.536259 61.990440 3.799341 0.636439
60.536133 61.990623 3.282499 0.621134
60.592918 61.905209 2.763360 0.721340
59.179611 64.031013 2.296044 0.624537
59.179611 64.031013 1.703955 0.642954
59.179611 64.031013 1.111232 0.679576
59.179611 64.031013 0.516598 0.630823
59.570457 63.443130 -0.000022 0.241464
61.730953 60.193459 -0.000017 0.222016
63.110237 58.118832 -0.000014 0.227353
64.068893 56.676888 -0.000012 0.231973
64.775185 55.614532 -0.000010 0.253503
60.722519 61.905312 5.874349 0.715084
60.666275 61.991207 5.362784 0.639048
60.666637 61.990650 4.832925 0.613977
60.666569 61.990753 4.309502 0.653498
60.665955 61.991692 3.791244 0.642573
60.666664 61.990612 3.276604 0.642573
60.722549 61.905266 2.759855 0.725872
59.330578 64.031013 2.294684 0.627985
59.330578 64.031013 1.705316 0.663386
59.330578 64.031013 1.115316 0.667369
59.330582 64.031013 0.523416 0.660838
59.671764 63.509972 -0.000022 0.210658
61.809521 60.245300 -0.000017 0.244862
63.174290 58.161091 -0.000014 0.224002
64.122856 56.712494 -0.000012 0.249697
64.821709 55.645233 -0.000010 0.252498
60.851093 61.905178 5.856771 0.711727
60.789413 62.000820 5.350033 0.791089
60.789413 62.000820 4.822304 0.776471
60.789413 62.000824 4.300825 0.795254
60.789413 62.000824 3.784386 0.776593
60.789413 62.000824 3.271821 0.777111
60.851051 61.905239 2.756414 0.734707
59.480171 64.031013 2.293350 0.650019
59.480171 64.031013 1.706650 0.644724
59.480171 64.031013 1.119321 0.667567
59.480171 64.031013 0.530099 0.638239
60.694080 62.148651 0.195379 0.640665
61.888447 60.296589 -0.000017 0.235145
63.238632 58.202904 -0.000014 0.218617
64.177063 56.747719 -0.000012 0.247364
64.868446 55.675606 -0.000010 0.187895
60.978374 61.905262 5.839603 0.741741
60.883087 62.055305 5.349039 0.678431
60.883087 62.055305 4.821466 0.678431
60.883087 62.055305 4.300142 0.678431
60.883091 62.055302 3.783856 0.678431
60.910080 62.012806 3.267316 0.750927
60.978401 61.905220 2.753041 0.736782
60.809776 62.170753 2.255982 0.683818
60.809776 62.170753 1.744018 0.672374
60.809776 62.170753 1.231506 0.662043
60.809776 62.170753 0.717342 0.633570
60.823254 62.149525 0.203304 0.658503
61.967731 60.347328 -0.000018 0.205177
63.303268 58.244267 -0.000014 0.246167
64.231514 56.782566 -0.000012 0.211305
64.915398 55.705654 -0.000010 0.277618
61.104622 61.905197 5.822730 0.689158
61.010765 62.055305 5.334338 0.678431
61.010765 62.055305 4.809081 0.678431
61.010765 62.055305 4.290045 0.678431
61.010765 62.055302 3.776025 0.678431
61.037338 62.012806 3.261752 0.753246
61.104599 61.905235 2.749736 0.698039
60.895302 62.239960 2.256194 0.687175
60.895302 62.239960 1.743806 0.620157
60.895298 62.239964 1.230869 0.680491
60.895302 62.239960 0.716280 0.629694
60.913937 62.210155 0.202965 0.644450
62.047367 60.397511 -0.000018 0.210563
63.368191 58.285179 -0.000014 0.203861
64.286209 56.817032 -0.000012 0.211891
64.962563 55.735371 -0.000010 0.273119
61.229713 61.905239 5.806219 0.701778
61.137329 62.055305 5.319926 0.678431
61.137329 62.055305 4.796939 0.678431
61.137329 62.055305 4.280147 0.678431
61.137329 62.055302 3.768349 0.678431
61.163490 62.012806 3.256299 0.735668
61.229717 61.905228 2.746495 0.682414
59.921040 64.031013 2.289504 0.646723
59.921043 64.031006 1.710497 0.646967
59.921040 64.031006 1.130868 0.658305
59.921040 64.031013 0.549373 0.647242
60.934174 62.385307 0.187070 0.609827
62.127354 60.447136 -0.000018 0.240722
63.433395 58.325638 -0.000014 0.255167
64.341141 56.851116 -0.000012 0.222626
65.009926 55.764759 -0.000010 0.186711
61.353760 61.905231 5.790020 0.727352
61.262810 62.055305 5.305799 0.678431
61.262810 62.055305 4.785038 0.678431
61.262810 62.055305 4.270444 0.678431
61.262810 62.055305 3.760824 0.678431
61.288567 62.012806 3.250953 0.741619
61.353760 61.905228 2.743319 0.724239
60.065460 64.031013 2.288272 0.620066
60.065460 64.031013 1.711728 0.647013
60.065464 64.031006 1.134567 0.640192
60.065460 64.031013 0.555545 0.635523
60.637596 63.086948 0.100401 0.610468
62.207680 60.496204 -0.000018 0.220424
63.498882 58.365635 -0.000014 0.214069
64.396309 56.884815 -0.000012 0.187393
65.057495 55.793816 -0.000010 0.185430
61.476776 61.905201 5.774136 0.681392
61.387234 62.055305 5.291952 0.678431
61.387234 62.055302 4.773372 0.678431
61.387234 62.055305 4.260934 0.678431
61.387234 62.055302 3.753448 0.678431
61.412582 62.012810 3.245713 0.743282
61.476761 61.905224 2.740205 0.704097
60.208664 64.031013 2.287064 0.618143
60.208664 64.031013 1.712936 0.667399
60.208664 64.031006 1.138192 0.626719
60.208664 64.031013 0.561596 0.673014
60.736382 63.146366 0.100399 0.618006
62.288349 60.544708 -0.000018 0.226372
63.564644 58.405182 -0.000015 0.299627
64.451714 56.918129 -0.000012 0.254580
65.105270 55.822540 -0.000010 0.233170
61.598732 61.905235 5.758584 0.701167
61.510628 62.055305 5.278378 0.678431
61.510628 62.055305 4.761936 0.678431
61.510628 62.055305 4.251612 0.678431
61.510628 62.055305 3.746219 0.678431
61.535576 62.012806 3.240577 0.756359
61.598740 61.905228 2.737153 0.718410
60.350681 64.031013 2.285881 0.623697
60.350681 64.031006 1.714120 0.661204
60.350681 64.031006 1.141745 0.624140
60.350681 64.031013 0.567527 0.668940
60.835575 63.205105 0.100396 0.630381
62.369354 60.592651 -0.000018 0.198224
63.630684 58.444260 -0.000014 0.231961
64.507355 56.951054 -0.000012 0.248309
65.153236 55.850929 -0.000010 0.210024
61.719681 61.905289 5.743349 0.707378
61.664486 62.000824 5.251486 0.798383
61.664486 62.000824 4.739281 0.790585
61.664486 62.000820 4.233141 0.800122
61.664486 62.000820 3.731894 0.797498
61.664486 62.000824 3.234408 0.789380
61.719715 61.905231 2.734163 0.708095
60.485722 64.041077 2.284911 0.750042
60.485722 64.041077 1.715089 0.754696
60.491535 64.031013 1.145228 0.623346
60.491535 64.031013 0.573339 0.671092
60.935173 63.263153 0.100392 0.571511
62.450695 60.640022 -0.000018 0.219730
63.696995 58.482880 -0.000015 0.195639
64.563217 56.983593 -0.000012 0.235731
65.201408 55.878983 -0.000011 0.207942
61.839767 61.905159 5.728364 0.710262
61.754406 62.055313 5.252040 0.678431
61.754406 62.055313 4.739748 0.678431
61.754406 62.055313 4.233522 0.678431
61.754406 62.055313 3.732190 0.678431
61.778568 62.012810 3.230610 0.754208
61.839725 61.905231 2.731231 0.704143
60.594570 64.095558 2.284798 0.678431
60.594570 64.095558 1.715201 0.678431
60.631264 64.031006 1.148641 0.623438
60.631260 64.031013 0.579036 0.674342
61.035183 63.320480 0.100390 0.604044
62.532364 60.686829 -0.000018 0.211065
63.763569 58.521042 -0.000015 0.212035
64.619308 57.015736 -0.000012 0.251074
65.249771 55.906704 -0.000011 0.232392
61.958786 61.905224 5.713735 0.704036
61.874847 62.055313 5.239264 0.678431
61.874847 62.055313 4.728983 0.678431
61.874847 62.055313 4.224747 0.678431
61.874847 62.055313 3.725384 0.678431
61.898617 62.012810 3.225775 0.737011
61.958778 61.905239 2.728358 0.702388
60.733780 64.095558 2.283680 0.678431
60.733780 64.095558 1.716320 0.678431
60.769878 64.031013 1.151986 0.634256
60.769878 64.031013 0.584619 0.636072
61.135582 63.377129 0.100387 0.605219
62.614353 60.733063 -0.000018 0.241320
63.830414 58.558727 -0.000015 0.215374
64.675613 57.047489 -0.000012 0.208145
65.298325 55.934078 -0.000010 0.284620
62.076885 61.905296 5.699401 0.730877
61.994354 62.055313 5.226743 0.678431
61.994354 62.055313 4.718436 0.678431
61.994350 62.055313 4.216148 0.678431
61.994354 62.055313 3.718715 0.678431
62.017735 62.012814 3.221037 0.771664
62.076931 61.905209 2.725541 0.685847
60.871914 64.095558 2.282583 0.678431
60.871914 64.095558 1.717417 0.678431
60.907425 64.031006 1.155264 0.644022
60.907421 64.031013 0.590089 0.646845
61.236568 63.432724 0.100429 0.607691
62.696667 60.778725 -0.000018 0.225714
63.897518 58.595955 -0.000015 0.201359
64.732147 57.078850 -0.000012 0.204255
65.347069 55.961121 -0.000011 0.237215
62.194065 61.905388 5.685362 0.708354
62.112942 62.055313 5.214476 0.678431
62.112942 62.055313 4.708100 0.678431
62.112942 62.055313 4.207723 0.678431
62.112942 62.055313 3.712181 0.678431
62.135941 62.012810 3.216395 0.743618
62.194153 61.905228 2.722784 0.722057
61.008987 64.095558 2.281509 0.678431
61.008987 64.095558 1.718491 0.678431
61.043915 64.031006 1.158475 0.634043
61.043911 64.031013 0.595450 0.646433
61.337646 63.488152 0.100401 0.624887
62.779301 60.823803 -0.000018 0.234510
63.964882 58.632706 -0.000015 0.293859
64.788902 57.109814 -0.000012 0.247914
65.396004 55.987816 -0.000010 0.225834
62.310562 61.905113 5.671504 0.709712
62.230640 62.055313 5.202456 0.678431
62.230640 62.055313 4.697975 0.678431
62.230640 62.055313 4.199468 0.678431
62.230640 62.055313 3.705779 0.678431
62.253258 62.012810 3.211847 0.733425
62.310493 61.905239 2.720082 0.709804
61.145031 64.095551 2.280456 0.678431
61.145031 64.095551 1.719544 0.678431
61.179375 64.031013 1.161622 0.611322
61.179375 64.031013 0.600702 0.651225
61.438667 63.543705 0.100265 0.598489
62.862240 60.868313 -0.000018 0.243809
64.032501 58.668987 -0.000015 0.207726
64.845871 57.140381 -0.000013 0.242541
65.445122 56.014172 -0.000010 0.218437
62.426010 61.905182 5.658025 0.737392
62.347466 62.055313 5.190681 0.678431
62.347466 62.055313 4.688055 0.678431
62.347466 62.055313 4.191381 0.678431
62.347466 62.055313 3.699507 0.678431
62.369701 62.012810 3.207391 0.774914
62.425976 61.905251 2.717435 0.713344
61.280064 64.095558 2.279425 0.678431
61.280064 64.095558 1.720575 0.678431
61.313835 64.031006 1.164704 0.622461
61.313831 64.031013 0.605847 0.621973
61.541416 63.596004 0.100459 0.532326
62.945492 60.912239 -0.000018 0.226288
64.100365 58.704800 -0.000015 0.212872
64.903046 57.170547 -0.000012 0.257022
65.494423 56.040184 -0.000010 0.200809
62.540611 61.905266 5.644825 0.688151
62.463444 62.055309 5.179148 0.678431
62.463440 62.055313 4.678338 0.678431
62.463440 62.055313 4.183459 0.678431
62.463444 62.055313 3.693363 0.678431
62.485302 62.012810 3.203026 0.721828
62.540649 61.905197 2.714839 0.717891
61.414116 64.095558 2.278415 0.678431
61.414116 64.095558 1.721585 0.678431
61.447315 64.031013 1.167724 0.631800
61.447315 64.031013 0.610886 0.669856
61.642841 63.650841 0.100232 0.532113
63.029049 60.955582 -0.000018 0.251421
64.168480 58.740135 -0.000015 0.204303
64.960434 57.200317 -0.000012 0.299208
65.543900 56.065853 -0.000011 0.189236
62.652557 61.908985 5.632916 0.723476
62.578587 62.055313 5.167851 0.678431
62.578587 62.055313 4.668820 0.678431
62.578587 62.055313 4.175700 0.678431
62.578590 62.055313 3.687346 0.678431
62.600075 62.012810 3.198751 0.740398
62.654461 61.905220 2.712300 0.718212
61.547211 64.095558 2.277426 0.678431
61.547211 64.095558 1.722574 0.678431
61.579838 64.031013 1.170681 0.640894
61.579838 64.031013 0.615822 0.649805
61.746738 63.700855 0.100536 0.542031
63.112904 60.998344 -0.000019 0.230872
64.236847 58.774994 -0.000015 0.231470
65.018021 57.229683 -0.000013 0.217312
65.593559 56.091175 -0.000011 0.233637
62.758518 61.923275 5.624227 0.697719
62.692924 62.055313 5.156787 0.678431
62.692924 62.055313 4.659499 0.678431
62.692924 62.055313 4.168102 0.678431
62.692924 62.055313 3.681453 0.678431
62.714039 62.012810 3.194564 0.756024
62.767479 61.905239 2.709813 0.724926
61.679367 64.095551 2.276457 0.678431
61.679367 64.095551 1.723544 0.678431
61.711430 64.031013 1.173578 0.638468
61.711433 64.031006 0.620657 0.649729
61.848511 63.755074 0.100205 0.595834
63.197056 61.040516 -0.000019 0.213016
64.305450 58.809372 -0.000015 0.213866
65.075821 57.258652 -0.000013 0.251708
65.643394 56.116150 -0.000011 0.215110
62.851517 61.963024 5.622867 0.691905
62.806469 62.055313 5.145953 0.678431
62.806469 62.055313 4.650372 0.678431
62.806469 62.055313 4.160661 0.678431
62.806469 62.055313 3.675682 0.678431
62.827217 62.012806 3.190465 0.742138
62.879711 61.905258 2.707378 0.697185
61.810612 64.095558 2.275508 0.678431
61.810612 64.095558 1.724492 0.678431
61.842117 64.031013 1.176414 0.633173
61.842117 64.031013 0.625391 0.643778
61.953453 63.802910 0.100602 0.595422
63.281502 61.082100 -0.000019 0.258171
64.374290 58.843273 -0.000015 0.249925
65.133820 57.287209 -0.000012 0.220005
65.693405 56.140774 -0.000010 0.242924
62.947910 61.995529 5.619681 0.678431
62.919243 62.055313 5.135345 0.678431
62.919243 62.055313 4.641436 0.678431
62.919243 62.055313 4.153376 0.678431
62.945366 62.000832 3.663082 0.710018
62.939625 62.012810 3.186450 0.768399
62.991241 61.905159 2.704987 0.703426
61.940964 64.095551 2.274579 0.678431
61.940964 64.095551 1.725421 0.678431
61.971912 64.031013 1.179191 0.615747
61.971912 64.031013 0.630026 0.628504
62.055542 63.856602 0.100156 0.612314
63.366238 61.123093 -0.000019 0.195076
64.443367 58.876694 -0.000015 0.212047
65.192017 57.315365 -0.000012 0.239357
65.743584 56.165051 -0.000011 0.259344
63.056923 62.000828 5.609159 0.770611
63.031265 62.055313 5.124961 0.678431
63.031265 62.055313 4.632687 0.678431
63.031265 62.055317 4.146244 0.678431
63.056923 62.000832 3.657573 0.678706
63.051285 62.012806 3.182521 0.769116
63.101967 61.905186 2.702654 0.687816
62.070446 64.095558 2.273669 0.678431
62.070446 64.095558 1.726331 0.678431
62.100842 64.031013 1.181909 0.615473
62.100842 64.031013 0.634563 0.612787
62.161434 63.902348 0.100632 0.549325
63.451252 61.163498 -0.000019 0.258613
64.512680 58.909630 -0.000015 0.229220
65.250404 57.343113 -0.000013 0.195686
65.793930 56.188976 -0.000011 0.252582
63.167747 62.000828 5.597420 0.784375
63.142555 62.055313 5.114796 0.678431
63.142555 62.055313 4.624123 0.678431
63.142555 62.055313 4.139262 0.678431
63.167747 62.000832 3.652182 0.735348
63.162209 62.012810 3.178675 0.747036
63.211964 61.905212 2.700370 0.703502
62.199078 64.095558 2.272779 0.678431
62.199078 64.095558 1.727221 0.678431
62.228928 64.031006 1.184571 0.611231
62.228928 64.031006 0.639005 0.632074
62.263786 63.955627 0.100057 0.597009
63.536552 61.203300 -0.000019 0.238304
64.582214 58.942081 -0.000015 0.209473
65.308990 57.370453 -0.000013 0.227545
65.844437 56.212547 -0.000011 0.223213
63.277863 62.000828 5.585931 0.776471
63.253124 62.055313 5.104848 0.678431
63.253124 62.055313 4.615742 0.678431
63.253124 62.055313 4.132430 0.678431
63.277859 62.000832 3.646905 0.752026
63.272423 62.012806 3.174910 0.759197
63.321255 61.905243 2.698135 0.703853
62.326885 64.095558 2.271908 0.678431
62.326885 64.095558 1.728092 0.678431
62.356186 64.031013 1.187175 0.603555
62.356186 64.031013 0.643351 0.663539
62.370575 63.999321 0.100604 0.572488
63.622128 61.242512 -0.000019 0.208432
64.651978 58.974045 -0.000015 0.239632
65.367760 57.397385 -0.000013 0.223440
65.895111 56.235767 -0.000011 0.193724
63.387276 62.000832 5.574688 0.758862
63.362995 62.055313 5.095114 0.678431
63.362999 62.055313 4.607542 0.678431
63.362999 62.055313 4.125744 0.678431
63.387276 62.000832 3.641741 0.794202
63.381939 62.012806 3.171226 0.743740
63.429859 61.905266 2.695947 0.728618
62.453880 64.095558 2.271055 0.678431
62.453880 64.095558 1.728945 0.678431
62.482643 64.031013 1.189723 0.588571
62.482643 64.031006 0.647605 0.628901
62.482643 64.031013 0.102568 0.607279
63.707970 61.281124 -0.000019 0.223643
64.721962 59.005524 -0.000015 0.207642
65.426720 57.423901 -0.000013 0.237873
65.945953 56.258636 -0.000011 0.241344
63.496010 62.000832 5.563689 0.731228
63.472191 62.055313 5.085590 0.678431
63.472191 62.055313 4.599518 0.678431
63.472191 62.055313 4.119204 0.678431
63.496010 62.000832 3.636690 0.771847
63.490776 62.012806 3.167623 0.759304
63.537849 61.905144 2.693799 0.701701
62.603912 64.041084 2.269249 0.776471
62.603912 64.041084 1.730751 0.776471
62.608315 64.031013 1.192216 0.634195
62.608315 64.031013 0.651766 0.645960
62.608315 64.031013 0.108407 0.624521
63.794083 61.319134 -0.000019 0.223536
64.792160 59.036510 -0.000015 0.246873
65.485863 57.450008 -0.000013 0.274698
65.996948 56.281147 -0.000011 0.206649
63.604088 62.000832 5.552931 0.734676
63.580715 62.055313 5.076275 0.678431
63.580715 62.055313 4.591671 0.678431
63.580719 62.055313 4.112805 0.678431
63.604088 62.000832 3.631749 0.792340
63.598949 62.012806 3.164097 0.751995
63.645123 61.905167 2.691706 0.725292
62.728905 64.041077 2.268436 0.741176
62.728905 64.041077 1.731564 0.745373
62.728905 64.041077 1.194117 0.776944
62.728905 64.041077 0.654938 0.807477
62.728905 64.041077 0.112857 0.723766
63.880459 61.356544 -0.000019 0.243163
64.862579 59.067009 -0.000015 0.210287
65.545181 57.475700 -0.000013 0.223536
66.048096 56.303299 -0.000011 0.247675
63.711517 62.000832 5.542409 0.723064
63.688595 62.055313 5.067165 0.678431
63.688595 62.055313 4.583995 0.678431
63.688595 62.055313 4.106547 0.678431
63.711517 62.000832 3.626916 0.804028
63.706478 62.012806 3.160650 0.745251
63.751751 61.905201 2.689659 0.714076
62.826019 64.105553 2.268785 0.678431
62.842850 64.065552 1.731925 0.149020
62.842850 64.065552 1.195199 0.133288
62.847057 64.055557 0.657633 0.482353
62.847054 64.055557 0.116639 0.450980
63.967094 61.393353 -0.000019 0.238352
64.933205 59.097012 -0.000015 0.222267
65.604683 57.500977 -0.000013 0.235719
66.099403 56.325092 -0.000011 0.266943
63.818317 62.000832 5.532121 0.762539
63.795841 62.055313 5.058257 0.678431
63.795841 62.055313 4.576490 0.678431
63.795841 62.055313 4.100430 0.678431
63.818317 62.000828 3.622191 0.803662
63.813377 62.012806 3.157279 0.748440
63.857758 61.905228 2.687657 0.722667
62.950066 64.105553 2.268005 0.678431
62.966568 64.065552 1.732703 0.160784
62.966568 64.065552 1.197536 0.117647
62.970692 64.055557 0.661532 0.482353
62.970692 64.055557 0.122109 0.462745
64.053986 61.429550 -0.000019 0.264753
65.004044 59.126526 -0.000015 0.190109
65.664360 57.525841 -0.000013 0.200581
66.150856 56.346531 -0.000011 0.211676
63.922924 62.004742 5.523120 0.792691
63.902473 62.055313 5.049548 0.678431
63.902473 62.055313 4.569154 0.678431
63.902473 62.055313 4.094450 0.678431
63.924507 62.000832 3.617572 0.799573
63.919662 62.012802 3.153984 0.746349
63.963154 61.905258 2.685701 0.699779
63.073399 64.105553 2.267241 0.678431
63.089573 64.065559 1.733464 0.118639
63.089573 64.065559 1.199821 0.129412
63.093616 64.055557 0.665343 0.482353
63.093616 64.055557 0.127456 0.455207
64.141129 61.465141 -0.000019 0.235528
65.075081 59.155540 -0.000015 0.240877
65.724213 57.550285 -0.000013 0.213052
66.202461 56.367607 -0.000011 0.200833
64.016327 62.035561 5.521591 0.780224
64.008499 62.055313 5.041038 0.678431
64.008499 62.055313 4.561984 0.678431
64.008507 62.055313 4.088604 0.678431
64.030090 62.000828 3.613057 0.776379
64.025345 62.012806 3.150764 0.752483
64.067955 61.905285 2.683789 0.703685
63.196037 64.105553 2.266496 0.678431
63.211887 64.065559 1.734208 0.126955
63.211887 64.065559 1.202054 0.129412
63.215847 64.055557 0.669068 0.482353
63.215851 64.055557 0.132682 0.455207
64.228508 61.500126 -0.000019 0.219682
65.146317 59.184063 -0.000015 0.214213
65.784225 57.574310 -0.000013 0.264406
66.254211 56.388325 -0.000011 0.230058
64.135101 62.000835 5.502628 0.752483
64.135101 62.000832 5.020099 0.749966
64.135101 62.000835 4.544344 0.754070
64.135101 62.000835 4.074224 0.738430
64.135101 62.000832 3.608646 0.777752
64.135101 62.000832 3.146564 0.752331
64.172256 61.905128 2.681910 0.724239
63.317997 64.105560 2.265767 0.678431
63.333527 64.065559 1.734935 0.135775
63.333527 64.065559 1.204236 0.148241
63.337406 64.055557 0.672708 0.482353
63.337406 64.055557 0.137788 0.474510
64.316139 61.534496 -0.000019 0.229268
65.217758 59.212086 -0.000016 0.205572
65.844414 57.597919 -0.000013 0.208636
66.306099 56.408680 -0.000011 0.215589
64.230232 62.025303 5.499804 0.822766
64.228310 62.030369 5.018834 0.839216
64.228310 62.030369 4.543277 0.827451
64.228310 62.030369 4.073354 0.839216
64.239540 62.000828 3.604337 0.778119
64.234985 62.012802 3.144542 0.758755
64.275917 61.905163 2.680086 0.694209
63.439301 64.105560 2.265055 0.678431
63.454506 64.065559 1.735645 0.138659
63.454506 64.065559 1.206368 0.133272
63.458309 64.055557 0.676263 0.482353
63.458309 64.055557 0.142777 0.471244
64.404007 61.568256 -0.000019 0.226779
65.289391 59.239601 -0.000015 0.206505
65.904762 57.621105 -0.000013 0.209952
66.358139 56.428673 -0.000011 0.235264
64.334312 62.025303 5.490623 0.815076
64.323143 62.055309 5.016662 0.678431
64.323143 62.055309 4.541449 0.678431
64.323143 62.055309 4.071863 0.678431
64.343422 62.000832 3.600129 0.776684
64.338966 62.012806 3.141540 0.748638
64.379028 61.905190 2.678303 0.668544
63.559959 64.105553 2.264360 0.678431
63.574844 64.065559 1.736338 0.118868
63.574844 64.065559 1.208450 0.117647
63.578571 64.055557 0.679735 0.482353
63.578568 64.055557 0.147648 0.453376
64.492111 61.601406 -0.000020 0.238663
65.361206 59.266624 -0.000016 0.228466
65.965271 57.643867 -0.000013 0.293105
66.410309 56.448299 -0.000011 0.258410
64.437859 62.025303 5.481661 0.824659
64.426926 62.055305 5.008916 0.678431
64.426926 62.055305 4.534923 0.678431
64.426926 62.055309 4.066544 0.678431
64.446770 62.000832 3.596020 0.764019
64.442406 62.012810 3.138609 0.757580
64.481606 61.905224 2.676563 0.689296
63.679993 64.105553 2.263681 0.678431
63.694565 64.065559 1.737015 0.129412
63.694565 64.065559 1.210482 0.129412
63.698208 64.055557 0.683125 0.482353
63.698208 64.055557 0.152404 0.462745
64.580437 61.633934 -0.000020 0.221298
65.433220 59.293144 -0.000015 0.230046
66.025932 57.666210 -0.000013 0.211197
66.462616 56.467564 -0.000011 0.245592
64.540871 62.025307 5.472912 0.827451
64.530182 62.055305 5.001356 0.678431
64.530182 62.055309 4.528553 0.678431
64.530174 62.055309 4.061351 0.678431
64.549599 62.000832 3.592010 0.771405
64.545326 62.012810 3.135748 0.752941
64.583664 61.905251 2.674865 0.702541
63.799419 64.105560 2.263019 0.678431
63.813675 64.065559 1.737676 0.148028
63.813675 64.065559 1.212466 0.129412
63.817238 64.055557 0.686434 0.482353
63.817238 64.055557 0.157047 0.462287
64.668991 61.665848 -0.000020 0.199935
65.505409 59.319160 -0.000016 0.216702
66.086754 57.688129 -0.000013 0.258314
66.515060 56.486462 -0.000012 0.244767
64.643372 62.025307 5.464377 0.826185
64.632919 62.055305 4.993979 0.678431
64.632919 62.055305 4.522338 0.678431
64.632919 62.055309 4.056284 0.678431
64.651909 62.000832 3.588097 0.754742
64.647736 62.012810 3.132957 0.767407
64.685211 61.905277 2.673207 0.677745
63.940727 64.041069 2.261255 0.733669
63.940727 64.041069 1.738745 0.742138
63.940727 64.041077 1.215675 0.764706
63.940727 64.041069 0.690921 0.742138
63.940727 64.041069 0.163342 0.717784
64.757767 61.697140 -0.000020 0.230369
65.577782 59.344669 -0.000015 0.227473
66.147720 57.709621 -0.000013 0.196046
66.567627 56.504997 -0.000011 0.238280
64.745384 62.025311 5.456052 0.825864
64.735161 62.055305 4.986783 0.678431
64.735161 62.055305 4.516276 0.678431
64.735161 62.055305 4.051342 0.678431
64.753723 62.000824 3.584280 0.694331
64.749641 62.012810 3.130234 0.735668
64.786278 61.905308 2.671591 0.703883
64.050621 64.064133 2.261026 0.791699
64.050621 64.064133 1.738975 0.794888
64.061905 64.031013 1.218083 0.667216
64.061905 64.031013 0.694938 0.603525
64.061905 64.031013 0.168978 0.616632
64.846756 61.727814 -0.000020 0.207499
65.650330 59.369675 -0.000015 0.282047
66.208847 57.730686 -0.000013 0.236473
66.620331 56.523155 -0.000011 0.205692
64.846901 62.025311 5.447934 0.829618
64.842155 62.039566 4.976183 0.129412
64.842155 62.039562 4.507345 0.119829
64.842163 62.039562 4.044062 0.123186
64.855057 62.000828 3.580558 0.722637
64.851067 62.012810 3.127579 0.742794
64.886925 61.905121 2.670003 0.701488
64.157532 64.095558 2.260954 0.678431
64.157532 64.095558 1.739046 0.678431
64.179016 64.031013 1.219919 0.624765
64.179024 64.031013 0.698004 0.616709
64.179024 64.031013 0.173280 0.618891
64.935966 61.757862 -0.000020 0.238579
65.723053 59.394173 -0.000015 0.206158
66.270111 57.751328 -0.000014 0.204686
66.673157 56.540951 -0.000011 0.214021
64.955917 62.000824 5.433570 0.735470
64.955917 62.000824 4.960554 0.701625
64.955917 62.000828 4.494180 0.693629
64.955917 62.000828 4.033328 0.716548
64.955917 62.000828 3.576931 0.717601
64.955917 62.000828 3.123958 0.723156
64.987038 61.905155 2.668468 0.701701
64.274597 64.095551 2.260355 0.678431
64.274597 64.095551 1.739645 0.678431
64.295593 64.031013 1.221710 0.653941
64.295593 64.031013 0.700992 0.628489
64.295593 64.031013 0.177472 0.635477
65.025375 61.787292 -0.000019 0.218892
65.795944 59.418167 -0.000016 0.261857
66.331520 57.771534 -0.000013 0.195435
66.726105 56.558380 -0.000011 0.206601
65.059502 61.990829 5.423248 0.648722
65.059494 61.990833 4.951655 0.664714
65.059494 61.990833 4.486682 0.628214
65.059502 61.990829 4.027215 0.637415
65.059502 61.990829 3.572190 0.640711
65.059502 61.990829 3.120579 0.632471
65.086700 61.905182 2.666971 0.702754
64.391136 64.095558 2.259772 0.678431
64.391136 64.095558 1.740228 0.678431
64.411636 64.031013 1.223454 0.648554
64.411636 64.031013 0.703903 0.638376
64.411636 64.031013 0.181557 0.655192
65.114990 61.816090 -0.000020 0.242589
65.868996 59.441647 -0.000016 0.242146
66.393066 57.791317 -0.000013 0.206697
66.779167 56.575436 -0.000011 0.253324
65.159386 61.990822 5.415757 0.656123
65.159386 61.990818 4.945193 0.647059
65.159386 61.990818 4.481238 0.655207
65.159386 61.990822 4.022779 0.642741
65.159386 61.990818 3.568749 0.646922
65.159386 61.990818 3.118126 0.647898
65.185913 61.905212 2.665514 0.722789
64.507164 64.095558 2.259203 0.678431
64.507164 64.095558 1.740797 0.678431
64.527161 64.031013 1.225153 0.615412
64.527161 64.031013 0.706739 0.615259
64.527161 64.031013 0.185535 0.640558
65.204803 61.844269 -0.000020 0.205967
65.942215 59.464615 -0.000016 0.238914
66.454750 57.810669 -0.000013 0.207654
66.832359 56.592121 -0.000011 0.261031
65.258842 61.990807 5.408463 0.648219
65.258842 61.990807 4.938905 0.636164
65.258842 61.990810 4.475941 0.635981
65.258842 61.990807 4.018459 0.641550
65.258842 61.990807 3.565399 0.617761
65.258842 61.990810 3.115739 0.629023
65.284706 61.905243 2.664094 0.704173
65.204391 62.170967 2.225749 0.657374
65.204391 62.170967 1.774251 0.711635
65.204391 62.170967 1.322268 0.663157
65.204391 62.170967 0.868829 0.627436
65.204391 62.170963 0.412950 0.621744
65.294807 61.871819 -0.000020 0.220292
66.015594 59.487072 -0.000016 0.247280
66.516563 57.829590 -0.000013 0.242170
66.885658 56.608437 -0.000011 0.195710
65.357880 61.990799 5.401365 0.663355
65.357880 61.990795 4.932786 0.648615
65.357880 61.990799 4.470785 0.633295
65.357880 61.990799 4.014256 0.616831
65.357880 61.990799 3.562140 0.632990
65.357880 61.990799 3.113415 0.670954
65.383080 61.905270 2.662714 0.746731
65.302628 62.178314 2.225405 0.632120
65.302628 62.178314 1.774595 0.658076
65.302628 62.178314 1.323302 0.692683
65.302628 62.178318 0.870555 0.703670
65.302628 62.178314 0.415371 0.679072
65.385002 61.898739 -0.000020 0.228526
66.089127 59.509018 -0.000016 0.231554
66.578514 57.848076 -0.000013 0.242960
66.939072 56.624374 -0.000011 0.231458
65.456772 61.989883 5.394227 0.687617
65.456764 61.989910 4.926638 0.698253
65.456757 61.989933 4.465610 0.688777
65.456749 61.989960 4.010040 0.697978
65.456749 61.989971 3.558872 0.692027
65.456764 61.989906 3.111081 0.697749
65.481056 61.905296 2.661371 0.717296
65.379356 62.259544 2.226331 0.678203
65.379356 62.259544 1.773670 0.649226
65.379356 62.259544 1.320523 0.627832
65.379356 62.259544 0.865917 0.689693
65.379356 62.259544 0.408863 0.671717
65.475388 61.925022 -0.000020 0.215062
66.162811 59.530449 -0.000016 0.235803
66.640587 57.866135 -0.000014 0.222782
66.992599 56.639942 -0.000011 0.190756
65.552544 61.998653 5.389802 0.783703
65.552544 61.998650 4.922815 0.778286
65.552544 61.998653 4.462385 0.770001
65.552544 61.998650 4.007408 0.792309
65.552544 61.998653 3.556829 0.779110
65.552544 61.998653 3.109630 0.802396
65.578705 61.905071 2.660052 0.708080
64.966393 64.095558 2.257080 0.678431
64.966393 64.095558 1.742921 0.678431
64.984436 64.031013 1.231503 0.625742
64.984436 64.031013 0.717337 0.634379
64.984436 64.031013 0.200404 0.628855
65.565956 61.950680 -0.000020 0.263305
66.236641 59.551365 -0.000016 0.206517
66.702789 57.883755 -0.000013 0.197182
67.046227 56.655136 -0.000011 0.240769
65.635040 62.055313 5.397990 0.678431
65.635040 62.055305 4.929874 0.678431
65.635040 62.055309 4.468332 0.678431
65.635040 62.055305 4.012257 0.678431
65.646606 62.012810 3.555522 0.749187
65.646606 62.012806 3.108699 0.745708
65.675903 61.905098 2.658784 0.721569
65.080055 64.095558 2.256585 0.678431
65.080055 64.095558 1.743415 0.678431
65.097610 64.031013 1.232981 0.622583
65.097610 64.031013 0.719804 0.613016
65.097610 64.031013 0.203866 0.660960
65.656700 61.975708 -0.000020 0.232224
66.310616 59.571766 -0.000016 0.220221
66.765114 57.900940 -0.000013 0.254700
67.099968 56.669956 -0.000011 0.275416
65.733002 62.055309 5.391631 0.678431
65.733002 62.055309 4.924392 0.678431
65.733009 62.055305 4.463713 0.678431
65.733002 62.055305 4.008492 0.678431
65.744247 62.012806 3.552611 0.754208
65.744247 62.012806 3.106624 0.733989
65.772736 61.905125 2.657553 0.695659
65.207695 64.041077 2.255183 0.752743
65.207695 64.041077 1.744817 0.758175
65.210358 64.031013 1.234416 0.646235
65.210358 64.031013 0.722200 0.620279
65.210358 64.031013 0.207227 0.649546
65.747612 62.000095 -0.000020 0.217133
66.384727 59.591648 -0.000016 0.200893
66.827553 57.917694 -0.000013 0.258554
67.153801 56.684399 -0.000011 0.205835
65.830605 62.055305 5.385461 0.678431
65.830605 62.055309 4.919073 0.678431
65.830605 62.055305 4.459231 0.678431
65.830605 62.055305 4.004837 0.678431
65.841530 62.012806 3.549787 0.749126
65.841537 62.012802 3.104611 0.710903
65.869209 61.905159 2.656358 0.705882
65.306099 64.095551 2.255639 0.678431
65.306099 64.095551 1.744361 0.678431
65.322693 64.031013 1.235809 0.630610
65.322693 64.031006 0.724525 0.638224
65.322693 64.031013 0.210488 0.652811
65.838692 62.023849 -0.000020 0.240147
66.458984 59.611012 -0.000016 0.219814
66.890106 57.934006 -0.000014 0.245269
67.207741 56.698467 -0.000011 0.200988
65.927856 62.055305 5.379477 0.678431
65.927856 62.055305 4.913914 0.678431
65.927856 62.055305 4.454885 0.678431
65.927856 62.055305 4.001294 0.678431
65.938469 62.012806 3.547048 0.749279
65.938469 62.012802 3.102659 0.713436
65.965340 61.905182 2.655200 0.710384
65.418510 64.095551 2.255187 0.678431
65.418510 64.095551 1.744813 0.678431
65.434624 64.031013 1.237159 0.650019
65.434624 64.031013 0.726779 0.615854
65.434624 64.031013 0.213650 0.652811
65.943939 61.990898 0.008553 0.566857
66.533371 59.629860 -0.000016 0.200869
66.952774 57.949886 -0.000014 0.225929
67.261772 56.712158 -0.000011 0.213674
66.024773 62.055302 5.373679 0.678431
66.024773 62.055305 4.908914 0.678431
66.024773 62.055305 4.450674 0.678431
66.024773 62.055305 3.997860 0.678431
66.035065 62.012802 3.544393 0.750347
66.035065 62.012802 3.100767 0.712016
66.061127 61.905212 2.654077 0.698222
65.530525 64.095551 2.254749 0.678431
65.530525 64.095551 1.745251 0.678431
65.546165 64.031013 1.238468 0.661494
65.546165 64.031013 0.728963 0.624598
65.546165 64.031006 0.216715 0.631266
66.040375 61.990898 0.011970 0.563394
66.607887 59.648190 -0.000016 0.228550
67.015556 57.965328 -0.000014 0.204794
67.315903 56.725471 -0.000011 0.224445
66.121361 62.055305 5.368066 0.678431
66.121361 62.055305 4.904073 0.678431
66.121361 62.055305 4.446596 0.678431
66.121361 62.055305 3.994536 0.678431
66.131340 62.012802 3.541823 0.755795
66.131340 62.012802 3.098935 0.748806
66.156609 61.905231 2.652990 0.685740
65.642166 64.095551 2.254325 0.678431
65.642166 64.095551 1.745675 0.678431
65.657326 64.031013 1.239735 0.656138
65.657326 64.031013 0.731078 0.646510
65.657326 64.031013 0.219683 0.672343
66.136482 61.990898 0.015278 0.570977
66.682533 59.665993 -0.000016 0.200761
67.078438 57.980328 -0.000014 0.204638
67.370125 56.738407 -0.000011 0.222913
66.217628 62.055302 5.362633 0.678431
66.217628 62.055302 4.899389 0.678431
66.217628 62.055305 4.442650 0.678431
66.217628 62.055305 3.991320 0.678431
66.227295 62.012802 3.539337 0.752132
66.227295 62.012802 3.097163 0.735698
66.251762 61.905262 2.651938 0.685100
65.753441 64.095551 2.253915 0.678431
65.753441 64.095551 1.746085 0.678431
65.768127 64.031013 1.240961 0.635523
65.768127 64.031006 0.733125 0.621881
65.768127 64.031013 0.222553 0.682902
66.232285 61.990891 0.018479 0.590036
66.757294 59.683281 -0.000016 0.251421
67.141426 57.994888 -0.000013 0.224589
67.424438 56.750961 -0.000011 0.238364
66.314598 62.050728 5.356209 0.129229
66.314598 62.050728 4.893850 0.143847
66.314598 62.050728 4.437983 0.109422
66.314598 62.050728 3.987515 0.122286
66.322952 62.012802 3.536933 0.760021
66.322952 62.012802 3.095449 0.740856
66.346626 61.905281 2.650921 0.696696
65.864365 64.095551 2.253518 0.678431
65.864365 64.095551 1.746481 0.678431
65.878578 64.031013 1.242147 0.646235
65.878578 64.031013 0.735102 0.591745
65.878578 64.031013 0.225329 0.624475
66.327774 61.990898 0.021573 0.605783
66.832176 59.700043 -0.000016 0.258219
67.204514 58.009010 -0.000013 0.237526
67.478828 56.763138 -0.000011 0.222937
66.420860 62.000824 5.338359 0.664057
66.420860 62.000824 4.878460 0.686961
66.420860 62.000824 4.425017 0.682277
66.420860 62.000824 3.976945 0.711254
66.420860 62.000828 3.533204 0.685634
66.420860 62.000828 3.092791 0.715450
66.441193 61.905308 2.649939 0.724453
65.974945 64.095551 2.253136 0.678431
65.974945 64.095551 1.746864 0.678431
65.988686 64.031006 1.243292 0.650370
65.988686 64.031013 0.737013 0.622248
65.988686 64.031013 0.228010 0.621668
66.422974 61.990894 0.024561 0.617868
66.907173 59.716282 -0.000016 0.250547
67.267700 58.022690 -0.000014 0.193808
67.533310 56.774933 -0.000011 0.189475
66.504646 62.055305 5.347419 0.678431
66.504646 62.055309 4.886271 0.678431
66.504646 62.055309 4.431599 0.678431
66.504646 62.055309 3.982311 0.678431
66.513382 62.012814 3.532373 0.759594
66.513382 62.012810 3.092199 0.718410
66.535477 61.905331 2.648992 0.697536
66.085197 64.095551 2.252766 0.678431
66.085197 64.095551 1.747234 0.678431
66.098465 64.031006 1.244396 0.664210
66.098465 64.031006 0.738857 0.621500
66.098465 64.031013 0.230596 0.647852
66.517891 61.990894 0.027444 0.629541
66.982285 59.731998 -0.000016 0.213590
67.330978 58.035931 -0.000013 0.214332
67.587868 56.786350 -0.000011 0.236796
66.599754 62.055305 5.342703 0.678431
66.599754 62.055309 4.882205 0.678431
66.599754 62.055309 4.428173 0.678431
66.599754 62.055313 3.979517 0.678431
66.608185 62.012810 3.530214 0.761608
66.608185 62.012814 3.090661 0.758190
66.629555 61.905060 2.648064 0.704616
66.195137 64.095551 2.252410 0.678431
66.195137 64.095551 1.747590 0.678431
66.207932 64.031006 1.245461 0.656275
66.207932 64.031013 0.740633 0.647364
66.207932 64.031013 0.233089 0.646601
66.612534 61.990894 0.030224 0.538201
67.057503 59.747189 -0.000016 0.296540
67.394341 58.048729 -0.000014 0.204267
67.642509 56.797386 -0.000011 0.211412
66.694611 62.055305 5.338163 0.678431
66.694603 62.055309 4.878291 0.678431
66.694603 62.055309 4.424874 0.678431
66.694603 62.055313 3.976829 0.678431
66.702728 62.012814 3.528135 0.763867
66.702728 62.012814 3.089179 0.739071
66.723312 61.905087 2.647185 0.711604
66.304771 64.095551 2.252067 0.678431
66.304771 64.095551 1.747932 0.678431
66.317101 64.031013 1.246485 0.649134
66.317101 64.031013 0.742344 0.667765
66.317101 64.031013 0.235489 0.649393
66.706917 61.990894 0.032899 0.578408
67.132828 59.761852 -0.000016 0.208181
67.457802 58.061081 -0.000013 0.248800
67.697227 56.808037 -0.000011 0.220065
66.789200 62.055309 5.333797 0.678431
66.789200 62.055305 4.874526 0.678431
66.789200 62.055305 4.421703 0.678431
66.789200 62.055309 3.974243 0.678431
66.797012 62.012814 3.526137 0.751919
66.797012 62.012814 3.087754 0.710475
66.816818 61.905106 2.646340 0.729976
66.414108 64.095551 2.251738 0.678431
66.414108 64.095551 1.748262 0.678431
66.425972 64.031006 1.247471 0.654871
66.425972 64.031006 0.743989 0.667124
66.425972 64.031013 0.237797 0.664530
66.801048 61.990894 0.035472 0.583597
67.208252 59.775990 -0.000016 0.211568
67.521339 58.072994 -0.000014 0.203525
67.752014 56.818306 -0.000012 0.216104
66.883553 62.055313 5.329606 0.678431
66.883560 62.055309 4.870912 0.678431
66.883560 62.055309 4.418658 0.678431
66.883553 62.055313 3.971761 0.678431
66.891060 62.012814 3.524218 0.750042
66.891060 62.012814 3.086386 0.722240
66.910088 61.905128 2.645528 0.708858
66.523170 64.095551 2.251421 0.678431
66.523170 64.095551 1.748579 0.678431
66.534569 64.031006 1.248417 0.664591
66.534569 64.031013 0.745568 0.624811
66.534569 64.031013 0.240013 0.653803
66.894936 61.990894 0.037942 0.592264
67.283768 59.789600 -0.000016 0.205081
67.584969 58.084457 -0.000013 0.248884
67.806870 56.828194 -0.000011 0.230932
66.977676 62.055309 5.325584 0.678431
66.977676 62.055305 4.867445 0.678431
66.977676 62.055309 4.415738 0.678431
66.977676 62.055309 3.969380 0.678431
66.984879 62.012814 3.522377 0.755550
66.984879 62.012810 3.085075 0.747311
67.003120 61.905148 2.644749 0.725277
66.631958 64.095551 2.251117 0.678431
66.631958 64.095558 1.748883 0.678431
66.642899 64.031006 1.249325 0.649088
66.642899 64.031006 0.747083 0.631876
66.642899 64.031013 0.242138 0.650767
66.988594 61.990894 0.040311 0.608133
67.359383 59.802685 -0.000016 0.196740
67.648666 58.095486 -0.000014 0.245221
67.861794 56.837700 -0.000011 0.216283
67.071579 62.055309 5.321737 0.678431
67.071579 62.055309 4.864126 0.678431
67.071579 62.055309 4.412942 0.678431
67.071579 62.055309 3.967101 0.678431
67.078476 62.012814 3.520616 0.751781
67.078476 62.012810 3.083819 0.729778
67.095940 61.905170 2.644004 0.720134
66.740494 64.095551 2.250827 0.678431
66.740494 64.095558 1.749173 0.678431
66.750969 64.031006 1.250193 0.637690
66.750969 64.031006 0.748533 0.617182
66.750969 64.031013 0.244172 0.664683
67.082031 61.990894 0.042580 0.554376
67.435081 59.815239 -0.000016 0.232069
67.712440 58.106064 -0.000014 0.246191
67.916786 56.846821 -0.000012 0.245114
67.165260 62.055309 5.318058 0.678431
67.165260 62.055309 4.860956 0.678431
67.165260 62.055309 4.410270 0.678431
67.165260 62.055313 3.964923 0.678431
67.171852 62.012814 3.518932 0.765576
67.171852 62.012810 3.082619 0.738369
67.188553 61.905190 2.643292 0.695796
66.848785 64.095551 2.250549 0.678431
66.848785 64.095551 1.749451 0.678431
66.858795 64.031006 1.251024 0.646281
66.858795 64.031006 0.749919 0.624613
66.858795 64.031013 0.246116 0.669551
67.175255 61.990894 0.044747 0.576883
67.510872 59.827271 -0.000016 0.209210
67.776291 58.116192 -0.000013 0.267123
67.971840 56.855556 -0.000011 0.225427
67.258743 62.055305 5.314549 0.678431
67.258743 62.055309 4.857930 0.678431
67.258743 62.055309 4.407721 0.678431
67.258743 62.055313 3.962845 0.678431
67.265038 62.012810 3.517325 0.748272
67.265038 62.012814 3.081474 0.749142
67.280960 61.905209 2.642613 0.690303
66.956841 64.095551 2.250284 0.678431
66.956841 64.095551 1.749716 0.678431
66.966385 64.031006 1.251816 0.642710
66.966385 64.031013 0.751241 0.636179
66.966385 64.031006 0.247971 0.640116
67.268280 61.990894 0.046814 0.562585
67.586746 59.838768 -0.000016 0.235121
67.840210 58.125885 -0.000014 0.212884
68.026955 56.863907 -0.000011 0.227210
67.352036 62.055309 5.311210 0.678431
67.352036 62.055309 4.855050 0.678431
67.352036 62.055309 4.405295 0.678431
67.352036 62.055313 3.960867 0.678431
67.358025 62.012810 3.515797 0.769070
67.358025 62.012810 3.080384 0.742687
67.373177 61.905228 2.641966 0.673991
67.064667 64.095551 2.250032 0.678431
67.064667 64.095551 1.749968 0.678431
67.073761 64.031006 1.252570 0.661402
67.073761 64.031006 0.752499 0.622232
67.073761 64.031013 0.249736 0.668162
67.361107 61.990894 0.048782 0.588785
67.662689 59.849735 -0.000016 0.190576
67.904198 58.135124 -0.000014 0.239561
68.082123 56.871876 -0.000012 0.296408
67.445145 62.055309 5.308038 0.678431
67.445145 62.055309 4.852315 0.678431
67.445145 62.055309 4.402990 0.678431
67.445145 62.055309 3.958988 0.678431
67.450829 62.012814 3.514345 0.746426
67.450829 62.012810 3.079350 0.727184
67.465218 61.905235 2.641352 0.705974
67.172287 64.095551 2.249793 0.678431
67.172287 64.095551 1.750207 0.678431
67.180923 64.031006 1.253286 0.660395
67.180923 64.031006 0.753694 0.662058
67.180923 64.031006 0.251413 0.678050
67.453758 61.990894 0.050652 0.560449
67.738716 59.860172 -0.000016 0.207020
67.968246 58.143913 -0.000014 0.270007
68.137352 56.879456 -0.000011 0.262790
67.538078 62.055309 5.305033 0.678431
67.538078 62.055313 4.849725 0.678431
67.538078 62.055309 4.400807 0.678431
67.538078 62.055313 3.957208 0.678431
67.543465 62.012810 3.512968 0.757565
67.543465 62.012810 3.078368 0.721630
67.557083 61.905251 2.640770 0.698451
67.279709 64.095551 2.249565 0.678431
67.279709 64.095558 1.750434 0.678431
67.287880 64.031013 1.253964 0.645319
67.287880 64.031006 0.754826 0.643961
67.287880 64.031006 0.253002 0.643015
67.546234 61.990894 0.052423 0.492088
67.814812 59.870079 -0.000016 0.219096
68.032349 58.152260 -0.000014 0.204686
68.192627 56.886654 -0.000012 0.197470
67.630852 62.055309 5.302194 0.678431
67.630852 62.055309 4.847276 0.678431
67.630852 62.055309 4.398746 0.678431
67.630852 62.055313 3.955528 0.678431
67.635933 62.012810 3.511669 0.755871
67.635933 62.012810 3.077443 0.742611
67.648788 61.905270 2.640220 0.700023
67.386940 64.095558 2.249351 0.678431
67.386940 64.095558 1.750649 0.678431
67.394653 64.031013 1.254605 0.642100
