# This PCD file was generated using the MATLABÂ® pcwrite function
# from Computer Vision ToolboxÂ®.
# .PCD v.7 - Point Cloud Data file format
VERSION .7
FIELDS x y z intensity
SIZE 4 4 4 4
TYPE F F F F
COUNT 1 1 1 1
WIDTH 1218
HEIGHT 1
VIEWPOINT 0 0 0 1 0 0 0
POINTS 1218
DATA ascii
134.640335 61.200302 -0.000014 0.207846
134.232544 59.517471 -0.000011 0.252558
133.932098 58.277637 -0.000009 0.233325
nan nan nan 0.000000
144.811081 101.610916 13.373959 0.239200
144.811081 101.610893 11.582221 0.215686
144.846497 101.752701 9.833388 0.709804
144.846497 101.752716 8.075121 0.711269
144.846497 101.752708 6.330042 0.726879
144.811081 101.610901 4.587130 0.220829
144.826385 101.672195 2.862795 0.723262
144.826385 101.672195 1.137206 0.723262
141.915710 90.016769 -0.000056 0.230932
137.961578 74.183006 -0.000033 0.237682
136.263947 67.385078 -0.000023 0.226408
135.318451 63.599026 -0.000017 0.267171
134.714844 61.181965 -0.000013 0.198307
134.295319 59.502022 -0.000010 0.212801
133.986237 58.264320 -0.000009 0.228981
nan nan nan 0.000000
145.195297 101.628815 13.398093 0.568627
145.190689 101.610893 11.599190 0.203922
145.227158 101.752708 9.847260 0.731350
145.227158 101.752716 8.085878 0.724880
145.227158 101.752708 6.337712 0.733822
145.190689 101.610901 4.591712 0.231693
145.206451 101.672195 2.864323 0.752941
145.206451 101.672188 1.135677 0.721569
142.191208 89.946945 -0.000056 0.223979
138.126648 74.141167 -0.000033 0.228622
136.381592 67.355263 -0.000023 0.221274
135.409698 63.575905 -0.000017 0.205105
134.789230 61.163116 -0.000014 0.224828
134.357986 59.486141 -0.000011 0.235695
134.040268 58.250626 -0.000009 0.213148
nan nan nan 0.000000
145.571671 101.610916 13.414874 0.280690
145.571671 101.610886 11.616687 0.211917
145.609192 101.752701 9.861567 0.737469
145.609192 101.752708 8.096972 0.738705
145.609192 101.752708 6.345617 0.713436
145.571671 101.610893 4.596436 0.225834
145.587891 101.672195 2.865897 0.727825
145.587891 101.672188 1.134102 0.718257
142.466232 89.875191 -0.000055 0.232703
138.291412 74.098175 -0.000032 0.229208
136.499039 67.324623 -0.000023 0.221693
135.500778 63.552139 -0.000017 0.225917
134.863495 61.143745 -0.000014 0.219706
134.420547 59.469818 -0.000011 0.203980
134.094208 58.236553 -0.000009 0.195268
nan nan nan 0.000000
145.954056 101.610909 13.436275 0.266667
145.954041 101.610886 11.634722 0.203922
145.992630 101.752701 9.876307 0.727642
145.954056 101.610901 8.091499 0.200671
145.992645 101.752716 6.353767 0.724559
145.954056 101.610886 4.601304 0.236118
145.970734 101.672203 2.867522 0.721569
145.970734 101.672203 1.132478 0.729335
142.740738 89.801506 -0.000055 0.225139
138.455872 74.054031 -0.000032 0.230681
136.616257 67.293159 -0.000022 0.236341
135.591690 63.527740 -0.000017 0.232392
134.937607 61.123856 -0.000013 0.237873
134.482986 59.453064 -0.000010 0.247735
134.148041 58.222107 -0.000008 0.195890
nan nan nan 0.000000
146.377548 101.752716 13.490124 0.741176
146.337891 101.610886 11.653294 0.184619
146.377548 101.752701 9.891491 0.725567
146.337906 101.610916 8.103242 0.096788
146.377548 101.752708 6.362160 0.731929
146.337891 101.610893 4.606319 0.214786
146.355042 101.672203 2.869195 0.733532
146.355042 101.672203 1.130805 0.714260
143.014740 89.725937 -0.000055 0.230657
138.620041 74.008751 -0.000032 0.236724
136.733261 67.260880 -0.000022 0.224062
135.682434 63.502712 -0.000017 0.219203
135.011581 61.103447 -0.000013 0.213471
134.545303 59.435875 -0.000010 0.235647
134.201782 58.207283 -0.000008 0.225666
nan nan nan 0.000000
146.763962 101.752708 13.512877 0.751873
146.723236 101.610886 11.672409 0.223163
146.763947 101.752701 9.907118 0.741176
146.723236 101.610916 8.115328 0.129412
146.763962 101.752716 6.370798 0.733333
146.723236 101.610886 4.611480 0.206958
146.740845 101.672195 2.870915 0.727642
146.740845 101.672195 1.129084 0.724102
143.288177 89.648438 -0.000054 0.222590
138.783875 73.962326 -0.000032 0.239740
136.850037 67.227798 -0.000022 0.240303
135.772995 63.477051 -0.000017 0.247567
135.085403 61.082523 -0.000013 0.245150
134.607498 59.418247 -0.000010 0.203549
134.255402 58.192085 -0.000008 0.258446
nan nan nan 0.000000
147.151932 101.752708 13.536286 0.749340
147.110123 101.610886 11.692076 0.201236
147.151917 101.752701 9.923195 0.733333
147.110138 101.610916 8.127762 0.129412
147.151917 101.752708 6.379686 0.731075
147.110123 101.610878 4.616789 0.204791
147.128204 101.672203 2.872686 0.722118
147.128189 101.672195 1.127314 0.733333
143.561096 89.569038 -0.000054 0.230621
138.947388 73.914749 -0.000032 0.233720
136.966583 67.193893 -0.000022 0.239333
135.863373 63.450752 -0.000017 0.223153
135.159088 61.061089 -0.000013 0.258841
134.669571 59.400185 -0.000010 0.222734
134.308929 58.176514 -0.000008 0.207307
nan nan nan 0.000000
147.541489 101.752708 13.560353 0.730831
147.498611 101.610893 11.712299 0.130419
147.541489 101.752708 9.939725 0.726253
147.498611 101.610901 8.140545 0.095552
147.541489 101.752716 6.388823 0.723598
147.498611 101.610886 4.622250 0.192157
147.517151 101.672195 2.874507 0.730755
147.517151 101.672195 1.125493 0.721614
143.833435 89.487740 -0.000054 0.232476
139.110550 73.866035 -0.000032 0.234079
137.082870 67.159164 -0.000022 0.243307
135.953568 63.423824 -0.000016 0.217217
135.232620 61.039135 -0.000013 0.246538
134.731522 59.381695 -0.000010 0.190780
134.362335 58.160568 -0.000008 0.196907
nan nan nan 0.000000
147.932709 101.752701 13.585089 0.739757
147.888748 101.610893 11.733078 0.105882
147.932709 101.752701 9.956712 0.733333
147.888748 101.610916 8.153685 0.101427
147.932709 101.752716 6.398213 0.723644
147.888748 101.610893 4.627860 0.192157
147.907745 101.672203 2.876378 0.732418
147.907745 101.672203 1.123622 0.727169
144.105209 89.404526 -0.000054 0.230812
139.273376 73.816193 -0.000031 0.232212
137.198929 67.123642 -0.000022 0.220352
136.043579 63.396267 -0.000016 0.235240
135.305984 61.016674 -0.000013 0.246095
134.793335 59.362770 -0.000010 0.212250
134.415649 58.144249 -0.000008 0.233289
nan nan nan 0.000000
148.325623 101.752716 13.610497 0.733333
148.280563 101.610886 11.754421 0.109010
148.325623 101.752708 9.974163 0.732967
148.280579 101.610916 8.167179 0.093263
148.325623 101.752701 6.407858 0.752941
148.280563 101.610886 4.633622 0.189487
148.300049 101.672218 2.878301 0.733333
148.300049 101.672218 1.121699 0.733333
144.376389 89.319420 -0.000054 0.230417
139.435852 73.765198 -0.000031 0.236844
137.314728 67.087296 -0.000021 0.233744
136.133392 63.368084 -0.000016 0.256615
135.379211 60.993698 -0.000012 0.232033
134.855026 59.343414 -0.000010 0.199492
134.468826 58.127560 -0.000008 0.261605
nan nan nan 0.000000
148.720261 101.752701 13.636580 0.749340
148.674133 101.610893 11.776340 0.131044
148.720261 101.752701 9.992078 0.742000
148.674133 101.610901 8.181034 0.094118
148.720276 101.752701 6.417762 0.721019
148.674133 101.610893 4.639541 0.210956
148.694077 101.672188 2.880273 0.742824
148.694077 101.672188 1.119726 0.709804
144.646973 89.232437 -0.000054 0.222865
139.597977 73.713074 -0.000031 0.235456
137.430283 67.050148 -0.000021 0.209545
136.223007 63.339279 -0.000016 0.208337
135.452255 60.970215 -0.000013 0.251696
134.916565 59.323624 -0.000010 0.260851
134.521896 58.110500 -0.000008 0.195758
nan nan nan 0.000000
149.116730 101.752708 13.663358 0.733333
149.069489 101.610886 11.798835 0.124437
149.116730 101.752701 10.010469 0.735225
149.116730 101.752701 8.212452 0.721706
149.116730 101.752701 6.427926 0.740063
149.069489 101.610886 4.645614 0.192157
149.089905 101.672195 2.882299 0.739986
149.089905 101.672180 1.117702 0.709804
144.916931 89.143539 -0.000052 0.231650
139.759720 73.659828 -0.000031 0.227401
137.545563 67.012192 -0.000021 0.228742
136.312408 63.309841 -0.000016 0.230369
135.525146 60.946217 -0.000013 0.208337
134.977982 59.303410 -0.000010 0.254485
134.574844 58.093067 -0.000007 0.228275
nan nan nan 0.000000
149.466675 101.610886 13.658464 0.297307
149.466690 101.610901 11.821914 0.117647
149.515015 101.752701 10.029334 0.741176
149.466690 101.610909 8.209850 0.094118
149.515015 101.752701 6.438355 0.738079
149.466690 101.610901 4.651845 0.215686
149.487579 101.672188 2.884377 0.733333
149.487579 101.672188 1.115623 0.719921
145.186279 89.052788 -0.000052 0.225427
139.921097 73.605453 -0.000031 0.226564
137.660583 66.973434 -0.000021 0.235157
136.401611 63.279781 -0.000015 0.187524
135.597870 60.921715 -0.000012 0.227904
135.039230 59.282768 -0.000010 0.210311
134.627670 58.075268 -0.000008 0.224122
nan nan nan 0.000000
149.865784 101.610886 13.686560 0.305074
149.865784 101.610901 11.845585 0.137255
149.915222 101.752701 10.048682 0.733333
149.915222 101.752701 8.242089 0.731777
149.915222 101.752701 6.449050 0.733333
149.865784 101.610901 4.658237 0.262257
149.887146 101.672188 2.886507 0.733562
149.887146 101.672195 1.113492 0.726574
145.454987 88.960144 -0.000052 0.230369
140.082077 73.549950 -0.000031 0.230214
137.775330 66.933876 -0.000021 0.246550
136.490601 63.249107 -0.000015 0.237239
135.670410 60.896698 -0.000012 0.235539
135.100357 59.261696 -0.000010 0.259511
134.680359 58.057102 -0.000008 0.273669
nan nan nan 0.000000
150.317383 101.752708 13.747878 0.715312
150.266830 101.610901 11.869846 0.105837
150.317383 101.752708 10.068518 0.733455
150.317383 101.752701 8.257471 0.733059
150.317383 101.752701 6.460013 0.730617
150.266815 101.610893 4.664785 0.223529
150.288666 101.672180 2.888693 0.738140
150.288666 101.672180 1.111307 0.709804
145.723022 88.865623 -0.000052 0.227653
140.242676 73.493332 -0.000031 0.216702
137.889801 66.893524 -0.000021 0.227820
136.579376 63.217808 -0.000015 0.222195
135.742783 60.871185 -0.000012 0.196931
135.161331 59.240200 -0.000010 0.191522
134.732941 58.038567 -0.000008 0.208145
nan nan nan 0.000000
150.721542 101.752701 13.777478 0.721202
150.676880 101.630127 11.898438 0.102037
150.721542 101.752701 10.088848 0.702235
150.721542 101.752708 8.273238 0.708888
150.721542 101.752686 6.471251 0.734981
150.676865 101.630112 4.672506 0.386664
150.692200 101.672195 2.890932 0.733333
150.692200 101.672195 1.109068 0.729290
145.990417 88.769257 -0.000052 0.234989
140.402878 73.435577 -0.000030 0.229735
138.003983 66.852371 -0.000021 0.218413
136.667923 63.185883 -0.000015 0.224828
135.814972 60.845165 -0.000012 0.247795
135.222137 59.218277 -0.000010 0.213926
134.785370 58.019665 -0.000007 0.232476
nan nan nan 0.000000
151.127762 101.752701 13.807805 0.733333
151.074966 101.610916 11.920196 0.118975
151.127762 101.752701 10.109676 0.712428
151.127762 101.752701 8.289392 0.733791
151.127747 101.752701 6.482764 0.728099
151.074966 101.610909 4.678380 0.234104
151.097778 101.672180 2.893225 0.714580
151.097778 101.672195 1.106774 0.736889
146.257111 88.670998 -0.000051 0.228395
140.562668 73.376717 -0.000030 0.227341
138.117859 66.810410 -0.000021 0.242038
136.756256 63.153347 -0.000015 0.265196
135.886978 60.818638 -0.000012 0.237969
135.282806 59.195930 -0.000009 0.280443
134.837677 58.000397 -0.000007 0.225606
nan nan nan 0.000000
151.536102 101.752708 13.838867 0.733333
151.482178 101.610916 11.946292 0.094118
151.536102 101.752701 10.131010 0.733242
151.536102 101.752716 8.305938 0.718257
151.536102 101.752701 6.494557 0.721798
151.482178 101.610916 4.685426 0.226566
151.505493 101.672203 2.895576 0.721569
151.505493 101.672195 1.104425 0.721569
146.523132 88.570892 -0.000051 0.230082
140.722046 73.316742 -0.000030 0.220292
138.231461 66.767662 -0.000021 0.231004
136.844345 63.120197 -0.000015 0.219455
135.958801 60.791615 -0.000012 0.240961
135.343307 59.173164 -0.000009 0.236138
134.889847 57.980766 -0.000007 0.192491
nan nan nan 0.000000
151.946609 101.752701 13.870670 0.752636
151.891556 101.610916 11.973012 0.137255
151.946609 101.752701 10.152852 0.698314
151.946609 101.752716 8.322878 0.731212
151.946609 101.752701 6.506631 0.721889
151.891556 101.610901 4.692640 0.225788
151.915344 101.672195 2.897981 0.712657
151.915344 101.672195 1.102019 0.729686
146.788422 88.468918 -0.000050 0.228526
140.880997 73.255646 -0.000029 0.226013
138.344757 66.724121 -0.000020 0.231506
136.932205 63.086430 -0.000015 0.220113
136.030426 60.764084 -0.000012 0.212729
135.403656 59.149971 -0.000009 0.246406
134.941879 57.960770 -0.000007 0.210981
nan nan nan 0.000000
152.327454 101.672188 13.884522 0.738582
152.303162 101.610916 12.000366 0.134615
152.359375 101.752701 10.175215 0.739773
152.359360 101.752701 8.340219 0.736767
152.359360 101.752701 6.518992 0.735546
152.303162 101.610909 4.700025 0.233219
152.327454 101.672195 2.900444 0.732738
152.327454 101.672195 1.099555 0.684489
147.053009 88.365112 -0.000050 0.233948
141.039520 73.193459 -0.000030 0.232488
138.457748 66.679794 -0.000020 0.252713
137.019836 63.052052 -0.000015 0.202448
136.101868 60.736057 -0.000011 0.239848
135.463837 59.126362 -0.000009 0.284452
134.993774 57.940411 -0.000007 0.243438
nan nan nan 0.000000
152.741852 101.672211 13.917795 0.744442
152.717056 101.610909 12.028358 0.143465
152.774399 101.752701 10.198097 0.734325
152.774414 101.752708 8.357967 0.719265
152.774414 101.752701 6.531643 0.702098
152.717056 101.610901 4.707583 0.209155
152.741852 101.672226 2.902965 0.728969
152.741852 101.672226 1.097034 0.709804
147.316864 88.259460 -0.000050 0.229304
141.197617 73.130157 -0.000030 0.224649
138.570419 66.634674 -0.000020 0.244731
137.107224 63.017063 -0.000015 0.211819
136.173096 60.707535 -0.000011 0.228909
135.523849 59.102325 -0.000009 0.182031
135.045517 57.919689 -0.000007 0.216331
nan nan nan 0.000000
153.158569 101.672211 13.951838 0.720745
153.133270 101.610893 12.056999 0.132052
153.191788 101.752701 10.221514 0.733333
153.191788 101.752708 8.376129 0.733410
153.191788 101.752693 6.544586 0.732189
153.133270 101.610901 4.715316 0.246372
153.158569 101.672226 2.905544 0.731594
153.158569 101.672218 1.094455 0.714076
147.579971 88.151962 -0.000050 0.229340
141.355240 73.065742 -0.000029 0.228837
138.682770 66.588776 -0.000021 0.228143
137.194366 62.981461 -0.000015 0.194430
136.244141 60.678509 -0.000011 0.243019
135.583694 59.077877 -0.000009 0.249937
135.097122 57.898605 -0.000007 0.238268
nan nan nan 0.000000
153.577713 101.672211 13.986656 0.709804
153.551926 101.610901 12.086300 0.186877
153.611588 101.752701 10.245466 0.730434
153.611588 101.752701 8.394703 0.733333
153.611588 101.752686 6.557825 0.733333
153.551926 101.610909 4.723228 0.208377
153.577728 101.672211 2.908183 0.734005
153.577728 101.672211 1.091817 0.733944
147.842331 88.042633 -0.000049 0.233170
141.512421 73.000237 -0.000028 0.233577
138.794815 66.542084 -0.000020 0.233637
137.281250 62.945251 -0.000014 0.265579
136.314972 60.648994 -0.000011 0.250703
135.643372 59.053013 -0.000009 0.286247
135.148575 57.877167 -0.000007 0.282346
nan nan nan 0.000000
153.999329 101.672211 14.022266 0.708125
153.999329 101.672211 12.128403 0.729610
153.999329 101.672211 10.256971 0.713115
153.999329 101.672203 8.403624 0.741176
153.999329 101.672203 6.564186 0.709895
153.999329 101.672211 4.734595 0.709804
153.999329 101.672203 2.910881 0.727779
153.999329 101.672211 1.089119 0.721569
148.103912 87.931473 -0.000049 0.232332
141.669159 72.933647 -0.000028 0.241667
138.906509 66.494614 -0.000019 0.222842
137.367874 62.908440 -0.000014 0.212896
136.385605 60.618984 -0.000011 0.196967
135.702881 59.027729 -0.000009 0.205321
135.199875 57.855366 -0.000007 0.201216
nan nan nan 0.000000
154.423462 101.672203 14.058679 0.722164
154.423477 101.672211 12.159081 0.716426
154.423477 101.672211 10.281981 0.722530
154.423462 101.672211 8.423019 0.724422
154.458679 101.752693 6.585213 0.713573
154.423477 101.672211 4.742879 0.709804
154.423477 101.672211 2.913640 0.709804
154.423462 101.672211 1.086360 0.731502
148.364716 87.818497 -0.000049 0.225762
141.825409 72.865959 -0.000028 0.227222
139.017883 66.446373 -0.000020 0.233158
137.454254 62.871025 -0.000014 0.221764
136.456009 60.588478 -0.000011 0.213866
135.762192 59.002029 -0.000008 0.204603
135.251022 57.833206 -0.000006 0.197889
nan nan nan 0.000000
154.850204 101.672203 14.095903 0.739025
154.850204 101.672203 12.190440 0.718532
154.850204 101.672211 10.307546 0.710811
154.850204 101.672211 8.442846 0.731868
154.850204 101.672211 6.592141 0.724559
154.850220 101.672211 4.751345 0.732052
154.850220 101.672211 2.916460 0.709804
154.850204 101.672211 1.083540 0.741146
148.624725 87.703690 -0.000048 0.229005
141.981201 72.797180 -0.000028 0.231662
139.128922 66.397354 -0.000020 0.236593
137.540359 62.833008 -0.000014 0.232009
136.526215 60.557487 -0.000011 0.195866
135.821335 58.975922 -0.000008 0.245904
135.302002 57.810646 0.000008 0.337591
nan nan nan 0.000000
155.279617 101.672203 14.133955 0.709804
155.279617 101.672211 12.222496 0.721569
155.279617 101.672211 10.333678 0.739345
155.279617 101.672211 8.463115 0.732738
155.279617 101.672203 6.606586 0.739895
155.279617 101.672211 4.759999 0.730251
155.279617 101.672211 2.919344 0.751873
155.279617 101.672203 1.080657 0.733104
148.883926 87.587082 -0.000048 0.233577
142.136490 72.727318 -0.000028 0.235360
139.239609 66.347557 -0.000019 0.207642
137.626205 62.794388 -0.000014 0.229017
136.596191 60.526001 -0.000010 0.196488
135.880295 58.949398 -0.000008 0.248560
135.352829 57.787777 0.000007 0.323919
nan nan nan 0.000000
155.711731 101.672195 14.172837 0.709804
155.711731 101.672195 12.255255 0.708339
155.711746 101.672203 10.360382 0.752941
155.711746 101.672203 8.483826 0.752941
155.711746 101.672195 6.621347 0.726619
155.711746 101.672195 4.768844 0.724834
155.711746 101.672203 2.922289 0.733333
155.711746 101.672195 1.077711 0.738476
149.142303 87.468658 -0.000048 0.229544
142.291290 72.656364 -0.000027 0.227712
139.349945 66.296982 -0.000019 0.220771
137.711777 62.755169 -0.000014 0.256878
136.665955 60.494034 -0.000011 0.237706
135.939056 58.922462 -0.000008 0.244252
135.403503 57.764557 0.000006 0.345480
nan nan nan 0.000000
156.146667 101.672195 14.212568 0.709804
156.146667 101.672195 12.288726 0.726329
156.146683 101.672195 10.387671 0.742824
156.146683 101.672195 8.504989 0.742977
156.146667 101.672195 6.636433 0.749111
156.146683 101.672195 4.777882 0.705394
156.146683 101.672195 2.925298 0.738109
156.146683 101.672195 1.074701 0.724559
149.399841 87.348434 -0.000047 0.225893
142.445602 72.584335 -0.000027 0.219514
139.459915 66.245651 -0.000019 0.233900
137.797073 62.715355 -0.000014 0.242206
136.735489 60.461578 -0.000010 0.206912
135.997650 58.895119 -0.000008 0.265938
135.437012 57.704865 0.010006 1.000000
nan nan nan 0.000000
156.584473 101.672195 14.253158 0.709804
156.584473 101.672195 12.322923 0.734691
156.584473 101.672195 10.415549 0.709804
156.584488 101.672195 8.526609 0.741176
156.584473 101.672188 6.651841 0.721569
156.584488 101.672195 4.787115 0.718807
156.584473 101.672195 2.928375 0.715923
156.584473 101.672195 1.071625 0.722026
149.656540 87.226425 -0.000047 0.226887
142.599228 72.510880 0.000005 0.336950
139.569534 66.193550 -0.000019 0.232512
137.882080 62.674953 -0.000014 0.255107
136.804794 60.428638 -0.000010 0.231028
136.056030 58.867367 -0.000008 0.201694
135.487106 57.681068 0.010003 1.000000
nan nan nan 0.000000
157.025238 101.672203 14.294626 0.735454
157.025238 101.672195 12.357857 0.704753
157.025238 101.672195 10.444027 0.730022
157.025238 101.672195 8.548696 0.712978
157.025238 101.672203 6.667583 0.724514
157.025238 101.672203 4.796545 0.737926
157.025223 101.672195 2.931517 0.719539
157.025223 101.672188 1.068484 0.723445
149.912384 87.102615 -0.000047 0.234570
142.699066 72.327248 0.009993 1.000000
139.678787 66.140678 -0.000018 0.215254
137.966812 62.633949 -0.000013 0.238352
136.873871 60.395210 -0.000010 0.222650
136.114227 58.839207 -0.000008 0.257417
135.537033 57.656918 0.010000 1.000000
123.640297 33.589081 6.735006 0.515175
123.640297 33.589073 6.082702 0.833112
123.640297 33.589081 5.439554 0.661204
123.640297 33.589081 4.804026 0.839216
123.640297 33.589077 4.174639 0.833631
123.640297 33.589081 3.549974 0.602518
123.640297 33.589081 2.928655 0.722469
123.640297 33.589081 2.309331 0.834775
123.640297 33.589081 1.690670 0.758923
123.640297 33.589081 1.071345 0.831678
123.640297 33.589081 0.450025 0.839216
124.315765 34.948524 -0.000005 0.236724
126.052170 38.443176 -0.000004 0.255622
127.160706 40.674210 -0.000002 0.250559
127.931183 42.224861 -0.000001 0.253994
128.498840 43.367306 -0.000001 0.222710
123.640297 33.881546 6.669513 0.905882
123.640297 33.881554 6.026229 0.839216
123.640289 33.881546 5.391980 0.839216
123.640297 33.881554 4.765241 0.839216
123.640297 33.881554 4.144559 0.568292
123.640297 33.881554 3.528535 0.813947
123.640297 33.881550 2.915810 0.834165
123.640289 33.881546 2.305052 0.839216
123.640297 33.881554 1.694948 0.839216
123.640297 33.881554 1.084190 0.839216
123.640297 33.881554 0.471464 0.839216
124.207260 35.002911 -0.000006 0.216487
125.968018 38.485355 -0.000004 0.251122
127.092110 40.708591 -0.000003 0.239022
127.873390 42.253830 -0.000001 0.205021
128.449005 43.392284 -0.000001 0.213279
123.640289 34.166054 6.606028 0.839216
123.640289 34.166054 5.971490 0.569009
123.640289 34.166054 5.345863 0.593652
123.640297 34.166058 4.727645 0.837339
123.640297 34.166058 4.115403 0.730983
123.640297 34.166058 3.507754 0.823697
123.640289 34.166058 2.903359 0.726284
123.640289 34.166054 2.300904 0.839216
123.640297 34.166058 1.699095 0.707683
123.640297 34.166058 1.096641 0.839216
123.640297 34.166058 0.492246 0.707042
124.099144 35.058056 -0.000006 0.225235
125.884163 38.528122 -0.000004 0.237371
127.023750 40.743458 -0.000002 0.251361
127.815804 42.283199 -0.000002 0.250607
128.399353 43.417610 -0.000001 0.215565
123.640289 34.442940 6.544464 0.808881
123.640289 34.442940 5.918407 0.839216
123.640297 34.442944 5.301142 0.839216
123.640297 34.442947 4.691187 0.839216
123.640289 34.442940 4.087129 0.839216
123.640297 34.442947 3.487601 0.846525
123.640297 34.442944 2.891284 0.839216
123.640289 34.442944 2.296883 0.839216
123.640297 34.442944 1.703117 0.839216
123.640297 34.442947 1.108716 0.776471
123.640297 34.442947 0.512399 0.771450
123.991409 35.113949 -0.000006 0.231734
125.800613 38.571472 -0.000004 0.215577
126.955635 40.778793 -0.000003 0.231327
127.758415 42.312973 -0.000001 0.237203
128.349869 43.443283 -0.000001 0.246562
123.640289 34.712536 6.484738 0.645106
123.640289 34.712536 5.866912 0.690196
123.640289 34.712532 5.257759 0.784588
123.640289 34.712536 4.655820 0.756313
123.640289 34.712536 4.059699 0.528313
123.640289 34.712536 3.468051 0.805539
123.640289 34.712540 2.879571 0.839216
123.640289 34.712540 2.292981 0.839216
123.640289 34.712540 1.707019 0.839216
123.640289 34.712540 1.120429 0.580758
123.640289 34.712540 0.531949 0.823346
123.884064 35.170589 -0.000006 0.248896
125.717361 38.615402 -0.000004 0.241631
126.887772 40.814613 -0.000002 0.229256
127.701241 42.343143 -0.000002 0.195663
128.300568 43.469296 -0.000001 0.287348
123.640289 34.975151 6.426777 0.839216
123.640289 34.975151 5.816934 0.836316
123.640289 34.975151 5.215653 0.839216
123.640289 34.975151 4.621495 0.835904
123.640289 34.975151 4.033078 0.776471
123.640289 34.975151 3.449077 0.746746
123.640289 34.975151 2.868203 0.837079
123.640289 34.975151 2.289194 0.839216
123.640289 34.975151 1.710806 0.837568
123.640289 34.975151 1.131797 0.712627
123.640289 34.975151 0.550922 0.839216
123.777122 35.227982 -0.000006 0.232559
125.634430 38.659912 -0.000004 0.208767
126.820152 40.850899 -0.000003 0.259415
127.644279 42.373714 -0.000002 0.287073
128.251450 43.495655 -0.000001 0.213710
123.640289 35.231075 6.370505 0.839216
123.640289 35.231071 5.768414 0.937255
123.640289 35.231071 5.174778 0.699290
123.640289 35.231071 4.588171 0.668818
123.640289 35.231071 4.007235 0.839216
123.640289 35.231075 3.430657 0.839216
123.640289 35.231075 2.857166 0.597192
123.640289 35.231071 2.285518 0.839216
123.640289 35.231071 1.714482 0.693629
123.640289 35.231075 1.142833 0.905882
123.640289 35.231079 0.569343 0.839216
123.670578 35.286125 -0.000006 0.222028
125.551804 38.705002 -0.000004 0.197039
126.752792 40.887657 -0.000002 0.214931
127.587532 42.404682 -0.000002 0.289718
128.202530 43.522358 -0.000001 0.201072
123.640289 35.480583 6.315854 0.727871
123.640289 35.480583 5.721292 0.905882
123.640289 35.480587 5.135077 0.827451
123.640289 35.480591 4.555806 0.839216
123.640289 35.480587 3.982134 0.745953
123.640289 35.480591 3.412767 0.839216
123.640289 35.480587 2.846448 0.610605
123.640289 35.480587 2.281948 0.839216
123.640289 35.480587 1.718052 0.616541
123.640289 35.480591 1.153552 0.905882
123.640289 35.480591 0.587233 0.796078
123.640289 35.480587 0.017866 0.772488
125.469490 38.750664 -0.000004 0.215649
126.685692 40.924881 -0.000003 0.261976
127.530998 42.436043 -0.000002 0.201443
128.153778 43.549400 -0.000001 0.252139
123.640289 35.723949 6.262755 0.839216
123.640289 35.723946 5.675509 0.839216
123.640289 35.723949 5.096507 0.594553
123.640289 35.723946 4.524363 0.835538
123.640289 35.723953 3.957748 0.905882
123.640289 35.723946 3.395386 0.839216
123.640289 35.723949 2.836034 0.905882
123.640289 35.723949 2.278479 0.905882
123.640289 35.723949 1.721521 0.609369
123.640289 35.723953 1.163966 0.905882
123.640289 35.723949 0.604614 0.722881
123.640289 35.723953 0.042252 0.839216
125.387497 38.796902 -0.000004 0.208875
126.618851 40.962578 -0.000003 0.221154
127.474686 42.467800 -0.000002 0.260277
128.105225 43.576782 -0.000001 0.214500
123.551636 35.807991 6.255535 0.839216
123.551636 35.807991 5.669282 0.839216
123.551636 35.807991 5.091261 0.791699
123.551636 35.807995 4.520086 0.839216
123.551636 35.807991 3.954432 0.839216
123.551636 35.807991 3.393022 0.839216
123.551636 35.807995 2.834618 0.905882
123.551636 35.807995 2.278007 0.905882
123.551636 35.807995 1.721993 0.692622
123.551643 35.807999 1.165382 0.839216
123.551636 35.807995 0.606978 0.623819
123.551636 35.807991 0.045568 0.839216
125.305832 38.843712 -0.000005 0.227042
126.552277 41.000740 -0.000003 0.197924
127.418602 42.499950 -0.000002 0.208612
128.056870 43.604500 -0.000002 0.251337
123.414101 35.807995 6.272875 0.796750
123.414101 35.807995 5.684235 0.839216
123.414101 35.807991 5.103858 0.786786
123.414101 35.807991 4.530356 0.784619
123.414101 35.807991 3.962396 0.803937
123.414093 35.807991 3.398699 0.839216
123.414101 35.807995 2.838019 0.754788
123.414101 35.807995 2.279140 0.779995
123.414101 35.807995 1.720860 0.738109
123.414101 35.807995 1.161981 0.839216
123.414101 35.807999 0.601301 0.608774
123.414101 35.807991 0.037604 0.797086
125.224503 38.891090 -0.000004 0.230405
126.485970 41.039360 -0.000003 0.208779
127.362740 42.532490 -0.000002 0.256699
128.008698 43.632561 -0.000001 0.169405
123.275421 35.807991 6.290569 0.839216
123.275421 35.807991 5.699492 0.645151
123.275429 35.807999 5.116710 0.839216
123.275421 35.807991 4.540833 0.839216
123.275421 35.807991 3.970523 0.737041
123.275421 35.807995 3.404490 0.839216
123.275421 35.807995 2.841489 0.779675
123.275421 35.807999 2.280296 0.839216
123.275421 35.807999 1.719704 0.777020
123.275429 35.807999 1.158511 0.839216
123.275429 35.807995 0.595509 0.749569
123.275421 35.807991 0.029477 0.839216
125.143501 38.939037 -0.000004 0.239261
126.419937 41.078449 -0.000003 0.240961
127.307106 42.565422 -0.000002 0.200916
127.960732 43.660950 -0.000002 0.258913
123.135590 35.807991 6.308620 0.633585
123.135590 35.807991 5.715055 0.832837
123.135590 35.807991 5.129824 0.841398
123.135590 35.807991 4.551524 0.839216
123.135590 35.807991 3.978813 0.670710
123.135590 35.807991 3.410399 0.776471
123.135590 35.807995 2.845030 0.593469
123.135590 35.807995 2.281475 0.839216
123.135590 35.807995 1.718525 0.592523
123.135590 35.807995 1.154970 0.839216
123.135590 35.807995 0.589600 0.839216
123.135590 35.807991 0.021187 0.839216
125.062836 38.987545 -0.000005 0.237742
126.354172 41.117996 -0.000004 0.199612
127.251701 42.598736 -0.000002 0.218246
127.912964 43.689678 -0.000002 0.254473
122.994568 35.807995 6.327035 0.779110
122.994568 35.807995 5.730933 0.838209
122.994568 35.807995 5.143201 0.848676
122.994568 35.807991 4.562428 0.760937
122.994568 35.807995 3.987270 0.766827
122.994568 35.807995 3.416428 0.776471
122.994568 35.807995 2.848641 0.590448
122.994568 35.807995 2.282679 0.776471
122.994568 35.807995 1.717322 0.635843
122.994568 35.807995 1.151359 0.839216
122.994568 35.807995 0.583572 0.776471
122.994568 35.807995 0.012730 0.790234
124.982506 39.036613 -0.000005 0.201347
126.288689 41.158001 -0.000004 0.219371
127.196533 42.632439 -0.000003 0.201826
127.865395 43.718739 -0.000001 0.205153
122.852325 35.807991 6.345822 0.776471
122.852325 35.807991 5.747132 0.839216
122.852325 35.807991 5.156848 0.838483
122.852333 35.807995 4.573554 0.756329
122.852333 35.807991 3.995899 0.829862
122.852325 35.807991 3.422577 0.776471
122.852333 35.807995 2.852326 0.623758
122.852333 35.807995 2.283906 0.776471
122.852333 35.807995 1.716094 0.674174
122.852333 35.807995 1.147674 0.839216
122.852333 35.807995 0.577422 0.807355
122.852333 35.807991 0.004101 0.716091
124.902527 39.086250 -0.000005 0.208013
126.223488 41.198463 -0.000003 0.183216
127.141609 42.666527 -0.000002 0.194226
127.818031 43.748131 -0.000001 0.260361
122.708839 35.807991 6.364987 0.839216
122.708839 35.807991 5.763656 0.839216
122.708839 35.807991 5.170768 0.819730
122.708839 35.807991 4.584904 0.701701
122.708847 35.807995 4.004700 0.839216
122.708847 35.807991 3.428851 0.839216
122.708847 35.807995 2.856084 0.505333
122.708847 35.807995 2.285158 0.776471
122.708847 35.807995 1.714842 0.700374
122.708847 35.807991 1.143915 0.776471
122.708847 35.807995 0.571149 0.769345
122.730713 35.842430 -0.000007 0.210203
124.822899 39.136436 -0.000005 0.255502
126.158569 41.239376 -0.000003 0.208636
127.086914 42.700996 -0.000002 0.236569
127.770874 43.777851 -0.000002 0.191737
122.564079 35.807991 6.384535 0.839216
122.564079 35.807995 5.780511 0.783352
122.564072 35.807991 5.184969 0.636713
122.564079 35.807995 4.596479 0.882292
122.564079 35.807991 4.013679 0.839216
122.564072 35.807991 3.435249 0.839216
122.564079 35.807995 2.859918 0.633738
122.564079 35.807991 2.286435 0.839216
122.564079 35.807995 1.713565 0.738781
122.564079 35.807991 1.140081 0.776471
122.564079 35.807995 0.564750 0.839216
122.628487 35.907860 -0.000007 0.234223
124.743614 39.187180 -0.000005 0.248716
126.093941 41.280743 -0.000004 0.216786
127.032463 42.735847 -0.000003 0.258901
127.723930 43.807899 -0.000002 0.204770
122.417999 35.807991 6.404476 0.626474
122.417999 35.807991 5.797704 0.641443
122.417999 35.807991 5.199453 0.776471
122.417999 35.807995 4.608288 0.882734
122.418007 35.807995 4.022836 0.839216
122.417999 35.807995 3.441777 0.810971
122.417999 35.807991 2.863829 0.511391
122.417999 35.807991 2.287737 0.839216
122.417999 35.807991 1.712263 0.809995
122.417999 35.807995 1.136171 0.742367
122.418007 35.807999 0.558223 0.839216
122.526718 35.973991 -0.000008 0.219550
124.664688 39.238476 -0.000005 0.199217
126.029602 41.322559 -0.000004 0.234797
126.978256 42.771076 -0.000003 0.200689
127.677185 43.838276 -0.000002 0.203813
122.270584 35.807991 6.424814 0.839216
122.270584 35.807991 5.815242 0.839216
122.270584 35.807991 5.214228 0.776471
122.270584 35.807991 4.620333 0.839216
122.270584 35.807991 4.032177 0.839216
122.270584 35.807991 3.448435 0.687587
122.270584 35.807991 2.867818 0.839216
122.270584 35.807991 2.289066 0.839216
122.270584 35.807991 1.710934 0.839216
122.270584 35.807995 1.132182 0.734646
122.270584 35.807991 0.551565 0.839216
122.425423 36.040852 -0.000007 0.209665
124.586128 39.290321 -0.000005 0.237897
125.965553 41.364826 -0.000004 0.232559
126.924301 42.806686 -0.000002 0.238531
127.630661 43.868980 -0.000002 0.265746
122.121796 35.807991 6.445559 0.839216
122.121796 35.807991 5.833128 0.839216
122.121796 35.807991 5.229297 0.839216
122.121796 35.807991 4.632617 0.839216
122.121796 35.807991 4.041704 0.806348
122.121796 35.807995 3.455225 0.626703
122.121796 35.807999 2.871887 0.839216
122.121796 35.807995 2.290421 0.839216
122.121796 35.807995 1.709579 0.839216
122.121796 35.807995 1.128113 0.486519
122.121796 35.807995 0.544774 0.839216
122.324593 36.108406 -0.000007 0.235168
124.507927 39.342712 -0.000005 0.216355
125.901802 41.407539 -0.000004 0.222363
126.870590 42.842667 -0.000002 0.215637
127.584358 43.900005 -0.000002 0.257955
121.971588 35.807991 6.466719 0.808759
121.971588 35.807987 5.851374 0.828489
121.971588 35.807991 5.244668 0.839216
121.971588 35.807991 4.645148 0.833707
121.971588 35.807991 4.051422 0.555673
121.971588 35.807991 3.462152 0.576776
121.971588 35.807987 2.876037 0.835981
121.971588 35.807995 2.291803 0.839216
121.971588 35.807995 1.708196 0.797833
121.971588 35.807991 1.123963 0.696468
121.971588 35.807991 0.537848 0.839216
122.224228 36.176662 -0.000008 0.216092
124.430099 39.395653 -0.000005 0.216678
125.838348 41.450691 -0.000004 0.233122
126.817139 42.879025 -0.000003 0.205560
127.538261 43.931355 -0.000002 0.226827
121.819946 35.807991 6.488300 0.776532
121.819939 35.807987 5.869983 0.672633
121.819946 35.807991 5.260345 0.725246
121.819946 35.807991 4.657928 0.709804
121.819946 35.807991 4.061335 0.601114
121.819946 35.807991 3.469217 0.709804
121.819946 35.807991 2.880269 0.839216
121.819946 35.807991 2.293214 0.839216
121.819946 35.807991 1.706786 0.839216
121.819946 35.807995 1.119731 0.620600
121.819946 35.807991 0.530783 0.753277
122.124344 36.245621 -0.000008 0.220496
124.352631 39.449131 -0.000005 0.249745
125.775200 41.494293 -0.000004 0.245796
126.763939 42.915756 -0.000003 0.212262
127.492393 43.963024 -0.000002 0.229256
121.666817 35.807991 6.510313 0.839216
121.666817 35.807991 5.888962 0.774670
121.666817 35.807987 5.276335 0.761700
121.666817 35.807991 4.670964 0.720928
121.666824 35.807991 4.071444 0.830427
121.666817 35.807991 3.476422 0.839216
121.666817 35.807991 2.884586 0.839216
121.666824 35.807991 2.294652 0.839216
121.666824 35.807991 1.705348 0.839216
121.666824 35.807991 1.115413 0.752880
121.666817 35.807991 0.523578 0.732601
122.024956 36.315273 -0.000007 0.217995
124.275551 39.503147 -0.000005 0.232045
125.712357 41.538326 -0.000004 0.217671
126.710999 42.952858 -0.000003 0.248393
127.446747 43.995010 -0.000002 0.258171
121.512177 35.807987 6.532764 0.839216
121.512177 35.807987 5.908320 0.839216
121.512177 35.807987 5.292644 0.839216
121.512177 35.807987 4.684259 0.839216
121.512177 35.807991 4.081755 0.776471
121.512177 35.807991 3.483771 0.831266
121.512177 35.807991 2.888990 0.839216
121.512177 35.807995 2.296118 0.839216
121.512177 35.807995 1.703882 0.839216
121.512177 35.807991 1.111010 0.680522
121.512177 35.807991 0.516228 0.725856
121.926048 36.385620 -0.000008 0.212980
124.198845 39.557701 -0.000005 0.213399
125.649826 41.582806 -0.000004 0.259547
126.658310 42.990322 -0.000003 0.231267
127.401321 44.027321 -0.000002 0.224996
121.355980 35.807987 6.555662 0.810910
121.355980 35.807987 5.928064 0.836194
121.355980 35.807991 5.309278 0.839216
121.355980 35.807987 4.697820 0.835843
121.355980 35.807991 4.092272 0.776471
121.355980 35.807991 3.491266 0.816510
121.355980 35.807991 2.893481 0.839216
121.355980 35.807991 2.297614 0.839216
121.355980 35.807991 1.702386 0.839216
121.355980 35.807991 1.106519 0.839216
121.355980 35.807991 0.508733 0.777539
121.827629 36.456650 -0.000008 0.239285
124.122520 39.612793 -0.000006 0.204339
125.587601 41.627716 -0.000004 0.222638
126.605896 43.028160 -0.000003 0.180356
127.356117 44.059940 -0.000003 0.242218
121.198189 35.807987 6.579018 0.748669
121.198189 35.807987 5.948202 0.653666
121.198189 35.807987 5.326243 0.839216
121.198189 35.807987 4.711651 0.819608
121.198189 35.807987 4.102998 0.776471
121.198189 35.807991 3.498912 0.859129
121.198189 35.807991 2.898061 0.839216
121.198189 35.807991 2.299140 0.839216
121.198189 35.807991 1.700860 0.839216
121.198189 35.807991 1.101938 0.839216
121.198189 35.807991 0.501087 0.815641
121.729713 36.528366 -0.000008 0.233768
124.046577 39.668411 -0.000006 0.220795
125.525696 41.673058 -0.000004 0.199133
126.553741 43.066360 -0.000003 0.223344
127.311150 44.092880 -0.000002 0.278277
121.038765 35.807987 6.602839 0.776471
121.038765 35.807991 5.968741 0.744991
121.038757 35.807987 5.343548 0.749508
121.038765 35.807987 4.725758 0.837766
121.038757 35.807987 4.113939 0.839216
121.038765 35.807991 3.506710 0.849973
121.038765 35.807991 2.902734 0.839216
121.038765 35.807991 2.300696 0.839216
121.038765 35.807995 1.699304 0.839216
121.038765 35.807991 1.097266 0.839216
121.038765 35.807991 0.493290 0.776471
121.632309 36.600773 -0.000008 0.232081
123.971031 39.724564 -0.000006 0.269947
125.464111 41.718834 -0.000004 0.267530
126.501854 43.104927 -0.000003 0.224505
127.266411 44.126133 -0.000002 0.210646
120.877663 35.807987 6.627138 0.839216
120.877663 35.807983 5.989693 0.839216
120.877663 35.807987 5.361198 0.839216
120.877663 35.807991 4.740147 0.726909
120.877663 35.807987 4.125098 0.839216
120.877663 35.807991 3.514664 0.913725
120.877663 35.807991 2.907499 0.839216
120.877663 35.807991 2.302284 0.839216
120.877663 35.807991 1.697716 0.839216
120.877663 35.807991 1.092501 0.776471
120.877663 35.807991 0.485336 0.776471
121.535400 36.673851 -0.000008 0.205524
123.895882 39.781242 -0.000005 0.201658
125.402840 41.765038 -0.000005 0.201898
126.450233 43.143848 -0.000003 0.251636
127.221909 44.159698 -0.000002 0.220233
120.714844 35.807987 6.651921 0.681498
120.714844 35.807987 6.011062 0.839216
120.714844 35.807987 5.379201 0.839216
120.714844 35.807987 4.754824 0.578210
120.714844 35.807991 4.136480 0.839216
120.714844 35.807991 3.522776 0.907057
120.714844 35.807991 2.912360 0.838544
120.714844 35.807991 2.303902 0.839216
120.714844 35.807991 1.696097 0.776471
120.714844 35.807991 1.087641 0.776471
120.714844 35.807991 0.477223 0.839216
121.439003 36.747604 -0.000008 0.247531
123.821121 39.838436 -0.000006 0.243666
125.341896 41.811665 -0.000005 0.224529
126.398895 43.183136 -0.000003 0.235839
127.177635 44.193569 -0.000003 0.211783
120.550262 35.807983 6.677201 0.839216
120.550262 35.807987 6.032859 0.802915
120.550262 35.807987 5.397564 0.782559
120.550262 35.807983 4.769794 0.839216
120.550262 35.807987 4.148090 0.574350
120.550262 35.807987 3.531052 0.708812
120.550262 35.807991 2.917317 0.839216
120.550262 35.807991 2.305554 0.815534
120.550262 35.807991 1.694446 0.752941
120.550262 35.807987 1.082682 0.753170
120.550262 35.807987 0.468948 0.839216
121.343132 36.822029 -0.000008 0.226540
123.746765 39.896156 -0.000006 0.202472
125.281281 41.858719 -0.000005 0.267147
126.347824 43.222778 -0.000004 0.234630
127.133606 44.227749 -0.000003 0.218976
120.383873 35.807983 6.702988 0.839216
120.383881 35.807987 6.055092 0.905882
120.383881 35.807987 5.416295 0.839216
120.383881 35.807987 4.785064 0.839216
120.383881 35.807987 4.159933 0.835538
120.383881 35.807987 3.539493 0.644114
120.383881 35.807987 2.922375 0.799100
120.383881 35.807991 2.307239 0.908461
120.383881 35.807991 1.692761 0.829908
120.383881 35.807991 1.077625 0.839216
120.383881 35.807991 0.460507 0.839216
121.247780 36.897118 -0.000009 0.218844
123.672821 39.954391 -0.000006 0.229029
125.221001 41.906200 -0.000004 0.209557
126.297035 43.262775 -0.000003 0.258314
127.089813 44.262238 -0.000003 0.230561
120.215637 35.807983 6.729292 0.829099
120.215637 35.807991 6.077772 0.905882
120.215637 35.807987 5.435403 0.785626
120.215637 35.807987 4.800641 0.905882
120.215637 35.807983 4.172015 0.839216
120.215637 35.807987 3.548103 0.607752
120.215637 35.807987 2.927534 0.751598
120.215637 35.807991 2.308957 0.915816
120.215637 35.807991 1.691043 0.839216
120.215637 35.807987 1.072466 0.839216
120.215637 35.807987 0.451896 0.839216
121.152954 36.972878 -0.000008 0.238651
123.599274 40.013145 -0.000006 0.220651
125.161041 41.954094 -0.000005 0.227988
126.246529 43.303123 -0.000004 0.219634
127.046265 44.297028 -0.000003 0.209318
120.045494 35.807987 6.756124 0.839216
120.045494 35.807987 6.100910 0.833494
120.045494 35.807987 5.454895 0.799695
120.045494 35.807987 4.816532 0.905882
120.045494 35.807991 4.184337 0.839216
120.045502 35.807991 3.556886 0.772915
120.045494 35.807987 2.932796 0.803861
120.045502 35.807991 2.310710 0.839216
120.045502 35.807991 1.689290 0.839216
120.045494 35.807987 1.067203 0.839216
120.045494 35.807991 0.443113 0.827665
121.058655 37.049294 -0.000009 0.211472
123.526146 40.072411 -0.000006 0.216690
125.101425 42.002411 -0.000004 0.228335
126.196304 43.343830 -0.000004 0.199133
127.002960 44.332123 -0.000003 0.230489
119.873405 35.807983 6.783498 0.850980
119.873405 35.807987 6.124513 0.770169
119.873405 35.807983 5.474780 0.776471
119.873405 35.807983 4.832742 0.679469
119.873405 35.807983 4.196909 0.839216
119.873405 35.807987 3.565848 0.839216
119.873405 35.807987 2.938165 0.688899
119.873405 35.807987 2.312499 0.829892
119.873405 35.807987 1.687502 0.773159
119.873405 35.807987 1.061835 0.839216
119.873405 35.807987 0.434152 0.863416
120.964897 37.126366 -0.000009 0.213016
123.453438 40.132187 -0.000006 0.266058
125.042145 42.051136 -0.000005 0.226264
126.146362 43.384880 -0.000004 0.287073
126.959900 44.367523 -0.000003 0.229328
119.699310 35.807987 6.811425 0.776471
119.699310 35.807983 6.148593 0.839216
119.699310 35.807987 5.495066 0.776471
119.699310 35.807983 4.849280 0.767437
119.699310 35.807987 4.209736 0.937255
119.699310 35.807987 3.574989 0.839216
119.699318 35.807987 2.943642 0.669413
119.699318 35.807991 2.314323 0.747127
119.699318 35.807991 1.685677 0.776471
119.699318 35.807987 1.056357 0.776471
119.699310 35.807987 0.425010 0.663294
120.871681 37.204094 -0.000009 0.244168
123.381142 40.192467 -0.000006 0.268164
124.983215 42.100281 -0.000005 0.235791
126.096710 43.426281 -0.000004 0.224254
126.917084 44.403221 -0.000003 0.257094
119.523170 35.807987 6.839915 0.518578
119.523170 35.807983 6.173159 0.646616
119.523170 35.807987 5.515762 0.579644
119.523170 35.807987 4.866153 0.839216
119.523170 35.807987 4.222820 0.679805
119.523170 35.807983 3.584316 0.698039
119.523170 35.807983 2.949230 0.827955
119.523170 35.807987 2.316184 0.675441
119.523170 35.807987 1.683816 0.674250
119.523170 35.807983 1.050769 0.703792
119.523170 35.807983 0.415683 0.678019
120.779007 37.282467 -0.000009 0.224373
123.309265 40.253246 -0.000007 0.239692
124.924622 42.149830 -0.000005 0.244599
126.047348 43.468029 -0.000004 0.269277
126.874519 44.439213 -0.000003 0.231147
119.344910 35.807980 6.868988 0.839216
119.344910 35.807983 6.198225 0.776471
119.344910 35.807980 5.536880 0.639246
119.344910 35.807983 4.883368 0.838834
119.344910 35.807983 4.236172 0.601450
119.344917 35.807987 3.593832 0.839216
119.344917 35.807983 2.954931 0.778790
119.344910 35.807983 2.318084 0.638529
119.344910 35.807983 1.681917 0.776471
119.344917 35.807983 1.045068 0.721202
119.344917 35.807983 0.406168 0.839216
120.686882 37.361485 -0.000009 0.205416
123.237816 40.314529 -0.000007 0.199408
124.866371 42.199791 -0.000005 0.246358
125.998276 43.510117 -0.000004 0.220041
126.832214 44.475506 -0.000003 0.263101
119.164497 35.807980 6.898650 0.717632
119.164497 35.807983 6.223800 0.667597
119.164497 35.807983 5.558427 0.839216
119.164497 35.807980 4.900933 0.839216
119.164497 35.807983 4.249794 0.625071
119.164497 35.807983 3.603541 0.834165
119.164505 35.807987 2.960749 0.905882
119.164505 35.807987 2.320021 0.683085
119.164505 35.807987 1.679979 0.776471
119.164505 35.807983 1.039251 0.641215
119.164497 35.807983 0.396458 0.839216
120.595306 37.441139 -0.000010 0.236066
123.166801 40.376308 -0.000006 0.235707
124.808479 42.250156 -0.000005 0.231267
125.949501 43.552547 -0.000004 0.230250
126.790154 44.512089 -0.000003 0.250200
118.981857 35.807980 6.928917 0.758251
118.981857 35.807983 6.249897 0.905882
118.981857 35.807983 5.580413 0.839216
118.981865 35.807983 4.918857 0.709804
118.981865 35.807983 4.263695 0.839216
118.981865 35.807983 3.613449 0.828595
118.981865 35.807983 2.966685 0.905882
118.981865 35.807983 2.321998 0.712169
118.981865 35.807983 1.678002 0.839216
118.981865 35.807983 1.033315 0.614771
118.981865 35.807983 0.386550 0.839216
120.504303 37.521446 -0.000009 0.214656
123.096222 40.438583 -0.000006 0.223883
124.750938 42.300922 -0.000005 0.236174
125.901024 43.595318 -0.000004 0.198463
126.748360 44.548969 -0.000004 0.216642
118.796944 35.807983 6.959802 0.905882
118.796951 35.807983 6.276528 0.905882
118.796951 35.807983 5.602848 0.785626
118.796951 35.807983 4.937147 0.799283
118.796951 35.807983 4.277880 0.839216
118.796951 35.807983 3.623559 0.723095
118.796951 35.807983 2.972743 0.905882
118.796951 35.807983 2.324016 0.819501
118.796951 35.807983 1.675984 0.839216
118.796951 35.807983 1.027257 0.824048
118.796951 35.807983 0.376440 0.905882
120.413849 37.602375 -0.000009 0.211496
123.026070 40.501350 -0.000007 0.265471
124.693748 42.352093 -0.000005 0.203837
125.852844 43.638428 -0.000004 0.238998
126.706818 44.586140 -0.000003 0.199720
118.609680 35.807976 6.991324 0.726955
118.609688 35.807983 6.303707 0.697704
118.609688 35.807983 5.625746 0.823301
118.609688 35.807983 4.955814 0.839216
118.609688 35.807983 4.292357 0.839216
118.609688 35.807983 3.633878 0.729305
118.609688 35.807983 2.978925 0.905882
118.609695 35.807983 2.326075 0.768658
118.609695 35.807983 1.673925 0.839216
118.609688 35.807983 1.021075 0.710811
118.609688 35.807980 0.366122 0.905882
120.323967 37.683937 -0.000010 0.224601
122.956367 40.564602 -0.000007 0.237012
124.636925 42.403656 -0.000005 0.275357
125.804970 43.681870 -0.000004 0.219155
126.665535 44.623596 -0.000004 0.196788
118.420029 35.807980 7.023494 0.839216
118.420029 35.807980 6.331446 0.847669
118.420029 35.807980 5.649115 0.905882
118.420029 35.807983 4.974865 0.839216
118.420029 35.807980 4.307132 0.718898
118.420029 35.807983 3.644408 0.827420
118.420029 35.807983 2.985234 0.839216
118.420029 35.807980 2.328177 0.728542
118.420029 35.807980 1.671823 0.839216
118.420029 35.807983 1.014765 0.839216
118.420029 35.807983 0.355591 0.759014
120.234657 37.766121 -0.000010 0.234259
122.887100 40.628345 -0.000006 0.207008
124.580460 42.455620 -0.000005 0.230058
125.757401 43.725647 -0.000004 0.189248
126.624519 44.661343 -0.000003 0.245102
118.227890 35.807976 7.056330 0.839216
118.227890 35.807976 6.359760 0.776471
118.227890 35.807976 5.672968 0.839216
118.227890 35.807980 4.994310 0.741146
118.227890 35.807980 4.322212 0.588159
118.227890 35.807980 3.655158 0.833829
118.227890 35.807980 2.991674 0.838804
118.227890 35.807980 2.330322 0.666926
118.227890 35.807980 1.669678 0.838788
118.227890 35.807980 1.008326 0.839216
118.227890 35.807980 0.344842 0.753368
120.145920 37.848934 -0.000009 0.239393
122.818283 40.692562 -0.000007 0.241152
124.524353 42.507977 -0.000005 0.255502
125.710136 43.769753 -0.000004 0.197314
126.583771 44.699375 -0.000003 0.266488
118.033226 35.807983 7.089846 0.611902
118.033226 35.807980 6.388658 0.762036
118.033226 35.807980 5.697314 0.794232
118.033226 35.807980 5.014158 0.714855
118.033226 35.807983 4.337605 0.828260
118.033226 35.807980 3.666129 0.839216
118.033226 35.807980 2.998248 0.836683
118.033226 35.807980 2.332511 0.661967
118.033226 35.807980 1.667488 0.837751
118.033226 35.807980 1.001752 0.839216
118.033218 35.807976 0.333870 0.756039
120.057770 37.932358 -0.000010 0.229831
122.749916 40.757263 -0.000007 0.225798
124.468620 42.560722 -0.000005 0.218701
125.663185 43.814190 -0.000004 0.216690
126.543282 44.737690 -0.000003 0.272568
117.835945 35.807976 7.124064 0.839216
117.835945 35.807980 6.418162 0.839216
117.835945 35.807976 5.722170 0.776471
117.835945 35.807983 5.034421 0.839216
117.835945 35.807983 4.353320 0.839216
117.835945 35.807980 3.677330 0.838712
117.835945 35.807983 3.004959 0.835172
117.835945 35.807980 2.334747 0.684947
117.835945 35.807980 1.665253 0.836423
117.835945 35.807980 0.995041 0.839216
117.835945 35.807980 0.322670 0.906859
119.970192 38.016396 -0.000010 0.235982
122.681999 40.822441 -0.000007 0.206242
124.413254 42.613853 -0.000006 0.201862
125.616539 43.858955 -0.000004 0.215027
