# This PCD file was generated using the MATLABÂ® pcwrite function
# from Computer Vision ToolboxÂ®.
# .PCD v.7 - Point Cloud Data file format
VERSION .7
FIELDS x y z intensity
SIZE 4 4 4 4
TYPE F F F F
COUNT 1 1 1 1
WIDTH 1302
HEIGHT 1
VIEWPOINT 0 0 0 1 0 0 0
POINTS 1302
DATA ascii
119.262680 85.541878 0.140555 0.352941
114.196823 84.010025 0.000010 0.215374
110.461662 82.880547 0.000008 0.242589
108.077072 82.159477 0.000006 0.284572
106.419685 81.658302 0.000005 0.248429
105.198601 81.289055 0.000005 0.229185
107.494568 81.907761 4.595408 1.000000
107.529533 81.918068 4.245731 0.937255
109.185051 82.406090 4.206009 0.937255
111.820808 83.183075 4.206015 0.937255
115.949295 84.400093 4.206007 0.937255
119.281898 85.382492 3.857215 0.905882
119.618507 85.481720 3.129976 0.937255
119.618500 85.481720 2.376390 0.937255
119.822571 85.541878 1.620129 0.352941
119.822571 85.541878 0.859572 0.352941
119.822578 85.541878 0.096565 0.352941
114.231552 83.893730 0.000011 0.217241
110.488586 82.790352 0.000008 0.234941
108.099022 82.085945 0.000006 0.246574
106.438179 81.596359 0.000005 0.240363
105.214546 81.235649 0.000005 0.264023
107.494453 81.832466 4.590111 1.000000
107.529533 81.842545 4.241174 0.937255
109.208694 82.324821 4.206009 0.937255
111.849815 83.083389 4.206015 0.937255
115.986694 84.271545 4.206006 0.937255
119.854713 85.382492 3.902313 0.905882
120.200195 85.481720 3.157414 0.937255
120.200203 85.481720 2.385530 0.937255
120.409630 85.541870 1.610905 0.352941
120.409630 85.541870 0.831880 0.352941
120.409637 85.541870 0.050345 0.352941
114.265465 83.777191 0.000010 0.219335
110.514893 82.699974 0.000008 0.225068
108.120461 82.012268 0.000007 0.252318
106.456245 81.534279 0.000005 0.204914
105.230125 81.182129 0.000005 0.229687
107.492043 81.756836 4.584365 1.000000
107.529533 81.767319 4.236744 0.937255
109.231781 82.243393 4.206010 0.937255
111.878128 82.983498 4.206015 0.937255
116.023193 84.142746 4.206006 0.937255
120.456070 85.382492 3.949753 0.905882
120.517792 85.399750 3.171327 0.905882
120.810875 85.481720 2.395144 0.937255
121.025940 85.541870 1.601202 0.352941
121.025932 85.541870 0.802751 0.352941
120.983032 85.529869 0.005380 0.223529
114.298569 83.660423 0.000010 0.232500
110.540558 82.609413 0.000008 0.211664
108.141388 81.938438 0.000007 0.235803
106.473869 81.472084 0.000006 0.261091
105.245323 81.128494 0.000005 0.186184
107.490715 81.681824 4.579045 1.000000
107.529533 81.692390 4.232440 0.937255
109.254288 82.161797 4.206010 0.937255
111.905746 82.883408 4.206016 0.937255
116.058784 84.013695 4.206004 0.937255
121.088226 85.382492 3.999720 0.905882
121.088226 85.382492 3.198116 0.905882
121.088219 85.382492 2.399086 0.905882
121.088226 85.382492 1.600913 0.905882
121.088226 85.382492 0.801883 0.905882
121.088226 85.382492 0.000279 0.905882
114.330841 83.543419 0.000010 0.228622
110.565590 82.518677 0.000008 0.226911
108.161797 81.864464 0.000007 0.221405
106.491066 81.409767 0.000005 0.252809
105.260147 81.074760 0.000005 0.187788
107.488480 81.606880 4.573640 1.000000
107.529533 81.617744 4.228260 0.937255
109.276237 82.080055 4.206010 0.581292
111.932663 82.783134 4.206016 0.937255
116.093483 83.884392 4.206003 0.937255
123.564308 85.861725 4.205995 0.937255
121.753738 85.382515 3.229693 0.905882
121.753731 85.382515 2.409605 0.905882
121.753731 85.382515 1.590395 0.905882
121.753738 85.382515 0.770306 0.905882
121.135483 85.218880 0.000015 0.228981
114.362305 83.426201 0.000010 0.230393
110.589996 82.427773 0.000008 0.240039
108.181694 81.790359 0.000006 0.236138
106.507828 81.347328 0.000005 0.248178
105.274597 81.020927 0.000005 0.201180
107.486969 81.532433 4.568564 1.000000
107.529533 81.543373 4.224204 0.937255
109.297607 81.998154 4.206010 0.937255
111.958878 82.682678 4.206017 0.937255
116.127258 83.754852 4.206000 0.937255
123.611740 85.679985 4.205996 0.937255
nan nan nan 0.000000
nan nan nan 0.000000
nan nan nan 0.000000
136.983459 89.119415 0.000002 0.338140
121.178467 85.054108 0.000015 0.233493
114.392952 83.308762 0.000010 0.229005
110.613762 82.336693 0.000008 0.233876
108.201065 81.716103 0.000006 0.227377
106.524147 81.284775 0.000005 0.224254
105.288673 80.966988 0.000005 0.291908
107.485451 81.458260 4.563630 1.000000
107.529526 81.469269 4.220271 0.937255
109.318405 81.916107 4.206011 0.937255
111.984390 82.582039 4.206017 0.937255
116.160156 83.625084 4.206000 0.937255
123.657898 85.497917 4.205995 0.937255
nan nan nan 0.000000
nan nan nan 0.000000
nan nan nan 0.000000
137.053345 88.843918 0.000000 0.337865
121.220322 84.889046 0.000015 0.225965
114.422775 83.191109 0.000010 0.255550
110.636894 82.245445 0.000008 0.225714
108.219917 81.641724 0.000007 0.214428
106.540031 81.222107 0.000006 0.250703
105.302368 80.912956 0.000005 0.214153
107.483498 81.384270 4.558726 1.000000
107.529526 81.395424 4.216460 0.937255
109.338631 81.833923 4.206011 0.937255
112.009201 82.481224 4.206017 0.937255
116.192139 83.495094 4.205999 0.937255
123.702759 85.315536 4.205994 0.937255
nan nan nan 0.000000
nan nan nan 0.000000
nan nan nan 0.000000
137.121201 88.567932 0.000002 0.339254
121.261009 84.723694 0.000015 0.223392
114.451782 83.073257 0.000010 0.230788
110.659378 82.154045 0.000008 0.211484
108.238258 81.567207 0.000007 0.190516
106.555481 81.159332 0.000006 0.263437
105.315689 80.858826 0.000005 0.270414
107.481964 81.310654 4.554072 1.000000
107.529533 81.321831 4.212770 0.937255
109.358284 81.751595 4.206011 0.937255
112.033310 82.380234 4.206017 0.937255
116.111267 83.338570 4.192770 0.937255
123.746368 85.132843 4.205994 0.711635
nan nan nan 0.000000
nan nan nan 0.000000
nan nan nan 0.000000
137.187134 88.291466 0.000005 0.339117
121.300537 84.558060 0.000015 0.220580
114.479950 82.955200 0.000011 0.233792
110.681229 82.062492 0.000009 0.238089
108.256073 81.492569 0.000007 0.221250
106.570488 81.096451 0.000006 0.259822
105.328629 80.804611 0.000005 0.227772
107.480438 81.237297 4.549559 1.000000
107.529533 81.248474 4.209199 0.937255
109.377365 81.669128 4.206012 0.937255
112.056709 82.279083 4.206017 0.937255
116.111275 83.202095 4.189231 0.937255
123.788681 84.949844 4.205993 0.937255
nan nan nan 0.000000
nan nan nan 0.000000
nan nan nan 0.000000
137.251129 88.014549 0.000008 0.339849
121.338921 84.392159 0.000015 0.220101
114.507309 82.836952 0.000011 0.219383
110.702446 81.970787 0.000009 0.193437
108.273369 81.417809 0.000007 0.237586
106.585060 81.033470 0.000006 0.233888
105.341194 80.750305 0.000005 0.261498
107.478912 81.164200 4.545182 1.000000
107.530708 81.175613 4.206008 0.937255
109.395859 81.586540 4.206012 0.937255
112.079407 82.177765 4.206017 0.937255
116.111267 83.066055 4.185811 0.937255
123.829727 84.766563 4.205992 0.937255
nan nan nan 0.000000
nan nan nan 0.000000
nan nan nan 0.000000
137.313293 87.737221 0.000006 0.337636
121.376129 84.225990 0.000015 0.232799
114.533829 82.718521 0.000011 0.248680
110.723022 81.878937 0.000008 0.212082
108.290138 81.342926 0.000007 0.216355
106.599190 80.970383 0.000005 0.200354
105.353378 80.695908 0.000005 0.255334
107.477402 81.091354 4.540949 1.000000
107.545807 81.105919 4.206008 0.937255
109.413788 81.503815 4.206012 0.901030
112.101379 82.076294 4.206017 0.760342
116.111267 82.930435 4.182508 0.937255
123.869522 84.583000 4.205995 0.708217
nan nan nan 0.000000
nan nan nan 0.000000
nan nan nan 0.000000
137.373444 87.459442 0.000008 0.338827
121.412186 84.059570 0.000015 0.227605
114.559532 82.599899 0.000011 0.218892
110.742950 81.786942 0.000009 0.212262
108.306381 81.267929 0.000007 0.248082
106.612877 80.907204 0.000006 0.227581
105.365173 80.641434 0.000005 0.256064
107.475922 81.018745 4.536860 1.000000
107.560417 81.036133 4.206008 0.937255
109.431129 81.420975 4.206012 0.937255
112.122665 81.974678 4.206017 0.937255
116.338379 82.841934 4.205993 0.937255
123.908012 84.399170 4.205995 0.937255
nan nan nan 0.000000
nan nan nan 0.000000
nan nan nan 0.000000
137.431717 87.181267 0.000006 0.339529
121.447083 83.892899 0.000015 0.229137
114.584404 82.481110 0.000011 0.234211
110.762238 81.694809 0.000009 0.263472
108.322113 81.192825 0.000007 0.212753
106.626129 80.843925 0.000006 0.266237
105.376602 80.586876 0.000005 0.224553
107.475021 80.946487 4.533052 1.000000
107.574539 80.966232 4.206008 0.937255
109.447899 81.338013 4.206012 0.937255
112.143227 81.872910 4.206017 0.937255
116.364883 82.710709 4.205992 0.943008
123.945259 84.215073 4.205997 0.937255
nan nan nan 0.000000
nan nan nan 0.000000
nan nan nan 0.000000
137.487976 86.902679 0.000007 0.339239
121.480812 83.725990 0.000015 0.248704
114.608444 82.362137 0.000011 0.226456
110.780884 81.602547 0.000009 0.265698
108.337311 81.117607 0.000007 0.192144
106.638931 80.780563 0.000006 0.196512
105.387642 80.532234 0.000005 0.240566
107.473770 80.874367 4.529292 1.000000
107.588181 80.896248 4.206008 0.620798
109.464088 81.254929 4.206012 0.937255
112.163086 81.771004 4.206017 0.937255
116.390472 82.579315 4.205991 0.937255
123.981171 84.030708 4.205997 0.937255
nan nan nan 0.000000
nan nan nan 0.000000
nan nan nan 0.000000
137.542374 86.623718 0.000005 0.338643
121.513374 83.558846 0.000015 0.226193
114.631653 82.243011 0.000010 0.217827
110.798882 81.510155 0.000009 0.241535
108.351982 81.042290 0.000007 0.233266
106.651291 80.717102 0.000006 0.186567
105.398300 80.477524 0.000005 0.218066
107.471771 80.802322 4.525472 1.000000
107.601326 80.826157 4.206008 0.937255
109.479691 81.171745 4.206012 0.937255
112.182228 81.668961 4.206017 0.937255
116.415146 82.447731 4.205990 0.937255
124.015808 83.846107 4.205998 0.937255
nan nan nan 0.000000
156.262054 89.778793 2.976786 0.461204
nan nan nan 0.000000
137.594742 86.344368 0.000007 0.339239
121.544769 83.391479 0.000015 0.237215
114.654022 82.123718 0.000011 0.216475
110.816238 81.417641 0.000009 0.227246
108.366135 80.966873 0.000007 0.204890
106.663216 80.653564 0.000006 0.212130
105.408577 80.422737 0.000005 0.217683
107.470512 80.730621 4.521974 1.000000
107.613983 80.755989 4.206008 0.937255
109.494720 81.088448 4.206013 0.937255
112.200653 81.566780 4.206017 0.937255
116.438904 82.315987 4.205989 0.940383
124.049171 83.661270 4.206000 0.937255
nan nan nan 0.000000
156.667175 89.427223 2.982289 0.533196
nan nan nan 0.000000
137.645126 86.064651 0.000010 0.338430
121.574989 83.223900 0.000016 0.232224
114.675568 82.004280 0.000011 0.225391
110.832947 81.325012 0.000009 0.210814
108.379753 80.891350 0.000007 0.228119
106.674690 80.589943 0.000006 0.214081
105.418472 80.367882 0.000005 0.205177
107.469444 80.659149 4.518654 1.000000
107.626152 80.685722 4.206008 0.937255
109.509163 81.005051 4.206013 0.937255
112.218376 81.464478 4.206018 0.678111
116.461739 82.184074 4.205987 0.937255
124.081230 83.476204 4.206001 0.937255
156.877594 89.037857 4.955893 0.427207
156.400665 88.956978 2.976677 0.450233
nan nan nan 0.000000
137.693665 85.784615 0.000008 0.338506
121.604050 83.056114 0.000016 0.239357
114.696281 81.884689 0.000011 0.220268
110.849007 81.232262 0.000009 0.221477
108.392845 80.815742 0.000007 0.221513
106.685715 80.526245 0.000006 0.210946
105.427986 80.312958 0.000005 0.220424
107.468376 80.587860 4.515466 1.000000
107.637833 80.615379 4.206009 0.937255
109.523018 80.921547 4.206013 0.728695
112.235374 81.362053 4.206017 0.937255
116.483650 82.052010 4.205986 0.851438
124.111992 83.290909 4.206001 0.897520
155.744720 88.428307 4.896085 0.434211
157.381638 88.694153 2.991810 0.482628
nan nan nan 0.000000
137.740097 85.504219 0.000014 0.338689
121.631935 82.888130 0.000016 0.230836
114.716156 81.764954 0.000011 0.223536
110.293526 81.046684 0.085802 0.583520
108.405411 80.740044 0.000007 0.226408
106.696304 80.462471 0.000006 0.216487
105.437111 80.257965 0.000005 0.252642
107.467567 80.516785 4.512474 1.000000
107.649017 80.544952 4.206008 0.937255
109.536301 80.837959 4.206013 0.937255
112.251663 81.259521 4.206018 0.937255
116.504639 81.919792 4.205986 0.937255
124.141449 83.105408 4.206001 0.937255
157.751144 88.323326 4.992625 0.439033
157.626129 88.303917 2.994759 0.641352
nan nan nan 0.000000
137.784546 85.223503 0.000021 0.338430
121.658646 82.719955 0.000016 0.227006
114.735191 81.645088 0.000012 0.213004
110.213051 80.943024 0.100004 0.592447
108.417450 80.664253 0.000007 0.242493
106.706444 80.398621 0.000006 0.188135
105.445854 80.202919 0.000005 0.276302
107.465195 80.445648 4.509214 1.000000
107.659706 80.474457 4.206008 0.937255
109.548988 80.754272 4.206013 0.937255
112.267235 81.156868 4.206018 0.937255
110.393921 80.879417 3.493001 0.192157
124.169624 82.919708 4.206001 0.937255
nan nan nan 0.000000
156.503036 87.708557 2.975127 0.504616
156.794250 87.751686 1.020055 0.849515
137.826859 84.942459 0.000036 0.337499
121.684174 82.551598 0.000016 0.227748
114.753387 81.525085 0.000012 0.229460
110.226471 80.854614 0.100003 0.598733
108.428955 80.588387 0.000008 0.230405
106.716141 80.334702 0.000006 0.211424
105.454216 80.147804 0.000006 0.306820
107.462502 80.374641 4.506001 1.000000
107.669907 80.403885 4.206008 0.937255
109.561104 80.670502 4.206014 0.937255
112.282089 81.054115 4.206018 0.937255
110.393921 80.787918 3.491495 0.192157
124.196510 82.733818 4.206002 0.937255
155.942322 87.209381 4.896703 0.432181
157.682098 87.454651 2.993629 0.428367
nan nan nan 0.000000
137.867371 84.661148 0.000043 0.337438
121.708542 82.383064 0.000016 0.223631
114.770752 81.404968 0.000011 0.227772
110.239227 80.766106 0.100008 0.607691
108.439934 80.512444 0.000007 0.248860
106.725388 80.270721 0.000006 0.225199
105.462189 80.092636 0.000005 0.228909
107.462021 80.304108 4.503477 1.000000
107.679619 80.333237 4.206007 0.937255
109.572624 80.586655 4.206014 0.937255
110.619362 80.726776 3.955060 0.937255
110.393921 80.696594 3.490065 0.192157
110.618500 80.726662 3.080622 0.937255
110.620728 80.726959 2.647557 0.937255
110.620094 80.726875 2.215688 0.937255
110.619621 80.726814 1.784320 0.937255
110.619446 80.726791 1.352506 0.937255
110.620079 80.726875 0.919247 0.937255
110.619797 80.726837 0.483718 0.926680
110.251366 80.677513 0.100013 0.654841
108.450378 80.436417 0.000007 0.238998
106.734192 80.206680 0.000006 0.205883
105.469780 80.037415 0.000005 0.219383
107.459511 80.233459 4.500566 0.998901
107.688828 80.262527 4.206007 0.937255
109.583565 80.502724 4.206013 0.937255
110.619385 80.634033 3.953286 0.937255
110.393921 80.605446 3.488710 0.192157
110.619987 80.634109 3.079763 0.937255
110.619225 80.634010 2.646894 0.937255
110.620300 80.634148 2.215495 0.937255
110.619461 80.634041 1.784519 0.937255
110.620079 80.634117 1.353064 0.937255
110.619789 80.634079 0.920253 0.937255
110.619812 80.634087 0.485096 0.939834
110.262886 80.588837 0.100019 0.651484
108.460297 80.360329 0.000007 0.229017
106.742546 80.142570 0.000006 0.225822
105.476982 79.982140 0.000005 0.300381
107.456947 80.162964 4.497769 0.962005
107.697548 80.191757 4.206007 0.937255
109.593918 80.418716 4.206014 0.937255
112.322327 80.745255 4.206017 0.937255
110.393921 80.514465 3.487430 0.192157
124.269341 82.175079 4.206004 0.937255
nan nan nan 0.000000
156.792587 86.067490 2.976261 0.483497
112.987930 80.824913 1.745670 0.937255
112.987930 80.824913 1.236465 0.937255
111.349930 80.628876 0.860886 0.355520
111.349930 80.628876 0.401806 0.352941
110.273804 80.500084 0.100021 0.675120
108.469681 80.284164 0.000007 0.236545
106.750450 80.078407 0.000006 0.204399
105.483795 79.926811 0.000005 0.210419
107.456566 80.092865 4.495650 0.982727
107.705772 80.120926 4.206007 0.937255
109.603676 80.334641 4.206013 0.877714
112.334297 80.642120 4.206017 0.937255
110.393921 80.423622 3.486224 0.192157
124.291016 81.988510 4.206004 0.937255
nan nan nan 0.000000
112.362366 80.645279 2.243822 0.945022
112.362366 80.645279 1.756178 0.937255
112.362366 80.645279 1.268010 0.937255
111.374756 80.534073 0.859761 0.352941
111.374756 80.534073 0.400227 0.352941
110.284187 80.411270 0.100011 0.671107
108.478531 80.207947 0.000007 0.239920
106.757904 80.014191 0.000006 0.197685
105.490227 79.871445 0.000005 0.260469
107.454117 80.022667 4.493134 0.943999
107.713501 80.050041 4.206007 0.937255
109.612854 80.250496 4.206013 0.937255
112.345558 80.538910 4.206016 0.937255
110.582024 80.352783 3.506852 0.402686
124.311386 81.801796 4.206005 0.937255
nan nan nan 0.000000
nan nan nan 0.000000
112.987930 80.606705 1.746070 0.937255
112.987938 80.606705 1.237664 0.937255
112.696503 80.575951 0.751650 0.937255
111.473686 80.446892 0.390000 0.352941
110.293922 80.322380 0.100006 0.645594
108.486855 80.131660 0.000007 0.189511
106.764923 79.949928 0.000006 0.209282
105.496277 79.816032 0.000005 0.279186
107.453911 79.952820 4.491306 0.956497
107.720741 79.979103 4.206007 0.937255
109.621437 80.166298 4.206012 0.937255
112.356087 80.435623 4.206015 0.937255
116.639244 80.857460 4.205977 0.937255
124.330460 81.614937 4.206006 0.937255
nan nan nan 0.000000
nan nan nan 0.000000
112.987930 80.497849 1.746251 0.937255
112.987938 80.497849 1.238207 0.937255
112.696503 80.469147 0.752539 0.937255
112.696503 80.469147 0.249792 0.773602
110.374069 80.240417 0.089413 0.652811
108.494637 80.055321 0.000008 0.218689
106.771477 79.885612 0.000006 0.238687
105.501930 79.760582 0.000005 0.204507
107.451248 79.882858 4.488984 0.937255
107.727478 79.908112 4.206006 0.937255
109.629440 80.082031 4.206012 0.937255
112.365898 80.332260 4.206014 0.855711
116.651901 80.724182 4.205978 0.937255
124.348221 81.427956 4.206006 0.935866
nan nan nan 0.000000
nan nan nan 0.000000
112.987930 80.389145 1.746419 0.937255
112.987930 80.389145 1.238712 0.937255
112.696503 80.362495 0.753366 0.925490
112.696503 80.362495 0.250952 0.872312
110.627792 80.173325 0.052885 0.673716
108.501892 79.978928 0.000008 0.228742
106.777588 79.821251 0.000006 0.235133
105.507202 79.705086 0.000005 0.231399
107.451218 79.813232 4.487451 0.937255
107.733727 79.837082 4.206007 0.937255
109.636848 79.997719 4.206012 0.937255
112.374992 80.228836 4.206014 0.937255
116.663635 80.590828 4.205978 0.937255
124.364685 81.240852 4.206007 0.937255
nan nan nan 0.000000
nan nan nan 0.000000
114.088150 80.373444 1.728506 0.600046
113.624329 80.334290 1.207804 0.094118
113.271019 80.304466 0.706855 0.290196
113.977646 80.364113 0.104118 0.570993
110.991013 80.112022 0.000009 0.205524
108.508614 79.902489 0.000008 0.257991
106.783249 79.756851 0.000006 0.219514
105.512085 79.649559 0.000005 0.222040
107.448563 79.743492 4.485380 0.937255
107.739471 79.766006 4.206006 0.937255
109.643677 79.913353 4.206011 0.937255
112.383354 80.125351 4.206013 0.937255
116.674438 80.457397 4.205980 0.937255
124.379807 81.053635 4.206007 0.937255
nan nan nan 0.000000
118.462952 80.595787 2.343143 0.917540
118.462952 80.595787 1.656857 0.937255
118.462936 80.595787 0.969835 0.937255
118.462936 80.595787 0.280600 0.920974
114.022438 80.252182 0.100020 0.667597
110.998604 80.018196 0.000009 0.212789
108.514801 79.826004 0.000008 0.202604
106.788467 79.692421 0.000006 0.264968
105.516571 79.594002 0.000006 0.193760
107.448730 79.674065 4.484139 0.937255
107.744720 79.694893 4.206005 0.937255
109.649902 79.828941 4.206011 0.937255
112.390999 80.021805 4.206013 0.937255
116.684326 80.323891 4.205983 0.863111
122.240295 80.714813 4.029005 0.937255
122.240570 80.714828 3.215675 0.937255
122.240059 80.714790 2.404927 0.937255
118.864670 80.477303 1.650444 0.937255
118.864670 80.477303 0.950581 0.943297
118.573235 80.456795 0.272420 0.832990
114.544128 80.173302 0.040835 0.627207
111.005539 79.924324 0.000009 0.200952
108.520454 79.749474 0.000008 0.217552
106.793228 79.627945 0.000006 0.199576
105.520683 79.538406 0.000006 0.213124
107.446060 79.604523 4.482310 0.937255
107.749481 79.623749 4.206005 0.937255
109.655548 79.744492 4.206011 0.937255
112.397919 79.918213 4.206011 0.937255
116.693260 80.190315 4.205984 0.937255
124.406204 80.678917 4.206008 0.937255
nan nan nan 0.000000
nan nan nan 0.000000
119.441971 80.364441 1.641141 0.973434
119.388351 80.361046 0.925293 0.937255
118.966385 80.334312 0.240925 0.282582
114.906204 80.077110 0.000012 0.219155
111.011818 79.830406 0.000009 0.203753
108.525574 79.672913 0.000008 0.193460
106.797539 79.563438 0.000006 0.185861
105.524399 79.482788 0.000005 0.215410
107.446404 79.535248 4.481359 0.937255
107.753738 79.552567 4.206005 0.937255
109.660606 79.660004 4.206010 0.602701
112.404114 79.814575 4.206011 0.937255
116.701271 80.056686 4.205985 0.937255
124.417412 80.491425 4.206007 0.937255
nan nan nan 0.000000
nan nan nan 0.000000
nan nan nan 0.000000
138.202530 81.268105 -0.000006 0.336996
120.691071 80.281479 0.100019 0.677394
114.913460 79.955956 0.000012 0.225546
111.017441 79.736450 0.000009 0.261821
108.530159 79.596313 0.000008 0.209928
106.801399 79.498909 0.000006 0.209366
105.527725 79.427147 0.000006 0.206386
107.446739 79.466026 4.480529 0.937255
107.757500 79.481361 4.206005 0.937255
109.665070 79.575478 4.206010 0.937255
112.409584 79.710899 4.206010 0.937255
116.708359 79.923004 4.205988 0.937255
124.427307 80.303864 4.206006 0.937255
nan nan nan 0.000000
nan nan nan 0.000000
nan nan nan 0.000000
138.217682 80.984291 -0.000013 0.337346
121.866676 80.177521 0.004208 0.617014
114.919868 79.834755 0.000012 0.223404
111.022408 79.642448 0.000010 0.195028
108.534210 79.519684 0.000008 0.245233
106.804810 79.434349 0.000006 0.284524
105.530670 79.371483 0.000005 0.210371
107.443840 79.396706 4.479009 0.937255
107.760765 79.410126 4.206004 0.937255
109.668945 79.490929 4.206010 0.937255
112.414337 79.607178 4.206010 0.937255
116.714493 79.789268 4.205988 0.937255
124.435898 80.116234 4.206005 0.937255
nan nan nan 0.000000
nan nan nan 0.000000
nan nan nan 0.000000
138.230820 80.700378 -0.000019 0.338811
121.925529 80.009933 0.000017 0.231111
114.925423 79.713509 0.000012 0.251265
111.026718 79.548424 0.000010 0.214895
108.537720 79.443024 0.000008 0.227365
106.807770 79.369774 0.000007 0.211293
105.533226 79.315804 0.000005 0.263784
107.444382 79.327591 4.478471 0.937255
107.763535 79.338875 4.206005 0.937255
109.672226 79.406349 4.206009 0.937255
112.418365 79.503433 4.206009 0.937255
116.719711 79.655502 4.205990 0.641703
124.443176 79.928551 4.206004 0.937255
nan nan nan 0.000000
nan nan nan 0.000000
nan nan nan 0.000000
138.241974 80.416382 -0.000025 0.337224
121.932137 79.839775 0.000017 0.222985
114.930130 79.592232 0.000012 0.222758
111.030373 79.454369 0.000009 0.243319
108.540703 79.366348 0.000008 0.192994
106.810280 79.305176 0.000006 0.196859
105.535385 79.260101 0.000006 0.200845
107.444580 79.258492 4.477970 0.937255
107.765800 79.267601 4.206004 0.937255
109.674919 79.321754 4.206009 0.937255
112.421669 79.399666 4.206008 0.937255
116.723976 79.521698 4.205991 0.937255
124.449150 79.740814 4.206003 0.937255
nan nan nan 0.000000
nan nan nan 0.000000
nan nan nan 0.000000
138.251343 80.132309 -0.000041 0.338933
121.937561 79.669579 0.000018 0.242493
114.933998 79.470924 0.000012 0.225810
111.033371 79.360283 0.000009 0.205213
108.543144 79.289650 0.000008 0.194980
106.812340 79.240555 0.000007 0.221501
105.537163 79.204391 0.000005 0.240422
107.445145 79.189423 4.477681 0.937255
107.767570 79.196320 4.206003 0.937255
109.677017 79.237137 4.206008 0.937255
112.424240 79.295868 4.206007 0.937255
116.727318 79.387871 4.205993 0.937255
124.453804 79.553047 4.206002 0.937255
nan nan nan 0.000000
nan nan nan 0.000000
nan nan nan 0.000000
138.258392 79.848175 -0.000041 0.337804
121.941795 79.499344 0.000018 0.238041
114.937012 79.349594 0.000012 0.221346
111.035706 79.266190 0.000010 0.226683
108.545044 79.212936 0.000008 0.233744
106.813950 79.175934 0.000007 0.231662
105.538551 79.148666 0.000006 0.204363
107.442398 79.120323 4.476684 0.937255
107.768845 79.125023 4.206003 0.937255
109.678528 79.152512 4.206008 0.937255
112.426102 79.192062 4.206007 0.937255
116.729736 79.254021 4.205995 0.937255
124.457184 79.365257 4.206004 0.937255
nan nan nan 0.000000
nan nan nan 0.000000
nan nan nan 0.000000
138.263489 79.564003 -0.000040 0.337911
121.944839 79.329086 0.000017 0.224613
114.939178 79.228241 0.000013 0.251026
111.037392 79.172073 0.000010 0.197242
108.546417 79.136215 0.000008 0.217205
106.815102 79.111290 0.000007 0.235408
105.539543 79.092934 0.000006 0.222554
107.442795 79.051300 4.476594 0.937255
107.769623 79.053719 4.206003 0.937255
109.679459 79.067879 4.206008 0.937255
112.427223 79.088249 4.206006 0.937255
116.731201 79.120155 4.205997 0.937255
124.459229 79.177444 4.206003 0.937255
nan nan nan 0.000000
nan nan nan 0.000000
nan nan nan 0.000000
138.062347 79.278290 0.009993 1.000000
121.946701 79.158813 0.000017 0.237167
114.940506 79.106880 0.000013 0.202700
111.038414 79.077950 0.000010 0.195220
108.547256 79.059486 0.000008 0.214416
106.815811 79.046646 0.000007 0.234762
105.540154 79.037193 0.000006 0.268236
107.443581 78.982269 4.476724 0.937255
107.769897 78.982414 4.206003 0.599863
109.679787 78.983238 4.206008 0.590646
112.427628 78.984421 4.206005 0.554421
116.731750 78.986282 4.205998 0.532845
124.459953 78.989616 4.206003 0.713085
nan nan nan 0.000000
nan nan nan 0.000000
nan nan nan 0.000000
138.267609 78.995575 -0.000036 0.337179
121.947357 78.988533 0.000018 0.236521
114.940987 78.985512 0.000012 0.248716
111.038788 78.983826 0.000010 0.216570
108.547562 78.982750 0.000008 0.204890
106.816063 78.982002 0.000007 0.271084
105.540375 78.981453 0.000005 0.192503
107.444046 78.913239 4.476894 0.937255
107.769676 78.911110 4.206002 0.937255
109.679520 78.898598 4.206007 0.937255
112.427307 78.880600 4.206005 0.937255
116.731354 78.852409 4.206000 0.937255
124.459396 78.801796 4.206004 0.937255
nan nan nan 0.000000
nan nan nan 0.000000
nan nan nan 0.000000
138.266724 78.711357 -0.000035 0.339147
121.946770 78.818253 0.000023 0.233732
114.940613 78.864143 0.000012 0.224661
111.038498 78.889694 0.000010 0.214380
108.547325 78.906013 0.000008 0.269528
106.815865 78.917358 0.000007 0.236305
105.540199 78.925713 0.000006 0.219694
107.444557 78.844193 4.477195 0.937255
107.768959 78.839806 4.206002 0.937255
109.678673 78.813965 4.206007 0.937255
112.426254 78.776779 4.206004 0.937255
116.730011 78.718544 4.206001 0.937255
124.457512 78.613976 4.206004 0.937255
nan nan nan 0.000000
nan nan nan 0.000000
nan nan nan 0.000000
138.262924 78.427170 0.000012 0.232165
121.945061 78.647980 0.000023 0.225905
114.939392 78.742775 0.000012 0.240805
111.037552 78.795578 0.000010 0.192120
108.546555 78.829285 0.000008 0.228167
106.815216 78.852707 0.000007 0.258757
105.539642 78.869972 0.000006 0.205656
107.445114 78.775124 4.477629 0.937255
107.767746 78.768509 4.206002 0.937255
109.677231 78.729332 4.206007 0.937255
112.424484 78.672974 4.206003 0.937255
116.727753 78.584694 4.206002 0.937255
124.454292 78.426178 4.206003 0.937255
nan nan nan 0.000000
nan nan nan 0.000000
nan nan nan 0.000000
138.258087 78.142990 0.000011 0.226540
121.942169 78.477715 0.000023 0.233122
114.937332 78.621422 0.000013 0.198188
111.035950 78.701462 0.000010 0.202736
108.545250 78.752556 0.000008 0.258805
106.814110 78.788071 0.000007 0.235001
105.538689 78.814240 0.000006 0.251684
107.442200 78.706131 4.477314 0.937255
107.766037 78.697220 4.206001 0.937255
109.675194 78.644722 4.206006 0.937255
112.421997 78.569183 4.206004 0.937255
116.724548 78.450859 4.206004 0.937255
124.449806 78.238411 4.206004 0.937255
nan nan nan 0.000000
nan nan nan 0.000000
nan nan nan 0.000000
138.251282 77.858864 0.000011 0.225989
121.938080 78.307480 0.000023 0.232679
114.934410 78.500084 0.000013 0.234917
111.033691 78.607361 0.000010 0.195196
108.543404 78.675842 0.000008 0.243474
106.812561 78.723442 0.000007 0.254592
105.537354 78.758514 0.000006 0.227689
107.442917 78.637016 4.478029 0.937255
107.763824 78.625946 4.206000 0.937255
109.672577 78.560120 4.206006 0.937255
112.418762 78.465408 4.206002 0.937255
116.720413 78.317047 4.206005 0.937255
124.443977 78.050674 4.206003 0.937255
nan nan nan 0.000000
nan nan nan 0.000000
nan nan nan 0.000000
138.242462 77.574783 0.000011 0.229244
121.932800 78.137283 0.000023 0.226396
114.930649 78.378777 0.000013 0.229113
111.030777 78.513275 0.000010 0.237849
108.541031 78.599144 0.000008 0.212860
106.810562 78.658829 0.000007 0.245592
105.535629 78.702797 0.000006 0.208097
107.443680 78.567863 4.478878 0.937255
107.761116 78.554695 4.206001 0.937255
109.669357 78.475540 4.206005 0.937255
112.414825 78.361656 4.206001 0.873411
116.715347 78.183273 4.206007 0.937255
124.436844 77.862984 4.206002 0.937255
nan nan nan 0.000000
nan nan nan 0.000000
nan nan nan 0.000000
138.231689 77.290779 0.000011 0.227353
121.926346 77.967117 0.000022 0.230453
114.926041 78.257492 0.000013 0.220268
111.027199 78.419220 0.000010 0.240123
108.538116 78.522461 0.000008 0.238484
106.808105 78.594223 0.000007 0.259834
105.533508 78.647095 0.000006 0.210610
107.444481 78.498650 4.479858 0.937255
107.757912 78.483459 4.206000 0.937255
109.665558 78.390984 4.206005 0.581704
112.410156 78.257942 4.206001 0.937255
116.709343 78.049538 4.206008 0.937255
124.428413 77.675346 4.206004 0.937255
nan nan nan 0.000000
nan nan nan 0.000000
nan nan nan 0.000000
138.218918 77.006851 0.000010 0.232188
121.918701 77.797005 0.000022 0.220484
114.920593 78.136246 0.000013 0.226217
111.022972 78.325188 0.000010 0.232907
108.534668 78.445808 0.000008 0.228814
106.805199 78.529640 0.000007 0.232703
105.531006 78.591408 0.000006 0.197099
107.444962 78.429405 4.480878 0.937255
107.754211 78.412247 4.206000 0.937255
109.661156 78.306458 4.206004 0.937255
112.404762 78.154259 4.206001 0.937255
116.321823 77.936958 4.162159 0.937255
124.418663 77.487778 4.206003 0.937255
nan nan nan 0.000000
nan nan nan 0.000000
nan nan nan 0.000000
138.204178 76.723015 0.000010 0.229460
121.909866 77.626953 0.000021 0.221118
114.914291 78.015038 0.000013 0.219000
111.018082 78.231186 0.000010 0.270713
108.530685 78.369171 0.000008 0.203597
106.801849 78.465080 0.000007 0.270210
105.528114 78.535744 0.000006 0.252773
107.445885 78.360069 4.482131 0.937255
107.750008 78.341064 4.206000 0.937255
109.656174 78.221970 4.206003 0.937255
112.398651 78.050613 4.206000 0.937255
116.314148 77.805969 4.162166 0.937255
124.407585 77.300278 4.206002 0.937255
nan nan nan 0.000000
nan nan nan 0.000000
nan nan nan 0.000000
138.187454 76.439293 0.000010 0.230130
121.899849 77.456963 0.000021 0.234558
114.907150 77.893883 0.000013 0.217983
111.012543 78.137222 0.000010 0.226468
108.526169 78.292572 0.000008 0.212346
106.798035 78.400543 0.000007 0.209426
105.524834 78.480095 0.000006 0.196464
107.446472 78.290680 4.483423 0.937255
107.745316 78.269913 4.206000 0.937255
109.650597 78.137512 4.206004 0.937255
112.391808 77.947014 4.205999 0.937255
116.305595 77.675034 4.162176 0.937255
124.395248 77.112862 4.206004 0.937255
nan nan nan 0.000000
nan nan nan 0.000000
nan nan nan 0.000000
138.168732 76.155701 0.000010 0.228909
121.888634 77.287048 0.000021 0.220352
114.899155 77.772774 0.000013 0.220113
111.006348 78.043297 0.000010 0.223907
108.521118 78.216003 0.000008 0.260660
106.793777 78.336037 0.000007 0.232727
105.521164 78.424477 0.000005 0.212094
107.450523 78.220955 4.485706 0.937255
107.740120 78.198799 4.206000 0.937255
109.644424 78.053093 4.206003 0.937255
112.384247 77.843468 4.205999 0.905653
116.296143 77.544159 4.162188 0.937255
124.381561 76.925537 4.206003 0.937255
nan nan nan 0.000000
nan nan nan 0.000000
nan nan nan 0.000000
138.148041 75.872238 0.000010 0.227808
121.876236 77.117218 0.000021 0.221190
114.890312 77.651726 0.000013 0.245987
110.999496 77.949417 0.000010 0.253252
108.515526 78.139473 0.000008 0.209043
106.789078 78.271561 0.000007 0.213949
105.517105 78.368881 0.000006 0.218665
107.451279 78.151375 4.487286 0.938231
107.734428 78.127716 4.205999 0.937255
109.637680 77.968727 4.206002 0.937255
112.375954 77.739975 4.205998 0.937255
116.285782 77.413361 4.162199 0.937255
124.366577 76.738312 4.206003 0.937255
nan nan nan 0.000000
nan nan nan 0.000000
nan nan nan 0.000000
138.125366 75.588928 0.000010 0.227461
121.862656 76.947479 0.000021 0.235384
114.880630 77.530739 0.000013 0.245281
110.991982 77.855591 0.000010 0.219060
108.509407 78.062981 0.000008 0.239716
106.783920 78.207123 0.000007 0.245688
105.512657 78.313324 0.000006 0.268020
107.452103 78.081688 4.489004 0.940322
107.728241 78.056679 4.205999 0.937255
109.630333 77.884407 4.206002 0.937255
112.366943 77.636543 4.205997 0.937255
116.653740 77.248283 4.206017 0.754009
124.350296 76.551186 4.206004 0.937255
nan nan nan 0.000000
nan nan nan 0.000000
nan nan nan 0.000000
138.100739 75.305786 0.000009 0.224290
121.847893 76.777840 0.000021 0.220149
114.870110 77.409828 0.000013 0.218629
110.983818 77.761818 0.000010 0.198882
108.502754 77.986534 0.000008 0.259451
106.778313 78.142715 0.000007 0.192312
105.507820 78.257790 0.000006 0.187106
107.453300 78.011871 4.490942 0.948043
107.721565 77.985687 4.205998 0.937255
109.622398 77.800140 4.206001 0.925872
112.357224 77.533180 4.205997 0.937255
116.641212 77.114998 4.206018 0.937255
124.332687 76.364189 4.206003 0.937255
nan nan nan 0.000000
nan nan nan 0.000000
nan nan nan 0.000000
138.074112 75.022820 0.000009 0.229927
121.831940 76.608299 0.000021 0.225558
114.858742 77.288994 0.000013 0.215996
110.974998 77.668106 0.000010 0.215912
108.495560 77.910133 0.000008 0.257716
106.772255 78.078354 0.000007 0.221274
105.502602 78.202293 0.000006 0.216331
107.454254 77.941971 4.492941 0.949996
107.714386 77.914742 4.205998 0.937255
109.613884 77.715927 4.206001 0.937255
112.346764 77.429886 4.205996 0.937255
116.627762 76.981796 4.206020 0.937255
124.313782 76.177322 4.206002 0.935973
nan nan nan 0.000000
nan nan nan 0.000000
nan nan nan 0.000000
138.045532 74.740051 0.000008 0.232129
121.814812 76.438881 0.000020 0.239992
114.846527 77.168236 0.000013 0.230872
110.965530 77.574455 0.000011 0.242194
108.487839 77.833786 0.000008 0.225726
106.765747 78.014038 0.000007 0.197637
105.496994 78.146835 0.000006 0.205967
107.455276 77.871941 4.495083 0.951598
107.706711 77.843849 4.205998 0.937255
109.604774 77.631775 4.206000 0.937255
112.335594 77.326660 4.205996 0.937255
116.613373 76.848701 4.206022 0.937255
124.293571 75.990585 4.206001 0.937255
nan nan nan 0.000000
nan nan nan 0.000000
nan nan nan 0.000000
138.014969 74.457481 0.000008 0.232069
121.796494 76.269585 0.000020 0.226623
114.833466 77.047569 0.000013 0.236126
110.955399 77.480873 0.000011 0.267829
108.479584 77.757500 0.000009 0.204603
106.758797 77.949760 0.000007 0.210479
105.490997 78.091415 0.000006 0.243450
107.456367 77.801788 4.497366 0.953674
107.698547 77.773010 4.205997 0.937255
109.595078 77.547699 4.206000 0.937255
112.323700 77.223518 4.205995 0.647990
116.598045 76.715706 4.206023 0.937255
124.272064 75.803993 4.206002 0.937255
nan nan nan 0.000000
nan nan nan 0.000000
nan nan nan 0.000000
137.982437 74.175140 0.000008 0.230034
121.776993 76.100426 0.000020 0.227461
114.819565 76.927002 0.000013 0.243055
110.944626 77.387360 0.000010 0.220771
108.470802 77.681267 0.000008 0.273454
106.751389 77.885536 0.000007 0.242565
105.484612 78.036041 0.000006 0.218952
107.460182 77.731155 4.500464 1.000000
107.689888 77.702232 4.205997 0.937255
109.584793 77.463684 4.205999 0.937255
112.311096 77.120468 4.205995 0.937255
116.581810 76.582825 4.206025 0.937255
124.249245 75.617561 4.206001 0.937255
nan nan nan 0.000000
nan nan nan 0.000000
nan nan nan 0.000000
137.947922 73.893021 0.000007 0.230262
121.756317 75.931396 0.000020 0.238304
114.804825 76.806526 0.000013 0.217013
110.933197 77.293930 0.000010 0.258458
108.461479 77.605095 0.000009 0.200414
106.743538 77.821373 0.000007 0.204734
105.477844 77.980713 0.000006 0.286032
107.461494 77.660675 4.503056 1.000000
107.680725 77.631516 4.205997 0.937255
109.573929 77.379745 4.205999 0.937255
112.297760 77.017502 4.205995 0.937255
116.564621 76.450058 4.206025 0.937255
124.225113 75.431290 4.206000 0.831800
nan nan nan 0.000000
nan nan nan 0.000000
nan nan nan 0.000000
137.911423 73.611160 0.000007 0.229017
121.734467 75.762520 0.000019 0.226970
114.789253 76.686165 0.000013 0.240339
110.921112 77.200584 0.000010 0.254975
108.451630 77.528999 0.000008 0.201982
106.735245 77.757256 0.000007 0.252330
105.470688 77.925430 0.000006 0.205584
107.462883 77.590034 4.505794 1.000000
107.671082 77.560867 4.205997 0.937255
109.562477 77.295883 4.205998 0.937255
112.283714 76.914635 4.205994 0.937255
116.546509 76.317413 4.206025 0.937255
124.199692 75.245201 4.205999 0.937255
nan nan nan 0.000000
nan nan nan 0.000000
nan nan nan 0.000000
137.872971 73.329559 0.000007 0.229149
121.711426 75.593803 0.000019 0.218437
114.772835 76.565910 0.000013 0.212262
110.908379 77.107323 0.000010 0.193939
108.441246 77.452965 0.000009 0.203358
106.726494 77.693207 0.000007 0.215888
105.463150 77.870201 0.000006 0.283985
107.464348 77.519226 4.508680 1.000000
107.660942 77.490288 4.205997 0.937255
109.550430 77.212105 4.205997 0.900801
112.268951 76.811867 4.205994 0.937255
116.527451 76.184906 4.206023 0.937255
124.173004 75.059280 4.206000 0.937255
nan nan nan 0.000000
nan nan nan 0.000000
nan nan nan 0.000000
137.832565 73.048241 0.000007 0.228215
121.687218 75.425255 0.000019 0.227964
114.755569 76.445770 0.000014 0.248549
110.894997 77.014153 0.000010 0.242397
108.430336 77.377014 0.000008 0.242433
106.717300 77.629211 0.000007 0.219526
105.455215 77.815025 0.000006 0.220388
107.467026 77.448067 4.512000 1.000000
107.650314 77.419777 4.205997 0.937255
109.537819 77.128410 4.205997 0.937255
112.253456 76.709206 4.205993 0.937255
116.507492 76.052528 4.206023 0.937255
124.144997 74.873550 4.206000 0.937255
nan nan nan 0.000000
nan nan nan 0.000000
nan nan nan 0.000000
137.790192 72.767197 0.000007 0.229663
121.020180 75.355919 0.053254 0.627359
114.737473 76.325760 0.000013 0.207858
110.880951 76.921074 0.000010 0.225738
108.418892 77.301132 0.000008 0.234785
106.707664 77.565285 0.000007 0.211532
105.446907 77.759911 0.000006 0.252271
107.468513 77.376907 4.515149 1.000000
107.639183 77.349342 4.205996 0.937255
109.524605 77.044807 4.205997 0.937255
112.237259 76.606651 4.205992 0.937255
116.486618 75.920288 4.206024 0.937255
124.115685 74.688034 4.205999 0.893538
nan nan nan 0.000000
nan nan nan 0.000000
nan nan nan 0.000000
137.745865 72.486465 0.000007 0.230776
120.431488 75.283112 0.100003 0.676097
114.718536 76.205872 0.000013 0.210000
110.866272 76.828102 0.000010 0.207343
108.406921 77.225334 0.000009 0.258961
106.697578 77.501434 0.000007 0.220376
105.438210 77.704849 0.000006 0.267135
107.470062 77.305557 4.518444 1.000000
107.627563 77.278992 4.205996 0.937255
109.510818 76.961296 4.205997 0.937255
112.220352 76.504219 4.205994 0.937255
116.464798 75.788208 4.206022 0.937255
122.242805 74.813499 4.052806 0.937255
122.239220 74.814102 3.229744 0.937255
122.241226 74.813766 2.409656 0.937255
122.239006 74.814140 1.590382 0.937255
120.516663 75.104683 0.856075 0.937255
120.405182 75.123489 0.099998 0.673121
114.698769 76.086128 0.000013 0.211137
110.850937 76.735229 0.000010 0.238196
108.394424 77.149628 0.000008 0.237430
106.687050 77.437653 0.000007 0.243666
105.429131 77.649849 0.000006 0.272353
107.470383 77.234238 4.521556 1.000000
107.615463 77.208717 4.205996 0.937255
109.496445 76.877884 4.205996 0.937255
112.202736 76.401901 4.205995 0.937255
116.442070 75.656281 4.206022 0.937255
124.053230 74.317612 4.206002 0.937255
nan nan nan 0.000000
nan nan nan 0.000000
119.646202 75.092728 1.632968 0.937255
119.497162 75.118942 0.905552 0.468177
119.586243 75.103271 0.165891 0.639216
114.678162 75.966515 0.000013 0.223811
110.834961 76.642464 0.000010 0.239728
108.381393 77.074005 0.000009 0.217731
106.676071 77.373940 0.000007 0.203406
105.419670 77.594917 0.000006 0.216558
107.471916 77.162506 4.525109 1.000000
107.602859 77.138535 4.205995 0.937255
109.481483 76.794579 4.205995 0.937255
112.184402 76.299706 4.205996 0.937255
116.418419 75.524513 4.206023 0.940673
124.020042 74.132744 4.206001 0.769589
nan nan nan 0.000000
120.287613 74.816101 2.378163 0.932326
118.864677 75.076630 1.645509 0.937255
118.864670 75.076630 0.935769 0.913008
118.711044 75.104759 0.236547 0.814343
114.656715 75.847054 0.000013 0.224732
110.818329 76.549820 0.000010 0.223990
108.367836 76.998474 0.000009 0.220807
106.664650 77.310310 0.000007 0.211843
105.409821 77.540054 0.000006 0.239920
107.473640 77.090538 4.528841 1.000000
107.589775 77.068436 4.205995 0.937255
109.465950 76.711380 4.205995 0.937255
112.165352 76.197647 4.205997 0.937255
116.393852 75.392906 4.206022 0.624704
123.985565 73.948105 4.206001 0.937255
nan nan nan 0.000000
119.153053 74.867798 2.359757 0.937255
118.864677 74.922676 1.645047 0.937255
118.864670 74.922684 0.934381 0.937438
118.573242 74.978142 0.245749 0.786450
114.634445 75.727745 0.000013 0.238747
110.801056 76.457291 0.000010 0.257620
108.353752 76.923042 0.000009 0.194645
106.652786 77.246758 0.000007 0.218641
105.399590 77.485260 0.000006 0.200498
107.474380 77.018547 4.532456 1.000000
107.576195 76.998436 4.205995 0.937255
109.449829 76.628288 4.205994 0.933623
112.145584 76.095718 4.205997 0.647196
116.368355 75.261482 4.206022 0.944076
123.949799 73.763718 4.206000 0.937255
nan nan nan 0.000000
118.361130 74.867798 2.347035 0.937255
118.361130 74.867798 1.652966 0.937255
117.774094 74.983772 0.987549 0.354299
117.733292 74.991829 0.313575 0.371786
114.611336 75.608597 0.000014 0.217396
110.783127 76.364883 0.000011 0.226683
108.339142 76.847710 0.000009 0.233373
106.640480 77.183296 0.000007 0.269672
105.388977 77.430534 0.000006 0.290424
107.475945 76.946182 4.536416 1.000000
107.562126 76.928528 4.205994 0.937255
109.433136 76.545311 4.205994 0.937255
112.125107 75.993942 4.205997 0.937255
116.341949 75.130241 4.206022 0.937255
123.912750 73.579590 4.205999 0.849393
nan nan nan 0.000000
nan nan nan 0.000000
118.864685 74.613533 1.644067 0.937255
117.691429 74.853844 0.990271 0.370596
117.660706 74.860138 0.317280 0.355062
114.587395 75.489609 0.000014 0.225834
110.764565 76.272606 0.000011 0.217492
108.324005 76.772484 0.000009 0.248405
106.627724 77.119919 0.000007 0.195950
105.377983 77.375893 0.000006 0.236461
107.477219 76.873650 4.540436 1.000000
107.547577 76.858727 4.205994 0.937255
109.415863 76.462456 4.205993 0.937255
112.103928 75.892296 4.205997 0.937255
116.314629 74.999184 4.206022 0.937255
123.874451 73.395706 4.206003 0.937255
nan nan nan 0.000000
nan nan nan 0.000000
nan nan nan 0.000000
117.737915 74.697296 0.986467 0.359319
117.703552 74.704590 0.311238 0.355612
114.562630 75.370796 0.000014 0.230692
110.745361 76.180458 0.000010 0.243235
108.308350 76.697365 0.000009 0.234510
106.614532 77.056625 0.000007 0.208181
105.366608 77.321320 0.000006 0.189332
107.478737 76.800827 4.544654 1.000000
107.532532 76.789024 4.205993 0.937255
109.398010 76.379715 4.205993 0.937255
112.082031 75.790810 4.205998 0.937255
116.286385 74.868324 4.206020 0.937255
123.834846 73.212105 4.206002 0.937255
nan nan nan 0.000000
nan nan nan 0.000000
nan nan nan 0.000000
137.320862 70.253113 0.000005 0.230046
121.380638 73.750587 0.000017 0.239142
114.085762 75.351173 0.053163 0.707973
110.725510 76.088448 0.000010 0.213973
108.292160 76.622353 0.000009 0.219658
106.600899 76.993439 0.000007 0.231937
105.354851 77.266830 0.000006 0.249099
107.480354 76.727737 4.549036 1.000000
107.529541 76.716583 4.208768 0.937255
109.379585 76.297104 4.205993 0.937255
112.059425 75.689476 4.205997 0.937255
116.257233 74.737663 4.206020 0.608301
123.793930 73.028793 4.206001 0.885176
nan nan nan 0.000000
nan nan nan 0.000000
nan nan nan 0.000000
137.258972 69.975716 0.000005 0.231028
114.638199 75.104767 0.563781 0.937255
113.662712 75.325951 0.100032 0.654032
110.705009 75.996582 0.000010 0.203980
108.275459 76.547455 0.000009 0.240015
106.586823 76.930336 0.000007 0.250009
105.342712 77.212425 0.000006 0.277259
107.481812 76.654434 4.553514 1.000000
107.529541 76.643265 4.212323 0.937255
109.360580 76.214630 4.205994 0.937255
112.036125 75.588303 4.205999 0.937255
116.227173 74.607208 4.206019 0.937255
123.751755 72.845764 4.206001 0.937255
nan nan nan 0.000000
nan nan nan 0.000000
114.236801 75.073143 1.719656 0.846387
137.195190 69.698761 0.000004 0.228574
114.101738 75.104759 0.606645 0.929839
113.636856 75.213585 0.100028 0.689250
110.683876 75.904854 0.000011 0.203513
108.258224 76.472679 0.000009 0.240506
106.572311 76.867340 0.000007 0.270498
105.330200 77.158112 0.000006 0.240494
107.483727 76.580757 4.558250 1.000000
107.529541 76.569695 4.215999 0.937255
109.341003 76.132286 4.205994 0.937255
112.012108 75.487297 4.205999 0.937255
116.196205 74.476967 4.206019 0.937255
123.708290 72.663040 4.206000 0.937255
nan nan nan 0.000000
nan nan nan 0.000000
113.689690 75.082214 1.728401 0.953048
113.689789 75.082191 1.184615 0.637980
113.442772 75.141838 0.659916 0.298924
113.610222 75.101402 0.100024 0.685756
110.662102 75.813278 0.000011 0.226611
108.240479 76.398026 0.000009 0.191007
106.557358 76.804443 0.000007 0.227413
105.317307 77.103882 0.000006 0.267278
107.485107 76.506943 4.562989 1.000000
107.529533 76.495880 4.219795 0.937255
109.320854 76.050079 4.205995 0.937255
111.987389 75.386459 4.205999 0.897749
116.164322 74.346947 4.206019 0.937255
123.663574 72.480614 4.206000 0.935912
158.460602 63.820686 5.083320 0.462669
nan nan nan 0.000000
113.209877 75.082214 1.736027 0.939284
113.086731 75.112862 1.213748 0.105211
113.209908 75.082207 0.677296 0.953674
113.209526 75.082306 0.144271 0.525383
110.639694 75.721855 0.000010 0.221693
108.222206 76.323494 0.000008 0.204387
106.541962 76.741661 0.000008 0.292578
105.304031 77.049744 0.000006 0.246849
107.487289 76.432640 4.568076 1.000000
107.529541 76.421806 4.223713 0.937255
109.300125 75.968018 4.205995 0.937255
111.961967 75.285797 4.206000 0.937255
116.131531 74.217148 4.206019 0.937255
123.617584 72.298500 4.206001 0.937255
158.725357 63.300510 5.102189 0.494026
nan nan nan 0.000000
112.987930 75.022842 1.739310 0.937255
112.987930 75.022842 1.217371 0.937255
112.696510 75.097534 0.718419 0.927138
112.696510 75.097534 0.201921 0.753536
110.616638 75.630600 0.000011 0.237430
108.203415 76.249100 0.000008 0.229388
106.526131 76.678978 0.000007 0.192383
105.290382 76.995697 0.000006 0.216511
107.488571 76.358276 4.573075 1.000000
107.529541 76.347473 4.227753 0.937255
109.278831 75.886101 4.205995 0.937255
111.935844 75.185310 4.206000 0.937255
116.097839 74.087585 4.206018 0.937255
158.985809 62.775898 7.209211 0.464302
158.515961 62.899822 5.097187 0.485695
nan nan nan 0.000000
112.987930 74.907822 1.738836 0.937255
112.987930 74.907822 1.215949 0.937255
112.696503 74.984688 0.716090 0.925673
112.696503 74.984688 0.198656 0.736294
110.592949 75.539497 0.000011 0.227353
108.184105 76.174835 0.000009 0.213590
106.509857 76.616409 0.000008 0.188350
105.276352 76.941750 0.000006 0.259571
107.490974 76.283325 4.578508 1.000000
107.529541 76.272865 4.231917 0.937255
109.256958 75.804329 4.205996 0.937255
111.909019 75.085014 4.206001 0.937255
116.063240 73.958260 4.206017 0.937255
161.378922 61.667259 7.422261 0.474144
159.443268 62.192272 5.150176 0.486305
160.182846 61.991676 3.061848 0.633936
112.987930 74.792381 1.738348 0.937255
112.987930 74.792381 1.214484 0.937255
112.696503 74.871422 0.713691 0.937255
112.696503 74.871422 0.195288 0.715541
110.568626 75.448570 0.000011 0.239214
108.164276 76.100700 0.000009 0.213830
106.493156 76.553963 0.000007 0.226947
105.261948 76.887901 0.000006 0.219503
107.491974 76.208435 4.583724 1.000000
107.529541 76.197968 4.236206 0.937255
109.234520 75.722717 4.205997 0.937255
111.881493 74.984909 4.206002 0.937255
116.027748 73.829178 4.206017 0.937255
159.334167 61.757957 7.258628 0.482475
159.732925 61.646809 5.171003 0.486107
112.362366 74.850868 2.251527 0.937255
112.362366 74.850868 1.748472 0.937255
112.362366 74.850868 1.244878 0.937255
112.362366 74.850868 0.739661 0.937255
112.362366 74.850868 0.231725 0.418830
110.543671 75.357811 0.000011 0.215062
108.143929 76.026711 0.000008 0.216738
106.476013 76.491631 0.000007 0.283531
105.247169 76.834152 0.000006 0.192503
