# This PCD file was generated using the MATLABÂ® pcwrite function
# from Computer Vision ToolboxÂ®.
# .PCD v.7 - Point Cloud Data file format
VERSION .7
FIELDS x y z intensity
SIZE 4 4 4 4
TYPE F F F F
COUNT 1 1 1 1
WIDTH 1292
HEIGHT 1
VIEWPOINT 0 0 0 1 0 0 0
POINTS 1292
DATA ascii
108.740379 104.305496 -0.000010 0.195495
109.557938 105.284790 -0.000009 0.188937
80.782875 71.388573 15.137353 0.665309
80.119392 70.605011 13.549273 0.678431
80.173958 70.669456 11.714557 0.777035
80.119392 70.605011 9.932115 0.678431
80.119385 70.605011 8.151688 0.678431
80.173943 70.669441 6.377694 0.742824
80.119400 70.605026 4.627008 0.678431
80.173943 70.669434 2.873663 0.739590
80.119392 70.605019 1.124957 0.678431
88.366898 80.345078 -0.000010 0.339498
98.912582 92.799202 -0.000025 0.228598
103.440346 98.146362 -0.000018 0.214703
105.962067 101.124435 -0.000015 0.230980
107.571960 103.025665 -0.000012 0.228490
108.690895 104.347099 -0.000010 0.205620
109.515274 105.320663 -0.000010 0.229687
80.471466 71.587959 15.149966 0.642527
80.119362 71.177979 13.455119 0.678431
80.173965 71.241562 11.635346 0.801221
80.119354 71.177963 9.867451 0.678431
80.119354 71.177971 8.101534 0.678431
80.173965 71.241554 6.341998 0.738430
80.119370 71.177979 4.605591 0.678431
80.173958 71.241547 2.866539 0.733074
80.119354 71.177971 1.132090 0.678431
88.150833 80.529716 0.000004 0.337972
98.783005 92.909698 -0.000025 0.226982
103.348000 98.225113 -0.000018 0.226240
105.890442 101.185509 -0.000014 0.257213
107.513573 103.075462 -0.000012 0.222554
108.641708 104.389046 -0.000010 0.233517
109.472862 105.356834 -0.000009 0.239238
80.184113 71.816055 15.153835 0.659861
80.184128 71.816086 13.341728 0.622675
80.184143 71.816101 11.555064 0.640635
80.184151 71.816101 9.789568 0.642191
100.050514 94.624153 4.561501 0.474510
80.184143 71.816101 6.305821 0.648966
80.184143 71.816101 4.579799 0.631891
80.184174 71.816139 2.859318 0.614664
80.184067 71.816010 1.140680 0.635309
87.935875 80.715652 0.000005 0.337911
98.654213 93.021103 -0.000025 0.233098
103.256195 98.304512 -0.000018 0.230465
105.819244 101.247086 -0.000015 0.241595
107.455528 103.125664 -0.000012 0.222746
108.592812 104.431335 -0.000010 0.219550
109.430702 105.393303 -0.000009 0.225834
80.184013 72.369690 15.049598 0.665782
80.184303 72.370018 13.251762 0.637858
80.184357 72.370079 11.479262 0.633890
80.184364 72.370087 9.727770 0.638346
99.860535 94.643883 4.574206 0.438193
80.184357 72.370087 6.271660 0.628763
80.184357 72.370087 4.559330 0.631662
80.184418 72.370148 2.852499 0.617044
80.184242 72.369949 1.147496 0.647242
87.722412 80.903305 0.000020 0.338979
98.526192 93.133385 -0.000025 0.219766
103.164955 98.384552 -0.000018 0.247699
105.748482 101.309158 -0.000014 0.220628
107.397842 103.176262 -0.000012 0.232631
108.544205 104.473969 -0.000010 0.217241
109.388794 105.430061 -0.000009 0.236724
100.160446 95.212769 7.448615 0.466941
80.153717 72.880936 13.173707 0.626566
99.017540 93.937035 6.269584 0.495995
80.152069 72.879089 9.674541 0.652583
99.668785 94.663963 4.587142 0.482353
80.152069 72.879089 6.242237 0.628153
80.152069 72.879089 4.541702 0.663752
80.152145 72.879173 2.846627 0.627298
80.153671 72.880890 1.153410 0.630518
87.510132 81.092285 0.000025 0.338262
98.398964 93.246567 -0.000025 0.232571
103.074272 98.465225 -0.000018 0.237215
105.678154 101.371719 -0.000014 0.197410
107.340508 103.227264 -0.000012 0.209976
108.495911 104.516937 -0.000010 0.212513
109.347153 105.467110 -0.000009 0.240566
99.770439 95.009331 7.551892 0.490181
79.702454 72.921349 13.232513 0.644266
98.965576 94.123444 6.250734 0.494438
79.702469 72.921364 9.714562 0.622354
99.852722 95.099892 4.535732 0.480415
79.702499 72.921402 6.264354 0.635584
79.702515 72.921417 4.554953 0.647379
79.702515 72.921417 2.851042 0.635523
79.702469 72.921371 1.148956 0.647196
87.299194 81.282761 0.000031 0.338582
98.272530 93.360641 -0.000025 0.227533
102.984154 98.546524 -0.000017 0.212501
105.608269 101.434776 -0.000015 0.238519
107.283539 103.278671 -0.000012 0.220400
108.447906 104.560242 -0.000010 0.237442
109.305763 105.504448 -0.000009 0.256735
99.892441 95.370094 7.464591 0.463859
79.208847 72.921448 13.304464 0.628214
100.298454 95.810753 5.860506 0.494118
79.208801 72.921402 9.763988 0.649409
99.728081 95.191711 4.537618 0.479561
79.208817 72.921410 6.291680 0.615763
79.208817 72.921410 4.571325 0.642435
79.208824 72.921417 2.856497 0.618433
79.208817 72.921417 1.143503 0.624659
87.089561 81.474670 0.000035 0.337972
98.146896 93.475586 -0.000025 0.224170
102.894608 98.628456 -0.000018 0.236365
105.538818 101.498314 -0.000015 0.229197
107.226921 103.330467 -0.000012 0.195686
108.400208 104.603882 -0.000010 0.190002
109.264633 105.542076 -0.000009 0.193448
99.567177 95.245056 7.542967 0.513832
78.708847 72.921532 13.377903 0.619181
98.885674 94.515686 6.208097 0.485206
78.708740 72.921417 9.814440 0.628840
99.479233 95.150940 4.560528 0.488334
78.708725 72.921402 6.319571 0.629664
78.708725 72.921402 4.588036 0.622553
78.708740 72.921417 2.862061 0.633036
78.708771 72.921455 1.137938 0.631556
86.881256 81.668015 0.000037 0.337743
98.022064 93.591415 -0.000025 0.231602
102.805641 98.711014 -0.000018 0.242062
105.469818 101.562340 -0.000014 0.226635
107.170670 103.382660 -0.000012 0.239321
108.352821 104.647858 -0.000010 0.210957
109.223770 105.579987 -0.000009 0.198655
99.443558 95.339203 7.547011 0.472267
78.202248 72.921593 13.452874 0.653223
100.052444 95.981812 5.868323 0.489616
78.202072 72.921410 9.865942 0.641062
99.271477 95.157600 4.576347 0.484077
78.202065 72.921402 6.348038 0.644190
100.641724 96.603722 3.002330 0.494163
78.202080 72.921417 2.867743 0.655482
78.202164 72.921494 1.132258 0.638056
86.674301 81.862808 0.000040 0.339269
97.898041 93.708107 -0.000025 0.238914
102.717239 98.794182 -0.000018 0.200270
105.401268 101.626839 -0.000015 0.210215
107.114784 103.435249 -0.000012 0.228251
108.305740 104.692154 -0.000010 0.208133
109.183174 105.618187 -0.000009 0.205895
99.663078 95.790802 7.427209 0.451789
77.688889 72.921631 13.529407 0.634653
77.688873 72.921616 11.713188 0.634653
100.108711 96.254585 5.118535 0.437415
98.751152 94.841736 4.643960 0.470512
77.688660 72.921394 6.377101 0.658030
77.688660 72.921394 4.622505 0.659602
77.688690 72.921425 2.873544 0.627298
77.688820 72.921570 1.126460 0.662074
86.468712 82.059052 0.000042 0.338140
97.774841 93.825668 -0.000025 0.224421
102.629433 98.877968 -0.000018 0.242529
105.333160 101.691818 -0.000014 0.229986
107.059265 103.488220 -0.000012 0.253455
108.258965 104.736786 -0.000010 0.185466
109.142845 105.656670 -0.000009 0.215709
99.590050 95.932594 7.414406 0.449180
77.168221 72.921288 13.607658 0.663355
99.796928 96.144913 5.879137 0.494118
98.913368 95.238129 5.350191 0.466392
98.902763 95.227242 4.599960 0.509300
77.168320 72.921387 6.406769 0.651850
77.168320 72.921387 4.640282 0.635172
77.168350 72.921417 2.879464 0.626062
77.168137 72.921204 1.120531 0.643122
86.264221 82.256432 0.000026 0.337850
97.652466 93.944069 -0.000025 0.232883
102.542206 98.962364 -0.000018 0.224721
105.265518 101.757278 -0.000014 0.221585
107.004112 103.541580 -0.000012 0.220651
108.212509 104.781738 -0.000010 0.203777
109.102791 105.695427 -0.000009 0.254114
100.578918 97.148094 7.023601 0.482353
98.914558 95.463661 6.842976 0.463401
99.786880 96.346504 5.854236 0.487007
98.810104 95.357941 5.348233 0.426596
98.741409 95.288422 4.607937 0.482170
100.019325 96.581749 3.709726 0.494850
76.640854 72.921387 4.658429 0.629496
76.640884 72.921417 2.885509 0.624399
76.640770 72.921303 1.114488 0.670192
86.061104 82.455223 0.000007 0.338109
97.530914 94.063332 -0.000025 0.224697
102.455574 99.047371 -0.000018 0.205967
105.198334 101.823196 -0.000015 0.213303
106.949341 103.595329 -0.000012 0.208552
108.166359 104.827019 -0.000011 0.206972
109.063004 105.734467 -0.000009 0.273597
100.471603 97.238792 7.026455 0.477897
99.886841 96.655197 6.512433 0.477256
99.776993 96.545563 5.829829 0.491630
99.333549 96.102989 5.215122 0.453529
99.147163 95.916977 4.523755 0.492256
99.431122 96.200371 3.765912 0.520150
76.106049 72.921387 4.676960 0.630808
76.106079 72.921417 2.891682 0.638254
76.106049 72.921379 1.108317 0.643122
85.859421 82.655487 -0.000007 0.338369
97.410202 94.183441 -0.000025 0.239082
102.369530 99.132980 -0.000018 0.216882
105.131607 101.889595 -0.000014 0.244264
106.894943 103.649452 -0.000012 0.244623
108.120537 104.872620 -0.000010 0.233254
109.023483 105.773788 -0.000009 0.215062
100.364220 97.329666 7.029537 0.484367
99.760681 96.735680 6.519549 0.464256
99.767273 96.742165 5.805903 0.469368
99.577042 96.554947 5.142276 0.494118
98.825272 95.815063 4.558310 0.450629
99.415375 96.395836 3.755548 0.476432
75.498138 72.856827 4.700406 0.678431
75.563759 72.921410 2.897986 0.642298
75.563782 72.921432 1.102014 0.639368
85.659149 82.857147 -0.000021 0.338628
97.290329 94.304390 -0.000025 0.220831
102.284096 99.219185 -0.000018 0.241858
105.065346 101.956451 -0.000014 0.245676
106.840935 103.703957 -0.000012 0.240087
108.075027 104.918533 -0.000010 0.247938
108.984245 105.813377 -0.000009 0.250092
100.256775 97.420738 7.032841 0.481453
99.634224 96.816528 6.526878 0.498100
98.974594 96.176338 5.981017 0.461067
99.424019 96.612518 5.152541 0.494118
98.905518 96.109291 4.528050 0.466224
99.514008 96.699852 3.732340 0.457862
74.947113 72.856812 4.719766 0.678431
75.013657 72.921402 2.904423 0.658045
75.013733 72.921463 1.095578 0.651026
85.460281 83.060211 -0.000036 0.338720
97.171310 94.426178 -0.000025 0.231147
102.199265 99.305992 -0.000018 0.218569
104.999550 102.023773 -0.000014 0.209916
106.787292 103.758835 -0.000012 0.250715
108.029839 104.964767 -0.000010 0.230190
108.945290 105.853249 -0.000009 0.206075
99.117554 96.524582 7.394084 0.494530
99.507462 96.897751 6.534418 0.494118
99.010460 96.422089 5.945287 0.468345
99.317070 96.715530 5.153359 0.461738
98.784500 96.205826 4.530367 0.488304
99.528046 96.917450 3.719129 0.476646
74.388168 72.856842 4.739536 0.678431
74.455605 72.921387 2.910998 0.640208
74.455597 72.921371 1.089001 0.633738
85.262810 83.264633 -0.000052 0.338003
97.053139 94.548790 -0.000025 0.236688
102.115036 99.393379 -0.000018 0.242696
104.934235 102.091545 -0.000014 0.230310
106.734039 103.814087 -0.000012 0.198236
107.984978 105.011322 -0.000010 0.239620
108.906609 105.893379 -0.000009 0.248321
99.345490 96.946419 7.279904 0.476585
99.670952 97.253586 6.455878 0.494118
98.889557 96.516121 5.949446 0.437125
99.209976 96.818520 5.154350 0.432792
98.908005 96.533531 4.494097 0.663355
99.541809 97.131706 3.706208 0.518166
73.889351 72.921371 4.755116 0.639445
73.889374 72.921387 2.917716 0.630335
73.889389 72.921417 1.082285 0.667506
85.066978 83.470619 -0.000054 0.338262
96.935822 94.672218 -0.000025 0.233649
102.031425 99.481354 -0.000018 0.232883
104.869385 102.159775 -0.000014 0.234642
106.681175 103.869713 -0.000012 0.195184
107.940437 105.058174 -0.000010 0.222483
108.868202 105.933784 -0.000009 0.234630
99.566238 97.352882 7.169936 0.493309
99.408920 97.206474 6.504130 0.494118
98.693855 96.540985 5.972335 0.485390
99.102715 96.921501 5.155513 0.452415
98.542023 96.399681 4.535346 0.491096
73.314651 72.921371 6.632818 0.632044
73.314651 72.921371 4.775717 0.641825
73.314697 72.921410 2.924576 0.629740
73.277649 72.886932 1.074594 0.136736
84.872688 83.678070 -0.000049 0.338170
96.819382 94.796471 -0.000025 0.223356
101.948425 99.569916 -0.000018 0.230393
104.805023 102.228455 -0.000014 0.258434
106.628708 103.925697 -0.000012 0.213554
107.896233 105.105347 -0.000010 0.195459
108.830086 105.974457 -0.000009 0.243438
98.040031 96.147827 7.655567 0.476890
98.339180 96.422356 6.788752 0.482948
72.731293 72.921387 12.358657 0.621851
99.525345 97.510933 5.050128 0.494087
98.938705 96.972557 4.457101 0.476402
72.731277 72.921379 6.667946 0.615854
72.731277 72.921379 4.796762 0.644938
72.731323 72.921417 2.931587 0.643671
98.314407 96.399628 1.636625 0.662425
98.323761 96.408211 0.909718 0.653300
98.335831 96.419281 0.181605 0.621012
101.866043 99.659050 -0.000018 0.235180
104.741127 102.297585 -0.000015 0.223775
106.576622 103.982056 -0.000012 0.225822
107.852356 105.152824 -0.000010 0.222530
108.792252 106.015396 -0.000009 0.242612
98.143143 96.453712 7.584867 0.714611
98.675201 96.935196 6.660503 0.496666
98.344543 96.635971 6.007477 0.645731
99.790802 97.944763 4.977678 0.474083
98.828217 97.073669 4.458662 0.478370
98.276062 96.573997 3.813473 0.548562
98.284538 96.581673 3.085966 0.636027
98.293015 96.589340 2.361543 0.736797
98.301437 96.596970 1.638643 0.644984
98.309891 96.604614 0.915714 0.666667
98.366135 96.655510 0.196488 0.696986
101.784302 99.748756 -0.000018 0.221513
104.677734 102.367157 -0.000014 0.199600
106.524933 104.038773 -0.000012 0.207439
107.808807 105.200607 -0.000010 0.219299
108.754707 106.056595 -0.000009 0.206912
nan nan nan 0.000000
97.026527 95.665947 7.108588 0.493935
98.665436 97.128387 5.904161 0.482353
99.456261 97.834061 5.025566 0.482338
98.839668 97.283859 4.441520 0.468788
98.141251 96.660645 3.816945 0.692882
98.151413 96.669708 3.087939 0.632166
98.161453 96.678665 2.362167 0.681300
98.171478 96.687614 1.638053 0.701839
98.181511 96.696564 0.914042 0.643381
98.193161 96.706963 0.188758 0.700389
101.703171 99.839035 -0.000018 0.209019
104.614815 102.437164 -0.000015 0.235228
106.473640 104.095848 -0.000012 0.224086
107.765594 105.248695 -0.000010 0.196141
108.717453 106.098053 -0.000009 0.258027
97.919701 96.671768 7.590261 0.662531
97.698784 96.477386 6.883689 0.684215
98.657173 97.320641 5.882087 0.487251
98.287216 96.995132 5.237887 0.489708
97.299835 96.126366 4.662414 0.465736
96.653549 95.557724 3.968220 0.471107
70.853020 72.856796 4.867521 0.678431
70.926514 72.921463 2.953554 0.666575
70.926514 72.921463 1.046444 0.665187
84.109894 84.521027 -0.000048 0.338323
98.049088 96.785606 0.184193 0.655680
101.622681 99.929878 -0.000018 0.234953
104.552391 102.507622 -0.000014 0.224146
106.422752 104.153282 -0.000012 0.232679
107.722725 105.297081 -0.000010 0.195758
108.680481 106.139778 -0.000009 0.190911
98.019852 96.964912 7.523058 0.486625
97.683937 96.673492 6.858236 0.453544
97.785019 96.761192 6.068570 0.675959
98.697472 97.552795 5.137630 0.493278
97.125679 96.189178 4.672748 0.625940
70.305725 72.921463 6.816351 0.617105
70.305725 72.921463 4.885679 0.661021
70.305725 72.921463 2.961206 0.656916
70.305717 72.921463 1.038794 0.620386
83.922867 84.735046 -0.000049 0.337972
96.250305 95.429741 -0.000026 0.223081
101.542824 100.021278 -0.000018 0.256986
104.490456 102.578506 -0.000015 0.241535
106.372269 104.211075 -0.000012 0.244061
107.680191 105.345764 -0.000010 0.217372
108.643806 106.181755 -0.000009 0.191258
98.236176 97.352516 7.418636 0.522316
98.230370 97.347557 6.673802 0.483742
98.594650 97.659164 5.850314 0.461616
98.679886 97.732063 5.122252 0.516396
97.115807 96.394165 4.658216 0.490242
96.327179 95.719582 3.979738 0.502678
69.674850 72.921448 4.909161 0.636042
69.674850 72.921455 2.969028 0.622950
69.674850 72.921448 1.030972 0.655177
83.737350 84.950371 -0.000051 0.339239
96.139175 95.558769 -0.000025 0.237586
101.463608 100.113235 -0.000018 0.226671
104.429024 102.649818 -0.000014 0.249147
106.322182 104.269211 -0.000012 0.224194
107.637993 105.394745 -0.000010 0.235623
108.607422 106.223984 -0.000009 0.235432
97.215996 96.689690 7.720888 0.461097
98.190933 97.511925 6.657312 0.485969
98.789253 98.016525 5.781231 0.473716
98.029007 97.375359 5.230093 0.490730
98.474335 97.750931 4.438055 0.460548
96.550415 96.128357 3.944088 0.494118
69.033600 72.921440 4.933171 0.633097
69.033585 72.921432 2.977025 0.632349
69.033600 72.921448 1.022974 0.630503
83.709595 85.298767 0.009990 1.000000
96.028931 95.688553 -0.000025 0.222758
101.385040 100.205742 -0.000018 0.246753
104.368088 102.721565 -0.000015 0.212884
106.272507 104.327698 -0.000011 0.183132
107.596146 105.444016 -0.000011 0.202281
108.571342 106.266472 -0.000009 0.245963
97.634956 97.245422 7.551055 0.493812
98.151787 97.675163 6.641158 0.475425
98.670494 98.106468 5.787292 0.521935
97.755516 97.345665 5.264024 0.494118
98.157127 97.679604 4.471300 0.491569
96.470139 96.276878 3.941316 0.492973
68.809776 73.277435 4.930372 0.640711
68.809753 73.277420 2.976094 0.667796
68.381638 72.921432 1.014795 0.640604
83.528084 85.515625 0.009994 1.000000
95.919601 95.819115 -0.000025 0.230465
101.307114 100.298798 -0.000018 0.213698
104.307648 102.793732 -0.000015 0.219239
106.223236 104.386528 -0.000012 0.223045
107.554634 105.493584 -0.000010 0.212465
108.535553 106.309204 -0.000009 0.260768
97.536705 97.364929 7.550976 0.482902
97.564316 97.387558 6.778550 0.494118
98.551361 98.196693 5.793555 0.494118
97.093971 97.001999 5.372154 0.494118
98.218475 97.923813 4.447970 0.476844
68.809799 73.815910 6.862838 0.636713
68.809784 73.815903 4.913530 0.659937
68.809769 73.815887 2.970484 0.633646
67.718643 72.921425 1.006429 0.638163
83.189865 85.604042 -0.000054 0.338079
95.811188 95.950424 -0.000025 0.233433
101.229836 100.392387 -0.000018 0.206565
104.247726 102.866318 -0.000015 0.228778
106.174385 104.445709 -0.000012 0.212777
107.513481 105.543434 -0.000010 0.230046
108.500061 106.352196 -0.000009 0.178620
97.438461 97.484451 7.551163 0.486580
97.397995 97.451752 6.797659 0.483177
98.431801 98.287216 5.800029 0.489876
97.217636 97.305992 5.329462 0.470146
97.676659 97.676949 4.514241 0.523613
68.809799 74.348251 6.835284 0.642206
68.809799 74.348251 4.897022 0.636378
68.809784 74.348236 2.964985 0.631937
67.044250 72.921425 0.997869 0.650675
83.010414 85.824448 -0.000055 0.338064
95.703690 96.082497 -0.000025 0.229232
101.153221 100.486526 -0.000018 0.243079
104.188301 102.939323 -0.000015 0.243474
106.125946 104.505219 -0.000012 0.216582
107.472672 105.593575 -0.000010 0.235887
108.464874 106.395424 -0.000009 0.211221
97.340225 97.603996 7.551615 0.494514
96.940033 97.285172 6.897319 0.437507
98.499474 98.527534 5.763060 0.485573
96.984177 97.320343 5.355139 0.663722
97.969238 98.105118 4.457162 0.466026
68.809822 74.874626 6.808270 0.646769
68.809807 74.874611 4.880837 0.633417
68.809799 74.874603 2.959593 0.630762
68.601738 74.708847 1.036053 0.660243
82.832764 86.046310 -0.000041 0.231040
95.597115 96.215309 -0.000025 0.220663
101.077263 100.581192 -0.000018 0.222758
104.129395 103.012733 -0.000015 0.242553
106.077919 104.565071 -0.000012 0.197218
107.432213 105.643997 -0.000010 0.262395
108.429993 106.438904 -0.000009 0.252223
96.157585 96.871979 7.897709 0.493904
97.258621 97.736649 6.782862 0.464805
98.043900 98.353348 5.847737 0.494194
97.132744 97.637794 5.308641 0.480629
97.965744 98.291969 4.444142 0.468879
68.175682 74.897156 6.847904 0.678431
68.175674 74.897148 4.904584 0.678431
68.244965 74.951569 2.966062 0.771649
65.615784 72.886818 0.979233 0.180316
82.656441 86.269226 -0.000041 0.228754
95.491478 96.348869 -0.000025 0.231482
101.001968 100.676384 -0.000018 0.218497
104.070999 103.086563 -0.000014 0.219598
106.030312 104.625252 -0.000012 0.188853
107.392105 105.694702 -0.000010 0.272951
108.395409 106.482620 -0.000009 0.197793
95.984703 96.946014 7.920455 0.439109
97.159698 97.855576 6.783917 0.481102
97.904587 98.432198 5.858906 0.483742
97.228806 97.909081 5.272659 0.481392
97.806511 98.356277 4.454040 0.442908
67.571701 74.951599 6.884216 0.785595
67.571701 74.951599 4.926339 0.781674
67.571701 74.951599 2.974751 0.760128
64.949013 72.921387 0.970977 0.632624
82.481689 86.493370 -0.000041 0.229520
95.386772 96.483162 -0.000025 0.225187
100.927338 100.772095 -0.000018 0.223380
104.013123 103.160797 -0.000014 0.204902
105.983124 104.685768 -0.000012 0.233696
107.352356 105.745682 -0.000010 0.204626
108.361137 106.526581 -0.000009 0.266010
95.922943 97.106453 7.908233 0.499535
97.382324 98.219948 6.697836 0.484749
97.806129 98.543304 5.860792 0.443900
97.042496 97.960655 5.289910 0.481727
97.958862 98.659836 4.418862 0.495308
97.913322 98.625099 3.728741 0.475288
66.814766 74.897141 4.957454 0.678431
66.886124 74.951584 2.983646 0.741176
64.225311 72.921402 0.961586 0.644114
82.308502 86.718735 -0.000041 0.229532
95.283005 96.618179 -0.000025 0.233840
100.853378 100.868332 -0.000018 0.240602
103.955765 103.235428 -0.000015 0.257273
105.936371 104.746613 -0.000012 0.239620
107.312958 105.796944 -0.000010 0.207882
108.327164 106.570778 -0.000009 0.203083
95.852501 97.259506 7.899150 0.482002
96.767876 97.947876 6.839103 0.452461
97.707664 98.654602 5.862845 0.482231
66.115509 74.897141 11.012565 0.678431
66.315552 75.047577 8.960825 0.692805
98.127243 98.970123 3.697677 0.482948
66.115509 74.897141 4.984838 0.678431
66.201080 74.961487 2.992484 0.781979
63.488232 72.921410 0.951972 0.669429
82.136871 86.945282 -0.000041 0.231255
95.180176 96.753922 -0.000025 0.235779
100.780090 100.965080 -0.000018 0.250846
103.898926 103.310463 -0.000015 0.220316
105.890030 104.807785 -0.000012 0.223584
107.273926 105.848473 -0.000010 0.245892
108.293510 106.615211 -0.000009 0.247615
nan nan nan 0.000000
nan nan nan 0.000000
62.737392 72.921478 13.762858 0.618021
96.479851 97.929108 5.359429 0.493660
65.476631 74.951614 9.044765 0.690684
65.403137 74.897141 7.028659 0.678431
65.403122 74.897133 5.012881 0.678431
65.460426 74.939606 3.002409 0.692561
62.737328 72.921425 0.942126 0.664088
81.966843 87.173042 -0.000041 0.227784
95.078308 96.890381 -0.000025 0.231339
100.707481 101.062340 -0.000018 0.209031
103.842613 103.385895 -0.000015 0.215218
105.844124 104.869278 -0.000012 0.263796
107.235245 105.900284 -0.000010 0.216199
108.260162 106.659882 -0.000009 0.258458
nan nan nan 0.000000
96.624901 98.230835 6.827524 0.488746
61.897381 72.866814 13.891868 0.129397
96.473709 98.120407 5.343348 0.494118
64.751755 74.951569 9.111938 0.745998
64.677155 74.897079 7.076611 0.678431
64.677147 74.897079 5.041612 0.678431
64.735275 74.939537 3.011969 0.729992
61.972179 72.921448 0.932041 0.648051
81.798416 87.401978 -0.000041 0.229125
94.977394 97.027542 -0.000025 0.223069
100.635551 101.160095 -0.000019 0.227270
103.786835 103.461708 -0.000015 0.245138
105.798653 104.931084 -0.000012 0.259164
107.196938 105.952354 -0.000010 0.229244
108.227127 106.704773 -0.000009 0.181038
nan nan nan 0.000000
nan nan nan 0.000000
61.178181 72.911346 13.993059 0.780087
64.026962 74.961670 11.256447 0.625971
64.026962 74.961670 9.178761 0.653727
97.511932 99.061501 3.733877 0.490089
64.026978 74.961685 5.065608 0.666300
64.026962 74.961670 3.021139 0.635004
61.192226 72.921455 0.921708 0.641642
81.631577 87.632080 -0.000041 0.229077
94.877441 97.165405 -0.000025 0.240554
100.564308 101.258362 -0.000019 0.240518
103.731583 103.537918 -0.000014 0.229364
105.753609 104.993210 -0.000012 0.206242
107.158989 106.004692 -0.000010 0.234989
108.194412 106.749908 -0.000009 0.217061
nan nan nan 0.000000
nan nan nan 0.000000
60.396900 72.921402 14.107665 0.634745
63.182793 74.897095 11.363907 0.678431
63.242699 74.939575 9.253651 0.776471
97.358978 99.134018 3.740625 0.482887
63.182774 74.897079 5.101199 0.678431
63.242779 74.939636 3.031791 0.776471
60.396996 72.921478 0.911120 0.638315
81.466347 87.863350 -0.000041 0.228299
94.778442 97.303963 -0.000025 0.223033
100.493752 101.357124 -0.000018 0.230369
103.676865 103.614510 -0.000014 0.235958
105.709000 105.055649 -0.000012 0.188314
107.121407 106.057297 -0.000010 0.207894
108.162003 106.795265 -0.000009 0.216319
nan nan nan 0.000000
nan nan nan 0.000000
59.585926 72.921455 14.228326 0.656641
62.413330 74.897064 11.457242 0.678431
62.474255 74.939636 9.325935 0.740459
62.413319 74.897049 7.227659 0.678431
62.413315 74.897049 5.132108 0.678431
62.474243 74.939621 3.042075 0.776471
59.585915 72.921448 0.900267 0.662486
81.302750 88.095764 -0.000041 0.231327
94.680420 97.443207 -0.000026 0.234558
100.423889 101.456375 -0.000018 0.232990
103.622681 103.691475 -0.000015 0.226599
105.664825 105.118401 -0.000012 0.236341
107.084198 106.110161 -0.000010 0.202843
108.129921 106.840843 -0.000009 0.263245
nan nan nan 0.000000
nan nan nan 0.000000
58.758484 72.921448 14.352039 0.629694
61.628376 74.897072 11.552920 0.678431
61.690159 74.939606 9.400059 0.744259
61.628365 74.897064 7.280546 0.678431
61.628357 74.897057 5.163795 0.678431
61.690147 74.939590 3.052619 0.776471
58.692638 72.876129 0.887833 0.743404
81.140762 88.329315 -0.000041 0.229915
94.583374 97.583138 -0.000025 0.222399
100.354721 101.556107 -0.000018 0.213902
103.569031 103.768822 -0.000014 0.236856
105.621094 105.181458 -0.000012 0.288042
107.047356 106.163284 -0.000010 0.231746
108.098145 106.886642 -0.000010 0.251828
nan nan nan 0.000000
nan nan nan 0.000000
57.914085 72.921432 14.478905 0.658244
60.907841 74.951660 11.636601 0.763928
60.890018 74.939575 9.476064 0.760937
60.827354 74.897079 7.334775 0.678431
60.827351 74.897079 5.196287 0.678431
60.890011 74.939575 3.063430 0.776471
57.847275 72.876129 0.876410 0.744259
80.980423 88.563980 -0.000041 0.228359
94.487312 97.723740 -0.000025 0.237813
100.286247 101.656319 -0.000018 0.221872
103.515930 103.846542 -0.000014 0.225103
105.577805 105.244812 -0.000012 0.284715
107.010880 106.216660 -0.000010 0.271766
108.066704 106.932671 -0.000009 0.255191
nan nan nan 0.000000
nan nan nan 0.000000
57.287827 73.078873 14.557442 0.669261
60.135876 74.981400 11.729134 0.699748
60.073311 74.939606 9.554005 0.736568
60.009693 74.897110 7.390392 0.678431
60.009686 74.897110 5.229610 0.678431
60.073303 74.939606 3.074517 0.776471
59.668812 74.669403 0.917524 0.674372
80.821724 88.799774 -0.000041 0.227904
94.392220 97.865005 -0.000025 0.220568
100.218475 101.757011 -0.000018 0.223045
103.463371 103.924629 -0.000015 0.222171
105.534958 105.308472 -0.000012 0.255729
106.974785 106.270294 -0.000010 0.203813
108.035576 106.978912 -0.000009 0.205524
nan nan nan 0.000000
nan nan nan 0.000000
56.926353 73.417770 14.578187 0.649363
59.404163 75.048073 11.814134 0.714000
56.141613 72.901443 10.060552 0.839216
55.776947 72.661507 7.780954 0.678431
56.095970 72.871414 5.444851 0.678431
56.302063 73.007019 3.143426 0.693904
56.227482 72.957939 0.855113 0.673701
80.664680 89.036659 -0.000041 0.229137
94.298126 98.006935 -0.000025 0.231794
100.151413 101.858162 -0.000018 0.218007
103.411362 104.003082 -0.000015 0.200689
105.492554 105.372429 -0.000012 0.217995
106.939056 106.324173 -0.000010 0.224373
108.004776 107.025375 -0.000009 0.197135
nan nan nan 0.000000
nan nan nan 0.000000
56.351372 73.620247 14.645642 0.677226
55.319523 72.951607 12.491485 0.642863
55.257534 72.911438 10.145082 0.725261
55.257565 72.911453 7.805405 0.769177
55.257652 72.911514 5.478259 0.748455
55.404861 73.006912 3.155722 0.711452
55.319614 72.951660 0.842618 0.678431
80.509270 89.274628 -0.000041 0.231734
94.205032 98.149521 -0.000025 0.234043
100.085052 101.959793 -0.000018 0.225271
103.359901 104.081902 -0.000014 0.225546
105.450600 105.436684 -0.000012 0.259032
106.903717 106.378304 -0.000010 0.225151
107.974304 107.072044 -0.000009 0.281616
nan nan nan 0.000000
nan nan nan 0.000000
54.346863 72.916656 15.021667 0.670604
54.276089 72.871490 12.628097 0.678431
54.276096 72.871490 10.242530 0.678431
54.276089 72.871490 7.874868 0.678431
54.276241 72.871590 5.519869 0.678431
54.488041 73.006744 3.168340 0.696223
54.260517 72.861557 0.827242 0.738033
80.355545 89.513695 -0.000041 0.232344
94.112923 98.292747 -0.000025 0.223248
100.019402 102.061874 -0.000018 0.222566
103.308990 104.161072 -0.000014 0.201024
105.409096 105.501221 -0.000012 0.195686
106.868744 106.432678 -0.000010 0.260397
107.944153 107.118935 -0.000009 0.206446
nan nan nan 0.000000
nan nan nan 0.000000
53.405682 72.915321 15.166483 0.689921
53.335949 72.871506 12.745919 0.678431
53.335968 72.871521 10.333904 0.678431
53.335957 72.871506 7.939995 0.678431
53.336094 72.871597 5.558891 0.678431
53.550861 73.006546 3.181300 0.683574
53.320133 72.861572 0.814241 0.745190
80.203514 89.753838 -0.000041 0.227186
94.021820 98.436615 -0.000025 0.225379
99.954468 102.164421 -0.000018 0.232488
103.258629 104.240601 -0.000014 0.202257
105.368042 105.566055 -0.000012 0.200773
106.834160 106.487297 -0.000010 0.254293
107.914330 107.166031 -0.000009 0.243809
nan nan nan 0.000000
nan nan nan 0.000000
52.768150 73.114929 15.245706 0.649317
52.423088 72.901459 12.858477 0.839216
52.083668 72.691467 10.467114 0.781125
52.374481 72.871384 8.006899 0.678431
52.439198 72.911423 5.595247 0.795346
52.592697 73.006386 3.194605 0.720729
52.358421 72.861450 0.800886 0.737179
80.053116 89.995003 -0.000041 0.231829
93.931725 98.581116 -0.000025 0.226109
99.890259 102.267410 -0.000018 0.227617
103.208824 104.320473 -0.000014 0.225163
105.327438 105.631172 -0.000012 0.251277
106.799957 106.542160 -0.000010 0.257321
107.884842 107.213326 -0.000009 0.284512
nan nan nan 0.000000
nan nan nan 0.000000
52.394634 73.482498 15.268637 0.670314
51.446049 72.904762 12.981734 0.751369
51.390167 72.870728 10.524320 0.723003
51.445999 72.904732 8.070351 0.741817
51.457088 72.911484 5.636366 0.787488
51.559139 72.973633 3.209300 0.693462
79.349709 89.899376 1.323168 0.821393
79.904442 90.237236 -0.000041 0.230609
93.842636 98.726242 -0.000025 0.226970
99.826767 102.370857 -0.000018 0.218054
103.159584 104.400696 -0.000014 0.272556
105.287292 105.696571 -0.000012 0.244144
106.766136 106.597252 -0.000010 0.260911
107.855675 107.260834 -0.000009 0.241739
nan nan nan 0.000000
nan nan nan 0.000000
52.018955 73.850822 15.292484 0.671168
50.385582 72.871590 13.118913 0.678431
50.385551 72.871567 10.623185 0.678431
80.652435 91.017052 5.252611 0.770489
80.652435 91.017044 3.948776 0.748165
80.652435 91.017044 2.649127 0.746563
80.652435 91.017044 1.350872 0.746563
80.652435 91.017044 0.051224 0.780392
93.754570 98.871986 -0.000025 0.221788
99.763992 102.474731 -0.000018 0.230022
103.110901 104.481255 -0.000015 0.218509
105.247612 105.762245 -0.000012 0.256100
106.732704 106.652580 -0.000010 0.239142
107.826851 107.308540 -0.000009 0.218557
nan nan nan 0.000000
nan nan nan 0.000000
nan nan nan 0.000000
49.355881 72.871628 13.250189 0.678431
49.355652 72.871483 10.725020 0.678431
80.652435 91.338608 5.239132 0.850980
80.652435 91.338608 3.940701 0.856168
80.652435 91.338608 2.646439 0.861784
80.652435 91.338608 1.353562 0.857420
80.652435 91.338608 0.059299 0.852781
93.667519 99.018341 -0.000025 0.226947
99.701950 102.579048 -0.000018 0.226480
103.062782 104.562157 -0.000014 0.205069
105.208382 105.828201 -0.000012 0.220771
106.699654 106.708145 -0.000010 0.226492
107.798355 107.356445 -0.000009 0.237658
nan nan nan 0.000000
nan nan nan 0.000000
nan nan nan 0.000000
nan nan nan 0.000000
nan nan nan 0.000000
80.652435 91.657516 5.225923 0.869963
80.652435 91.657516 3.932786 0.870222
80.652435 91.657516 2.643802 0.869978
80.652435 91.657516 1.356198 0.852079
80.652435 91.657516 0.067213 0.870588
93.581490 99.165306 -0.000025 0.238867
99.640625 102.683792 -0.000018 0.241176
103.015228 104.643394 -0.000014 0.224397
105.169617 105.894424 -0.000011 0.209617
106.666992 106.763939 -0.000010 0.238843
107.770195 107.404556 -0.000009 0.221489
nan nan nan 0.000000
nan nan nan 0.000000
nan nan nan 0.000000
nan nan nan 0.000000
80.652435 91.973862 6.507856 0.721538
80.652435 91.973862 5.212975 0.800778
80.652428 91.973854 3.925029 0.784070
80.652435 91.973854 2.641218 0.784070
80.652435 91.973854 1.358782 0.784070
80.652428 91.973854 0.074971 0.784070
93.496490 99.312866 -0.000025 0.229340
99.580048 102.788963 -0.000018 0.217767
102.968246 104.724960 -0.000014 0.268882
105.131317 105.960922 -0.000012 0.221896
106.634727 106.819962 -0.000010 0.247567
107.742371 107.452858 -0.000009 0.198810
nan nan nan 0.000000
nan nan nan 0.000000
nan nan nan 0.000000
nan nan nan 0.000000
80.652435 92.287682 6.490055 0.720836
80.652435 92.287689 5.200287 0.827482
80.652420 92.287674 3.917428 0.826719
80.652428 92.287682 2.638685 0.826444
80.652428 92.287674 1.361314 0.826444
80.652420 92.287674 0.082572 0.838666
93.412529 99.461014 -0.000025 0.237335
99.520203 102.894554 -0.000018 0.245257
102.921829 104.806847 -0.000015 0.237418
105.093475 106.027679 -0.000012 0.209414
106.602844 106.876198 -0.000010 0.226755
107.714882 107.501350 -0.000009 0.218306
nan nan nan 0.000000
nan nan nan 0.000000
nan nan nan 0.000000
nan nan nan 0.000000
80.652435 92.599052 6.472610 0.685649
80.652435 92.599045 5.187854 0.859861
80.652435 92.599045 3.909977 0.862303
80.652428 92.599045 2.636205 0.856718
80.652428 92.599045 1.363795 0.862821
80.652435 92.599045 0.090022 0.868406
93.329605 99.609741 -0.000025 0.236018
99.461090 103.000565 -0.000018 0.238747
102.875992 104.889061 -0.000014 0.241655
105.056107 106.094704 -0.000012 0.239034
106.571365 106.932663 -0.000010 0.229651
107.687737 107.550041 -0.000009 0.214572
nan nan nan 0.000000
nan nan nan 0.000000
nan nan nan 0.000000
nan nan nan 0.000000
80.652435 92.908020 6.455519 0.741176
80.652435 92.908020 5.175671 0.842847
80.652420 92.908020 3.902678 0.847944
80.652428 92.908020 2.633773 0.848646
80.652428 92.908020 1.366227 0.842283
80.652420 92.908020 0.097320 0.843015
93.247711 99.759048 -0.000025 0.223907
99.402733 103.106979 -0.000018 0.224649
102.830727 104.971588 -0.000015 0.265196
105.019203 106.161980 -0.000012 0.207140
106.540283 106.989349 -0.000010 0.228203
107.660934 107.598915 -0.000009 0.263329
nan nan nan 0.000000
nan nan nan 0.000000
nan nan nan 0.000000
nan nan nan 0.000000
80.652420 93.214653 6.438772 0.801312
80.652435 93.214661 5.163734 0.805447
80.652435 93.214661 3.895526 0.806699
80.652435 93.214661 2.631390 0.808377
80.652435 93.214661 1.368609 0.815885
80.652435 93.214661 0.104473 0.808103
93.166870 99.908920 -0.000025 0.238914
99.345108 103.213799 -0.000018 0.235480
102.786041 105.054436 -0.000014 0.204603
104.982773 106.229515 -0.000012 0.266572
106.509583 107.046242 -0.000010 0.231973
107.634468 107.647972 -0.000009 0.200629
nan nan nan 0.000000
nan nan nan 0.000000
nan nan nan 0.000000
nan nan nan 0.000000
80.652420 93.519012 6.422364 0.859983
80.652428 93.519020 5.152040 0.860410
80.652428 93.519012 3.888520 0.856062
80.652420 93.519012 2.629057 0.857877
80.652420 93.519012 1.370943 0.856596
80.652428 93.519012 0.111480 0.860609
93.087067 100.059357 -0.000025 0.227772
99.288231 103.321022 -0.000018 0.219275
102.741928 105.137589 -0.000014 0.216941
104.946815 106.297310 -0.000012 0.244910
106.479294 107.103355 -0.000010 0.200964
107.608353 107.697212 -0.000009 0.254461
nan nan nan 0.000000
nan nan nan 0.000000
nan nan nan 0.000000
nan nan nan 0.000000
80.652428 93.821144 6.406291 0.855344
80.652420 93.821136 5.140585 0.851102
80.652420 93.821136 3.881657 0.856733
80.652420 93.821136 2.626770 0.854078
80.652420 93.821136 1.373229 0.861036
80.652420 93.821136 0.118343 0.869963
93.008331 100.210342 -0.000025 0.238998
99.232101 103.428635 -0.000018 0.222698
102.698410 105.221054 -0.000014 0.237406
104.911331 106.365349 -0.000012 0.212154
106.449402 107.160675 -0.000010 0.274327
107.582573 107.746635 -0.000009 0.233445
nan nan nan 0.000000
nan nan nan 0.000000
nan nan nan 0.000000
nan nan nan 0.000000
80.652420 94.121094 6.390548 0.870497
80.652420 94.121094 5.129364 0.854963
80.652420 94.121094 3.874934 0.870588
80.652420 94.121094 2.624532 0.869612
80.652420 94.121094 1.375469 0.865812
80.652420 94.121094 0.125065 0.870588
92.930641 100.361877 -0.000025 0.223775
99.176735 103.536644 -0.000018 0.204004
102.655464 105.304817 -0.000014 0.212214
104.876328 106.433632 -0.000011 0.264514
106.419907 107.218208 -0.000010 0.276482
107.557144 107.796242 -0.000009 0.199385
nan nan nan 0.000000
nan nan nan 0.000000
nan nan nan 0.000000
nan nan nan 0.000000
80.652420 94.418930 6.375130 0.783825
80.652420 94.418930 5.118376 0.781659
80.652420 94.418930 3.868350 0.782025
80.652420 94.418930 2.622339 0.784970
80.652420 94.418930 1.377661 0.784970
80.652420 94.418930 0.131650 0.788190
92.854004 100.513947 -0.000025 0.232919
99.122116 103.645027 -0.000018 0.218737
102.613106 105.388870 -0.000014 0.253491
104.841797 106.502159 -0.000012 0.254939
106.390808 107.275940 -0.000010 0.194011
107.532059 107.846024 -0.000009 0.224110
nan nan nan 0.000000
nan nan nan 0.000000
nan nan nan 0.000000
nan nan nan 0.000000
80.652420 94.714691 6.360032 0.869459
80.652420 94.714691 5.107613 0.868742
80.652420 94.714691 3.861903 0.863050
80.652420 94.714691 2.620190 0.867063
80.652420 94.714691 1.379809 0.862974
80.652420 94.714691 0.138097 0.862516
92.778442 100.666550 -0.000025 0.233852
99.068260 103.753799 -0.000018 0.238855
102.571335 105.473228 -0.000014 0.237119
104.807739 106.570930 -0.000012 0.187405
106.362122 107.333878 -0.000010 0.204543
107.507324 107.895973 -0.000009 0.249817
nan nan nan 0.000000
nan nan nan 0.000000
nan nan nan 0.000000
nan nan nan 0.000000
80.652420 95.008430 6.345249 0.852857
80.652420 95.008430 5.097077 0.861189
80.652420 95.008430 3.855589 0.859785
80.652420 95.008430 2.618088 0.859983
80.652420 95.008430 1.381912 0.862440
80.652412 95.008423 0.144410 0.860395
92.703949 100.819679 -0.000025 0.231040
99.015167 103.862938 -0.000018 0.224912
102.530151 105.557869 -0.000014 0.217408
104.774170 106.639931 -0.000012 0.186615
106.333847 107.392006 -0.000010 0.241655
107.482941 107.946098 -0.000009 0.250583
nan nan nan 0.000000
nan nan nan 0.000000
nan nan nan 0.000000
nan nan nan 0.000000
80.652412 95.300201 6.330776 0.866331
80.652435 95.300209 5.086761 0.866972
80.652420 95.300201 3.849409 0.863539
80.652420 95.300209 2.616030 0.854566
80.652420 95.300209 1.383971 0.846830
80.652420 95.300201 0.150591 0.865400
92.630524 100.973320 -0.000025 0.223392
98.962830 103.972450 -0.000018 0.251421
102.489571 105.642799 -0.000014 0.221310
104.741081 106.709167 -0.000012 0.196692
106.305969 107.450333 -0.000010 0.214153
107.458900 107.996391 -0.000009 0.242194
nan nan nan 0.000000
nan nan nan 0.000000
nan nan nan 0.000000
nan nan nan 0.000000
80.652420 95.590050 6.316608 0.798733
80.652420 95.590050 5.076663 0.790524
80.652420 95.590050 3.843358 0.798733
80.652420 95.590050 2.614014 0.798733
80.652420 95.590050 1.385986 0.798733
80.652420 95.590050 0.156641 0.799588
92.558174 101.127472 -0.000025 0.224960
98.911263 104.082321 -0.000018 0.213902
102.449570 105.728004 -0.000014 0.250320
104.708481 106.778633 -0.000012 0.212884
106.278503 107.508858 -0.000010 0.233026
107.435219 108.046852 -0.000009 0.212274
nan nan nan 0.000000
nan nan nan 0.000000
nan nan nan 0.000000
nan nan nan 0.000000
80.652420 95.878029 6.302742 0.768414
80.652420 95.878029 5.066779 0.785428
80.652420 95.878029 3.837437 0.769162
80.652420 95.878029 2.612042 0.767987
80.652420 95.878029 1.387958 0.767987
80.652420 95.878029 0.162562 0.766125
92.486893 101.282127 -0.000025 0.227928
98.860458 104.192551 -0.000018 0.251588
102.410172 105.813492 -0.000014 0.219311
104.676361 106.848328 -0.000012 0.202616
106.251442 107.567574 -0.000010 0.199205
107.411888 108.097481 -0.000009 0.207403
nan nan nan 0.000000
nan nan nan 0.000000
nan nan nan 0.000000
nan nan nan 0.000000
80.652420 96.164177 6.289172 0.856626
80.652420 96.164177 5.057107 0.867994
80.652420 96.164177 3.831642 0.861463
80.652420 96.164169 2.610111 0.864912
80.652420 96.164169 1.389889 0.866484
80.652420 96.164169 0.168357 0.860395
92.416702 101.437271 -0.000025 0.238220
98.810425 104.303131 -0.000018 0.210156
102.371376 105.899254 -0.000014 0.203310
104.644730 106.918243 -0.000012 0.226611
106.224792 107.626472 -0.000010 0.215445
107.388908 108.148262 -0.000009 0.262084
nan nan nan 0.000000
nan nan nan 0.000000
nan nan nan 0.000000
nan nan nan 0.000000
80.652420 96.448524 6.275897 0.869978
80.652420 96.448532 5.047647 0.870588
80.652420 96.448532 3.825973 0.870588
80.652420 96.448524 2.608223 0.865858
80.652420 96.448524 1.391777 0.835752
80.652420 96.448532 0.174026 0.869612
92.347595 101.592911 -0.000025 0.220304
98.761169 104.414055 -0.000018 0.208696
102.333176 105.985283 -0.000014 0.274028
104.613586 106.988373 -0.000012 0.232895
106.198555 107.685555 -0.000010 0.177675
107.366287 108.199211 -0.000009 0.255119
nan nan nan 0.000000
nan nan nan 0.000000
nan nan nan 0.000000
nan nan nan 0.000000
80.652412 96.731140 6.262910 0.849622
80.652420 96.731148 5.038391 0.846052
80.652420 96.731140 3.820428 0.862684
80.652420 96.731140 2.606376 0.864591
80.652420 96.731140 1.393625 0.853788
80.652420 96.731140 0.179572 0.862409
92.279572 101.749016 -0.000025 0.223009
98.712692 104.525330 -0.000018 0.213423
102.295578 106.071579 -0.000014 0.213231
104.582939 107.058723 -0.000011 0.218964
106.172729 107.744827 -0.000010 0.194693
107.344025 108.250313 -0.000009 0.263125
nan nan nan 0.000000
nan nan nan 0.000000
nan nan nan 0.000000
nan nan nan 0.000000
80.652420 97.012054 6.250209 0.864637
80.652405 97.012054 5.029337 0.861738
80.652420 97.012054 3.815003 0.864820
80.652420 97.012062 2.604568 0.861357
80.652420 97.012062 1.395431 0.865812
80.652420 97.012054 0.184996 0.857389
92.212646 101.905602 -0.000025 0.226360
98.664993 104.636932 -0.000018 0.235109
102.258575 106.158127 -0.000014 0.239202
104.552773 107.129280 -0.000012 0.202568
106.147324 107.804268 -0.000010 0.201311
107.322113 108.301567 -0.000009 0.194226
nan nan nan 0.000000
nan nan nan 0.000000
nan nan nan 0.000000
nan nan nan 0.000000
80.652405 97.291321 6.237789 0.818906
80.652420 97.291328 5.020485 0.822492
80.652412 97.291321 3.809699 0.819425
80.652420 97.291328 2.602802 0.820996
80.652420 97.291328 1.397198 0.819425
80.652412 97.291321 0.190300 0.819074
92.146812 102.062653 -0.000024 0.233038
98.618065 104.748871 -0.000018 0.243737
102.222183 106.244942 -0.000014 0.261570
104.523109 107.200058 -0.000012 0.216104
106.122330 107.863892 -0.000010 0.242864
107.300568 108.352974 -0.000008 0.209270
nan nan nan 0.000000
nan nan nan 0.000000
nan nan nan 0.000000
nan nan nan 0.000000
80.652412 97.568970 6.225646 0.794125
80.652420 97.568970 5.011830 0.793866
80.652420 97.568977 3.804513 0.794125
80.652412 97.568970 2.601075 0.780026
80.652412 97.568970 1.398925 0.798779
80.652420 97.568977 0.195486 0.803922
92.082077 102.220154 -0.000025 0.237586
98.571922 104.861130 -0.000018 0.233960
102.186409 106.332001 -0.000014 0.202329
104.493935 107.271027 -0.000012 0.205859
106.097755 107.923683 -0.000010 0.231159
107.279373 108.404533 -0.000009 0.241116
nan nan nan 0.000000
nan nan nan 0.000000
nan nan nan 0.000000
nan nan nan 0.000000
80.652420 97.845055 6.213776 0.797055
80.652420 97.845055 5.003370 0.797055
80.652405 97.845055 3.799446 0.796323
80.652420 97.845055 2.599387 0.768475
80.652420 97.845055 1.400613 0.792523
80.652405 97.845055 0.200554 0.775692
92.018448 102.378105 -0.000025 0.240027
98.526566 104.973709 -0.000018 0.221286
102.151230 106.419312 -0.000014 0.236676
104.465263 107.342209 -0.000011 0.222674
106.073593 107.983650 -0.000010 0.216690
107.258537 108.456238 -0.000009 0.244886
nan nan nan 0.000000
nan nan nan 0.000000
nan nan nan 0.000000
nan nan nan 0.000000
80.652420 98.119591 6.202179 0.867124
80.652420 98.119591 4.995103 0.866102
80.652412 98.119591 3.794492 0.863859
80.652420 98.119591 2.597737 0.864179
80.652420 98.119591 1.402263 0.860655
80.652405 98.119591 0.205507 0.861753
91.955910 102.536491 -0.000025 0.236629
98.482002 105.086601 -0.000018 0.234630
102.116661 106.506866 -0.000014 0.209114
104.437080 107.413582 -0.000012 0.228538
106.049850 108.043777 -0.000010 0.252414
107.238075 108.508087 -0.000009 0.195591
nan nan nan 0.000000
nan nan nan 0.000000
nan nan nan 0.000000
nan nan nan 0.000000
80.652420 98.392639 6.190849 0.864088
80.652420 98.392639 4.987028 0.864149
80.652420 98.392639 3.789654 0.867506
80.652420 98.392639 2.596126 0.861448
80.652420 98.392639 1.403875 0.859434
80.652412 98.392639 0.210345 0.858564
91.894493 102.695320 -0.000025 0.245652
98.438225 105.199799 -0.000018 0.259104
102.082718 106.594658 -0.000014 0.210120
104.409409 107.485153 -0.000012 0.199349
106.026543 108.104080 -0.000010 0.210886
107.217972 108.560074 -0.000009 0.194657
nan nan nan 0.000000
nan nan nan 0.000000
nan nan nan 0.000000
nan nan nan 0.000000
80.652420 98.664230 6.179782 0.858732
80.652412 98.664230 4.979142 0.855787
80.652405 98.664230 3.784929 0.865858
80.652420 98.664238 2.594551 0.874540
80.652420 98.664238 1.405449 0.874586
80.652405 98.664230 0.215070 0.875608
91.834175 102.854568 -0.000025 0.222806
98.395233 105.313309 -0.000017 0.229208
102.049377 106.682686 -0.000014 0.211424
104.382225 107.556915 -0.000012 0.234534
106.003639 108.164536 -0.000010 0.201527
107.198227 108.612206 -0.000009 0.220592
nan nan nan 0.000000
nan nan nan 0.000000
nan nan nan 0.000000
nan nan nan 0.000000
80.652412 98.934410 6.168977 0.869810
80.652420 98.934410 4.971438 0.868315
80.652420 98.934410 3.780314 0.869169
80.652420 98.934410 2.593014 0.863951
80.652420 98.934410 1.406986 0.852171
80.652412 98.934410 0.219686 0.857313
91.774979 103.014236 -0.000024 0.223871
98.353043 105.427109 -0.000018 0.233397
102.016655 106.770943 -0.000014 0.192994
104.355545 107.628868 -0.000012 0.208684
105.981171 108.225151 -0.000010 0.253970
107.178848 108.664467 -0.000009 0.208576
nan nan nan 0.000000
nan nan nan 0.000000
nan nan nan 0.000000
nan nan nan 0.000000
80.652405 99.203201 6.158432 0.870024
80.652412 99.203201 4.963922 0.867994
80.652412 99.203201 3.775810 0.866423
80.652420 99.203209 2.591514 0.864256
80.652420 99.203209 1.408486 0.864302
80.652412 99.203201 0.224189 0.862409
91.716896 103.174309 -0.000024 0.221310
98.311646 105.541199 -0.000018 0.224050
101.984543 106.859428 -0.000014 0.211568
104.329376 107.700996 -0.000012 0.223320
105.959114 108.285927 -0.000010 0.261522
107.159836 108.716866 -0.000008 0.189643
nan nan nan 0.000000
nan nan nan 0.000000
nan nan nan 0.000000
nan nan nan 0.000000
80.196594 99.310646 6.203712 0.812146
80.196587 99.310646 4.996198 0.822141
80.196579 99.310638 3.795148 0.813443
80.196594 99.310646 2.597955 0.815900
80.196594 99.310646 1.402045 0.814191
80.196579 99.310638 0.204851 0.810788
91.659935 103.334793 -0.000024 0.222770
98.271042 105.655586 -0.000018 0.232500
101.953056 106.948135 -0.000014 0.253348
104.303703 107.773315 -0.000011 0.234367
105.937485 108.346848 -0.000010 0.224098
107.141190 108.769402 -0.000009 0.230716
nan nan nan 0.000000
nan nan nan 0.000000
nan nan nan 0.000000
nan nan nan 0.000000
79.410751 99.310638 6.289118 0.826780
79.410751 99.310638 5.057069 0.829877
79.410751 99.310638 3.831619 0.829709
79.410751 99.310638 2.610103 0.828199
79.410751 99.310638 1.389896 0.827893
79.410759 99.310638 0.168381 0.823941
91.604088 103.495659 -0.000024 0.237119
98.231232 105.770241 -0.000018 0.216319
101.922188 107.037056 -0.000014 0.231327
104.278542 107.845810 -0.000012 0.233361
105.916290 108.407921 -0.000010 0.228837
107.122910 108.822060 -0.000009 0.246765
nan nan nan 0.000000
nan nan nan 0.000000
nan nan nan 0.000000
nan nan nan 0.000000
78.592278 99.310631 6.378284 0.870176
78.592270 99.310631 5.120623 0.860227
78.592278 99.310631 3.869696 0.868711
78.592278 99.310631 2.622787 0.868772
78.592278 99.310631 1.377213 0.854841
78.592278 99.310631 0.130304 0.863462
91.549370 103.656914 -0.000024 0.232835
98.192230 105.885178 -0.000018 0.221346
101.891945 107.126198 -0.000014 0.218725
104.253883 107.918472 -0.000012 0.216283
105.895515 108.469139 -0.000010 0.232057
107.104996 108.874840 -0.000009 0.260887
nan nan nan 0.000000
nan nan nan 0.000000
nan nan nan 0.000000
nan nan nan 0.000000
77.739014 99.310623 6.471457 0.807706
77.738998 99.310623 5.187033 0.806912
77.738998 99.310623 3.909485 0.816236
77.738998 99.310623 2.636040 0.822370
77.738998 99.310623 1.363960 0.811887
77.738998 99.310623 0.090515 0.813687
91.495781 103.818550 -0.000024 0.229675
98.154037 106.000381 -0.000017 0.223081
101.862320 107.215538 -0.000014 0.219862
104.229736 107.991318 -0.000011 0.204399
105.875168 108.530502 -0.000010 0.249602
107.087456 108.927757 -0.000009 0.256543
nan nan nan 0.000000
nan nan nan 0.000000
nan nan nan 0.000000
nan nan nan 0.000000
76.848587 99.310616 6.568909 0.830671
76.848587 99.310616 5.256492 0.833860
76.848587 99.310608 3.951101 0.822843
76.848587 99.310616 2.649902 0.817609
76.848587 99.310616 1.350098 0.815991
76.848587 99.310608 0.048898 0.829450
