# This PCD file was generated using the MATLABÂ® pcwrite function
# from Computer Vision ToolboxÂ®.
# .PCD v.7 - Point Cloud Data file format
VERSION .7
FIELDS x y z intensity
SIZE 4 4 4 4
TYPE F F F F
COUNT 1 1 1 1
WIDTH 1274
HEIGHT 1
VIEWPOINT 0 0 0 1 0 0 0
POINTS 1274
DATA ascii
75.681664 41.902523 -0.000004 0.224601
73.559395 43.207264 -0.000003 0.205536
72.084343 44.114109 -0.000003 0.207367
70.997589 44.782227 -0.000002 0.203513
82.655228 37.436920 7.451324 0.426673
83.194946 37.099892 6.837765 0.455024
83.029922 37.202946 6.040272 0.607095
80.335976 38.885174 4.822628 0.555734
82.251419 37.689079 4.448852 0.424933
82.635529 37.449223 3.782552 0.533639
83.089684 37.165623 3.094306 0.582086
nan nan nan 0.000000
nan nan nan 0.000000
98.727318 27.400732 -0.000012 0.226863
84.885010 36.044537 -0.000007 0.238208
78.942017 39.755630 -0.000005 0.214332
75.632088 41.822510 -0.000004 0.228885
73.518982 43.142036 -0.000003 0.214943
72.050293 44.059151 -0.000003 0.177459
70.968231 44.734844 -0.000002 0.264298
82.711349 37.221420 7.491971 0.436194
82.942963 37.074532 6.794620 0.550347
87.206970 34.370323 6.958061 0.427832
78.997864 39.576492 4.600014 0.431296
82.008362 37.667252 4.426525 0.419608
nan nan nan 0.000000
82.991684 37.043640 3.093422 0.544594
nan nan nan 0.000000
nan nan nan 0.000000
98.575943 27.160191 -0.000012 0.226970
84.794319 35.900414 -0.000007 0.229484
78.877373 39.652908 -0.000005 0.224014
75.581955 41.742844 -0.000004 0.238783
73.478111 43.077087 -0.000003 0.249135
72.015862 44.004436 -0.000003 0.258183
70.938545 44.687668 -0.000002 0.237813
81.715607 37.680645 7.219860 0.445258
81.082870 38.088142 6.338213 0.478676
87.125885 34.196278 6.962683 0.458579
81.420448 37.870735 5.039074 0.442786
81.810501 37.619530 4.410302 0.441855
nan nan nan 0.000000
79.829575 38.895298 2.913539 0.442832
nan nan nan 0.000000
nan nan nan 0.000000
98.422867 26.920713 -0.000011 0.228897
84.702606 35.756931 -0.000007 0.229903
78.812012 39.550640 -0.000005 0.225331
75.531258 41.663532 -0.000004 0.218066
73.436783 43.012428 -0.000003 0.231937
71.981049 43.949966 -0.000002 0.260816
70.908524 44.640697 -0.000002 0.231758
82.212067 37.182159 7.392148 0.547448
81.328773 37.759789 6.421371 0.419791
nan nan nan 0.000000
78.816216 39.402870 4.591305 0.430274
78.880241 39.361000 4.018466 0.593637
nan nan nan 0.000000
80.024765 38.612541 2.929145 0.431144
nan nan nan 0.000000
nan nan nan 0.000000
98.268150 26.682301 -0.000011 0.228251
84.609909 35.614090 -0.000007 0.226935
78.745941 39.448830 -0.000005 0.215266
75.480019 41.584572 -0.000004 0.243331
73.395012 42.948059 -0.000003 0.239585
71.945854 43.895737 -0.000003 0.219694
70.878181 44.593941 -0.000003 0.187441
81.909042 37.202961 7.325901 0.434379
81.040703 37.779503 6.367075 0.608377
nan nan nan 0.000000
80.948792 37.840527 4.982971 0.562417
78.796021 39.269890 4.016143 0.431373
79.213837 38.992474 3.478129 0.420371
78.939728 39.174473 2.869445 0.414816
nan nan nan 0.000000
nan nan nan 0.000000
98.111763 26.444973 -0.000011 0.229316
84.516212 35.471901 -0.000006 0.236305
78.679153 39.347481 -0.000005 0.209067
75.428223 41.505974 -0.000004 0.241547
73.352791 42.883984 -0.000004 0.231961
71.910286 43.841751 -0.000003 0.241930
70.847511 44.547394 -0.000002 0.236533
81.505936 37.295673 7.229063 0.439826
80.846344 37.740284 6.336894 0.448890
84.223648 35.463753 6.394801 0.445335
86.996773 33.594479 6.078851 0.464652
79.270714 38.802364 4.091438 0.427054
79.134621 38.894096 3.477216 0.439307
78.868248 39.073654 2.869280 0.419608
nan nan nan 0.000000
nan nan nan 0.000000
97.953720 26.208755 -0.000011 0.227078
84.421524 35.330368 -0.000006 0.230848
78.611664 39.246605 -0.000005 0.217193
75.375885 41.427738 -0.000004 0.251923
73.310120 42.820206 -0.000004 0.226516
71.874336 43.788021 -0.000002 0.181158
70.816513 44.501064 -0.000002 0.212430
80.723358 37.654575 7.016390 0.430564
80.671875 37.689804 6.311848 0.437980
80.771301 37.621769 5.654526 0.434516
80.956329 37.495155 5.012534 0.407858
86.267998 33.860546 5.076766 0.439063
79.109581 38.758831 3.481749 0.488106
nan nan nan 0.000000
nan nan nan 0.000000
nan nan nan 0.000000
97.794037 25.973633 -0.000011 0.229639
84.325851 35.189499 -0.000007 0.232045
78.543472 39.146202 -0.000005 0.213160
75.323006 41.349869 -0.000004 0.226839
73.267006 42.756725 -0.000003 0.215912
71.838013 43.734539 -0.000003 0.227665
70.785194 44.454952 -0.000002 0.286439
85.056595 34.474617 8.362144 0.532280
80.485123 37.649818 6.283543 0.432456
80.612053 37.561657 5.636878 0.458091
78.044220 39.345192 4.501122 0.450324
79.363480 38.428879 4.124510 0.430732
79.392395 38.408794 3.517131 0.427756
79.672211 38.214439 2.925714 0.419608
nan nan nan 0.000000
nan nan nan 0.000000
97.632721 25.739632 -0.000011 0.230465
84.229202 35.049301 -0.000006 0.230094
78.474594 39.046272 -0.000005 0.217695
75.269577 41.272373 -0.000004 0.212142
73.223450 42.693546 -0.000003 0.213076
71.801323 43.681316 -0.000003 0.243797
70.753555 44.409061 -0.000002 0.212190
80.872772 37.207130 7.111068 0.428458
80.612312 37.390747 6.338130 0.430198
85.519890 33.931057 6.747298 0.424201
77.911789 39.294529 4.489336 0.419715
78.502144 38.878349 4.013678 0.418341
84.026726 34.983692 3.989488 0.430579
117.585052 11.326126 5.209085 0.414343
nan nan nan 0.000000
nan nan nan 0.000000
97.469772 25.506762 -0.000011 0.232763
84.131569 34.909779 -0.000007 0.231494
78.404999 38.946831 -0.000005 0.227928
75.215607 41.195251 -0.000004 0.227365
73.179459 42.630676 -0.000003 0.211879
71.764259 43.628349 -0.000003 0.213160
70.721603 44.363388 -0.000003 0.190217
80.604332 37.224037 7.053796 0.439353
80.121284 37.569641 6.229291 0.420249
84.263649 34.605900 6.489834 0.420722
82.627411 35.776577 5.361805 0.472419
81.793465 36.373245 4.489255 0.446494
79.669014 37.893230 3.560028 0.432776
83.997849 34.796074 3.196166 0.440024
118.698730 9.968578 3.096652 0.428199
nan nan nan 0.000000
97.305206 25.275034 -0.000011 0.230848
84.032967 34.770947 -0.000007 0.231111
78.334724 38.847878 -0.000005 0.225319
75.161102 41.118507 -0.000004 0.246430
73.135025 42.568111 -0.000003 0.264406
71.726822 43.575638 -0.000003 0.203334
70.689323 44.317940 -0.000002 0.221238
80.340866 37.241268 6.997734 0.561410
nan nan nan 0.000000
86.120956 33.044464 6.930118 0.561181
79.552055 37.814003 4.815011 0.554452
79.663757 37.732906 4.199038 0.420340
79.617348 37.766602 3.562663 0.430442
84.900146 33.930870 3.256979 0.534432
118.953232 9.205612 3.107331 0.448447
nan nan nan 0.000000
97.139023 25.044468 -0.000011 0.231303
83.933403 34.632801 -0.000006 0.223440
78.263756 38.749416 -0.000005 0.223512
75.106064 41.042149 -0.000003 0.218868
73.090157 42.505859 -0.000003 0.196835
71.689026 43.523193 -0.000003 0.197865
70.656731 44.272720 -0.000002 0.228562
80.262764 37.125797 6.999018 0.432380
82.452179 35.512642 6.897705 0.442496
81.347595 36.326496 5.876520 0.484154
80.999184 36.583206 5.096057 0.457496
78.796432 38.206184 4.086360 0.508232
81.529114 36.192753 3.765373 0.474113
83.908615 34.439548 3.202909 0.432197
119.448364 8.254005 3.123065 0.409888
nan nan nan 0.000000
96.971222 24.815071 -0.000011 0.232739
83.832870 34.495361 -0.000006 0.224924
78.192101 38.651451 -0.000004 0.217791
75.050499 40.966175 -0.000004 0.226851
73.044853 42.443924 -0.000003 0.269073
71.650856 43.471016 -0.000003 0.265459
70.623825 44.227730 -0.000002 0.205847
80.272736 36.944382 7.028108 0.522988
82.339546 35.399185 6.892774 0.462287
84.109100 34.076229 6.524034 0.470161
83.323509 34.663555 5.542626 0.428321
80.890327 36.482658 4.397959 0.434791
81.445511 36.067585 3.765985 0.426596
84.864426 33.511532 3.267787 0.437522
116.787811 9.644871 3.074538 0.402838
nan nan nan 0.000000
96.801834 24.586842 -0.000011 0.236054
83.731384 34.358620 -0.000006 0.216834
78.119766 38.553989 -0.000005 0.224553
74.994400 40.890591 -0.000003 0.209689
72.999123 42.382301 -0.000003 0.216523
71.612328 43.419106 -0.000002 0.241799
70.590599 44.182968 -0.000003 0.279761
80.013649 36.965019 6.973156 0.425742
81.450668 35.874954 6.677601 0.441016
79.632988 37.253777 5.525612 0.427787
83.087799 34.633080 5.517417 0.460716
78.352867 38.224827 4.044207 0.423056
81.302429 35.987396 3.760569 0.446403
117.943680 8.192673 5.314199 0.411688
117.586014 8.463989 3.096599 0.455253
nan nan nan 0.000000
96.630844 24.359814 -0.000010 0.233876
83.628937 34.222595 -0.000006 0.217312
78.046753 38.457039 -0.000005 0.241571
74.937775 40.815399 -0.000004 0.223248
72.952957 42.321007 -0.000003 0.199444
71.573433 43.367462 -0.000002 0.291908
70.557068 44.138443 -0.000002 0.214273
81.556244 35.602905 7.487341 0.423163
81.271133 35.822334 6.653689 0.432212
78.968285 37.594654 5.391850 0.442145
79.672134 37.052959 4.896882 0.397192
79.208961 37.409428 4.179415 0.431327
79.058884 37.524925 3.537851 0.432593
116.058823 9.049004 5.215079 0.401404
nan nan nan 0.000000
nan nan nan 0.000000
96.458298 24.133974 -0.000011 0.231135
83.525558 34.087288 -0.000007 0.227425
77.973061 38.360603 -0.000004 0.227916
74.880623 40.740608 -0.000003 0.236090
72.906364 42.260033 -0.000003 0.210993
71.534187 43.316093 -0.000002 0.243678
70.523224 44.094151 -0.000002 0.197386
81.453674 35.488960 7.484523 0.439521
78.971931 37.426701 6.048922 0.431632
nan nan nan 0.000000
78.365692 37.900047 4.666735 0.419608
79.138573 37.296589 4.180969 0.439216
81.019127 35.828255 3.750118 0.524208
81.167068 35.712746 3.057790 0.455528
nan nan nan 0.000000
117.092857 7.661972 0.901792 0.444175
96.284164 23.909346 -0.000011 0.228239
83.421234 33.952698 -0.000007 0.225367
77.898705 38.264675 -0.000005 0.232212
74.822952 40.666210 -0.000003 0.232356
72.859352 42.199387 -0.000003 0.234498
71.494576 43.264999 -0.000002 0.191258
70.489075 44.050095 -0.000002 0.223679
81.341858 35.382530 7.478985 0.529137
83.746658 33.477692 7.386772 0.441276
nan nan nan 0.000000
80.380066 36.144363 5.062600 0.425269
79.066391 37.184917 4.182383 0.417762
78.935333 37.288727 3.541785 0.419364
81.016495 35.640247 3.054177 0.468818
116.695419 7.379078 3.095957 0.456138
nan nan nan 0.000000
96.108459 23.685947 -0.000010 0.229113
83.315964 33.818848 -0.000006 0.218689
77.823677 38.169270 -0.000005 0.229149
74.764771 40.592220 -0.000004 0.248896
72.811920 42.139065 -0.000003 0.244312
71.454613 43.214184 -0.000002 0.301937
70.454620 44.006279 -0.000002 0.280275
79.550430 36.626083 6.933945 0.419608
78.847618 37.190811 6.059509 0.430747
80.730904 35.677551 5.859610 0.446006
80.504784 35.859241 5.103438 0.420005
80.844490 35.586281 4.456979 0.582300
80.739967 35.670265 3.740218 0.433722
80.854622 35.578140 3.049864 0.435813
nan nan nan 0.000000
nan nan nan 0.000000
95.931229 23.463758 -0.000011 0.231901
83.209763 33.685734 -0.000006 0.220376
77.747986 38.074390 -0.000005 0.220352
74.706062 40.518639 -0.000003 0.191605
72.764061 42.079079 -0.000003 0.220819
71.414299 43.163643 -0.000003 0.235755
70.419853 43.962704 -0.000002 0.224984
79.393539 36.576561 6.911201 0.431449
78.720634 37.125034 6.047128 0.422095
80.334450 35.809647 5.788415 0.432853
78.809578 37.052536 4.796615 0.430518
82.448387 34.086632 4.708940 0.422324
81.747749 34.657703 3.856683 0.430671
114.849861 7.676987 5.210374 0.453285
nan nan nan 0.000000
nan nan nan 0.000000
95.752426 23.242832 -0.000011 0.233840
83.102638 33.553368 -0.000006 0.220711
77.671631 37.980049 -0.000004 0.230070
74.646851 40.445473 -0.000003 0.236018
72.715790 42.019432 -0.000003 0.214368
71.373627 43.113396 -0.000002 0.184449
70.384789 43.919376 -0.000002 0.229244
80.500450 35.483810 7.299183 0.476341
78.759552 36.923115 6.081295 0.441978
80.561249 35.433540 5.863732 0.426352
80.590088 35.409698 5.155378 0.438605
81.835236 34.380257 4.632986 0.429892
114.467651 7.401028 7.348419 0.409339
nan nan nan 0.000000
nan nan nan 0.000000
nan nan nan 0.000000
95.572090 23.023153 -0.000010 0.224050
82.994583 33.421749 -0.000006 0.226169
77.594620 37.886238 -0.000004 0.247436
74.587128 40.372719 -0.000003 0.289000
72.667099 41.960117 -0.000003 0.239178
71.332611 43.063423 -0.000003 0.240997
70.349419 43.876289 -0.000002 0.196548
80.561913 35.239517 7.350171 0.431495
78.681351 36.816528 6.083046 0.421118
80.259232 35.493340 5.814541 0.415793
nan nan nan 0.000000
82.215134 33.853153 4.705374 0.419608
81.687836 34.295338 3.871829 0.438575
113.719894 7.433792 5.175203 0.403525
nan nan nan 0.000000
nan nan nan 0.000000
95.390213 22.804752 -0.000010 0.224996
82.885628 33.290890 -0.000006 0.220963
77.516953 37.792969 -0.000004 0.234774
74.526894 40.300385 -0.000003 0.221800
72.617996 41.901150 -0.000003 0.278516
71.291245 43.013744 -0.000002 0.220556
70.313751 43.833454 -0.000002 0.228239
nan nan nan 0.000000
81.118866 34.570045 6.798317 0.444114
83.177422 32.819153 6.534169 0.607599
82.634506 33.280930 5.590661 0.436698
nan nan nan 0.000000
81.625267 34.139332 3.876163 0.444221
113.657227 6.894733 5.189937 0.412711
nan nan nan 0.000000
nan nan nan 0.000000
95.206833 22.587606 -0.000010 0.232141
82.775757 33.160789 -0.000006 0.227988
77.438644 37.700237 -0.000004 0.248788
74.466156 40.228470 -0.000003 0.235659
72.568481 41.842525 -0.000002 0.211999
71.249535 42.964352 -0.000003 0.213267
70.277786 43.790867 -0.000002 0.200450
nan nan nan 0.000000
nan nan nan 0.000000
nan nan nan 0.000000
83.102905 32.653687 5.703958 0.441245
80.262573 35.103886 4.441041 0.432868
81.600540 33.949692 3.884740 0.421820
nan nan nan 0.000000
nan nan nan 0.000000
nan nan nan 0.000000
95.021942 22.371752 -0.000010 0.226599
82.664978 33.031460 -0.000006 0.222925
77.359688 37.608059 -0.000005 0.209653
74.404930 40.156979 -0.000003 0.240793
72.518562 41.784245 -0.000003 0.206302
71.207474 42.915257 -0.000002 0.180990
70.241524 43.748531 -0.000002 0.231147
88.871704 27.374950 10.212712 0.959213
80.715309 34.510971 6.740652 0.427482
nan nan nan 0.000000
80.087494 35.060242 5.132172 0.417121
80.156342 35.000008 4.439654 0.427405
nan nan nan 0.000000
nan nan nan 0.000000
nan nan nan 0.000000
nan nan nan 0.000000
94.835541 22.157200 -0.000010 0.228431
82.553291 32.902920 -0.000006 0.249518
77.280090 37.516438 -0.000005 0.233301
74.343193 40.085922 -0.000003 0.232416
72.468239 41.726318 -0.000002 0.245377
71.165077 42.866455 -0.000002 0.223883
70.204964 43.706455 -0.000002 0.234774
88.526810 27.374962 10.147887 0.968627
80.722488 34.299736 6.771976 0.424231
79.692612 35.213543 5.769723 0.455268
79.931725 35.001381 5.120607 0.433127
80.049408 34.896961 4.438260 0.431098
nan nan nan 0.000000
nan nan nan 0.000000
nan nan nan 0.000000
nan nan nan 0.000000
94.647644 21.943951 -0.000010 0.228383
82.440712 32.775154 -0.000005 0.223117
77.199844 37.425373 -0.000004 0.211149
74.280968 40.015297 -0.000003 0.246263
72.417511 41.668739 -0.000003 0.237909
71.122337 42.817947 -0.000002 0.239214
70.168114 43.664631 -0.000002 0.239249
88.187309 27.374971 10.084474 0.968078
88.501915 27.091873 9.062145 0.968627
79.552223 35.145298 5.758949 0.441886
88.387932 27.194441 6.827582 0.223529
79.944893 34.791958 4.437343 0.456031
88.187332 27.374956 4.646403 0.980392
nan nan nan 0.000000
nan nan nan 0.000000
nan nan nan 0.000000
94.458267 21.732019 -0.000010 0.226695
82.327255 32.648170 -0.000005 0.231889
77.118980 37.334869 -0.000004 0.269768
74.218246 39.945107 -0.000003 0.215972
72.366379 41.611519 -0.000003 0.189320
71.079262 42.769741 -0.000002 0.244372
70.130974 43.623062 -0.000002 0.187895
79.857430 34.671532 7.311034 0.437308
88.163254 27.091885 9.007942 0.968627
88.163261 27.091873 7.903988 0.968627
79.373428 35.113209 5.047949 0.432975
81.227051 33.421646 4.652499 0.431678
87.850166 27.377596 4.625772 0.980087
88.052765 27.192711 3.586685 0.223529
88.053383 27.192148 2.528531 0.223529
88.054001 27.191582 1.471456 0.223529
87.974953 27.263716 0.418490 0.968597
82.212906 32.521988 -0.000006 0.234498
77.037476 37.244930 -0.000004 0.226348
74.155037 39.875359 -0.000003 0.234486
72.314850 41.554657 -0.000002 0.220651
71.035851 42.721836 -0.000002 0.203454
70.093544 43.581760 -0.000002 0.248836
87.523842 27.374987 9.961710 0.968627
87.829735 27.091894 8.954904 0.968627
87.829742 27.091887 7.859302 0.968627
79.549561 34.754761 5.103164 0.468559
80.372513 33.993164 4.535626 0.448997
87.696480 27.215216 4.625502 0.980392
87.916527 27.011576 3.587778 0.223529
87.767578 27.149414 2.525561 0.223529
87.722015 27.191584 1.475455 0.223529
87.644073 27.263714 0.430459 0.980392
82.097687 32.396603 -0.000006 0.231231
76.955353 37.155563 -0.000005 0.248764
74.091347 39.806053 -0.000003 0.208085
72.262932 41.498158 -0.000003 0.232907
70.992111 42.674232 -0.000002 0.234103
70.055824 43.540714 -0.000002 0.227760
87.199577 27.374989 9.902288 0.968627
87.501213 27.091902 8.902996 0.968627
87.501228 27.091894 7.815571 0.968627
87.501236 27.091885 6.741026 0.968627
87.501244 27.091875 5.676865 0.968627
87.501266 27.091852 4.620688 0.968627
87.501259 27.091858 3.570164 0.968627
87.501266 27.091858 2.523015 0.968627
87.620163 26.980272 1.474317 0.223529
87.318146 27.263714 0.442173 0.980392
81.981590 32.272026 -0.000006 0.242612
76.872604 37.066772 -0.000004 0.217097
74.027176 39.737190 -0.000003 0.223811
72.210609 41.442020 -0.000002 0.239501
70.948029 42.626942 -0.000002 0.221202
70.017822 43.499935 -0.000002 0.265950
86.880104 27.374998 9.844126 0.980392
87.177551 27.091913 8.852189 0.968627
87.177567 27.091902 7.772769 0.968627
87.177567 27.091896 6.706130 0.968627
87.177582 27.091887 5.649802 0.968627
87.177605 27.091866 4.601399 0.968627
87.177597 27.091866 3.558608 0.968627
87.177597 27.091871 2.519165 0.968627
87.177597 27.091875 1.480835 0.968627
86.997032 27.263714 0.453637 0.960693
81.864624 32.148270 -0.000005 0.227665
76.789238 36.978569 -0.000004 0.249279
73.962524 39.668781 -0.000003 0.231494
72.157906 41.386250 -0.000003 0.254844
70.903625 42.579956 -0.000003 0.200366
69.979538 43.459427 -0.000002 0.249338
86.565277 27.375006 9.787191 0.980392
86.858597 27.091921 8.802452 0.968627
86.858604 27.091909 7.730866 0.968627
86.858620 27.091900 6.671972 0.968627
86.858627 27.091894 5.623311 0.968627
86.858643 27.091873 4.582518 0.968627
86.858643 27.091877 3.547295 0.968627
86.858643 27.091879 2.515396 0.968627
86.858635 27.091885 1.484604 0.968627
86.680588 27.263716 0.464861 0.966140
81.746796 32.025333 -0.000005 0.222542
76.705261 36.890938 -0.000004 0.206326
73.897392 39.600822 -0.000003 0.204734
72.104813 41.330849 -0.000003 0.239214
70.858894 42.533283 -0.000002 0.286164
69.940964 43.419182 -0.000002 0.198391
86.254974 27.375015 9.731448 0.957504
86.411728 27.221603 8.713717 0.223529
86.411720 27.221607 7.656107 0.223529
86.411720 27.221611 6.611024 0.223529
86.411713 27.221615 5.576040 0.223529
86.411713 27.221615 4.548823 0.223529
86.411713 27.221617 3.527107 0.223529
86.411705 27.221624 2.508672 0.223529
86.411705 27.221624 1.491328 0.223529
86.368698 27.263716 0.475850 0.980392
81.628120 31.903215 -0.000006 0.239501
76.620674 36.803902 -0.000004 0.237371
73.831787 39.533318 -0.000003 0.225834
72.051331 41.275818 -0.000003 0.221022
70.813843 42.486923 -0.000002 0.243247
69.902115 43.379208 -0.000002 0.212178
86.035538 27.289198 9.707390 0.980392
86.158379 27.167290 8.682981 0.223529
86.160217 27.165468 7.630684 0.223529
80.621033 32.662777 5.432679 0.427512
86.163818 27.161884 5.560553 0.223529
86.165619 27.160107 4.537991 0.223529
86.167389 27.158346 3.520740 0.223529
86.169159 27.156590 2.506593 0.223529
86.170929 27.154833 1.493367 0.223529
86.061218 27.263716 0.486608 0.973312
81.508591 31.781931 -0.000005 0.250619
76.535477 36.717457 -0.000004 0.231458
73.765717 39.466278 -0.000003 0.233170
71.997459 41.221165 -0.000002 0.237299
70.768463 42.440880 -0.000002 0.232811
69.862991 43.339504 -0.000002 0.219622
49.224503 64.030899 7.320429 0.647517
49.224503 64.030899 6.587475 0.605417
49.224503 64.030899 5.864812 0.654261
49.224506 64.030899 5.150707 0.599390
49.224503 64.030899 4.443505 0.660319
49.224499 64.030907 3.741610 0.624689
49.224453 64.030952 3.043475 0.643610
49.224407 64.030998 2.347578 0.612039
49.224407 64.030998 1.652422 0.693874
49.224407 64.030998 0.956522 0.613535
49.224407 64.030998 0.258379 0.640620
51.941727 61.296299 -0.000018 0.228179
54.692265 58.528172 -0.000014 0.203382
56.448242 56.760963 -0.000011 0.244061
57.668709 55.532688 -0.000009 0.235276
58.567894 54.627758 -0.000008 0.210431
49.432060 64.030952 7.283922 0.640970
49.432060 64.030945 6.555996 0.635493
49.432056 64.030952 5.838294 0.646616
49.432064 64.030945 5.129088 0.624109
49.432060 64.030952 4.426739 0.614435
49.432060 64.030952 3.729659 0.626154
49.432037 64.030975 3.036313 0.676326
49.432014 64.030998 2.345191 0.627787
49.432014 64.030998 1.654809 0.614664
49.432014 64.030998 0.963686 0.584527
49.432014 64.030998 0.270335 0.652781
52.028122 61.381546 -0.000018 0.213183
54.759270 58.594284 -0.000014 0.245963
56.502865 56.814861 -0.000011 0.235444
57.714725 55.578098 -0.000009 0.196548
58.607571 54.666908 -0.000008 0.276685
49.636768 64.031036 7.248178 0.666423
49.636765 64.031036 6.525177 0.659770
49.636765 64.031036 5.812328 0.642786
49.636765 64.031036 5.107921 0.632486
49.636768 64.031029 4.410322 0.631754
49.636765 64.031036 3.717958 0.630655
49.636780 64.031021 3.029300 0.694362
49.636803 64.030991 2.342854 0.637781
49.636803 64.030998 1.657146 0.663905
49.636803 64.030998 0.970702 0.636118
49.636803 64.030998 0.282046 0.665995
52.115108 61.466190 -0.000019 0.208145
54.826729 58.659927 -0.000014 0.222997
56.557861 56.868378 -0.000011 0.191617
57.761059 55.623184 -0.000010 0.198583
58.647522 54.705780 -0.000008 0.210862
49.838867 64.030968 7.213116 0.586664
49.838867 64.030968 6.494946 0.596475
49.838867 64.030968 5.786858 0.619410
49.838871 64.030968 5.087157 0.618097
49.838867 64.030968 4.394219 0.631525
49.838867 64.030968 3.706480 0.637217
49.838860 64.030975 3.022425 0.611963
49.838844 64.030998 2.340565 0.627939
49.838844 64.030998 1.659435 0.661555
49.838840 64.030998 0.977574 0.670375
49.838844 64.030998 0.293516 0.624186
52.202682 61.550224 -0.000018 0.237897
54.894646 58.725098 -0.000014 0.267901
56.613228 56.921505 -0.000011 0.223596
57.807705 55.667942 -0.000010 0.261629
58.687740 54.744373 -0.000008 0.263808
50.038261 64.030945 7.178783 0.611490
50.038261 64.030945 6.465343 0.618280
50.038261 64.030945 5.761919 0.646235
50.038261 64.030945 5.066826 0.655528
50.038261 64.030945 4.378451 0.618112
50.038258 64.030945 3.695242 0.611444
50.038246 64.030960 3.015692 0.632898
50.038212 64.030998 2.338323 0.634546
50.038212 64.030998 1.661677 0.611444
50.038212 64.030998 0.984306 0.628351
50.038212 64.030998 0.304751 0.624216
52.290840 61.633648 -0.000019 0.222004
54.963020 58.789795 -0.000015 0.275117
56.668968 56.974247 -0.000011 0.241296
57.854664 55.712376 -0.000010 0.206697
58.728230 54.782688 -0.000008 0.203992
50.235023 64.030952 7.145162 0.670558
50.235023 64.030952 6.436352 0.647944
50.235023 64.030952 5.737495 0.624125
50.235023 64.030952 5.046915 0.644022
50.235023 64.030952 4.363009 0.633692
50.235023 64.030960 3.684236 0.675563
50.235016 64.030960 3.009097 0.630030
50.234985 64.030991 2.336126 0.636713
50.234985 64.030991 1.663874 0.682353
50.234985 64.030991 0.990901 0.661097
50.234982 64.030998 0.315759 0.613428
52.379578 61.716454 -0.000019 0.240207
55.031841 58.854012 -0.000014 0.199708
56.725075 57.026600 -0.000012 0.237861
57.901932 55.756477 -0.000009 0.213746
58.768986 54.820717 -0.000008 0.205524
50.429234 64.030991 7.112229 0.646983
50.429230 64.030991 6.407957 0.621225
50.429230 64.030991 5.713573 0.632120
50.429234 64.030991 5.027413 0.621500
50.429230 64.030991 4.347885 0.637964
50.429230 64.030991 3.673456 0.680583
50.429230 64.030991 3.002637 0.660594
50.429230 64.030998 2.333974 0.613184
50.429230 64.030998 1.666026 0.654414
50.429230 64.030998 0.997362 0.620218
50.429226 64.030998 0.326543 0.636072
52.468899 61.798630 -0.000019 0.218988
55.101109 58.917747 -0.000015 0.222267
56.781544 57.078560 -0.000011 0.210419
57.949505 55.800255 -0.000010 0.272879
58.810005 54.858459 -0.000008 0.243570
50.620956 64.031052 7.079970 0.636713
50.620956 64.031052 6.380143 0.646189
50.620956 64.031052 5.690140 0.646555
50.620960 64.031052 5.008309 0.626978
50.620960 64.031052 4.333069 0.625803
50.620960 64.031052 3.662896 0.645640
50.620960 64.031052 2.996311 0.627207
50.621006 64.030998 2.331865 0.616983
50.621006 64.030998 1.668135 0.646555
50.621010 64.030998 1.003693 0.640284
50.621010 64.030998 0.337110 0.639170
52.558784 61.880188 -0.000019 0.250021
55.170822 58.980999 -0.000015 0.238890
56.838371 57.130119 -0.000012 0.189619
57.997383 55.843693 -0.000010 0.213088
58.851288 54.895916 -0.000008 0.204854
50.810390 64.030998 7.048322 0.600977
50.810387 64.030998 6.352854 0.612543
50.810390 64.030998 5.667150 0.632456
50.810390 64.030998 4.989568 0.647059
50.810390 64.030998 4.318535 0.621363
50.810387 64.030998 3.652536 0.700664
50.810394 64.030998 2.990104 0.640528
50.810390 64.030998 2.329799 0.613184
50.810390 64.030998 1.670201 0.654688
50.810394 64.030998 1.009896 0.621408
50.810390 64.030998 0.347463 0.629923
52.649239 61.961117 -0.000019 0.231052
55.240971 59.043762 -0.000015 0.208277
56.895561 57.181290 -0.000012 0.253539
58.045567 55.886799 -0.000010 0.212047
58.892830 54.933083 -0.000008 0.286750
50.997459 64.030975 7.017319 0.637812
50.997463 64.030975 6.326120 0.668650
50.997459 64.030975 5.644628 0.647059
50.997463 64.030968 4.971208 0.621973
50.997459 64.030975 4.304296 0.653056
50.997459 64.030975 3.642387 0.654215
50.997467 64.030960 2.984022 0.659754
50.997440 64.030998 2.327774 0.650034
50.997440 64.030998 1.672226 0.654444
50.997440 64.030998 1.015975 0.675273
50.997440 64.030998 0.357610 0.595010
52.740257 62.041412 -0.000020 0.213937
55.311562 59.106033 -0.000015 0.246873
56.953110 57.232048 -0.000012 0.237263
58.094048 55.929565 -0.000010 0.218581
58.934631 54.969959 -0.000009 0.217145
51.182240 64.030968 6.986941 0.678706
51.182240 64.030968 6.299929 0.625971
51.182236 64.030968 5.622562 0.646967
51.182236 64.030968 4.953219 0.673381
51.182236 64.030968 4.290344 0.678431
51.182236 64.030968 3.632443 0.654932
51.182243 64.030960 2.978065 0.677928
51.182213 64.030998 2.325789 0.613184
51.182213 64.030998 1.674210 0.671061
51.182213 64.030998 1.021932 0.695338
51.182213 64.030998 0.367553 0.642191
52.831833 62.121067 -0.000020 0.231985
55.382584 59.167805 -0.000015 0.219060
57.011005 57.282413 -0.000012 0.206948
58.142822 55.971992 -0.000010 0.239154
58.976692 55.006542 -0.000009 0.252175
51.364784 64.030983 6.957177 0.647242
51.364784 64.030983 6.274265 0.702693
51.364784 64.030983 5.600941 0.671382
51.364784 64.030983 4.935592 0.647425
51.364784 64.030983 4.276674 0.675120
51.364784 64.030991 3.622700 0.677012
51.364792 64.030975 2.972227 0.612314
51.364777 64.030998 2.323844 0.602960
51.364777 64.030998 1.676155 0.688853
51.364777 64.030998 1.027771 0.639841
51.364773 64.030998 0.377298 0.678889
52.923965 62.200081 -0.000020 0.242493
55.454033 59.229088 -0.000015 0.241906
57.069256 57.332367 -0.000012 0.206170
58.191895 56.014080 -0.000010 0.198499
59.019005 55.042831 -0.000009 0.229651
51.545162 64.031013 6.928009 0.612360
51.545158 64.031013 6.249115 0.646510
51.545158 64.031013 5.579754 0.655543
51.545162 64.031013 4.918319 0.646601
51.545162 64.031013 4.263278 0.645167
51.545162 64.031013 3.613152 0.646326
51.545162 64.031013 2.966507 0.634791
51.545174 64.030998 2.321939 0.674693
51.545174 64.030998 1.678061 0.612406
51.545174 64.030998 1.033494 0.706950
51.545174 64.030998 0.386849 0.634928
53.016647 62.278446 -0.000020 0.221681
55.525906 59.289864 -0.000015 0.222997
57.127850 57.381920 -0.000013 0.233792
58.241261 56.055824 -0.000010 0.188075
59.061569 55.078819 -0.000009 0.212741
51.723495 64.030968 6.899395 0.645457
51.723499 64.030968 6.224443 0.625238
51.723495 64.030968 5.558969 0.621927
51.723495 64.030968 4.901374 0.626276
51.723503 64.030960 4.250136 0.655177
51.723499 64.030968 3.603786 0.612497
51.723511 64.030952 2.960895 0.603555
51.723473 64.030998 2.320071 0.612451
51.723473 64.030998 1.679930 0.654887
51.723473 64.030998 1.039102 0.676539
51.723473 64.030998 0.396210 0.655024
53.109867 62.356167 -0.000020 0.269289
55.598206 59.350140 -0.000015 0.250547
57.186790 57.431053 -0.000012 0.247160
58.290916 56.097221 -0.000010 0.255681
59.104382 55.114513 -0.000008 0.186567
51.899712 64.031013 6.871376 0.695277
51.899708 64.031013 6.200285 0.629786
51.899708 64.031013 5.538616 0.612543
51.899708 64.031013 4.884784 0.669947
51.899708 64.031013 4.237269 0.646769
51.899708 64.031013 3.594614 0.670024
51.899704 64.031021 2.955401 0.655390
51.899719 64.030998 2.318239 0.645975
51.899719 64.030998 1.681761 0.654185
51.899723 64.030998 1.044600 0.689769
51.899719 64.030998 0.405387 0.648463
53.203629 62.433239 -0.000021 0.231016
55.670925 59.409908 -0.000015 0.226719
57.246075 57.479778 -0.000012 0.207714
58.340858 56.138268 -0.000010 0.190241
59.147446 55.149910 -0.000008 0.231746
52.073975 64.030998 6.843893 0.643900
52.073975 64.030998 6.176587 0.620661
52.073975 64.030998 5.518650 0.650568
52.073975 64.030998 4.868507 0.696162
52.073975 64.030998 4.224647 0.646784
52.073975 64.030998 3.585618 0.629877
52.073978 64.030991 2.950010 0.646647
52.073975 64.030998 2.316444 0.627710
52.073975 64.030998 1.683556 0.673075
52.073975 64.030998 1.049990 0.664637
52.073975 64.030998 0.414382 0.618387
53.297932 62.509647 -0.000020 0.217480
55.744057 59.469170 -0.000015 0.209904
57.305695 57.528091 -0.000012 0.239860
58.391087 56.178970 -0.000010 0.259762
59.190754 55.185001 -0.000009 0.184066
52.246284 64.030991 6.816954 0.616632
52.246288 64.030991 6.153358 0.644068
52.246288 64.030991 5.499082 0.691814
52.246284 64.030991 4.852553 0.697063
52.246284 64.030991 4.212275 0.641718
52.246284 64.030991 3.576799 0.617456
52.246292 64.030983 2.944726 0.637217
52.246284 64.030998 2.314684 0.622721
52.246284 64.030998 1.685316 0.657694
52.246284 64.030998 1.055273 0.663996
52.246281 64.030998 0.423200 0.647807
53.392765 62.585400 -0.000020 0.208719
55.817604 59.527916 -0.000015 0.230310
57.365650 57.575981 -0.000012 0.205033
58.441597 56.219318 -0.000010 0.273346
59.234306 55.219791 -0.000009 0.213255
52.416691 64.030998 6.790548 0.648310
52.416691 64.030998 6.130591 0.652247
52.416691 64.030998 5.479900 0.661112
52.416695 64.030998 4.836916 0.642405
52.416691 64.030998 4.200147 0.648432
52.416691 64.030998 3.568155 0.647471
52.416698 64.030991 2.939548 0.616922
52.416687 64.030998 2.312959 0.622644
52.416687 64.030998 1.687041 0.676356
52.416691 64.030998 1.060452 0.641566
52.416687 64.030998 0.431844 0.652369
53.488117 62.660488 -0.000021 0.254688
55.891556 59.586151 -0.000015 0.218653
57.425938 57.623455 -0.000013 0.200342
58.492390 56.259315 -0.000010 0.209438
59.278103 55.254276 -0.000009 0.188602
52.585243 64.031006 6.764661 0.620371
52.585243 64.031006 6.108271 0.619348
52.585243 64.031006 5.461097 0.635294
52.585247 64.031006 4.821587 0.633600
52.585243 64.031006 4.188259 0.641566
52.585243 64.031006 3.559682 0.619303
52.585243 64.031006 2.934471 0.678157
52.585251 64.030998 2.311268 0.622446
52.585251 64.030998 1.688732 0.692775
52.585251 64.030998 1.065529 0.636484
52.585251 64.030998 0.440318 0.638102
53.584003 62.734901 -0.000020 0.234534
55.965919 59.643860 -0.000015 0.253886
57.486557 57.670509 -0.000013 0.253001
58.543461 56.298950 -0.000010 0.190504
59.322136 55.288456 -0.000009 0.184389
52.751991 64.031013 6.739285 0.634318
52.751995 64.031013 6.086389 0.623743
52.751991 64.031013 5.442662 0.664622
52.751991 64.031013 4.806560 0.627771
52.751991 64.031013 4.176603 0.637507
52.751991 64.031013 3.551375 0.659907
52.751984 64.031029 2.929495 0.627558
52.752007 64.030998 2.309610 0.630884
52.752007 64.030998 1.690390 0.648341
52.752007 64.030998 1.070507 0.661280
52.752007 64.030998 0.448626 0.641794
53.680401 62.808651 -0.000020 0.230645
56.040676 59.701057 -0.000015 0.240913
57.547508 57.717133 -0.000013 0.217959
58.594807 56.338234 -0.000010 0.219945
59.366409 55.322323 -0.000009 0.237215
52.917000 64.030998 6.714397 0.623316
52.917000 64.030998 6.064932 0.666575
52.917000 64.030998 5.424584 0.678309
52.917000 64.030998 4.791821 0.619989
52.917000 64.030998 4.165174 0.620447
52.917000 64.030998 3.543228 0.665888
52.917007 64.030991 2.924612 0.611765
52.917000 64.030998 2.307984 0.614618
52.917000 64.030998 1.692016 0.629877
52.917000 64.030998 1.075387 0.658579
52.917000 64.030998 0.456771 0.617456
53.777309 62.881725 -0.000021 0.233672
56.115833 59.757729 -0.000016 0.256364
57.608776 57.763336 -0.000013 0.211221
58.646423 56.377155 -0.000010 0.289981
59.410915 55.355885 -0.000009 0.224445
53.080276 64.031006 6.690004 0.657572
53.080273 64.031013 6.043900 0.640620
53.080273 64.031013 5.406866 0.664668
53.080273 64.031006 4.777376 0.629129
53.080273 64.031013 4.153971 0.623529
53.080273 64.031013 3.535244 0.642145
53.080261 64.031029 2.919830 0.637415
53.080284 64.030998 2.306391 0.624537
53.080284 64.030998 1.693609 0.637415
53.080280 64.030998 1.080172 0.639429
53.080280 64.030998 0.464757 0.672267
53.874725 62.954124 -0.000021 0.234391
56.191383 59.813877 -0.000016 0.211125
57.670368 57.809105 -0.000013 0.208791
58.698315 56.415718 -0.000010 0.189559
59.455658 55.389133 -0.000009 0.243881
53.241882 64.031006 6.666085 0.670909
53.241882 64.031006 6.023276 0.611902
53.241882 64.031006 5.389490 0.620829
53.241882 64.031006 4.763211 0.620172
53.241882 64.031006 4.142985 0.628077
53.241882 64.031006 3.527414 0.612406
53.241882 64.031006 2.915138 0.646860
53.241886 64.030998 2.304828 0.633692
53.241886 64.030998 1.695172 0.636225
53.241886 64.031006 1.084862 0.632959
53.241886 64.030998 0.472587 0.643381
53.972645 63.025837 -0.000021 0.223440
56.267326 59.869492 -0.000016 0.244132
57.732277 57.854446 -0.000013 0.191115
58.750473 56.453915 -0.000010 0.200809
59.500626 55.422070 -0.000009 0.218916
53.398487 64.035706 6.644085 0.678431
53.401859 64.031006 6.003055 0.642130
53.396774 64.038101 5.374044 0.660533
53.398476 64.035721 4.750185 0.709804
53.398476 64.035721 4.132884 0.712291
53.398491 64.035706 3.520211 0.692378
53.401863 64.030998 2.910538 0.646662
53.401863 64.030998 2.303296 0.647242
53.401863 64.030998 1.696704 0.642817
53.401863 64.030998 1.089462 0.613413
53.401863 64.030998 0.480263 0.675975
54.071068 63.096863 -0.000021 0.228861
56.343651 59.924580 -0.000016 0.234546
57.794502 57.899353 -0.000013 0.225594
58.802891 56.491749 -0.000011 0.256304
59.545830 55.454689 -0.000009 0.268188
53.514675 64.095551 6.639434 0.678431
53.560242 64.031006 5.983232 0.583688
53.553127 64.041077 5.357998 0.776471
53.514671 64.095558 4.747430 0.678431
53.514671 64.095558 4.130747 0.678431
53.553127 64.041084 3.513222 0.769574
53.560246 64.030998 2.906029 0.647379
53.560242 64.030998 2.301794 0.608576
53.560242 64.030998 1.698206 0.630701
53.560246 64.030998 1.093971 0.616907
53.560246 64.030998 0.487789 0.614893
54.169975 63.167206 -0.000021 0.220316
56.420364 59.979130 -0.000016 0.206805
57.857037 57.943825 -0.000013 0.247519
58.855576 56.529213 -0.000011 0.268978
59.591255 55.486996 -0.000009 0.189080
53.672180 64.095551 6.616795 0.678431
53.717072 64.031006 5.963794 0.632853
53.710060 64.041084 5.341613 0.776471
53.672173 64.095558 4.734023 0.678431
53.672173 64.095558 4.120349 0.678431
53.710060 64.041084 3.505838 0.778683
53.717072 64.031006 2.901608 0.664347
53.717072 64.030998 2.300321 0.667597
53.717072 64.030998 1.699679 0.646235
53.717072 64.030998 1.098392 0.646235
53.717072 64.030998 0.495168 0.635050
54.269375 63.236855 -0.000021 0.224397
56.497452 60.033142 -0.000016 0.208420
57.919880 57.987858 -0.000013 0.220089
58.908524 56.566311 -0.000011 0.242852
59.636906 55.518982 -0.000009 0.212286
53.828156 64.095551 6.594599 0.678431
53.872383 64.031006 5.944738 0.634012
53.865475 64.041092 5.325549 0.770733
53.828152 64.095558 4.720880 0.678431
53.828156 64.095558 4.110155 0.678431
53.865479 64.041084 3.498599 0.780026
53.872379 64.031013 2.897274 0.647639
53.872387 64.030998 2.298877 0.626062
53.872383 64.030998 1.701123 0.634607
53.872383 64.030998 1.102726 0.652598
53.872387 64.030998 0.502403 0.616358
54.369263 63.305805 -0.000021 0.201934
56.574917 60.086617 -0.000016 0.254939
57.983036 58.031448 -0.000013 0.187776
58.961727 56.603035 -0.000011 0.206087
59.682781 55.550648 -0.000009 0.261342
53.982651 64.095551 6.572838 0.678431
54.026215 64.031006 5.926054 0.677562
54.019417 64.041084 5.309796 0.710842
53.982647 64.095558 4.707992 0.678431
53.982651 64.095558 4.100160 0.678431
54.019417 64.041084 3.491501 0.776471
54.026211 64.031013 2.893024 0.632868
54.026222 64.030998 2.297462 0.635569
54.026222 64.030998 1.702538 0.629297
54.026222 64.030998 1.106977 0.617395
54.026222 64.030998 0.509496 0.602441
54.469624 63.374058 -0.000021 0.229795
56.652756 60.139549 -0.000016 0.221752
58.046486 58.074604 -0.000013 0.192563
59.015182 56.639393 -0.000011 0.200893
59.728874 55.581993 -0.000009 0.221609
54.135696 64.095551 6.551501 0.678431
54.178608 64.031006 5.907737 0.631708
54.172585 64.040062 5.294132 0.770672
54.135693 64.095558 4.695357 0.678431
54.135696 64.095558 4.090361 0.678431
54.171906 64.041084 3.484542 0.776471
54.178612 64.030998 2.888857 0.630503
54.178612 64.030998 2.296074 0.617746
54.178612 64.030998 1.703926 0.604013
54.178612 64.030998 1.111143 0.667124
54.178612 64.030998 0.516451 0.623240
54.570461 63.441608 -0.000022 0.242804
56.730957 60.191936 -0.000016 0.219132
58.110241 58.117313 -0.000014 0.219407
59.068897 56.675369 -0.000011 0.234343
59.775185 55.613018 -0.000009 0.254963
54.287323 64.095551 6.530584 0.678431
54.329590 64.031006 5.889778 0.619028
54.296429 64.081650 5.288037 0.114473
54.287323 64.095558 4.682969 0.678431
54.287323 64.095551 4.080754 0.678431
54.322994 64.041077 3.477720 0.761807
54.329590 64.031006 2.884772 0.646494
54.329597 64.030998 2.294713 0.657816
54.329597 64.030998 1.705287 0.621118
54.329597 64.030998 1.115228 0.632944
54.329597 64.030998 0.523268 0.630701
54.671768 63.508450 -0.000021 0.211065
56.809525 60.243782 -0.000017 0.247447
58.174290 58.159573 -0.000013 0.227772
59.122856 56.710976 -0.000011 0.253240
59.821712 55.643719 -0.000010 0.254257
54.437576 64.095551 6.510076 0.678431
54.479198 64.031006 5.872170 0.684932
54.437576 64.095551 5.276164 0.678431
54.437576 64.095551 4.670825 0.678431
54.437576 64.095551 4.071336 0.678431
54.472702 64.041084 3.471030 0.741756
54.479202 64.030998 2.880767 0.652064
54.479206 64.030998 2.293380 0.625971
54.479206 64.030998 1.706621 0.629923
54.479202 64.030998 1.119233 0.656092
54.479206 64.030998 0.529953 0.641367
54.773537 63.574585 -0.000022 0.230848
56.888451 60.295067 -0.000016 0.231829
58.238636 58.201385 -0.000013 0.219443
59.177063 56.746201 -0.000011 0.243737
59.868450 55.674088 -0.000010 0.190038
54.586483 64.095551 6.489971 0.678431
54.627468 64.031006 5.854909 0.630198
54.586479 64.095551 5.261559 0.678431
54.586479 64.095551 4.658918 0.678431
54.586483 64.095551 4.062102 0.678431
54.627468 64.031006 3.463494 0.611978
54.627472 64.031006 2.876841 0.664866
54.627472 64.030998 2.292072 0.651331
54.627472 64.030998 1.707928 0.655558
54.627472 64.030998 1.123159 0.642481
54.627476 64.030998 0.536506 0.625742
54.875771 63.640007 -0.000022 0.234941
56.967735 60.345810 -0.000017 0.203358
58.303272 58.242748 -0.000013 0.245688
59.231514 56.781052 -0.000011 0.212681
59.915401 55.704136 -0.000009 0.276996
54.768131 64.041077 6.454169 0.806165
54.774426 64.031013 5.837989 0.619303
54.768131 64.041077 5.235552 0.805035
54.768131 64.041077 4.637716 0.806546
54.768135 64.041077 4.045659 0.774960
54.774429 64.031006 3.457070 0.623407
54.774429 64.031006 2.872992 0.640772
54.774433 64.030998 2.290790 0.636591
54.774433 64.030998 1.709211 0.634699
54.774433 64.030998 1.127008 0.634928
54.774433 64.030998 0.542930 0.612314
54.978455 63.704720 -0.000022 0.218784
57.047371 60.395992 -0.000017 0.205895
58.368195 58.283657 -0.000013 0.204399
59.286209 56.815514 -0.000011 0.215003
59.962563 55.733856 -0.000010 0.273071
54.880371 64.095558 6.450943 0.678431
54.920113 64.031006 5.821399 0.618997
54.892731 64.075485 5.228918 0.837003
54.880363 64.095573 4.635808 0.678431
54.898846 64.065552 4.040123 0.827451
54.920113 64.031006 3.450773 0.677256
54.920113 64.031006 2.869218 0.647135
54.920116 64.030998 2.289533 0.654261
54.920116 64.030998 1.710468 0.611704
54.920116 64.030998 1.130781 0.612467
54.920116 64.030998 0.549228 0.612039
55.081585 63.768707 -0.000022 0.218437
57.127354 60.445618 -0.000017 0.240015
58.433395 58.324120 -0.000014 0.257070
59.341145 56.849598 -0.000011 0.215840
60.009930 55.763241 -0.000009 0.184891
55.025429 64.095558 6.432002 0.678431
55.064545 64.031006 5.805139 0.614618
55.027241 64.092560 5.218813 0.122393
55.025421 64.095573 4.624592 0.678431
55.043610 64.065552 4.031443 0.851438
55.064545 64.031006 3.444599 0.641032
55.064552 64.030998 2.865519 0.625971
55.064552 64.030998 2.288301 0.645823
55.064552 64.030998 1.711700 0.638834
55.064552 64.030998 1.134480 0.652064
55.064552 64.030998 0.555401 0.646555
55.185165 63.831974 -0.000022 0.242720
57.207684 60.494682 -0.000017 0.220041
58.498886 58.364113 -0.000013 0.213590
59.396313 56.883301 -0.000011 0.187979
60.057499 55.792297 -0.000009 0.187309
55.201759 64.041077 6.397545 0.776471
55.207760 64.031013 5.789200 0.637629
55.201759 64.041077 5.194421 0.776471
55.201759 64.041077 4.604185 0.776471
55.201759 64.041077 4.019654 0.794125
55.207764 64.031006 3.438548 0.651011
55.207767 64.031006 2.861894 0.690379
55.207767 64.030998 2.287093 0.616159
55.207767 64.030998 1.712907 0.646937
55.207767 64.030998 1.138106 0.659907
55.207767 64.030998 0.561452 0.613321
55.289185 63.894516 -0.000022 0.234307
57.288353 60.543190 -0.000017 0.229005
58.564648 58.403660 -0.000014 0.303517
59.451717 56.916611 -0.000011 0.248908
60.105270 55.821022 -0.000010 0.237000
55.349796 64.031006 6.376490 0.622217
55.349792 64.031006 5.773576 0.653498
55.349792 64.031013 5.179126 0.633921
55.349792 64.031013 4.591717 0.644968
55.349792 64.031006 4.009984 0.613581
55.349792 64.031006 3.432616 0.621973
55.349796 64.031006 2.858340 0.695964
55.349796 64.031006 2.285909 0.629160
55.349796 64.031006 1.714091 0.661845
55.349800 64.030998 1.141659 0.623346
55.349800 64.030998 0.567384 0.644648
55.393635 63.956337 -0.000022 0.232667
57.369358 60.591133 -0.000017 0.201000
58.630688 58.442741 -0.000013 0.232476
59.507355 56.949539 -0.000011 0.252869
60.153240 55.849411 -0.000010 0.207307
55.490665 64.031006 6.358732 0.634745
55.490662 64.031006 5.758264 0.677607
55.490662 64.031013 5.166226 0.620615
55.490662 64.031013 4.581200 0.621637
55.490662 64.031006 4.001828 0.671077
55.490662 64.031006 3.426804 0.653803
55.490662 64.031006 2.854858 0.639918
55.484840 64.041084 2.284940 0.751995
55.484840 64.041092 1.715060 0.768765
55.484840 64.041092 1.144570 0.766003
55.484840 64.041092 0.572242 0.765026
55.484840 64.041084 -0.003166 0.744686
57.450699 60.638504 -0.000017 0.219287
58.696995 58.481361 -0.000014 0.198212
59.563217 56.982075 -0.000012 0.239369
60.201408 55.877468 -0.000010 0.208815
55.630402 64.031006 6.341327 0.663859
55.630402 64.031006 5.743256 0.639475
55.630402 64.031013 5.153583 0.608820
55.630402 64.031006 4.570892 0.629328
55.630402 64.031006 3.993834 0.668803
55.630405 64.031006 3.421105 0.670756
55.630405 64.031006 2.851444 0.650889
55.582287 64.115646 2.285205 0.125139
55.610756 64.065567 1.715737 0.135470
55.610756 64.065567 1.146603 0.148867
55.616444 64.055565 0.576578 0.469780
55.603817 64.077774 -0.000023 0.221190
57.532364 60.685310 -0.000017 0.210431
58.763573 58.519524 -0.000014 0.214799
59.619308 57.014221 -0.000011 0.251493
60.249771 55.905186 -0.000010 0.233505
55.769035 64.031006 6.324270 0.654322
55.769035 64.031006 5.728549 0.646967
55.769035 64.031006 5.141192 0.655222
55.769035 64.031006 4.560792 0.647211
55.769035 64.031006 3.986001 0.661982
55.769035 64.031006 3.415522 0.635477
55.769035 64.031006 2.848099 0.703792
55.727345 64.105553 2.283895 0.678431
55.749710 64.065567 1.716854 0.151629
55.749706 64.065567 1.149956 0.132036
55.755302 64.055565 0.582170 0.470741
55.755299 64.055565 0.010762 0.461326
57.614357 60.731544 -0.000017 0.244827
58.830414 58.557213 -0.000014 0.213040
59.675617 57.045971 -0.000012 0.206841
60.298325 55.932564 -0.000010 0.277164
55.906593 64.031006 6.307556 0.646662
55.906593 64.031006 5.714138 0.646967
55.906593 64.031006 5.129052 0.690867
55.906593 64.031006 4.550895 0.669978
55.906593 64.031006 3.978325 0.657420
55.906593 64.031006 3.410051 0.624262
55.906593 64.031006 2.844821 0.690242
55.865582 64.105553 2.282798 0.678431
55.887581 64.065559 1.717949 0.135729
55.887585 64.065559 1.153241 0.130724
55.893082 64.055565 0.587650 0.462745
55.893082 64.055565 0.018451 0.462745
57.696671 60.777206 -0.000018 0.224290
58.897518 58.594437 -0.000014 0.202819
59.732151 57.077332 -0.000012 0.201527
60.347069 55.959602 -0.000010 0.238591
56.043098 64.030998 6.291178 0.607431
56.043098 64.031006 5.700017 0.667033
56.043095 64.031006 5.117155 0.674800
56.043095 64.031006 4.541196 0.640421
56.043098 64.031006 3.970803 0.623941
56.043095 64.031006 3.404691 0.624445
56.043095 64.031006 2.841609 0.624445
56.002762 64.105545 2.281723 0.678431
56.024399 64.065559 1.719021 0.142962
56.024399 64.065559 1.156460 0.129412
56.029808 64.055565 0.593020 0.462745
56.029808 64.055565 0.025984 0.463096
57.779305 60.822285 -0.000017 0.233744
58.964882 58.631187 -0.000014 0.290556
59.788902 57.108295 -0.000011 0.244467
60.396004 55.986301 -0.000010 0.230669
56.178574 64.031006 6.275134 0.602808
56.178574 64.031006 5.686182 0.613275
56.178574 64.031006 5.105499 0.632609
56.178574 64.031006 4.531693 0.627161
56.178574 64.031006 3.963434 0.648035
56.178570 64.031006 3.399438 0.632471
56.178566 64.031013 2.838463 0.663661
56.138908 64.105545 2.280670 0.678431
56.160187 64.065552 1.720072 0.118898
56.160187 64.065559 1.159615 0.148699
56.165504 64.055565 0.598281 0.462745
56.165504 64.055565 0.033366 0.452033
57.862244 60.866791 -0.000017 0.239597
59.032501 58.667469 -0.000014 0.207966
59.845867 57.138863 -0.000012 0.243151
60.445122 56.012657 -0.000010 0.219778
56.313046 64.031006 6.259415 0.634134
56.313046 64.031006 5.672628 0.634470
56.313042 64.031006 5.094081 0.657557
56.313042 64.031006 4.522386 0.633509
56.313042 64.031006 3.956215 0.638224
56.313042 64.031006 3.394292 0.634974
56.313038 64.031013 2.835380 0.660914
56.274044 64.105545 2.279637 0.678431
56.294968 64.065559 1.721101 0.134783
56.294968 64.065559 1.162705 0.136919
56.300194 64.055565 0.603434 0.463386
56.300194 64.055565 0.040597 0.453590
57.945496 60.910721 -0.000018 0.225750
59.100368 58.703281 -0.000014 0.214883
59.903046 57.169033 -0.000012 0.259798
60.494423 56.038670 -0.000010 0.199444
56.446537 64.031006 6.244018 0.628031
56.446541 64.031006 5.659353 0.640253
56.446537 64.031006 5.082896 0.630014
56.446537 64.031006 4.513268 0.654597
56.446541 64.031006 3.949143 0.648081
56.446537 64.031006 3.389253 0.652079
56.446533 64.031013 2.832360 0.624567
56.408199 64.105553 2.278627 0.678431
56.428768 64.065552 1.722109 0.129412
56.428768 64.065552 1.165732 0.148699
56.433907 64.055557 0.608483 0.462745
56.433910 64.055557 0.047680 0.464378
58.029049 60.954063 -0.000018 0.247555
59.168484 58.738617 -0.000014 0.205488
59.960434 57.198799 -0.000012 0.303206
60.543900 56.064339 -0.000010 0.188913
56.579075 64.031006 6.228937 0.656580
56.579075 64.031006 5.646350 0.640299
56.579075 64.031006 5.071941 0.623209
56.579075 64.031006 4.504336 0.622721
56.579079 64.031006 3.942217 0.622843
56.579075 64.031006 3.384316 0.625147
56.579071 64.031013 2.829402 0.626169
56.541393 64.105545 2.277637 0.678431
56.561611 64.065552 1.723097 0.118654
56.561611 64.065559 1.168696 0.132097
56.566662 64.055565 0.613427 0.451896
56.566662 64.055565 0.054618 0.460761
58.112907 60.996826 -0.000018 0.229412
59.236847 58.773476 -0.000014 0.231327
60.018024 57.228165 -0.000012 0.220759
60.593559 56.089657 -0.000010 0.233613
56.710686 64.030998 6.214167 0.635172
56.710682 64.031006 5.633614 0.668223
56.710682 64.031006 5.061213 0.690745
56.710682 64.031006 4.495590 0.672877
56.710682 64.031006 3.935434 0.612070
56.710686 64.031006 3.379481 0.623529
