# This PCD file was generated using the MATLAB® pcwrite function
# from Computer Vision Toolbox®.
# .PCD v.7 - Point Cloud Data file format
VERSION .7
FIELDS x y z intensity
SIZE 4 4 4 4
TYPE F F F F
COUNT 1 1 1 1
WIDTH 1255
HEIGHT 1
VIEWPOINT 0 0 0 1 0 0 0
POINTS 1255
DATA ascii
79.295341 99.310623 0.236710 0.869551
79.213310 99.470505 -0.000003 0.227641
79.231506 99.310623 4.037766 0.761669
79.231506 99.310623 3.757039 0.748531
79.231506 99.310623 3.480253 0.769207
79.231506 99.310623 3.206746 0.791028
79.231506 99.310623 2.935882 0.774685
79.231506 99.310616 2.667050 0.759655
79.231506 99.310623 2.399658 0.781521
79.231506 99.310623 2.133124 0.785321
79.231506 99.310623 1.866876 0.767376
79.231506 99.310616 1.600342 0.769512
79.231506 99.310616 1.332950 0.768643
79.231506 99.310623 1.064118 0.772793
79.231506 99.310616 0.793254 0.759655
79.231506 99.310623 0.519747 0.763256
79.231506 99.310623 0.242961 0.759655
79.163628 99.445229 -0.000003 0.222842
79.168121 99.310623 4.030666 0.866361
79.168121 99.310623 3.750917 0.868788
79.168121 99.310623 3.475096 0.842817
79.168121 99.310623 3.202541 0.864515
79.168121 99.310623 2.932621 0.867674
79.168121 99.310623 2.664726 0.856382
79.168121 99.310616 2.398265 0.871382
79.168121 99.310616 2.132660 0.862715
79.168121 99.310616 1.867340 0.847227
79.168121 99.310616 1.601735 0.867552
79.168121 99.310616 1.335274 0.871107
79.168121 99.310616 1.067379 0.860227
79.168121 99.310616 0.797458 0.867414
79.168121 99.310616 0.524904 0.872145
79.168121 99.310616 0.249082 0.869276
79.113770 99.420303 -0.000003 0.245987
79.105171 99.310623 4.023714 0.864149
79.105171 99.310623 3.744923 0.891585
79.105171 99.310623 3.470046 0.876265
79.105171 99.310623 3.198424 0.865232
79.105171 99.310623 2.929428 0.861967
79.105171 99.310616 2.662450 0.880903
79.105171 99.310623 2.396902 0.870909
79.105171 99.310623 2.132206 0.861601
79.105171 99.310623 1.867794 0.858213
79.105171 99.310616 1.603098 0.877180
79.105171 99.310616 1.337549 0.857298
79.105171 99.310616 1.070572 0.866117
79.105171 99.310616 0.801575 0.864225
79.105171 99.310623 0.529954 0.882185
79.105171 99.310623 0.255077 0.881727
79.063736 99.395721 -0.000004 0.303278
79.042648 99.310616 4.016908 0.863279
79.042648 99.310623 3.739054 0.850614
79.042656 99.310616 3.465102 0.862684
79.042648 99.310623 3.194393 0.851606
79.042648 99.310623 2.926302 0.859388
79.042648 99.310623 2.660222 0.875792
79.042648 99.310623 2.395567 0.881163
79.042648 99.310623 2.131762 0.869261
79.042648 99.310623 1.868239 0.876753
79.042648 99.310623 1.604433 0.855024
79.042648 99.310623 1.339778 0.850813
79.042648 99.310616 1.073698 0.859632
79.042648 99.310623 0.805606 0.857328
79.042656 99.310616 0.534898 0.863905
79.042656 99.310616 0.260946 0.864927
79.013535 99.371498 -0.000004 0.225881
78.980545 99.310623 4.010244 0.803601
78.980545 99.310623 3.733308 0.829633
78.980545 99.310623 3.460261 0.807843
78.980545 99.310623 3.190447 0.814862
78.980545 99.310623 2.923241 0.794385
78.980545 99.310623 2.658041 0.810407
78.980545 99.310623 2.394260 0.817716
78.980545 99.310623 2.131326 0.796201
78.980545 99.310623 1.868674 0.813565
78.980545 99.310616 1.605740 0.809491
78.980545 99.310616 1.341959 0.802289
78.980545 99.310623 1.076758 0.824186
78.980545 99.310616 0.809552 0.825849
78.980545 99.310616 0.539739 0.813535
78.980545 99.310616 0.266691 0.824613
78.963165 99.347626 -0.000003 0.205775
78.918846 99.310623 4.003722 0.863188
78.918846 99.310623 3.727685 0.870024
78.918846 99.310623 3.455523 0.852567
78.918846 99.310616 3.186585 0.871244
78.918846 99.310623 2.920246 0.858045
78.918846 99.310623 2.655906 0.852476
78.918846 99.310623 2.392981 0.857343
78.918846 99.310623 2.130900 0.847379
78.918846 99.310616 1.869100 0.868040
78.918846 99.310616 1.607019 0.868391
78.918846 99.310616 1.344094 0.868330
78.918846 99.310623 1.079754 0.869169
78.918846 99.310616 0.813414 0.847684
78.918846 99.310616 0.544477 0.846342
78.918846 99.310616 0.272315 0.879072
78.912628 99.324104 -0.000004 0.214368
78.857544 99.310623 3.997339 0.882353
78.857544 99.310623 3.722181 0.866438
78.857544 99.310623 3.450886 0.866026
78.857544 99.310623 3.182805 0.869856
78.857544 99.310623 2.917315 0.851469
78.857544 99.310623 2.653816 0.858030
78.857544 99.310623 2.391729 0.873014
78.857544 99.310623 2.130483 0.868818
78.857544 99.310623 1.869517 0.867887
78.857544 99.310616 1.608271 0.846708
78.857544 99.310623 1.346183 0.879057
78.857544 99.310623 1.082685 0.874006
78.857544 99.310623 0.817195 0.868559
78.857544 99.310623 0.549113 0.860822
78.857544 99.310623 0.277819 0.865507
78.857544 99.310623 0.002661 0.850156
78.796623 99.310623 3.991094 0.869871
78.796623 99.310623 3.716796 0.875441
78.796623 99.310623 3.446350 0.857114
78.796623 99.310623 3.179107 0.850843
78.796623 99.310623 2.914446 0.869505
78.796623 99.310623 2.651772 0.851850
78.796623 99.310623 2.390504 0.868833
78.796623 99.310616 2.130075 0.866392
78.796623 99.310616 1.869925 0.854047
78.796623 99.310616 1.609496 0.865797
78.796623 99.310616 1.348228 0.874174
78.796623 99.310616 1.085554 0.870115
78.796623 99.310616 0.820893 0.862211
78.796623 99.310616 0.553650 0.857328
78.796623 99.310616 0.283204 0.844999
78.796623 99.310616 0.008906 0.848112
78.736084 99.310623 3.984982 0.820752
78.736084 99.310623 3.711527 0.833951
78.736084 99.310623 3.441911 0.804227
78.736084 99.310623 3.175488 0.828672
78.736084 99.310623 2.911640 0.809186
78.736084 99.310623 2.649772 0.812711
78.736084 99.310623 2.389305 0.800748
78.736084 99.310623 2.129676 0.828305
78.736084 99.310616 1.870324 0.799573
78.736084 99.310616 1.610694 0.815717
78.736084 99.310616 1.350228 0.817243
78.736084 99.310616 1.088360 0.805875
78.736084 99.310616 0.824512 0.809094
78.736084 99.310616 0.558088 0.810468
78.736084 99.310616 0.288472 0.796582
78.736084 99.310623 0.015017 0.819791
78.675911 99.310623 3.979006 0.866865
78.675911 99.310623 3.706374 0.862684
78.675911 99.310616 3.437570 0.866423
78.675911 99.310623 3.171949 0.879774
78.675911 99.310616 2.908895 0.869322
78.675911 99.310616 2.647815 0.856718
78.675911 99.310616 2.388134 0.855375
78.675911 99.310623 2.129286 0.860090
78.675911 99.310623 1.870715 0.855329
78.675911 99.310616 1.611867 0.863172
78.675911 99.310616 1.352185 0.862974
78.675911 99.310616 1.091105 0.869490
78.675911 99.310623 0.828051 0.864027
78.675911 99.310616 0.562430 0.864836
78.675911 99.310623 0.293626 0.866423
78.675911 99.310623 0.020993 0.859144
78.616096 99.310623 3.973161 0.866331
78.616096 99.310623 3.701334 0.858000
78.616096 99.310623 3.433324 0.868879
78.616096 99.310623 3.168487 0.846799
78.616096 99.310616 2.906211 0.867109
78.616096 99.310623 2.645902 0.865904
78.616096 99.310623 2.386987 0.884092
78.616096 99.310616 2.128904 0.865660
78.616096 99.310616 1.871096 0.851209
78.616096 99.310616 1.613013 0.845930
78.616096 99.310616 1.354098 0.852689
78.616096 99.310616 1.093789 0.882353
78.616096 99.310616 0.831513 0.846891
78.616096 99.310616 0.566676 0.872786
78.616096 99.310623 0.298666 0.867552
78.616096 99.310623 0.026839 0.869169
78.556633 99.310623 3.967447 0.853284
78.556633 99.310623 3.696407 0.867613
78.556633 99.310623 3.429172 0.848707
78.556633 99.310623 3.165103 0.857908
78.556633 99.310623 2.903586 0.862303
78.556633 99.310616 2.644031 0.860075
78.556633 99.310616 2.385866 0.878218
78.556633 99.310616 2.128530 0.874510
78.556633 99.310616 1.871470 0.856107
78.556633 99.310616 1.614134 0.870817
78.556633 99.310616 1.355968 0.879698
78.556633 99.310623 1.096414 0.853620
78.556633 99.310616 0.834897 0.876844
78.556633 99.310623 0.570828 0.863371
78.556633 99.310623 0.303593 0.862516
78.556633 99.310623 0.032554 0.874952
78.497505 99.310623 3.961859 0.800290
78.497505 99.310623 3.691590 0.808362
78.497505 99.310623 3.425114 0.819806
78.497505 99.310623 3.161795 0.804715
78.497505 99.310623 2.901020 0.802121
78.497505 99.310623 2.642202 0.787045
78.497505 99.310623 2.384770 0.804456
78.497505 99.310616 2.128165 0.794873
78.497505 99.310616 1.871835 0.806806
78.497505 99.310616 1.615229 0.814099
78.497505 99.310616 1.357797 0.808499
78.497505 99.310616 1.098980 0.794018
78.497505 99.310616 0.838205 0.808103
78.497505 99.310616 0.574885 0.815656
78.497505 99.310616 0.308410 0.786755
78.497505 99.310616 0.038140 0.809873
78.438713 99.310623 3.956399 0.877562
78.438713 99.310623 3.686882 0.868132
78.438713 99.310623 3.421148 0.849760
78.438713 99.310623 3.158561 0.861494
78.438713 99.310623 2.898512 0.873320
78.438713 99.310623 2.640415 0.860441
78.438713 99.310616 2.383699 0.860761
78.438713 99.310616 2.127809 0.869444
78.438713 99.310616 1.872192 0.877089
78.438713 99.310616 1.616300 0.867155
78.438713 99.310623 1.359585 0.872969
78.438713 99.310616 1.101487 0.849744
78.438713 99.310616 0.841439 0.861067
78.438713 99.310623 0.578852 0.852079
78.438713 99.310616 0.313118 0.862745
78.438713 99.310623 0.043600 0.857923
78.380249 99.310623 3.951065 0.865049
78.380249 99.310623 3.682282 0.866819
78.380249 99.310623 3.417273 0.870298
78.380249 99.310623 3.155402 0.851713
78.380249 99.310623 2.896063 0.847257
78.380249 99.310616 2.638669 0.873442
78.380249 99.310616 2.382653 0.853468
78.380249 99.310623 2.127460 0.865476
78.380249 99.310623 1.872540 0.879088
78.380249 99.310616 1.617347 0.864881
78.380249 99.310616 1.361331 0.867582
78.380249 99.310616 1.103937 0.859922
78.380249 99.310616 0.844598 0.871626
78.380249 99.310616 0.582727 0.861753
78.380249 99.310623 0.317718 0.859571
78.380249 99.310623 0.048935 0.854017
78.322090 99.310623 3.945854 0.863035
78.322090 99.310616 3.677789 0.854612
78.322090 99.310623 3.413487 0.873426
78.322090 99.310623 3.152316 0.864775
78.322090 99.310616 2.893669 0.868208
78.322090 99.310623 2.636963 0.860883
78.322090 99.310616 2.381631 0.856977
78.322090 99.310616 2.127120 0.868177
78.322090 99.310616 1.872880 0.872251
78.322090 99.310616 1.618369 0.852918
78.322090 99.310623 1.363037 0.859724
78.322090 99.310616 1.106331 0.850248
78.322090 99.310623 0.847684 0.881743
78.322090 99.310623 0.586513 0.863584
78.322090 99.310616 0.322211 0.864332
78.322090 99.310623 0.054146 0.860533
78.264244 99.310623 3.940765 0.781003
78.264244 99.310616 3.673400 0.783749
78.264244 99.310616 3.409791 0.794690
78.264244 99.310616 3.149302 0.797620
78.264244 99.310616 2.891332 0.799603
78.264244 99.310616 2.635297 0.779385
78.264244 99.310616 2.380633 0.784756
78.264244 99.310616 2.126787 0.795361
78.264244 99.310616 1.873213 0.786969
78.264244 99.310616 1.619367 0.780682
78.264244 99.310616 1.364703 0.779263
78.264244 99.310616 1.108668 0.798779
78.264244 99.310616 0.850698 0.775891
78.264244 99.310616 0.590209 0.778576
78.264244 99.310616 0.326599 0.781613
78.264244 99.310616 0.059235 0.802655
78.206696 99.310623 3.935796 0.869291
78.206696 99.310616 3.669117 0.867643
78.206696 99.310616 3.406182 0.885100
78.206696 99.310623 3.146360 0.886580
78.206696 99.310616 2.889050 0.868879
78.206696 99.310616 2.633671 0.861601
78.206696 99.310616 2.379659 0.866300
78.206696 99.310616 2.126463 0.866911
78.206696 99.310616 1.873538 0.852796
78.206696 99.310616 1.620341 0.870542
78.206696 99.310616 1.366329 0.875944
78.206696 99.310616 1.110950 0.866300
78.206696 99.310623 0.853640 0.837339
78.206696 99.310616 0.593818 0.868132
78.206696 99.310616 0.330883 0.877028
78.206696 99.310623 0.064204 0.869093
78.149437 99.310623 3.930948 0.859998
78.149437 99.310623 3.664935 0.857389
78.149437 99.310623 3.402659 0.875715
78.149437 99.310616 3.143489 0.874571
78.149437 99.310623 2.886823 0.862745
78.149437 99.310616 2.632083 0.850980
78.149437 99.310616 2.378708 0.862974
78.149437 99.310616 2.126146 0.878843
78.149437 99.310616 1.873854 0.876249
78.149437 99.310616 1.621292 0.851759
78.149437 99.310616 1.367916 0.861341
78.149445 99.310616 1.113177 0.847852
78.149437 99.310616 0.856511 0.857801
78.149437 99.310616 0.597341 0.863325
78.149437 99.310616 0.335064 0.870939
78.149445 99.310616 0.069052 0.856352
78.092468 99.310616 3.926216 0.864317
78.092468 99.310623 3.660856 0.879728
78.092468 99.310616 3.399222 0.850706
78.092468 99.310616 3.140687 0.861616
78.092468 99.310616 2.884650 0.880049
78.092468 99.310616 2.630535 0.863172
78.092468 99.310616 2.377780 0.856352
78.092468 99.310616 2.125837 0.882353
78.092468 99.310616 1.874163 0.887160
78.092468 99.310616 1.622220 0.873030
78.092468 99.310616 1.369465 0.853727
78.092468 99.310616 1.115350 0.881056
78.092468 99.310616 0.859313 0.846113
78.092468 99.310616 0.600778 0.877394
78.092468 99.310616 0.339144 0.866224
78.092468 99.310616 0.073784 0.875074
78.035767 99.310623 3.921601 0.678431
78.035767 99.310623 3.656877 0.672053
78.035767 99.310623 3.395870 0.673732
78.035767 99.310616 3.137954 0.672053
78.035767 99.310616 2.882531 0.698299
78.035767 99.310616 2.629024 0.688701
78.035767 99.310616 2.376875 0.691096
78.035767 99.310616 2.125535 0.676127
78.035767 99.310616 1.874465 0.698085
78.035767 99.310616 1.623125 0.698070
78.035767 99.310616 1.370976 0.671717
78.035767 99.310616 1.117469 0.700694
78.035767 99.310616 0.862046 0.703090
78.035767 99.310616 0.604130 0.688975
78.035767 99.310616 0.343122 0.671717
78.035767 99.310616 0.078398 0.700923
77.979340 99.310623 3.917101 0.849256
77.979340 99.310616 3.652998 0.846693
77.979340 99.310616 3.392602 0.849515
77.979340 99.310623 3.135289 0.856245
77.979340 99.310616 2.880464 0.859236
77.979340 99.310623 2.627551 0.859236
77.979340 99.310616 2.375992 0.841352
77.979340 99.310616 2.125241 0.859236
77.979340 99.310616 1.874759 0.841123
77.979340 99.310616 1.624008 0.841245
77.979340 99.310623 1.372448 0.844114
77.979340 99.310616 1.119536 0.848890
77.979340 99.310623 0.864710 0.859236
77.979340 99.310616 0.607398 0.859236
77.979340 99.310616 0.347002 0.844480
77.979340 99.310623 0.082898 0.859052
77.923172 99.310623 3.912716 0.861830
77.923172 99.310623 3.649216 0.871199
77.923172 99.310616 3.389416 0.849973
77.923172 99.310623 3.132692 0.874189
77.923172 99.310616 2.878450 0.863661
77.923172 99.310616 2.626116 0.868116
77.923172 99.310616 2.375132 0.869337
77.923172 99.310616 2.124955 0.863600
77.923172 99.310616 1.875045 0.853574
77.923172 99.310616 1.624868 0.882353
77.923172 99.310616 1.373884 0.853651
77.923172 99.310616 1.121550 0.876875
77.923172 99.310616 0.867307 0.863416
77.923172 99.310616 0.610584 0.873594
77.923172 99.310616 0.350783 0.857511
77.923172 99.310616 0.087283 0.875578
77.867256 99.310616 3.908444 0.873762
77.867256 99.310616 3.645532 0.865263
77.867256 99.310616 3.386313 0.855116
77.867256 99.310616 3.130163 0.850568
77.867256 99.310616 2.876488 0.868254
77.867256 99.310616 2.624717 0.881971
77.867256 99.310616 2.374294 0.870954
77.867256 99.310616 2.124676 0.873930
77.867256 99.310616 1.875324 0.872831
77.867256 99.310616 1.625706 0.849607
77.867256 99.310616 1.375283 0.859159
77.867256 99.310616 1.123512 0.851011
77.867256 99.310616 0.869837 0.873472
77.867256 99.310616 0.613687 0.859342
77.867256 99.310616 0.354467 0.866850
77.867256 99.310616 0.091556 0.884703
77.811592 99.310616 3.904283 0.855634
77.811592 99.310623 3.641944 0.839033
77.811584 99.310623 3.383290 0.848890
77.811592 99.310616 3.127698 0.858442
77.811592 99.310616 2.874577 0.855634
77.811592 99.310616 2.623355 0.826322
77.811592 99.310616 2.373478 0.858442
77.811592 99.310616 2.124404 0.855634
77.811592 99.310616 1.875596 0.855772
77.811592 99.310616 1.626522 0.838560
77.811592 99.310616 1.376645 0.847318
77.811592 99.310616 1.125423 0.855634
77.811592 99.310616 0.872302 0.824811
77.811592 99.310616 0.616710 0.855634
77.811592 99.310616 0.358055 0.842664
77.811592 99.310616 0.095717 0.863615
77.756157 99.310616 3.900233 0.755642
77.756157 99.310616 3.638453 0.761624
77.756157 99.310623 3.380347 0.739879
77.756157 99.310616 3.125299 0.766491
77.756157 99.310616 2.872717 0.767437
77.756157 99.310616 2.622029 0.773007
77.756157 99.310616 2.372684 0.769329
77.756157 99.310616 2.124139 0.752865
77.756157 99.310616 1.875861 0.748592
77.756157 99.310616 1.627316 0.748592
77.756157 99.310616 1.377971 0.765576
77.756157 99.310616 1.127283 0.755566
77.756157 99.310616 0.874700 0.776654
77.756157 99.310616 0.619652 0.752865
77.756157 99.310616 0.361547 0.762387
77.756157 99.310616 0.099767 0.752865
77.700966 99.310623 3.896291 0.859037
77.700966 99.310616 3.635054 0.879973
77.700966 99.310623 3.377485 0.862745
77.700966 99.310616 3.122966 0.861860
77.700966 99.310616 2.870907 0.861112
77.700966 99.310616 2.620739 0.870054
77.700966 99.310616 2.371911 0.859403
77.700966 99.310616 2.123882 0.874418
77.700966 99.310616 1.876118 0.877668
77.700966 99.310616 1.628089 0.855055
77.700966 99.310616 1.379261 0.866148
77.700966 99.310616 1.129093 0.865888
77.700966 99.310616 0.877034 0.850675
77.700966 99.310623 0.622515 0.857084
77.700966 99.310616 0.364946 0.877211
77.700966 99.310616 0.103708 0.882353
77.645996 99.310623 3.892458 0.846906
77.645996 99.310623 3.631749 0.859800
77.645996 99.310623 3.374700 0.857008
77.645996 99.310616 3.120696 0.869505
77.645996 99.310616 2.869146 0.846204
77.645996 99.310616 2.619484 0.854536
77.645996 99.310616 2.371159 0.867658
77.645996 99.310616 2.123631 0.858564
77.645996 99.310616 1.876369 0.860151
77.645996 99.310616 1.628841 0.866926
77.645996 99.310616 1.380515 0.871473
77.645996 99.310616 1.130853 0.861830
77.645996 99.310616 0.879304 0.863020
77.645996 99.310616 0.625299 0.875532
77.645996 99.310616 0.368251 0.846265
77.645996 99.310623 0.107541 0.885298
77.591240 99.310616 3.888734 0.872801
77.591240 99.310623 3.628537 0.863233
77.591240 99.310616 3.371994 0.862333
77.591240 99.310616 3.118490 0.845075
77.591240 99.310616 2.867435 0.869505
77.591240 99.310623 2.618265 0.853437
77.591240 99.310616 2.370429 0.862852
77.591240 99.310616 2.123388 0.861952
77.591240 99.310616 1.876612 0.866178
77.591240 99.310616 1.629571 0.875975
77.591240 99.310623 1.381735 0.870512
77.591240 99.310616 1.132564 0.867994
77.591240 99.310616 0.881510 0.850675
77.591240 99.310616 0.628005 0.865461
77.591240 99.310623 0.371463 0.871000
77.591240 99.310616 0.111266 0.866178
77.536705 99.310623 3.885114 0.824384
77.536705 99.310623 3.625417 0.799069
77.536705 99.310616 3.369366 0.802533
77.536705 99.310616 3.116347 0.826154
77.536705 99.310616 2.865774 0.805798
77.536705 99.310616 2.617080 0.798474
77.536705 99.310616 2.369719 0.829023
77.536705 99.310616 2.123152 0.824598
77.536705 99.310616 1.876848 0.807202
77.536705 99.310616 1.630281 0.809049
77.536705 99.310616 1.382920 0.830396
77.536705 99.310616 1.134226 0.811032
77.536705 99.310616 0.883653 0.827817
77.536705 99.310616 0.630634 0.814588
77.536705 99.310616 0.374583 0.812696
77.536705 99.310616 0.114886 0.804532
77.482368 99.310623 3.881601 0.868147
77.482368 99.310616 3.622387 0.863859
77.482368 99.310623 3.366813 0.863416
77.482368 99.310616 3.114266 0.873457
77.482368 99.310616 2.864160 0.864302
77.482368 99.310616 2.615930 0.859586
77.482368 99.310616 2.369030 0.862684
77.482368 99.310616 2.122922 0.875639
77.482368 99.310616 1.877078 0.854887
77.482368 99.310616 1.630970 0.871305
77.482368 99.310616 1.384070 0.857404
77.482368 99.310616 1.135840 0.852888
77.482368 99.310616 0.885734 0.890288
77.482368 99.310623 0.633187 0.866316
77.482368 99.310616 0.377613 0.865614
77.482368 99.310623 0.118399 0.867201
77.428238 99.310623 3.878191 0.865507
77.428238 99.310616 3.619448 0.856916
77.428238 99.310616 3.364337 0.867216
77.428238 99.310616 3.112247 0.856916
77.428238 99.310616 2.862594 0.856825
77.428238 99.310616 2.614814 0.863981
77.428238 99.310623 2.368361 0.876143
77.428238 99.310616 2.122699 0.867216
77.428238 99.310616 1.877301 0.847761
77.428238 99.310623 1.631639 0.864408
77.428238 99.310616 1.385185 0.866224
77.428238 99.310616 1.137406 0.862196
77.428238 99.310616 0.887753 0.875624
77.428238 99.310616 0.635663 0.864347
77.428238 99.310616 0.380552 0.868818
77.428238 99.310616 0.121809 0.862989
77.374298 99.310623 3.874886 0.864958
77.374298 99.310616 3.616598 0.855344
77.374298 99.310616 3.361936 0.875303
77.374298 99.310616 3.110290 0.844984
77.374298 99.310616 2.861076 0.861540
77.374298 99.310616 2.613732 0.852201
77.374298 99.310616 2.367713 0.893584
77.374298 99.310616 2.122483 0.863661
77.374298 99.310616 1.877517 0.850813
77.374298 99.310616 1.632287 0.876875
77.374298 99.310616 1.386268 0.864897
77.374298 99.310616 1.138924 0.846403
77.374298 99.310616 0.889710 0.861875
77.374298 99.310616 0.638065 0.871855
77.374298 99.310616 0.383402 0.877241
77.374298 99.310623 0.125114 0.848707
77.320541 99.310623 3.871683 0.687633
77.320541 99.310623 3.613836 0.688090
77.320541 99.310616 3.359609 0.686793
77.320541 99.310616 3.108393 0.686793
77.320541 99.310623 2.859605 0.700740
77.320541 99.310616 2.612684 0.687572
77.320541 99.310616 2.367085 0.687633
77.320541 99.310616 2.122274 0.686793
77.320541 99.310616 1.877726 0.686793
77.320541 99.310616 1.632915 0.687312
77.320541 99.310616 1.387316 0.686793
77.320541 99.310623 1.140395 0.687572
77.320541 99.310616 0.891607 0.687831
77.320541 99.310616 0.640391 0.686793
77.320541 99.310623 0.386164 0.686793
77.320541 99.310623 0.128317 0.687633
77.266968 99.310623 3.868582 0.790280
77.266968 99.310616 3.611162 0.790280
77.266968 99.310616 3.357356 0.790280
77.266968 99.310616 3.106556 0.784268
77.266968 99.310616 2.858181 0.777157
77.266968 99.310616 2.611668 0.763775
77.266968 99.310616 2.366476 0.770794
77.266968 99.310616 2.122072 0.790280
77.266968 99.310616 1.877928 0.790295
77.266968 99.310616 1.633523 0.784878
77.266968 99.310616 1.388331 0.777157
77.266968 99.310616 1.141819 0.790280
77.266968 99.310616 0.893443 0.790280
77.266968 99.310616 0.642644 0.790280
77.266968 99.310623 0.388838 0.790280
77.266968 99.310616 0.131418 0.790280
77.213570 99.310616 3.865582 0.862654
77.213570 99.310623 3.608575 0.853437
77.213570 99.310616 3.355177 0.865278
77.213570 99.310616 3.104780 0.865995
77.213570 99.310616 2.856803 0.856916
77.213570 99.310616 2.610686 0.859052
77.213570 99.310616 2.365888 0.851499
77.213577 99.310616 2.121876 0.866758
77.213577 99.310616 1.878124 0.863355
77.213570 99.310616 1.634112 0.875151
77.213570 99.310616 1.389313 0.862776
77.213570 99.310616 1.143197 0.847883
77.213570 99.310623 0.895220 0.852110
77.213570 99.310616 0.644823 0.875517
77.213570 99.310623 0.391425 0.858885
77.213570 99.310616 0.134418 0.863859
77.160347 99.310616 3.862682 0.851530
77.160347 99.310616 3.606075 0.860044
77.160347 99.310616 3.353071 0.867430
77.160347 99.310616 3.103063 0.871839
77.160347 99.310616 2.855471 0.874662
77.160347 99.310616 2.609737 0.849210
77.160347 99.310616 2.365319 0.864897
77.160347 99.310616 2.121686 0.860761
77.160347 99.310616 1.878314 0.840528
77.160347 99.310616 1.634681 0.858869
77.160347 99.310616 1.390262 0.862699
77.160347 99.310616 1.144529 0.852354
77.160347 99.310616 0.896937 0.871809
77.160347 99.310616 0.646929 0.849989
77.160347 99.310616 0.393925 0.850980
77.160347 99.310616 0.137318 0.863920
77.107277 99.310616 3.859881 0.855894
77.107277 99.310616 3.603660 0.877226
77.107277 99.310616 3.351037 0.875303
77.107277 99.310616 3.101404 0.865919
77.107277 99.310616 2.854185 0.868940
77.107277 99.310623 2.608820 0.865187
77.107277 99.310616 2.364770 0.858351
77.107277 99.310616 2.121503 0.877409
77.107277 99.310616 1.878497 0.871839
77.107277 99.310616 1.635230 0.864561
77.107277 99.310623 1.391179 0.864225
77.107277 99.310616 1.145815 0.867567
77.107277 99.310616 0.898596 0.856382
77.107277 99.310616 0.648964 0.834653
77.107277 99.310616 0.396340 0.868864
77.107277 99.310616 0.140118 0.864347
77.054367 99.310616 3.857180 0.804425
77.054367 99.310623 3.601331 0.820981
77.054367 99.310616 3.349074 0.813993
77.054367 99.310616 3.099804 0.802304
77.054367 99.310616 2.852944 0.801373
77.054367 99.310616 2.607936 0.797940
77.054367 99.310616 2.364240 0.792309
77.054367 99.310616 2.121327 0.810086
77.054367 99.310616 1.878673 0.805356
77.054367 99.310616 1.635760 0.804532
77.054367 99.310616 1.392064 0.812146
77.054367 99.310616 1.147056 0.828046
77.054367 99.310616 0.900196 0.798489
77.054367 99.310623 0.650926 0.793393
77.054367 99.310623 0.398669 0.800092
77.054367 99.310616 0.142820 0.799115
77.001610 99.310616 3.854577 0.877043
77.001610 99.310616 3.599086 0.876554
77.001610 99.310623 3.347183 0.865965
77.001610 99.310616 3.098263 0.859327
77.001610 99.310616 2.851748 0.865553
77.001610 99.310616 2.607084 0.865995
77.001610 99.310616 2.363729 0.866056
77.001610 99.310616 2.121156 0.859297
77.001610 99.310616 1.878844 0.862699
77.001610 99.310616 1.636270 0.858656
77.001610 99.310616 1.392916 0.859251
77.001610 99.310616 1.148252 0.862379
77.001610 99.310616 0.901737 0.871077
77.001610 99.310623 0.652817 0.877195
77.001610 99.310616 0.400914 0.857969
77.001610 99.310616 0.145423 0.855833
76.948997 99.310616 3.852071 0.882155
76.948997 99.310616 3.596926 0.862745
76.948997 99.310616 3.345362 0.860334
76.948997 99.310616 3.096779 0.868879
76.948997 99.310616 2.850597 0.865553
76.948997 99.310616 2.606264 0.870848
76.948997 99.310616 2.363238 0.862364
76.948997 99.310616 2.120993 0.881514
76.948997 99.310616 1.879007 0.862531
76.948997 99.310616 1.636762 0.858946
76.948997 99.310616 1.393736 0.857359
76.948997 99.310616 1.149402 0.859571
76.948997 99.310616 0.903221 0.870176
76.948997 99.310616 0.654637 0.855604
76.948997 99.310616 0.403075 0.855299
76.948997 99.310623 0.147930 0.847288
76.896523 99.310623 3.849662 0.868421
76.896523 99.310616 3.594848 0.876646
76.896523 99.310623 3.343612 0.880476
76.896523 99.310616 3.095352 0.855421
76.896523 99.310616 2.849491 0.861784
76.896523 99.310616 2.605475 0.847196
76.896523 99.310616 2.362766 0.861311
76.896523 99.310616 2.120835 0.877272
76.896523 99.310616 1.879165 0.863203
76.896523 99.310616 1.637234 0.863569
76.896523 99.310616 1.394525 0.869886
76.896523 99.310616 1.150509 0.851713
76.896523 99.310616 0.904648 0.862974
76.896523 99.310623 0.656388 0.852872
76.896523 99.310616 0.405152 0.872831
76.896523 99.310623 0.150339 0.878950
76.844177 99.310616 3.847349 0.685130
76.844177 99.310616 3.592854 0.730632
76.844177 99.310616 3.341932 0.689433
76.844177 99.310616 3.093982 0.709834
76.844177 99.310616 2.848429 0.699199
76.844177 99.310616 2.604718 0.691814
76.844177 99.310616 2.362312 0.708751
76.844177 99.310616 2.120685 0.688930
76.844177 99.310616 1.879316 0.686091
76.844177 99.310616 1.637688 0.709407
76.844177 99.310623 1.395282 0.699153
76.844177 99.310616 1.151571 0.695338
76.844177 99.310616 0.906018 0.702739
76.844177 99.310616 0.658068 0.715099
76.844177 99.310616 0.407146 0.707500
76.844177 99.310623 0.152652 0.686854
76.791969 99.310616 3.845131 0.695094
76.791969 99.310616 3.590942 0.688106
76.791969 99.310623 3.340321 0.709758
76.791969 99.310616 3.092669 0.698222
76.791969 99.310616 2.847410 0.702754
76.791969 99.310623 2.603992 0.704402
76.791969 99.310616 2.361877 0.712520
76.791969 99.310616 2.120539 0.707988
76.791969 99.310616 1.879460 0.698222
76.791969 99.310616 1.638123 0.702754
76.791969 99.310623 1.396008 0.682368
76.791969 99.310623 1.152590 0.709392
76.791969 99.310616 0.907331 0.698222
76.791969 99.310623 0.659679 0.707988
76.791969 99.310616 0.409058 0.702266
76.791969 99.310623 0.154869 0.696071
76.739876 99.310616 3.843009 0.862943
76.739876 99.310616 3.589112 0.865568
76.739876 99.310616 3.338780 0.851804
76.739876 99.310616 3.091412 0.874937
76.739876 99.310616 2.846436 0.877272
76.739876 99.310616 2.603297 0.865934
76.739876 99.310616 2.361461 0.878141
76.739876 99.310616 2.120401 0.864164
76.739876 99.310616 1.879599 0.847150
76.739876 99.310616 1.638539 0.862745
76.739876 99.310616 1.396703 0.863600
76.739876 99.310616 1.153564 0.859617
76.739876 99.310616 0.908588 0.848447
76.739876 99.310616 0.661220 0.867948
76.739876 99.310623 0.410888 0.861524
76.739876 99.310623 0.156992 0.855634
76.687904 99.310616 3.840981 0.862745
76.687904 99.310616 3.587363 0.870604
76.687904 99.310616 3.337306 0.867460
76.687904 99.310616 3.090211 0.865202
76.687904 99.310616 2.845504 0.863416
76.687904 99.310616 2.602633 0.875532
76.687904 99.310616 2.361063 0.876234
76.687904 99.310616 2.120268 0.873396
76.687904 99.310616 1.879732 0.847379
76.687904 99.310616 1.638937 0.864332
76.687904 99.310616 1.397367 0.869795
76.687904 99.310616 1.154496 0.862165
76.687904 99.310623 0.909789 0.863050
76.687904 99.310623 0.662694 0.865507
76.687904 99.310616 0.412637 0.872709
76.687904 99.310623 0.159019 0.857206
76.636047 99.310616 3.839047 0.865660
76.636047 99.310623 3.585695 0.891035
76.636047 99.310616 3.335901 0.865629
76.636047 99.310616 3.089066 0.860883
76.636047 99.310616 2.844616 0.858503
76.636047 99.310616 2.602000 0.863111
76.636047 99.310616 2.360683 0.859190
76.636047 99.310616 2.120142 0.861143
76.636047 99.310616 1.879858 0.871855
76.636047 99.310616 1.639316 0.856703
76.636047 99.310616 1.398000 0.870665
76.636047 99.310616 1.155384 0.855238
76.636047 99.310616 0.910934 0.862928
76.636047 99.310616 0.664098 0.865629
76.636047 99.310623 0.414305 0.860426
76.636047 99.310623 0.160953 0.872862
76.584290 99.310616 3.837206 0.809079
76.584290 99.310616 3.584109 0.811597
76.584290 99.310616 3.334565 0.761807
76.584290 99.310616 3.087976 0.814710
76.584290 99.310616 2.843771 0.808026
76.584290 99.310616 2.601398 0.814786
76.584290 99.310616 2.360323 0.814145
76.584290 99.310623 2.120022 0.807477
76.584290 99.310623 1.879978 0.789090
76.584290 99.310616 1.639677 0.795117
76.584290 99.310616 1.398602 0.814908
76.584290 99.310616 1.156229 0.788220
76.584290 99.310623 0.912024 0.788296
76.584290 99.310623 0.665435 0.807660
76.584290 99.310616 0.415891 0.769802
76.584290 99.310623 0.162794 0.807706
76.532639 99.310623 3.835459 0.851835
76.532639 99.310616 3.582602 0.862898
76.532639 99.310616 3.333296 0.872984
76.532639 99.310616 3.086941 0.875685
76.532639 99.310616 2.842968 0.864546
76.532639 99.310616 2.600826 0.877592
76.532639 99.310616 2.359980 0.887694
76.532639 99.310623 2.119908 0.865415
76.532639 99.310623 1.880092 0.858427
76.532639 99.310623 1.640020 0.848997
76.532639 99.310616 1.399174 0.865080
76.532639 99.310616 1.157032 0.866804
76.532639 99.310616 0.913059 0.853986
76.532639 99.310616 0.666704 0.867247
76.532639 99.310616 0.417398 0.874464
76.532639 99.310623 0.164541 0.863081
76.481079 99.310616 3.833804 0.853117
76.481079 99.310616 3.581175 0.863493
76.481079 99.310616 3.332093 0.863432
76.481079 99.310616 3.085962 0.861830
76.481079 99.310616 2.842209 0.880171
76.481079 99.310616 2.600284 0.881132
76.481079 99.310616 2.359656 0.862699
76.481079 99.310616 2.119800 0.876997
76.481079 99.310616 1.880201 0.863554
76.481079 99.310616 1.640344 0.853651
76.481079 99.310616 1.399715 0.887678
76.481079 99.310616 1.157792 0.880278
76.481079 99.310616 0.914039 0.847654
76.481079 99.310616 0.667907 0.882353
76.481079 99.310623 0.418825 0.850523
76.481079 99.310623 0.166196 0.887739
76.429611 99.310616 3.832242 0.853712
76.429611 99.310616 3.579828 0.865873
76.429611 99.310616 3.330958 0.845792
76.429611 99.310616 3.085036 0.864271
76.429611 99.310616 2.841491 0.866224
76.429611 99.310616 2.599773 0.848539
76.429611 99.310616 2.359349 0.853605
76.429611 99.310623 2.119698 0.852720
76.429611 99.310623 1.880303 0.857191
76.429611 99.310616 1.640651 0.871626
76.429611 99.310616 1.400227 0.842527
76.429611 99.310623 1.158509 0.871534
76.429611 99.310616 0.914964 0.858061
76.429611 99.310616 0.669042 0.879316
76.429611 99.310623 0.420172 0.863523
76.429611 99.310623 0.167759 0.869032
76.378227 99.310616 3.830771 0.840665
76.378227 99.310616 3.578560 0.877668
76.378227 99.310616 3.329890 0.862440
76.378227 99.310616 3.084165 0.858198
76.378227 99.310616 2.840815 0.877668
76.378227 99.310616 2.599291 0.866194
76.378227 99.310616 2.359061 0.856428
76.378227 99.310616 2.119601 0.873945
76.378227 99.310616 1.880399 0.870573
76.378227 99.310616 1.640939 0.865873
76.378227 99.310616 1.400709 0.866163
76.378227 99.310616 1.159185 0.869398
76.378227 99.310616 0.915835 0.870588
76.378227 99.310616 0.670110 0.865873
76.378227 99.310623 0.421440 0.865873
76.378227 99.310623 0.169229 0.869322
76.326927 99.310616 3.829391 0.823697
76.326927 99.310616 3.577371 0.794980
76.326927 99.310623 3.328888 0.801877
76.326927 99.310616 3.083348 0.812833
76.326927 99.310616 2.840182 0.813733
76.326927 99.310623 2.598840 0.791058
76.326927 99.310616 2.358790 0.824613
76.326927 99.310616 2.119511 0.820432
76.326927 99.310616 1.880489 0.806256
76.326927 99.310623 1.641210 0.801587
76.326927 99.310623 1.401160 0.820432
76.326927 99.310616 1.159818 0.800977
76.326927 99.310623 0.916652 0.813962
76.326927 99.310623 0.671112 0.804105
76.326927 99.310623 0.422629 0.801038
76.326927 99.310623 0.170609 0.801038
76.275696 99.310623 3.828103 0.864408
76.275696 99.310616 3.576261 0.874464
76.275696 99.310623 3.327952 0.853941
76.275696 99.310616 3.082586 0.859739
76.275696 99.310616 2.839591 0.868070
76.275696 99.310623 2.598418 0.860105
76.275696 99.310616 2.358537 0.859281
76.275696 99.310616 2.119427 0.876158
76.275696 99.310616 1.880573 0.852018
76.275696 99.310616 1.641462 0.862821
76.275696 99.310623 1.401582 0.854154
76.275696 99.310616 1.160410 0.853880
76.275696 99.310623 0.917414 0.856611
76.275696 99.310623 0.672048 0.852888
76.275696 99.310616 0.423740 0.864851
76.275696 99.310623 0.171897 0.866056
76.224541 99.310616 3.826906 0.846525
76.224541 99.310616 3.575228 0.866972
76.224541 99.310616 3.327082 0.861738
76.224541 99.310623 3.081876 0.844038
76.224541 99.310616 2.839040 0.865431
76.224541 99.310616 2.598026 0.863416
76.224541 99.310616 2.358303 0.862913
76.224541 99.310616 2.119349 0.867613
76.224541 99.310616 1.880651 0.848859
76.224541 99.310616 1.641697 0.864240
76.224541 99.310623 1.401974 0.843244
76.224541 99.310616 1.160960 0.868193
76.224541 99.310623 0.918124 0.870115
76.224541 99.310616 0.672917 0.860502
76.224541 99.310623 0.424773 0.866453
76.224541 99.310623 0.173094 0.856123
76.173447 99.310616 3.825799 0.848707
76.173447 99.310623 3.574273 0.895674
76.173447 99.310616 3.326278 0.851194
76.173447 99.310616 3.081221 0.863966
76.173447 99.310616 2.838532 0.871626
76.173447 99.310616 2.597664 0.841443
76.173447 99.310616 2.358086 0.896330
76.173447 99.310623 2.119277 0.864744
76.173447 99.310623 1.880723 0.852003
76.173447 99.310616 1.641914 0.875257
76.173447 99.310616 1.402336 0.863340
76.173447 99.310616 1.161468 0.865187
76.173447 99.310623 0.918779 0.845853
76.173447 99.310623 0.673722 0.864210
76.173447 99.310623 0.425727 0.866575
76.173447 99.310623 0.174201 0.848585
76.122414 99.310616 3.824783 0.769940
76.122414 99.310616 3.573396 0.792538
76.122414 99.310616 3.325540 0.777783
76.122414 99.310616 3.080619 0.790738
76.122414 99.310616 2.838065 0.804273
76.122414 99.310616 2.597331 0.813001
76.122414 99.310616 2.357886 0.766461
76.122414 99.310616 2.119210 0.813001
76.122414 99.310616 1.880790 0.763088
76.122414 99.310616 1.642114 0.767254
76.122414 99.310616 1.402669 0.813001
76.122414 99.310623 1.161935 0.813001
76.122414 99.310623 0.919381 0.762097
76.122414 99.310616 0.674460 0.803983
76.122414 99.310623 0.426604 0.808255
76.122414 99.310623 0.175218 0.813001
76.071434 99.310623 3.823856 0.683085
76.071434 99.310616 3.572598 0.719280
76.071434 99.310616 3.324867 0.683085
76.071434 99.310623 3.080070 0.693996
76.071434 99.310623 2.837639 0.676661
76.071434 99.310623 2.597028 0.656367
76.071434 99.310623 2.357704 0.688029
76.071434 99.310616 2.119149 0.685435
76.071434 99.310616 1.880850 0.689509
76.071434 99.310623 1.642296 0.683085
76.071434 99.310623 1.402972 0.697993
76.071434 99.310623 1.162361 0.683085
76.071434 99.310623 0.919930 0.688029
76.071434 99.310623 0.675134 0.687556
76.071434 99.310623 0.427403 0.713726
76.071434 99.310623 0.176145 0.683085
76.020500 99.310616 3.823019 0.855390
76.020500 99.310623 3.571876 0.850309
76.020500 99.310616 3.324259 0.863584
76.020500 99.310616 3.079575 0.870176
76.020500 99.310616 2.837255 0.868757
76.020500 99.310616 2.596754 0.852811
76.020500 99.310616 2.357540 0.854673
76.020500 99.310616 2.119095 0.863111
76.020500 99.310616 1.880905 0.869535
76.020500 99.310616 1.642460 0.878935
76.020500 99.310616 1.403246 0.866011
76.020500 99.310616 1.162745 0.856748
76.020500 99.310623 0.920426 0.840360
76.020500 99.310623 0.675741 0.870680
76.020500 99.310623 0.428125 0.879515
76.020500 99.310616 0.176981 0.868406
75.969612 99.310623 3.822271 0.861479
75.969612 99.310616 3.571231 0.867369
75.969612 99.310623 3.323716 0.864637
75.969612 99.310623 3.079132 0.876570
75.969612 99.310616 2.836912 0.865721
75.969612 99.310623 2.596509 0.857435
75.969612 99.310616 2.357394 0.865354
75.969612 99.310623 2.119046 0.876219
75.969612 99.310623 1.880954 0.845426
75.969612 99.310616 1.642606 0.866392
75.969612 99.310623 1.403491 0.856352
75.969612 99.310623 1.163088 0.863859
75.969612 99.310623 0.920869 0.857435
75.969612 99.310623 0.676284 0.866697
75.969612 99.310623 0.428769 0.866529
75.969612 99.310623 0.177729 0.865217
75.918770 99.310616 3.821614 0.863203
75.918770 99.310616 3.570664 0.874800
75.918770 99.310623 3.323238 0.866133
75.918770 99.310616 3.078742 0.862150
75.918770 99.310623 2.836609 0.873121
75.918770 99.310623 2.596294 0.854566
75.918770 99.310616 2.357264 0.861357
75.918770 99.310623 2.119003 0.874159
75.918770 99.310623 1.880997 0.868635
75.918770 99.310623 1.642735 0.865049
75.918770 99.310623 1.403706 0.864759
75.918770 99.310623 1.163391 0.872694
75.918770 99.310623 0.921258 0.870024
75.918770 99.310623 0.676762 0.856077
75.918770 99.310623 0.429336 0.854383
75.918770 99.310623 0.178387 0.852201
75.867958 99.310623 3.821044 0.785046
75.867958 99.310616 3.570173 0.806851
75.867958 99.310616 3.322825 0.806165
75.867958 99.310616 3.078405 0.798184
75.867958 99.310616 2.836348 0.815106
75.867958 99.310623 2.596107 0.798840
75.867958 99.310616 2.357153 0.785138
75.867958 99.310616 2.118966 0.815106
75.867958 99.310616 1.881034 0.804883
75.867958 99.310616 1.642847 0.791638
75.867958 99.310623 1.403892 0.808392
75.867958 99.310623 1.163652 0.801801
75.867958 99.310623 0.921595 0.796109
75.867958 99.310616 0.677175 0.791119
75.867958 99.310623 0.429827 0.791638
75.867958 99.310623 0.178956 0.798840
75.817169 99.310616 3.820565 0.866423
75.817169 99.310616 3.569760 0.866423
75.817169 99.310616 3.322476 0.866423
75.817169 99.310623 3.078121 0.867308
75.817169 99.310616 2.836128 0.860166
75.817169 99.310616 2.595951 0.873167
75.817169 99.310616 2.357059 0.867842
75.817169 99.310623 2.118935 0.860166
75.817169 99.310623 1.881065 0.862119
75.817169 99.310616 1.642941 0.876844
75.817169 99.310616 1.404049 0.868528
75.817169 99.310623 1.163872 0.875090
75.817169 99.310623 0.921879 0.866423
75.817169 99.310623 0.677524 0.876844
75.817169 99.310623 0.430240 0.863890
75.817169 99.310623 0.179435 0.870832
75.766411 99.310616 3.820174 0.867964
75.766411 99.310616 3.569423 0.862348
75.766411 99.310623 3.322192 0.852003
75.766411 99.310623 3.077889 0.843992
75.766411 99.310616 2.835948 0.862287
75.766411 99.310623 2.595822 0.866590
75.766411 99.310616 2.356982 0.864652
75.766411 99.310623 2.118909 0.859815
75.766411 99.310623 1.881091 0.865293
75.766411 99.310623 1.643018 0.871504
75.766411 99.310623 1.404178 0.862303
75.766411 99.310623 1.164052 0.852216
75.766411 99.310623 0.922111 0.877577
75.766411 99.310623 0.677808 0.861982
75.766411 99.310623 0.430577 0.867216
75.766411 99.310623 0.179826 0.854109
75.715675 99.310616 3.819872 0.853513
75.715675 99.310623 3.569162 0.861738
75.715675 99.310616 3.321973 0.879744
75.715675 99.310616 3.077711 0.879469
75.715675 99.310623 2.835810 0.853971
75.715675 99.310623 2.595723 0.873396
75.715675 99.310616 2.356923 0.860716
75.715675 99.310616 2.118890 0.886381
75.715675 99.310616 1.881111 0.872053
75.715675 99.310623 1.643077 0.869795
75.715675 99.310623 1.404276 0.866361
75.715675 99.310623 1.164191 0.849699
75.715675 99.310623 0.922289 0.868818
75.715675 99.310623 0.678027 0.863478
75.715675 99.310623 0.430838 0.861234
75.715675 99.310623 0.180128 0.848814
75.664948 99.310616 3.819659 0.861234
75.664948 99.310623 3.568978 0.868086
75.664948 99.310623 3.321818 0.882124
75.664948 99.310623 3.077584 0.870649
75.664948 99.310623 2.835712 0.866117
75.664948 99.310623 2.595654 0.866682
75.664948 99.310616 2.356881 0.859022
75.664948 99.310616 2.118875 0.860502
75.664948 99.310616 1.881124 0.847486
75.664948 99.310616 1.643119 0.877882
75.664948 99.310623 1.404346 0.862745
75.664948 99.310623 1.164288 0.875975
75.664948 99.310623 0.922415 0.860273
75.664948 99.310623 0.678182 0.861433
75.664948 99.310623 0.431022 0.864683
75.664948 99.310623 0.180342 0.866697
75.614227 99.310623 3.819534 0.802060
75.614227 99.310623 3.568871 0.802670
75.614227 99.310616 3.321727 0.814008
75.614227 99.310623 3.077511 0.788281
75.614227 99.310616 2.835655 0.796521
75.614227 99.310623 2.595613 0.782513
75.614227 99.310616 2.356857 0.818250
75.614227 99.310616 2.118867 0.809400
75.614227 99.310616 1.881133 0.796124
75.614227 99.310616 1.643143 0.803937
75.614227 99.310623 1.404387 0.780499
75.614227 99.310616 1.164346 0.823346
75.614227 99.310623 0.922489 0.804898
75.614227 99.310623 0.678273 0.801877
75.614227 99.310623 0.431129 0.787976
75.614227 99.310623 0.180466 0.787976
75.563522 99.310623 3.819498 0.857298
75.563522 99.310623 3.568840 0.863752
75.563522 99.310623 3.321701 0.866041
75.563522 99.310623 3.077489 0.882719
75.563522 99.310616 2.835638 0.876066
75.563522 99.310623 2.595601 0.876432
75.563522 99.310623 2.356850 0.873960
75.563522 99.310623 2.118865 0.866697
75.563522 99.310623 1.881135 0.854246
75.563522 99.310623 1.643150 0.875731
75.563522 99.310623 1.404398 0.856626
75.563522 99.310623 1.164362 0.846815
75.563522 99.310623 0.922511 0.863554
75.563522 99.310623 0.678299 0.854124
75.563522 99.310623 0.431160 0.854887
75.563522 99.310623 0.180502 0.864759
75.512810 99.310623 3.819552 0.863554
75.512810 99.310616 3.568886 0.878248
75.512810 99.310623 3.321740 0.860822
75.512810 99.310623 3.077521 0.875227
75.512810 99.310616 2.835662 0.865614
75.512810 99.310623 2.595618 0.881941
75.512810 99.310623 2.356860 0.871900
75.512810 99.310616 2.118868 0.856214
75.512810 99.310616 1.881132 0.862257
75.512810 99.310623 1.643140 0.886259
75.512810 99.310623 1.404381 0.892714
75.512810 99.310623 1.164338 0.879866
75.512810 99.310623 0.922479 0.879194
75.512810 99.310623 0.678260 0.876173
75.512810 99.310623 0.431114 0.881819
75.512810 99.310623 0.180449 0.858457
75.462090 99.310623 3.819693 0.869566
75.462090 99.310616 3.569008 0.880568
75.462090 99.310623 3.321842 0.872312
75.462090 99.310623 3.077605 0.865187
75.462090 99.310623 2.835727 0.860288
75.462090 99.310623 2.595665 0.852430
75.462090 99.310623 2.356888 0.853742
75.462090 99.310623 2.118878 0.877760
75.462090 99.310623 1.881122 0.868696
75.462090 99.310623 1.643112 0.862394
75.462090 99.310623 1.404335 0.847395
75.462090 99.310623 1.164273 0.863493
75.462090 99.310623 0.922395 0.872236
75.462090 99.310623 0.678157 0.860075
75.462090 99.310623 0.430992 0.863539
75.462090 99.310623 0.180308 0.848264
75.411362 99.310623 3.819923 0.795666
75.411362 99.310616 3.569206 0.796002
75.411362 99.310623 3.322010 0.800549
75.411362 99.310623 3.077741 0.800916
75.411362 99.310616 2.835833 0.800549
75.411362 99.310623 2.595740 0.805188
75.411362 99.310616 2.356933 0.805188
75.411362 99.310616 2.118893 0.800549
75.411362 99.310616 1.881107 0.800549
75.411362 99.310616 1.643067 0.805188
75.411362 99.310623 1.404260 0.808057
75.411362 99.310623 1.164167 0.800549
75.411362 99.310623 0.922259 0.794736
75.411362 99.310623 0.677991 0.805188
75.411362 99.310623 0.430794 0.800565
75.411362 99.310623 0.180077 0.800549
75.360619 99.310623 3.820242 0.700404
75.360619 99.310616 3.569482 0.727672
75.360619 99.310623 3.322241 0.719539
75.360619 99.310623 3.077930 0.702113
75.360619 99.310623 2.835980 0.718563
75.360619 99.310623 2.595845 0.721431
75.360619 99.310623 2.356996 0.706004
75.360619 99.310616 2.118914 0.711833
75.360619 99.310616 1.881086 0.699886
75.360619 99.310623 1.643004 0.723873
75.360619 99.310623 1.404155 0.734081
75.360619 99.310623 1.164020 0.711833
75.360619 99.310623 0.922070 0.729351
75.360619 99.310623 0.677759 0.711833
75.360619 99.310623 0.430519 0.721355
75.360619 99.310623 0.179758 0.709804
75.309853 99.310623 3.820650 0.859297
75.309853 99.310623 3.569833 0.848356
75.309853 99.310623 3.322538 0.860960
75.309853 99.310623 3.078172 0.863737
75.309853 99.310623 2.836167 0.864698
75.309853 99.310623 2.595978 0.874556
75.309853 99.310623 2.357076 0.866651
75.309853 99.310623 2.118940 0.870451
75.309853 99.310623 1.881060 0.869841
75.309853 99.310623 1.642924 0.855848
75.309853 99.310623 1.404022 0.864286
75.309853 99.310623 1.163833 0.868101
75.309853 99.310623 0.921828 0.852140
75.309853 99.310623 0.677462 0.883406
75.309853 99.310623 0.430167 0.857114
75.309853 99.310623 0.179350 0.862745
75.259064 99.310616 3.821147 0.845853
75.259064 99.310623 3.570262 0.854078
75.259064 99.310623 3.322899 0.862745
75.259064 99.310616 3.078466 0.851102
75.259064 99.310623 2.836395 0.882353
75.259064 99.310616 2.596141 0.857298
75.259064 99.310623 2.357173 0.844709
75.259064 99.310623 2.118973 0.856077
75.259064 99.310623 1.881027 0.874525
75.259064 99.310623 1.642827 0.879591
75.259064 99.310616 1.403859 0.879973
75.259064 99.310623 1.163605 0.853300
75.259064 99.310623 0.921534 0.871656
75.259064 99.310623 0.677101 0.867033
75.259064 99.310623 0.429739 0.852171
75.259064 99.310623 0.178853 0.880201
75.208244 99.310623 3.821733 0.852628
75.208244 99.310623 3.570767 0.864927
75.208244 99.310623 3.323324 0.853284
75.208244 99.310623 3.078813 0.855360
75.208244 99.310623 2.836664 0.874983
75.208244 99.310623 2.596333 0.861372
75.208244 99.310623 2.357288 0.853071
75.208244 99.310623 2.119011 0.859892
75.208244 99.310623 1.880989 0.852430
75.208244 99.310623 1.642712 0.877684
75.208244 99.310623 1.403667 0.877882
75.208244 99.310623 1.163336 0.861601
75.208244 99.310623 0.921187 0.862776
75.208244 99.310623 0.676676 0.878126
75.208244 99.310623 0.429233 0.866621
75.208244 99.310623 0.178267 0.874540
75.157394 99.310623 3.822408 0.749081
75.157394 99.310616 3.571349 0.733471
75.157394 99.310623 3.323815 0.746838
75.157394 99.310623 3.079213 0.736004
75.157394 99.310623 2.836974 0.740414
75.157394 99.310616 2.596554 0.753429
75.157394 99.310623 2.357420 0.741436
75.157394 99.310623 2.119055 0.765194
75.157394 99.310623 1.880945 0.765972
75.157394 99.310623 1.642580 0.749432
75.157394 99.310623 1.403446 0.753429
75.157394 99.310623 1.163026 0.720806
75.157394 99.310623 0.920787 0.736126
75.157394 99.310623 0.676185 0.735912
75.157394 99.310623 0.428651 0.732006
75.157394 99.310623 0.177592 0.749050
75.106499 99.310623 3.823173 0.856031
75.106499 99.310623 3.572008 0.847852
75.106499 99.310623 3.324370 0.859419
75.106499 99.310623 3.079666 0.862379
75.106499 99.310623 2.837325 0.856306
75.106499 99.310623 2.596804 0.856794
75.106499 99.310623 2.357570 0.837400
75.106499 99.310623 2.119105 0.853101
75.106499 99.310623 1.880895 0.861540
75.106499 99.310623 1.642429 0.856886
75.106499 99.310623 1.403196 0.857099
75.106499 99.310623 1.162675 0.857603
75.106499 99.310623 0.920334 0.862379
75.106499 99.310623 0.675630 0.858473
75.106499 99.310623 0.427992 0.857603
75.106499 99.310623 0.176828 0.856718
75.055557 99.310623 3.824027 0.861708
75.055557 99.310623 3.572745 0.860349
75.055557 99.310616 3.324991 0.856703
75.055557 99.310616 3.080171 0.855451
75.055557 99.310623 2.837718 0.881621
75.055557 99.310623 2.597084 0.841001
75.055557 99.310616 2.357738 0.855299
75.055557 99.310623 2.119161 0.849714
75.055557 99.310623 1.880839 0.832547
75.055557 99.310616 1.642262 0.880903
75.055557 99.310623 1.402916 0.855711
75.055557 99.310623 1.162282 0.863539
75.055557 99.310616 0.919829 0.851530
75.055557 99.310623 0.675009 0.860227
75.055557 99.310623 0.427256 0.869795
75.055557 99.310623 0.175973 0.858915
75.004570 99.310623 3.824970 0.862425
75.004570 99.310623 3.573559 0.867491
75.004570 99.310623 3.325677 0.864195
75.004570 99.310623 3.080730 0.847532
75.004570 99.310623 2.838151 0.860075
