# This PCD file was generated using the MATLABÂ® pcwrite function
# from Computer Vision ToolboxÂ®.
# .PCD v.7 - Point Cloud Data file format
VERSION .7
FIELDS x y z intensity
SIZE 4 4 4 4
TYPE F F F F
COUNT 1 1 1 1
WIDTH 1279
HEIGHT 1
VIEWPOINT 0 0 0 1 0 0 0
POINTS 1279
DATA ascii
143.187088 101.672195 3.226476 0.730114
143.195221 101.610901 2.407522 0.164874
143.187088 101.672195 1.591466 0.728557
143.176392 101.752701 0.769534 0.721569
143.262573 101.103539 -0.000019 0.231470
144.184662 94.157875 -0.000014 0.213411
144.698212 90.289536 -0.000011 0.218713
145.026062 87.819931 -0.000009 0.244874
145.253937 86.103462 -0.000008 0.231016
145.421829 84.838852 -0.000006 0.241942
143.352631 101.752701 8.268221 0.738537
143.352631 101.752701 7.404697 0.705394
143.352631 101.752701 6.553296 0.739773
143.352631 101.752701 5.711980 0.690654
143.362747 101.672195 4.869462 0.715404
143.352631 101.752701 4.051862 0.733333
143.362747 101.672195 3.225370 0.709804
143.370453 101.610901 2.407154 0.198184
143.362747 101.672195 1.591835 0.709804
143.352631 101.752693 0.770643 0.695369
143.431458 101.125359 -0.000019 0.233613
144.305038 94.173431 -0.000013 0.234091
144.791565 90.301590 -0.000010 0.232667
145.102173 87.829765 -0.000009 0.232631
145.318054 86.111748 -0.000008 0.275512
145.477112 84.845993 -0.000006 0.254999
143.528564 101.752701 8.262878 0.712062
143.528549 101.752701 7.400090 0.730022
143.528549 101.752701 6.549416 0.730343
143.528564 101.752701 5.708817 0.721569
143.538101 101.672195 4.867016 0.710353
143.528564 101.752701 4.050114 0.732204
143.538101 101.672195 3.224326 0.733150
143.545364 101.610893 2.406807 0.206226
143.538101 101.672195 1.592183 0.713207
143.528564 101.752686 0.771691 0.698772
143.600494 101.145996 -0.000019 0.227808
144.425507 94.188141 -0.000014 0.238879
144.884995 90.313004 -0.000010 0.231901
145.178345 87.839058 -0.000009 0.200641
145.382217 86.119583 -0.000007 0.201970
145.532440 84.852753 -0.000006 0.234618
143.704193 101.752701 8.257851 0.684779
143.704193 101.752701 7.395754 0.719219
143.704193 101.752701 6.545763 0.724193
143.704193 101.752701 5.705839 0.732235
143.713165 101.672195 4.864714 0.719570
143.704193 101.752701 4.048467 0.730983
143.713165 101.672195 3.223344 0.718990
143.720001 101.610893 2.406480 0.192157
143.713165 101.672188 1.592510 0.709804
143.704193 101.752693 0.772677 0.733333
143.769669 101.165459 -0.000019 0.227832
144.546082 94.202019 -0.000014 0.221322
144.978516 90.323761 -0.000010 0.253072
145.254578 87.847832 -0.000009 0.201048
145.446442 86.126968 -0.000007 0.228347
145.587814 84.859123 -0.000006 0.228371
143.879547 101.752701 8.253136 0.703929
143.879547 101.752701 7.391690 0.721569
143.879547 101.752701 6.542339 0.703182
143.879547 101.752701 5.703047 0.723552
143.887955 101.672195 4.862556 0.713573
143.879547 101.752693 4.046923 0.728191
143.887955 101.672195 3.222422 0.741085
143.894363 101.610893 2.406175 0.186145
143.887955 101.672195 1.592817 0.709804
143.879547 101.752693 0.773602 0.733333
143.938965 101.183739 -0.000019 0.234534
144.666763 94.215042 -0.000014 0.208815
145.072098 90.333862 -0.000010 0.232787
145.330872 87.856064 -0.000008 0.260540
145.510727 86.133911 -0.000007 0.225678
145.643234 84.865105 -0.000007 0.218749
144.054657 101.752701 8.248732 0.735515
144.062500 101.672195 7.370423 0.718715
144.054657 101.752701 6.539139 0.733455
144.054657 101.752701 5.700438 0.733333
144.062485 101.672195 4.860539 0.720653
144.054657 101.752701 4.045483 0.727169
144.062485 101.672195 3.221561 0.707744
144.067139 101.624535 2.406113 0.308568
144.062485 101.672195 1.593104 0.714717
144.054657 101.752693 0.774466 0.718303
144.108398 101.200844 -0.000019 0.234391
144.787521 94.227234 -0.000014 0.215386
145.165741 90.343315 -0.000010 0.230692
145.407211 87.863770 -0.000009 0.204243
145.575043 86.140396 -0.000007 0.244647
145.698700 84.870697 -0.000006 0.205189
144.229523 101.752701 8.244638 0.722347
144.229523 101.752701 7.384362 0.708614
144.229523 101.752701 6.536164 0.731746
144.229523 101.752701 5.698016 0.729198
144.229523 101.752701 4.867965 0.736187
144.229523 101.752701 4.044142 0.698039
144.229523 101.752693 3.224732 0.721569
144.242325 101.610901 2.405622 0.177600
144.229523 101.752701 1.592048 0.724422
144.229523 101.752693 0.775268 0.733333
144.277939 101.216743 -0.000019 0.225187
144.908356 94.238571 -0.000014 0.232715
145.259460 90.352112 -0.000011 0.244384
145.483612 87.870941 -0.000008 0.212525
145.639404 86.146439 -0.000007 0.211041
145.754196 84.875908 -0.000006 0.216211
144.404160 101.752701 8.240854 0.739178
144.410873 101.672195 7.363654 0.698222
144.404160 101.752701 6.533417 0.737346
144.404160 101.752701 5.695775 0.735485
144.410873 101.672195 4.856935 0.721569
144.404160 101.752693 4.042904 0.724743
144.410873 101.672203 3.220021 0.734188
144.415970 101.610901 2.405377 0.218387
144.410873 101.672195 1.593616 0.733150
144.404160 101.752693 0.776010 0.726665
144.447586 101.231476 -0.000019 0.235528
145.029266 94.249069 -0.000014 0.232823
145.353241 90.360252 -0.000010 0.210574
145.560059 87.877579 -0.000009 0.288569
145.703812 86.152031 -0.000007 0.199301
145.809723 84.880730 -0.000006 0.237502
144.578598 101.752701 8.237379 0.732509
144.578613 101.752701 7.378104 0.704204
144.578613 101.752701 6.530893 0.721294
144.578613 101.752701 5.693717 0.718532
144.588699 101.620392 4.849366 0.537987
144.588699 101.620392 4.030887 0.489067
144.584747 101.672195 3.219342 0.723781
144.589417 101.610893 2.405151 0.187152
144.584747 101.672195 1.593843 0.736584
144.578613 101.752693 0.776692 0.721569
144.617340 101.245018 -0.000019 0.237873
145.150253 94.258720 -0.000014 0.214428
145.447067 90.367737 -0.000010 0.205285
145.636551 87.883682 -0.000009 0.270067
145.768265 86.157173 -0.000007 0.201335
145.865295 84.885162 -0.000006 0.276087
144.752853 101.752701 8.234211 0.728206
144.758438 101.672195 7.357944 0.700618
144.752853 101.752701 6.528593 0.718578
144.752853 101.752693 5.691839 0.714122
144.762680 101.610893 4.846824 0.243244
144.762680 101.610901 4.029074 0.198734
144.758438 101.672195 3.218722 0.714336
144.762680 101.610901 2.404945 0.179812
144.758438 101.672203 1.594049 0.710704
144.752853 101.752693 0.777313 0.734005
144.787170 101.257370 -0.000018 0.230704
145.271317 94.267525 -0.000013 0.226492
145.540955 90.374573 -0.000011 0.224254
145.713089 87.889252 -0.000009 0.200809
145.832733 86.161865 -0.000007 0.232153
145.920883 84.889214 -0.000007 0.232440
144.926956 101.752708 8.231351 0.736126
144.931961 101.672195 7.355483 0.721889
144.926956 101.752701 6.526512 0.722179
144.926956 101.752701 5.690145 0.721569
144.935776 101.610886 4.845516 0.229923
144.935776 101.610901 4.028142 0.190417
144.931961 101.672195 3.218163 0.720241
144.935776 101.610901 2.404759 0.189303
144.931961 101.672203 1.594235 0.721569
144.926956 101.752693 0.777874 0.733913
144.957092 101.268547 -0.000018 0.244791
145.392426 94.275497 -0.000013 0.212717
145.634872 90.380745 -0.000010 0.243845
145.789658 87.894287 -0.000008 0.225187
145.897247 86.166107 -0.000007 0.236317
145.976501 84.892868 -0.000006 0.201886
145.100891 101.752701 8.228794 0.737896
145.105331 101.672195 7.353287 0.722530
145.100891 101.752701 6.524656 0.726741
145.100891 101.752693 5.688632 0.709804
145.108719 101.610893 4.844350 0.236393
145.108719 101.610893 4.027310 0.187015
145.105331 101.672195 3.217664 0.732876
145.108719 101.610901 2.404593 0.181994
145.105331 101.672195 1.594402 0.735714
145.100891 101.752693 0.778376 0.721569
145.127090 101.278542 -0.000018 0.230274
145.513580 94.282608 -0.000013 0.227114
145.728851 90.386261 -0.000010 0.202676
145.866272 87.898788 -0.000009 0.233110
145.961777 86.169899 -0.000007 0.253300
146.032150 84.896141 -0.000007 0.267099
145.274689 101.752701 8.226545 0.728191
145.278580 101.672195 7.351354 0.723079
145.274689 101.752701 6.523023 0.717479
145.274689 101.752701 5.687300 0.740780
145.281525 101.610901 4.843323 0.226017
145.281540 101.610901 4.026579 0.184573
145.278580 101.672195 3.217224 0.734493
145.281540 101.610893 2.404448 0.299825
145.278580 101.672195 1.594549 0.726070
145.274689 101.752686 0.778817 0.716976
145.297150 101.287331 -0.000018 0.233182
145.634796 94.288887 -0.000014 0.222554
145.822845 90.391129 -0.000010 0.230142
145.942902 87.902756 -0.000009 0.201646
146.026337 86.173241 -0.000007 0.205644
146.087814 84.899017 -0.000006 0.282106
145.448380 101.752701 8.224602 0.709804
145.451706 101.672188 7.349682 0.727916
145.448380 101.752701 6.521609 0.734508
145.448380 101.752701 5.686149 0.724330
145.454224 101.610893 4.842434 0.258824
145.454224 101.610893 4.025947 0.177829
145.451706 101.672195 3.216844 0.716976
145.454224 101.610901 2.404321 0.177859
145.451691 101.672195 1.594675 0.736217
145.448380 101.752693 0.779198 0.696391
145.467255 101.294952 -0.000019 0.235336
145.756042 94.294312 -0.000013 0.214392
145.916885 90.395340 -0.000010 0.237706
146.019562 87.906181 -0.000008 0.236928
146.090927 86.176132 -0.000007 0.257967
146.143509 84.901505 -0.000006 0.299065
145.621964 101.752701 8.222960 0.734462
145.624725 101.672195 7.348273 0.731960
145.621964 101.752701 6.520418 0.736568
145.621964 101.752701 5.685177 0.739116
145.626816 101.610893 4.841686 0.260563
145.626816 101.610901 4.025412 0.194781
145.624725 101.672195 3.216523 0.721111
145.626816 101.610893 2.404214 0.182895
145.624725 101.672195 1.594782 0.733761
145.621964 101.752693 0.779520 0.708339
145.637421 101.301376 -0.000019 0.235456
145.877335 94.298882 -0.000013 0.229149
146.010941 90.398888 -0.000010 0.204710
146.096237 87.909081 -0.000008 0.219503
146.155533 86.178574 -0.000007 0.209976
146.199203 84.903610 -0.000006 0.197518
145.795471 101.752701 8.221622 0.727504
145.797668 101.672195 7.347124 0.735668
145.795471 101.752701 6.519448 0.724056
145.795471 101.752701 5.684385 0.731304
145.799332 101.610893 4.841075 0.230289
145.799332 101.610893 4.024978 0.195010
145.797668 101.672195 3.216261 0.733288
145.799332 101.610893 2.404127 0.175601
145.797668 101.672195 1.594869 0.718074
145.795471 101.752693 0.779782 0.711727
145.807632 101.306602 -0.000018 0.229675
145.998642 94.302612 -0.000013 0.210347
146.105026 90.401779 -0.000010 0.205476
146.172943 87.911438 -0.000008 0.224050
146.220154 86.180557 -0.000007 0.249853
146.254929 84.905327 -0.000006 0.208696
145.971786 101.610886 8.185061 0.145922
145.971786 101.610886 7.332993 0.129412
145.968903 101.752693 6.518696 0.716335
145.968903 101.752693 5.683774 0.723491
145.971786 101.610893 4.840603 0.249180
145.971786 101.610893 4.024641 0.182040
145.970535 101.672195 3.216060 0.731777
145.970963 101.650894 2.404715 0.729046
145.970535 101.672203 1.594936 0.726131
145.968903 101.752693 0.779985 0.733257
145.977875 101.310654 -0.000018 0.232655
146.119980 94.305504 -0.000013 0.218832
146.199127 90.404022 -0.000010 0.197374
146.249664 87.913261 -0.000008 0.211448
146.284775 86.182098 -0.000007 0.230250
146.310654 84.906647 -0.000006 0.219467
146.144180 101.610886 8.184336 0.129412
146.144180 101.610886 7.332367 0.132753
146.142288 101.752693 6.518166 0.721401
146.142288 101.752701 5.683342 0.722484
146.144180 101.610893 4.840270 0.222065
146.144180 101.610893 4.024404 0.186786
146.143372 101.672195 3.215917 0.720516
146.144180 101.610893 2.404013 0.223529
146.143372 101.672195 1.594984 0.742275
146.142288 101.752693 0.780128 0.693141
146.148132 101.313507 -0.000018 0.227880
146.241333 94.307541 -0.000013 0.221190
146.293243 90.405602 -0.000010 0.207056
146.326385 87.914551 -0.000008 0.254700
146.349411 86.183182 -0.000007 0.222686
146.366379 84.907585 -0.000006 0.211903
146.316544 101.610886 8.183911 0.095735
146.316544 101.610886 7.332001 0.154208
146.315643 101.752701 6.517857 0.720424
146.315643 101.752693 5.683089 0.740108
146.316544 101.610893 4.840076 0.192157
146.316544 101.610893 4.024264 0.215045
146.316162 101.672195 3.215833 0.736400
146.316544 101.610893 2.403986 0.213260
146.316162 101.672195 1.595011 0.713298
146.315643 101.752693 0.780211 0.707973
146.318405 101.315186 -0.000018 0.233912
146.362701 94.308731 -0.000013 0.223332
146.387375 90.406525 -0.000010 0.243031
146.403122 87.915306 -0.000008 0.238376
146.414063 86.183815 -0.000007 0.249374
146.422119 84.908134 -0.000006 0.244743
146.488892 101.610886 8.183790 0.149966
146.488892 101.610886 7.331895 0.144747
146.488983 101.752693 6.517768 0.733333
146.488983 101.752701 5.683018 0.722484
146.488892 101.610893 4.840020 0.193378
146.488892 101.610893 4.024224 0.179507
146.488937 101.672195 3.215810 0.735637
146.488892 101.610893 2.403978 0.243381
146.488937 101.672195 1.595020 0.717388
146.488983 101.752693 0.780235 0.729290
146.488693 101.315659 -0.000018 0.226947
146.484070 94.309067 -0.000013 0.228814
146.481491 90.406792 -0.000010 0.225857
146.479858 87.915520 -0.000008 0.215924
146.478714 86.183998 -0.000007 0.242948
146.477859 84.908287 -0.000006 0.191043
146.661240 101.610893 8.183969 0.137667
146.661240 101.610886 7.332051 0.149020
146.662323 101.752693 6.517899 0.774914
146.662323 101.752701 5.683123 0.734524
146.661240 101.610901 4.840102 0.203922
146.661240 101.610893 4.024283 0.178058
146.661713 101.672195 3.215845 0.741176
146.661240 101.610893 2.403989 0.223529
146.661713 101.672195 1.595008 0.717937
146.662323 101.752693 0.780200 0.718486
146.658981 101.314957 -0.000018 0.238340
146.605438 94.308571 -0.000012 0.228598
146.575623 90.406403 -0.000010 0.272089
146.556595 87.915207 -0.000009 0.249877
146.543350 86.183731 -0.000007 0.197087
146.533615 84.908058 -0.000006 0.268284
146.833618 101.610893 8.184450 0.129412
146.833618 101.610893 7.332466 0.153567
146.835693 101.752701 6.518250 0.743984
146.835693 101.752701 5.683410 0.733547
146.833618 101.610893 4.840322 0.213230
146.833618 101.610893 4.024440 0.192157
146.834518 101.672195 3.215940 0.733333
146.833618 101.610893 2.404020 0.212253
146.834518 101.672195 1.594976 0.723690
146.835693 101.752693 0.780106 0.727687
146.829254 101.313057 -0.000017 0.234929
146.726807 94.307220 -0.000013 0.202185
146.669754 90.405350 -0.000010 0.216116
146.633316 87.914352 -0.000009 0.239884
146.608002 86.183014 -0.000007 0.260086
146.589340 84.907440 -0.000006 0.260744
147.006027 101.610886 8.185231 0.136172
147.006027 101.610893 7.333140 0.124041
147.009079 101.752701 6.518822 0.752941
147.009079 101.752701 5.683875 0.733562
147.006027 101.610901 4.840683 0.209934
147.006027 101.610893 4.024696 0.197757
147.007339 101.672195 3.216093 0.716533
147.006027 101.610893 2.404072 0.235569
147.007339 101.672195 1.594925 0.711086
147.009094 101.752686 0.779951 0.736370
146.999512 101.309975 -0.000017 0.230549
146.848160 94.305016 -0.000012 0.228203
146.763855 90.403641 -0.000010 0.211987
146.710037 87.912956 -0.000008 0.188625
146.672638 86.181839 -0.000006 0.234642
146.645081 84.906425 -0.000006 0.262730
147.178482 101.610886 8.186316 0.094118
147.178482 101.610886 7.334074 0.115389
147.182541 101.752701 6.519613 0.738689
147.182541 101.752701 5.684522 0.723171
147.178482 101.610901 4.841180 0.223529
147.178482 101.610893 4.025051 0.178805
147.180237 101.672195 3.216306 0.730938
147.178482 101.610893 2.404142 0.223529
147.180237 101.672195 1.594854 0.706035
147.182541 101.752693 0.779737 0.721614
147.169754 101.305695 -0.000017 0.222267
146.969498 94.301971 -0.000012 0.235348
146.857956 90.401283 -0.000010 0.213734
146.786758 87.911034 -0.000008 0.252606
146.737259 86.180214 -0.000006 0.246287
146.700806 84.905029 -0.000006 0.189140
147.350998 101.610886 8.187702 0.112795
147.351013 101.610886 7.335270 0.095720
147.356049 101.752701 6.520627 0.738384
147.356049 101.752701 5.685347 0.721859
147.351013 101.610901 4.841817 0.192157
147.350998 101.610901 4.025505 0.185672
147.353180 101.672203 3.216579 0.733333
147.350998 101.610893 2.404233 0.206119
147.353180 101.672195 1.594763 0.727871
147.356049 101.752693 0.779464 0.732403
147.339951 101.300232 -0.000017 0.232356
147.090805 94.298080 -0.000013 0.232248
146.952042 90.398262 -0.000010 0.215828
146.863449 87.908569 -0.000008 0.201623
146.801880 86.178146 -0.000007 0.253252
146.756516 84.903244 -0.000006 0.214847
147.523621 101.610886 8.189388 0.142168
147.523621 101.610886 7.336726 0.094118
147.529648 101.752693 6.521859 0.713252
147.529663 101.752693 5.686352 0.733333
147.523621 101.610893 4.842592 0.237629
147.523621 101.610901 4.026058 0.226337
147.526230 101.672195 3.216910 0.740948
147.523621 101.610893 2.404343 0.205478
147.526230 101.672195 1.594653 0.701076
147.529648 101.752686 0.779131 0.737041
147.510117 101.293587 -0.000017 0.227521
147.212082 94.293343 -0.000013 0.204483
147.046097 90.394592 -0.000010 0.227928
146.940125 87.905579 -0.000008 0.238364
146.866486 86.175621 -0.000007 0.205907
146.812210 84.901070 -0.000006 0.220508
147.696335 101.610909 8.191385 0.139162
147.696335 101.610893 7.338443 0.131472
147.703369 101.752701 6.523315 0.737850
147.703369 101.752701 5.687538 0.721569
147.698318 101.650894 4.848113 0.669856
147.698318 101.650894 4.029994 0.669856
147.699371 101.672195 3.217302 0.712703
147.696335 101.610886 2.404473 0.206683
147.699371 101.672195 1.594523 0.702541
147.703369 101.752693 0.778738 0.737469
147.680222 101.285744 -0.000017 0.219239
147.333328 94.287750 -0.000012 0.236736
147.140121 90.390259 -0.000010 0.269612
147.016785 87.902039 -0.000008 0.212693
146.931061 86.172646 -0.000007 0.257417
146.867905 84.898499 -0.000005 0.207630
147.877197 101.752701 8.229255 0.745357
147.869171 101.610901 7.340423 0.093050
147.877197 101.752693 6.524991 0.741176
147.877182 101.752693 5.688904 0.721569
147.869171 101.610901 4.844560 0.192157
147.869171 101.610901 4.027462 0.385672
147.872635 101.672203 3.217753 0.731991
147.869171 101.610893 2.404623 0.188617
147.872635 101.672195 1.594372 0.708431
147.877182 101.752693 0.778286 0.740459
147.850266 101.276726 -0.000017 0.231877
147.454529 94.281319 -0.000012 0.236844
147.234131 90.385262 -0.000009 0.215410
147.093414 87.897980 -0.000008 0.257800
146.995621 86.169220 -0.000007 0.184425
146.923569 84.895546 -0.000005 0.246550
148.051147 101.752701 8.231867 0.733333
148.042145 101.610901 7.342663 0.077699
148.051147 101.752701 6.526888 0.742061
148.051147 101.752693 5.690452 0.734005
148.042145 101.610893 4.845753 0.192157
148.042145 101.610893 4.028311 0.160784
148.046036 101.672195 3.218264 0.741176
148.044678 101.650894 2.405449 0.691752
148.046036 101.672203 1.594202 0.707134
148.051147 101.752693 0.777773 0.733486
148.020248 101.266502 -0.000017 0.219897
147.575684 94.274040 -0.000012 0.248489
147.328079 90.379623 -0.000009 0.253240
147.170013 87.893372 -0.000007 0.229149
147.060150 86.165337 -0.000006 0.238507
146.979202 84.892204 -0.000006 0.218162
148.225281 101.752701 8.234785 0.733333
148.215271 101.610893 7.345165 0.094774
148.225281 101.752701 6.529009 0.736324
148.225281 101.752693 5.692180 0.774258
148.215256 101.610893 4.847085 0.193256
148.215271 101.610893 4.029262 0.172549
148.219589 101.672195 3.218835 0.722057
148.215271 101.610893 2.404982 0.169741
148.219589 101.672195 1.594012 0.712291
148.225266 101.752693 0.777200 0.731456
148.190155 101.255104 -0.000017 0.218078
147.696777 94.265923 -0.000012 0.222865
147.421997 90.373322 -0.000009 0.243031
147.246582 87.888237 -0.000008 0.185753
147.124649 86.161011 -0.000006 0.293452
147.034821 84.888474 -0.000006 0.221441
148.399567 101.752701 8.238012 0.733333
148.388565 101.610901 7.347932 0.092287
148.399567 101.752701 6.531353 0.744823
148.399567 101.752693 5.694091 0.746822
148.388565 101.610893 4.848560 0.192157
148.388565 101.610893 4.030312 0.172549
148.399567 101.752693 3.223432 0.739620
148.388565 101.610901 2.405192 0.166140
148.399567 101.752693 1.592481 0.721569
148.399567 101.752686 0.776568 0.727825
148.359970 101.242523 -0.000017 0.229113
147.817825 94.256943 -0.000012 0.236676
147.515869 90.366364 -0.000009 0.225187
147.323105 87.882568 -0.000008 0.235085
147.189117 86.156235 -0.000006 0.209162
147.090408 84.884354 -0.000006 0.289048
148.574036 101.752701 8.241547 0.733333
148.562042 101.610901 7.350961 0.120775
148.574036 101.752701 6.533920 0.759289
148.574036 101.752693 5.696184 0.752941
148.562042 101.610901 4.850174 0.192157
148.562042 101.610901 4.031462 0.178943
148.567230 101.672195 3.220156 0.733791
148.562042 101.610901 2.405422 0.167041
148.567230 101.672195 1.593572 0.727871
148.574036 101.752693 0.775875 0.733333
148.529694 101.228752 -0.000017 0.218725
147.938797 94.247131 -0.000012 0.236712
147.609695 90.358749 -0.000009 0.246215
147.399582 87.876358 -0.000008 0.217372
147.253555 86.151009 -0.000006 0.212035
147.145966 84.879845 -0.000005 0.258661
148.748734 101.752701 8.245390 0.733333
148.735733 101.610901 7.354255 0.115023
148.748734 101.752701 6.536713 0.752941
148.748734 101.752693 5.698459 0.746929
148.735733 101.610893 4.851929 0.223529
148.735733 101.610901 4.032712 0.206867
148.741348 101.672195 3.220908 0.726162
148.735733 101.610901 2.405671 0.166201
148.741348 101.672195 1.593321 0.733333
148.748734 101.752693 0.775121 0.723980
148.699326 101.213806 -0.000017 0.213866
148.059692 94.236473 -0.000012 0.242493
147.703461 90.350487 -0.000009 0.211041
147.476028 87.869621 -0.000007 0.246514
147.317963 86.145332 -0.000006 0.247184
147.201492 84.874947 -0.000005 0.207463
148.923645 101.752701 8.249540 0.737896
148.909637 101.610901 7.357815 0.097688
148.923645 101.752693 6.539727 0.762921
148.923645 101.752701 5.700917 0.737133
148.909637 101.610893 4.853824 0.192157
148.909637 101.610901 4.034063 0.192157
148.915695 101.672195 3.221719 0.739895
148.909637 101.610901 2.405941 0.159319
148.915695 101.672188 1.593051 0.726482
148.923645 101.752686 0.774307 0.733333
148.868851 101.197670 -0.000016 0.221286
148.180527 94.224976 -0.000012 0.226647
147.797165 90.341568 -0.000009 0.204938
147.552414 87.862350 -0.000008 0.218892
147.382309 86.139206 -0.000006 0.252941
147.256989 84.869667 -0.000005 0.230788
149.098785 101.752701 8.254002 0.716930
149.083801 101.610901 7.361641 0.100649
149.098785 101.752693 6.542968 0.752941
149.098785 101.752693 5.703560 0.726665
149.083801 101.610893 4.855861 0.192157
149.083801 101.610901 4.035516 0.192157
149.090271 101.672195 3.222591 0.733333
149.083801 101.610901 2.406231 0.165148
149.090271 101.672195 1.592761 0.721569
149.098785 101.752686 0.773432 0.728191
149.038254 101.180344 -0.000016 0.219897
148.301270 94.212631 -0.000012 0.234642
147.890808 90.331993 -0.000009 0.210335
147.628754 87.854546 -0.000008 0.230262
147.446625 86.132629 -0.000006 0.206206
147.312439 84.863998 -0.000005 0.237993
149.274200 101.752701 8.258777 0.733333
149.258194 101.610901 7.365734 0.145510
149.274200 101.752701 6.546436 0.733333
149.274200 101.752701 5.706388 0.707683
149.258194 101.610893 4.858042 0.212985
149.258194 101.610893 4.037069 0.203922
149.265121 101.672195 3.223525 0.744900
149.258194 101.610901 2.406541 0.168093
149.265121 101.672195 1.592450 0.726619
149.274200 101.752693 0.772495 0.733333
149.207535 101.161835 -0.000016 0.219347
148.421921 94.199440 -0.000011 0.241966
147.984375 90.321762 -0.000009 0.226516
147.705032 87.846207 -0.000007 0.200940
147.510895 86.125603 -0.000006 0.188494
147.367859 84.857941 -0.000005 0.232500
149.449890 101.752701 8.263865 0.732830
149.432877 101.610901 7.370095 0.112322
149.449890 101.752701 6.550132 0.741176
149.449890 101.752701 5.709400 0.723964
149.432877 101.610893 4.860365 0.223529
149.432877 101.610901 4.038726 0.203922
149.440231 101.672195 3.224519 0.731685
149.432877 101.610901 2.406872 0.184161
149.440231 101.672188 1.592119 0.734157
149.449890 101.752693 0.771497 0.733333
149.376678 101.142151 -0.000016 0.227054
148.542480 94.185410 -0.000012 0.228981
148.077866 90.310883 -0.000009 0.252043
147.781265 87.837334 -0.000007 0.202508
147.575104 86.118134 -0.000006 0.196608
147.423218 84.851501 -0.000005 0.252163
149.625870 101.752701 8.269265 0.715480
149.607849 101.610893 7.374724 0.117464
149.625870 101.752701 6.554056 0.733059
149.625870 101.752701 5.712599 0.712612
149.607849 101.610893 4.862830 0.223529
149.607864 101.610901 4.040483 0.184207
149.615646 101.672195 3.225575 0.724147
149.607864 101.610893 2.407222 0.169375
149.615646 101.672195 1.591767 0.712337
149.625870 101.752686 0.770439 0.730526
149.545670 101.121284 -0.000016 0.223356
148.662933 94.170532 -0.000011 0.221298
148.171295 90.299347 -0.000009 0.226085
147.857422 87.827934 -0.000008 0.216786
147.639267 86.110207 -0.000006 0.226743
147.478546 84.844666 -0.000005 0.226839
149.802155 101.752701 8.274982 0.718074
149.783142 101.610893 7.379625 0.117647
149.802155 101.752701 6.558208 0.736782
149.802155 101.752701 5.715984 0.735134
149.783142 101.610893 4.865441 0.230152
149.783142 101.610901 4.042344 0.174014
149.791367 101.672195 3.226692 0.708110
149.783142 101.610901 2.407593 0.164004
149.791367 101.672195 1.591394 0.726009
149.802155 101.752693 0.769317 0.729107
149.714539 101.099243 -0.000016 0.227018
148.783279 94.154823 -0.000011 0.225331
148.264633 90.287163 -0.000009 0.203418
147.933517 87.817993 -0.000007 0.234666
147.703369 86.101845 -0.000006 0.283698
147.533813 84.837448 -0.000005 0.214201
149.978790 101.752701 8.281015 0.733333
149.958755 101.610901 7.384797 0.117647
149.978790 101.752701 6.562590 0.737377
149.978790 101.752701 5.719557 0.709804
149.958771 101.610901 4.868196 0.258824
149.958755 101.610901 4.044309 0.221302
149.967422 101.672195 3.227872 0.693034
149.958374 101.608101 2.407939 0.281193
149.967422 101.672195 1.591002 0.726390
149.978790 101.752686 0.768134 0.727260
149.883224 101.076019 -0.000016 0.232930
148.903519 94.138275 -0.000012 0.236174
148.357880 90.274330 -0.000009 0.232990
148.009537 87.807533 -0.000007 0.211340
147.767410 86.093025 -0.000006 0.269564
147.589035 84.829849 -0.000005 0.200174
150.155762 101.752701 8.287367 0.733333
150.134720 101.610886 7.390243 0.105791
150.155762 101.752701 6.567205 0.733333
150.155762 101.752701 5.723319 0.721523
150.134720 101.610901 4.871099 0.223529
150.134720 101.610901 4.046375 0.180941
150.143814 101.672195 3.229113 0.724330
150.134720 101.610901 2.408398 0.163851
150.143814 101.672195 1.590588 0.709804
150.155762 101.752686 0.766888 0.714946
150.051758 101.051613 -0.000016 0.227784
149.023636 94.120880 -0.000012 0.205057
148.451035 90.260841 -0.000009 0.240793
148.085480 87.796539 -0.000007 0.237730
147.831390 86.083755 -0.000006 0.258434
147.644211 84.821861 -0.000005 0.232033
150.333099 101.752701 8.294038 0.724987
150.311050 101.610893 7.395963 0.105882
150.333099 101.752693 6.572051 0.734829
150.333099 101.752701 5.727269 0.721660
150.311050 101.610901 4.874144 0.269932
150.311050 101.610901 4.048547 0.221576
150.320587 101.672195 3.230418 0.730709
150.311050 101.610901 2.408832 0.166720
150.320587 101.672195 1.590153 0.709804
150.333099 101.752686 0.765580 0.728511
150.220108 101.026031 -0.000015 0.216523
149.143631 94.102646 -0.000011 0.233589
148.544098 90.246704 -0.000008 0.198930
148.161346 87.785019 -0.000007 0.233457
147.895309 86.074051 -0.000006 0.194394
147.699310 84.813492 -0.000005 0.232105
150.510818 101.752701 8.301032 0.703044
150.487762 101.610893 7.401958 0.117647
150.510712 101.752052 6.577011 0.735958
150.510818 101.752701 5.731411 0.724880
150.487762 101.610901 4.877337 0.268528
150.487762 101.610901 4.050823 0.242374
150.497726 101.672195 3.231785 0.725933
150.487762 101.610893 2.409286 0.140368
150.497726 101.672195 1.589698 0.720241
150.510818 101.752686 0.764208 0.716381
150.388290 100.999283 -0.000015 0.226408
149.263504 94.083588 -0.000011 0.208456
148.637054 90.231918 -0.000009 0.233361
148.237122 87.772964 -0.000007 0.247280
147.959152 86.063896 -0.000006 0.258231
147.754364 84.804733 -0.000005 0.229484
150.688950 101.752701 8.308348 0.713207
150.664871 101.610893 7.408230 0.129412
150.683945 101.723228 6.577006 0.733379
150.688950 101.752701 5.735744 0.732738
150.666656 101.621368 4.881899 0.333120
150.666641 101.621368 4.054075 0.313726
150.675278 101.672195 3.233216 0.720928
150.664871 101.610901 2.409761 0.160784
150.675278 101.672195 1.589222 0.741176
150.688950 101.752693 0.762773 0.718578
150.556274 100.971359 -0.000015 0.232117
149.383224 94.063683 -0.000011 0.224110
148.729904 90.216476 -0.000008 0.226528
148.312820 87.760376 -0.000007 0.249745
148.022934 86.053291 -0.000006 0.197506
147.809357 84.795593 -0.000005 0.214679
150.867493 101.752701 8.315989 0.680461
150.842407 101.610893 7.414780 0.123629
150.856979 101.693253 6.577011 0.714611
150.867508 101.752701 5.740269 0.736828
150.842407 101.610901 4.884167 0.423896
150.842407 101.610893 4.055691 0.398688
150.853256 101.672195 3.234709 0.725292
150.842407 101.610901 2.410257 0.164080
150.853256 101.672195 1.588724 0.706401
150.867508 101.752693 0.761274 0.738842
150.724045 100.942276 -0.000015 0.211915
149.502808 94.042946 -0.000011 0.231243
148.822647 90.200394 -0.000008 0.240745
148.388428 87.747269 -0.000007 0.184640
148.086624 86.042252 -0.000006 0.268655
147.864273 84.786072 -0.000005 0.193173
151.046494 101.752701 8.323959 0.726024
151.027740 101.650894 7.430398 0.664332
151.029785 101.662018 6.577006 0.715404
151.046494 101.752701 5.744987 0.734676
151.020370 101.610901 4.887807 0.267994
151.020370 101.610901 4.058285 0.230594
151.031662 101.672195 3.236267 0.706859
151.020370 101.610901 2.410775 0.131746
151.031662 101.672195 1.588205 0.741176
151.046494 101.752693 0.759712 0.716976
150.891632 100.912003 -0.000015 0.226492
149.622253 94.021370 -0.000011 0.238304
148.915283 90.183670 -0.000008 0.250236
148.463943 87.733627 -0.000006 0.231626
148.150253 86.030762 -0.000006 0.199109
147.919128 84.776161 -0.000005 0.222806
151.225952 101.752701 8.332257 0.724971
151.198807 101.610893 7.428728 0.160784
151.210541 101.672195 6.584899 0.709804
151.225952 101.752701 5.749901 0.733333
151.198807 101.610893 4.891596 0.246067
151.198807 101.610901 4.060986 0.237507
151.210541 101.672195 3.237889 0.705257
151.198807 101.610901 2.411314 0.131060
151.210541 101.672195 1.587665 0.741176
151.225952 101.752693 0.758084 0.707088
151.058975 100.880569 -0.000015 0.229795
149.741531 93.998962 -0.000010 0.204950
149.007797 90.166290 -0.000008 0.217827
148.539368 87.719460 -0.000007 0.247447
148.213791 86.018822 -0.000006 0.221693
147.973907 84.765877 -0.000005 0.196165
151.405884 101.752693 8.340885 0.735073
151.377701 101.610893 7.436125 0.149020
151.389893 101.672195 6.591147 0.709804
151.405884 101.752701 5.755012 0.722942
151.377701 101.610893 4.895536 0.267338
151.377716 101.610901 4.063795 0.240940
151.389893 101.672195 3.239576 0.714260
151.377701 101.610893 2.411874 0.143938
151.389893 101.672195 1.587103 0.733333
151.405884 101.752693 0.756392 0.733333
151.226120 100.847954 -0.000015 0.215062
149.860672 93.975723 -0.000011 0.231482
149.100174 90.148270 -0.000008 0.275883
148.614685 87.704773 -0.000007 0.240853
148.277237 86.006447 -0.000006 0.215972
148.028625 84.755203 -0.000005 0.222865
151.586319 101.752701 8.349848 0.739223
151.557114 101.610886 7.443808 0.168963
151.569733 101.672195 6.597636 0.709804
151.586319 101.752693 5.760319 0.740398
151.557114 101.610901 4.899629 0.264408
151.557114 101.610893 4.066710 0.254276
151.569733 101.672195 3.241328 0.725109
151.557114 101.610901 2.412457 0.133150
151.569733 101.672195 1.586519 0.736828
151.586319 101.752686 0.754634 0.720882
151.393021 100.814194 -0.000015 0.221094
149.979630 93.951660 -0.000011 0.234594
149.192444 90.129601 -0.000008 0.208791
148.689896 87.689552 -0.000007 0.200737
148.340607 85.993629 -0.000006 0.232631
148.083252 84.744148 -0.000005 0.228802
151.767273 101.752693 8.359146 0.733486
151.737030 101.610893 7.451781 0.165515
151.750107 101.672195 6.604370 0.709804
151.767273 101.752693 5.765826 0.740658
151.737030 101.610893 4.903875 0.263890
151.737030 101.610893 4.069737 0.235294
151.750107 101.672195 3.243146 0.713069
151.737030 101.610901 2.413061 0.129412
151.750107 101.672195 1.585914 0.714351
151.767273 101.752693 0.752810 0.717342
151.559692 100.779259 -0.000015 0.232488
150.098419 93.926758 -0.000010 0.227760
149.284561 90.110291 -0.000008 0.244515
148.764999 87.673805 -0.000006 0.280575
148.403870 85.980362 -0.000006 0.233337
148.137817 84.732712 -0.000005 0.199648
nan nan nan 0.000000
nan nan nan 0.000000
nan nan nan 0.000000
126.318802 -14.453224 15.880269 0.763699
139.955795 47.376713 5.480814 0.846021
139.955795 47.376717 4.480951 0.824170
139.955795 47.376717 3.486442 0.854398
140.349411 49.161369 2.465221 0.400854
140.325851 49.054558 1.532989 0.374609
140.325851 49.054565 0.597966 0.341375
141.219116 53.104599 -0.000004 0.337301
142.728195 59.946754 0.000007 0.339117
143.568649 63.757359 0.000001 0.337407
144.105209 66.190109 -0.000005 0.340139
144.478149 67.881027 0.000005 0.338140
144.752899 69.126732 -0.000008 0.329885
nan nan nan 0.000000
nan nan nan 0.000000
nan nan nan 0.000000
125.648788 -14.453232 15.902018 0.753429
139.758438 47.461365 5.476279 0.689281
139.758438 47.461369 4.477718 0.683711
139.758438 47.461369 3.484506 0.520317
140.145844 49.161369 2.465950 0.395941
140.121506 49.054558 1.532257 0.385229
140.121506 49.054565 0.595770 0.359976
141.052948 53.141853 -0.000005 0.338125
142.609756 59.973305 0.000006 0.337758
143.476807 63.777954 0.000000 0.340932
144.030334 66.206902 -0.000004 0.338796
144.415070 67.895172 0.000005 0.329290
144.698502 69.138931 -0.000008 0.342138
nan nan nan 0.000000
nan nan nan 0.000000
nan nan nan 0.000000
124.976654 -14.453239 15.924508 0.746914
139.541718 47.461372 5.481904 0.549691
139.541718 47.461365 4.481729 0.715328
139.541718 47.461369 3.486908 0.676783
139.941635 49.161373 2.466703 0.404379
139.941635 49.161373 1.533296 0.409033
139.941635 49.161381 0.598888 0.386969
140.887070 53.180328 0.000000 0.338247
142.491516 60.000664 0.000003 0.336797
143.385101 63.799183 0.000000 0.333913
143.955566 66.224213 -0.000005 0.329671
144.352081 67.909760 0.000005 0.328695
144.644196 69.151505 -0.000008 0.326528
nan nan nan 0.000000
nan nan nan 0.000000
nan nan nan 0.000000
124.310654 -14.418800 15.942497 0.793896
124.592621 -13.256638 12.675413 0.758358
124.217155 -14.804153 9.739473 0.522927
124.403152 -14.037537 6.598290 0.481804
139.736755 49.161377 2.467483 0.631327
139.736755 49.161377 1.532517 0.689219
139.736755 49.161377 0.596550 0.776471
140.721466 53.219967 0.000006 0.337331
142.373459 60.028858 0.000002 0.334218
143.293549 63.821060 0.000000 0.336065
143.880936 66.242043 -0.000004 0.342245
144.289215 67.924782 0.000005 0.330373
144.589981 69.164459 -0.000008 0.341390
nan nan nan 0.000000
nan nan nan 0.000000
nan nan nan 0.000000
123.625656 -14.453239 15.971760 0.780285
123.497292 -14.966637 12.896563 0.492409
123.606392 -14.530258 9.729646 0.439216
123.775108 -13.855484 6.596985 0.421195
139.531174 49.161373 2.468288 0.701228
139.531174 49.161373 1.531713 0.789578
139.531174 49.161373 0.594133 0.647059
140.556137 53.260757 0.000011 0.336873
142.255615 60.057873 0.000001 0.337728
143.202148 63.843567 -0.000000 0.340795
143.806427 66.260399 -0.000004 0.338003
144.226440 67.940247 0.000005 0.334920
144.535858 69.177788 -0.000008 0.331029
nan nan nan 0.000000
nan nan nan 0.000000
nan nan nan 0.000000
122.946648 -14.453247 15.996535 0.758633
122.813766 -14.969345 12.916203 0.462226
122.924438 -14.539490 9.744131 0.415534
123.100204 -13.856827 6.605204 0.466712
123.345322 -12.904747 3.517884 0.489235
123.366791 -12.821381 0.483524 0.517647
136.322205 37.498711 0.000006 0.231997
140.391083 53.302620 0.000009 0.337774
142.137970 60.087711 -0.000001 0.339422
143.110916 63.866722 -0.000000 0.336049
143.732040 66.279266 -0.000005 0.332433
144.163773 67.956146 0.000006 0.341344
144.481827 69.191498 -0.000008 0.339925
nan nan nan 0.000000
nan nan nan 0.000000
nan nan nan 0.000000
122.292435 -14.350388 16.006296 0.783032
122.127701 -14.972267 12.936475 0.422705
122.181335 -14.769753 9.777796 0.647059
122.421707 -13.862404 6.613891 0.447318
123.163155 -11.063637 3.489486 0.789090
122.697487 -12.821419 0.480757 0.505135
136.047211 37.570522 0.000005 0.232428
140.226303 53.345604 0.000005 0.336812
142.020538 60.118378 -0.000001 0.339300
143.019836 63.890503 -0.000001 0.339986
143.657806 66.298660 -0.000004 0.340185
144.101227 67.972481 0.000006 0.340887
144.427902 69.205582 -0.000008 0.342138
nan nan nan 0.000000
nan nan nan 0.000000
nan nan nan 0.000000
121.566879 -14.505844 16.056488 0.784726
121.900650 -13.280556 12.755299 0.774685
122.185585 -12.234573 9.576953 0.776379
122.395607 -11.463570 6.500412 0.777508
121.969666 -13.027206 3.525586 0.633127
122.025803 -12.821136 0.477909 0.595499
135.772720 37.644260 0.000005 0.229448
140.061859 53.389786 0.000005 0.335714
141.903320 60.149860 -0.000002 0.337926
142.928940 63.914925 -0.000001 0.332341
143.583694 66.318565 -0.000005 0.334401
144.038788 67.989258 0.000006 0.335470
144.374069 69.220047 -0.000008 0.331411
nan nan nan 0.000000
nan nan nan 0.000000
nan nan nan 0.000000
120.894615 -14.453270 16.075516 0.770214
120.747902 -14.977386 12.978765 0.504280
120.869095 -14.544456 9.788253 0.412573
121.059113 -13.865585 6.631638 0.442618
122.077202 -10.228477 3.480972 0.770977
122.348534 -9.259155 0.535501 0.722759
135.498764 37.719902 0.000005 0.227054
139.897705 53.435066 0.000001 0.338048
141.786331 60.182198 0.000001 0.338018
142.838196 63.939976 -0.000002 0.337316
143.509720 66.338997 -0.000005 0.332738
143.976471 68.006470 0.000006 0.330098
144.320328 69.234886 -0.000009 0.331334
nan nan nan 0.000000
nan nan nan 0.000000
nan nan nan 0.000000
120.205353 -14.453232 16.103416 0.749493
119.871246 -15.615494 13.076910 0.444129
120.123451 -14.738106 9.820213 0.409995
120.373848 -13.867050 6.640893 0.451698
120.648666 -12.911026 3.529581 0.415625
120.674545 -12.820999 0.471950 0.518914
135.225342 37.797474 0.000005 0.226288
139.733856 53.481483 -0.000003 0.338201
141.669571 60.215332 0.000002 0.338033
142.747650 63.965664 -0.000002 0.338567
143.435898 66.359940 -0.000005 0.338262
143.914291 68.024109 0.000006 0.336889
144.266708 69.250099 -0.000009 0.339406
nan nan nan 0.000000
nan nan nan 0.000000
nan nan nan 0.000000
nan nan nan 0.000000
118.865540 -16.648804 13.223392 0.410224
119.126457 -15.764397 9.923868 0.430381
119.536140 -14.375824 6.676400 0.454749
119.968002 -12.912056 3.532712 0.430289
119.994766 -12.821335 0.468834 0.489586
134.952454 37.876945 0.000005 0.233433
139.570358 53.529045 -0.000008 0.337713
141.553055 60.249287 0.000005 0.336233
142.657272 63.991985 -0.000002 0.339208
143.362228 66.381393 -0.000005 0.336782
143.852219 68.042191 0.000006 0.332219
144.213196 69.265686 -0.000009 0.328237
nan nan nan 0.000000
nan nan nan 0.000000
nan nan nan 0.000000
nan nan nan 0.000000
nan nan nan 0.000000
118.102119 -16.820015 10.030849 0.442283
119.123459 -13.445190 6.638399 0.780606
119.128563 -13.428337 3.544739 0.403388
119.187981 -13.232018 0.458615 0.527138
134.680145 37.958317 0.000005 0.225056
139.407181 53.577774 -0.000011 0.337728
141.436768 60.284058 0.000007 0.337804
142.567078 64.018929 -0.000003 0.327977
143.304642 66.456017 0.010004 1.000000
143.790268 68.060699 0.000006 0.335195
144.159775 69.281647 -0.000009 0.344396
nan nan nan 0.000000
nan nan nan 0.000000
nan nan nan 0.000000
nan nan nan 0.000000
nan nan nan 0.000000
nan nan nan 0.000000
117.499313 -16.455475 6.803175 0.491127
118.123154 -14.444855 3.565465 0.402899
118.190094 -14.229080 0.438232 0.542641
134.408401 38.041584 0.000004 0.233361
139.244370 53.627663 -0.000011 0.336873
141.320724 60.319633 0.000008 0.338598
142.477081 64.046501 -0.000004 0.338338
143.231628 66.478363 0.010000 1.000000
143.728470 68.079643 0.000006 0.340139
144.106491 69.297981 -0.000008 0.330419
nan nan nan 0.000000
nan nan nan 0.000000
nan nan nan 0.000000
nan nan nan 0.000000
nan nan nan 0.000000
116.928909 -15.996780 9.994887 0.779706
nan nan nan 0.000000
117.088867 -15.493706 3.586913 0.430945
117.165649 -15.252205 0.417235 0.520867
134.137238 38.126728 0.000003 0.234570
139.081909 53.678703 -0.000010 0.338277
141.204941 60.356018 0.000010 0.336492
142.407715 64.138985 0.010001 1.000000
143.158783 66.501221 0.009995 1.000000
143.666794 68.099014 0.000006 0.341451
144.053299 69.314682 -0.000008 0.343969
nan nan nan 0.000000
nan nan nan 0.000000
nan nan nan 0.000000
nan nan nan 0.000000
nan nan nan 0.000000
nan nan nan 0.000000
nan nan nan 0.000000
nan nan nan 0.000000
116.116135 -16.294312 0.395740 0.534844
133.866684 38.213783 0.000003 0.228131
138.919815 53.730865 -0.000010 0.338598
141.089401 60.393211 0.000012 0.337194
142.318558 64.167664 0.009999 1.000000
143.069077 66.472351 -0.000006 0.341512
143.605255 68.118820 0.000007 0.333959
144.000244 69.331764 -0.000007 0.332967
nan nan nan 0.000000
nan nan nan 0.000000
nan nan nan 0.000000
nan nan nan 0.000000
nan nan nan 0.000000
nan nan nan 0.000000
nan nan nan 0.000000
nan nan nan 0.000000
nan nan nan 0.000000
133.596741 38.302731 0.000003 0.231602
138.758087 53.784161 -0.000010 0.338293
140.974136 60.431213 0.000014 0.333501
142.229599 64.196976 0.009999 1.000000
142.996201 66.496361 -0.000005 0.334890
143.558487 68.182968 0.010004 1.000000
143.947296 69.349213 -0.000006 0.331090
nan nan nan 0.000000
nan nan nan 0.000000
nan nan nan 0.000000
nan nan nan 0.000000
nan nan nan 0.000000
nan nan nan 0.000000
nan nan nan 0.000000
nan nan nan 0.000000
nan nan nan 0.000000
133.327438 38.393566 0.000002 0.231004
138.596725 53.838593 -0.000009 0.338537
140.859131 60.470009 0.000014 0.335775
142.119080 64.163071 -0.000006 0.338521
142.923492 66.520935 0.000003 0.197374
143.497528 68.203506 0.010002 1.000000
143.894485 69.367027 -0.000006 0.337545
nan nan nan 0.000000
nan nan nan 0.000000
nan nan nan 0.000000
nan nan nan 0.000000
nan nan nan 0.000000
nan nan nan 0.000000
nan nan nan 0.000000
nan nan nan 0.000000
nan nan nan 0.000000
133.058762 38.486267 0.000002 0.234259
138.435760 53.894150 -0.000008 0.337423
140.744400 60.509579 0.000013 0.338155
142.030121 64.193840 0.000005 0.218114
142.850952 66.545959 0.000003 0.232883
143.436737 68.224503 0.010005 1.000000
143.841797 69.385208 -0.000006 0.341527
nan nan nan 0.000000
nan nan nan 0.000000
nan nan nan 0.000000
nan nan nan 0.000000
nan nan nan 0.000000
nan nan nan 0.000000
121.582878 7.171112 5.638351 0.405020
nan nan nan 0.000000
nan nan nan 0.000000
132.790741 38.580837 0.000002 0.226001
138.275192 53.950825 -0.000008 0.339010
140.629944 60.549961 0.000011 0.336477
141.941360 64.225174 0.000005 0.230477
142.778595 66.571503 0.000003 0.195292
143.360519 68.202316 0.000008 0.337148
143.789230 69.403763 -0.000005 0.319310
nan nan nan 0.000000
nan nan nan 0.000000
nan nan nan 0.000000
nan nan nan 0.000000
nan nan nan 0.000000
nan nan nan 0.000000
nan nan nan 0.000000
nan nan nan 0.000000
nan nan nan 0.000000
132.523392 38.677296 0.000002 0.229939
138.115021 54.008644 -0.000005 0.338094
140.515778 60.591156 0.000012 0.335729
141.852814 64.257111 0.000005 0.233852
142.706421 66.597542 0.000003 0.270701
143.299713 68.224258 0.000009 0.323766
143.736801 69.422684 -0.000004 0.344198
nan nan nan 0.000000
nan nan nan 0.000000
nan nan nan 0.000000
nan nan nan 0.000000
nan nan nan 0.000000
nan nan nan 0.000000
nan nan nan 0.000000
nan nan nan 0.000000
nan nan nan 0.000000
132.256714 38.775585 0.000000 0.228335
137.955261 54.067600 0.000000 0.338476
140.401901 60.633125 0.000010 0.340169
141.764496 64.289673 0.000005 0.215003
142.634415 66.624084 0.000003 0.215757
143.239044 68.246620 0.000009 0.338964
143.684494 69.441971 -0.000004 0.332418
nan nan nan 0.000000
nan nan nan 0.000000
nan nan nan 0.000000
nan nan nan 0.000000
nan nan nan 0.000000
nan nan nan 0.000000
119.500931 6.061386 5.724888 0.418463
120.032974 7.459221 3.216269 0.399191
nan nan nan 0.000000
131.990738 38.875748 0.000000 0.232093
137.795898 54.127625 0.000000 0.339834
140.288300 60.675888 0.000009 0.337652
141.676407 64.322845 0.000005 0.208588
142.562607 66.651131 0.000003 0.227736
143.178543 68.269379 0.000002 0.262060
143.632324 69.461617 -0.000003 0.333089
nan nan nan 0.000000
nan nan nan 0.000000
nan nan nan 0.000000
nan nan nan 0.000000
nan nan nan 0.000000
nan nan nan 0.000000
119.196152 6.738419 5.699220 0.410391
119.401260 7.266182 3.222927 0.411704
nan nan nan 0.000000
131.725464 38.977772 0.000000 0.226970
137.636993 54.188805 0.000005 0.337148
140.175018 60.719448 0.000007 0.337316
141.588562 64.356636 0.000005 0.233732
142.490982 66.678680 0.000003 0.221034
143.118210 68.292587 0.000002 0.219838
143.580307 69.481628 -0.000002 0.311742
nan nan nan 0.000000
nan nan nan 0.000000
nan nan nan 0.000000
nan nan nan 0.000000
nan nan nan 0.000000
nan nan nan 0.000000
119.422028 8.733437 5.603936 0.456107
119.185272 8.136620 3.210960 0.407034
nan nan nan 0.000000
131.460907 39.081642 -0.000000 0.228837
137.478500 54.251057 0.000006 0.335836
140.062042 60.763794 0.000006 0.337591
141.500946 64.391045 0.000005 0.236772
142.419556 66.706726 0.000003 0.254987
143.058029 68.316216 0.000002 0.186926
143.543152 69.539139 0.010006 1.000000
nan nan nan 0.000000
nan nan nan 0.000000
nan nan nan 0.000000
nan nan nan 0.000000
nan nan nan 0.000000
118.341515 7.429070 8.147393 0.400488
119.181076 9.503120 5.573239 0.407767
119.398155 10.039398 3.180761 0.418982
nan nan nan 0.000000
131.197083 39.187366 -0.000001 0.227509
137.320435 54.314400 0.000006 0.337743
139.949371 60.808926 0.000004 0.338109
141.413574 64.426056 0.000005 0.229400
142.348328 66.735268 0.000003 0.235719
142.998016 68.340263 0.000002 0.182965
143.491669 69.559753 0.010000 1.000000
nan nan nan 0.000000
nan nan nan 0.000000
nan nan nan 0.000000
nan nan nan 0.000000
nan nan nan 0.000000
117.747482 7.361855 8.170929 0.412161
117.972946 7.907845 5.668244 0.416144
119.034019 10.477394 3.176382 0.415000
nan nan nan 0.000000
130.934021 39.294930 -0.000001 0.230537
137.162781 54.378773 -0.000000 0.338369
139.870163 60.935097 0.009990 1.000000
141.326447 64.461678 0.000005 0.239082
142.277298 66.764305 0.000003 0.203346
142.938187 68.364731 0.000002 0.206996
143.440323 69.580742 0.010001 1.000000
nan nan nan 0.000000
nan nan nan 0.000000
nan nan nan 0.000000
nan nan nan 0.000000
nan nan nan 0.000000
117.670853 8.533615 8.084671 0.415274
117.005455 6.953606 5.729806 0.414603
nan nan nan 0.000000
117.424156 7.947823 0.775272 0.462745
130.671692 39.404312 -0.000001 0.229364
137.052933 54.556664 0.009995 1.000000
139.725006 60.901573 0.000003 0.337392
141.239563 64.497910 0.000005 0.183778
142.206467 66.793846 0.000003 0.204555
142.878510 68.389610 0.000002 0.243354
143.389145 69.602104 0.010005 1.000000
nan nan nan 0.000000
nan nan nan 0.000000
nan nan nan 0.000000
nan nan nan 0.000000
nan nan nan 0.000000
117.486603 9.417534 8.023886 0.425940
117.704544 9.925117 5.582026 0.411780
nan nan nan 0.000000
nan nan nan 0.000000
130.410141 39.515526 -0.000001 0.230429
136.848862 54.510841 -0.000010 0.336461
139.613312 60.949051 0.000001 0.337377
141.152954 64.534744 0.000005 0.230800
142.135864 66.823875 0.000003 0.234283
142.819016 68.414909 0.000002 0.242325
143.322342 69.587112 0.000002 0.337316
nan nan nan 0.000000
nan nan nan 0.000000
nan nan nan 0.000000
nan nan nan 0.000000
nan nan nan 0.000000
116.914368 9.389282 8.044674 0.414511
117.573486 10.895210 5.540862 0.410880
116.401146 8.216667 3.227289 0.412802
nan nan nan 0.000000
130.149384 39.628578 -0.000001 0.228873
136.692612 54.578552 -0.000012 0.336706
139.501984 60.997379 0.000008 0.232787
141.066589 64.572189 0.000005 0.213782
142.065460 66.854401 0.000003 0.212968
142.759705 68.440628 0.000002 0.223871
143.271210 69.609291 0.000003 0.322423
nan nan nan 0.000000
nan nan nan 0.000000
nan nan nan 0.000000
nan nan nan 0.000000
nan nan nan 0.000000
116.297440 9.269539 8.074100 0.412253
114.992050 6.342789 5.796683 0.419608
nan nan nan 0.000000
nan nan nan 0.000000
129.889404 39.743435 -0.000002 0.226061
136.536804 54.647270 -0.000022 0.338231
139.390961 61.046429 0.000008 0.214404
140.980484 64.610229 0.000005 0.225223
141.995270 66.885406 0.000003 0.254951
142.700577 68.466751 0.000002 0.205799
143.220215 69.631821 0.000003 0.337087
nan nan nan 0.000000
nan nan nan 0.000000
nan nan nan 0.000000
nan nan nan 0.000000
nan nan nan 0.000000
