# This PCD file was generated using the MATLABÂ® pcwrite function
# from Computer Vision ToolboxÂ®.
# .PCD v.7 - Point Cloud Data file format
VERSION .7
FIELDS x y z intensity
SIZE 4 4 4 4
TYPE F F F F
COUNT 1 1 1 1
WIDTH 1209
HEIGHT 1
VIEWPOINT 0 0 0 1 0 0 0
POINTS 1209
DATA ascii
-43.975163 96.858269 1.790531 0.678431
-43.975163 96.858269 1.371143 0.678431
-43.975163 96.858269 0.950404 0.678431
-43.975163 96.858269 0.527400 0.678431
-43.880169 96.994247 0.125803 0.803449
-42.939137 98.341240 -0.000000 0.231638
-41.947498 99.760681 0.000000 0.237347
-41.216904 100.806450 0.000001 0.191641
-43.978100 97.008629 5.176028 0.677028
-43.978100 97.008629 4.738491 0.773938
-43.880173 97.146736 4.276292 0.654627
-43.880173 97.146736 3.855700 0.544961
-43.975159 97.012772 3.458065 0.678431
-43.975159 97.012772 3.039236 0.678431
-43.975159 97.012772 2.622650 0.678431
-43.975159 97.012772 2.207402 0.678431
-43.975159 97.012772 1.792598 0.678431
-43.975159 97.012772 1.377350 0.678431
-43.975159 97.012772 0.960764 0.678431
-43.975159 97.012779 0.541936 0.678431
-43.880169 97.146744 0.144301 0.390860
-43.001884 98.385406 -0.000000 0.223272
-42.000362 99.797890 0.000000 0.208133
-41.262486 100.838531 0.000001 0.191306
-44.054066 97.054611 5.177716 0.156985
-44.054066 97.054611 4.739946 0.156985
-43.880169 97.296272 4.254151 0.639719
-43.880169 97.296272 3.837650 0.562432
-43.972630 97.167778 3.443385 0.276997
-43.972630 97.167778 3.028773 0.277714
-43.972633 97.167778 2.616381 0.258824
-43.972630 97.167778 2.205314 0.279866
-43.972630 97.167778 1.794686 0.269368
-43.972633 97.167778 1.383618 0.269368
-43.972630 97.167778 0.971226 0.270710
-43.972630 97.167778 0.556615 0.183093
-43.919121 97.242134 0.152457 0.494911
-43.064331 98.430008 -0.000000 0.269468
-42.052971 99.835464 0.000000 0.231291
-41.307846 100.870934 0.000001 0.212944
-44.070171 97.182724 5.154101 0.678431
-44.070171 97.182732 4.719584 0.678431
-43.880165 97.442924 4.232545 0.453300
-43.880165 97.442924 3.820037 0.535988
-43.975174 97.312820 3.430047 0.678431
-43.975174 97.312820 3.019266 0.678431
-43.975174 97.312820 2.610685 0.678431
-43.975174 97.312820 2.203416 0.678431
-43.975174 97.312820 1.796584 0.678431
-43.975174 97.312820 1.389314 0.678431
-43.975174 97.312820 0.980733 0.678431
-43.975174 97.312820 0.569953 0.678431
-43.950172 97.347061 0.162355 0.247761
-43.126457 98.475052 -0.000000 0.186842
-42.105309 99.873405 0.000000 0.216187
-41.352974 100.903656 0.000001 0.288126
-43.880165 97.586800 5.044365 0.849348
-43.880165 97.586800 4.624967 0.586740
-43.880161 97.586800 4.211457 0.376913
-43.880161 97.586807 3.802844 0.486122
-43.950165 97.492332 3.411707 0.074510
-43.950165 97.492332 3.006195 0.094118
-43.950165 97.492332 2.602853 0.086275
-43.950165 97.492332 2.200808 0.086275
-43.950165 97.492332 1.799192 0.079469
-43.950165 97.492332 1.397146 0.074510
-43.950165 97.492332 0.993805 0.086275
-43.950165 97.492332 0.588293 0.078737
-43.950165 97.492332 0.179715 0.141207
-43.188271 98.520523 -0.000000 0.233768
-42.157387 99.911713 0.000000 0.240446
-41.397881 100.936684 0.000000 0.232368
-43.880161 97.727997 5.016024 0.612024
-43.880161 97.727997 4.600530 0.776532
-43.880161 97.727997 4.190869 0.673335
-43.938492 97.650414 3.800458 0.753979
-43.975170 97.601631 3.403352 0.678431
-43.975174 97.601631 3.000239 0.678431
-43.975174 97.601631 2.599286 0.678431
-43.975170 97.601631 2.199619 0.678431
-43.975170 97.601631 1.800381 0.678431
-43.975174 97.601631 1.400714 0.678431
-43.975174 97.601631 0.999760 0.678431
-43.975170 97.601631 0.596648 0.678431
-43.950161 97.634895 0.196661 0.129412
-43.249763 98.566422 0.000000 0.233768
-42.209194 99.950386 0.000000 0.306664
-41.442547 100.970024 0.000001 0.276984
-43.880161 97.866585 4.988349 0.369772
-43.880161 97.866585 4.576668 0.604562
-43.880161 97.866585 4.170766 0.803388
-43.950165 97.774826 3.786792 0.186587
-43.975170 97.742043 3.390475 0.678431
-43.975170 97.742043 2.991061 0.678431
-43.975170 97.742043 2.593786 0.678431
-43.975170 97.742043 2.197788 0.678431
-43.975170 97.742043 1.802213 0.678431
-43.975170 97.742043 1.406214 0.678431
-43.975170 97.742043 1.008939 0.678431
-43.975170 97.742043 0.609526 0.678431
-43.966869 97.752922 0.209122 0.305394
-43.310936 98.612747 -0.000000 0.210646
-42.260727 99.989418 0.000000 0.199432
-41.486984 101.003677 0.000001 0.250308
-43.880161 98.002663 4.961321 0.565148
-43.880161 98.002663 4.553363 0.442588
-43.880161 98.002663 4.151132 0.749523
-43.950161 97.912216 3.770631 0.103334
-43.975166 97.879913 3.377898 0.678431
-43.975166 97.879913 2.982097 0.678431
-43.975166 97.879913 2.588416 0.678431
-43.975166 97.879913 2.195999 0.678431
-43.975166 97.879913 1.804001 0.678431
-43.975166 97.879913 1.411584 0.678431
-43.975166 97.879913 1.017903 0.678431
-43.975166 97.879913 0.622102 0.678431
-43.975163 97.879913 0.223309 0.563241
-43.371784 98.659508 0.000000 0.219335
-42.311989 100.028809 0.000000 0.200761
-41.531181 101.037643 0.000001 0.216523
-43.957813 98.037407 4.966415 0.757107
-43.957813 98.037407 4.557755 0.722347
-43.880161 98.136307 4.131954 0.860746
-43.950165 98.047150 3.754845 0.071809
-43.950161 98.047150 3.360955 0.094118
-43.950165 98.047150 2.970022 0.075959
-43.950165 98.047150 2.581181 0.094118
-43.950161 98.047157 2.193588 0.094118
-43.950161 98.047157 1.806412 0.089143
-43.950165 98.047150 1.418819 0.085389
-43.950165 98.047150 1.029978 0.074510
-43.950161 98.047150 0.639045 0.094118
-43.950165 98.047150 0.245155 0.062745
-43.432304 98.706688 0.000000 0.235839
-42.362976 100.068550 0.000001 0.236401
-41.575146 101.071915 0.000000 0.195675
-44.030159 98.079285 4.969429 0.079332
-44.030159 98.079285 4.560354 0.094118
-43.880161 98.267593 4.113216 0.511788
-43.967445 98.158012 3.743537 0.227649
-43.975159 98.148331 3.353610 0.678431
-43.975159 98.148331 2.964786 0.678431
-43.975159 98.148331 2.578043 0.678431
-43.975159 98.148331 2.192544 0.678431
-43.975159 98.148331 1.807456 0.678431
-43.975159 98.148331 1.421956 0.678431
-43.975159 98.148331 1.035214 0.678431
-43.975159 98.148331 0.646390 0.678431
-43.975159 98.148331 0.254626 0.678431
-43.492489 98.754288 0.000000 0.211604
-42.413681 100.108658 0.000001 0.210395
-41.618866 101.106491 0.000001 0.192647
-44.070171 98.161446 4.959648 0.678431
-44.070171 98.161446 4.551921 0.678431
-43.880161 98.396599 4.094908 0.643412
-43.975159 98.279030 3.730251 0.436759
-43.975159 98.279030 3.341882 0.678431
-43.975159 98.279030 2.956427 0.678431
-43.975159 98.279030 2.573035 0.678431
-43.975159 98.279030 2.190876 0.678431
-43.975159 98.279030 1.809125 0.678431
-43.975159 98.279030 1.426964 0.678431
-43.975159 98.279030 1.043573 0.678431
-43.975163 98.279030 0.658118 0.678431
-43.975159 98.279030 0.269748 0.678431
-43.552345 98.802307 0.000000 0.248201
-42.464108 100.149109 0.000001 0.233469
-41.662346 101.141373 0.000001 0.235695
-44.070168 98.291573 4.934366 0.678431
-44.070168 98.291573 4.530121 0.667765
-43.880161 98.523399 4.077013 0.516182
-43.975163 98.407486 3.715472 0.651774
-43.975159 98.407494 3.330420 0.678431
-43.975163 98.407486 2.948257 0.678431
-43.975159 98.407494 2.568141 0.678431
-43.975163 98.407486 2.189245 0.678431
-43.975163 98.407486 1.810755 0.678431
-43.975163 98.407494 1.431859 0.678431
-43.975163 98.407486 1.051743 0.678431
-43.975163 98.407486 0.669580 0.678431
-43.975163 98.407486 0.284528 0.678431
-43.611862 98.850739 0.000000 0.204567
-42.514252 100.189919 0.000001 0.235875
-41.705578 101.176559 0.000001 0.220819
-43.880161 98.648056 4.835204 0.819104
-43.880161 98.648048 4.444620 0.854276
-43.880161 98.648056 4.059520 0.747448
-43.975163 98.533783 3.701024 0.678431
-43.975163 98.533783 3.319215 0.678431
-43.975163 98.533783 2.940271 0.678431
-43.975163 98.533783 2.563356 0.678431
-43.975163 98.533783 2.187651 0.678431
-43.975163 98.533783 1.812349 0.678431
-43.975163 98.533783 1.436644 0.678431
-43.975163 98.533783 1.059729 0.678431
-43.975163 98.533783 0.680785 0.678431
-43.975163 98.533783 0.298976 0.678431
-43.671043 98.899590 0.000000 0.234821
-42.564106 100.231071 0.000001 0.237335
-41.748566 101.212044 0.000001 0.216582
-43.880157 98.770630 4.811661 0.446769
-43.880157 98.770638 4.424320 0.622721
-43.880157 98.770638 4.042418 0.799451
-43.950169 98.687607 3.681149 0.083925
-43.950169 98.687607 3.303801 0.094118
-43.950169 98.687607 2.929284 0.094118
-43.950169 98.687607 2.556773 0.062745
-43.950169 98.687614 2.185458 0.094118
-43.950169 98.687614 1.814542 0.094118
-43.950169 98.687607 1.443227 0.079164
-43.950169 98.687607 1.070715 0.094118
-43.950169 98.687607 0.696200 0.094118
-43.950169 98.687614 0.318852 0.091173
-43.729877 98.948853 0.000000 0.251325
-42.613674 100.272575 0.000000 0.195399
-41.791306 101.247826 0.000001 0.262874
-43.880161 98.891197 4.788642 0.328923
-43.880161 98.891197 4.404473 0.434852
-43.880161 98.891197 4.025697 0.709804
-43.975170 98.780106 3.673091 0.678431
-43.975170 98.780106 3.297552 0.678431
-43.975170 98.780106 2.924830 0.678431
-43.975170 98.780106 2.554105 0.678431
-43.975174 98.780106 2.184570 0.678431
-43.975174 98.780106 1.815430 0.678431
-43.975170 98.780106 1.445895 0.678431
-43.975170 98.780106 1.075169 0.678431
-43.975170 98.780106 0.702448 0.678431
-43.975170 98.780106 0.326909 0.678431
-43.788368 98.998528 0.000000 0.201646
-42.662949 100.314423 0.000001 0.199408
-41.833794 101.283913 0.000002 0.233002
-43.880157 99.009811 4.766129 0.493111
-43.880161 99.009811 4.385062 0.870588
-43.880157 99.009811 4.009343 0.351247
-43.975170 98.900284 3.659584 0.678431
-43.975170 98.900284 3.287076 0.678431
-43.975170 98.900284 2.917364 0.678431
-43.975170 98.900276 2.549631 0.678431
-43.975166 98.900284 2.183080 0.678431
-43.975166 98.900284 1.816921 0.678431
-43.975166 98.900284 1.450369 0.678431
-43.975166 98.900284 1.082636 0.678431
-43.975166 98.900284 0.712924 0.678431
-43.975166 98.900284 0.340416 0.678431
-43.846512 99.048607 0.000000 0.291645
-42.711933 100.356606 0.000000 0.272712
-41.876030 101.320290 0.000001 0.242433
-43.933235 99.066193 4.764240 0.662715
-43.880157 99.126534 4.366076 0.808148
-43.880161 99.126526 3.993350 0.395941
-43.975166 99.018532 3.646373 0.678431
-43.975166 99.018532 3.276831 0.678431
-43.975166 99.018532 2.910062 0.678431
-43.975166 99.018532 2.545256 0.678431
-43.975166 99.018532 2.181622 0.678431
-43.975166 99.018532 1.818378 0.678431
-43.975166 99.018532 1.454744 0.678431
-43.975166 99.018532 1.089938 0.678431
-43.975166 99.018532 0.723169 0.678431
-43.975166 99.018532 0.353627 0.678431
-43.880165 99.126526 0.006649 0.480781
-42.760620 100.399139 0.000001 0.223524
-41.918007 101.356956 0.000001 0.283734
-44.030167 99.073280 4.779013 0.081254
-43.880161 99.241409 4.347505 0.845396
-43.880161 99.241409 3.977703 0.567269
-43.950161 99.162949 3.627878 0.092531
-43.950161 99.162949 3.262487 0.094118
-43.950161 99.162956 2.899838 0.094118
-43.950161 99.162949 2.539131 0.094118
-43.950161 99.162949 2.179582 0.094118
-43.950161 99.162949 1.820418 0.094118
-43.950161 99.162949 1.460869 0.094118
-43.950161 99.162949 1.100162 0.094118
-43.950161 99.162949 0.737512 0.094118
-43.950161 99.162949 0.372121 0.090318
-43.880165 99.241409 0.022296 0.660716
-42.809010 100.442009 0.000001 0.250846
-41.959732 101.393921 0.000001 0.215218
-44.070168 99.144508 4.772437 0.589868
-43.880161 99.354507 4.329334 0.864195
-43.880161 99.354507 3.962395 0.631937
-43.975166 99.249504 3.620807 0.678431
-43.975166 99.249504 3.257003 0.678431
-43.975166 99.249504 2.895930 0.678431
-43.975166 99.249504 2.536789 0.678431
-43.975166 99.249504 2.178802 0.678431
-43.975166 99.249504 1.821198 0.678431
-43.975166 99.249504 1.463211 0.678431
-43.975170 99.249504 1.104070 0.678431
-43.975166 99.249504 0.742997 0.678431
-43.975166 99.249504 0.379193 0.678431
-43.880165 99.354500 0.037603 0.602609
-42.857101 100.485214 0.000001 0.247340
-42.001198 101.431175 0.000001 0.209701
-44.070171 99.258797 4.751277 0.678431
-43.880161 99.465874 4.311556 0.472480
-43.880161 99.465874 3.947417 0.496254
-43.975163 99.362335 3.608435 0.678431
-43.975166 99.362335 3.247409 0.678431
-43.975163 99.362335 2.889091 0.678431
-43.975163 99.362335 2.532691 0.678431
-43.975166 99.362335 2.177437 0.678431
-43.975166 99.362335 1.822563 0.678431
-43.975163 99.362335 1.467308 0.678431
-43.975166 99.362335 1.110909 0.678431
-43.975166 99.362335 0.752591 0.678431
-43.975166 99.362335 0.391564 0.678431
-43.880169 99.465866 0.052581 0.673243
-42.904884 100.528755 0.000001 0.234630
-42.042400 101.468719 0.000001 0.266967
-44.070168 99.371361 4.730567 0.678431
-43.880165 99.575554 4.294158 0.531746
-43.880165 99.575554 3.932760 0.617502
-43.950943 99.499489 3.591054 0.141131
-43.950943 99.499496 3.233929 0.138720
-43.950943 99.499496 2.879483 0.133776
-43.950943 99.499489 2.526935 0.062745
-43.950943 99.499489 2.175520 0.094118
-43.950943 99.499489 1.824480 0.129503
-43.950943 99.499489 1.473065 0.130510
-43.950939 99.499496 1.120517 0.090318
-43.950943 99.499496 0.766072 0.120760
-43.950943 99.499496 0.408946 0.121477
-43.880165 99.575554 0.067240 0.618250
-42.952366 100.572632 0.000001 0.188865
-42.083340 101.506554 0.000002 0.200091
-43.880161 99.683609 4.640951 0.683146
-43.880161 99.683609 4.277128 0.597406
-43.880161 99.683609 3.918413 0.526894
-43.975166 99.582932 3.584480 0.678431
-43.975166 99.582932 3.228830 0.678431
-43.975166 99.582932 2.875849 0.678431
-43.975163 99.582932 2.524758 0.678431
-43.975163 99.582932 2.174794 0.678431
-43.975166 99.582932 1.825206 0.678431
-43.975166 99.582932 1.475242 0.678431
-43.975166 99.582924 1.124151 0.678431
-43.975166 99.582924 0.771170 0.678431
-43.975166 99.582924 0.415520 0.678431
-43.880165 99.683601 0.081586 0.505913
-42.999538 100.616837 0.000001 0.199612
-42.124012 101.544662 0.000001 0.255837
-43.880161 99.790070 4.621619 0.522133
-43.880161 99.790070 4.260459 0.400977
-43.880161 99.790070 3.904370 0.364034
-43.975166 99.690788 3.572881 0.678431
-43.975166 99.690788 3.219835 0.678431
-43.975166 99.690788 2.869438 0.678431
-43.975166 99.690788 2.520917 0.678431
-43.975166 99.690788 2.173515 0.678431
-43.975166 99.690788 1.826485 0.678431
-43.975166 99.690788 1.479083 0.678431
-43.975166 99.690788 1.130562 0.678431
-43.975166 99.690788 0.780165 0.678431
-43.975166 99.690788 0.427118 0.678431
-43.880165 99.790070 0.095629 0.530373
-43.046402 100.661369 0.000001 0.254832
-42.164421 101.583061 0.000002 0.263652
-43.880161 99.894989 4.602694 0.508949
-43.880161 99.894989 4.244141 0.754269
-43.880161 99.894989 3.890622 0.905882
-43.975163 99.797089 3.561527 0.678431
-43.975163 99.797089 3.211029 0.678431
-43.975163 99.797089 2.863161 0.678431
-43.975163 99.797089 2.517156 0.678431
-43.975166 99.797089 2.172262 0.678431
-43.975166 99.797089 1.827738 0.678431
-43.975163 99.797089 1.482844 0.678431
-43.975166 99.797089 1.136838 0.678431
-43.975166 99.797089 0.788971 0.678431
-43.975166 99.797089 0.438473 0.678431
-43.880161 99.894989 0.109377 0.695415
-43.092957 100.706223 0.000001 0.262371
-42.204559 101.621742 0.000002 0.242074
-43.880157 99.998413 4.584165 0.618967
-43.880157 99.998413 4.228165 0.445472
-43.880157 99.998413 3.877162 0.694713
-43.975166 99.901871 3.550410 0.678431
-43.975163 99.901871 3.202408 0.678431
-43.975166 99.901871 2.857016 0.678431
-43.975163 99.901871 2.513474 0.678431
-43.975166 99.901871 2.171036 0.678431
-43.975166 99.901871 1.828964 0.678431
-43.975166 99.901871 1.486525 0.678431
-43.975166 99.901871 1.142983 0.678431
-43.975166 99.901871 0.797592 0.678431
-43.975166 99.901871 0.449590 0.678431
-43.880161 99.998413 0.122837 0.827817
-43.139194 100.751411 0.000001 0.205273
-42.244431 101.660698 0.000001 0.241308
-43.885548 100.094978 4.567935 0.620768
-43.885548 100.094978 4.214170 0.870588
-43.885548 100.094978 3.865373 0.590829
-43.955395 100.024979 3.535374 0.111772
-43.955399 100.024979 3.190747 0.138537
-43.955399 100.024979 2.848705 0.094118
-43.955399 100.024979 2.508495 0.116945
-43.955395 100.024979 2.169377 0.182071
-43.955395 100.024979 1.830623 0.145068
-43.955399 100.024979 1.491505 0.148165
-43.955395 100.024979 1.151295 0.138277
-43.955395 100.024979 0.809253 0.182071
-43.955395 100.024979 0.464626 0.182071
-43.885551 100.094978 0.134627 0.759793
-43.185112 100.796913 0.000001 0.205321
-42.284023 101.699936 0.000001 0.188051
-43.987366 100.094978 4.586012 0.674998
-43.987366 100.094978 4.229757 0.468574
-43.987366 100.094978 3.878504 0.558755
-44.083496 99.999977 3.551459 0.678431
-44.083496 99.999977 3.203221 0.678431
-44.083496 99.999977 2.857597 0.678431
-44.083496 99.999977 2.513822 0.678431
-44.083496 99.999977 2.171152 0.678431
-44.083496 99.999977 1.828848 0.678431
-44.083496 99.999977 1.486178 0.678431
-44.083496 99.999977 1.142403 0.678431
-44.083496 99.999977 0.796778 0.678431
-44.083496 99.999977 0.448541 0.678431
-43.987370 100.094978 0.121495 0.387991
-43.230713 100.842735 0.000001 0.233960
-42.323341 101.739441 0.000002 0.197853
-44.090633 100.094978 4.604474 0.354757
-44.090633 100.094978 4.245676 0.741268
-44.090633 100.094978 3.891915 0.461616
-44.188118 99.999977 3.562536 0.678431
-44.188118 99.999977 3.211812 0.678431
-44.188118 99.999977 2.863719 0.678431
-44.188118 99.999977 2.517490 0.678431
-44.188118 99.999977 2.172374 0.678431
-44.188118 99.999977 1.827626 0.678431
-44.188118 99.999977 1.482510 0.678431
-44.188118 99.999977 1.136281 0.678431
-44.188118 99.999977 0.788188 0.678431
-44.188118 99.999977 0.437464 0.678431
-44.090637 100.094978 0.108084 0.632639
-43.275997 100.888878 0.000001 0.210934
-42.362385 101.779228 0.000002 0.213243
-44.195393 100.094978 4.623331 0.792935
-44.195393 100.094978 4.261935 0.776471
-44.195393 100.094978 3.905613 0.432792
-44.294250 99.999977 3.573849 0.678431
-44.294247 99.999977 3.220585 0.678431
-44.294250 99.999977 2.869972 0.678431
-44.294250 99.999977 2.521237 0.678431
-44.294250 99.999977 2.173622 0.678431
-44.294250 99.999977 1.826378 0.678431
-44.294250 99.999977 1.478763 0.678431
-44.294250 99.999977 1.130027 0.678431
-44.294247 99.999977 0.779415 0.678431
-44.294250 99.999977 0.426151 0.678431
-44.195396 100.094978 0.094386 0.500587
-43.320953 100.935333 0.000002 0.227689
-42.401150 101.819283 0.000001 0.267111
nan nan nan 0.000000
nan nan nan 0.000000
nan nan nan 0.000000
nan nan nan 0.000000
nan nan nan 0.000000
nan nan nan 0.000000
nan nan nan 0.000000
nan nan nan 0.000000
nan nan nan 0.000000
-7.094246 135.355759 -0.000025 0.228239
-18.939678 124.130074 -0.000014 0.236222
-24.025322 119.310501 -0.000010 0.226970
-26.857750 116.626266 -0.000008 0.217923
-28.666004 114.912621 -0.000007 0.224768
-29.922813 113.721565 -0.000005 0.259008
-30.848768 112.844055 -0.000005 0.343435
nan nan nan 0.000000
nan nan nan 0.000000
nan nan nan 0.000000
nan nan nan 0.000000
nan nan nan 0.000000
nan nan nan 0.000000
nan nan nan 0.000000
nan nan nan 0.000000
nan nan nan 0.000000
-6.899467 135.148788 -0.000025 0.229783
-18.822977 124.006065 -0.000015 0.236928
-23.942142 119.222115 -0.000010 0.222638
-26.793240 116.557716 -0.000008 0.193879
-28.613417 114.856735 -0.000007 0.189164
-29.878508 113.674484 -0.000006 0.294002
-30.810568 112.803459 -0.000005 0.328801
nan nan nan 0.000000
nan nan nan 0.000000
nan nan nan 0.000000
nan nan nan 0.000000
nan nan nan 0.000000
nan nan nan 0.000000
nan nan nan 0.000000
nan nan nan 0.000000
nan nan nan 0.000000
-6.706123 134.940460 -0.000025 0.230908
-18.707138 123.881248 -0.000015 0.219479
-23.859585 119.133148 -0.000010 0.225558
-26.729210 116.488724 -0.000008 0.229567
-28.561218 114.800484 -0.000006 0.257213
-29.834532 113.627098 -0.000006 0.201982
-30.772652 112.762604 -0.000005 0.332815
-18.855280 123.516548 8.020782 0.650507
-18.855280 123.516541 7.191346 0.611765
-18.855280 123.516541 6.373555 0.679973
-18.855278 123.516548 5.565450 0.671992
-18.855280 123.516548 4.765155 0.669322
-18.855282 123.516541 3.970864 0.636301
-18.855282 123.516541 3.180828 0.629664
-18.855282 123.516541 2.393328 0.658534
-18.855282 123.516541 1.606672 0.665995
-18.855280 123.516548 0.819172 0.653117
-18.855280 123.516541 0.029134 0.658396
-23.777649 119.043610 -0.000010 0.210239
-26.665667 116.419281 -0.000008 0.227784
-28.509415 114.743874 -0.000007 0.231147
-29.790890 113.579407 -0.000006 0.214919
-30.735020 112.721481 -0.000005 0.189128
-18.855276 123.291237 7.982974 0.665797
-18.855278 123.291229 7.158746 0.635111
-18.855278 123.291237 6.346091 0.616907
-18.855278 123.291237 5.543059 0.674067
-18.855280 123.291229 4.747790 0.663798
-18.855276 123.291237 3.958488 0.657847
-18.855276 123.291237 3.173413 0.650507
-18.855280 123.291229 2.390859 0.653864
-18.855278 123.291229 1.609142 0.654521
-18.855276 123.291237 0.826587 0.700877
-18.855276 123.291237 0.041510 0.667308
-23.696335 118.953506 -0.000010 0.267039
-26.602608 116.349396 -0.000008 0.216247
-28.458008 114.686905 -0.000006 0.184185
-29.747578 113.531410 -0.000006 0.234977
-30.697676 112.680092 -0.000005 0.201826
-18.855282 123.068726 7.945924 0.647059
-18.855280 123.068726 7.126800 0.707973
-18.855282 123.068726 6.319176 0.702953
-18.855284 123.068718 5.521119 0.655955
-18.855280 123.068726 4.730774 0.708614
-18.855280 123.068726 3.946360 0.709224
-18.855280 123.068726 3.166146 0.665583
-18.855280 123.068726 2.388438 0.667491
-18.855280 123.068726 1.611562 0.687251
-18.855278 123.068726 0.833853 0.703502
-18.855278 123.068726 0.053639 0.611765
-23.615652 118.862831 -0.000011 0.214943
-26.540039 116.279076 -0.000008 0.253970
-28.406998 114.629578 -0.000007 0.229567
-29.704607 113.483109 -0.000006 0.237263
-30.660624 112.638451 -0.000005 0.233182
-18.855280 122.848938 7.909617 0.684062
-18.855278 122.848938 7.095496 0.647059
-18.855280 122.848938 6.292803 0.641581
-18.855282 122.848938 5.499619 0.638102
-18.855280 122.848938 4.714100 0.668833
-18.855280 122.848938 3.934475 0.647059
-18.855278 122.848938 3.159025 0.695628
-18.855278 122.848938 2.386065 0.686992
-18.855278 122.848938 1.613934 0.647059
-18.855278 122.848938 0.840974 0.654505
-18.855278 122.848938 0.065524 0.652262
-23.535610 118.771591 -0.000010 0.232320
-26.477959 116.208321 -0.000008 0.261127
-28.356392 114.571892 -0.000006 0.233218
-29.661970 113.434517 -0.000006 0.250595
-30.623861 112.596550 -0.000005 0.194370
-18.855282 122.631813 7.874035 0.624674
-18.855276 122.631821 7.064816 0.640024
-18.855276 122.631821 6.266957 0.701915
-18.855282 122.631813 5.478547 0.654749
-18.855278 122.631821 4.697759 0.638254
-18.855280 122.631813 3.922829 0.646204
-18.855280 122.631813 3.152047 0.648920
-18.855278 122.631821 2.383742 0.655802
-18.855278 122.631821 1.616259 0.651652
-18.855276 122.631821 0.847952 0.703929
-18.855278 122.631821 0.077171 0.655756
-23.456205 118.679802 -0.000011 0.210192
-26.416374 116.137131 -0.000009 0.213351
-28.306187 114.513855 -0.000007 0.196117
-29.619675 113.385620 -0.000006 0.231183
-30.587395 112.554390 -0.000005 0.257022
-18.855280 122.417282 7.839162 0.655711
-18.855278 122.417282 7.034747 0.689616
-18.855280 122.417274 6.241624 0.647059
-18.855278 122.417282 5.457896 0.701549
-18.855280 122.417274 4.681743 0.678431
-18.855280 122.417282 3.911412 0.646647
-18.855278 122.417282 3.145208 0.667720
-18.855278 122.417282 2.381464 0.677012
-18.855276 122.417282 1.618537 0.611765
-18.855278 122.417282 0.854792 0.626291
-18.855280 122.417282 0.088587 0.660044
-23.377443 118.587456 -0.000011 0.229939
-26.355289 116.065514 -0.000009 0.233840
-28.256390 114.455475 -0.000007 0.207104
-29.577724 113.336433 -0.000006 0.243690
-30.551220 112.511978 -0.000005 0.257237
-18.855278 122.205261 7.804983 0.634607
-18.855280 122.205261 7.005274 0.662608
-18.855280 122.205261 6.216795 0.630259
-18.855278 122.205261 5.437655 0.684749
-18.855278 122.205261 4.666045 0.655879
-18.855278 122.205261 3.900224 0.615213
-18.855278 122.205261 3.138504 0.676722
-18.855280 122.205261 2.379230 0.669978
-18.855280 122.205261 1.620770 0.678431
-18.855278 122.205261 0.861496 0.662013
-18.855278 122.205261 0.099775 0.666697
-23.299324 118.494568 -0.000011 0.222231
-26.294708 115.993469 -0.000009 0.212442
-28.207001 114.396744 -0.000007 0.234762
-29.536114 113.286957 -0.000006 0.269995
-30.515345 112.469315 -0.000005 0.260181
-18.855280 121.995705 7.771479 0.664561
-18.855280 121.995705 6.976387 0.619318
-18.855280 121.995705 6.192459 0.670481
-18.855274 121.995712 5.417816 0.654368
-18.855278 121.995712 4.650658 0.666667
-18.855278 121.995705 3.889257 0.649271
-18.855278 121.995712 3.131934 0.668070
-18.855280 121.995705 2.377041 0.675959
-18.855280 121.995705 1.622958 0.636942
-18.855276 121.995712 0.868066 0.635584
-18.855274 121.995712 0.110742 0.622705
-23.221857 118.401131 -0.000011 0.243654
-26.234632 115.921013 -0.000009 0.203717
-28.158024 114.337669 -0.000007 0.220376
-29.494854 113.237190 -0.000006 0.225977
-30.479767 112.426407 -0.000006 0.194262
-18.855280 121.788544 7.738639 0.683345
-18.855280 121.788544 6.948072 0.653040
-18.855282 121.788544 6.168603 0.679683
-18.855280 121.788544 5.398367 0.640681
-18.855280 121.788544 4.635575 0.641550
-18.855278 121.788544 3.878507 0.678370
-18.855282 121.788544 3.125492 0.669490
-18.855282 121.788544 2.374896 0.669429
-18.855282 121.788544 1.625104 0.661280
-18.855282 121.788544 0.874507 0.654658
-18.855278 121.788544 0.121492 0.673198
-23.145050 118.307152 -0.000011 0.212585
-26.175062 115.848129 -0.000009 0.260193
-28.109463 114.278252 -0.000007 0.199037
-29.453939 113.187134 -0.000006 0.187836
-30.444489 112.383247 -0.000006 0.264298
-18.855282 121.583717 7.706448 0.708431
-18.855282 121.583717 6.920314 0.696254
-18.855278 121.583717 6.145219 0.693141
-18.855278 121.583717 5.379304 0.673167
-18.855278 121.583717 4.620790 0.677943
-18.855282 121.583717 3.867969 0.662028
-18.855280 121.583717 3.119179 0.672312
-18.855276 121.583717 2.372793 0.668757
-18.855276 121.583717 1.627207 0.675624
-18.855280 121.583717 0.880821 0.700221
-18.855282 121.583717 0.132030 0.696254
-23.068897 118.212646 -0.000011 0.250619
-26.116001 115.774834 -0.000009 0.195986
-28.061312 114.218506 -0.000008 0.256292
-29.413378 113.136795 -0.000006 0.229699
-30.409515 112.339844 -0.000005 0.205021
-18.855280 121.381165 7.674891 0.616251
-18.855278 121.381165 6.893106 0.677104
-18.855280 121.381165 6.122296 0.656550
-18.855278 121.381165 5.360615 0.656001
-18.855280 121.381165 4.606297 0.689006
-18.855280 121.381165 3.857639 0.633433
-18.855276 121.381172 3.112990 0.698634
-18.855280 121.381165 2.370732 0.685542
-18.855280 121.381165 1.629268 0.664393
-18.855272 121.381172 0.887010 0.616617
-18.855280 121.381165 0.142360 0.687999
-22.993404 118.117615 -0.000011 0.213710
-26.057453 115.701126 -0.000009 0.250044
-28.013584 114.158417 -0.000007 0.265339
-29.373165 113.086174 -0.000007 0.251265
-30.374844 112.296196 -0.000006 0.203238
-18.855280 121.180832 7.643951 0.647059
-18.855280 121.180832 6.866429 0.666285
-18.855282 121.180832 6.099822 0.670985
-18.855276 121.180832 5.342296 0.670207
-18.855276 121.180832 4.592090 0.630930
-18.855278 121.180832 3.847512 0.647059
-18.855276 121.180832 3.106922 0.647059
-18.855278 121.180832 2.368710 0.678431
-18.855278 121.180832 1.631289 0.656992
-18.855276 121.180832 0.893077 0.647059
-18.855278 121.180832 0.152487 0.624765
-22.918575 118.022049 -0.000011 0.223380
-25.999424 115.627014 -0.000009 0.198403
-27.966278 114.098000 -0.000007 0.221561
-29.333313 113.035271 -0.000006 0.199588
-30.340481 112.252304 -0.000005 0.237538
-18.855284 120.982658 7.613622 0.675975
-18.855280 120.982658 6.840278 0.650843
-18.855280 120.982658 6.077790 0.637034
-18.855284 120.982658 5.324334 0.634974
-18.855280 120.982666 4.578159 0.669429
-18.855280 120.982666 3.837584 0.678431
-18.855282 120.982658 3.100974 0.658457
-18.855280 120.982666 2.366729 0.654902
-18.855280 120.982666 1.633271 0.650065
-18.855282 120.982658 0.899026 0.647059
-18.855278 120.982666 0.162415 0.645960
-22.844418 117.925964 -0.000011 0.230752
-25.941912 115.552505 -0.000009 0.206027
-27.919390 114.037254 -0.000008 0.238172
-29.293812 112.984093 -0.000006 0.194897
-30.306421 112.208176 -0.000006 0.229663
-18.855280 120.786598 7.583889 0.613748
-18.855280 120.786598 6.814639 0.661616
-18.855282 120.786598 6.056190 0.632349
-18.855278 120.786598 5.306726 0.672618
-18.855278 120.786598 4.564504 0.715251
-18.855278 120.786598 3.827850 0.647059
-18.855280 120.786598 3.095142 0.659541
-18.855282 120.786598 2.364787 0.649027
-18.855282 120.786598 1.635213 0.654139
-18.855280 120.786598 0.904857 0.610300
-18.855278 120.786598 0.172149 0.647395
-22.770933 117.829369 -0.000012 0.220209
-25.884920 115.477585 -0.000009 0.200617
-27.872929 113.976181 -0.000008 0.233266
-29.254669 112.932640 -0.000006 0.235348
-30.272673 112.163811 -0.000006 0.267817
-18.855282 120.592598 7.554738 0.663157
-18.855282 120.592598 6.789504 0.667781
-18.855282 120.592598 6.035015 0.668284
-18.855282 120.592590 5.289462 0.626398
-18.855280 120.592598 4.551115 0.647059
-18.855280 120.592598 3.818308 0.639933
-18.855278 120.592598 3.089425 0.654902
-18.855282 120.592598 2.362882 0.652338
-18.855280 120.592598 1.637118 0.651789
-18.855278 120.592598 0.910575 0.647379
-18.855280 120.592598 0.181691 0.638193
-22.698120 117.732269 -0.000012 0.239992
-25.828455 115.402275 -0.000009 0.259332
-27.826897 113.914780 -0.000008 0.266800
-29.215887 112.880920 -0.000007 0.220939
-30.239233 112.119217 -0.000006 0.217791
-18.855276 120.400597 7.526156 0.684031
-18.855280 120.400597 6.764860 0.639551
-18.855280 120.400597 6.014254 0.612909
-18.855280 120.400597 5.272537 0.641932
-18.855280 120.400597 4.537989 0.647059
-18.855278 120.400597 3.808952 0.623529
-18.855278 120.400597 3.083819 0.673350
-18.855278 120.400597 2.361015 0.668620
-18.855278 120.400597 1.638985 0.643748
-18.855278 120.400597 0.916180 0.614801
-18.855278 120.400597 0.191047 0.646571
-22.625999 117.634644 -0.000012 0.244324
-25.772518 115.326569 -0.000009 0.211484
-27.781296 113.853065 -0.000007 0.195663
-29.177469 112.828926 -0.000006 0.218892
-30.206108 112.074387 -0.000006 0.206781
-18.855282 120.210548 7.498134 0.661418
-18.855284 120.210548 6.740696 0.678431
-18.855280 120.210548 5.993897 0.613855
-18.855278 120.210548 5.255943 0.648508
-18.855280 120.210548 4.525119 0.663600
-18.855282 120.210548 3.799779 0.679179
-18.855282 120.210548 3.078323 0.647257
-18.855280 120.210548 2.359185 0.649104
-18.855280 120.210548 1.640816 0.650858
-18.855282 120.210548 0.921676 0.624018
-18.855280 120.210548 0.200220 0.615930
-22.554552 117.536530 -0.000011 0.202257
-25.717108 115.250481 -0.000009 0.186208
-27.736124 113.791031 -0.000008 0.194490
-29.139416 112.776665 -0.000006 0.239692
-30.173294 112.029327 -0.000006 0.228778
-18.855280 120.022415 7.470660 0.664927
-18.855280 120.022415 6.717010 0.665034
-18.855282 120.022415 5.973940 0.635294
-18.855278 120.022415 5.239674 0.672572
-18.855282 120.022415 4.512501 0.663722
-18.855278 120.022415 3.790786 0.622019
-18.855280 120.022415 3.072935 0.670085
-18.855284 120.022415 2.357389 0.674388
-18.855284 120.022415 1.642610 0.681422
-18.855280 120.022415 0.927064 0.657343
-18.855278 120.022415 0.209213 0.666880
-22.483791 117.437920 -0.000012 0.216056
-25.662231 115.174004 -0.000009 0.244372
-27.691385 113.728683 -0.000008 0.241990
-29.101725 112.724136 -0.000006 0.260528
-30.140797 111.984032 -0.000006 0.244348
-18.855284 119.836136 7.443721 0.662989
-18.855280 119.836143 6.693784 0.658442
-18.855280 119.836143 5.954373 0.627543
-18.855282 119.836136 5.223721 0.649851
-18.855282 119.836136 4.500130 0.650462
-18.855278 119.836143 3.781969 0.667277
-18.855278 119.836143 3.067652 0.660151
-18.855280 119.836136 2.355630 0.663752
-18.855280 119.836136 1.644370 0.655329
-18.855278 119.836143 0.932348 0.656535
-18.855278 119.836143 0.218031 0.623636
-22.413723 117.338814 -0.000012 0.218449
-25.607887 115.097145 -0.000009 0.196752
-27.647085 113.666031 -0.000008 0.207858
-29.064404 112.671349 -0.000006 0.243199
-30.108616 111.938522 -0.000006 0.282106
-18.855282 119.651688 7.417313 0.678706
-18.855286 119.651680 6.671011 0.663539
-18.855286 119.651688 5.935188 0.675258
-18.855284 119.651688 5.208081 0.664042
-18.855284 119.651688 4.488000 0.666896
-18.855282 119.651688 3.773324 0.657572
-18.855282 119.651688 3.062472 0.695994
-18.855280 119.651688 2.353904 0.665446
-18.855280 119.651688 1.646096 0.654902
-18.855282 119.651688 0.937527 0.624781
-18.855282 119.651688 0.226676 0.654551
-22.344347 117.239227 -0.000012 0.207271
-25.554085 115.019905 -0.000009 0.232021
-27.603222 113.603065 -0.000008 0.192982
-29.027451 112.618301 -0.000006 0.203968
-30.076756 111.892784 -0.000006 0.240674
-18.855284 119.468994 7.391419 0.690196
-18.855282 119.469002 6.648685 0.707134
-18.855280 119.469002 5.916380 0.655985
-18.855280 119.469002 5.192748 0.685130
-18.855280 119.469002 4.476109 0.697185
-18.855280 119.469002 3.764847 0.663828
-18.855280 119.469002 3.057395 0.678798
-18.855282 119.469002 2.352213 0.655512
-18.855282 119.469002 1.647787 0.647059
-18.855280 119.469002 0.942606 0.670192
-18.855278 119.469002 0.235152 0.656367
-22.275669 117.139153 -0.000012 0.236880
-25.500820 114.942299 -0.000010 0.226647
-27.559803 113.539795 -0.000008 0.216558
-28.990868 112.565002 -0.000007 0.220651
-30.045214 111.846825 -0.000006 0.216056
-18.855282 119.288048 7.366032 0.647059
-18.855280 119.288048 6.626797 0.658442
-18.855284 119.288048 5.897938 0.647059
-18.855282 119.288048 5.177713 0.654582
-18.855280 119.288048 4.464450 0.646052
-18.855286 119.288040 3.756536 0.679286
-18.855282 119.288048 3.052415 0.654902
-18.855280 119.288048 2.350554 0.665812
-18.855280 119.288048 1.649446 0.647944
-18.855280 119.288048 0.947585 0.683177
-18.855284 119.288040 0.243463 0.663935
-22.207687 117.038612 -0.000013 0.232344
-25.448101 114.864319 -0.000010 0.233948
-27.516823 113.476227 -0.000008 0.274998
-28.954660 112.511444 -0.000007 0.253240
-30.013992 111.800644 -0.000006 0.249745
-18.855284 119.108780 7.341142 0.654719
-18.855284 119.108780 6.605334 0.635294
-18.855282 119.108780 5.879858 0.613138
-18.855280 119.108780 5.162974 0.647059
-18.855282 119.108780 4.453018 0.646937
-18.855282 119.108780 3.748389 0.661295
-18.855282 119.108780 3.047534 0.696559
-18.855278 119.108780 2.348928 0.670115
-18.855278 119.108780 1.651071 0.670069
-18.855280 119.108780 0.952466 0.673381
-18.855280 119.108780 0.251610 0.630671
-22.140411 116.937592 -0.000013 0.236305
-25.395927 114.785973 -0.000010 0.206793
-27.474289 113.412354 -0.000008 0.244599
-28.918827 112.457642 -0.000007 0.228311
-29.983095 111.754250 -0.000006 0.215840
-18.855284 118.931152 7.316740 0.673472
-18.855280 118.931160 6.584295 0.615473
-18.855282 118.931152 5.862132 0.650111
-18.855282 118.931160 5.148523 0.663020
-18.855282 118.931152 4.441811 0.653925
-18.855282 118.931160 3.740401 0.671397
-18.855282 118.931160 3.042748 0.681849
-18.855282 118.931160 2.347334 0.693431
-18.855282 118.931160 1.652666 0.661372
-18.855282 118.931160 0.957252 0.666667
-18.855280 118.931160 0.259598 0.622354
-22.073845 116.836098 -0.000012 0.223356
-25.344301 114.707268 -0.000010 0.213088
-27.432201 113.348190 -0.000008 0.210802
-28.883369 112.403580 -0.000007 0.253515
-29.952522 111.707642 -0.000006 0.206649
-18.855282 118.755142 7.292818 0.696590
-18.855282 118.755142 6.563666 0.699596
-18.855280 118.755142 5.844754 0.686275
-18.855284 118.755142 5.134356 0.709804
-18.855284 118.755142 4.430823 0.631022
-18.855282 118.755142 3.732570 0.696239
-18.855280 118.755142 3.038055 0.707561
-18.855282 118.755142 2.345772 0.694789
-18.855280 118.755142 1.654228 0.666667
-18.855278 118.755150 0.961944 0.624063
-18.855278 118.755142 0.267429 0.683818
-22.007988 116.734146 -0.000012 0.242648
-25.293228 114.628197 -0.000010 0.239824
-27.390562 113.283730 -0.000008 0.237083
-28.848291 112.349274 -0.000007 0.239130
-29.922277 111.660812 -0.000006 0.268774
-18.855284 118.580696 7.269364 0.654505
-18.855282 118.580696 6.543445 0.678431
-18.855282 118.580696 5.827718 0.685374
-18.855280 118.580704 5.120469 0.694179
-18.855282 118.580696 4.420053 0.611765
-18.855280 118.580696 3.724893 0.633173
-18.855282 118.580696 3.033456 0.689586
-18.855280 118.580696 2.344239 0.692073
-18.855280 118.580696 1.655761 0.632303
-18.855282 118.580696 0.966544 0.664851
-18.855280 118.580696 0.275106 0.635859
-21.942844 116.631744 -0.000012 0.246179
-25.242702 114.548775 -0.000010 0.200701
-27.349377 113.218987 -0.000008 0.205345
-28.813593 112.294731 -0.000007 0.235276
-29.892359 111.613785 -0.000006 0.200988
-18.855280 118.407784 7.246373 0.623117
-18.855282 118.407784 6.523621 0.653788
-18.855282 118.407784 5.811016 0.678965
-18.855280 118.407784 5.106852 0.677836
-18.855280 118.407784 4.409493 0.666667
-18.855282 118.407784 3.717367 0.640925
-18.855280 118.407784 3.028947 0.628916
-18.855280 118.407784 2.342737 0.648524
-18.855280 118.407784 1.657263 0.660258
-18.855280 118.407784 0.971053 0.625040
-18.855282 118.407784 0.282632 0.632166
-21.878416 116.528885 -0.000012 0.218318
-25.192736 114.469009 -0.000010 0.276745
-27.308643 113.153954 -0.000008 0.220963
-28.779276 112.239944 -0.000007 0.251241
-29.862768 111.566544 -0.000007 0.285134
-18.855286 118.236359 7.223834 0.666484
-18.855284 118.236366 6.504187 0.667033
-18.855286 118.236366 5.794643 0.680858
-18.855282 118.236366 5.093505 0.652796
-18.855284 118.236366 4.399141 0.625895
-18.855284 118.236366 3.709989 0.684001
-18.855286 118.236366 3.024526 0.666621
-18.855286 118.236359 2.341265 0.662959
-18.855286 118.236359 1.658735 0.667994
-18.855284 118.236366 0.975473 0.618997
-18.855282 118.236366 0.290010 0.660990
-21.814707 116.425575 -0.000013 0.252175
-25.143330 114.388885 -0.000010 0.209844
-27.268366 113.088638 -0.000008 0.217767
-28.745342 112.184914 -0.000007 0.254700
-29.833511 111.519096 -0.000006 0.219371
-18.855286 118.066399 7.201740 0.642008
-18.855286 118.066399 6.485136 0.689830
-18.855286 118.066399 5.778595 0.650141
-18.855286 118.066399 5.080421 0.659129
-18.855284 118.066406 4.388996 0.634974
-18.855286 118.066399 3.702756 0.666880
-18.855282 118.066406 3.020193 0.706828
-18.855286 118.066399 2.339822 0.656260
-18.855286 118.066399 1.660178 0.649927
-18.855282 118.066406 0.979806 0.657542
-18.855282 118.066406 0.297243 0.666926
-21.751724 116.321823 -0.000012 0.211029
-25.094482 114.308426 -0.000010 0.219754
-27.228544 113.023041 -0.000008 0.218988
-28.711792 112.129654 -0.000007 0.211221
-29.804585 111.471451 -0.000006 0.192048
-18.855286 117.897858 7.180084 0.656413
-18.855282 117.897865 6.466465 0.682826
-18.855284 117.897858 5.762864 0.647059
-18.855284 117.897865 5.067597 0.661982
-18.855284 117.897858 4.379049 0.690806
-18.855282 117.897865 3.695667 0.648295
-18.855280 117.897865 3.015946 0.639475
-18.855280 117.897865 2.338407 0.691493
-18.855280 117.897865 1.661593 0.654902
-18.855280 117.897865 0.984053 0.690806
-18.855282 117.897865 0.304332 0.647974
-21.689465 116.217636 -0.000012 0.254353
-25.046196 114.227623 -0.000010 0.259607
-27.189182 112.957169 -0.000008 0.277212
-28.678631 112.074158 -0.000007 0.223811
-29.775990 111.423599 -0.000007 0.196871
-18.855284 117.730713 7.158858 0.686244
-18.855282 117.730713 6.448164 0.691035
-18.855284 117.730713 5.747445 0.659220
-18.855280 117.730713 5.055028 0.652750
-18.855284 117.730713 4.369301 0.678431
-18.855282 117.730713 3.688720 0.661646
-18.855282 117.730713 3.011783 0.627619
-18.855282 117.730713 2.337020 0.675822
-18.855282 117.730713 1.662980 0.652567
-18.855282 117.730713 0.988217 0.678431
-18.855280 117.730713 0.311279 0.663417
-21.627930 116.113022 -0.000013 0.225068
-24.998478 114.146484 -0.000010 0.227210
-27.150278 112.891029 -0.000008 0.195818
-28.645859 112.018433 -0.000007 0.254090
-29.747732 111.375549 -0.000006 0.220245
-18.855284 117.564919 7.138056 0.633753
-18.855286 117.564919 6.430226 0.662547
-18.855284 117.564919 5.732334 0.649683
-18.855282 117.564919 5.042708 0.651408
-18.855284 117.564919 4.359747 0.627649
-18.855286 117.564919 3.681910 0.647059
-18.855282 117.564919 3.007703 0.659129
-18.855282 117.564919 2.335661 0.648905
-18.855282 117.564919 1.664339 0.653773
-18.855284 117.564919 0.992296 0.629267
-18.855284 117.564919 0.318089 0.646433
-21.567135 116.007973 -0.000013 0.215015
-24.951326 114.065018 -0.000010 0.215769
-27.111841 112.824608 -0.000008 0.220759
-28.613472 111.962479 -0.000007 0.219862
-29.719810 111.327309 -0.000006 0.212298
-18.855288 117.400452 7.117667 0.646876
-18.855284 117.400452 6.412647 0.665141
-18.855282 117.400452 5.717525 0.691325
-18.855282 117.400452 5.030635 0.656031
-18.855286 117.400452 4.350384 0.638697
-18.855280 117.400452 3.675237 0.630640
-18.855284 117.400452 3.003705 0.663447
-18.855282 117.400452 2.334329 0.656825
-18.855282 117.400452 1.665671 0.665995
-18.855284 117.400452 0.996295 0.635294
-18.855280 117.400452 0.324763 0.666056
-21.507072 115.902504 -0.000013 0.217863
-24.904743 113.983223 -0.000010 0.236102
-27.073864 112.757935 -0.000008 0.243031
-28.581480 111.906303 -0.000007 0.238807
-29.692223 111.278870 -0.000006 0.234438
-18.855284 117.237274 7.097690 0.638834
-18.855286 117.237274 6.395420 0.702144
-18.855286 117.237274 5.703011 0.655253
-18.855284 117.237274 5.018804 0.638239
-18.855284 117.237274 4.341208 0.657664
-18.855286 117.237274 3.668696 0.638483
-18.855280 117.237274 2.999786 0.702144
-18.855280 117.237274 2.333025 0.670375
-18.855280 117.237274 1.666976 0.630701
-18.855282 117.237274 1.000213 0.658351
-18.855286 117.237274 0.331303 0.678431
-21.447744 115.796623 -0.000013 0.213638
-24.858732 113.901108 -0.000010 0.269205
-27.036358 112.690987 -0.000008 0.267817
-28.549881 111.849907 -0.000007 0.216427
-29.664978 111.230240 -0.000006 0.232966
-18.855284 117.075356 7.078113 0.672160
-18.855284 117.075356 6.378541 0.670787
-18.855286 117.075356 5.688791 0.689937
-18.855282 117.075356 5.007210 0.655070
-18.855280 117.075356 4.332217 0.664622
-18.855282 117.075363 3.662288 0.668452
-18.855282 117.075363 2.995947 0.668360
-18.855282 117.075363 2.331746 0.659510
-18.855282 117.075363 1.668255 0.684703
-18.855282 117.075363 1.004053 0.629313
-18.855282 117.075363 0.337711 0.660426
-21.389153 115.690331 -0.000014 0.238244
-24.813301 113.818672 -0.000010 0.217456
-26.999315 112.623779 -0.000008 0.188984
-28.518677 111.793289 -0.000007 0.245437
-29.638069 111.181419 -0.000007 0.213566
-18.700274 116.998001 7.103014 0.648646
-18.700277 116.998001 6.400010 0.671107
-18.700277 116.998001 5.706879 0.670054
-18.700275 116.998001 5.021955 0.643305
-18.700275 116.998001 4.343653 0.654002
-18.793201 116.948044 3.661788 0.704540
-18.700260 116.998009 3.000831 0.694316
-18.700260 116.998009 2.333372 0.697932
-18.700260 116.998009 1.666628 0.709804
-18.700260 116.998009 0.999169 0.693782
-18.700258 116.998009 0.329559 0.624537
-21.331318 115.583618 -0.000013 0.228454
-24.768440 113.735916 -0.000010 0.238148
-26.962744 112.556320 -0.000008 0.217923
-28.487865 111.736450 -0.000007 0.230381
-29.611504 111.132416 -0.000007 0.230393
-18.412518 116.989243 7.165588 0.639887
-18.402992 116.994278 6.456292 0.754406
-18.402988 116.994278 5.754294 0.756481
-18.402988 116.994278 5.060611 0.765484
-18.395918 116.998016 4.374551 0.618235
-18.490444 116.948044 3.683695 0.733074
-18.604479 116.887772 3.002436 0.698009
-18.604479 116.887772 2.333907 0.691005
-18.604479 116.887772 1.666093 0.704143
-18.604477 116.887772 0.997564 0.695827
-18.395960 116.997993 0.307541 0.621759
-21.274220 115.476524 -0.000013 0.218102
-24.724159 113.652855 -0.000010 0.215098
-26.926647 112.488602 -0.000008 0.206517
-28.457455 111.679405 -0.000008 0.200474
-29.585283 111.083229 -0.000007 0.237215
-18.329912 116.869919 7.170039 0.620691
-18.166079 116.955063 6.497682 0.728740
-17.803350 117.143578 5.863545 0.062486
-17.828035 117.130745 5.145548 0.057649
-18.083445 116.998009 4.406390 0.612589
-18.179577 116.948051 3.706272 0.719066
-17.891029 117.098007 3.038274 0.741176
-17.891031 117.098007 2.345844 0.741176
-18.083494 116.997986 1.657705 0.135042
-17.891031 117.098007 0.961725 0.741176
-18.083483 116.997993 0.284848 0.599313
-21.217873 115.369019 -0.000014 0.218844
-24.680458 113.569489 -0.000011 0.216223
-26.891022 112.420639 -0.000009 0.222375
-28.427441 111.622147 -0.000007 0.215062
-29.559406 111.033859 -0.000007 0.198882
-17.400291 117.183029 7.412959 0.061143
-17.762465 116.998001 6.579420 0.662089
-17.400291 117.183029 5.932026 0.063706
-17.506708 117.128662 5.187778 0.081834
-17.762465 116.998001 4.439214 0.657694
-17.872505 116.941788 3.728419 0.712856
-17.566713 117.098007 3.052437 0.741176
-17.566713 117.098007 2.350563 0.741176
-17.762486 116.997993 1.653036 0.129641
-17.566715 117.098007 0.947562 0.741176
-17.762493 116.997993 0.261452 0.620157
-21.162281 115.261131 -0.000013 0.234163
-24.637348 113.485809 -0.000010 0.212501
-26.855873 112.352425 -0.000008 0.225103
-28.397829 111.564682 -0.000008 0.225654
-29.533873 110.984306 -0.000007 0.270605
-17.022949 117.203682 7.499618 0.741176
-17.432594 116.998001 6.642977 0.663706
-17.022955 117.203674 5.994976 0.741176
-17.022951 117.203682 5.256821 0.741176
-17.664761 116.881424 4.443182 0.596887
-17.710810 116.858307 3.737154 0.697978
-17.364382 117.032249 3.059845 0.110231
-17.364380 117.032249 2.353030 0.106920
-17.432581 116.998009 1.648219 0.147295
-17.364382 117.032249 0.940155 0.108095
-17.432608 116.997993 0.237321 0.637034
-21.107441 115.152855 -0.000013 0.242038
-24.594814 113.401840 -0.000010 0.239010
-26.821201 112.283966 -0.000009 0.236174
-28.368620 111.507004 -0.000007 0.194191
-29.508688 110.934578 -0.000006 0.240147
-16.676523 117.203690 7.577303 0.741176
-17.093422 116.997986 6.708556 0.656016
-16.676531 117.203682 6.051405 0.741176
-16.676523 117.203682 5.302825 0.741176
-17.353010 116.869911 4.474698 0.606775
-17.329592 116.881470 3.765983 0.685924
-16.890759 117.097984 3.082115 0.741176
-16.890755 117.097984 2.360447 0.741176
-16.890753 117.097984 1.639553 0.633204
-16.890755 117.097984 0.917885 0.741176
-17.093418 116.997993 0.212423 0.640177
-21.053358 115.044197 -0.000013 0.235898
-24.552872 113.317574 -0.000010 0.239585
-26.787006 112.215271 -0.000009 0.228000
-28.339813 111.449127 -0.000007 0.212573
-29.483849 110.884674 -0.000007 0.213315
-16.526522 117.103653 7.600049 0.754772
-16.744501 116.997986 6.776255 0.693721
-16.526527 117.103653 6.067929 0.763149
-16.526527 117.103653 5.316294 0.725750
-17.008718 116.869911 4.510279 0.626291
-16.996786 116.875694 3.790289 0.694926
-16.538177 117.098000 3.097675 0.741176
-16.538179 117.098000 2.365630 0.741176
-16.538179 117.098000 1.634369 0.696818
-16.538177 117.098000 0.902325 0.626291
-16.744480 116.998001 0.186720 0.624384
-21.000031 114.935165 -0.000014 0.230298
-24.511517 113.233009 -0.000010 0.228454
-26.753292 112.146339 -0.000009 0.231147
-28.311413 111.391052 -0.000007 0.192443
-29.459358 110.834602 -0.000007 0.214512
-16.475571 116.955048 7.595432 0.742138
-16.385395 116.997986 6.846164 0.639170
-16.475576 116.955040 6.064575 0.758404
-16.475569 116.955048 5.313561 0.753628
-16.475569 116.955048 4.569805 0.736278
-16.479208 116.953316 3.831299 0.723384
-16.316681 117.030701 3.106051 0.119020
-16.316683 117.030701 2.368421 0.120134
-16.316683 117.030701 1.631580 0.106188
-16.385359 116.998001 0.897685 0.126635
-16.385353 116.998001 0.160177 0.619425
-20.947470 114.825768 -0.000014 0.226923
-24.470753 113.148170 -0.000011 0.194585
-26.720064 112.077164 -0.000009 0.228957
-28.283417 111.332787 -0.000007 0.199708
-29.435219 110.784355 -0.000007 0.217659
-16.015530 116.998009 7.704240 0.625116
-16.015533 116.998009 6.918410 0.692378
-16.015524 116.998016 6.143616 0.622538
-16.015526 116.998009 5.377997 0.637034
-16.015522 116.998016 4.619778 0.666468
-16.122355 116.948059 3.857577 0.687099
-16.122381 116.948044 3.112951 0.710246
-16.122385 116.948044 2.370718 0.693950
-16.122385 116.948044 1.629282 0.709026
-16.122381 116.948044 0.887049 0.697963
-16.015522 116.998016 0.132752 0.616907
-20.895676 114.716003 -0.000014 0.216175
-24.430586 113.063042 -0.000011 0.219311
-26.687317 112.007767 -0.000009 0.220651
-28.255827 111.274315 -0.000007 0.197123
-29.411432 110.733948 -0.000007 0.227102
-15.258369 117.170708 7.894510 0.079820
