# This PCD file was generated using the MATLABÂ® pcwrite function
# from Computer Vision ToolboxÂ®.
# .PCD v.7 - Point Cloud Data file format
VERSION .7
FIELDS x y z intensity
SIZE 4 4 4 4
TYPE F F F F
COUNT 1 1 1 1
WIDTH 1286
HEIGHT 1
VIEWPOINT 0 0 0 1 0 0 0
POINTS 1286
DATA ascii
nan nan nan 0.000000
nan nan nan 0.000000
143.441666 31.413841 0.000045 0.231554
128.015320 36.736332 0.000029 0.233529
121.392136 39.021500 0.000020 0.243618
117.703362 40.294220 0.000015 0.213028
115.348381 41.106750 0.000012 0.211735
113.711578 41.671490 0.000010 0.224014
112.505653 42.087566 0.000008 0.244970
nan nan nan 0.000000
nan nan nan 0.000000
nan nan nan 0.000000
nan nan nan 0.000000
nan nan nan 0.000000
nan nan nan 0.000000
nan nan nan 0.000000
nan nan nan 0.000000
nan nan nan 0.000000
143.348022 31.145500 0.000045 0.228443
127.959213 36.575558 0.000029 0.224816
121.352150 38.906906 0.000020 0.223536
117.672356 40.205349 0.000015 0.208049
115.323097 41.034302 0.000012 0.231686
113.690277 41.610455 0.000010 0.258913
112.487289 42.034939 0.000008 0.198284
nan nan nan 0.000000
nan nan nan 0.000000
nan nan nan 0.000000
nan nan nan 0.000000
nan nan nan 0.000000
nan nan nan 0.000000
nan nan nan 0.000000
nan nan nan 0.000000
nan nan nan 0.000000
143.252518 30.877823 0.000045 0.229879
127.901985 36.415180 0.000029 0.236042
121.311371 38.792595 0.000020 0.212262
117.640724 40.116699 0.000015 0.211173
115.297310 40.962029 0.000012 0.294002
113.668556 41.549564 0.000010 0.266656
112.468559 41.982437 0.000008 0.279198
nan nan nan 0.000000
nan nan nan 0.000000
nan nan nan 0.000000
nan nan nan 0.000000
nan nan nan 0.000000
nan nan nan 0.000000
nan nan nan 0.000000
nan nan nan 0.000000
nan nan nan 0.000000
143.155151 30.610807 0.000045 0.231602
127.843643 36.255199 0.000029 0.226085
121.269791 38.678566 0.000020 0.234331
117.608475 40.028267 0.000015 0.221322
115.271027 40.889935 0.000012 0.233254
113.646408 41.488831 0.000010 0.262324
112.449463 41.930069 0.000008 0.251780
nan nan nan 0.000000
nan nan nan 0.000000
nan nan nan 0.000000
nan nan nan 0.000000
nan nan nan 0.000000
nan nan nan 0.000000
nan nan nan 0.000000
nan nan nan 0.000000
nan nan nan 0.000000
143.055908 30.344494 0.000045 0.231195
127.784195 36.095634 0.000029 0.233301
121.227417 38.564835 0.000020 0.217719
117.575607 39.940063 0.000015 0.239202
115.244232 40.818031 0.000012 0.200282
113.623833 41.428249 0.000009 0.205069
112.429993 41.877834 0.000008 0.235659
nan nan nan 0.000000
nan nan nan 0.000000
nan nan nan 0.000000
nan nan nan 0.000000
nan nan nan 0.000000
nan nan nan 0.000000
nan nan nan 0.000000
nan nan nan 0.000000
nan nan nan 0.000000
142.954834 30.078865 0.000045 0.228562
127.723625 35.936485 0.000028 0.227521
121.184242 38.451405 0.000020 0.234115
117.542130 39.852089 0.000015 0.213088
115.216934 40.746311 0.000012 0.228275
113.600838 41.367832 0.000010 0.227509
112.410172 41.825741 0.000008 0.236413
nan nan nan 0.000000
nan nan nan 0.000000
nan nan nan 0.000000
nan nan nan 0.000000
nan nan nan 0.000000
nan nan nan 0.000000
nan nan nan 0.000000
nan nan nan 0.000000
nan nan nan 0.000000
142.851883 29.813955 0.000045 0.227748
127.661949 35.777767 0.000029 0.234151
121.140282 38.338276 0.000020 0.232200
117.508034 39.764355 0.000015 0.224278
115.189148 40.674786 0.000012 0.208145
113.577423 41.307575 0.000010 0.218461
112.389977 41.773785 0.000008 0.199444
nan nan nan 0.000000
nan nan nan 0.000000
nan nan nan 0.000000
nan nan nan 0.000000
nan nan nan 0.000000
nan nan nan 0.000000
nan nan nan 0.000000
nan nan nan 0.000000
nan nan nan 0.000000
142.747086 29.549774 0.000045 0.228083
127.599167 35.619480 0.000028 0.232667
121.095535 38.225456 0.000020 0.240985
117.473328 39.676857 0.000015 0.271311
115.160851 40.603458 0.000012 0.201311
113.553589 41.247482 0.000010 0.261570
112.369431 41.721970 0.000008 0.241392
nan nan nan 0.000000
nan nan nan 0.000000
nan nan nan 0.000000
nan nan nan 0.000000
nan nan nan 0.000000
nan nan nan 0.000000
nan nan nan 0.000000
nan nan nan 0.000000
nan nan nan 0.000000
142.640472 29.286324 0.000045 0.229244
127.535278 35.461636 0.000028 0.238136
121.050003 38.112953 0.000020 0.234343
117.438011 39.589607 0.000015 0.227198
115.132065 40.532326 0.000012 0.217085
113.529335 41.187553 0.000009 0.206242
112.348518 41.670300 0.000008 0.253288
nan nan nan 0.000000
nan nan nan 0.000000
nan nan nan 0.000000
nan nan nan 0.000000
nan nan nan 0.000000
nan nan nan 0.000000
nan nan nan 0.000000
nan nan nan 0.000000
nan nan nan 0.000000
142.531982 29.023636 0.000046 0.229364
127.470291 35.304241 0.000028 0.226851
121.003677 38.000771 0.000020 0.233098
117.402092 39.502602 0.000015 0.234762
115.102776 40.461399 0.000012 0.229256
113.504662 41.127800 0.000010 0.197733
112.327240 41.618778 0.000008 0.212262
nan nan nan 0.000000
nan nan nan 0.000000
nan nan nan 0.000000
nan nan nan 0.000000
nan nan nan 0.000000
nan nan nan 0.000000
nan nan nan 0.000000
nan nan nan 0.000000
nan nan nan 0.000000
142.421692 28.761700 0.000046 0.228072
127.404205 35.147305 0.000028 0.226420
120.956573 37.888912 0.000020 0.232356
117.365562 39.415855 0.000015 0.227641
115.072998 40.390678 0.000012 0.315640
113.479576 41.068222 0.000009 0.255909
112.305611 41.567402 0.000008 0.188183
nan nan nan 0.000000
nan nan nan 0.000000
nan nan nan 0.000000
nan nan nan 0.000000
nan nan nan 0.000000
nan nan nan 0.000000
nan nan nan 0.000000
nan nan nan 0.000000
nan nan nan 0.000000
142.309570 28.500540 0.000046 0.232607
127.337029 34.990833 0.000028 0.233289
120.908691 37.777386 0.000020 0.213040
117.328430 39.329361 0.000015 0.216762
115.042725 40.320168 0.000012 0.226157
113.454071 41.008816 0.000010 0.267135
112.283615 41.516182 0.000008 0.197027
nan nan nan 0.000000
nan nan nan 0.000000
nan nan nan 0.000000
nan nan nan 0.000000
nan nan nan 0.000000
nan nan nan 0.000000
nan nan nan 0.000000
nan nan nan 0.000000
nan nan nan 0.000000
142.195602 28.240183 0.000046 0.228921
127.268761 34.834835 0.000028 0.228718
120.860031 37.666199 0.000019 0.220604
117.290688 39.243130 0.000015 0.240386
115.011963 40.249870 0.000012 0.209904
113.428146 40.949593 0.000010 0.251074
112.261269 41.465118 0.000008 0.254365
nan nan nan 0.000000
nan nan nan 0.000000
nan nan nan 0.000000
nan nan nan 0.000000
nan nan nan 0.000000
nan nan nan 0.000000
nan nan nan 0.000000
nan nan nan 0.000000
nan nan nan 0.000000
142.079849 27.980616 0.000046 0.227712
127.199402 34.679317 0.000028 0.225355
120.810608 37.555351 0.000019 0.222435
117.252350 39.157162 0.000015 0.247076
114.980705 40.179787 0.000012 0.204435
113.401817 40.890553 0.000010 0.229759
112.238564 41.414211 0.000008 0.223165
nan nan nan 0.000000
nan nan nan 0.000000
nan nan nan 0.000000
nan nan nan 0.000000
nan nan nan 0.000000
nan nan nan 0.000000
nan nan nan 0.000000
nan nan nan 0.000000
nan nan nan 0.000000
141.962280 27.721863 0.000046 0.232117
127.128967 34.524281 0.000028 0.220508
120.760391 37.444851 0.000019 0.232559
117.213409 39.071465 0.000015 0.201814
114.948959 40.109924 0.000012 0.200881
113.375076 40.831692 0.000009 0.206458
112.215508 41.363461 0.000008 0.200079
nan nan nan 0.000000
nan nan nan 0.000000
nan nan nan 0.000000
nan nan nan 0.000000
nan nan nan 0.000000
nan nan nan 0.000000
nan nan nan 0.000000
nan nan nan 0.000000
nan nan nan 0.000000
141.842911 27.463936 0.000046 0.229927
127.057442 34.369751 0.000028 0.223033
120.709412 37.334709 0.000019 0.210527
117.173882 38.986042 0.000014 0.252235
114.916733 40.040283 0.000011 0.229436
113.347923 40.773026 0.000009 0.215697
112.192093 41.312874 0.000008 0.216690
123.636887 35.808002 7.181066 0.595438
123.636887 35.808002 6.467311 0.832517
123.636887 35.808002 5.763577 0.834836
123.636887 35.808002 5.068178 0.839216
123.636887 35.808002 4.379500 0.824292
123.636887 35.808006 3.695989 0.770977
123.636887 35.808006 3.016138 0.624201
123.636894 35.808002 2.338471 0.663828
123.636894 35.808002 1.661529 0.746212
123.636887 35.808002 0.983861 0.777630
123.636887 35.808006 0.304011 0.712749
120.657669 37.224918 0.000019 0.213602
117.133743 38.900898 0.000015 0.267290
114.884010 39.970871 0.000012 0.226982
113.320358 40.714546 0.000010 0.230932
112.168335 41.262451 0.000008 0.222865
123.305550 35.807999 7.106239 0.837766
123.305542 35.808002 6.402792 0.749538
123.305550 35.807999 5.709223 0.608927
123.305542 35.808002 5.023866 0.833631
123.305550 35.807999 4.345135 0.834226
123.305550 35.807999 3.671495 0.839216
123.305542 35.808002 3.001463 0.821515
123.305542 35.808002 2.333583 0.744976
123.305542 35.808002 1.666417 0.831174
123.305550 35.807999 0.998537 0.839216
123.305550 35.807999 0.328504 0.770855
120.605164 37.115498 0.000019 0.223380
117.093025 38.816036 0.000014 0.204076
114.850815 39.901688 0.000011 0.226671
113.292389 40.656261 0.000009 0.221058
112.144218 41.212196 0.000007 0.222303
122.983612 35.808002 7.033782 0.905882
122.983612 35.807999 6.340318 0.776471
122.983612 35.808002 5.656589 0.905745
122.983612 35.807999 4.980958 0.759793
122.983612 35.807999 4.311857 0.795285
122.983620 35.807999 3.647777 0.814679
122.983620 35.807999 2.987252 0.839216
122.983620 35.807999 2.328850 0.648249
122.983620 35.807999 1.671151 0.773266
122.983620 35.807999 1.012747 0.839216
122.983620 35.807999 0.352222 0.744579
120.551888 37.006447 0.000019 0.217803
117.051712 38.731461 0.000014 0.265615
114.817131 39.832741 0.000012 0.233672
113.264015 40.598175 0.000009 0.270234
112.119743 41.162113 0.000008 0.278313
122.670685 35.807999 6.963592 0.839216
122.670677 35.808002 6.279797 0.839216
122.670685 35.807999 5.605602 0.609201
122.670685 35.807999 4.939392 0.659571
122.670685 35.807999 4.279621 0.777539
122.670685 35.807999 3.624801 0.758480
122.670685 35.807999 2.973486 0.839216
122.670685 35.807999 2.324264 0.635081
122.670685 35.807999 1.675736 0.775464
122.670685 35.807999 1.026513 0.610391
122.670685 35.807999 0.375199 0.839216
120.497856 36.897766 0.000019 0.224804
117.009804 38.647179 0.000014 0.207882
114.782974 39.764030 0.000011 0.209174
113.235237 40.540287 0.000009 0.231817
112.094933 41.112198 0.000008 0.197649
122.366341 35.807999 6.895570 0.837385
122.366341 35.807999 6.221145 0.681804
122.366341 35.807999 5.556189 0.839216
122.366341 35.807999 4.899109 0.839216
122.366341 35.807999 4.248380 0.749371
122.366341 35.807999 3.602533 0.837705
122.366341 35.807999 2.960145 0.897566
122.366341 35.807999 2.319820 0.783169
122.366341 35.807999 1.680180 0.839216
122.366348 35.807995 1.039854 0.719280
122.366348 35.807995 0.397465 0.839216
120.443069 36.789467 0.000019 0.219574
116.967308 38.563187 0.000015 0.220328
114.748329 39.695560 0.000012 0.251074
113.206055 40.482601 0.000009 0.210946
112.069763 41.062462 0.000008 0.217923
122.070221 35.807995 6.829617 0.622507
122.070213 35.807995 6.164279 0.839216
122.070213 35.807999 5.508280 0.839216
122.070213 35.807995 4.860053 0.823545
122.070213 35.807995 4.218090 0.838636
122.070213 35.807995 3.580945 0.839216
122.070221 35.807995 2.947210 0.742458
122.070221 35.807995 2.315511 0.834836
122.070221 35.807995 1.684489 0.839216
122.070221 35.807995 1.052789 0.837873
122.070213 35.807995 0.419055 0.934676
120.387520 36.681553 0.000019 0.247615
116.924232 38.479496 0.000015 0.243618
114.713211 39.627331 0.000011 0.221788
113.176468 40.425121 0.000009 0.223105
112.044258 41.012897 0.000008 0.249626
121.781937 35.807999 6.765646 0.722210
121.781937 35.807999 6.109119 0.741924
121.781937 35.807999 5.461811 0.834821
121.781937 35.807999 4.822170 0.839216
121.781937 35.807999 4.188710 0.746151
121.781937 35.807995 3.560004 0.839216
121.781937 35.807999 2.934664 0.563058
121.781944 35.807995 2.311332 0.678080
121.781944 35.807995 1.688668 0.839216
121.781937 35.807999 1.065336 0.673182
121.781944 35.807995 0.439995 0.766476
120.331223 36.574028 0.000019 0.245281
116.880569 38.396103 0.000014 0.207870
114.677620 39.559349 0.000011 0.249458
113.146477 40.367847 0.000009 0.245700
112.018402 40.963516 0.000008 0.224816
121.501198 35.807995 6.703575 0.905882
121.501198 35.807995 6.055600 0.640513
121.501198 35.807995 5.416723 0.839216
121.501198 35.807995 4.785413 0.839216
121.501190 35.807999 4.160203 0.651026
121.501190 35.807999 3.539685 0.827451
121.501190 35.807995 2.922490 0.756817
121.501198 35.807991 2.307277 0.839216
121.501198 35.807991 1.692723 0.839216
121.501198 35.807995 1.077510 0.789731
121.501198 35.807995 0.460314 0.839216
120.274185 36.466900 0.000018 0.255861
116.836334 38.313023 0.000014 0.205931
114.641548 39.491619 0.000011 0.258661
113.116089 40.310787 0.000009 0.234462
111.992203 40.914314 0.000008 0.238125
121.227654 35.807995 6.643322 0.567193
121.227654 35.807995 6.003648 0.839216
121.227654 35.807995 5.372954 0.839216
121.227654 35.807995 4.749731 0.604898
121.227654 35.807995 4.132531 0.744305
121.227654 35.807995 3.519962 0.827451
121.227654 35.807995 2.910673 0.839216
121.227654 35.807995 2.303341 0.839216
121.227654 35.807995 1.696659 0.839216
121.227654 35.807995 1.089327 0.839216
121.227654 35.807991 0.480037 0.839216
120.216385 36.360176 0.000019 0.235887
116.791512 38.230251 0.000014 0.220388
114.605011 39.424141 0.000011 0.236497
113.085312 40.253937 0.000009 0.223859
111.965660 40.865299 0.000008 0.249003
120.961021 35.807995 6.584816 0.683284
120.961021 35.807995 5.953201 0.522423
120.961021 35.807995 5.330455 0.839216
120.961029 35.807995 4.715084 0.713512
120.961021 35.807995 4.105661 0.839216
120.961021 35.807995 3.500810 0.742016
120.961029 35.807991 2.899199 0.839216
120.961029 35.807995 2.299519 0.723064
120.961029 35.807991 1.700481 0.839216
120.961029 35.807991 1.100801 0.692287
120.961021 35.807995 0.499189 0.776471
120.157852 36.253857 0.000019 0.230597
116.746117 38.147793 0.000014 0.221034
114.568001 39.356922 0.000011 0.216929
113.054131 40.197308 0.000009 0.207212
111.938774 40.816471 0.000008 0.253228
120.701012 35.807991 6.527982 0.839216
120.701004 35.807995 5.904197 0.759289
120.701012 35.807991 5.289170 0.825055
120.701004 35.807995 4.681427 0.776471
120.701004 35.807995 4.079559 0.839216
120.701012 35.807991 3.482206 0.905882
120.701012 35.807991 2.888052 0.839216
120.701004 35.807991 2.295806 0.839216
120.701012 35.807991 1.704194 0.776471
120.701012 35.807991 1.111948 0.645869
120.701012 35.807991 0.517793 0.673075
120.098572 36.147942 0.000018 0.229651
116.700142 38.065655 0.000014 0.222267
114.530525 39.289955 0.000011 0.221106
113.022552 40.140896 0.000009 0.199492
111.911552 40.767826 0.000007 0.246526
120.447350 35.807995 6.472755 0.832731
120.447350 35.807995 5.856578 0.835538
120.447350 35.807995 5.249052 0.804837
120.447350 35.807995 4.648723 0.705760
120.447350 35.807991 4.054194 0.618173
120.447350 35.807991 3.464128 0.839216
120.447350 35.807991 2.877221 0.804471
120.447357 35.807991 2.292198 0.905882
120.447357 35.807991 1.707802 0.717891
120.447357 35.807991 1.122779 0.720592
120.447350 35.807991 0.535871 0.801602
120.038559 36.042446 0.000018 0.235168
116.653595 37.983841 0.000014 0.240602
114.492584 39.223259 0.000011 0.233062
112.990593 40.084702 0.000008 0.243223
111.883987 40.719376 0.000007 0.303960
120.199791 35.807995 6.419072 0.839216
120.199791 35.807991 5.810291 0.776471
120.199791 35.807991 5.210057 0.839216
120.199791 35.807991 4.616933 0.839216
120.199799 35.807991 4.029541 0.839216
120.199799 35.807991 3.446555 0.757321
120.199799 35.807991 2.866692 0.919051
120.199799 35.807991 2.288691 0.905882
120.199799 35.807991 1.711309 0.839216
120.199799 35.807991 1.133308 0.684504
120.199799 35.807991 0.553444 0.839216
119.977806 35.937378 0.000018 0.242577
116.606483 37.902355 0.000014 0.242313
114.454170 39.156830 0.000011 0.273119
112.958229 40.028736 0.000009 0.229352
111.856087 40.671120 0.000007 0.205751
119.958099 35.807991 6.366874 0.834913
119.958099 35.807991 5.765283 0.839216
119.958099 35.807991 5.172138 0.837232
119.958099 35.807991 4.586021 0.779477
119.958099 35.807991 4.005567 0.839216
119.958099 35.807991 3.429468 0.839216
119.958099 35.807991 2.856455 0.750362
119.958099 35.807991 2.285281 0.839216
119.958099 35.807991 1.714719 0.839216
119.958099 35.807991 1.143545 0.839216
119.958099 35.807991 0.570531 0.839216
119.916328 35.832733 0.000018 0.230836
116.558807 37.821194 0.000014 0.213471
114.415298 39.090668 0.000011 0.214763
112.925484 39.972996 0.000009 0.221896
111.827850 40.623062 0.000007 0.206458
119.722038 35.807991 6.316101 0.685420
119.722038 35.807991 5.721506 0.756649
119.722038 35.807995 5.135257 0.850980
119.722038 35.807991 4.555955 0.777295
119.722038 35.807991 3.982249 0.644511
119.722038 35.807991 3.412848 0.776471
119.722038 35.807991 2.846497 0.588693
119.722046 35.807991 2.281964 0.698619
119.722046 35.807991 1.718036 0.731380
119.722046 35.807991 1.153502 0.839216
119.722038 35.807991 0.587151 0.704189
119.722038 35.807991 0.017751 0.754620
116.510551 37.740376 0.000014 0.225774
114.375969 39.024780 0.000011 0.273047
112.892349 39.917488 0.000009 0.219897
111.799278 40.575199 0.000007 0.185442
119.491394 35.807991 6.266702 0.839216
119.491394 35.807991 5.678913 0.839216
119.491394 35.807991 5.099375 0.708080
119.491394 35.807991 4.526701 0.839216
119.491394 35.807991 3.959562 0.736553
119.491394 35.807991 3.396678 0.839216
119.491394 35.807991 2.836808 0.776471
119.491394 35.807987 2.278737 0.776471
119.491394 35.807987 1.721263 0.687755
119.491394 35.807991 1.163191 0.776471
119.491394 35.807991 0.603321 0.673228
119.491394 35.807991 0.040438 0.839216
116.461746 37.659893 0.000013 0.240171
114.336174 38.959167 0.000011 0.223919
112.858818 39.862213 0.000009 0.227425
111.770370 40.527538 0.000007 0.201443
119.265953 35.807991 6.218625 0.703319
119.265953 35.807991 5.637457 0.839216
119.265953 35.807991 5.064449 0.839216
119.265953 35.807991 4.498230 0.687266
119.265953 35.807991 3.937481 0.839216
119.265953 35.807991 3.380940 0.794736
119.265953 35.807991 2.827379 0.839216
119.265961 35.807987 2.275596 0.839216
119.265961 35.807987 1.724404 0.616785
119.265953 35.807991 1.172621 0.751171
119.265953 35.807991 0.619060 0.839216
119.265961 35.807987 0.062518 0.839216
116.412369 37.579750 0.000013 0.192467
114.295929 38.893833 0.000011 0.244168
112.824913 39.807171 0.000009 0.207200
111.741135 40.480080 0.000007 0.228072
119.045525 35.807991 6.171818 0.839216
119.045525 35.807991 5.597099 0.770947
119.045532 35.807991 5.030449 0.839216
119.045532 35.807987 4.470511 0.742550
119.045532 35.807987 3.915985 0.776471
119.045532 35.807987 3.365619 0.739300
119.045532 35.807987 2.818199 0.839216
119.045532 35.807987 2.272538 0.839216
119.045532 35.807987 1.727461 0.599603
119.045532 35.807987 1.181800 0.766400
119.045532 35.807987 0.634381 0.776471
119.045532 35.807987 0.084015 0.667674
116.362442 37.499958 0.000014 0.216056
114.255219 38.828785 0.000011 0.211125
112.790619 39.752369 0.000009 0.211484
111.711563 40.432827 0.000007 0.260612
118.829926 35.807991 6.126239 0.617029
118.829933 35.807987 5.557799 0.839216
118.829926 35.807991 4.997339 0.733059
118.829933 35.807987 4.443520 0.776471
118.829933 35.807987 3.895051 0.563241
118.829933 35.807987 3.350698 0.807843
118.829933 35.807987 2.809260 0.839216
118.829933 35.807987 2.269561 0.839216
118.829933 35.807987 1.730439 0.679469
118.829933 35.807987 1.190740 0.721569
118.829933 35.807987 0.649301 0.776471
118.829933 35.807987 0.104949 0.905882
116.311951 37.420517 0.000014 0.265435
114.214066 38.764019 0.000011 0.223943
112.755943 39.697807 0.000009 0.271036
111.681671 40.385780 0.000007 0.237981
118.618980 35.807987 6.081841 0.839216
118.618980 35.807987 5.519517 0.839216
118.618980 35.807987 4.965090 0.839216
118.618980 35.807987 4.417228 0.839216
118.618980 35.807987 3.874660 0.838331
118.618980 35.807987 3.336165 0.839216
118.618980 35.807987 2.800553 0.839216
118.618988 35.807987 2.266660 0.839216
118.618988 35.807987 1.733340 0.756313
118.618980 35.807987 1.199447 0.810910
118.618980 35.807987 0.663835 0.839216
118.618980 35.807987 0.125340 0.839216
116.260918 37.341427 0.000014 0.205069
114.172455 38.699543 0.000011 0.196584
112.720894 39.643490 0.000009 0.215577
111.651443 40.338943 0.000007 0.216989
118.412514 35.807987 6.038583 0.640833
118.412514 35.807991 5.482219 0.839216
118.412514 35.807987 4.933667 0.813947
118.412521 35.807987 4.391611 0.776471
118.412521 35.807983 3.854794 0.839216
118.412521 35.807987 3.322005 0.839216
118.412521 35.807987 2.792069 0.839216
118.412514 35.807987 2.263834 0.831708
118.412514 35.807987 1.736166 0.832135
118.412521 35.807987 1.207931 0.584436
118.412521 35.807983 0.677995 0.832090
118.412521 35.807983 0.145206 0.839216
116.209328 37.262695 0.000013 0.238783
114.130402 38.635361 0.000010 0.252402
112.685463 39.589417 0.000009 0.227485
111.620895 40.292320 0.000007 0.235133
118.210365 35.807987 5.996425 0.839216
118.210365 35.807987 5.445868 0.680491
118.210373 35.807983 4.903042 0.839216
118.210373 35.807983 4.366646 0.776699
118.210373 35.807983 3.835432 0.839216
118.210373 35.807987 3.308204 0.839216
118.210373 35.807983 2.783801 0.839216
118.210373 35.807983 2.261080 0.782696
118.210373 35.807983 1.738920 0.821317
118.210373 35.807983 1.216199 0.591516
118.210373 35.807983 0.691795 0.669596
118.210373 35.807983 0.164568 0.835218
116.157188 37.184326 0.000013 0.229747
114.087891 38.571468 0.000010 0.201766
112.649651 39.535591 0.000009 0.198990
111.590019 40.245911 0.000007 0.220747
118.012390 35.807991 5.955330 0.709499
118.012390 35.807983 5.410436 0.839216
118.012398 35.807983 4.873192 0.905882
118.012390 35.807987 4.342310 0.839216
118.012390 35.807983 3.816559 0.769955
118.012398 35.807983 3.294753 0.650126
118.012398 35.807983 2.775741 0.839216
118.012390 35.807983 2.258396 0.738720
118.012398 35.807983 1.741604 0.839216
118.012398 35.807983 1.224259 0.784329
118.012398 35.807983 0.705247 0.750591
118.012390 35.807987 0.183441 0.807843
116.104507 37.106323 0.000013 0.210898
114.044945 38.507881 0.000010 0.216295
112.613464 39.482018 0.000009 0.218485
111.558823 40.199718 0.000007 0.215852
117.818436 35.807983 5.915261 0.839216
117.818436 35.807983 5.375885 0.839216
117.818436 35.807987 4.844084 0.649683
117.818436 35.807987 4.318580 0.593194
117.818436 35.807983 3.798156 0.553582
117.818436 35.807983 3.281636 0.675731
117.818436 35.807983 2.767882 0.598062
117.818436 35.807983 2.255778 0.636637
117.818436 35.807983 1.744222 0.839216
117.818436 35.807983 1.232118 0.810117
117.818436 35.807983 0.718364 0.762127
117.818436 35.807983 0.201845 0.841291
116.051277 37.028694 0.000014 0.214332
114.001549 38.444595 0.000011 0.248896
112.576912 39.428699 0.000009 0.264980
111.527298 40.153748 0.000007 0.207977
117.628357 35.807983 5.876182 0.616968
117.628365 35.807983 5.342191 0.770809
117.628357 35.807983 4.815697 0.839216
117.628357 35.807983 4.295438 0.839216
117.628357 35.807983 3.780208 0.776471
117.628365 35.807983 3.268844 0.894759
117.628365 35.807983 2.760217 0.707713
117.628357 35.807983 2.253225 0.652628
117.628357 35.807983 1.746775 0.776471
117.628357 35.807983 1.239782 0.839216
117.628365 35.807983 0.731156 0.839216
117.628357 35.807983 0.219792 0.913725
115.997513 36.951431 0.000013 0.245485
113.957718 38.381607 0.000010 0.261450
112.539986 39.375637 0.000008 0.233086
111.495453 40.107994 0.000007 0.228778
117.442024 35.807983 5.838058 0.839216
117.442024 35.807983 5.309319 0.839216
117.442024 35.807983 4.788003 0.839216
117.442032 35.807983 4.272861 0.937255
117.442032 35.807983 3.762699 0.839216
117.442032 35.807983 3.256364 0.839216
117.442024 35.807983 2.752740 0.673899
117.442032 35.807983 2.250735 0.689250
117.442032 35.807983 1.749266 0.776471
117.442024 35.807983 1.247259 0.839216
117.442032 35.807983 0.743635 0.839216
117.442024 35.807983 0.237301 0.911498
115.943207 36.874550 0.000013 0.221250
113.913445 38.318932 0.000010 0.220891
112.502686 39.322834 0.000009 0.195722
111.463295 40.062462 0.000007 0.248058
117.259315 35.807983 5.800862 0.696193
117.259315 35.807983 5.277247 0.728939
117.259315 35.807983 4.760983 0.736339
117.259315 35.807983 4.250834 0.905882
117.259315 35.807983 3.745616 0.839216
117.259315 35.807983 3.244188 0.839216
117.259315 35.807983 2.745445 0.839216
117.259315 35.807983 2.248304 0.702281
117.259315 35.807983 1.751696 0.833906
117.259315 35.807983 1.254555 0.833906
117.259315 35.807983 0.755812 0.832898
117.259315 35.807983 0.254384 0.784161
115.888367 36.798050 0.000013 0.201778
113.868744 38.256565 0.000010 0.228143
112.465019 39.270294 0.000008 0.205716
111.430824 40.017159 0.000007 0.230405
117.080109 35.807983 5.764562 0.839216
117.080109 35.807983 5.245948 0.839216
117.080109 35.807987 4.734614 0.839216
117.080109 35.807983 4.229338 0.763775
117.080109 35.807983 3.728944 0.730694
117.080109 35.807983 3.232306 0.797482
117.080109 35.807983 2.738326 0.785122
117.080109 35.807983 2.245933 0.686488
117.080109 35.807983 1.754067 0.839216
117.080109 35.807983 1.261674 0.839216
117.080109 35.807983 0.767694 0.839216
117.080109 35.807983 0.271056 0.750835
115.832993 36.721931 0.000013 0.237742
113.823593 38.194511 0.000010 0.236485
112.426987 39.218014 0.000008 0.254197
111.398033 39.972084 0.000007 0.191462
116.904282 35.807983 5.729129 0.839216
116.904282 35.807983 5.215396 0.839216
116.904282 35.807983 4.708875 0.839216
116.904282 35.807983 4.208355 0.839216
116.904282 35.807983 3.712671 0.552911
116.904282 35.807983 3.220707 0.721569
116.904282 35.807983 2.731377 0.839216
116.904282 35.807983 2.243618 0.693462
116.904282 35.807983 1.756382 0.839216
116.904282 35.807983 1.268623 0.839216
116.904282 35.807983 0.779293 0.576837
116.904282 35.807983 0.287329 0.776471
115.777084 36.646206 0.000013 0.197338
113.778015 38.132778 0.000010 0.194753
112.388596 39.166004 0.000008 0.223883
111.364922 39.927238 0.000007 0.207511
116.731720 35.807983 5.694534 0.808042
116.731720 35.807983 5.185567 0.674159
116.731720 35.807983 4.683745 0.827451
116.731728 35.807983 4.187869 0.839216
116.731728 35.807983 3.696783 0.815290
116.731728 35.807983 3.209383 0.565805
116.731728 35.807983 2.724592 0.839216
116.731728 35.807983 2.241358 0.745037
116.731728 35.807983 1.758642 0.839216
116.731728 35.807983 1.275408 0.839216
116.731728 35.807983 0.790617 0.725643
116.731720 35.807983 0.303217 0.776471
115.720657 36.570869 0.000013 0.207224
113.732018 38.071362 0.000010 0.197901
112.349838 39.114262 0.000008 0.199073
111.331505 39.882626 0.000007 0.206158
116.562332 35.807983 5.660752 0.905882
116.562332 35.807983 5.156439 0.829664
116.562332 35.807983 4.659206 0.656214
116.562332 35.807983 4.167863 0.839216
116.562332 35.807983 3.681268 0.839216
116.562332 35.807983 3.198325 0.591012
116.562332 35.807983 2.717966 0.839216
116.562332 35.807983 2.239151 0.750088
116.562332 35.807983 1.760849 0.839216
116.562332 35.807983 1.282033 0.790173
116.562332 35.807983 0.801675 0.839216
116.562332 35.807983 0.318732 0.839216
115.663696 36.495926 0.000013 0.250140
113.685585 38.010269 0.000010 0.188446
112.310715 39.062794 0.000008 0.216546
111.297775 39.838249 0.000007 0.210527
116.395996 35.807983 5.627759 0.809201
116.395996 35.807983 5.127991 0.843351
116.395996 35.807983 4.635240 0.839216
116.396004 35.807983 4.148325 0.561242
116.395996 35.807983 3.666115 0.839216
116.395996 35.807983 3.187524 0.839216
116.395996 35.807983 2.711495 0.839216
116.396004 35.807980 2.236996 0.776471
116.396004 35.807980 1.763004 0.839216
116.395996 35.807983 1.288504 0.700755
116.395996 35.807983 0.812476 0.839216
116.395996 35.807983 0.333885 0.782345
115.606216 36.421387 0.000013 0.231853
113.638725 37.949501 0.000010 0.233852
112.271240 39.011597 0.000008 0.206613
111.263733 39.794106 0.000007 0.202436
116.232628 35.807983 5.595528 0.749630
116.232628 35.807983 5.100200 0.561364
116.232628 35.807983 4.611826 0.930480
116.232628 35.807983 4.129237 0.925887
116.232628 35.807980 3.651312 0.839216
116.232628 35.807980 3.176973 0.839216
116.232628 35.807980 2.705174 0.834623
116.232628 35.807983 2.234890 0.768170
116.232628 35.807983 1.765110 0.839216
116.232628 35.807980 1.294826 0.631479
116.232628 35.807980 0.823026 0.929564
116.232628 35.807983 0.348688 0.678630
115.548225 36.347248 0.000013 0.213291
113.591446 37.889061 0.000010 0.268104
112.231407 38.960678 0.000008 0.203633
111.229393 39.750198 0.000007 0.257141
116.072136 35.807980 5.564037 0.776471
116.072136 35.807983 5.073047 0.839216
116.072136 35.807983 4.588951 0.809110
116.072136 35.807980 4.110589 0.905882
116.072136 35.807983 3.636850 0.681849
116.072136 35.807980 3.166665 0.839216
116.072136 35.807980 2.698998 0.839216
116.072136 35.807980 2.232833 0.808881
116.072136 35.807980 1.767167 0.839216
116.072136 35.807980 1.301002 0.714931
116.072136 35.807983 0.833335 0.905882
116.072136 35.807983 0.363151 0.839216
115.489716 36.273518 0.000013 0.209617
113.543747 37.828953 0.000010 0.219323
112.191223 38.910038 0.000008 0.210610
111.194740 39.706539 0.000007 0.235707
115.914413 35.807980 5.533264 0.733349
115.914413 35.807983 5.046513 0.839216
115.914413 35.807980 4.566597 0.821668
115.914413 35.807980 4.092365 0.905882
115.914413 35.807983 3.622716 0.700206
115.914413 35.807980 3.156591 0.839216
115.914413 35.807983 2.692963 0.813352
115.914413 35.807983 2.230823 0.839216
115.914413 35.807983 1.769178 0.839216
115.914413 35.807983 1.307037 0.800595
115.914413 35.807980 0.843408 0.905882
115.914413 35.807983 0.377284 0.839216
115.430679 36.200199 0.000013 0.257680
113.495621 37.769180 0.000010 0.183707
112.150681 38.859684 0.000008 0.241452
111.159782 39.663120 0.000007 0.237789
115.759392 35.807980 5.503186 0.839216
115.759392 35.807983 5.020579 0.839216
115.759392 35.807980 4.544748 0.839216
115.759392 35.807980 4.074553 0.839216
115.759392 35.807983 3.608902 0.813184
115.759392 35.807983 3.146746 0.839216
115.759392 35.807980 2.687064 0.732967
115.759392 35.807983 2.228858 0.839216
115.759392 35.807983 1.771142 0.839216
115.759392 35.807980 1.312936 0.839216
115.759384 35.807983 0.853254 0.769223
115.759392 35.807983 0.391098 0.839216
115.371147 36.127293 0.000013 0.207702
113.447090 37.709743 0.000010 0.307143
112.109795 38.809608 0.000008 0.263951
111.124527 39.619946 0.000007 0.196428
115.637489 35.782520 5.483739 0.839216
115.637489 35.782520 5.003812 0.743435
115.637489 35.782520 4.530622 0.839216
115.637489 35.782520 4.063037 0.575357
115.637489 35.782520 3.599971 0.839216
115.637489 35.782520 3.140379 0.839216
115.637489 35.782520 2.683250 0.772473
115.637489 35.782520 2.227587 0.839216
115.637489 35.782524 1.772413 0.839216
115.637489 35.782520 1.316751 0.828824
115.637489 35.782524 0.859620 0.683375
115.637489 35.782520 0.400029 0.905882
115.311104 36.054802 0.000012 0.224936
113.398140 37.650646 0.000010 0.212992
112.068550 38.759823 0.000008 0.245341
111.088974 39.577019 0.000007 0.249781
115.637489 35.655334 5.504233 0.839216
115.637489 35.655334 5.021482 0.839216
115.637489 35.655334 4.545509 0.839216
115.637497 35.655334 4.075174 0.839216
115.637489 35.655334 3.609384 0.839216
115.637489 35.655334 3.147088 0.839216
115.637489 35.655334 2.687269 0.735073
115.637489 35.655334 2.228926 0.780850
115.637489 35.655334 1.771074 0.839216
115.637489 35.655334 1.312731 0.823606
115.637489 35.655334 0.852911 0.733089
115.637489 35.655334 0.390617 0.905882
115.250557 35.982735 0.000013 0.230274
113.348778 37.591896 0.000010 0.216008
112.026962 38.710327 0.000008 0.281999
111.053116 39.534340 0.000007 0.242253
115.637489 35.526634 5.525143 0.783825
115.637489 35.526634 5.039511 0.776471
115.637497 35.526630 4.560699 0.811917
115.637489 35.526634 4.087556 0.839216
115.637497 35.526630 3.618987 0.746700
115.637489 35.526630 3.153933 0.839216
115.637497 35.526630 2.691370 0.784451
115.637497 35.526630 2.230292 0.839216
115.637497 35.526630 1.769708 0.776471
115.637497 35.526630 1.308630 0.814954
115.637489 35.526630 0.846066 0.839216
115.637489 35.526634 0.381013 0.839216
115.189507 35.911087 0.000012 0.226169
113.299004 37.533489 0.000010 0.234307
111.985039 38.661121 0.000008 0.213423
111.016960 39.491913 0.000007 0.255095
115.637489 35.396381 5.546477 0.839216
115.637489 35.396381 5.057906 0.776471
115.637497 35.396381 4.576196 0.692042
115.637489 35.396381 4.100190 0.776471
115.637497 35.396381 3.628785 0.711864
115.637489 35.396381 3.160916 0.839216
115.637489 35.396381 2.695554 0.839216
115.637497 35.396381 2.231686 0.856306
115.637489 35.396381 1.768314 0.776471
115.637489 35.396381 1.304446 0.709758
115.637489 35.396381 0.839083 0.776471
115.637497 35.396381 0.371215 0.839216
115.127960 35.839874 0.000012 0.242229
113.248833 37.475433 0.000010 0.233026
111.942764 38.612209 0.000008 0.184425
110.980515 39.449738 0.000007 0.273753
115.637489 35.264538 5.568245 0.839216
115.637489 35.264538 5.076676 0.761242
115.637489 35.264542 4.592009 0.788281
115.637489 35.264538 4.113081 0.776471
115.637489 35.264538 3.638783 0.738415
115.637489 35.264538 3.168043 0.839216
115.637489 35.264538 2.699823 0.839216
115.637489 35.264538 2.233108 0.893660
115.637489 35.264538 1.766892 0.776471
115.637489 35.264538 1.300176 0.719631
115.637489 35.264538 0.831957 0.776471
115.637489 35.264538 0.361217 0.839216
115.065910 35.769089 0.000012 0.226396
113.198250 37.417725 0.000010 0.196105
111.900154 38.563595 0.000008 0.237813
110.943771 39.407818 0.000006 0.214045
115.637489 35.131058 5.590460 0.839216
115.637497 35.131058 5.095830 0.628916
115.637489 35.131058 4.608146 0.839216
115.637489 35.131058 4.126236 0.776471
115.637489 35.131058 3.648984 0.828595
115.637497 35.131058 3.175314 0.839216
115.637497 35.131058 2.704180 0.839216
115.637489 35.131058 2.234559 0.860533
115.637489 35.131058 1.765441 0.839216
115.637489 35.131058 1.295820 0.688579
115.637497 35.131058 0.824685 0.776471
115.637489 35.131058 0.351015 0.740810
115.003372 35.698738 0.000012 0.196141
113.147263 37.360374 0.000010 0.226599
111.857201 38.515278 0.000008 0.220687
110.906738 39.366158 0.000007 0.194897
115.637489 34.995903 5.613129 0.671061
115.637489 34.995903 5.115376 0.828733
115.637489 34.995903 4.624612 0.766873
115.637489 34.995903 4.139661 0.792828
115.637489 34.995903 3.659396 0.839216
115.637489 34.995899 3.182735 0.796323
115.637489 34.995903 2.708626 0.831556
115.637489 34.995899 2.236040 0.774166
115.637489 34.995899 1.763960 0.839216
115.637489 34.995903 1.291374 0.690257
115.637489 34.995903 0.817265 0.828916
115.637489 34.995903 0.340604 0.646845
114.940346 35.628830 0.000013 0.212609
113.095886 37.303379 0.000009 0.216666
111.813911 38.467262 0.000008 0.215792
110.869408 39.324760 0.000007 0.205021
115.637489 34.859020 5.636265 0.761364
115.637489 34.859016 5.135325 0.829755
115.637489 34.859016 4.641418 0.776471
115.637489 34.859016 4.153362 0.533761
115.637489 34.859016 3.670022 0.839216
115.637489 34.859016 3.190308 0.660471
115.637489 34.859016 2.713164 0.839216
115.637497 34.859016 2.237552 0.808652
115.637497 34.859016 1.762448 0.839216
115.637489 34.859020 1.286836 0.727184
115.637489 34.859016 0.809691 0.839216
115.637489 34.859016 0.329978 0.888884
114.876831 35.559357 0.000012 0.226875
113.044106 37.246750 0.000010 0.251672
111.770287 38.419552 0.000008 0.227748
110.831802 39.283619 0.000007 0.189260
115.637489 34.720367 5.659879 0.776471
115.637489 34.720367 5.155685 0.829236
115.637489 34.720367 4.658571 0.552636
115.637497 34.720367 4.167345 0.839216
115.637489 34.720367 3.680866 0.839216
115.637497 34.720367 3.198038 0.704112
115.637489 34.720367 2.717795 0.839216
115.637489 34.720364 2.239094 0.839216
115.637489 34.720367 1.760906 0.776471
115.637489 34.720367 1.282205 0.742046
115.637497 34.720367 0.801961 0.839216
115.637489 34.720367 0.319134 0.905882
114.812836 35.490334 0.000012 0.249291
112.991936 37.190475 0.000009 0.257812
111.726334 38.372147 0.000008 0.188877
110.793900 39.242741 0.000006 0.186411
115.637489 34.579891 5.683982 0.821820
115.637497 34.579891 5.176469 0.802487
115.637489 34.579891 4.676081 0.776471
115.637497 34.579891 4.181620 0.839216
115.637497 34.579891 3.691937 0.839216
115.637497 34.579887 3.205929 0.718486
115.637497 34.579887 2.722522 0.839216
115.637497 34.579891 2.240669 0.697261
115.637497 34.579891 1.759331 0.776471
115.637497 34.579891 1.277478 0.839216
115.637497 34.579891 0.794071 0.839216
115.637497 34.579891 0.308063 0.839216
114.748360 35.421757 0.000012 0.224924
112.939369 37.134571 0.000009 0.240590
111.682053 38.325047 0.000008 0.202592
110.755714 39.202133 0.000007 0.208097
115.637489 34.437553 5.708586 0.905882
115.637489 34.437553 5.197682 0.839216
115.637497 34.437550 4.693954 0.777783
115.637489 34.437553 4.196189 0.839216
115.637489 34.437553 3.703237 0.839216
115.637497 34.437553 3.213982 0.839216
115.637497 34.437550 2.727348 0.839216
115.637489 34.437553 2.242276 0.682124
115.637497 34.437553 1.757724 0.776471
115.637497 34.437550 1.272652 0.839216
115.637497 34.437553 0.786017 0.707164
115.637489 34.437553 0.296763 0.839216
114.683403 35.353634 0.000012 0.230286
112.886414 37.079037 0.000010 0.221776
111.637444 38.278259 0.000008 0.216116
110.717255 39.161789 0.000006 0.213842
115.637489 34.293289 5.733705 0.839216
115.637489 34.293289 5.219341 0.839216
115.637489 34.293289 4.712200 0.831632
115.637497 34.293289 4.211064 0.828305
115.637497 34.293289 3.714773 0.656947
115.637497 34.293289 3.222205 0.839216
115.637497 34.293285 2.732275 0.839216
115.637497 34.293285 2.243917 0.680064
115.637497 34.293285 1.756083 0.839216
115.637497 34.293285 1.267725 0.839216
115.637497 34.293285 0.777795 0.646586
115.637497 34.293285 0.285227 0.839216
114.617973 35.285965 0.000012 0.200677
112.833076 37.023869 0.000010 0.233278
111.592506 38.231781 0.000008 0.217779
110.678505 39.121719 0.000007 0.202807
115.637497 34.147049 5.759351 0.839216
115.637497 34.147049 5.241454 0.839216
115.637497 34.147049 4.730829 0.860533
115.637497 34.147049 4.226252 0.700374
115.637497 34.147049 3.726551 0.818998
115.637497 34.147049 3.230599 0.788434
115.637497 34.147049 2.737304 0.839216
115.637497 34.147049 2.245593 0.690272
115.637497 34.147049 1.754407 0.839216
115.637497 34.147049 1.262696 0.839216
115.637497 34.147049 0.769400 0.682277
115.637497 34.147049 0.273449 0.776471
114.552078 35.218750 0.000012 0.231674
112.779358 36.969074 0.000009 0.292925
111.547241 38.185619 0.000008 0.198774
110.639481 39.081917 0.000007 0.271982
115.637489 33.998779 5.785536 0.500786
115.637489 33.998779 5.264033 0.526085
115.637489 33.998779 4.749851 0.633768
115.637489 33.998779 4.241759 0.672282
115.637497 33.998779 3.738577 0.839216
115.637497 33.998779 3.239172 0.776471
115.637497 33.998779 2.742440 0.839216
115.637497 33.998779 2.247303 0.563684
115.637497 33.998779 1.752697 0.738109
115.637497 33.998779 1.257560 0.738109
115.637497 33.998779 0.760828 0.715572
115.637497 33.998779 0.261422 0.580118
114.485710 35.152004 0.000012 0.198475
112.725250 36.914658 0.000009 0.214452
111.501663 38.139774 0.000007 0.189320
110.600174 39.042389 0.000007 0.226815
115.637497 33.848427 5.812277 0.776471
115.637489 33.848427 5.287090 0.839216
115.637489 33.848427 4.769276 0.905882
115.637489 33.848427 4.257594 0.839216
115.637497 33.848427 3.750859 0.839216
115.637497 33.848427 3.247925 0.776471
115.637497 33.848427 2.747684 0.833555
115.637497 33.848427 2.249050 0.642664
115.637497 33.848427 1.750950 0.839216
115.637497 33.848427 1.252316 0.839216
115.637497 33.848427 0.752075 0.839216
115.637497 33.848427 0.249141 0.802976
114.418877 35.085724 0.000012 0.214404
112.670769 36.860626 0.000010 0.205333
111.455765 38.094254 0.000008 0.189236
110.560600 39.003136 0.000007 0.239477
115.637497 33.695923 5.839587 0.839216
115.637497 33.695923 5.310637 0.905882
115.637497 33.695923 4.789114 0.839216
115.637497 33.695923 4.273767 0.839216
115.637497 33.695923 3.763401 0.905882
115.637497 33.695923 3.256865 0.839216
115.637497 33.695919 2.753041 0.812573
115.637497 33.695923 2.250834 0.620768
115.637497 33.695923 1.749166 0.839216
115.637497 33.695919 1.246959 0.839216
115.637497 33.695923 0.743135 0.839216
115.637497 33.695919 0.236598 0.827451
114.351585 35.019905 0.000012 0.218725
112.615906 36.806969 0.000009 0.259308
111.409546 38.049049 0.000007 0.231913
110.520752 38.964157 0.000006 0.214847
115.637489 33.541214 5.867481 0.701869
115.637497 33.541214 5.334688 0.905882
115.637497 33.541214 4.809376 0.839216
115.637497 33.541214 4.290285 0.839216
115.637497 33.541214 3.776212 0.905882
115.637497 33.541210 3.265996 0.794232
115.637497 33.541210 2.758511 0.599954
115.637497 33.541214 2.252656 0.565591
115.637497 33.541214 1.747344 0.839216
115.637497 33.541210 1.241489 0.839216
115.637497 33.541210 0.734004 0.839216
115.637497 33.541214 0.223788 0.776471
114.283836 34.954559 0.000012 0.279904
112.560677 36.753700 0.000009 0.271527
111.363014 38.004173 0.000008 0.224266
110.480629 38.925461 0.000006 0.211245
115.637489 33.384232 5.895974 0.839216
115.637497 33.384232 5.359256 0.502083
115.637489 33.384228 4.830074 0.613413
115.637497 33.384232 4.307158 0.691249
115.637497 33.384228 3.789298 0.753506
115.637497 33.384228 3.275322 0.635050
115.637497 33.384228 2.764099 0.403479
115.637497 33.384224 2.254518 0.686488
115.637497 33.384228 1.745482 0.839216
115.637497 33.384228 1.235901 0.839216
115.637497 33.384228 0.724677 0.839216
115.637497 33.384228 0.210702 0.776471
114.215630 34.889690 0.000012 0.202568
112.505074 36.700813 0.000009 0.197494
111.316170 37.959618 0.000007 0.233720
110.440239 38.887047 0.000006 0.202819
115.637489 33.224907 5.925083 0.839216
115.637497 33.224907 5.384355 0.839216
115.637497 33.224907 4.851219 0.839216
115.637497 33.224907 4.324397 0.693553
115.637497 33.224907 3.802666 0.619471
115.637497 33.224907 3.284851 0.698955
115.637497 33.224907 2.769808 0.586938
115.637497 33.224907 2.256419 0.702678
115.637497 33.224907 1.743580 0.839216
115.637497 33.224907 1.230191 0.839216
115.637497 33.224903 0.715148 0.839216
115.637497 33.224903 0.197333 0.744839
114.146973 34.825294 0.000011 0.245042
112.449104 36.648319 0.000009 0.245497
111.269012 37.915390 0.000008 0.212621
110.399582 38.848915 0.000006 0.191067
115.637497 33.063179 5.954824 0.650553
115.637497 33.063183 5.409999 0.839216
115.637497 33.063183 4.872823 0.839216
115.637497 33.063179 4.342010 0.839216
115.637497 33.063179 3.816327 0.807370
115.637497 33.063179 3.294587 0.778561
115.637497 33.063179 2.775641 0.839216
115.637497 33.063179 2.258362 0.764065
115.637497 33.063179 1.741637 0.839216
115.637497 33.063179 1.224359 0.798795
115.637497 33.063179 0.705413 0.780072
115.637497 33.063179 0.183674 0.839216
114.077873 34.761383 0.000011 0.229101
112.392769 36.596222 0.000009 0.203693
111.221558 37.871498 0.000008 0.195399
110.358658 38.811069 0.000006 0.202987
115.637497 32.898975 5.985215 0.839216
115.637497 32.898975 5.436204 0.778820
115.637489 32.898975 4.894899 0.839216
115.637497 32.898975 4.360006 0.839216
115.637497 32.898975 3.830283 0.839216
115.637497 32.898972 3.304535 0.839216
115.637497 32.898972 2.781602 0.839216
115.637497 32.898972 2.260348 0.777905
115.637497 32.898972 1.739652 0.839216
115.637497 32.898972 1.218398 0.783673
115.637497 32.898972 0.695464 0.710063
115.637497 32.898972 0.169716 0.620951
114.008324 34.697960 0.000012 0.205895
112.336067 36.544510 0.000009 0.230118
111.173790 37.827934 0.000008 0.212944
110.317474 38.773506 0.000006 0.254724
115.637497 32.732216 6.016275 0.839216
115.637497 32.732216 5.462984 0.839216
115.637497 32.732220 4.917460 0.657664
115.637497 32.732216 4.378400 0.839216
115.637497 32.732220 3.844548 0.839216
115.637497 32.732216 3.314702 0.839216
115.637497 32.732220 2.787693 0.839216
115.637497 32.732216 2.262377 0.771786
115.637497 32.732216 1.737623 0.839216
115.637497 32.732216 1.212306 0.537835
115.637497 32.732216 0.685297 0.700374
115.637497 32.732216 0.155452 0.905882
113.938332 34.635017 0.000011 0.247160
112.279015 36.493198 0.000009 0.212789
111.125717 37.784706 0.000007 0.222243
110.276024 38.736233 0.000006 0.216546
115.637497 32.562836 6.048020 0.457420
115.637497 32.562832 5.490356 0.752148
115.637497 32.562832 4.940522 0.708965
115.637497 32.562832 4.397200 0.785946
115.637497 32.562828 3.859128 0.839216
115.637497 32.562832 3.325094 0.839216
115.637497 32.562828 2.793920 0.839216
115.637497 32.562832 2.264451 0.797559
115.637497 32.562832 1.735549 0.839216
115.637497 32.562828 1.206080 0.495796
115.637497 32.562832 0.674906 0.576745
115.637497 32.562828 0.140872 0.809720
113.867905 34.572567 0.000011 0.219981
112.221596 36.442287 0.000009 0.226540
111.077347 37.741814 0.000008 0.213471
110.234314 38.699253 0.000006 0.214261
115.637497 32.390739 6.080472 0.839216
115.637497 32.390739 5.518337 0.694636
115.637497 32.390739 4.964095 0.839216
115.637497 32.390739 4.416417 0.839216
115.637497 32.390739 3.874032 0.767941
115.637497 32.390739 3.335717 0.839216
115.637497 32.390739 2.800284 0.839216
115.637497 32.390739 2.266571 0.839216
115.637497 32.390739 1.733429 0.638529
115.637497 32.390739 1.199716 0.839582
115.637497 32.390739 0.664283 0.839216
115.637497 32.390736 0.125967 0.839216
113.797043 34.510612 0.000012 0.217408
112.163826 36.391777 0.000009 0.217396
111.028679 37.699265 0.000008 0.244874
110.192352 38.662560 0.000006 0.204064
115.637497 32.215855 6.113652 0.839216
115.637497 32.215855 5.546947 0.839216
115.637497 32.215855 4.988196 0.839216
115.637497 32.215855 4.436066 0.839216
115.637497 32.215855 3.889271 0.656809
115.637497 32.215851 3.346578 0.839216
115.637497 32.215851 2.806791 0.839216
115.637497 32.215851 2.268739 0.839216
115.637497 32.215851 1.731261 0.629435
115.637497 32.215851 1.193208 0.839216
115.637497 32.215855 0.653422 0.839216
115.637497 32.215851 0.110729 0.839216
113.725754 34.449146 0.000011 0.219598
112.105705 36.341675 0.000009 0.252965
110.979713 37.657051 0.000007 0.237945
110.150139 38.626163 0.000006 0.307825
115.637497 32.038101 6.147578 0.839216
115.637497 32.038101 5.576199 0.839216
115.637497 32.038101 5.012841 0.637522
115.637497 32.038097 4.456156 0.839216
115.637497 32.038101 3.904851 0.880613
115.637497 32.038097 3.357683 0.729137
115.637497 32.038097 2.813445 0.839216
115.637497 32.038101 2.270955 0.839216
115.637497 32.038101 1.729045 0.618814
115.637497 32.038097 1.186554 0.839216
115.637497 32.038097 0.642316 0.905882
115.637497 32.038097 0.095148 0.905882
113.654030 34.388187 0.000011 0.280694
112.047241 36.291973 0.000008 0.200222
110.930458 37.615181 0.000007 0.211711
110.107666 38.590065 0.000006 0.208660
115.637497 31.857380 6.182274 0.839216
115.637497 31.857378 5.606115 0.761532
115.637497 31.857376 5.038045 0.839216
115.637497 31.857378 4.476703 0.839216
115.637497 31.857378 3.920786 0.905882
115.637497 31.857376 3.369041 0.691188
115.637497 31.857374 2.820250 0.839216
115.637497 31.857372 2.273221 0.839216
115.637497 31.857374 1.726779 0.614267
115.637497 31.857372 1.179749 0.839216
115.637497 31.857372 0.630958 0.905882
115.637497 31.857376 0.079213 0.520729
113.581886 34.327728 0.000011 0.234020
111.988426 36.242687 0.000009 0.258805
110.880913 37.573658 0.000007 0.208755
110.064941 38.554260 0.000006 0.205560
115.637497 31.673595 6.217763 0.665202
115.637497 31.673595 5.636714 0.776471
115.637497 31.673594 5.063825 0.839216
115.637497 31.673595 4.497720 0.550881
115.637497 31.673595 3.937086 0.839216
115.637497 31.673595 3.380658 0.839216
115.637497 31.673595 2.827210 0.839216
115.637497 31.673592 2.275540 0.839216
115.637497 31.673592 1.724460 0.609705
115.637497 31.673595 1.172790 0.905882
115.637497 31.673594 0.619341 0.745007
115.637497 31.673592 0.062914 0.755154
113.509323 34.267773 0.000010 0.205464
111.929276 36.193810 0.000008 0.248752
110.831070 37.532482 0.000007 0.229950
110.021973 38.518753 0.000006 0.225822
115.637497 31.486660 6.254069 0.930877
115.637497 31.486656 5.668020 0.776471
115.637497 31.486658 5.090198 0.644022
115.637497 31.486656 4.519220 0.839216
115.637497 31.486656 3.953760 0.839216
115.637497 31.486658 3.392542 0.839216
115.637497 31.486656 2.834331 0.839216
115.637497 31.486656 2.277912 0.839216
115.637497 31.486656 1.722088 0.607187
115.637497 31.486656 1.165669 0.905882
115.637497 31.486656 0.607457 0.709880
115.637497 31.486656 0.046241 0.839216
113.436340 34.208328 0.000011 0.248656
