# This PCD file was generated using the MATLABÂ® pcwrite function
# from Computer Vision ToolboxÂ®.
# .PCD v.7 - Point Cloud Data file format
VERSION .7
FIELDS x y z intensity
SIZE 4 4 4 4
TYPE F F F F
COUNT 1 1 1 1
WIDTH 1301
HEIGHT 1
VIEWPOINT 0 0 0 1 0 0 0
POINTS 1301
DATA ascii
57.396179 41.424313 -0.000029 0.239716
50.731800 43.587467 -0.000021 0.221118
47.020115 44.792221 -0.000015 0.215936
44.650528 45.561356 -0.000012 0.274483
43.003578 46.095928 -0.000010 0.202879
41.790188 46.489777 -0.000009 0.202544
nan nan nan 0.000000
nan nan nan 0.000000
nan nan nan 0.000000
nan nan nan 0.000000
nan nan nan 0.000000
82.954880 32.751217 6.213003 0.433906
nan nan nan 0.000000
nan nan nan 0.000000
nan nan nan 0.000000
72.830200 36.115845 -0.000048 0.228897
57.343044 41.262524 -0.000029 0.236018
50.693924 43.472153 -0.000021 0.225223
46.990738 44.702793 -0.000015 0.215565
44.626579 45.488449 -0.000012 0.240063
42.983410 46.034508 -0.000010 0.197171
41.772793 46.436817 -0.000008 0.237562
nan nan nan 0.000000
nan nan nan 0.000000
nan nan nan 0.000000
nan nan nan 0.000000
nan nan nan 0.000000
83.162979 32.301567 6.240927 0.456519
84.222839 31.941120 4.595912 0.508354
nan nan nan 0.000000
nan nan nan 0.000000
72.739609 35.846447 -0.000048 0.231219
57.288780 41.101116 -0.000029 0.229687
50.655247 43.357109 -0.000020 0.207164
46.960747 44.613571 -0.000016 0.205608
44.602127 45.415710 -0.000012 0.252522
42.962807 45.973228 -0.000010 0.260624
41.755032 46.383980 -0.000009 0.252618
nan nan nan 0.000000
nan nan nan 0.000000
nan nan nan 0.000000
nan nan nan 0.000000
nan nan nan 0.000000
nan nan nan 0.000000
nan nan nan 0.000000
nan nan nan 0.000000
nan nan nan 0.000000
72.647156 35.577679 -0.000048 0.228658
57.233379 40.940086 -0.000028 0.225510
50.615768 43.242336 -0.000021 0.222710
46.930126 44.524559 -0.000015 0.233098
44.577168 45.343147 -0.000012 0.207690
42.941776 45.912094 -0.000010 0.203202
41.736900 46.331268 -0.000009 0.202628
nan nan nan 0.000000
nan nan nan 0.000000
nan nan nan 0.000000
nan nan nan 0.000000
nan nan nan 0.000000
nan nan nan 0.000000
nan nan nan 0.000000
nan nan nan 0.000000
nan nan nan 0.000000
72.552841 35.309563 -0.000048 0.226767
57.176865 40.779453 -0.000028 0.230381
50.575489 43.127846 -0.000021 0.207571
46.898888 44.435768 -0.000016 0.269085
44.551701 45.270760 -0.000013 0.230824
42.920326 45.851112 -0.000010 0.231997
41.718399 46.278687 -0.000009 0.215709
nan nan nan 0.000000
nan nan nan 0.000000
nan nan nan 0.000000
nan nan nan 0.000000
nan nan nan 0.000000
nan nan nan 0.000000
nan nan nan 0.000000
nan nan nan 0.000000
nan nan nan 0.000000
72.456635 35.042118 -0.000048 0.228622
57.119232 40.619213 -0.000028 0.220604
50.534409 43.013634 -0.000020 0.221741
46.867031 44.347195 -0.000016 0.225331
44.525726 45.198555 -0.000012 0.197673
42.898441 45.790279 -0.000010 0.188709
41.699532 46.226234 -0.000008 0.233349
nan nan nan 0.000000
nan nan nan 0.000000
nan nan nan 0.000000
nan nan nan 0.000000
nan nan nan 0.000000
nan nan nan 0.000000
nan nan nan 0.000000
nan nan nan 0.000000
nan nan nan 0.000000
72.358566 34.775352 -0.000048 0.228849
57.060478 40.459385 -0.000028 0.228419
50.492535 42.899715 -0.000021 0.220436
46.834553 44.258846 -0.000015 0.232476
44.499252 45.126530 -0.000012 0.229903
42.876137 45.729603 -0.000010 0.262264
41.680302 46.173916 -0.000008 0.207786
nan nan nan 0.000000
nan nan nan 0.000000
nan nan nan 0.000000
nan nan nan 0.000000
nan nan nan 0.000000
nan nan nan 0.000000
nan nan nan 0.000000
nan nan nan 0.000000
nan nan nan 0.000000
72.258659 34.509270 -0.000047 0.231087
57.000610 40.299969 -0.000028 0.227150
50.449867 42.786091 -0.000020 0.215050
46.801456 44.170727 -0.000015 0.249015
44.472275 45.054691 -0.000012 0.217899
42.853409 45.669079 -0.000010 0.233972
41.660706 46.121731 -0.000008 0.250068
nan nan nan 0.000000
nan nan nan 0.000000
nan nan nan 0.000000
nan nan nan 0.000000
nan nan nan 0.000000
nan nan nan 0.000000
nan nan nan 0.000000
nan nan nan 0.000000
nan nan nan 0.000000
72.156876 34.243900 -0.000047 0.228443
56.939632 40.140972 -0.000028 0.229615
50.406403 42.672768 -0.000020 0.233792
46.767754 44.082840 -0.000015 0.213770
44.444801 44.983044 -0.000012 0.248836
42.830261 45.608719 -0.000010 0.241643
41.640743 46.069687 -0.000008 0.296348
nan nan nan 0.000000
nan nan nan 0.000000
nan nan nan 0.000000
89.199402 27.196606 10.774198 0.223529
nan nan nan 0.000000
nan nan nan 0.000000
nan nan nan 0.000000
nan nan nan 0.000000
nan nan nan 0.000000
72.053223 33.979252 -0.000046 0.229735
56.877548 39.982407 -0.000028 0.231375
50.362144 42.559753 -0.000020 0.227868
46.733433 43.995190 -0.000015 0.196321
44.416821 44.911587 -0.000012 0.227377
42.806690 45.548519 -0.000010 0.245844
41.620419 46.017780 -0.000008 0.245425
48.875198 43.029106 5.965299 0.223529
nan nan nan 0.000000
nan nan nan 0.000000
88.921448 26.863493 10.754249 0.223529
88.355682 27.091877 8.719093 0.968627
88.365562 27.087885 6.789910 0.223529
87.654404 27.374960 4.832161 0.977310
88.106720 27.192375 2.951360 0.223529
nan nan nan 0.000000
71.947769 33.715317 -0.000046 0.230776
56.814354 39.824280 -0.000028 0.220903
50.317108 42.447044 -0.000020 0.239190
46.698502 43.907784 -0.000015 0.203837
44.388344 44.840332 -0.000012 0.226121
42.782700 45.488487 -0.000010 0.218425
41.599735 45.966019 -0.000008 0.191570
48.813744 42.934895 5.959954 0.223529
48.857941 42.916691 5.424747 0.223529
48.901783 42.898636 4.893873 0.223529
86.597290 27.375031 10.406358 0.977218
87.284805 27.091906 8.605017 0.968627
87.284882 27.091873 6.707733 0.968627
86.597412 27.374983 4.784077 0.971893
87.284737 27.091934 2.939526 0.968627
87.284752 27.091927 1.060474 0.968627
71.840439 33.452133 -0.000046 0.231805
56.750061 39.666595 -0.000028 0.224062
50.271278 42.334656 -0.000020 0.204674
46.662964 43.820618 -0.000015 0.224218
44.359371 44.769276 -0.000012 0.223452
42.758293 45.428623 -0.000010 0.218282
41.578690 45.914402 -0.000008 0.231614
48.752460 42.840927 5.954819 0.223529
48.796394 42.822475 5.420286 0.223529
48.839993 42.804165 4.890095 0.223529
48.883331 42.785961 4.363061 0.223529
86.158737 27.130123 8.483715 0.223529
86.161972 27.128759 6.621559 0.223529
85.575684 27.375002 4.737731 0.968627
86.168411 27.126055 2.922444 0.223529
86.171646 27.124697 1.077497 0.223529
71.731308 33.189705 -0.000046 0.228155
56.684669 39.509365 -0.000028 0.221669
50.224670 42.222591 -0.000020 0.234977
46.626816 43.733707 -0.000015 0.221274
44.329903 44.698425 -0.000012 0.241140
42.733463 45.368935 -0.000010 0.202987
41.557281 45.862938 -0.000008 0.197278
nan nan nan 0.000000
48.753578 42.720543 5.420369 0.223529
48.778370 42.709927 4.886467 0.223529
48.821442 42.691479 4.360083 0.223529
48.864376 42.673092 3.835715 0.223529
48.907242 42.654736 3.312230 0.223529
84.587341 27.375023 4.693029 0.966766
85.248268 27.091988 2.908802 0.968627
85.248291 27.091980 1.091199 0.968627
71.620346 32.928040 -0.000046 0.227605
56.618179 39.352592 -0.000027 0.223440
50.177280 42.110851 -0.000020 0.230860
46.590065 43.647049 -0.000015 0.221657
44.299942 44.627777 -0.000012 0.202125
42.708221 45.309418 -0.000010 0.198511
41.535519 45.811619 -0.000008 0.222973
nan nan nan 0.000000
nan nan nan 0.000000
48.934071 42.521118 4.926105 0.223529
48.759758 42.597210 4.357234 0.223529
48.802429 42.578583 3.833489 0.223529
48.845039 42.559982 3.310632 0.223529
48.887691 42.541363 2.787541 0.223529
84.279083 27.092012 2.894243 0.968627
84.279099 27.092009 1.105757 0.968627
71.507530 32.667160 -0.000046 0.232368
56.550594 39.196289 -0.000028 0.229567
50.129116 41.999447 -0.000020 0.238388
46.552704 43.560650 -0.000015 0.201240
44.269485 44.557343 -0.000011 0.210802
42.682564 45.250076 -0.000010 0.234283
41.513397 45.760452 -0.000008 0.228969
nan nan nan 0.000000
nan nan nan 0.000000
nan nan nan 0.000000
82.704170 27.375084 9.875443 0.980392
48.740669 42.484280 3.831362 0.223529
48.783035 42.465431 3.309106 0.223529
48.825424 42.446575 2.786620 0.223529
48.867928 42.427666 2.262780 0.223529
48.910660 42.408657 1.736454 0.223529
71.392914 32.407074 -0.000046 0.228574
56.481922 39.040462 -0.000027 0.222459
50.080162 41.888386 -0.000019 0.230968
46.514748 43.474518 -0.000015 0.251816
44.238537 44.487122 -0.000011 0.242577
42.656494 45.190922 -0.000010 0.209342
41.490917 45.709446 -0.000008 0.192611
nan nan nan 0.000000
nan nan nan 0.000000
83.282806 26.705870 11.806329 0.223529
81.806305 27.375103 9.753941 0.980072
82.301849 27.150492 8.076096 0.223529
48.909836 42.285583 3.324631 0.223529
48.763336 42.351986 2.785741 0.223529
48.805603 42.332825 2.262486 0.223529
48.848072 42.313580 1.736751 0.223529
48.890846 42.294189 1.207382 0.223529
56.412163 38.885117 -0.000027 0.223584
50.030449 41.777660 -0.000020 0.222423
46.476189 43.388645 -0.000015 0.210371
44.207104 44.417118 -0.000012 0.211664
42.630013 45.131943 -0.000010 0.238077
41.468082 45.658592 -0.000008 0.231889
nan nan nan 0.000000
nan nan nan 0.000000
82.295616 26.747242 11.639853 0.223529
81.319260 27.198019 9.699171 0.970138
81.548752 27.092066 8.000108 0.968627
81.548813 27.092037 6.276583 0.968627
81.548691 27.092094 4.562274 0.968627
48.743431 42.238190 2.262205 0.223529
48.785671 42.218689 1.737034 0.223529
48.828201 42.199051 1.208236 0.223529
48.871120 42.179237 0.674627 0.223529
49.979954 41.667290 -0.000020 0.220987
46.437027 43.303051 -0.000015 0.272389
44.175182 44.347340 -0.000011 0.216570
42.603115 45.073158 -0.000010 0.218641
41.444893 45.607906 -0.000008 0.195483
44.749920 43.992306 4.921338 0.223529
nan nan nan 0.000000
81.514275 26.705919 11.514163 0.223529
80.692963 27.092098 9.621597 0.968627
80.692978 27.092091 7.910870 0.968627
80.693039 27.092062 6.212977 0.968627
80.692932 27.092113 4.524165 0.968627
48.714870 42.128010 2.262543 0.223529
48.905449 42.038399 1.734011 0.223529
48.765709 42.104103 1.209048 0.223529
48.808403 42.084030 0.675991 0.223529
48.851578 42.063728 0.136907 0.223529
46.397274 43.217728 -0.000015 0.275021
44.142773 44.277782 -0.000011 0.206027
42.575813 45.014557 -0.000009 0.225032
41.421349 45.557381 -0.000008 0.200677
44.502323 44.020573 4.862270 0.223529
44.673645 43.938553 4.508981 0.223529
44.840855 43.858501 4.147474 0.223529
79.862221 27.092123 9.510262 0.968627
79.862244 27.092113 7.824523 0.968627
79.862289 27.092089 6.151435 0.968627
79.862183 27.092140 4.487292 0.968627
48.652752 42.033566 2.262287 0.223529
79.862213 27.092131 1.171494 0.968627
70.916367 31.374922 -0.000046 0.228323
48.745811 41.989014 0.677288 0.223529
48.788761 41.968452 0.138737 0.223529
46.356922 43.132687 -0.000015 0.230022
44.109879 44.208454 -0.000012 0.233936
42.548100 44.956150 -0.000009 0.267458
41.397453 45.507019 -0.000008 0.223368
44.491207 43.937244 4.868841 0.223529
44.525154 43.920700 4.481780 0.223529
44.595589 43.886372 4.105083 0.223529
44.758884 43.806789 3.743071 0.223529
79.055389 27.092131 7.740942 0.968627
79.055435 27.092108 6.091862 0.968627
79.055328 27.092159 4.451600 0.968627
48.590748 41.939301 2.262044 0.223529
79.055344 27.092152 1.183383 0.968627
70.792725 31.119001 -0.000045 0.227617
56.122334 38.268730 -0.000027 0.224218
48.896889 41.790104 0.118612 0.223529
46.315979 43.047928 -0.000014 0.249590
44.076500 44.139359 -0.000011 0.213471
42.519981 44.897938 -0.000009 0.245987
41.373207 45.456825 -0.000007 0.196177
44.480022 43.853542 4.875578 0.223529
44.514019 43.836678 4.487628 0.223529
44.547752 43.819946 4.102605 0.223529
44.581303 43.803303 3.719660 0.223529
44.675995 43.756332 3.345828 0.223529
44.839535 43.675213 2.974208 0.223529
78.271286 27.092176 4.417035 0.968627
48.528854 41.845211 2.261815 0.223529
78.271294 27.092171 1.194898 0.968627
70.667328 30.863941 -0.000045 0.230621
56.047195 38.115917 -0.000026 0.232380
49.770317 41.229412 -0.000019 0.229855
46.274445 42.963459 -0.000014 0.265148
44.042641 44.070496 -0.000011 0.193125
42.491455 44.839924 -0.000009 0.197063
41.348614 45.406803 -0.000008 0.239932
44.468769 43.769447 4.882483 0.223529
44.502811 43.752262 4.493623 0.223529
44.536594 43.735210 4.107689 0.223529
44.570194 43.718250 3.723833 0.223529
44.603683 43.701347 3.341219 0.223529
44.637131 43.684464 2.959027 0.223529
44.753220 43.625866 2.580981 0.223529
44.918339 43.542522 2.196549 0.223529
77.508995 27.092190 1.206053 0.968627
70.540123 30.609770 -0.000045 0.231650
55.970993 37.963631 -0.000027 0.242804
49.716003 41.120872 -0.000019 0.223488
46.232323 42.879280 -0.000014 0.215888
44.008301 44.001869 -0.000011 0.210084
42.462524 44.782108 -0.000009 0.226779
41.323669 45.356953 -0.000008 0.245940
nan nan nan 0.000000
44.491535 43.667442 4.499764 0.223529
44.525368 43.650066 4.112897 0.223529
44.559017 43.632790 3.728106 0.223529
44.592560 43.615562 3.344557 0.223529
44.626060 43.598358 2.961421 0.223529
44.659592 43.581139 2.577880 0.223529
44.693230 43.563862 2.193108 0.223529
44.830002 43.493626 1.804376 0.223529
44.998161 43.407265 1.403422 0.223529
55.893730 37.811878 -0.000027 0.225810
49.660938 41.012711 -0.000019 0.209079
46.189617 42.795399 -0.000014 0.230537
43.973484 43.933487 -0.000011 0.211257
42.433193 44.724499 -0.000009 0.272448
41.298378 45.307278 -0.000007 0.186256
nan nan nan 0.000000
nan nan nan 0.000000
nan nan nan 0.000000
44.547775 43.546898 3.732486 0.223529
44.581364 43.529350 3.347975 0.223529
44.614922 43.511822 2.963873 0.223529
44.648506 43.494278 2.579359 0.223529
44.682198 43.476677 2.193604 0.223529
44.716072 43.458981 1.805771 0.223529
44.750198 43.441151 1.415005 0.223529
44.909187 43.358097 1.008904 0.223529
45.082020 43.267807 0.587044 0.223529
46.146320 42.711815 -0.000014 0.225343
43.938190 43.865349 -0.000011 0.213614
42.403458 44.667095 -0.000009 0.269085
41.272739 45.257782 -0.000007 0.188973
nan nan nan 0.000000
nan nan nan 0.000000
74.810524 27.375347 10.368468 0.976623
75.099861 27.221615 8.870822 0.223529
75.099869 27.221607 7.328610 0.223529
44.603714 43.424847 2.966385 0.223529
44.637356 43.406975 2.580873 0.223529
44.671108 43.389038 2.194112 0.223529
44.705032 43.371014 1.805260 0.223529
44.739216 43.352852 1.413460 0.223529
44.773731 43.334515 1.017829 0.223529
44.821957 43.308891 0.615716 0.223529
44.993916 43.217525 0.186190 0.223529
43.902424 43.797459 -0.000011 0.215338
42.373325 44.609901 -0.000009 0.202783
41.246758 45.208466 -0.000007 0.224697
nan nan nan 0.000000
nan nan nan 0.000000
74.135056 27.375355 10.260134 0.969345
74.658997 27.092266 8.822239 0.968627
46.649345 42.226055 3.628419 0.223529
74.659058 27.092234 5.771118 0.968627
46.720940 42.187374 2.699396 0.542504
44.659943 43.300941 2.194632 0.223529
44.693935 43.282578 1.804736 0.223529
44.728176 43.264076 1.411878 0.223529
44.762749 43.245396 1.015171 0.223529
44.797741 43.226490 0.613695 0.223529
44.833229 43.207317 0.206485 0.223529
43.866180 43.729820 -0.000011 0.244587
42.342793 44.552914 -0.000009 0.216487
41.220428 45.159332 -0.000007 0.214656
nan nan nan 0.000000
nan nan nan 0.000000
73.476837 27.375360 10.154961 0.968627
73.992119 27.092285 8.735371 0.968627
46.257317 42.328674 3.583168 0.223529
46.727554 42.070343 3.172396 0.223529
46.605755 42.137253 2.695604 0.290196
48.159489 41.283695 2.260712 0.223529
44.709854 43.178787 1.803695 0.223529
44.717068 43.174824 1.410260 0.223529
44.751713 43.155792 1.012451 0.223529
44.786762 43.136536 0.609853 0.223529
44.822311 43.117008 0.201498 0.223529
43.829468 43.662434 -0.000011 0.238759
42.311863 44.496147 -0.000009 0.225427
41.193764 45.110386 -0.000008 0.213052
nan nan nan 0.000000
74.033913 26.705858 11.855132 0.223529
72.835114 27.375370 10.052814 0.980301
73.341965 27.092302 8.651005 0.968627
46.044804 42.337315 3.561300 0.223529
46.654869 41.996601 3.170112 0.223529
46.486847 42.090439 2.691609 0.270344
48.098198 41.190525 2.260573 0.223529
44.698597 43.089146 1.803145 0.223529
44.732735 43.070080 1.407093 0.223529
55.491623 37.061420 -0.000026 0.225008
44.775726 43.046070 0.605921 0.223529
44.811340 43.026180 0.196394 0.223529
43.792282 43.595306 -0.000011 0.233732
42.280537 44.439594 -0.000009 0.237191
41.166756 45.061623 -0.000007 0.286894
nan nan nan 0.000000
73.388611 26.705873 11.733688 0.223529
72.209244 27.375381 9.953581 0.968627
72.707863 27.092323 8.569042 0.968627
45.841667 42.343678 3.540578 0.223529
50.184933 39.878101 3.507556 0.282246
46.374836 42.041008 2.688005 0.269352
48.036964 41.097458 2.260447 0.223529
44.687279 42.999001 1.802583 0.223529
44.721481 42.979584 1.405394 0.223529
55.408073 36.913040 -0.000026 0.231770
49.314785 40.372066 -0.000018 0.233074
45.921162 42.298550 -0.000014 0.228155
43.754635 43.528442 -0.000011 0.219897
42.248817 44.383263 -0.000009 0.199157
41.139404 45.013050 -0.000007 0.208708
nan nan nan 0.000000
nan nan nan 0.000000
71.598564 27.375402 9.857141 0.980392
72.089188 27.092340 8.489390 0.968627
45.641800 42.351059 3.520200 0.223529
49.944447 39.868664 3.490827 0.292958
46.293800 41.974888 2.686164 0.301961
47.975792 41.004471 2.260334 0.223529
44.675896 42.908333 1.802008 0.223529
44.710155 42.888565 1.403656 0.223529
55.323483 36.765247 -0.000026 0.224505
49.254501 40.266724 -0.000019 0.232093
45.874409 42.216854 -0.000014 0.263269
43.716518 43.461842 -0.000011 0.202628
42.216705 44.327152 -0.000009 0.213255
41.111717 44.964672 -0.000007 0.192431
nan nan nan 0.000000
72.144470 26.705889 11.500931 0.223529
71.002487 27.375418 9.763382 0.980392
71.485298 27.092356 8.411957 0.968627
45.448231 42.357605 3.500572 0.223529
49.707947 39.860180 3.474414 0.276341
46.233467 41.897228 2.685520 0.277424
45.537430 42.305309 2.215140 0.980392
44.664444 42.817131 1.801419 0.223529
44.698769 42.797005 1.401878 0.223529
55.237869 36.618042 -0.000026 0.231075
49.193474 40.161808 -0.000018 0.215697
45.827084 42.135490 -0.000014 0.212992
43.677937 43.395508 -0.000011 0.243833
42.184204 44.271267 -0.000009 0.216558
41.083691 44.916489 -0.000007 0.252546
nan nan nan 0.000000
71.544456 26.705858 11.389369 0.223529
70.458359 27.352854 9.680236 0.973312
70.671326 27.225990 8.297924 0.223529
45.259079 42.364288 3.481448 0.223529
49.476265 39.852074 3.458397 0.298344
46.134243 41.842949 2.682680 0.308965
45.341148 42.315403 2.212291 0.980301
44.652924 42.725384 1.800818 0.223529
44.687321 42.704891 1.400059 0.223529
55.151230 36.471447 -0.000026 0.228790
49.131721 40.057323 -0.000018 0.229005
45.779194 42.054455 -0.000014 0.222327
43.638897 43.329449 -0.000011 0.245365
42.151314 44.215614 -0.000009 0.194286
41.055328 44.868500 -0.000007 0.199504
nan nan nan 0.000000
70.864685 26.762501 11.257201 0.223529
70.305267 27.101061 9.679939 0.968627
70.319611 27.092384 8.263397 0.968627
45.075180 42.370502 3.462942 0.223529
49.252728 39.842220 3.443099 0.299306
46.039749 41.786736 2.680121 0.301259
45.149860 42.325302 2.209524 0.976349
44.641335 42.633068 1.800203 0.223529
44.675797 42.612213 1.398201 0.223529
55.063568 36.325455 -0.000025 0.224649
49.069241 39.953266 -0.000018 0.246897
45.730736 41.973755 -0.000013 0.207810
43.599392 43.263657 -0.000010 0.237239
42.118034 44.160191 -0.000009 0.260708
41.026634 44.820713 -0.000007 0.247400
nan nan nan 0.000000
70.385521 26.705835 11.175224 0.223529
69.756729 27.092403 9.595550 0.968627
51.228317 38.483425 4.965824 0.223529
44.896191 42.376328 3.445014 0.223529
49.048107 39.823788 3.429563 0.266209
45.946651 41.730518 2.677655 0.318105
44.963593 42.334892 2.206840 0.980392
44.629677 42.540176 1.799574 0.223529
44.664207 42.518948 1.396301 0.223529
54.974888 36.180080 -0.000025 0.233218
49.006039 39.849648 -0.000018 0.234199
45.681717 41.893398 -0.000013 0.260026
43.559433 43.198151 -0.000010 0.223356
42.084366 44.105000 -0.000008 0.236066
40.997604 44.773125 -0.000006 0.183527
nan nan nan 0.000000
69.825569 26.705839 11.072418 0.223529
69.206497 27.092417 9.510441 0.968627
51.383045 38.222240 5.005740 0.223529
44.721695 42.381905 3.427612 0.223529
48.891987 39.777779 3.420668 0.286458
45.854912 41.674271 2.675279 0.299702
44.782269 42.344082 2.204239 0.961456
44.617943 42.446693 1.798931 0.223529
44.652546 42.425087 1.394359 0.223529
54.885197 36.035324 -0.000025 0.238352
48.942108 39.746479 -0.000017 0.215098
45.632141 41.813381 -0.000013 0.234534
43.519012 43.132919 -0.000010 0.192922
42.050316 44.050045 -0.000008 0.212190
40.968246 44.725739 -0.000007 0.270055
nan nan nan 0.000000
nan nan nan 0.000000
68.668442 27.092434 9.427580 0.968627
51.457054 38.007793 5.031975 0.223529
44.551914 42.386993 3.410769 0.223529
48.793072 39.697277 3.417319 0.299947
45.758251 41.621941 2.672630 0.306813
44.605812 42.352814 2.201719 0.979294
44.606133 42.352608 1.798275 0.223529
44.640816 42.330616 1.392375 0.223529
54.794502 35.891205 -0.000025 0.228024
48.877464 39.643757 -0.000017 0.227042
45.582008 41.733715 -0.000013 0.217923
43.478146 43.067974 -0.000010 0.248082
42.015884 43.995331 -0.000008 0.239130
40.938560 44.678562 -0.000007 0.204746
nan nan nan 0.000000
nan nan nan 0.000000
68.142090 27.092449 9.346878 0.968627
51.518860 37.798256 5.056438 0.223529
44.419006 42.370758 3.398892 0.223529
48.641342 39.651463 3.408859 0.297292
45.668442 41.566086 2.670390 0.308858
44.467278 42.339672 2.199924 0.980392
44.594250 42.257896 1.797604 0.223529
67.876190 27.263697 0.031933 0.973083
54.702789 35.747719 -0.000025 0.229125
48.812099 39.541489 -0.000017 0.223703
45.531311 41.654404 -0.000013 0.217097
43.436817 43.003315 -0.000010 0.244862
41.981068 43.940857 -0.000008 0.258877
40.908539 44.631596 -0.000006 0.239333
nan nan nan 0.000000
nan nan nan 0.000000
67.627037 27.092461 9.268263 0.968627
51.579994 37.586407 5.081152 0.223529
44.302155 42.345741 3.389182 0.223529
48.543655 39.572018 3.405686 0.296437
45.579948 41.510132 2.668239 0.288304
44.347359 42.316177 2.198488 0.980392
44.582283 42.162552 1.796919 0.223529
67.365189 27.263699 0.052992 0.980392
54.610092 35.604874 -0.000025 0.231111
48.746029 39.439674 -0.000017 0.222351
45.480072 41.575443 -0.000013 0.248991
43.395046 42.938942 -0.000010 0.237945
41.945877 43.886627 -0.000008 0.202149
40.878197 44.584835 -0.000007 0.203083
nan nan nan 0.000000
nan nan nan 0.000000
67.122864 27.092470 9.191659 0.968627
67.122856 27.092476 7.862850 0.968627
44.188152 42.320240 3.379845 0.223529
48.401703 39.522606 3.398196 0.290196
45.484577 41.459465 2.665697 0.279316
44.229908 42.292515 2.197095 0.980392
44.570236 42.066551 1.796219 0.223529
66.864975 27.263699 0.073512 0.962768
54.516388 35.462688 -0.000024 0.238962
48.679245 39.338326 -0.000017 0.210072
45.428276 41.496845 -0.000013 0.240781
43.352825 42.874866 -0.000010 0.248501
41.910305 43.832645 -0.000008 0.240949
40.847523 44.538292 -0.000006 0.239441
nan nan nan 0.000000
66.209206 27.375582 10.338380 0.972351
66.506073 27.175472 9.089983 0.223529
66.508362 27.173933 7.780369 0.223529
44.074394 42.295937 3.370523 0.223529
48.244297 39.485146 3.389177 0.307408
45.397949 41.403770 2.663681 0.302296
44.113319 42.269703 2.195718 0.980392
44.558109 41.969883 1.795505 0.223529
66.375175 27.263704 0.093511 0.939422
54.421700 35.321152 -0.000024 0.231865
48.611755 39.237450 -0.000017 0.213327
45.375938 41.418610 -0.000012 0.225439
43.310154 42.811089 -0.000010 0.220328
41.874355 43.778915 -0.000008 0.214297
40.816528 44.491962 -0.000006 0.230848
66.627899 26.762491 11.843672 0.223529
65.731911 27.375587 10.253101 0.958465
66.145622 27.092501 9.044207 0.968627
66.145607 27.092505 7.742642 0.968627
43.962898 42.271454 3.361494 0.223529
48.078316 39.455399 3.379288 0.312093
45.312004 41.348305 2.661719 0.294911
43.999050 42.246716 2.194382 0.980392
44.545898 41.872528 1.794775 0.223529
65.895416 27.263704 0.113008 0.958953
54.326027 35.180283 -0.000024 0.230489
48.543564 39.137047 -0.000017 0.210814
45.323051 41.340740 -0.000013 0.226228
43.267036 42.747608 -0.000010 0.226025
41.838036 43.725433 -0.000008 0.214763
40.785210 44.445847 -0.000006 0.278325
66.228485 26.705877 11.769350 0.223529
65.264267 27.375595 10.169946 0.980392
65.671829 27.092516 8.973228 0.968627
65.671829 27.092518 7.684780 0.968627
43.852669 42.247421 3.352623 0.223529
47.916237 39.424992 3.369761 0.310231
45.218410 41.298820 2.659313 0.314763
43.886169 42.224152 2.193071 0.980392
44.533596 41.774471 1.794030 0.223529
65.425354 27.263710 0.132021 0.974227
54.229378 35.040085 -0.000024 0.234199
48.474674 39.037121 -0.000017 0.214237
45.269627 41.263245 -0.000013 0.200174
43.223484 42.684433 -0.000010 0.225463
41.801342 43.672207 -0.000008 0.263221
40.753571 44.399956 -0.000006 0.231171
65.860603 26.632086 11.704445 0.223529
64.805923 27.375599 10.088839 0.980392
65.207474 27.092525 8.904000 0.968627
65.207458 27.092527 7.628341 0.968627
43.743984 42.223606 3.343950 0.223529
47.755676 39.395493 3.360362 0.302815
45.134266 41.243504 2.657484 0.305318
43.774719 42.201942 2.191785 0.980392
44.521206 41.675690 1.793270 0.223529
64.964645 27.263708 0.150566 0.980392
54.131744 34.900566 -0.000024 0.231434
48.405087 38.937675 -0.000017 0.227425
45.215660 41.186123 -0.000013 0.237454
43.179489 42.621559 -0.000010 0.227784
41.764275 43.619240 -0.000008 0.232260
40.721615 44.354286 -0.000006 0.198140
nan nan nan 0.000000
64.356567 27.375608 10.009709 0.980392
64.752213 27.092535 8.836462 0.968627
51.949745 36.252335 5.238204 0.223529
43.636433 42.200275 3.335416 0.223529
47.597660 39.366127 3.351192 0.294820
45.051365 41.187931 2.655745 0.289219
43.665268 42.179642 2.190536 0.961685
44.508720 41.576176 1.792493 0.223529
64.512962 27.263716 0.168657 0.975799
54.033134 34.761730 -0.000024 0.231303
48.334808 38.838722 -0.000017 0.222267
45.161152 41.109379 -0.000012 0.222542
43.135052 42.558998 -0.000010 0.237622
41.726841 43.566532 -0.000008 0.204220
40.689335 44.308838 -0.000006 0.242852
64.838318 26.705872 11.485429 0.223529
63.915894 27.375626 9.932496 0.978469
64.305756 27.092550 8.770557 0.968627
64.305756 27.092552 7.519556 0.968627
43.530247 42.177227 3.327056 0.223529
47.498421 39.296017 3.347953 0.300053
44.959480 41.139488 2.653474 0.318105
43.557987 42.157082 2.189327 0.975982
44.496147 41.475906 1.791701 0.223529
64.070023 27.263712 0.186310 0.960433
53.933571 34.623585 -0.000024 0.223033
48.263840 38.740261 -0.000016 0.225068
45.106113 41.033020 -0.000012 0.222147
43.090187 42.496746 -0.000010 0.203071
41.689041 43.514088 -0.000008 0.201299
40.656742 44.263618 -0.000006 0.210479
64.392662 26.705851 11.395331 0.223529
63.483612 27.375635 9.857136 0.968627
63.867809 27.092560 8.706236 0.968627
63.867798 27.092567 7.467119 0.968627
43.425705 42.154221 3.318912 0.223529
47.389366 39.233810 3.343747 0.299016
44.908310 41.061844 2.653697 0.307805
43.452118 42.134758 2.188145 0.973495
44.483475 41.374859 1.790892 0.223529
63.635513 27.263716 0.203539 0.968627
53.833031 34.486145 -0.000023 0.222818
48.192184 38.642296 -0.000016 0.225319
45.050545 40.957047 -0.000012 0.251959
43.044884 42.434807 -0.000009 0.227509
41.650875 43.461906 -0.000008 0.232224
40.623833 44.218628 -0.000006 0.236700
63.955360 26.705841 11.307373 0.223529
63.059448 27.375647 9.783571 0.963851
63.438080 27.092575 8.643448 0.968627
63.438080 27.092577 7.415932 0.968627
43.322235 42.131641 3.310901 0.223529
47.328896 39.136169 3.344537 0.301961
44.881622 40.965809 2.655456 0.307454
43.347355 42.112862 2.186982 0.964309
44.470703 41.273022 1.790066 0.223529
53.347542 34.636490 0.825256 0.223529
53.731544 34.349403 -0.000023 0.220939
48.119850 38.544834 -0.000016 0.217839
44.994446 40.881462 -0.000012 0.220915
42.999149 42.373188 -0.000010 0.225666
41.612347 43.409996 -0.000007 0.255310
40.590614 44.173866 -0.000006 0.261785
63.526134 26.705845 11.221487 0.223529
62.643127 27.375660 9.711742 0.975525
63.016296 27.092590 8.582140 0.968627
62.920837 27.165001 7.348180 0.223529
43.220364 42.109066 3.303102 0.223529
47.220863 39.074432 3.340506 0.304265
44.821190 40.894741 2.655185 0.295415
43.244160 42.091019 2.185848 0.967666
44.457832 41.170368 1.789224 0.223529
53.169586 34.561947 0.830037 0.223529
53.629097 34.213375 -0.000023 0.219586
48.046829 38.447884 -0.000016 0.249362
44.937820 40.806271 -0.000012 0.228000
42.952984 42.311890 -0.000009 0.220699
41.573456 43.358353 -0.000007 0.228766
40.557079 44.129337 -0.000006 0.214823
63.104744 26.705847 11.137614 0.223529
62.324043 27.306692 9.666025 0.979889
62.434578 27.221619 8.483779 0.223529
62.434578 27.221621 7.285766 0.223529
43.119408 42.086983 3.295416 0.223529
43.243336 41.991600 2.936131 0.223529
43.243645 41.991364 2.560894 0.223529
43.141922 42.069653 2.184731 0.968627
44.444855 41.066887 1.788365 0.223529
62.379879 27.263720 0.252818 0.979110
52.589638 34.798492 0.096830 0.364019
47.973141 38.351444 -0.000016 0.217516
44.880669 40.731476 -0.000012 0.244180
42.906395 42.250916 -0.000009 0.221501
41.534206 43.306984 -0.000007 0.247854
40.523235 44.085049 -0.000006 0.200545
62.670532 26.721769 11.049210 0.223529
62.195587 27.092606 9.672426 0.968627
62.195580 27.092607 8.463793 0.968627
62.102879 27.164993 7.252024 0.223529
43.019581 42.065186 3.287876 0.223529
43.171677 41.946434 2.933756 0.223529
43.171974 41.946198 2.559472 0.223529
43.040916 42.048531 2.183636 0.968627
44.431778 40.962547 1.787488 0.223529
61.976433 27.263718 0.268482 0.971344
52.310909 34.810539 0.115498 0.379675
47.898781 38.255516 -0.000016 0.246933
44.822998 40.657082 -0.000012 0.249805
42.859383 42.190269 -0.000009 0.239154
41.494598 43.255890 -0.000007 0.220436
40.489086 44.040993 -0.000006 0.211041
62.267944 26.718916 10.970384 0.223529
61.796158 27.092619 9.604612 0.968627
61.796146 27.092625 8.406659 0.968627
61.723640 27.150059 7.209174 0.223529
42.920963 42.043598 3.280493 0.223529
43.225296 41.802536 2.944505 0.223529
43.226669 41.801453 2.565979 0.223529
42.941154 42.027603 2.182565 0.968627
44.418587 40.857338 1.786593 0.223529
61.580139 27.263723 0.283785 0.973449
52.037628 34.822315 0.133710 0.319341
47.823753 38.160110 -0.000016 0.223057
44.764816 40.583092 -0.000012 0.212334
42.811947 42.129951 -0.000009 0.252342
41.454632 43.205074 -0.000007 0.305683
40.454628 43.997177 -0.000006 0.254796
nan nan nan 0.000000
61.403702 27.092628 9.538352 0.968627
61.403694 27.092630 8.350838 0.968627
61.403694 27.092632 7.177388 0.968627
42.823563 42.022179 3.273271 0.223529
46.856247 38.781826 3.331706 0.293446
44.680607 40.530003 2.660769 0.296468
42.842659 42.006832 2.181517 0.968627
44.405285 40.751228 1.785681 0.223529
61.190765 27.263725 0.298739 0.956725
51.769611 34.833832 0.151477 0.311177
47.748062 38.065235 -0.000016 0.219227
44.706108 40.509510 -0.000012 0.214249
42.764091 42.069965 -0.000009 0.211568
41.414314 43.154537 -0.000007 0.245293
40.419865 43.953602 -0.000006 0.247424
nan nan nan 0.000000
61.018028 27.092634 9.473601 0.968627
61.018017 27.092642 8.296286 0.968627
48.276794 37.477699 4.694657 0.223529
42.727379 42.000893 3.266210 0.223529
46.795792 38.684830 3.332856 0.315724
44.603378 40.471813 2.659618 0.282704
42.746559 41.985260 2.180516 0.968627
44.391872 40.644203 1.784749 0.223529
60.808125 27.263721 0.313351 0.980392
51.506660 34.845116 0.168819 0.290196
47.671707 37.970894 -0.000016 0.235061
44.646889 40.436344 -0.000011 0.215757
42.715813 42.010319 -0.000009 0.187309
41.373646 43.104286 -0.000007 0.192096
40.384796 43.910271 -0.000005 0.205728
nan nan nan 0.000000
60.638878 27.092649 9.410305 0.968627
60.638870 27.092657 8.242960 0.968627
48.095284 37.463211 4.675210 0.223529
42.652336 41.963230 3.262287 0.223529
46.700207 38.616608 3.330347 0.297169
44.532696 40.408623 2.658904 0.293751
42.670464 41.948246 2.179938 0.961044
52.985596 33.420086 1.601047 0.223529
60.431961 27.263721 0.327635 0.980392
51.248436 34.856308 0.185767 0.298878
47.594696 37.877079 -0.000016 0.255262
44.587166 40.363586 -0.000011 0.280108
42.667126 41.951004 -0.000009 0.218533
41.332626 43.054317 -0.000007 0.231494
40.349430 43.867188 -0.000005 0.214452
nan nan nan 0.000000
60.266098 27.092657 9.348431 0.968627
60.266090 27.092665 8.190833 0.968627
48.131596 37.268448 4.697836 0.223529
42.577095 41.926357 3.258349 0.223529
59.928516 27.375750 4.753665 0.966552
44.455704 40.350986 2.657809 0.311574
42.594143 41.912060 2.179357 0.968215
52.817078 33.339283 1.602320 0.223529
60.062103 27.263723 0.341598 0.980392
50.996223 34.866219 0.202180 0.283314
47.517029 37.783810 -0.000015 0.228514
44.526936 40.291252 -0.000011 0.225570
42.618023 41.892036 -0.000009 0.249303
41.291260 43.004639 -0.000007 0.229567
40.313763 43.824348 -0.000005 0.233912
59.566628 27.375759 10.342897 0.980392
59.899460 27.092670 9.287931 0.968627
59.899456 27.092672 8.139866 0.968627
48.327442 36.935181 4.751928 0.223529
42.502785 41.889313 3.254568 0.223529
59.566628 27.375759 4.730994 0.980392
44.386387 40.287224 2.657229 0.298726
42.518574 41.875885 2.178794 0.968627
52.829243 33.106201 1.599707 0.223529
59.698349 27.263721 0.355251 0.971481
50.752594 34.872486 0.217773 0.318868
47.438717 37.691082 -0.000015 0.239716
44.466202 40.219337 -0.000011 0.241679
42.568508 41.833408 -0.000008 0.207008
41.249550 42.955246 -0.000007 0.205380
40.277794 43.781765 -0.000005 0.213662
59.210632 27.375767 10.275172 0.980392
59.538795 27.092678 9.228769 0.968627
59.538788 27.092686 8.090022 0.968627
59.538788 27.092686 6.964764 0.968627
42.428810 41.852577 3.250854 0.223529
59.210632 27.375771 4.708825 0.976074
44.318283 40.222626 2.656752 0.283192
42.443569 41.839848 2.178246 0.968627
52.787712 32.916489 1.598203 0.223529
52.869408 32.846016 0.788449 0.223529
50.511719 34.879871 0.233167 0.312993
47.359764 37.598900 -0.000015 0.220604
44.404968 40.147850 -0.000011 0.211281
42.518589 41.775131 -0.000009 0.186735
41.207489 42.906147 -0.000007 0.186004
40.241531 43.739429 -0.000005 0.202006
58.860363 27.375776 10.208938 0.980392
59.183929 27.092691 9.170910 0.968627
59.183922 27.092695 8.041277 0.968627
59.183922 27.092697 6.925025 0.968627
42.355198 41.816124 3.247211 0.223529
58.860352 27.375786 4.687142 0.968627
44.241554 40.165756 2.655739 0.294881
42.369385 41.803711 2.177717 0.968627
52.738152 32.732094 1.596837 0.223529
52.814804 32.665028 0.784643 0.223529
50.274956 34.887138 0.248213 0.301961
47.280159 37.507282 -0.000015 0.227928
44.343235 40.076794 -0.000011 0.239106
42.468262 41.717205 -0.000008 0.253587
41.165092 42.857346 -0.000006 0.218162
40.204975 43.697350 -0.000005 0.230286
58.515636 27.375780 10.144147 0.980392
58.834679 27.092697 9.114311 0.968627
58.834671 27.092701 7.993595 0.968627
58.834671 27.092705 6.886153 0.968627
42.281960 41.779919 3.243643 0.223529
58.515621 27.375795 4.665933 0.980301
44.174850 40.100361 2.655404 0.305882
42.295776 41.767662 2.177204 0.968627
52.660744 32.570827 1.596043 0.223529
58.641930 27.263721 0.394431 0.968627
50.042171 34.894287 0.262922 0.283131
47.199921 37.416214 -0.000015 0.211819
44.281002 40.006168 -0.000010 0.236078
42.417534 41.659626 -0.000009 0.257584
41.122353 42.808838 -0.000006 0.216642
40.168121 43.655525 -0.000005 0.220412
58.176292 27.375790 10.080761 0.958450
58.347618 27.221622 9.017315 0.223529
58.347618 27.221626 7.911879 0.223529
48.753632 35.854824 4.905045 0.223529
42.209000 41.744049 3.240134 0.223529
45.187412 39.063904 3.212441 0.223529
44.098396 40.043865 2.654452 0.301060
42.222569 41.731834 2.176701 0.957534
52.583084 32.408871 1.595224 0.223529
58.300835 27.263721 0.406926 0.959167
49.836296 34.880585 0.274761 0.830701
47.119049 37.325710 -0.000015 0.258470
44.218285 39.935978 -0.000011 0.229496
42.366405 41.602406 -0.000008 0.188219
41.079277 42.760632 -0.000006 0.226851
40.130981 43.613960 -0.000005 0.214189
57.842171 27.375801 10.018741 0.967666
58.136124 27.107546 9.000011 0.223529
58.138046 27.105787 7.897777 0.223529
48.685741 35.731682 4.909849 0.223529
42.136734 41.708111 3.236749 0.223529
45.132774 38.974014 3.214071 0.223529
44.053375 39.959038 2.655612 0.296193
42.149971 41.696026 2.176214 0.962264
52.504570 32.246735 1.594395 0.223529
49.875614 34.645840 0.957162 0.223529
49.818871 34.697624 0.265746 0.951904
47.037548 37.235775 -0.000015 0.224517
44.155075 39.866230 -0.000011 0.230345
42.314873 41.545544 -0.000008 0.226552
41.035866 42.712727 -0.000006 0.200486
40.093552 43.572655 -0.000005 0.231075
57.513130 27.375807 9.958053 0.980392
57.819008 27.092728 8.951746 0.968627
51.507622 32.933586 6.291932 0.223529
57.819004 27.092731 6.774504 0.968627
42.064793 41.672428 3.233433 0.223529
57.513107 27.375824 4.605016 0.980392
44.024757 39.858582 2.657916 0.311025
42.077705 41.660477 2.175737 0.958923
57.818993 27.092743 1.473293 0.968627
57.634247 27.263718 0.431117 0.958511
49.802135 34.511925 0.256454 0.978088
46.955421 37.146408 -0.000015 0.247567
44.091385 39.796925 -0.000010 0.225391
42.262951 41.489040 -0.000008 0.249518
40.992123 42.665127 -0.000006 0.228598
40.055832 43.531612 -0.000005 0.237047
57.189007 27.375813 9.898658 0.968627
57.490631 27.092737 8.899862 0.968627
51.444771 32.766739 6.304263 0.223529
57.490631 27.092743 6.738868 0.968627
41.993195 41.636971 3.230189 0.223529
57.188984 27.375834 4.585572 0.978653
44.018028 39.736675 2.661757 0.315221
42.005779 41.625156 2.175270 0.949157
57.490623 27.092751 1.477225 0.968627
57.308449 27.263720 0.442826 0.974746
49.784035 34.325325 0.247108 0.978363
46.872669 37.057617 -0.000014 0.226049
44.027210 39.728058 -0.000010 0.208049
42.210632 41.432907 -0.000008 0.220328
40.948044 42.617836 -0.000006 0.202640
40.017830 43.490833 -0.000005 0.251947
56.869675 27.375828 9.840521 0.973220
57.167122 27.092747 8.849079 0.968627
51.360249 32.619202 6.311526 0.223529
57.167114 27.092752 6.703989 0.968627
41.922073 41.601597 3.227037 0.223529
56.915756 27.331968 4.571761 0.977218
43.987789 39.635639 2.664087 0.305776
41.934223 41.590034 2.174814 0.943008
57.167099 27.092764 1.481072 0.968627
56.987473 27.263718 0.454286 0.964721
49.738255 34.162865 0.240686 0.964034
46.789303 36.969410 -0.000014 0.264442
43.962555 39.659653 -0.000010 0.243343
42.157928 41.377136 -0.000008 0.252929
40.903641 42.570850 -0.000006 0.214500
39.979546 43.450321 -0.000005 0.268667
56.554989 27.375839 9.783610 0.980392
56.848312 27.092752 8.799365 0.968627
51.275490 32.471100 6.319037 0.223529
51.314949 32.433022 5.529139 0.223529
41.851345 41.566376 3.223967 0.223529
56.761829 27.176214 4.571486 0.975799
43.980804 39.511223 2.668069 0.315221
41.863052 41.555077 2.174369 0.931624
56.848289 27.092772 1.484839 0.968627
56.671162 27.263720 0.465505 0.958785
49.691254 34.000050 0.234231 0.980392
46.705322 36.881783 -0.000014 0.197482
43.897427 39.591694 -0.000010 0.210215
42.104828 41.321735 -0.000008 0.251409
40.858910 42.524178 -0.000006 0.263628
39.940971 43.410080 -0.000005 0.208672
56.244831 27.375843 9.727894 0.968627
56.534081 27.092764 8.750692 0.968627
51.189957 32.322945 6.326664 0.223529
51.254547 32.259735 5.540629 0.223529
41.780926 41.531364 3.220964 0.223529
52.393044 31.145510 4.087764 0.223529
43.952553 39.406036 2.670675 0.334417
41.792229 41.520302 2.173934 0.940856
52.531044 31.010450 1.580182 0.223529
52.363899 31.174030 0.751136 0.576516
49.643948 33.835987 0.227637 0.979843
46.620735 36.794743 -0.000014 0.233517
43.831825 39.524193 -0.000010 0.239848
42.051350 41.266705 -0.000008 0.243366
40.813854 42.477814 -0.000006 0.244515
39.902122 43.370106 -0.000005 0.174838
55.939060 27.375854 9.673342 0.972946
56.224304 27.092770 8.703041 0.968627
51.163963 32.114861 6.349873 0.223529
52.042160 31.243299 5.729676 0.223529
41.710842 41.496525 3.218035 0.223529
52.295841 30.991537 4.090949 0.223529
43.949070 39.275215 2.675064 0.283436
41.721741 41.485710 2.173510 0.947234
52.294617 30.992754 1.582735 0.223529
52.079121 31.206617 0.762224 0.306447
49.596558 33.670414 0.220875 0.967941
46.535534 36.708302 -0.000014 0.245963
43.765747 39.457153 -0.000010 0.226899
41.997482 41.212051 -0.000008 0.200103
40.768471 42.431770 -0.000006 0.243654
39.862999 43.330402 -0.000005 0.208384
3.828121 79.516655 12.791944 0.086275
3.857170 79.487419 11.296319 0.127901
3.828110 79.516670 9.839376 0.352453
4.007189 79.336441 8.353202 0.680812
3.828108 79.516663 6.956400 0.381430
3.828114 79.516663 5.532676 0.388235
4.007189 79.336441 4.104093 0.474006
3.926071 79.418076 2.702747 0.330144
3.926071 79.418076 1.297253 0.316365
5.500135 77.833954 -0.000037 0.229687
17.003151 66.257370 -0.000020 0.234750
21.941902 61.287029 0.000010 0.338354
24.692366 58.518974 0.000007 0.338720
26.448303 56.751808 0.000005 0.346563
27.668730 55.523575 -0.000003 0.202053
28.567909 54.618645 -0.000002 0.213902
4.007160 79.763695 12.804493 0.578988
4.007162 79.763695 11.316041 0.483330
4.007158 79.763702 9.848490 0.559503
4.007168 79.763695 8.398317 0.482353
4.007158 79.763702 6.962162 0.543618
4.007164 79.763695 5.536782 0.397086
4.007164 79.763695 4.119035 0.719860
3.912197 79.860611 2.708061 0.678431
3.912197 79.860611 1.291939 0.678431
5.702452 78.033569 -0.000037 0.230226
17.124367 66.376968 -0.000020 0.219036
22.028297 61.372276 0.000010 0.338262
24.759367 58.585091 0.000007 0.337774
26.502928 56.805702 0.000005 0.332418
27.714746 55.568985 -0.000004 0.207427
28.607586 54.657799 -0.000002 0.271443
0.723156 83.595680 14.066101 0.544549
0.723152 83.595688 12.403848 0.615930
0.723164 83.595673 10.764931 0.523156
0.723160 83.595673 9.145428 0.517647
0.723160 83.595673 7.541578 0.393683
0.723156 83.595673 5.949762 0.541726
0.723152 83.595680 4.366468 0.836088
0.628120 83.694038 2.790497 0.580362
0.628120 83.694038 1.209502 0.580362
5.906141 78.231796 -0.000038 0.228885
17.246407 66.495728 -0.000020 0.238256
22.115286 61.456913 0.000010 0.333425
24.826828 58.650730 0.000007 0.340414
26.557926 56.859215 0.000006 0.335592
27.761078 55.614067 -0.000004 0.214739
28.647537 54.696671 -0.000002 0.224050
0.533146 84.282578 14.223203 0.678431
0.723164 84.083160 12.479815 0.450248
0.533146 84.282578 10.879053 0.678431
0.533146 84.282578 9.238464 0.678431
0.723160 84.083160 7.582043 0.554223
0.533146 84.282578 6.001188 0.678431
0.723160 84.083168 4.383748 0.661845
0.653160 84.156631 2.795676 0.094118
0.653160 84.156631 1.204324 0.094118
6.111216 78.428581 -0.000038 0.229771
17.369278 66.613632 -0.000021 0.213997
22.202858 61.540947 0.000011 0.337667
24.894749 58.715900 0.000007 0.337026
26.613293 56.912346 0.000005 0.336065
27.807724 55.658829 -0.000004 0.268343
28.687757 54.735264 -0.000002 0.251289
0.723156 84.577850 14.244213 0.678859
0.723156 84.577858 12.557425 0.420081
0.723164 84.577850 10.894316 0.787411
0.723156 84.577850 9.250906 0.605310
0.723152 84.577858 7.623381 0.427543
0.723156 84.577858 6.008066 0.635645
0.723152 84.577866 4.401402 0.553948
0.628117 84.679001 2.802167 0.647059
0.628113 84.679008 1.197834 0.647059
6.317667 78.623932 -0.000038 0.232260
17.492970 66.730667 -0.000021 0.225941
22.291016 61.624367 0.000010 0.333623
24.963120 58.780594 0.000007 0.334737
26.706646 56.925053 0.010000 1.000000
27.854683 55.703262 -0.000004 0.214105
28.728245 54.773579 -0.000003 0.216774
0.723160 85.079941 14.336169 0.678431
0.723152 85.079956 12.636712 0.301823
0.723164 85.079941 10.961112 0.432532
0.723156 85.079948 9.305363 0.778805
0.723148 85.079956 7.665613 0.825422
0.723152 85.079956 6.038167 0.507454
0.723156 85.079948 4.419436 0.536171
0.628159 85.182480 2.808190 0.678431
0.628159 85.182480 1.191810 0.647059
6.525469 78.817833 -0.000038 0.227641
17.617472 66.846840 -0.000021 0.247124
22.379753 61.707172 0.000010 0.338994
25.031940 58.844810 0.000007 0.339651
26.762459 56.977158 0.009997 1.000000
27.901951 55.747368 -0.000004 0.230657
28.769001 54.811604 -0.000003 0.204507
0.723152 85.589676 14.430132 0.869795
0.723156 85.589676 12.717728 0.454337
0.723152 85.589676 11.029367 0.586984
0.723152 85.589676 9.361005 0.482872
0.723152 85.589676 7.708766 0.447150
0.723148 85.589676 6.068924 0.573953
0.723148 85.589676 4.437863 0.459556
0.628136 85.693672 2.814345 0.678172
0.628136 85.693672 1.185654 0.678035
6.734615 79.010292 -0.000040 0.230501
17.742779 66.962151 -0.000021 0.232919
22.469070 61.789349 0.000010 0.339147
25.101208 58.908546 0.000008 0.334676
26.818632 57.028870 0.009993 1.000000
27.949524 55.791142 -0.000004 0.277882
28.810020 54.849350 -0.000003 0.237765
0.533157 86.318130 14.597245 0.678431
0.533157 86.318123 12.861821 0.678431
0.533154 86.318130 11.150764 0.678431
0.533154 86.318130 9.459970 0.678431
0.723141 86.107254 7.752864 0.762860
0.533150 86.318130 6.123630 0.678431
0.533154 86.318130 4.470639 0.418662
0.628162 86.212677 2.820636 0.630518
0.628162 86.212677 1.179364 0.615625
6.945107 79.201271 -0.000040 0.226157
17.868895 67.076569 -0.000021 0.237586
22.558958 61.870903 0.000010 0.338003
25.170919 58.971794 0.000007 0.334295
26.838436 57.120956 0.000005 0.335225
27.997402 55.834579 -0.000004 0.190205
28.851303 54.886803 -0.000003 0.181648
0.723137 86.632912 14.624281 0.756725
0.723137 86.632919 12.885133 0.615335
0.723141 86.632912 11.170401 0.630976
0.723145 86.632904 9.475977 0.430610
0.723137 86.632919 7.797934 0.692775
0.723137 86.632912 6.132477 0.773861
0.723141 86.632912 4.475942 0.511406
0.628162 86.739822 2.827065 0.678431
0.628162 86.739822 1.172936 0.678431
7.156921 79.390793 -0.000040 0.230226
17.995808 67.190109 -0.000021 0.227042
22.649414 61.951828 0.000010 0.339193
25.241070 59.034557 0.000007 0.335866
26.895626 57.172123 0.000005 0.337957
28.045582 55.877686 -0.000004 0.194944
28.892847 54.923969 -0.000003 0.246634
0.723145 87.166885 14.724585 0.449760
0.723156 87.166870 12.971613 0.617807
0.723148 87.166885 11.243259 0.547387
0.723152 87.166885 9.535377 0.857877
0.723141 87.166893 7.844000 0.502159
0.723148 87.166885 6.165311 0.393515
0.723148 87.166885 4.495613 0.580346
0.628159 87.275330 2.833635 0.678431
0.628159 87.275330 1.166364 0.678431
7.370066 79.578812 -0.000040 0.233014
18.123501 67.302773 -0.000022 0.227030
22.740429 62.032120 0.000010 0.337575
25.311657 59.096825 0.000007 0.340658
26.953175 57.222881 0.000006 0.341894
28.094063 55.920452 -0.000004 0.231040
28.934647 54.960846 -0.000003 0.209617
0.723148 87.709442 14.827124 0.918715
0.723156 87.709427 13.060027 0.603891
0.723156 87.709427 11.317744 0.594598
0.723156 87.709427 9.596098 0.579767
0.723148 87.709435 7.891091 0.437781
0.723152 87.709435 6.198877 0.764370
0.723152 87.709427 4.515724 0.466682
0.628128 87.819458 2.840354 0.656107
0.628128 87.819458 1.159645 0.650050
7.584509 79.765343 -0.000041 0.232069
18.251982 67.414528 -0.000022 0.224972
22.832005 62.111774 0.000010 0.339391
25.382679 59.158600 0.000007 0.338094
27.011070 57.273247 0.000006 0.329747
28.142839 55.962879 -0.000004 0.227976
28.976706 54.997429 -0.000003 0.273513
0.573162 88.436966 14.989914 0.094118
0.573158 88.436974 13.200397 0.146685
0.723133 88.260864 11.393911 0.804883
0.573166 88.436966 9.692501 0.179461
0.723133 88.260864 7.939247 0.581598
0.573170 88.436966 6.252165 0.062745
0.573162 88.436974 4.547651 0.094118
0.628117 88.372437 2.847223 0.678431
0.628117 88.372437 1.152776 0.678431
7.800253 79.950378 -0.000040 0.228598
18.381241 67.525391 -0.000022 0.238807
22.924137 62.190781 0.000011 0.338842
25.454128 59.219879 0.000008 0.337881
27.069277 57.323250 -0.000006 0.197254
28.191912 56.004967 -0.000005 0.188254
29.019016 55.033718 -0.000003 0.215769
0.723122 88.821388 15.039189 0.619623
0.723122 88.821396 13.242880 0.731167
0.723118 88.821396 11.471795 0.634012
0.723125 88.821381 9.721682 0.799466
0.723125 88.821381 7.988485 0.657084
0.723125 88.821388 6.268295 0.570947
0.723125 88.821381 4.557316 0.439414
0.628132 88.934525 2.854247 0.678431
0.628132 88.934525 1.145753 0.678431
8.017282 80.133896 -0.000040 0.224732
18.511272 67.635345 -0.000022 0.215529
23.016813 62.269150 0.000010 0.337301
25.526005 59.280655 0.000008 0.326787
27.127869 57.372803 -0.000007 0.208540
28.241276 56.046711 -0.000005 0.196716
29.061583 55.069710 -0.000003 0.216199
0.723133 89.391296 15.148837 0.486778
0.723133 89.391296 13.337423 0.631388
0.723133 89.391296 11.551443 0.619928
0.723133 89.391296 9.786613 0.562417
0.723133 89.391296 8.038845 0.618891
0.723137 89.391289 6.304188 0.475715
0.723133 89.391296 4.578820 0.746136
0.658291 89.469620 2.860657 0.222278
0.658295 89.469620 1.139344 0.088609
8.235575 80.315918 -0.000042 0.227916
18.642067 67.744385 -0.000023 0.215062
23.110039 62.346870 0.000011 0.336065
25.598303 59.340927 0.000007 0.336172
27.186810 57.421936 -0.000007 0.238879
28.290932 56.088108 -0.000005 0.252342
