# This PCD file was generated using the MATLABÂ® pcwrite function
# from Computer Vision ToolboxÂ®.
# .PCD v.7 - Point Cloud Data file format
VERSION .7
FIELDS x y z intensity
SIZE 4 4 4 4
TYPE F F F F
COUNT 1 1 1 1
WIDTH 1258
HEIGHT 1
VIEWPOINT 0 0 0 1 0 0 0
POINTS 1258
DATA ascii
nan nan nan 0.000000
nan nan nan 0.000000
-53.362194 72.580368 -0.000029 0.231770
-39.011559 64.809143 -0.000016 0.228814
-32.850361 61.472698 -0.000010 0.234666
-29.418907 59.614479 -0.000007 0.211041
-27.228226 58.428173 -0.000005 0.248237
-25.705622 57.603645 -0.000004 0.272676
-24.583838 56.996170 -0.000002 0.228478
nan nan nan 0.000000
nan nan nan 0.000000
nan nan nan 0.000000
nan nan nan 0.000000
nan nan nan 0.000000
nan nan nan 0.000000
nan nan nan 0.000000
nan nan nan 0.000000
nan nan nan 0.000000
-53.225975 72.829819 -0.000029 0.229017
-38.929947 64.958595 -0.000016 0.242170
-32.792191 61.579220 -0.000010 0.216606
-29.373795 59.697094 -0.000007 0.225666
-27.191448 58.495522 -0.000005 0.236114
-25.674641 57.660385 -0.000004 0.241164
-24.557123 57.045094 -0.000002 0.201790
nan nan nan 0.000000
nan nan nan 0.000000
nan nan nan 0.000000
nan nan nan 0.000000
nan nan nan 0.000000
nan nan nan 0.000000
nan nan nan 0.000000
nan nan nan 0.000000
nan nan nan 0.000000
-53.088036 73.078323 -0.000030 0.225786
-38.847305 65.107483 -0.000017 0.232117
-32.733280 61.685337 -0.000010 0.239441
-29.328112 59.779396 -0.000008 0.238472
-27.154205 58.562614 -0.000005 0.233397
-25.643263 57.716908 -0.000004 0.204938
-24.530069 57.093830 -0.000003 0.209785
nan nan nan 0.000000
nan nan nan 0.000000
nan nan nan 0.000000
nan nan nan 0.000000
nan nan nan 0.000000
nan nan nan 0.000000
nan nan nan 0.000000
nan nan nan 0.000000
nan nan nan 0.000000
-52.948353 73.325851 -0.000030 0.230238
-38.763611 65.255791 -0.000016 0.231219
-32.673630 61.791042 -0.000010 0.215804
-29.281851 59.861370 -0.000007 0.198044
-27.116491 58.629444 -0.000005 0.232679
-25.611490 57.773209 -0.000004 0.198355
-24.502674 57.142376 -0.000003 0.189451
nan nan nan 0.000000
nan nan nan 0.000000
nan nan nan 0.000000
nan nan nan 0.000000
nan nan nan 0.000000
nan nan nan 0.000000
nan nan nan 0.000000
nan nan nan 0.000000
nan nan nan 0.000000
-52.806953 73.572395 -0.000030 0.232966
-38.678886 65.403503 -0.000016 0.230345
-32.613251 61.896328 -0.000011 0.232129
-29.235018 59.943024 -0.000007 0.208456
-27.078316 58.696007 -0.000005 0.266536
-25.579327 57.829288 -0.000004 0.247412
-24.474895 57.190701 0.000010 0.340536
nan nan nan 0.000000
nan nan nan 0.000000
nan nan nan 0.000000
nan nan nan 0.000000
nan nan nan 0.000000
nan nan nan 0.000000
nan nan nan 0.000000
nan nan nan 0.000000
nan nan nan 0.000000
-52.663830 73.817947 -0.000030 0.226348
-38.593140 65.550621 -0.000016 0.233577
-32.552128 62.001183 -0.000011 0.240757
-29.187618 60.024345 -0.000007 0.245808
-27.039675 58.762306 -0.000006 0.197805
-25.546772 57.885139 -0.000004 0.248441
-24.446825 57.238861 0.000011 0.318700
nan nan nan 0.000000
nan nan nan 0.000000
nan nan nan 0.000000
nan nan nan 0.000000
nan nan nan 0.000000
nan nan nan 0.000000
nan nan nan 0.000000
nan nan nan 0.000000
nan nan nan 0.000000
-52.518990 74.062492 -0.000030 0.225068
-38.506363 65.697144 -0.000017 0.232691
-32.490280 62.105614 -0.000011 0.214895
-29.139652 60.105335 -0.000008 0.192647
-27.000568 58.828331 -0.000005 0.196979
-25.513828 57.940765 -0.000004 0.220113
-24.384193 57.266388 0.009995 1.000000
nan nan nan 0.000000
nan nan nan 0.000000
nan nan nan 0.000000
nan nan nan 0.000000
nan nan nan 0.000000
nan nan nan 0.000000
nan nan nan 0.000000
nan nan nan 0.000000
nan nan nan 0.000000
-52.372463 74.306030 -0.000031 0.229304
-38.418568 65.843048 -0.000017 0.226444
-32.427704 62.209614 -0.000011 0.258649
-29.091122 60.185989 -0.000008 0.243115
-26.961006 58.894081 -0.000006 0.218737
-25.480497 57.996159 -0.000004 0.232033
-24.355576 57.313896 0.010002 1.000000
nan nan nan 0.000000
nan nan nan 0.000000
nan nan nan 0.000000
nan nan nan 0.000000
nan nan nan 0.000000
nan nan nan 0.000000
nan nan nan 0.000000
nan nan nan 0.000000
nan nan nan 0.000000
-52.224220 74.548531 -0.000031 0.232021
-38.329758 65.988342 -0.000017 0.226360
-32.364399 62.313168 -0.000011 0.230764
-29.042027 60.266300 -0.000007 0.210431
-26.920982 58.959553 -0.000005 0.232200
-25.446779 58.051319 -0.000005 0.196081
-24.326656 57.361225 0.010000 1.000000
nan nan nan 0.000000
nan nan nan 0.000000
nan nan nan 0.000000
nan nan nan 0.000000
nan nan nan 0.000000
nan nan nan 0.000000
nan nan nan 0.000000
nan nan nan 0.000000
nan nan nan 0.000000
-52.074310 74.790001 -0.000031 0.227234
-38.239937 66.133011 -0.000017 0.224218
-32.300377 62.416283 -0.000011 0.221800
-28.992374 60.346268 -0.000008 0.250978
-26.880503 59.024746 -0.000005 0.232404
-25.412676 58.106239 -0.000004 0.338338
-24.297419 57.408356 0.009994 1.000000
nan nan nan 0.000000
nan nan nan 0.000000
nan nan nan 0.000000
nan nan nan 0.000000
nan nan nan 0.000000
nan nan nan 0.000000
nan nan nan 0.000000
nan nan nan 0.000000
nan nan nan 0.000000
-51.922691 75.030396 -0.000031 0.225786
-38.149101 66.277054 -0.000017 0.221346
-32.235638 62.518944 -0.000011 0.232165
-28.942167 60.425888 -0.000008 0.220257
-26.839573 59.089653 -0.000006 0.251816
-25.378193 58.160923 -0.000004 0.336553
-24.301474 57.476646 0.000010 0.337438
nan nan nan 0.000000
nan nan nan 0.000000
nan nan nan 0.000000
nan nan nan 0.000000
nan nan nan 0.000000
nan nan nan 0.000000
nan nan nan 0.000000
nan nan nan 0.000000
nan nan nan 0.000000
-51.769428 75.269760 -0.000032 0.233182
-38.057266 66.420448 -0.000017 0.228275
-32.170181 62.621155 -0.000012 0.234726
-28.891403 60.505154 -0.000008 0.231518
-26.798189 59.154274 -0.000006 0.216391
-25.304403 58.190243 0.010001 1.000000
-24.271412 57.523590 0.000009 0.334600
-60.633095 81.417885 14.898590 0.758129
-60.633106 81.417892 13.121655 0.609003
-60.633106 81.417892 11.369663 0.699718
-60.633095 81.417885 9.638420 0.745480
-60.633102 81.417892 7.923915 0.634714
-60.633106 81.417892 6.222272 0.554314
-60.633102 81.417892 4.529741 0.614832
-60.778034 81.512863 2.845481 0.678431
-60.778034 81.512863 1.154520 0.678431
-51.614471 75.508018 -0.000032 0.232619
-37.964424 66.563202 -0.000018 0.225558
-32.104015 62.722900 -0.000012 0.257106
-28.840088 60.584064 -0.000008 0.223452
-26.756355 59.218605 -0.000006 0.215218
-25.269356 58.244179 0.009996 1.000000
-24.241024 57.570320 0.000010 0.340551
-59.984016 81.417831 14.762905 0.662593
-59.984032 81.417839 13.004662 0.538109
-59.984035 81.417839 11.271102 0.758526
-59.984035 81.417839 9.558074 0.619989
-59.984032 81.417839 7.861600 0.534188
-59.984032 81.417847 6.177856 0.399313
-59.984039 81.417847 4.503131 0.558358
-60.126820 81.512840 2.836587 0.678431
-60.126820 81.512840 1.163413 0.678431
-51.457874 75.745209 -0.000032 0.228634
-37.870598 66.705307 -0.000017 0.223727
-32.037136 62.824188 -0.000012 0.228311
-28.788219 60.662613 -0.000008 0.215481
-26.714073 59.282642 -0.000006 0.221980
-25.233885 58.297840 0.010003 1.000000
-24.210310 57.616837 0.000009 0.338247
-59.453571 81.488792 14.662435 0.576303
-59.453571 81.488792 12.918031 0.414893
-59.453564 81.488785 11.198115 0.488884
-59.453571 81.488800 9.498573 0.501396
-59.348534 81.417847 7.800874 0.619532
-59.453568 81.488792 6.144969 0.645136
-59.453571 81.488800 4.483424 0.616297
-59.452190 81.487862 2.827189 0.086275
-59.452190 81.487862 1.172810 0.078828
-51.299614 75.981293 -0.000032 0.229149
-37.775784 66.846756 -0.000018 0.217324
-31.969555 62.925003 -0.000011 0.250236
-28.735807 60.740799 -0.000008 0.220915
-26.671305 59.346355 0.000002 0.335683
-25.236473 58.377213 -0.000007 0.337072
-24.179272 57.663136 0.000009 0.333730
-58.726051 81.417870 14.501784 0.558495
-58.726048 81.417862 12.779508 0.589075
-58.726044 81.417862 11.081415 0.581781
-58.726048 81.417862 9.403435 0.492012
-58.726048 81.417870 7.741673 0.587289
-58.726048 81.417862 6.092379 0.528267
-58.726040 81.417862 4.451915 0.654353
-58.828152 81.487877 2.818747 0.094118
-58.828152 81.487877 1.181252 0.086275
-51.139713 76.216263 -0.000032 0.232212
-37.679974 66.987534 -0.000018 0.231171
-31.901264 63.025337 -0.000011 0.211400
-28.682850 60.818619 -0.000008 0.251014
-26.628136 59.409798 0.000002 0.336614
-25.200102 58.430656 -0.000007 0.330938
-24.147911 57.709221 0.000009 0.335943
-58.368839 81.593773 14.453207 0.091783
-58.368835 81.593773 12.737624 0.093080
-58.368832 81.593773 11.046128 0.170428
-58.368843 81.593781 9.374673 0.251072
-58.116093 81.417870 7.683939 0.641352
-58.368839 81.593773 6.076478 0.106661
-58.116096 81.417877 4.427261 0.498161
-58.252666 81.512924 2.811232 0.678431
-58.252666 81.512924 1.188768 0.678431
-50.978168 76.450111 -0.000032 0.232105
-37.583183 67.127640 -0.000018 0.225965
-31.832285 63.125202 -0.000012 0.228778
-28.629353 60.896069 -0.000009 0.218246
-26.539373 59.441509 0.010010 1.000000
-25.163357 58.483849 -0.000007 0.339422
-24.116230 57.755081 0.000009 0.338628
-57.518280 81.417892 14.253469 0.643534
-57.518276 81.417892 12.565402 0.541833
-57.518276 81.417892 10.901036 0.641581
-57.518276 81.417892 9.256386 0.682216
-57.518269 81.417892 7.627630 0.665171
-57.518272 81.417892 6.011094 0.679347
-57.518269 81.417892 4.403215 0.573495
-57.652725 81.512863 2.803194 0.678431
-57.652725 81.512863 1.196806 0.678431
-50.815002 76.682831 -0.000032 0.229101
-37.485428 67.267075 -0.000018 0.234498
-31.762604 63.224579 -0.000012 0.226623
-28.575310 60.973137 -0.000008 0.206230
-26.495590 59.504063 0.009999 1.000000
-25.126244 58.536781 -0.000006 0.334340
-24.084227 57.800720 0.000009 0.332906
-57.197132 81.607872 14.215518 0.678431
-56.932068 81.417847 12.462240 0.448173
-57.197121 81.607864 10.873466 0.678431
-57.197128 81.607872 9.233912 0.678431
-56.932064 81.417847 7.572680 0.588129
-57.197128 81.607872 5.998672 0.678431
-56.932060 81.417847 4.379750 0.754391
-57.064579 81.512848 2.795351 0.575036
-57.064575 81.512840 1.204648 0.581231
-50.650211 76.914398 -0.000032 0.229927
-37.386700 67.405823 -0.000018 0.242816
-31.692232 63.323467 -0.000012 0.226480
-28.520735 61.049828 -0.000008 0.218449
-26.451370 59.566307 0.009988 1.000000
-25.088758 58.589455 -0.000007 0.337026
-24.051910 57.846142 0.000008 0.344335
-56.357281 81.417885 14.017107 0.574502
-56.357285 81.417885 12.361603 0.662074
-56.357292 81.417892 10.729345 0.521477
-56.357281 81.417885 9.116417 0.409964
-56.357296 81.417892 7.519078 0.751293
-56.357281 81.417877 5.933722 0.783841
-56.357285 81.417885 4.356860 0.799252
-56.487900 81.512909 2.787701 0.636973
-56.487900 81.512909 1.212299 0.636973
-50.483810 77.144814 -0.000032 0.228670
-37.287003 67.543869 -0.000018 0.240315
-31.621174 63.421864 -0.000012 0.233457
-28.465626 61.126137 -0.000008 0.204495
-26.451040 59.660488 0.000004 0.334386
-25.050909 58.641861 -0.000006 0.337072
-24.019279 57.891331 0.000007 0.343984
-55.793385 81.417892 13.903178 0.543633
-55.793377 81.417892 12.263370 0.520592
-55.793365 81.417877 10.646579 0.489250
-55.793369 81.417885 9.048946 0.581384
-55.793377 81.417892 7.466752 0.482551
-55.793381 81.417892 5.896430 0.504341
-55.793377 81.417892 4.334515 0.414008
-55.894077 81.492233 2.779664 0.126406
-55.894077 81.492233 1.220336 0.237079
-50.315807 77.374069 -0.000032 0.229268
-37.186340 67.681221 -0.000018 0.227377
-31.549431 63.519764 -0.000012 0.241069
-28.409889 61.201992 0.000009 0.340749
-26.405668 59.722374 0.000006 0.333684
-25.012693 58.694008 -0.000006 0.338155
-23.986334 57.936295 0.000006 0.341817
-55.300644 81.463295 13.810924 0.704189
-55.240021 81.417885 12.167466 0.678248
-55.300655 81.463303 10.579574 0.508522
-55.300644 81.463295 8.994316 0.605509
-55.240028 81.417892 7.415671 0.573404
-55.300655 81.463303 5.866231 0.673411
-55.240025 81.417892 4.312700 0.554696
-55.366863 81.512901 2.772944 0.620295
-55.366863 81.512901 1.227057 0.613245
-50.146206 77.602135 -0.000032 0.227784
-37.084724 67.817863 -0.000018 0.228072
-31.477001 63.617157 -0.000012 0.207989
-28.299820 61.237148 0.009999 1.000000
-26.359879 59.783951 0.000005 0.337285
-24.974112 58.745880 -0.000006 0.338155
-23.953072 57.981026 0.000005 0.334310
-54.696854 81.417854 13.683338 0.630594
-54.696861 81.417854 12.073818 0.583963
-54.696861 81.417862 10.486893 0.548165
-54.696854 81.417854 8.918760 0.597864
-54.696861 81.417854 7.365788 0.587198
-54.696865 81.417862 5.824468 0.593698
-54.696861 81.417854 4.291399 0.563729
-54.810501 81.504227 2.765589 0.303471
-54.810501 81.504227 1.234410 0.464836
-49.975002 77.829010 -0.000032 0.228634
-36.982159 67.953796 -0.000019 0.240997
-31.403898 63.714043 -0.000012 0.244168
-28.243378 61.311886 0.010004 1.000000
-26.313660 59.845203 0.000006 0.328649
-24.935173 58.797485 -0.000005 0.336950
-23.919502 58.025524 0.000004 0.332906
-54.262398 81.494026 13.608527 0.635676
-54.163681 81.417900 11.982387 0.613626
-54.262390 81.494019 10.432544 0.520088
-54.262398 81.494026 8.874458 0.516518
-54.163685 81.417908 7.317089 0.612085
-54.262398 81.494019 5.799977 0.647791
-54.163689 81.417908 4.270601 0.688457
-54.286907 81.512924 2.758873 0.678431
-54.286907 81.512924 1.241127 0.540505
-49.802227 78.054688 -0.000032 0.231351
-36.878639 68.089005 -0.000019 0.232476
-31.330116 63.810410 -0.000012 0.229939
-28.239792 61.427391 0.000012 0.337743
-26.267004 59.906128 0.000008 0.338933
-24.895876 58.848820 -0.000006 0.339071
-23.885620 58.069786 0.000003 0.338491
-53.640022 81.417908 13.473710 0.717708
-53.640030 81.417923 11.893067 0.716762
-53.640034 81.417923 10.334618 0.708659
-53.640022 81.417915 8.794622 0.702861
-53.640030 81.417923 7.269513 0.771603
-53.640026 81.417923 5.755847 0.763973
-53.640030 81.417923 4.250286 0.384009
-53.761406 81.512871 2.752080 0.678431
-53.761406 81.512878 1.247919 0.678431
-49.627895 78.279160 -0.000032 0.228383
-36.774185 68.223495 -0.000019 0.222363
-31.255672 63.906273 -0.000012 0.222901
-28.182045 61.501724 0.000013 0.338750
-26.219933 59.966732 0.000007 0.339483
-24.856218 58.899872 -0.000005 0.342138
-23.851431 58.113811 0.000002 0.339971
-53.224201 81.496155 13.404027 0.545769
-53.125641 81.417938 11.805806 0.618051
-53.224201 81.496155 10.283996 0.535225
-53.224194 81.496147 8.753355 0.636469
-53.224201 81.496155 7.237508 0.515282
-53.224201 81.496155 5.733036 0.551598
-53.125637 81.417931 4.230436 0.609522
-53.245308 81.512909 2.745448 0.678431
-53.245308 81.512909 1.254552 0.678431
-49.451981 78.502396 -0.000032 0.227306
-36.668797 68.357246 -0.000019 0.223907
-31.180553 64.001602 -0.000012 0.225115
-28.123789 61.575657 0.000013 0.337240
-26.172443 60.027008 0.000007 0.337591
-24.816206 58.950653 -0.000005 0.331502
-23.816935 58.157597 0.000001 0.337514
-52.620152 81.417892 13.273593 0.787015
-52.620152 81.417892 11.720520 0.459571
-52.620155 81.417892 10.189250 0.379660
-52.620152 81.417892 8.676115 0.451347
-52.620140 81.417885 7.177604 0.552300
-52.620148 81.417885 5.690340 0.506584
-52.620148 81.417892 4.211037 0.624292
-52.738110 81.512848 2.738963 0.678431
-52.738110 81.512848 1.261036 0.678431
-49.274536 78.724419 -0.000034 0.231387
-36.562473 68.490265 -0.000019 0.239764
-31.104771 64.096413 -0.000013 0.220304
-28.065014 61.649178 0.000014 0.342351
-26.124523 60.086937 0.000009 0.334081
-24.775841 59.001148 -0.000005 0.340291
-23.782133 58.201141 0.000000 0.336156
-52.185989 81.468994 13.197187 0.629664
-52.123356 81.417847 11.637173 0.616205
-52.185997 81.469002 10.133746 0.810941
-52.185997 81.469009 8.630869 0.769238
-52.186001 81.469009 7.142515 0.679759
-52.185993 81.469002 5.665327 0.427161
-52.123352 81.417847 4.192080 0.724559
-52.239704 81.512863 2.732630 0.678431
-52.239704 81.512863 1.267371 0.678431
-49.095535 78.945190 -0.000034 0.231159
-36.455223 68.622528 -0.000019 0.221561
-31.028332 64.190689 -0.000013 0.252654
-28.005730 61.722290 0.000014 0.341085
-26.076191 60.146542 0.000009 0.343297
-24.735123 59.051361 -0.000005 0.332372
-23.747028 58.244438 -0.000001 0.333745
-51.635025 81.417847 13.082458 0.680598
-51.635029 81.417847 11.555715 0.512886
-51.635025 81.417847 10.050406 0.531807
-51.635021 81.417839 8.562925 0.581796
-51.635021 81.417839 7.089822 0.640635
-51.635014 81.417831 5.627771 0.630884
-51.635010 81.417831 4.173550 0.695766
-51.749725 81.512856 2.726437 0.630121
-51.749725 81.512856 1.273563 0.637324
-48.915001 79.164711 -0.000034 0.227629
-36.347054 68.754051 -0.000019 0.221118
-30.951229 64.284424 -0.000013 0.230034
-27.945936 61.794987 0.000014 0.337896
-26.027439 60.205799 0.000011 0.335592
-24.694054 59.101292 -0.000004 0.344152
-23.711622 58.287495 -0.000001 0.335302
-51.154934 81.417900 12.990127 0.558602
-51.154926 81.417892 11.476099 0.799268
-51.154926 81.417892 9.983333 0.582544
-51.154934 81.417900 8.508247 0.590021
-51.154938 81.417908 7.047416 0.570153
-51.154934 81.417908 5.597548 0.642893
-51.154934 81.417908 4.155441 0.569802
-51.267990 81.512894 2.720385 0.678431
-51.267990 81.512894 1.279616 0.678431
-48.732925 79.382957 -0.000034 0.226121
-36.237968 68.884811 -0.000019 0.226121
-30.873447 64.377594 -0.000008 0.337041
-27.885639 61.867264 0.000014 0.339269
-25.978283 60.264725 0.000011 0.337240
-24.652639 59.150932 -0.000004 0.330327
-23.675919 58.330299 -0.000003 0.339391
-50.905621 81.607880 12.973190 0.678431
-50.682674 81.417892 11.398236 0.597726
-50.905621 81.607880 9.971033 0.678431
-50.682682 81.417900 8.454771 0.581415
-50.905621 81.607880 7.039639 0.678431
-50.905621 81.607880 5.592005 0.678431
-50.682671 81.417892 4.137731 0.522225
-50.794167 81.512901 2.714465 0.678431
-50.794167 81.512901 1.285535 0.678431
-48.549324 79.599915 -0.000034 0.226923
-36.127975 69.014809 -0.000019 0.229556
-30.728868 64.413849 0.009995 1.000000
-27.824837 61.939121 0.000014 0.330816
-25.928719 60.323303 0.000010 0.335760
-24.610880 59.200283 -0.000003 0.331884
-23.639910 58.372849 -0.000002 0.340887
-50.218143 81.417923 12.811522 0.647181
-50.218136 81.417923 11.322102 0.797726
-50.218140 81.417923 9.853594 0.721035
-50.218140 81.417923 8.402481 0.557626
-50.218143 81.417923 6.965390 0.567010
-50.218140 81.417923 5.539084 0.669535
-50.218140 81.417923 4.120413 0.434302
-50.328011 81.512886 2.708677 0.678431
-50.328007 81.512878 1.291324 0.678431
-48.364220 79.815590 -0.000034 0.228431
-36.017071 69.144028 -0.000019 0.218401
-30.650114 64.505402 0.010011 1.000000
-27.763531 62.010548 0.000015 0.336385
-25.878735 60.381527 0.000013 0.340810
-24.568775 59.249340 -0.000003 0.335439
-23.603607 58.415150 -0.000001 0.336431
-49.977745 81.607903 12.797346 0.678431
-49.969723 81.600868 11.307576 0.477714
-49.977753 81.607910 9.843299 0.678431
-49.760983 81.417892 8.351327 0.824048
-49.977753 81.607910 6.958881 0.678431
-49.977753 81.607910 5.534444 0.678431
-49.760979 81.417892 4.103471 0.440146
-49.869289 81.512833 2.703014 0.516167
-49.869289 81.512833 1.296987 0.516167
-48.177620 80.029984 -0.000034 0.229544
-35.905277 69.272476 -0.000020 0.225774
-30.636335 64.653915 -0.000010 0.337743
-27.701733 62.081547 0.000015 0.338537
-25.828356 60.439411 0.000012 0.333303
-24.526329 59.298100 -0.000002 0.347601
-23.567005 58.457191 -0.000001 0.340337
-49.311043 81.417862 12.640645 0.590631
-49.311039 81.417862 11.174764 0.533486
-49.311031 81.417862 9.729464 0.675746
-49.311035 81.417862 8.301288 0.579797
-49.311035 81.417862 6.886910 0.417670
-49.311039 81.417862 5.483147 0.530877
-49.311043 81.417862 4.086899 0.531518
-49.417938 81.512894 2.697478 0.666392
-49.417938 81.512894 1.302523 0.666392
-47.989532 80.243057 -0.000034 0.228359
-35.792583 69.400146 -0.000020 0.218246
-30.556013 64.744904 -0.000010 0.337652
-27.639435 62.152107 0.000015 0.340688
-25.777569 60.496933 0.000013 0.338872
-24.483545 59.346565 -0.000002 0.336507
-23.530111 58.498978 0.000001 0.334615
-49.034546 81.567879 12.614104 0.100511
-49.034546 81.567879 11.151882 0.096651
-49.034546 81.567879 9.710190 0.208194
-48.868149 81.417862 8.252338 0.428046
-49.034554 81.567886 6.874724 0.141634
-49.034550 81.567886 5.474461 0.160845
-48.868149 81.417862 4.070689 0.509056
-48.973534 81.512871 2.692058 0.678431
-48.973534 81.512871 1.307941 0.678431
-47.799965 80.454826 -0.000034 0.227772
-35.679005 69.527023 -0.000020 0.231482
-30.475061 64.835335 -0.000011 0.336996
-27.576653 62.222237 0.000016 0.332967
-25.726387 60.554108 0.000013 0.338170
-24.440422 59.394730 -0.000002 0.338872
-23.492931 58.540504 0.000001 0.336965
-48.432083 81.417885 12.477118 0.662791
-48.432098 81.417892 11.033773 0.386053
-48.432098 81.417892 9.610686 0.632990
-48.432091 81.417885 8.204453 0.595605
-48.432091 81.417885 6.811811 0.672023
-48.432083 81.417877 5.429619 0.613321
-48.432087 81.417885 4.054830 0.657725
-48.536026 81.512917 2.686759 0.676616
-48.536026 81.512917 1.313242 0.676616
-47.608906 80.665253 -0.000034 0.228909
-35.564533 69.653091 -0.000020 0.226743
-30.393490 64.925209 -0.000013 0.337972
-27.513374 62.291924 0.000016 0.339223
-25.674810 60.610924 0.000012 0.333974
-24.396965 59.442593 -0.000001 0.337499
-23.455460 58.581776 0.000002 0.337697
-48.002647 81.417923 12.397992 0.613672
-48.033028 81.446091 10.974488 0.536446
-48.033035 81.446098 9.560744 0.737102
-48.002640 81.417915 8.157591 0.687007
-48.033035 81.446098 6.780237 0.841901
-48.033035 81.446098 5.407115 0.749828
-48.002640 81.417915 4.039309 0.630762
-48.105076 81.512894 2.681570 0.678431
-48.105072 81.512886 1.318430 0.678431
-47.416393 80.874344 -0.000035 0.233337
-35.449188 69.778366 -0.000020 0.226264
-30.311279 65.014496 -0.000013 0.334539
-27.449619 62.361172 0.000016 0.340215
-25.622831 60.667374 0.000012 0.337530
-24.353176 59.490150 -0.000001 0.339666
-23.417698 58.622776 0.000003 0.341573
-47.579552 81.417885 12.320523 0.445960
-47.781590 81.607849 10.958641 0.678431
-47.781590 81.607849 9.547390 0.678431
-47.579559 81.417892 8.111717 0.711070
-47.781590 81.607849 6.771793 0.678431
-47.781593 81.607849 5.401097 0.678431
-47.579559 81.417892 4.024117 0.542885
-47.680622 81.512917 2.676495 0.678431
-47.680618 81.512909 1.323506 0.678431
-47.222427 81.082092 -0.000034 0.230381
-35.332977 69.902832 -0.000020 0.219443
-30.228445 65.103210 -0.000013 0.336538
-27.385384 62.429974 0.000015 0.334569
-25.570469 60.723469 0.000011 0.339590
-24.309048 59.537395 0.000001 0.332723
-23.379654 58.663517 0.000004 0.337194
-47.162743 81.417900 12.244713 0.425711
-47.162746 81.417900 10.833380 0.653620
-47.162735 81.417892 9.441858 0.500130
-47.162743 81.417892 8.066820 0.737743
-47.162750 81.417908 6.705073 0.696239
-47.162750 81.417900 5.353542 0.508858
-47.162750 81.417908 4.009248 0.604364
-47.262363 81.512886 2.671524 0.678431
-47.262360 81.512878 1.328476 0.678431
-47.027012 81.288475 -0.000034 0.230310
-35.215897 70.026482 -0.000020 0.226719
-30.144999 65.191345 -0.000013 0.338216
-27.320663 62.498322 0.000016 0.338628
-25.517708 60.779186 0.000011 0.338338
-24.264597 59.584335 0.000002 0.330983
-23.341326 58.703991 0.000005 0.329992
-46.751999 81.417915 12.170501 0.690257
-46.948437 81.607857 10.828408 0.474357
-46.948441 81.607857 9.437672 0.499840
-46.751999 81.417915 8.022873 0.492317
-46.948433 81.607849 6.702424 0.458747
-46.948433 81.607849 5.351654 0.458747
-46.751999 81.417908 3.994693 0.614343
-46.850235 81.512894 2.666660 0.678431
-46.850235 81.512894 1.333341 0.678431
-46.830162 81.493492 -0.000035 0.225427
-35.097954 70.149315 -0.000020 0.227138
-30.060917 65.278877 -0.000011 0.335622
-27.255468 62.566216 0.000016 0.340475
-25.464565 60.834541 0.000010 0.326665
-24.219814 59.630962 0.000004 0.335012
-23.302717 58.744198 0.000006 0.337285
-46.347115 81.417900 12.097836 0.704707
-46.347115 81.417900 10.706735 0.648020
-46.347115 81.417900 9.335167 0.808865
-46.347115 81.417900 7.979843 0.644739
-46.347107 81.417892 6.637617 0.657740
-46.347115 81.417900 5.305462 0.504082
-46.347115 81.417900 3.980442 0.394141
-46.443970 81.512871 2.661896 0.646693
-46.443970 81.512871 1.338104 0.650126
-46.347084 81.417870 0.019560 0.420157
-34.979160 70.271324 -0.000020 0.235863
-29.976246 65.365829 -0.000010 0.336782
-27.189804 62.633652 0.000016 0.341207
-25.411037 60.889526 0.000008 0.339269
-24.174709 59.677273 0.000005 0.347005
-23.263830 58.784134 0.000006 0.335760
-45.947922 81.417854 12.026676 0.415442
-45.956665 81.426544 10.648041 0.669139
-45.956665 81.426544 9.285719 0.584878
-45.947918 81.417847 7.937701 0.588861
-45.956657 81.426537 6.606352 0.659968
-45.956657 81.426544 5.283179 0.687205
-45.947918 81.417854 3.966485 0.542657
-46.043480 81.512871 2.657231 0.678431
-46.043480 81.512871 1.342768 0.678431
-45.947937 81.417870 0.033514 0.625437
-34.859512 70.392494 -0.000020 0.237323
-29.890965 65.452194 -0.000010 0.338354
-27.123665 62.700630 0.000017 0.340795
-25.357121 60.944130 0.000008 0.341024
-24.129280 59.723270 0.000007 0.337255
-23.224665 58.823799 0.000006 0.342321
-45.554386 81.417900 11.957023 0.446418
-45.742783 81.607857 10.643105 0.678431
-45.742775 81.607849 9.281559 0.678431
-45.554379 81.417892 7.896454 0.554711
-45.742783 81.607857 6.603724 0.678431
-45.742790 81.607864 5.281305 0.678431
-45.554379 81.417892 3.952825 0.711574
-45.648590 81.512878 2.652666 0.678431
-45.648590 81.512878 1.347334 0.678431
-45.554359 81.417870 0.047177 0.675258
-34.739033 70.512833 -0.000020 0.224876
-29.805063 65.537933 -0.000006 0.338476
-27.057066 62.767143 0.000017 0.338033
-25.302832 60.998360 0.000007 0.331701
-24.083536 59.768951 0.000009 0.338094
-23.185226 58.863190 0.000006 0.342016
-45.166222 81.417908 11.888799 0.577249
-45.166222 81.417908 10.526495 0.639109
-45.166214 81.417900 9.183317 0.539300
-45.166214 81.417900 7.856051 0.558846
-45.166214 81.417900 6.541611 0.484535
-45.166214 81.417900 5.237036 0.661509
-45.166214 81.417900 3.939444 0.700175
-45.259102 81.512871 2.648193 0.678431
-45.259102 81.512871 1.351807 0.678431
-45.166183 81.417870 0.060558 0.547829
-34.617699 70.632317 -0.000020 0.227174
-29.718588 65.623100 -0.000005 0.337575
-26.990002 62.833195 0.000017 0.337057
-25.248156 61.052204 0.000008 0.335912
-24.037468 59.814308 0.000010 0.336233
-23.145510 58.902302 0.000006 0.339315
-44.783318 81.417900 11.821975 0.435935
-44.927998 81.567917 10.513890 0.287663
-44.928001 81.567917 9.172703 0.094118
-44.783314 81.417900 7.816479 0.705898
-44.927994 81.567909 6.534898 0.350408
-44.928001 81.567917 5.232251 0.062745
-44.783318 81.417900 3.926337 0.344961
-44.874912 81.512871 2.643813 0.667445
-44.874912 81.512871 1.356187 0.669581
-44.783283 81.417870 0.073664 0.476555
-34.495544 70.750954 -0.000020 0.240291
-29.631517 65.707657 -0.000005 0.337377
-26.922476 62.898769 0.000018 0.341848
-25.193115 61.105671 0.000006 0.334966
-23.991095 59.859348 0.000010 0.344930
-23.105524 58.941139 0.000006 0.343511
-44.405525 81.417892 11.756516 0.573419
-44.586227 81.607887 10.469068 0.678431
-44.586227 81.607887 9.134939 0.678431
-44.405518 81.417885 7.777714 0.437125
-44.586224 81.607887 6.511023 0.678431
-44.586220 81.607887 5.215234 0.678431
-44.405525 81.417892 3.913500 0.493690
-44.495869 81.512878 2.639523 0.617151
-44.495869 81.512878 1.360476 0.620829
-44.405506 81.417877 0.086500 0.594171
-34.372562 70.868744 -0.000020 0.227880
-29.543861 65.791611 -0.000005 0.338247
-26.854500 62.963879 0.000018 0.333806
-25.137695 61.158745 0.000007 0.333165
-23.944408 59.904064 0.000010 0.334127
-23.065266 58.979691 0.000006 0.332189
-44.032715 81.417885 11.692397 0.544900
-44.032711 81.417877 10.357148 0.666819
-44.032707 81.417877 9.040649 0.685863
-44.032707 81.417877 7.739743 0.542977
-44.032715 81.417885 6.451410 0.387304
-44.032707 81.417877 5.172743 0.619577
-44.032711 81.417877 3.900925 0.514748
-44.121777 81.512848 2.635319 0.678431
-44.121777 81.512848 1.364681 0.678431
-44.032703 81.417877 0.099076 0.437995
-34.248756 70.985664 -0.000020 0.236198
-29.455597 65.874916 -0.000001 0.337926
-26.786066 63.028511 0.000017 0.335348
-25.081905 61.211433 0.000007 0.337179
-23.897408 59.948452 0.000010 0.347005
-23.024742 59.017967 0.000006 0.341146
-43.880173 81.650803 11.709049 0.535256
-43.880180 81.650810 10.371511 0.500023
-43.880177 81.650803 9.052750 0.733333
-43.880188 81.650818 7.749609 0.620920
-43.880188 81.650818 6.459062 0.446891
-43.880180 81.650810 5.178197 0.737026
-43.880180 81.650810 3.904192 0.519463
-43.975189 81.753540 2.636567 0.678431
-43.975189 81.753540 1.363433 0.678431
-43.880154 81.650780 0.095810 0.417792
-34.124157 71.101730 -0.000021 0.227389
-29.366779 65.957634 -0.000001 0.338643
-26.717182 63.092655 0.000018 0.339406
-25.025749 61.263729 0.000007 0.340780
-23.850101 59.992516 0.000010 0.334112
-22.983952 59.055958 0.000006 0.340124
-43.880165 82.052376 11.783135 0.565103
-44.070190 82.260742 10.496295 0.678431
-44.070179 82.260735 9.157875 0.678431
-43.880177 82.052383 7.793482 0.708553
-44.070183 82.260742 6.525527 0.678431
-44.070183 82.260735 5.225569 0.678431
-43.880173 82.052383 3.918722 0.505913
-43.975185 82.156570 2.641424 0.678431
-43.975185 82.156570 1.358576 0.678431
-43.880142 82.052353 0.081280 0.555337
-33.916195 71.126404 0.010022 1.000000
-29.277382 66.039726 0.000000 0.340276
-26.647854 63.156322 0.000018 0.341070
-24.969229 61.315632 0.000008 0.335866
-23.802486 60.036243 0.000009 0.329763
-22.942894 59.093658 0.000006 0.336553
-43.880150 82.460136 11.858841 0.603952
-43.880150 82.460136 10.500667 0.587808
-43.880146 82.460129 9.161558 0.688289
-43.880150 82.460144 7.838312 0.605325
-43.880146 82.460129 6.527854 0.603586
-43.880150 82.460136 5.227229 0.576288
-43.880150 82.460136 3.933568 0.580804
-43.975151 82.565781 2.646387 0.678431
-43.975151 82.565781 1.353613 0.678431
-43.880173 82.460159 0.066429 0.619532
-33.790691 71.240234 0.010012 1.000000
-29.187414 66.121193 0.000001 0.340352
-26.578083 63.219505 0.000018 0.332662
-24.912350 61.367142 0.000008 0.338659
-23.754568 60.079639 0.000009 0.335302
-22.901577 59.131077 0.000006 0.340322
-43.880188 82.874344 11.936237 0.417990
-43.880196 82.874344 10.567401 0.414511
-43.880196 82.874344 9.217781 0.641276
-43.880196 82.874344 7.884148 0.544610
-43.880199 82.874352 6.563401 0.684016
-43.880196 82.874344 5.252564 0.794110
-43.880192 82.874344 3.948749 0.755413
-43.975174 82.981461 2.651461 0.678431
-43.975174 82.981461 1.348538 0.678431
-43.880188 82.874336 0.051252 0.510338
-33.745415 71.444550 -0.000011 0.338369
-29.096882 66.202034 0.000001 0.335668
-26.507874 63.282200 0.000018 0.336141
-24.855112 61.418251 0.000008 0.341436
-23.706350 60.122700 0.000008 0.338338
-22.860001 59.168205 0.000006 0.336812
-43.880177 83.295059 12.015329 0.653391
-44.037903 83.475456 10.687351 0.403800
-44.037899 83.475456 9.318836 0.624323
-43.880180 83.295059 7.930984 0.583673
-44.037907 83.475464 6.627293 0.839246
-44.037907 83.475464 5.298104 0.456275
-43.880173 83.295052 3.964260 0.634852
-43.975174 83.403717 2.656647 0.678431
-43.975174 83.403717 1.343353 0.678431
-43.880165 83.295044 0.035741 0.499321
-33.617615 71.557083 -0.000012 0.338659
-29.005764 66.282211 0.000005 0.335012
-26.437225 63.344398 0.000019 0.340017
-24.797516 61.468956 0.000009 0.336019
-23.657833 60.165424 0.000007 0.335180
-22.818165 59.205040 0.000006 0.341619
-43.880154 83.722542 12.096186 0.407767
-43.880157 83.722542 10.705315 0.528069
-43.880157 83.722542 9.333969 0.391287
-43.880150 83.722534 7.978863 0.810483
-43.880146 83.722534 6.636857 0.805646
-43.880150 83.722534 5.304921 0.484031
-43.880150 83.722534 3.980117 0.627878
-43.959404 83.814468 2.661553 0.209964
-43.959404 83.814468 1.338445 0.136080
-43.880135 83.722519 0.019882 0.518410
-33.489033 71.668732 -0.000012 0.336660
-28.914112 66.361778 0.000005 0.340764
-26.366146 63.406109 0.000019 0.336294
-24.739571 61.519260 0.000009 0.335866
-23.609020 60.207813 0.000006 0.330068
-22.776070 59.241581 0.000006 0.341207
-43.880150 84.157021 12.178864 0.589975
-44.070126 84.380531 10.839955 0.678431
-44.070122 84.380524 9.447400 0.678431
-43.880150 84.157021 8.027826 0.533242
-44.070122 84.380524 6.708577 0.678431
-44.070122 84.380531 5.356039 0.678431
-43.880142 84.157013 3.996333 0.409689
-43.975189 84.268837 2.667371 0.678431
-43.975189 84.268837 1.332629 0.678431
-43.880119 84.156990 0.003668 0.442435
-33.359673 71.779472 -0.000013 0.338079
-28.821905 66.440697 0.000006 0.334020
-26.294640 63.467316 0.000018 0.339315
-24.681273 61.569160 0.000010 0.333043
-23.559916 60.249859 0.000003 0.339162
-22.733727 59.277832 0.000006 0.345068
-43.880173 84.598732 12.263425 0.808820
-43.880165 84.598724 10.849509 0.743542
-43.880173 84.598740 9.455452 0.559579
-43.880177 84.598740 8.077904 0.528176
-43.880173 84.598740 6.713666 0.565438
-43.880173 84.598732 5.359666 0.554406
-43.880173 84.598732 4.012918 0.719722
-43.975143 84.712067 2.672912 0.678431
-43.975143 84.712067 1.327087 0.678431
-43.711754 84.397758 -0.000036 0.226887
-33.229595 71.889366 -0.000021 0.338384
-28.729153 66.518974 0.000006 0.334539
-26.222706 63.528027 0.000018 0.338827
-24.622627 61.618649 0.000010 0.325002
-23.510509 60.291553 0.000003 0.346639
-22.691126 59.313782 0.000006 0.337377
-43.880116 85.047768 12.349874 0.582116
-44.070183 85.277824 10.988505 0.678431
-44.070183 85.277817 9.572548 0.678431
-43.880119 85.047775 8.129099 0.830320
-44.070183 85.277817 6.787698 0.678431
-44.070183 85.277817 5.412434 0.678431
-43.880123 85.047775 4.029873 0.613046
-43.950169 85.132561 2.677941 0.076890
-43.950169 85.132561 1.322059 0.094118
-43.493279 84.579559 -0.000036 0.227665
-33.098701 71.998291 -0.000021 0.339071
-28.635853 66.596603 0.000007 0.337240
-26.150352 63.588234 0.000018 0.333944
-24.563641 61.667728 0.000011 0.334707
-23.460823 60.332912 0.000001 0.335546
-22.648279 59.349434 0.000006 0.336202
-43.880196 85.504623 12.438362 0.455879
-43.903347 85.533051 11.008268 0.601999
-43.903343 85.533043 9.589197 0.644129
-43.880196 85.504623 8.181499 0.878187
-43.903343 85.533051 6.798227 0.618631
-43.903351 85.533051 5.419939 0.549386
-43.880203 85.504639 4.047228 0.663325
-43.975204 85.621277 2.684384 0.666667
-43.975204 85.621277 1.315616 0.662531
-43.273537 84.759819 -0.000037 0.229974
-32.967056 72.106308 -0.000022 0.338369
-28.542015 66.673576 0.000007 0.336751
-26.077576 63.647926 0.000019 0.341100
-24.504311 61.716393 0.000011 0.342611
-23.410839 60.373913 0.000002 0.324544
-22.605183 59.384789 0.000006 0.335332
-43.880123 85.969193 12.528832 0.485451
-43.880116 85.969185 11.078358 0.784100
-43.880123 85.969193 9.648249 0.750759
-43.880127 85.969193 8.235075 0.602136
-43.880123 85.969193 6.835561 0.778058
-43.880123 85.969193 5.446546 0.649683
-43.880127 85.969200 4.064970 0.666255
-43.975147 86.087540 2.690315 0.678431
-43.975147 86.087540 1.309685 0.678431
-43.052544 84.938545 -0.000037 0.231255
-32.834656 72.213394 -0.000023 0.337804
-28.447620 66.749870 0.000012 0.334020
-26.004391 63.707123 0.000019 0.341527
-24.444653 61.764656 0.000010 0.346746
-23.360569 60.414558 0.000003 0.340307
-22.561842 59.419842 0.000006 0.340658
-43.975014 86.561882 12.659739 0.383001
-43.975033 86.561905 11.191235 0.667994
-43.975029 86.561905 9.743340 0.828580
-43.880199 86.442093 8.289932 0.728588
-43.975029 86.561905 6.895681 0.498222
-43.975029 86.561905 5.489399 0.582589
-43.880192 86.442085 4.083138 0.604028
-43.975124 86.562019 2.696386 0.610910
-43.975124 86.562019 1.303613 0.620798
-42.830315 85.115723 -0.000037 0.229077
-32.701508 72.319550 -0.000023 0.338735
-28.352715 66.825523 0.000012 0.336416
-25.930790 63.765797 0.000019 0.334936
-24.384657 61.812496 0.000008 0.339544
-23.310020 60.454861 0.000003 0.334554
-22.518255 59.454590 0.000006 0.334142
-43.880165 86.923279 12.716232 0.444236
-43.880165 86.923279 11.239942 0.567926
-43.880177 86.923294 9.784378 0.425849
-43.880180 86.923294 8.346054 0.690394
-43.880177 86.923294 6.921629 0.501442
-43.880173 86.923279 5.507892 0.590600
-43.880173 86.923294 4.101726 0.723339
-43.975182 87.045059 2.702602 0.678431
-43.975182 87.045059 1.297398 0.678431
-42.606842 85.291351 -0.000037 0.227030
-32.567619 72.424774 -0.000024 0.338262
-28.257286 66.900520 0.000012 0.336141
-25.815357 63.770866 0.010008 1.000000
-24.324327 61.859921 0.000007 0.333837
-23.259186 60.494801 0.000005 0.341695
-22.474430 59.489033 0.000006 0.337636
-44.016682 87.590698 12.869339 0.824521
-43.880173 87.413208 11.323592 0.580118
-44.016682 87.590698 9.895594 0.671824
-43.880165 87.413193 8.403502 0.576349
-44.016682 87.590698 6.991944 0.546304
-44.016682 87.590698 5.558009 0.655314
-43.880165 87.413193 4.120751 0.499077
-43.983379 87.547401 2.709184 0.370016
-43.983379 87.547401 1.290817 0.285145
-42.382149 85.465408 -0.000037 0.225630
-32.433002 72.529068 -0.000025 0.338033
-28.108368 66.905975 0.010007 1.000000
-25.741396 63.828331 0.009988 1.000000
-24.263664 61.906914 0.000007 0.343603
-23.208073 60.534386 0.000006 0.333425
-22.430361 59.523167 0.000006 0.338598
-43.880142 87.912048 12.912561 0.602945
-43.880142 87.912056 11.409225 0.686549
-43.880142 87.912056 9.926991 0.654475
-43.880142 87.912056 8.462313 0.678614
-43.880138 87.912048 7.011792 0.613077
-43.880142 87.912056 5.572157 0.545739
-43.880142 87.912048 4.140230 0.744778
-43.950180 88.004456 2.714797 0.075288
-43.950180 88.004456 1.285202 0.062745
-42.156250 85.637894 -0.000037 0.230393
-32.297665 72.632416 -0.000025 0.338079
-28.012539 66.979462 0.009979 1.000000
-25.707554 63.938725 0.000019 0.332677
-24.202681 61.953491 0.000005 0.343496
-23.156689 60.573616 0.000007 0.335561
-22.386059 59.556995 0.000006 0.337423
-46.043190 91.315483 13.919540 0.575280
-46.043190 91.315475 12.277477 0.525780
-46.043190 91.315483 10.658471 0.565835
-46.043194 91.315491 9.058640 0.772244
-46.043194 91.315491 7.474268 0.766857
-46.043194 91.315491 5.901786 0.759960
-46.043201 91.315491 4.337724 0.753811
-46.136444 91.440308 2.781234 0.207019
-46.136444 91.440308 1.218765 0.092210
-41.929153 85.808792 -0.000037 0.229711
-32.161606 72.734818 -0.000026 0.338827
-27.967884 67.121468 0.000014 0.337194
-25.632343 63.995323 0.000019 0.339376
-24.141371 61.999638 0.000003 0.333120
-23.105034 60.612488 0.000007 0.340948
-22.341518 59.590515 0.000006 0.328038
-46.233238 92.133911 14.112559 0.581369
-46.043209 91.875809 12.374681 0.622934
-46.233246 92.133911 10.798682 0.552911
-46.233238 92.133911 9.172941 0.546593
-46.043213 91.875824 7.526045 0.702388
-46.233242 92.133911 5.964971 0.544366
-46.043213 91.875824 4.359835 0.686198
-46.138222 92.004860 2.788672 0.678431
-46.138222 92.004860 1.211328 0.678431
-41.700874 85.978119 -0.000037 0.229699
-32.024834 72.836266 -0.000026 0.338567
-27.870399 67.193771 0.000014 0.335592
-25.556742 64.051399 0.000019 0.339300
-24.079742 62.045357 0.000002 0.334203
-23.053108 60.651001 0.000007 0.336645
-22.296749 59.623722 0.000006 0.338720
-46.043232 92.446869 14.147764 0.532280
-46.043228 92.446869 12.474257 0.646494
-46.043236 92.446877 10.824254 0.762448
-46.043232 92.446869 9.193792 0.662196
-46.043236 92.446884 7.579084 0.633036
-46.043236 92.446884 5.976494 0.589273
-46.043243 92.446884 4.382484 0.617075
-46.138237 92.577812 2.796241 0.678431
-46.138237 92.577805 1.203758 0.678431
-41.471405 86.145821 -0.000037 0.226851
-31.887365 72.936760 -0.000027 0.337911
-27.772411 67.265388 0.000015 0.335744
-25.480751 64.106941 0.000019 0.337865
-24.017792 62.090637 0.000001 0.334005
-23.000916 60.689144 0.000007 0.346731
-22.251745 59.656612 0.000006 0.339117
-46.043251 93.029030 14.266095 0.553811
-46.043251 93.029022 12.576286 0.577401
-46.043259 93.029037 10.910213 0.657237
-46.043259 93.029037 9.263865 0.542687
-46.043259 93.029037 7.633430 0.608804
-46.043262 93.029045 6.015229 0.597269
-46.043251 93.029030 4.405691 0.598215
-46.138237 93.161880 2.803997 0.678431
-46.138237 93.161880 1.196002 0.678431
-41.240784 86.311935 -0.000037 0.230298
-31.749241 73.036362 -0.000035 0.338079
-27.673923 67.336319 0.000015 0.335805
-25.404373 64.161957 0.000019 0.336629
-23.955524 62.135487 0.000002 0.335851
-22.948460 60.726929 0.000007 0.339681
-22.206514 59.689190 0.000006 0.334401
-45.891953 93.407867 14.321546 0.412924
-45.891964 93.407883 12.624105 0.700618
-45.891968 93.407898 10.950497 0.478096
-45.891968 93.407890 9.296705 0.397253
-45.891960 93.407883 7.658899 0.537301
-45.891960 93.407883 6.033381 0.595850
-45.891960 93.407883 4.416567 0.587777
-45.958862 93.502853 2.806848 0.678431
-45.958862 93.502853 1.193152 0.678431
-41.008987 86.476418 -0.000037 0.230860
-31.610363 73.134903 -0.000034 0.340093
-27.574924 67.406532 0.000019 0.338109
-25.327612 64.216431 0.000019 0.336172
-23.892944 62.179897 0.000002 0.332311
-22.895739 60.764343 0.000007 0.339513
-22.161057 59.721451 0.000006 0.341680
-45.578064 93.557899 14.307285 0.204501
-45.578060 93.557892 12.611809 0.094118
-45.578064 93.557899 10.940134 0.213947
-45.578064 93.557899 9.288259 0.219013
-45.473946 93.407890 7.631343 0.562051
-45.578060 93.557892 6.028712 0.159960
-45.473946 93.407890 4.404801 0.430228
-45.539852 93.502846 2.802919 0.512108
-45.539848 93.502838 1.197081 0.446036
-40.776073 86.639297 -0.000037 0.230190
-31.470795 73.232468 -0.000033 0.337469
-27.475464 67.476089 0.000019 0.339101
-25.250475 64.270370 0.000018 0.342229
-23.830057 62.223869 0.000002 0.330907
-22.842758 60.801392 0.000007 0.338308
-22.115376 59.753395 0.000006 0.333715
-45.059940 93.407867 14.202711 0.736660
-45.059929 93.407852 12.521635 0.618097
-45.059944 93.407867 10.864169 0.671260
-45.059940 93.407867 9.226329 0.661250
-45.059937 93.407860 7.604317 0.804990
-45.059937 93.407860 5.994478 0.790600
-45.059940 93.407867 4.393261 0.594598
-45.124920 93.502899 2.799068 0.464286
-45.124920 93.502899 1.200932 0.562097
-40.542030 86.800560 -0.000038 0.231075
-31.330557 73.329071 -0.000031 0.335958
-27.375519 67.544945 0.000018 0.336843
-25.172960 64.323769 0.000018 0.334905
-23.766865 62.267399 0.000003 0.332647
-22.789522 60.838066 0.000007 0.338949
-22.069473 59.785019 0.000006 0.339101
-44.745407 93.549683 14.187861 0.596536
-44.649895 93.407883 12.471909 0.591836
-44.745392 93.549660 10.853376 0.600992
-44.745399 93.549667 9.217531 0.567041
-44.649902 93.407883 7.577832 0.667430
-44.745396 93.549667 5.989617 0.635904
-44.649895 93.407883 4.381950 0.560113
-44.713890 93.502892 2.795291 0.678431
-44.713890 93.502884 1.204710 0.678431
-40.306850 86.960159 -0.000038 0.229927
-31.189650 73.424683 -0.000030 0.337697
-27.275097 67.613106 0.000017 0.336080
-25.095079 64.376633 0.000018 0.337865
-23.703369 62.310490 0.000004 0.339590
-22.736029 60.874367 0.000007 0.336919
-22.023350 59.816319 0.000006 0.331731
-44.243668 93.407867 14.088482 0.509743
-44.243675 93.407883 12.423149 0.438270
-44.243668 93.407867 10.781191 0.612726
-44.243671 93.407875 9.158685 0.518334
-44.243671 93.407875 7.551858 0.494896
-44.243671 93.407875 5.957087 0.738842
-44.243668 93.407867 4.370857 0.818082
-44.306740 93.502930 2.791588 0.673838
-44.306740 93.502930 1.208411 0.673106
-40.070572 87.118134 -0.000038 0.227916
-31.048069 73.519310 -0.000029 0.338094
-27.174202 67.680565 0.000016 0.340276
-25.016821 64.428940 0.000019 0.337499
-23.639570 62.353130 0.000005 0.331701
-22.682283 60.910297 0.000008 0.333547
-21.977011 59.847298 0.000006 0.340978
-43.880177 93.467514 14.050885 0.603220
-43.880177 93.467514 12.390733 0.638560
-43.880173 93.467514 10.753881 0.619638
-43.880169 93.467506 9.136419 0.694591
-43.880169 93.467506 7.534591 0.695766
-43.880169 93.467506 5.944779 0.702770
-43.880173 93.467514 4.363482 0.655161
-43.975182 93.612907 2.790108 0.676646
-43.975182 93.612907 1.209892 0.662470
-39.833183 87.274422 -0.000038 0.230621
-30.905836 73.612938 -0.000027 0.338643
-27.072838 67.747322 0.000015 0.338140
-24.938206 64.480705 0.000019 0.334249
-23.575470 62.395313 0.000008 0.337072
-22.628292 60.945850 0.000007 0.340429
-21.930454 59.877953 0.000006 0.335622
-44.070202 94.383423 14.269280 0.618372
-43.880180 94.088165 12.503200 0.606073
-44.070198 94.383423 10.912520 0.676738
-44.070198 94.383423 9.265749 0.632258
-43.880188 94.088165 7.594497 0.516960
-44.070194 94.383423 6.016269 0.630961
-43.880180 94.088158 4.389067 0.687449
-43.975159 94.235741 2.798658 0.678431
-43.975159 94.235741 1.201342 0.678431
-39.594719 87.429077 -0.000038 0.231004
-30.762951 73.705582 -0.000026 0.339132
-26.971008 67.813362 0.000015 0.338186
-24.859232 64.531921 0.000019 0.335760
-23.511080 62.437057 0.000010 0.336431
-22.574051 60.981026 0.000007 0.341619
-21.883684 59.908279 0.000006 0.338857
-43.880150 94.722359 14.315207 0.449958
-43.880146 94.722351 12.618633 0.664302
-43.880142 94.722351 10.945884 0.495766
-43.880146 94.722351 9.292945 0.494148
-43.880150 94.722351 7.655984 0.600992
-43.880150 94.722359 6.031305 0.548363
-43.880150 94.722351 4.415324 0.656382
-43.975155 94.872269 2.807437 0.508141
-43.975155 94.872269 1.192563 0.631266
-39.355186 87.582062 -0.000038 0.230980
-30.619427 73.797226 -0.000025 0.339178
-26.868725 67.878700 0.000014 0.337743
-24.779903 64.582581 0.000018 0.337774
-23.446411 62.478363 0.000010 0.340429
-22.519566 61.015820 0.000008 0.340291
-21.836708 59.938286 0.000006 0.332097
-43.939262 95.465469 14.480663 0.746853
-43.939259 95.465462 12.761298 0.635294
-43.939262 95.465469 11.066075 0.346609
-43.939266 95.465469 9.390930 0.579385
-43.880131 95.370705 7.719124 0.635538
-43.939270 95.465477 6.085466 0.520684
-43.880138 95.370712 4.442287 0.332326
-43.975128 95.522949 2.816451 0.677226
-43.975128 95.522949 1.183549 0.681468
-39.114586 87.733368 -0.000038 0.229053
-30.475262 73.887856 -0.000024 0.337743
-26.765982 67.943314 0.000013 0.338750
-24.700222 64.632690 0.000018 0.333867
-23.381451 62.519211 0.000010 0.337011
-22.464838 61.050236 0.000007 0.337804
-21.789520 59.967960 0.000005 0.341054
-44.070114 96.343002 14.684812 0.678431
-44.070122 96.343018 12.937325 0.678431
-44.070118 96.343010 11.214370 0.674128
-44.070114 96.343002 9.511822 0.678431
-43.880196 96.033852 7.783992 0.635874
-44.070118 96.343010 6.152293 0.678431
-44.146935 96.468056 4.495022 0.244480
-43.975185 96.188477 2.825710 0.678019
-43.975185 96.188477 1.174289 0.678019
-38.872925 87.882973 -0.000038 0.229687
-30.330475 73.977493 -0.000022 0.337865
-26.662792 68.007202 0.000013 0.335363
-24.620193 64.682243 0.000018 0.339269
-23.316214 62.559612 0.000008 0.322744
-22.409874 61.084267 0.000007 0.333272
-21.742126 59.997299 0.000006 0.338125
-43.880123 96.712029 14.738969 0.526925
-43.880119 96.712021 12.984021 0.573678
-43.880119 96.712021 11.253710 0.667353
-43.880119 96.712021 9.543896 0.568582
-43.880127 96.712036 7.850606 0.458305
-43.880119 96.712021 6.170021 0.612909
-43.880119 96.712021 4.498435 0.595193
-43.975166 96.869186 2.835223 0.678431
-43.975166 96.869186 1.164778 0.678431
-38.630234 88.030899 -0.000038 0.230645
-30.185059 74.066101 -0.000021 0.336614
-26.559160 68.070381 0.000012 0.337072
-24.539820 64.731232 0.000018 0.337804
-23.250694 62.599560 0.000006 0.338323
-22.354673 61.117916 0.000007 0.333410
-21.694530 60.026314 0.000006 0.335088
-43.949669 97.522995 14.922122 0.691035
-43.949669 97.522995 13.141941 0.458518
-43.880215 97.406311 11.362047 0.672084
-43.949669 97.522995 9.652358 0.639429
-43.880211 97.406311 7.919102 0.572137
-43.949669 97.522995 6.229975 0.676478
-43.949669 97.522995 4.534355 0.520180
-43.950119 97.523750 2.844195 0.071839
-43.950119 97.523750 1.155803 0.077745
-38.386517 88.177132 -0.000038 0.231746
-30.039032 74.153702 -0.000020 0.337606
-26.455086 68.132828 0.000011 0.337377
-24.459108 64.779663 0.000017 0.333211
-23.184898 62.639046 0.000004 0.332616
-22.299238 61.151176 0.000007 0.337850
-21.646732 60.054993 0.000006 0.342596
-44.070160 98.441154 15.135505 0.678431
-44.070152 98.441147 13.325926 0.678431
-43.880203 98.116905 11.473381 0.619257
-44.070160 98.441154 9.778723 0.678431
-43.880207 98.116913 7.989490 0.579446
-44.070168 98.441162 6.299826 0.678035
-44.070164 98.441162 4.576204 0.677516
-43.975128 98.278931 2.855045 0.678431
-43.975132 98.278946 1.144954 0.678431
-38.141781 88.321655 -0.000038 0.229149
-29.892393 74.240280 -0.000018 0.338842
-26.350586 68.194550 0.000010 0.339529
-24.378057 64.827530 0.000017 0.337240
-23.118820 62.678062 0.000006 0.332906
-22.243572 61.184048 0.000007 0.340108
-21.598734 60.083336 0.000006 0.345190
-43.880165 98.844582 15.198961 0.621958
