# This PCD file was generated using the MATLABÂ® pcwrite function
# from Computer Vision ToolboxÂ®.
# .PCD v.7 - Point Cloud Data file format
VERSION .7
FIELDS x y z intensity
SIZE 4 4 4 4
TYPE F F F F
COUNT 1 1 1 1
WIDTH 1295
HEIGHT 1
VIEWPOINT 0 0 0 1 0 0 0
POINTS 1295
DATA ascii
211.209518 135.068802 4.333904 0.302541
nan nan nan 0.000000
212.417252 141.918213 2.675480 0.365255
212.254974 140.997833 2.558079 0.258824
208.875397 121.831345 3.290484 0.258824
nan nan nan 0.000000
210.438263 130.694794 1.717424 0.472099
212.086197 140.040726 1.617886 0.258824
211.903336 139.003647 1.275884 0.258824
212.012772 139.624283 1.056554 0.258824
211.095581 134.422653 0.000007 0.267353
211.528183 136.876038 0.000006 0.332235
212.526703 142.538879 0.867962 0.258824
212.050369 139.837540 0.000003 0.357183
212.450272 142.325211 3.368974 0.395682
211.129776 135.130371 4.760271 0.453574
212.465591 142.408630 2.979003 0.193530
nan nan nan 0.000000
212.310440 141.563278 2.717843 0.379141
nan nan nan 0.000000
212.237579 141.166336 2.326373 0.254734
210.234772 130.253906 2.290266 0.215015
nan nan nan 0.000000
210.340179 130.828186 1.157263 0.258045
211.864014 139.130920 1.285584 0.258824
210.298523 130.601212 0.000009 0.305531
211.002945 134.439316 0.000008 0.291859
211.452667 136.889618 0.000006 0.305043
211.765228 138.592667 0.000005 0.367651
211.995514 139.847397 0.000003 0.260121
nan nan nan 0.000000
nan nan nan 0.000000
211.036911 135.119736 4.330456 0.290196
208.544067 122.051773 5.873259 0.258824
nan nan nan 0.000000
nan nan nan 0.000000
212.142044 140.912994 2.339470 0.258824
208.172073 120.101685 2.459771 0.258824
nan nan nan 0.000000
205.808472 107.711288 0.000022 0.290990
208.866348 123.741241 0.000013 0.296223
210.179230 130.623535 0.000009 0.271687
210.910431 134.456635 0.000008 0.321752
211.377228 136.903732 0.000006 0.342504
211.701691 138.604568 0.000005 0.253727
211.940720 139.857651 0.000003 0.359533
212.237915 141.645599 3.546163 0.258824
nan nan nan 0.000000
210.951233 135.147339 4.328501 0.238376
208.196625 121.235573 6.001942 0.258824
nan nan nan 0.000000
212.142868 141.165527 2.546254 0.258824
nan nan nan 0.000000
212.097168 140.934769 2.112866 0.638376
208.835403 124.461655 1.612336 0.258824
205.529480 107.765518 0.000022 0.294362
208.699188 123.773727 0.000013 0.284993
210.060074 130.646698 0.000009 0.313100
212.011002 140.499542 0.911075 0.258824
211.301910 136.918381 0.000006 0.317632
211.638229 138.616898 0.000005 0.283085
211.886002 139.868301 0.000003 0.329290
212.185135 141.602737 3.559301 0.258824
nan nan nan 0.000000
210.865829 135.175613 4.326529 0.209400
208.414673 123.234497 5.704885 0.247700
nan nan nan 0.000000
212.101837 141.196976 2.544391 0.258824
211.903015 140.228394 2.374744 0.224781
212.031235 140.853012 2.114391 0.396841
207.803909 120.259087 1.541585 0.258824
212.078644 141.083954 1.668164 0.258824
208.532272 123.807388 0.000013 0.291630
209.941101 130.670685 0.000010 0.304646
210.725754 134.493195 0.000007 0.297246
211.745850 139.462753 0.469805 0.258824
211.574860 138.629684 0.000005 0.280217
211.831360 139.879318 0.000003 0.234241
212.441528 143.018005 3.199151 0.258824
211.109055 136.749191 4.418136 0.277455
210.782257 135.211716 4.323210 0.252476
208.204254 123.083176 5.733240 0.229511
nan nan nan 0.000000
212.061234 141.228851 2.542514 0.258824
211.967117 140.786087 2.347281 0.258824
208.074493 122.472740 2.422050 0.444846
211.939453 140.655960 1.882146 0.413565
211.978119 140.837860 1.655320 0.258824
208.365585 123.842216 0.000013 0.292378
211.854019 140.253983 1.124190 0.288975
211.947144 140.692093 0.937149 0.268132
211.684647 139.457199 0.466539 0.250874
211.511566 138.642899 0.000004 0.272786
211.776794 139.890717 0.000003 0.328496
212.413391 143.045670 3.193865 0.258824
211.020676 136.711243 4.430179 0.223529
210.698563 135.246185 4.320297 0.277943
nan nan nan 0.000000
nan nan nan 0.000000
212.020920 141.260605 2.540667 0.258824
211.787918 140.200867 2.377242 0.258824
209.730240 130.841980 2.282463 0.514427
211.825607 140.372284 1.877215 0.258824
204.694885 107.939880 0.000023 0.289296
208.199142 123.878204 0.000013 0.289464
209.703674 130.721161 0.000010 0.279133
210.541611 134.532333 0.000007 0.325261
211.619415 139.434479 0.459992 0.258824
211.448380 138.656555 0.000005 0.264149
211.722321 139.902496 0.000003 0.269963
212.385437 143.072800 3.188760 0.258824
212.392838 143.105408 3.017775 0.253773
210.615234 135.281235 4.317379 0.214832
210.602539 135.225342 3.897698 0.228717
nan nan nan 0.000000
nan nan nan 0.000000
208.054230 124.008972 3.193559 0.258824
207.743088 122.639427 2.420551 0.258824
207.776703 122.787430 1.581932 0.258824
211.754349 140.295105 1.626917 0.433249
208.032959 123.915344 0.000013 0.283955
209.585220 130.747635 0.000009 0.264149
210.449753 134.552872 0.000007 0.307790
211.001678 136.982193 0.000006 0.310613
211.385284 138.670654 0.000004 0.274205
211.667923 139.914642 0.000002 0.254810
212.083130 141.929016 3.484957 0.258824
212.119354 142.083435 3.246130 0.238605
210.525238 135.286911 4.320057 0.233173
nan nan nan 0.000000
212.043457 141.759888 2.701979 0.502815
212.064087 141.847824 2.492929 0.389639
207.591614 122.779358 3.257531 0.546715
207.595016 122.793831 2.418634 0.439933
207.598190 122.807419 1.581594 0.377707
211.536072 139.596603 1.591068 0.258824
211.635391 140.020081 1.353137 0.258824
209.466965 130.774933 0.000010 0.282597
210.358032 134.574036 0.000007 0.318929
211.720428 140.382599 0.632297 0.256794
211.322296 138.685211 0.000005 0.308934
211.613602 139.927185 0.000002 0.284489
211.882233 141.274582 3.656084 0.247059
212.154861 142.401550 3.177517 0.428672
208.572083 127.592072 5.764433 0.252064
210.435593 135.294907 3.893306 1.000000
208.543411 127.473572 4.394067 0.272679
210.384949 135.085587 3.064218 0.219394
207.436096 122.896461 3.253705 0.258824
207.357574 122.571945 2.423066 0.258824
207.035965 121.242554 1.554551 0.342901
211.472427 139.580658 1.589582 0.258824
207.701401 123.993118 0.000013 0.275090
209.348892 130.803070 0.000010 0.320760
210.266464 134.595856 0.000007 0.350607
210.852264 137.017242 0.000006 0.277440
211.259415 138.700195 0.000004 0.269276
211.559387 139.940109 0.000003 0.293385
211.838440 141.289780 3.655006 0.278431
210.657043 136.551422 4.481723 0.609186
210.364761 135.379181 4.310607 0.510750
210.396606 135.506866 3.864154 0.186908
211.957825 141.768600 2.703321 0.258824
210.305161 135.140152 3.061433 0.204044
nan nan nan 0.000000
nan nan nan 0.000000
nan nan nan 0.000000
211.406891 139.558929 1.587777 0.258824
207.536026 124.033737 0.000013 0.288273
209.231033 130.832016 0.000010 0.301686
210.175064 134.618317 0.000007 0.289479
210.777740 137.035538 0.000006 0.272374
211.196625 138.715607 0.000004 0.282643
211.505249 139.953400 0.000002 0.287724
212.077148 142.404953 3.369534 0.258824
212.093658 142.469223 3.166532 0.548379
210.285339 135.426300 4.305840 0.531380
212.097473 142.484116 2.798902 0.258824
211.909622 141.752441 2.706483 0.258824
211.923019 141.804672 2.499125 0.258824
nan nan nan 0.000000
206.880142 122.163956 2.431435 0.435111
nan nan nan 0.000000
211.341675 139.540466 1.586112 0.258824
207.370941 124.075500 0.000014 0.287861
209.113373 130.861786 0.000010 0.289067
210.083801 134.641403 0.000007 0.311574
210.703354 137.054367 0.000006 0.250477
211.133957 138.731461 0.000004 0.295460
211.451202 139.967072 0.000002 0.294041
212.039673 142.412567 3.370056 0.258824
212.056625 142.476700 3.166986 0.300008
210.206070 135.472626 4.301316 0.600458
212.052521 142.461151 2.803879 0.258824
211.861801 141.739319 2.709331 0.258824
211.876450 141.794739 2.500876 0.258824
nan nan nan 0.000000
206.554016 121.650162 2.440917 0.258824
211.918472 141.953812 1.902732 0.258824
211.407471 140.019745 1.609712 0.258824
207.206161 124.118431 0.000013 0.271427
208.995911 130.892380 0.000010 0.278126
209.992722 134.665131 0.000007 0.324300
210.629089 137.073700 0.000006 0.300618
211.071396 138.747757 0.000005 0.263142
211.397263 139.981125 0.000002 0.304433
212.226715 143.246582 3.156135 0.258824
212.019699 142.484665 3.167387 0.251789
210.127213 135.519165 4.296853 0.307210
212.008881 142.444839 2.807892 0.258824
207.990280 127.653923 4.389796 0.535317
211.829605 141.784973 2.502643 0.258824
211.670090 141.197891 2.331042 0.258824
nan nan nan 0.000000
206.025650 120.422897 1.537447 0.258824
206.216019 121.123566 0.647019 0.239384
207.041687 124.162506 0.000013 0.299123
208.878677 130.923798 0.000010 0.281147
209.901794 134.689484 0.000007 0.250370
210.554977 137.093567 0.000006 0.300938
211.008957 138.764496 0.000004 0.258869
211.343430 139.995560 0.000003 0.261448
212.201736 143.276962 3.150462 0.258824
211.978714 142.478165 3.171093 0.258824
210.048660 135.565475 4.292522 0.478614
211.967957 142.439667 2.810244 0.258824
212.012543 142.599365 2.609303 0.258824
nan nan nan 0.000000
211.634842 141.246582 2.329195 0.258824
211.558762 140.974091 2.114283 0.258824
205.798874 120.344498 1.535225 0.258824
202.488998 108.489868 0.000023 0.292973
206.877502 124.207726 0.000013 0.304250
208.761673 130.956024 0.000009 0.291997
209.811050 134.714493 0.000007 0.285145
210.480988 137.113953 0.000006 0.267567
210.946625 138.781662 0.000005 0.246906
211.289688 140.010361 0.000003 0.355291
212.177048 143.307175 3.144864 0.258824
211.937119 142.470459 3.175138 0.258824
209.970352 135.611526 4.288341 0.394034
211.960709 142.552704 2.794403 0.253773
209.982651 135.654404 3.441658 0.230060
209.912231 135.408844 3.048489 0.286091
211.750580 141.819931 2.300545 0.361700
nan nan nan 0.000000
nan nan nan 0.000000
202.215530 108.567230 0.000022 0.292393
206.713654 124.254089 0.000013 0.290486
208.644882 130.989075 0.000009 0.277531
209.720474 134.740112 0.000007 0.280339
210.407150 137.134842 0.000006 0.306096
210.884415 138.799255 0.000004 0.313878
211.236053 140.025528 0.000002 0.341207
212.152588 143.337097 3.139375 0.258824
211.895203 142.462570 3.179302 0.258824
209.899048 135.680237 4.279953 0.256718
209.912628 135.726364 3.851551 0.271427
211.635284 141.579453 2.734056 0.214343
209.834763 135.461777 3.046093 0.251408
211.703171 141.810120 2.301657 0.359991
211.464233 140.998260 2.114329 0.258824
211.360809 140.646835 1.879676 0.258824
211.750031 141.969330 1.706496 0.258824
206.550140 124.301590 0.000013 0.297398
208.528336 131.022934 0.000009 0.315022
209.630081 134.766373 0.000007 0.345083
210.333466 137.156250 0.000006 0.291630
210.822342 138.817307 0.000005 0.278767
211.182526 140.041077 0.000002 0.263478
211.529633 141.383652 3.652877 0.258824
207.743881 128.844604 6.254088 0.283238
210.002289 136.324829 4.162189 0.230289
207.630447 128.468903 4.979948 0.230640
211.602539 141.625092 2.730099 0.258824
207.493698 128.015991 3.686012 0.240314
207.403015 127.715614 3.025575 0.329595
211.671860 141.854691 2.099928 0.258824
211.310822 140.658920 1.879632 0.258824
211.703781 141.960464 1.705429 0.258824
206.386948 124.350243 0.000013 0.295628
208.412018 131.057602 0.000009 0.289631
209.539886 134.793259 0.000007 0.316106
210.259933 137.178162 0.000006 0.297124
210.760391 138.835770 0.000004 0.284199
211.129105 140.057007 0.000002 0.326375
211.596558 141.755600 3.558879 0.344442
207.153992 127.404030 6.588876 0.255329
209.743561 135.769577 4.272569 0.606714
205.843521 123.170563 5.809044 0.258824
211.570328 141.670868 2.726147 0.258824
207.294006 127.856346 3.703316 0.298421
211.607300 141.790314 2.303951 0.258824
211.624222 141.845001 2.100307 0.258824
nan nan nan 0.000000
201.398438 108.810822 0.000022 0.295796
206.224106 124.400032 0.000013 0.289235
208.295959 131.093094 0.000009 0.305699
209.449875 134.820786 0.000007 0.293797
210.186539 137.200607 0.000006 0.286091
210.698563 138.854675 0.000004 0.290150
211.075790 140.073303 0.000002 0.272938
211.948486 143.008743 3.232982 0.258824
209.554886 135.463150 4.772847 0.242527
211.781479 142.482254 2.996153 0.296818
211.794601 142.523621 2.805655 0.258824
211.538483 141.716248 2.722261 0.258824
207.186142 127.995911 3.695041 0.192157
211.558777 141.780228 2.305136 0.258824
211.576233 141.835220 2.100695 0.282353
nan nan nan 0.000000
201.127243 108.895828 0.000022 0.291539
206.061615 124.450951 0.000013 0.300587
208.180145 131.129379 0.000009 0.280293
209.360046 134.848938 0.000007 0.316884
210.113327 137.223557 0.000006 0.355962
210.636871 138.874008 0.000005 0.258885
211.022598 140.089981 0.000003 0.302296
211.922043 143.038544 3.227900 0.258824
206.996582 127.879524 6.501265 0.260227
211.738800 142.474564 2.999859 0.309560
211.752335 142.516220 2.808617 0.258824
207.257751 128.683334 4.300355 0.513527
211.491531 141.713547 2.516180 0.258824
211.509888 141.770035 2.306347 0.258824
211.303391 141.134521 2.112977 0.258824
nan nan nan 0.000000
200.856628 108.982697 0.000022 0.291112
205.899475 124.503006 0.000013 0.292088
208.064575 131.166489 0.000009 0.267185
209.270432 134.877716 0.000007 0.308125
210.040253 137.247009 0.000006 0.255528
210.575317 138.893768 0.000005 0.299611
210.969528 140.107010 0.000002 0.311696
211.653076 142.338440 3.415538 0.258824
209.557571 136.039093 4.654360 0.608576
209.619141 136.224197 4.200723 0.584802
211.709747 142.508759 2.811641 0.258824
211.611801 142.214355 2.665156 0.265080
211.441681 141.702942 2.518282 0.258824
209.449509 135.714249 2.620582 0.251896
211.268860 141.183441 2.112394 0.258824
nan nan nan 0.000000
200.586624 109.071472 0.000022 0.294774
205.737717 124.556183 0.000013 0.291859
207.949280 131.204391 0.000009 0.306798
209.181000 134.907104 0.000007 0.320348
209.967361 137.270981 0.000006 0.271931
210.513901 138.913956 0.000004 0.274067
210.916580 140.124420 0.000002 0.319127
211.387512 141.680756 3.592892 0.215686
209.476196 136.066299 4.654397 0.537301
209.508804 136.162079 4.217841 0.552331
211.666840 142.501251 2.814726 0.258824
211.680817 142.542313 2.626865 0.258824
207.316711 129.722839 3.557174 0.480064
206.793533 128.186050 3.012721 0.290196
211.432205 141.812057 2.101791 0.290074
nan nan nan 0.000000
200.317261 109.162117 0.000022 0.294240
205.576324 124.610504 0.000013 0.288304
207.834244 131.243103 0.000009 0.290639
209.091797 134.937134 0.000007 0.283818
209.894638 137.295456 0.000005 0.252522
210.452637 138.934570 0.000004 0.280354
210.863754 140.142212 0.000002 0.255100
211.333801 141.661530 3.601825 0.262135
211.593704 142.407837 3.210474 0.258824
209.794159 137.240265 4.015440 0.257130
206.776947 128.575989 5.003969 0.239185
207.043320 129.340942 4.236520 0.233921
nan nan nan 0.000000
211.333328 141.660141 2.314230 0.487007
211.200882 141.279816 2.111259 0.258824
203.274887 118.519485 1.494356 0.237675
200.048538 109.254654 0.000022 0.291051
205.415314 124.665939 0.000014 0.284962
207.719482 131.282623 0.000009 0.308354
209.002792 134.967773 0.000007 0.288304
209.822083 137.320435 0.000005 0.275837
210.391510 138.955627 0.000004 0.271092
210.811035 140.160355 0.000002 0.304448
211.964523 143.565887 3.099412 0.258824
209.658997 137.091202 4.432364 0.278431
211.564880 142.443542 3.015401 0.258824
209.750595 137.348450 3.630055 0.230808
211.384262 141.936310 2.703923 0.258824
211.418808 142.033325 2.493278 0.258824
211.315430 141.742996 2.310684 0.258824
211.167404 141.327286 2.110708 0.258824
206.572510 128.423355 1.665145 0.177661
199.780457 109.349045 0.000022 0.291859
205.254700 124.722504 0.000013 0.295369
207.605011 131.322937 0.000009 0.286183
208.914017 134.999039 0.000007 0.276371
209.749695 137.345917 0.000005 0.329992
210.330536 138.977097 0.000004 0.252430
210.758469 140.178864 0.000002 0.286931
211.574951 142.585144 3.363609 0.258824
211.700104 142.928970 3.096730 0.258824
209.642487 137.275726 4.018620 0.289845
211.536102 142.478378 2.824370 0.326711
209.422226 136.670547 3.350349 0.241337
211.388687 142.073364 2.491025 0.258824
211.267136 141.739395 2.311654 0.258824
211.134247 141.374298 2.110168 0.258824
206.412674 128.401901 1.663929 0.541161
206.419403 128.420364 0.992031 0.534310
206.436752 128.468048 0.321807 0.548043
207.490814 131.364059 0.000009 0.267445
208.825439 135.030930 0.000007 0.282353
209.677505 137.371918 0.000006 0.295201
210.269714 138.998993 0.000004 0.251530
210.706024 140.197754 0.000002 0.271000
211.168915 141.602356 3.629764 0.258824
211.674072 142.960663 3.092247 0.262730
209.566574 137.293777 4.020307 0.257588
209.283752 136.533295 3.767368 0.223529
209.136063 136.136200 3.419408 0.525856
209.132141 136.125641 3.012607 0.544121
211.218536 141.735764 2.312645 0.258824
211.241928 141.798660 2.103043 0.258824
209.070084 135.958771 1.794999 0.523140
209.070541 135.959976 1.384622 0.558114
209.073959 135.969162 0.973704 0.534615
209.086914 136.004013 0.564368 0.529686
209.101212 136.042480 0.154954 0.549630
209.605484 137.398407 0.000006 0.294270
210.209030 139.021317 0.000003 0.257923
210.653702 140.216995 0.000002 0.308141
211.537582 142.700775 3.339722 0.244663
nan nan nan 0.000000
209.490601 137.312057 4.022058 0.274205
209.140640 136.390778 3.794626 0.235294
208.674911 135.164764 3.542683 0.186526
206.223221 128.710648 3.665649 0.238117
209.030899 136.101883 2.609538 0.556603
209.023895 136.083450 2.203357 0.546975
211.217072 141.857025 1.897708 0.258824
211.240067 141.917587 1.696088 0.258824
209.013321 136.055603 0.978590 0.536278
209.022110 136.078751 0.569794 0.548760
209.031937 136.104630 0.159967 0.557610
209.533661 137.425415 0.000006 0.347372
210.148514 139.044052 0.000002 0.264530
210.601532 140.236603 0.000002 0.330785
211.055634 141.561508 3.649406 0.290196
209.367218 137.208527 4.430579 0.300282
208.317642 134.502533 4.575802 0.249714
211.393784 142.433319 2.838053 0.258824
211.407150 142.467758 2.645696 0.385489
nan nan nan 0.000000
208.852600 135.881760 2.622772 0.230762
208.921280 136.058807 2.204335 0.562310
211.169037 141.853882 1.897379 0.258824
208.928162 136.076538 1.387491 0.556313
208.931061 136.084015 0.978348 0.580392
208.942001 136.112213 0.570085 0.556161
208.951981 136.137985 0.160336 0.536522
209.462021 137.452911 0.000005 0.292866
210.088165 139.067230 0.000002 0.291783
210.549484 140.256577 0.000002 0.324605
210.995224 141.533783 3.661392 0.258824
206.465927 130.094116 6.089854 0.305776
211.331238 142.382462 3.040766 0.258824
211.345322 142.418060 2.842785 0.258824
211.359070 142.452789 2.649317 0.247059
211.372543 142.486786 2.459803 0.258824
205.667542 128.077606 3.036828 0.416922
208.748093 135.858200 2.208426 0.634089
211.120712 141.850754 1.897042 0.258824
198.450333 109.849030 0.000022 0.294652
204.457764 125.022049 0.000013 0.292912
208.831726 136.069443 0.560874 0.548409
208.846436 136.106598 0.150288 0.595468
209.390564 137.480911 0.000005 0.281514
210.027969 139.090820 0.000002 0.329427
210.497589 140.276917 0.000002 0.246677
211.486542 142.873444 3.304116 0.258824
208.921585 136.524994 4.603276 0.308186
211.281631 142.366272 3.046853 0.258824
211.296097 142.402084 2.847696 0.258824
211.310257 142.437149 2.653074 0.247059
211.324112 142.471451 2.462445 0.258824
211.114548 141.952759 2.304553 0.258824
208.789230 136.197403 2.203022 0.212955
202.415817 120.422623 1.518568 0.290196
198.186432 109.954559 0.000022 0.290211
204.299652 125.085297 0.000013 0.287373
206.924301 131.581512 0.000009 0.283162
208.386093 135.199585 0.000007 0.264881
209.319321 137.509399 0.000005 0.268040
209.967957 139.114822 0.000003 0.318791
210.445831 140.297623 0.000002 0.329717
211.469803 142.928253 3.292990 0.258824
208.854950 136.584106 4.596893 0.238849
204.795715 126.735680 6.126034 0.221973
208.677536 136.153702 3.852618 0.273350
211.261093 142.421860 2.656839 0.247059
205.015564 127.269066 3.812020 0.223529
211.084412 141.993225 2.303272 0.247425
208.603821 135.974854 2.207540 0.291218
211.023010 141.844223 1.896344 0.431006
197.923294 110.061958 0.000022 0.292485
204.141983 125.149628 0.000013 0.291203
206.811920 131.627380 0.000009 0.306065
208.298935 135.235138 0.000007 0.299825
209.248276 137.538406 0.000005 0.310842
209.908096 139.139252 0.000002 0.330709
210.394226 140.318680 0.000002 0.307347
211.453339 142.982056 3.282134 0.258824
207.603256 133.823090 5.251319 0.474403
208.045822 134.875900 4.531336 0.227161
205.052704 127.755531 5.209349 0.290806
211.211319 142.406311 2.660691 0.258824
208.436188 135.804550 3.058103 0.611765
211.054535 142.033356 2.302016 0.258824
nan nan nan 0.000000
201.642853 119.643845 1.501966 0.275486
197.660919 110.171173 0.000022 0.292668
203.984787 125.215065 0.000013 0.288838
206.699875 131.674011 0.000009 0.283375
208.212036 135.271317 0.000006 0.291585
209.177429 137.567886 0.000005 0.250401
209.848419 139.164093 0.000002 0.326955
210.342758 140.340103 0.000002 0.335958
211.436859 143.034317 3.271695 0.258824
208.315430 135.751465 4.807836 0.517128
207.977890 134.963943 4.521420 0.385245
204.965805 127.936211 5.189715 0.243702
211.126083 142.309235 2.674802 0.258824
208.325485 135.774948 3.063883 0.226108
208.300400 135.716400 2.640547 0.507485
210.871902 141.716202 2.106545 0.262623
nan nan nan 0.000000
197.399292 110.282211 0.000022 0.291661
203.828033 125.281601 0.000013 0.301472
206.588150 131.721436 0.000009 0.301259
208.125397 135.308090 0.000007 0.320348
209.106796 137.597870 0.000005 0.306203
209.788910 139.189346 0.000002 0.309255
210.291458 140.361877 0.000001 0.269291
207.500580 134.113068 5.714159 0.246601
208.202988 135.720825 4.823554 0.411841
207.909943 135.050064 4.511949 0.324910
208.404404 136.181839 3.864607 0.278737
207.801956 134.802902 3.619193 0.475273
208.213455 135.744766 3.069803 0.235630
208.189392 135.689697 2.643916 0.582605
210.836777 141.749313 2.106276 0.258824
210.874039 141.834595 1.895247 0.246693
197.138458 110.395103 0.000022 0.296635
203.671753 125.349228 0.000012 0.287312
206.476761 131.769638 0.000009 0.278630
208.039001 135.345474 0.000007 0.289433
209.036377 137.628357 0.000005 0.270863
209.729568 139.215027 0.000002 0.272648
210.240295 140.384018 0.000001 0.277699
207.458755 134.273636 5.681585 0.244953
207.478058 134.316986 5.164153 0.651743
207.496552 134.358505 4.657434 0.244984
208.312561 136.191315 3.868819 0.235294
207.780945 134.997284 3.599709 0.402182
211.075119 142.396133 2.476109 0.258824
210.966354 142.151840 2.298394 0.258824
210.801804 141.782242 2.106014 0.258824
210.823471 141.830902 1.894858 0.258824
196.878403 110.509766 0.000021 0.292180
203.515945 125.417946 0.000013 0.292546
206.365707 131.818619 0.000009 0.285740
207.952881 135.383469 0.000007 0.331029
208.966156 137.659317 0.000005 0.346227
209.670425 139.241119 0.000002 0.300908
210.189285 140.406525 0.000001 0.338384
211.705734 143.884430 3.049672 0.218387
207.438232 134.476761 5.136205 0.259342
207.457214 134.518616 4.633796 0.368277
208.220306 136.200836 3.873142 0.278431
207.756866 135.179199 3.581755 0.285710
211.026917 142.387985 2.478338 0.258824
208.244629 136.254486 2.617465 0.209827
nan nan nan 0.000000
nan nan nan 0.000000
210.801392 141.890793 1.686587 0.258824
203.360626 125.487747 0.000013 0.286213
206.255005 131.868362 0.000009 0.312078
207.867020 135.422043 0.000007 0.259205
208.896164 137.690765 0.000005 0.251377
209.611450 139.267609 0.000002 0.313542
210.138443 140.429367 0.000001 0.326406
208.478973 136.970825 4.960730 0.300984
207.398758 134.633026 5.109067 0.290196
211.287231 143.048447 2.932498 0.265202
208.127609 136.210388 3.877577 0.550729
207.736633 135.364258 3.563368 0.581430
210.978378 142.380051 2.480587 0.258824
207.849014 135.607468 2.654456 0.556161
204.237061 127.790474 2.358908 0.230182
210.721649 141.824417 1.894073 0.258824
210.750793 141.887497 1.685404 0.258824
203.205795 125.558640 0.000013 0.292638
206.144653 131.918900 0.000009 0.275731
207.781448 135.461227 0.000007 0.299397
208.826401 137.722717 0.000005 0.278843
209.552673 139.294525 0.000002 0.293828
210.087769 140.452576 0.000002 0.284138
207.785370 135.690659 5.324780 0.283879
207.359970 134.786621 5.082542 0.330190
211.262924 143.080826 2.929027 0.258824
208.034409 136.219864 3.882145 0.311513
207.714355 135.539719 3.546157 0.416739
210.929398 142.372055 2.482878 0.258824
207.733047 135.579468 2.658111 0.480842
210.697495 141.879242 2.105281 0.258824
210.670013 141.820816 1.893662 0.258824
210.699829 141.884186 1.684199 0.258824
203.051468 125.630600 0.000013 0.296757
206.034653 131.970184 0.000009 0.283619
207.696136 135.501007 0.000006 0.268513
208.756851 137.755142 0.000005 0.319326
209.494080 139.321838 0.000002 0.256367
210.037247 140.476135 0.000001 0.249638
207.302185 134.896622 5.556365 0.232807
207.321838 134.937622 5.056612 0.283711
211.239075 143.113525 2.925514 0.258824
207.940765 136.229431 3.886821 0.277058
207.694794 135.716064 3.528796 0.437232
210.879929 142.363937 2.485219 0.258824
203.821640 127.632149 3.093221 0.323812
210.663177 141.911530 2.105045 0.258824
210.617981 141.817215 1.893244 0.258824
210.648483 141.880890 1.682971 0.258824
202.897644 125.703644 0.000013 0.285039
205.925018 132.022247 0.000009 0.285710
207.611099 135.541382 0.000006 0.342809
208.687531 137.788055 0.000005 0.338399
209.435684 139.349579 0.000002 0.348867
209.986893 140.500046 0.000002 0.285130
207.264969 135.046432 5.526637 0.241535
207.284805 135.087097 5.031028 0.258824
207.303146 135.124710 4.545938 0.519158
207.400208 135.323700 4.042682 0.257099
207.672684 135.882370 3.512677 0.278859
210.829803 142.355423 2.487637 0.220447
201.952728 124.154716 3.286989 0.304723
203.658478 127.652023 2.365016 0.697551
nan nan nan 0.000000
210.597183 141.878479 1.681767 0.258824
202.744339 125.777756 0.000012 0.297459
205.815750 132.075073 0.000009 0.268833
207.526367 135.582352 0.000007 0.317220
208.618439 137.821457 0.000005 0.298070
209.377487 139.377716 0.000002 0.286107
209.936707 140.524292 0.000001 0.339803
207.228119 135.193253 5.497716 0.257481
207.271835 135.281311 4.994627 0.219867
203.331131 127.342812 6.135523 0.445930
207.381195 135.501617 4.020246 0.284688
210.756577 142.301270 2.693472 0.258824
210.779327 142.347122 2.490075 0.225513
201.810654 124.279831 3.284556 0.206943
207.397522 135.534500 2.222266 0.274754
210.513916 141.812454 1.892427 0.258824
210.551895 141.888947 1.681246 0.258824
202.591553 125.852936 0.000013 0.298390
205.706848 132.128662 0.000009 0.267277
207.441910 135.623917 0.000007 0.345205
208.549591 137.855331 0.000005 0.331060
209.319473 139.406250 0.000002 0.275364
209.886688 140.548904 0.000001 0.317433
207.191833 135.337631 5.469446 0.239612
207.147675 135.250214 5.012643 0.160784
203.139481 127.315338 6.155609 0.344152
207.362564 135.675598 3.998408 0.229847
210.705002 142.292511 2.697030 0.258824
210.728333 142.338699 2.492564 0.290196
207.255844 135.464340 2.673473 0.521126
203.261505 127.556915 2.369299 0.192157
210.470856 141.828995 1.892354 0.258824
210.509415 141.905319 1.681031 0.258824
202.439285 125.929184 0.000012 0.295628
205.598312 132.182999 0.000009 0.319295
207.357742 135.666061 0.000007 0.297887
208.480972 137.889694 0.000005 0.324147
209.261673 139.435196 0.000002 0.281727
209.836853 140.573868 0.000001 0.294697
nan nan nan 0.000000
207.022018 135.218750 5.031016 0.160723
207.195190 135.555695 4.484611 0.375280
207.067459 135.307159 4.066977 0.582818
210.652908 142.283676 2.700655 0.258824
210.676788 142.330154 2.495107 0.247059
201.651428 124.768723 3.266644 0.254108
210.387604 141.767456 2.109162 0.258824
210.427765 141.845596 1.892275 0.258824
194.828171 111.492081 0.000021 0.290288
202.287567 126.006485 0.000012 0.287114
205.490173 132.238098 0.000009 0.273869
207.273865 135.708786 0.000007 0.316945
208.412613 137.924530 0.000005 0.304646
209.204071 139.464554 0.000002 0.258595
209.787186 140.599182 0.000001 0.307652
nan nan nan 0.000000
207.139191 135.654343 4.935844 0.361044
207.157516 135.689392 4.466165 0.459419
nan nan nan 0.000000
210.600296 142.274841 2.704344 0.258824
210.624756 142.321625 2.497692 0.258824
201.533585 124.931816 3.262195 0.261555
210.343643 141.783905 2.109254 0.258824
210.384293 141.861633 1.892181 0.316579
201.199860 124.293457 0.702417 0.571328
202.136383 126.084854 0.000012 0.300633
205.382416 132.293961 0.000009 0.297063
207.190308 135.752106 0.000006 0.285481
208.344482 137.959839 0.000005 0.286488
209.146667 139.494308 0.000002 0.251392
209.737701 140.624832 0.000001 0.326223
206.741013 135.107620 5.572572 0.643397
207.104599 135.791428 4.913139 0.258824
207.123276 135.826538 4.446998 0.262257
207.312836 136.183044 3.934971 0.252567
210.720963 142.592819 2.665510 0.322484
201.009308 124.327843 4.170528 0.290959
206.882645 135.373993 2.685852 0.557839
210.299667 141.800476 2.109350 0.258824
210.340988 141.878189 1.892090 0.275731
194.324432 111.755432 0.000021 0.297230
201.985748 126.164268 0.000012 0.295262
205.275070 132.350571 0.000009 0.285603
207.107040 135.796005 0.000006 0.282780
208.276596 137.995636 0.000005 0.280766
209.089493 139.524460 0.000002 0.285771
209.688385 140.650818 0.000001 0.322118
nan nan nan 0.000000
207.071930 135.928986 4.890291 0.264836
206.660141 135.167389 4.592522 0.211185
207.298325 136.347687 3.914465 0.377234
210.683273 142.608032 2.666017 0.258824
200.855057 124.431122 4.169042 0.290196
206.755280 135.343353 2.690135 0.636118
210.255798 141.817413 2.109445 0.258824
200.885620 124.487640 1.568173 0.245762
194.073959 111.889740 0.000021 0.291218
201.835678 126.244743 0.000013 0.291585
205.168091 132.407913 0.000008 0.279698
207.024078 135.840485 0.000007 0.290852
208.208969 138.031891 0.000005 0.260395
209.032516 139.555008 0.000002 0.366583
209.639267 140.677170 0.000001 0.264286
nan nan nan 0.000000
207.037857 136.060928 4.868794 0.246418
nan nan nan 0.000000
207.282089 136.505188 3.895104 0.495888
210.647552 142.626953 2.666074 0.258824
nan nan nan 0.000000
206.626160 135.312042 2.694521 0.236622
nan nan nan 0.000000
201.209274 125.458771 1.584661 0.228855
193.824417 112.025772 0.000021 0.290776
201.686172 126.326256 0.000013 0.290166
205.061539 132.466019 0.000009 0.303761
206.941437 135.885544 0.000006 0.344350
208.141602 138.068634 0.000005 0.315953
208.975754 139.585953 0.000002 0.293172
209.590332 140.703842 0.000001 0.242130
206.342453 135.006714 5.642558 1.000000
207.004898 136.192032 4.847479 0.274876
nan nan nan 0.000000
207.265182 136.657761 3.876527 0.294087
206.446136 135.192261 3.648460 0.332723
nan nan nan 0.000000
206.495392 135.280380 2.698997 0.245380
198.103012 120.263977 2.514332 0.290196
201.098190 125.623215 1.586133 0.177829
193.575836 112.163567 0.000021 0.291173
201.537231 126.408806 0.000012 0.314366
204.955383 132.524857 0.000009 0.305562
206.859116 135.931183 0.000006 0.251408
208.074478 138.105835 0.000005 0.275685
208.919205 139.617294 0.000002 0.309636
209.541565 140.730865 0.000001 0.257877
206.210358 134.979736 5.664688 0.426322
206.233215 135.019974 5.149838 0.175479
206.990051 136.352249 4.374845 0.283421
207.249451 136.808853 3.858144 0.258824
nan nan nan 0.000000
197.954697 120.447144 4.570068 0.245441
206.362915 135.248276 2.703566 0.791897
200.175720 124.356834 2.439331 0.221302
200.259766 124.504807 1.563453 0.232654
197.899170 120.349411 0.454642 0.216556
201.388885 126.492393 0.000012 0.282856
204.849640 132.584442 0.000008 0.290349
206.777115 135.977386 0.000007 0.334417
208.007629 138.143494 0.000005 0.291493
208.862885 139.649033 0.000002 0.250919
209.493011 140.758240 0.000001 0.247410
nan nan nan 0.000000
nan nan nan 0.000000
206.123489 135.033524 4.661428 0.524742
207.235611 136.959793 3.839737 0.274693
nan nan nan 0.000000
nan nan nan 0.000000
206.228928 135.216171 2.708205 0.283055
197.944946 120.867882 2.507017 0.290196
200.201614 124.776558 1.566839 0.267948
193.081604 112.444328 0.000021 0.289387
201.241119 126.577026 0.000012 0.299580
204.744324 132.644745 0.000008 0.291402
206.695435 136.024170 0.000006 0.270253
207.941040 138.181641 0.000005 0.265980
208.806793 139.681152 0.000002 0.309392
209.444641 140.785934 0.000001 0.253971
205.951782 134.942657 5.705120 0.427756
205.956543 134.950775 5.192662 0.295735
nan nan nan 0.000000
210.714798 143.061035 2.797929 0.258824
nan nan nan 0.000000
nan nan nan 0.000000
197.584763 120.681427 3.538956 0.261143
199.829483 124.507469 2.440030 0.257267
199.926895 124.673492 1.563120 0.314977
192.835953 112.587296 0.000020 0.291142
201.093948 126.662682 0.000012 0.302327
204.639420 132.705811 0.000009 0.298604
206.614075 136.071518 0.000006 0.323491
207.874710 138.220230 0.000003 0.293156
208.750916 139.713669 0.000001 0.256306
209.396454 140.813980 0.000001 0.329763
205.820297 134.923767 5.725955 0.218723
nan nan nan 0.000000
nan nan nan 0.000000
207.205124 137.246841 3.805298 0.268727
nan nan nan 0.000000
nan nan nan 0.000000
205.954941 135.149628 2.717837 0.202319
nan nan nan 0.000000
197.827133 121.515106 1.501143 0.730526
192.591324 112.731956 0.000020 0.292042
200.947372 126.749359 0.000012 0.290990
204.534958 132.767593 0.000008 0.316014
206.533051 136.119431 0.000006 0.327016
207.808670 138.259293 0.000002 0.275624
208.695267 139.746582 0.000001 0.261051
209.348480 140.842346 0.000001 0.281605
205.687500 134.904968 5.747124 0.283406
nan nan nan 0.000000
nan nan nan 0.000000
205.730499 134.975952 4.206701 0.225177
nan nan nan 0.000000
nan nan nan 0.000000
nan nan nan 0.000000
205.842850 135.161469 2.239887 0.134371
196.968369 120.507980 1.479779 0.262928
192.347702 112.878349 0.000020 0.291814
200.801407 126.837067 0.000012 0.295109
204.430923 132.830093 0.000008 0.303319
206.452377 136.167908 0.000006 0.275273
207.742889 138.298813 0.000003 0.265126
208.639862 139.779877 0.000001 0.247486
209.300705 140.871063 0.000001 0.334752
205.552948 134.885559 5.768833 0.252186
nan nan nan 0.000000
206.904556 137.082565 4.268368 0.227665
nan nan nan 0.000000
nan nan nan 0.000000
205.645142 135.035400 3.219278 0.231525
205.673645 135.081741 2.727848 0.285924
205.701904 135.127670 2.241560 0.943206
196.769638 120.608498 1.479488 0.216709
192.105118 113.026428 0.000020 0.291203
200.656067 126.925789 0.000012 0.294743
204.327316 132.893326 0.000008 0.282399
206.372025 136.216949 0.000006 0.294606
207.677399 138.338791 0.000002 0.247837
208.584671 139.813553 0.000002 0.368872
209.253128 140.900101 0.000001 0.266987
205.416977 134.866165 5.790912 0.276967
nan nan nan 0.000000
205.410126 134.855209 4.756104 0.192157
nan nan nan 0.000000
nan nan nan 0.000000
nan nan nan 0.000000
nan nan nan 0.000000
nan nan nan 0.000000
nan nan nan 0.000000
191.863556 113.176193 0.000020 0.291920
200.511337 127.015518 0.000012 0.294850
204.224167 132.957291 0.000008 0.287663
206.292023 136.266556 0.000006 0.307698
207.612183 138.379227 0.000003 0.270726
208.529724 139.847626 0.000002 0.263813
209.205750 140.929474 0.000001 0.285481
nan nan nan 0.000000
nan nan nan 0.000000
nan nan nan 0.000000
205.292999 134.867996 4.254511 0.129412
nan nan nan 0.000000
205.354309 134.964615 3.236837 0.192157
nan nan nan 0.000000
nan nan nan 0.000000
nan nan nan 0.000000
191.623062 113.327629 0.000020 0.293584
200.367249 127.106255 0.000012 0.291112
204.121475 133.021973 0.000008 0.310811
206.212372 136.316711 0.000006 0.312139
207.547241 138.420120 0.000002 0.343236
208.475021 139.882080 0.000001 0.305623
209.158585 140.959183 0.000001 0.332067
nan nan nan 0.000000
205.135284 134.819138 5.309844 0.562188
205.130478 134.811691 4.790059 0.384466
205.142868 134.830917 4.271145 0.910964
nan nan nan 0.000000
205.205627 134.928284 3.245916 0.346471
nan nan nan 0.000000
nan nan nan 0.000000
nan nan nan 0.000000
191.383636 113.480774 0.000020 0.292027
200.223785 127.197998 0.000012 0.291066
204.019226 133.087357 0.000008 0.306600
206.133087 136.367432 0.000006 0.265843
207.482590 138.461456 0.000003 0.263737
208.420563 139.916901 0.000002 0.264439
209.111618 140.989212 0.000001 0.304204
204.998932 134.806168 5.859994 0.259403
204.994049 134.798706 5.330156 0.280110
204.989120 134.791168 4.807197 0.556939
204.990540 134.793350 4.288123 0.182589
nan nan nan 0.000000
205.055099 134.891998 3.255133 0.802228
nan nan nan 0.000000
nan nan nan 0.000000
nan nan nan 0.000000
191.145264 113.635559 0.000020 0.292973
200.080978 127.290741 0.000011 0.296086
203.917435 133.153458 0.000008 0.296101
206.054138 136.418686 0.000006 0.313512
207.418243 138.503250 0.000002 0.292515
208.366348 139.952118 0.000001 0.263325
209.064865 141.019577 0.000001 0.274037
nan nan nan 0.000000
nan nan nan 0.000000
nan nan nan 0.000000
nan nan nan 0.000000
nan nan nan 0.000000
204.901611 134.854080 3.264657 0.905882
nan nan nan 0.000000
203.354446 132.525436 2.298139 0.199710
nan nan nan 0.000000
190.907990 113.792000 0.000020 0.294820
199.938812 127.384483 0.000012 0.301213
203.816101 133.220276 0.000008 0.289296
205.975555 136.470505 0.000006 0.287953
207.354172 138.545486 0.000002 0.327672
208.312378 139.987701 0.000001 0.258534
209.018341 141.050262 0.000001 0.328450
204.710999 134.764053 5.908691 0.383886
204.706635 134.757568 5.371911 0.412207
204.701614 134.750122 4.842369 0.192157
nan nan nan 0.000000
nan nan nan 0.000000
nan nan nan 0.000000
nan nan nan 0.000000
203.217087 132.549240 2.299066 0.268147
nan nan nan 0.000000
190.671829 113.950119 0.000020 0.293751
199.797318 127.479210 0.000012 0.291981
203.715256 133.287796 0.000009 0.283909
205.897339 136.522873 0.000006 0.287480
207.290405 138.588181 0.000002 0.327901
208.258652 140.023666 0.000002 0.287404
208.972015 141.081268 0.000001 0.321096
nan nan nan 0.000000
204.560165 134.736588 5.393439 0.266667
204.555054 134.729126 4.860518 0.197055
nan nan nan 0.000000
nan nan nan 0.000000
nan nan nan 0.000000
nan nan nan 0.000000
203.138260 132.659943 2.298292 0.609735
nan nan nan 0.000000
190.436752 114.109863 0.000020 0.292073
199.656464 127.574921 0.000011 0.285252
203.614868 133.356003 0.000008 0.279561
205.819489 136.575775 0.000006 0.275669
207.226944 138.631317 0.000002 0.312428
208.205185 140.059998 0.000001 0.285084
208.925903 141.112595 0.000001 0.291188
nan nan nan 0.000000
nan nan nan 0.000000
204.406586 134.707809 4.879053 0.613062
nan nan nan 0.000000
nan nan nan 0.000000
202.355835 131.757172 3.592027 0.219730
202.817764 132.421783 2.914088 0.306615
203.107773 132.839066 2.296163 0.215686
nan nan nan 0.000000
190.202805 114.271240 0.000019 0.291386
199.516296 127.671616 0.000012 0.298604
203.514954 133.424927 0.000008 0.278477
205.742004 136.629227 0.000006 0.291875
207.163773 138.674881 0.000002 0.244968
208.151978 140.096710 0.000001 0.308248
208.880035 141.144257 0.000001 0.280919
nan nan nan 0.000000
nan nan nan 0.000000
nan nan nan 0.000000
nan nan nan 0.000000
nan nan nan 0.000000
202.300232 131.913483 3.584144 0.271046
202.647522 132.405807 2.919529 0.266300
nan nan nan 0.000000
nan nan nan 0.000000
189.969986 114.434250 0.000019 0.299779
199.376816 127.769287 0.000011 0.294759
203.415543 133.494537 0.000008 0.270863
205.664902 136.683212 0.000006 0.267109
207.100922 138.718903 0.000002 0.270939
208.099014 140.133789 0.000001 0.285161
208.834366 141.176224 0.000000 0.313390
nan nan nan 0.000000
nan nan nan 0.000000
nan nan nan 0.000000
202.362335 132.231934 4.821999 0.258824
202.249985 132.075012 4.210779 0.289693
202.215668 132.027069 3.580569 0.186053
202.477325 132.392548 2.924904 0.401465
202.147842 131.932358 2.317343 0.239460
202.532196 132.469193 1.693462 0.242893
202.481995 132.399078 1.075491 0.989120
199.238007 127.867928 0.000011 0.297948
203.316605 133.564850 0.000008 0.281743
205.588165 136.737747 0.000006 0.282780
207.038376 138.763351 0.000002 0.278004
208.046310 140.171234 0.000001 0.303227
208.788925 141.208511 0.000001 0.362509
nan nan nan 0.000000
nan nan nan 0.000000
nan nan nan 0.000000
nan nan nan 0.000000
nan nan nan 0.000000
202.120300 132.124771 3.578646 0.290196
202.356277 132.449554 2.926110 0.269627
nan nan nan 0.000000
202.348755 132.439209 1.691308 0.991913
202.112854 132.114517 1.053545 0.309804
199.099899 127.967529 0.000011 0.287419
203.218170 133.635849 0.000008 0.276158
205.511826 136.792801 0.000006 0.243885
206.976135 138.808243 0.000002 0.283986
207.993881 140.209061 0.000001 0.264286
208.743713 141.241119 0.000001 0.302541
nan nan nan 0.000000
nan nan nan 0.000000
nan nan nan 0.000000
202.307663 132.605392 4.781949 0.250965
nan nan nan 0.000000
202.117386 132.347321 3.564061 0.221790
202.332779 132.639465 2.919263 0.986404
202.138947 132.376556 2.311547 0.215686
202.251801 132.529633 1.691565 0.234791
202.146561 132.386887 1.065320 0.235203
202.168091 132.416092 0.442944 1.000000
203.120224 133.707520 0.000008 0.319905
205.435867 136.848389 0.000006 0.332204
206.914215 138.853561 0.000002 0.332799
207.941711 140.247238 0.000001 0.307912
208.698730 141.274033 0.000000 0.274388
nan nan nan 0.000000
nan nan nan 0.000000
nan nan nan 0.000000
201.932068 132.321899 4.848927 0.210147
202.026886 132.448639 4.191251 0.244282
201.985138 132.392822 3.567531 0.525490
202.195999 132.674698 2.921880 0.395514
202.254761 132.753250 2.305468 0.206378
202.002899 132.416595 1.687651 0.549020
202.083160 132.523880 1.068866 0.226612
202.068390 132.504120 0.443864 0.267979
203.022781 133.779892 0.000008 0.306828
205.360306 136.904510 0.000006 0.277409
206.852600 138.899307 0.000002 0.249500
207.889816 140.285782 0.000002 0.223957
208.653992 141.307266 0.000000 0.283436
nan nan nan 0.000000
nan nan nan 0.000000
nan nan nan 0.000000
nan nan nan 0.000000
201.854584 132.441589 4.203829 0.244083
201.757416 132.313568 3.583958 0.204578
202.116440 132.786575 2.919843 0.282307
202.091110 132.753189 2.307081 0.254948
202.123596 132.795990 1.693798 0.192157
202.179001 132.868988 1.085240 0.237095
201.758759 132.315353 0.416225 0.984360
202.925858 133.852936 0.000008 0.299229
205.285126 136.961166 0.000005 0.260471
206.791321 138.945496 0.000002 0.291188
207.838181 140.324692 0.000002 0.282979
208.609467 141.340820 0.000001 0.254124
nan nan nan 0.000000
nan nan nan 0.000000
nan nan nan 0.000000
nan nan nan 0.000000
201.852600 132.658203 4.184172 0.225299
201.996460 132.845016 3.537436 0.247059
201.601974 132.332748 2.952906 0.258824
201.954285 132.790237 2.307960 0.281712
201.964783 132.803879 1.692322 0.293996
202.013458 132.867081 1.080226 0.201007
201.928833 132.757187 0.453474 0.214008
202.829437 133.926651 0.000008 0.296376
205.210358 137.018341 0.000006 0.271763
206.730362 138.992096 0.000002 0.255970
207.786835 140.363953 0.000001 0.305653
208.565186 141.374680 0.000001 0.322805
nan nan nan 0.000000
nan nan nan 0.000000
nan nan nan 0.000000
nan nan nan 0.000000
197.598557 127.428558 4.959501 0.260899
201.671021 132.641083 3.567003 0.224826
201.496323 132.417480 2.952797 0.227176
201.958786 133.009415 2.305080 0.367773
201.943024 132.989227 1.694501 0.252659
201.936127 132.980408 1.082297 0.281102
198.419952 128.479904 0.000011 0.292409
202.733536 134.001038 0.000007 0.269398
205.135971 137.076019 0.000006 0.316991
206.669724 139.039139 0.000002 0.260655
207.735748 140.403580 0.000001 0.239002
208.521149 141.408844 0.000001 0.328344
nan nan nan 0.000000
nan nan nan 0.000000
nan nan nan 0.000000
nan nan nan 0.000000
nan nan nan 0.000000
201.627136 132.800507 3.558955 0.295445
197.822250 127.999931 3.234966 0.258000
197.816376 127.992523 2.411516 0.211276
201.934616 133.188446 1.696977 0.235935
201.865189 133.100845 1.084791 0.185901
198.286133 128.585205 0.000011 0.298360
202.638153 134.076096 0.000008 0.314717
205.061996 137.134232 0.000006 0.288029
206.609421 139.086578 0.000002 0.291249
207.684937 140.443558 0.000001 0.252857
208.477341 141.443314 0.000001 0.272618
nan nan nan 0.000000
nan nan nan 0.000000
nan nan nan 0.000000
nan nan nan 0.000000
nan nan nan 0.000000
197.488403 127.864792 4.086963 0.257542
197.716705 128.148743 3.232487 0.246723
201.170410 132.444290 2.320341 0.215686
197.383133 127.733871 1.580753 0.264668
197.332016 127.670296 0.737353 0.728038
198.153046 128.691452 0.000011 0.281437
202.543289 134.151810 0.000007 0.283162
204.988434 137.192963 0.000006 0.251514
206.549454 139.134460 0.000002 0.288808
207.634415 140.483887 0.000001 0.260655
208.433777 141.478088 0.000001 0.296056
nan nan nan 0.000000
nan nan nan 0.000000
nan nan nan 0.000000
nan nan nan 0.000000
nan nan nan 0.000000
nan nan nan 0.000000
197.151886 127.733315 3.265810 0.277806
201.914520 133.572876 2.298326 0.269245
197.329086 127.950584 1.582952 0.266606
187.706589 116.152237 0.000018 0.294194
198.020721 128.798615 0.000011 0.290761
202.448975 134.228195 0.000007 0.302296
204.915283 137.252182 0.000003 0.281285
206.489822 139.182755 0.000002 0.280644
207.584183 140.524567 0.000001 0.255497
208.390457 141.513168 0.000001 0.283452
nan nan nan 0.000000
nan nan nan 0.000000
nan nan nan 0.000000
nan nan nan 0.000000
nan nan nan 0.000000
nan nan nan 0.000000
196.951675 127.773514 3.270527 0.206897
200.865997 132.505112 2.322719 0.290196
201.916962 133.775513 1.704262 0.264225
187.486969 116.332642 0.000018 0.297185
197.889130 128.906693 0.000011 0.301228
202.355194 134.305237 0.000007 0.285420
204.842545 137.311920 0.000003 0.302617
206.430511 139.231461 0.000002 0.324285
207.534225 140.565613 0.000001 0.363531
208.347382 141.548553 0.000000 0.276600
nan nan nan 0.000000
nan nan nan 0.000000
nan nan nan 0.000000
nan nan nan 0.000000
nan nan nan 0.000000
nan nan nan 0.000000
206.511520 139.447372 2.529289 0.258824
200.759399 132.592255 2.322739 0.198337
201.686523 133.697159 1.700863 0.252659
187.268616 116.514572 0.000019 0.292058
197.758301 129.015701 0.000011 0.291356
202.261948 134.382919 0.000007 0.323171
204.770233 137.372177 0.000003 0.334554
206.371567 139.280579 0.000002 0.256458
207.484558 140.606995 0.000001 0.304631
208.304550 141.584229 0.000001 0.324483
nan nan nan 0.000000
nan nan nan 0.000000
nan nan nan 0.000000
nan nan nan 0.000000
nan nan nan 0.000000
205.613281 138.507996 2.989781 0.257816
206.661621 139.739792 2.513556 0.258824
nan nan nan 0.000000
197.298065 128.737656 1.592523 0.789487
187.051529 116.698013 0.000019 0.291341
197.628235 129.125610 0.000011 0.300374
202.169235 134.461258 0.000008 0.296361
204.698334 137.432938 0.000003 0.326909
206.312958 139.330109 0.000002 0.303044
207.435181 140.648712 0.000001 0.354452
208.261978 141.620209 0.000000 0.401236
nan nan nan 0.000000
nan nan nan 0.000000
nan nan nan 0.000000
nan nan nan 0.000000
nan nan nan 0.000000
nan nan nan 0.000000
nan nan nan 0.000000
nan nan nan 0.000000
200.640579 132.876038 1.679537 0.247242
205.675476 138.709030 1.416468 0.258824
197.498947 129.236420 0.000010 0.285679
202.077087 134.540253 0.000007 0.295583
204.626862 137.494186 0.000003 0.245274
206.254684 139.380051 0.000002 0.296880
207.386093 140.690781 0.000001 0.281041
208.219650 141.656479 0.000000 0.270970
nan nan nan 0.000000
nan nan nan 0.000000
nan nan nan 0.000000
nan nan nan 0.000000
nan nan nan 0.000000
nan nan nan 0.000000
206.160141 139.388550 2.542717 0.195132
206.201370 139.435638 2.179752 0.258824
196.121826 127.921860 1.569840 0.244266
186.621231 117.069427 0.000018 0.292500
197.370438 129.348145 0.000010 0.303197
201.985489 134.619873 0.000007 0.277226
204.555817 137.555939 0.000003 0.342473
206.196777 139.430389 0.000002 0.316823
207.337296 140.733200 0.000001 0.251072
208.177582 141.693054 0.000000 0.273381
nan nan nan 0.000000
nan nan nan 0.000000
nan nan nan 0.000000
nan nan nan 0.000000
nan nan nan 0.000000
nan nan nan 0.000000
205.482773 138.741760 2.588558 0.258824
206.081390 139.416000 2.181292 0.290196
nan nan nan 0.000000
186.408035 117.257385 0.000018 0.291798
197.242706 129.460754 0.000011 0.283177
201.894440 134.700134 0.000007 0.272221
204.485214 137.618195 0.000003 0.275517
206.139221 139.481140 0.000002 0.248402
207.288803 140.775955 0.000001 0.327535
208.135773 141.729919 0.000000 0.348165
nan nan nan 0.000000
nan nan nan 0.000000
nan nan nan 0.000000
nan nan nan 0.000000
205.913696 139.345352 3.293424 0.258824
206.156235 139.614716 2.892168 0.258824
205.342300 138.710739 2.594294 0.258824
205.959427 139.396149 2.182864 0.419608
206.002441 139.443924 1.818188 0.258824
205.553665 138.945496 1.421224 0.258824
197.115753 129.574249 0.000011 0.279789
201.803970 134.781036 0.000007 0.294026
204.415054 137.680939 0.000003 0.301595
206.082016 139.532288 0.000002 0.279896
207.240616 140.819046 0.000001 0.286641
208.094223 141.767075 0.000000 0.268742
nan nan nan 0.000000
