# This PCD file was generated using the MATLABÂ® pcwrite function
# from Computer Vision ToolboxÂ®.
# .PCD v.7 - Point Cloud Data file format
VERSION .7
FIELDS x y z intensity
SIZE 4 4 4 4
TYPE F F F F
COUNT 1 1 1 1
WIDTH 1189
HEIGHT 1
VIEWPOINT 0 0 0 1 0 0 0
POINTS 1189
DATA ascii
284.528992 -33.477280 0.826455 0.664897
284.528992 -33.477280 0.041290 0.646403
281.240692 -27.867191 -0.000016 0.235755
279.267365 -24.500601 -0.000013 0.251517
278.007599 -22.351318 -0.000010 0.273214
277.131989 -20.857485 -0.000007 0.193125
276.486877 -19.756903 -0.000006 0.196333
nan nan nan 0.000000
284.336456 -33.477272 7.138424 0.438804
284.336456 -33.477268 6.328969 0.663462
284.336456 -33.477272 5.529103 0.663722
284.336487 -33.477272 4.736967 0.683207
284.336456 -33.477272 3.950774 0.676387
284.336487 -33.477272 3.168790 0.649790
284.336487 -33.477276 2.389318 0.644968
284.336487 -33.477276 1.610681 0.662287
284.336487 -33.477272 0.831209 0.663584
284.336456 -33.477272 0.049226 0.674189
281.135742 -27.928200 -0.000016 0.225786
279.186005 -24.547916 -0.000014 0.257824
277.941254 -22.389889 -0.000010 0.243702
277.076111 -20.889980 -0.000007 0.193676
276.438690 -19.784922 -0.000006 0.229496
nan nan nan 0.000000
284.145477 -33.477272 7.117940 0.667628
284.145477 -33.477272 6.311713 0.663523
284.145508 -33.477276 5.515035 0.653422
284.145508 -33.477272 4.726056 0.671595
284.145508 -33.477276 3.942997 0.639063
284.145508 -33.477272 3.164131 0.680247
284.145508 -33.477272 2.387767 0.659754
284.145508 -33.477272 1.612234 0.667460
284.145508 -33.477272 0.835868 0.619760
284.145508 -33.477276 0.057002 0.683375
281.030396 -27.988476 -0.000016 0.233445
279.104309 -24.594664 -0.000014 0.207439
277.874634 -22.427998 -0.000010 0.247675
277.019989 -20.922089 -0.000008 0.276673
276.390320 -19.812603 -0.000005 0.251325
nan nan nan 0.000000
283.956024 -33.477272 7.097866 0.650721
283.956024 -33.477272 6.294801 0.669383
283.956024 -33.477272 5.501247 0.675425
283.956024 -33.477276 4.715364 0.568368
283.956024 -33.477272 3.935375 0.588983
283.956024 -33.477272 3.159565 0.671824
283.956024 -33.477272 2.386245 0.691722
283.956024 -33.477272 1.613755 0.672099
283.956024 -33.477272 0.840435 0.646036
283.956024 -33.477272 0.064624 0.627863
280.924652 -28.048019 -0.000017 0.232954
279.022278 -24.640837 -0.000014 0.246514
277.807770 -22.465641 -0.000010 0.261067
276.963654 -20.953802 -0.000008 0.236796
276.341736 -19.839951 -0.000006 0.194645
nan nan nan 0.000000
283.768036 -33.477272 7.078194 0.672602
283.768036 -33.477272 6.278229 0.617731
283.768036 -33.477272 5.487738 0.644739
283.768036 -33.477276 4.704886 0.631769
283.768036 -33.477276 3.927908 0.656153
283.768036 -33.477276 3.155091 0.645945
283.768036 -33.477272 2.384755 0.633982
283.768036 -33.477272 1.615245 0.705257
283.768036 -33.477276 0.844909 0.639033
283.768036 -33.477280 0.072091 0.648478
280.818481 -28.106817 -0.000017 0.255251
278.939941 -24.686441 -0.000014 0.225834
277.740631 -22.502819 -0.000010 0.235539
276.907104 -20.985119 -0.000008 0.230645
276.292969 -19.866955 -0.000006 0.209689
nan nan nan 0.000000
283.581451 -33.477272 7.058921 0.634440
283.581451 -33.477276 6.261992 0.690074
283.581451 -33.477272 5.474500 0.702205
283.581451 -33.477276 4.694620 0.695583
283.581451 -33.477272 3.920591 0.652995
283.581451 -33.477272 3.150707 0.669932
283.581451 -33.477276 2.383295 0.690730
283.581451 -33.477276 1.616705 0.670817
283.581451 -33.477276 0.849293 0.574014
283.581451 -33.477272 0.079409 0.609201
280.711884 -28.164871 -0.000016 0.229412
278.857269 -24.731464 -0.000014 0.246538
277.673248 -22.539524 -0.000011 0.216882
276.850311 -21.016043 -0.000008 0.203705
276.244019 -19.893618 -0.000006 0.253731
283.396301 -33.477272 7.845299 0.533364
283.396301 -33.477272 7.040037 0.630900
283.396301 -33.477272 6.246083 0.684367
283.396301 -33.477272 5.461531 0.690578
283.396301 -33.477276 4.684562 0.659861
283.396301 -33.477280 3.913422 0.665690
283.396301 -33.477276 3.146411 0.620295
283.396301 -33.477276 2.381865 0.655924
283.396301 -33.477276 1.618136 0.673945
283.396301 -33.477276 0.853588 0.618570
283.396301 -33.477280 0.086577 0.639063
280.604889 -28.222185 -0.000017 0.217779
278.774292 -24.775909 -0.000014 0.212442
277.605621 -22.575758 -0.000011 0.223033
276.793335 -21.046570 -0.000008 0.288737
276.194885 -19.919937 -0.000006 0.195698
283.212494 -33.477272 7.823845 0.693004
283.212494 -33.477268 7.021538 0.704082
283.212494 -33.477268 6.230497 0.618280
283.212494 -33.477272 5.448826 0.694484
283.212494 -33.477272 4.674707 0.613199
283.212494 -33.477272 3.906398 0.663539
283.212494 -33.477272 3.142204 0.683192
283.212494 -33.477272 2.380462 0.635645
283.212494 -33.477272 1.619537 0.672465
283.212494 -33.477272 0.857796 0.615549
283.212494 -33.477272 0.093601 0.669184
280.497498 -28.278748 -0.000017 0.220460
278.691010 -24.819778 -0.000014 0.226647
277.537720 -22.611521 -0.000011 0.241559
276.736145 -21.076698 -0.000008 0.211747
276.145569 -19.945915 -0.000006 0.224409
283.030060 -33.477272 7.802829 0.644404
283.030060 -33.477272 7.003418 0.699519
283.030060 -33.477272 6.215232 0.610285
283.030060 -33.477272 5.436379 0.721492
283.030060 -33.477272 4.665056 0.604501
283.030060 -33.477272 3.899519 0.611780
283.030060 -33.477276 3.138082 0.661555
283.030060 -33.477272 2.379090 0.674922
283.030060 -33.477272 1.620910 0.650187
283.030060 -33.477280 0.861917 0.668772
283.030060 -33.477272 0.100480 0.665446
280.389740 -28.334560 -0.000017 0.226767
278.607422 -24.863064 -0.000014 0.212537
277.469574 -22.646805 -0.000011 0.232607
276.678741 -21.106426 -0.000008 0.244312
276.096069 -19.971548 -0.000006 0.211424
282.848907 -33.477272 7.782244 0.576059
282.848907 -33.477272 6.985669 0.652216
282.848907 -33.477268 6.200278 0.629343
282.848907 -33.477276 5.424191 0.677989
282.848907 -33.477272 4.655602 0.596658
282.848907 -33.477272 3.892781 0.659220
282.848907 -33.477272 3.134045 0.659205
282.848907 -33.477272 2.377745 0.644739
282.848907 -33.477272 1.622255 0.690867
282.848907 -33.477272 0.865955 0.668284
282.848907 -33.477276 0.107218 0.605478
280.281555 -28.389620 -0.000017 0.256316
278.523529 -24.905762 -0.000014 0.245377
277.401184 -22.681614 -0.000011 0.224062
276.621124 -21.135750 -0.000008 0.200246
276.046387 -19.996834 -0.000006 0.224050
282.669006 -33.477272 7.762085 0.627008
282.669006 -33.477272 6.968287 0.669200
282.669006 -33.477272 6.185635 0.684153
282.669006 -33.477272 5.412252 0.648173
282.669006 -33.477272 4.646344 0.655863
282.669006 -33.477272 3.886182 0.637766
282.669006 -33.477272 3.130091 0.700069
282.669006 -33.477272 2.376428 0.609628
282.669006 -33.477272 1.623572 0.671855
282.669006 -33.477272 0.869909 0.686839
282.669006 -33.477272 0.113817 0.626398
280.173004 -28.443920 -0.000017 0.219455
278.439362 -24.947876 -0.000015 0.223715
277.332550 -22.715944 -0.000011 0.216451
276.563293 -21.164677 -0.000008 0.219239
275.996552 -20.021772 -0.000006 0.214548
282.490356 -33.477268 7.742345 0.640406
282.490356 -33.477272 6.951267 0.647303
282.490356 -33.477268 6.171296 0.659342
282.490356 -33.477268 5.400562 0.622278
282.490356 -33.477272 4.637278 0.626856
282.490356 -33.477272 3.879720 0.616999
282.490356 -33.477272 3.126220 0.610285
282.490356 -33.477272 2.375139 0.646052
282.490356 -33.477272 1.624862 0.667369
282.490356 -33.477272 0.873780 0.682994
282.490356 -33.477272 0.120279 0.658274
280.064087 -28.497463 -0.000017 0.231327
278.354889 -24.989401 -0.000015 0.221453
277.263702 -22.749796 -0.000011 0.256076
276.505280 -21.193193 -0.000008 0.218725
275.946533 -20.046362 -0.000006 0.228395
282.312927 -33.477272 7.723018 0.638209
282.312927 -33.477272 6.934604 0.635782
282.312927 -33.477268 6.157256 0.557733
282.312927 -33.477272 5.389117 0.684123
282.312927 -33.477272 4.628401 0.631785
282.312927 -33.477272 3.873394 0.639200
282.312927 -33.477272 3.122429 0.655116
282.312927 -33.477272 2.373876 0.617609
282.312927 -33.477272 1.626124 0.665309
282.312927 -33.477272 0.877571 0.623987
282.312927 -33.477272 0.126606 0.608667
279.954803 -28.550247 -0.000018 0.221848
278.270111 -25.030333 -0.000015 0.251110
277.194611 -22.783169 -0.000011 0.262527
276.447083 -21.221306 -0.000009 0.234917
275.896332 -20.070602 -0.000006 0.225869
282.136688 -33.477268 7.704098 0.702281
282.136688 -33.477272 6.918290 0.639109
282.136688 -33.477272 6.143513 0.647105
282.136688 -33.477272 5.377913 0.676143
282.136688 -33.477272 4.619713 0.667918
282.136688 -33.477272 3.867200 0.657740
282.136688 -33.477272 3.118718 0.659724
282.136688 -33.477272 2.372640 0.621775
282.136688 -33.477272 1.627360 0.654551
282.136688 -33.477272 0.881281 0.673167
282.136688 -33.477272 0.132799 0.631617
279.845123 -28.602261 -0.000018 0.252546
278.185059 -25.070675 -0.000015 0.227940
277.125275 -22.816051 -0.000011 0.235731
276.388641 -21.249014 -0.000009 0.250487
275.845947 -20.094490 -0.000006 0.221968
281.961609 -33.477272 7.685578 0.678218
281.961609 -33.477268 6.902321 0.642206
281.961609 -33.477272 6.130060 0.656703
281.961609 -33.477272 5.366946 0.681422
281.961609 -33.477272 4.611207 0.627222
281.961609 -33.477272 3.861138 0.589364
281.961609 -33.477272 3.115086 0.676539
281.961609 -33.477272 2.371430 0.648936
281.961609 -33.477272 1.628570 0.616739
281.961609 -33.477272 0.884913 0.714656
281.961609 -33.477272 0.138861 0.583551
279.735107 -28.653509 -0.000018 0.237658
278.099762 -25.110420 -0.000015 0.210443
277.055695 -22.848457 -0.000011 0.251337
276.330048 -21.276310 -0.000008 0.198846
275.795441 -20.118029 -0.000007 0.232260
281.787628 -33.477272 7.667455 0.665370
281.787628 -33.477264 6.886693 0.658015
281.787628 -33.477264 6.116893 0.657099
281.787628 -33.477272 5.356213 0.699123
281.787628 -33.477268 4.602882 0.663844
281.787628 -33.477268 3.855205 0.632120
281.787628 -33.477272 3.111531 0.635462
281.787628 -33.477272 2.370246 0.617456
281.787628 -33.477272 1.629754 0.655543
281.787628 -33.477272 0.888468 0.605463
281.787628 -33.477272 0.144794 0.594644
279.624756 -28.703995 -0.000018 0.221752
278.014160 -25.149570 -0.000015 0.219766
276.985931 -22.880371 -0.000011 0.213327
276.271271 -21.303200 -0.000009 0.243881
275.744751 -20.141212 -0.000007 0.228072
281.614746 -33.477268 7.649721 0.657740
281.614746 -33.477272 6.871403 0.661006
281.614746 -33.477272 6.104013 0.633509
281.614746 -33.477276 5.345712 0.711635
281.614746 -33.477272 4.594738 0.675074
281.614746 -33.477272 3.849401 0.663600
281.614746 -33.477272 3.108054 0.645258
281.614746 -33.477272 2.369088 0.645747
281.614746 -33.477272 1.630913 0.630320
281.614746 -33.477272 0.891946 0.629892
281.614746 -33.477272 0.150599 0.636011
279.514008 -28.753706 -0.000019 0.239465
277.928284 -25.188118 -0.000015 0.232069
276.915924 -22.911800 -0.000011 0.246658
276.212280 -21.329676 -0.000009 0.238890
275.693878 -20.164043 -0.000007 0.258314
281.442963 -33.477272 7.632371 0.693446
281.442963 -33.477272 6.856442 0.610620
281.442963 -33.477272 6.091409 0.683970
281.442963 -33.477272 5.335436 0.576440
281.442963 -33.477268 4.586770 0.657465
281.442963 -33.477272 3.843720 0.620615
281.442963 -33.477272 3.104651 0.665125
281.442963 -33.477272 2.367954 0.663127
281.442963 -33.477272 1.632046 0.686809
281.442963 -33.477272 0.895349 0.656001
281.442963 -33.477272 0.156278 0.665736
279.402954 -28.802637 -0.000019 0.232679
277.842133 -25.226070 -0.000015 0.231985
276.845703 -22.942738 -0.000011 0.197135
276.153137 -21.355740 -0.000008 0.211448
275.642883 -20.186518 -0.000007 0.200115
281.272186 -33.477272 7.615400 0.636194
281.272186 -33.477264 6.841809 0.608698
281.272186 -33.477272 6.079080 0.671687
281.272186 -33.477268 5.325386 0.592279
281.272186 -33.477272 4.578976 0.667597
281.272186 -33.477272 3.838165 0.612238
281.272186 -33.477268 3.101322 0.573785
281.272186 -33.477268 2.366845 0.657298
281.272186 -33.477268 1.633155 0.713787
281.272186 -33.477268 0.898678 0.660395
281.272186 -33.477272 0.161834 0.650278
279.291534 -28.850794 -0.000019 0.237035
277.755737 -25.263420 -0.000015 0.209090
276.775238 -22.973186 -0.000011 0.212573
276.093781 -21.381390 -0.000009 0.201503
275.591705 -20.208632 -0.000007 0.203777
281.102448 -33.477272 7.598803 0.688380
281.102448 -33.477264 6.827498 0.629328
281.102448 -33.477272 6.067025 0.666407
281.102448 -33.477272 5.315557 0.610117
281.102448 -33.477268 4.571353 0.627756
281.102448 -33.477272 3.832732 0.682902
281.102448 -33.477272 3.098067 0.659831
281.102448 -33.477268 2.365761 0.695994
281.102448 -33.477272 1.634239 0.671931
281.102448 -33.477272 0.901933 0.663813
281.102448 -33.477272 0.167267 0.684749
279.179779 -28.898174 -0.000019 0.202748
277.669067 -25.300163 -0.000015 0.217923
276.704590 -23.003141 -0.000012 0.220221
276.034271 -21.406628 -0.000009 0.269911
275.540405 -20.230392 -0.000008 0.193221
280.933716 -33.477272 7.582574 0.628382
280.933716 -33.477264 6.813506 0.601709
280.933716 -33.477264 6.055235 0.638102
280.933716 -33.477264 5.305947 0.728573
280.933716 -33.477268 4.563900 0.664118
280.933716 -33.477264 3.827420 0.637186
280.933716 -33.477268 3.094884 0.656199
280.933716 -33.477272 2.364701 0.634180
280.933716 -33.477272 1.635299 0.697993
280.933716 -33.477268 0.905115 0.651179
280.933716 -33.477264 0.172580 0.684871
279.067719 -28.944771 -0.000019 0.224840
277.582153 -25.336300 -0.000015 0.230429
276.633759 -23.032600 -0.000011 0.198176
275.974579 -21.431446 -0.000009 0.204818
275.488922 -20.251793 -0.000007 0.232703
280.765930 -33.477272 7.566710 0.677821
280.765930 -33.477264 6.799827 0.683558
280.765930 -33.477264 6.043712 0.687297
280.765930 -33.477264 5.296552 0.731945
280.765930 -33.477268 4.556614 0.675364
280.765930 -33.477264 3.822227 0.687907
280.765930 -33.477264 3.091773 0.636622
280.765930 -33.477264 2.363665 0.698177
280.765930 -33.477264 1.636335 0.695216
280.765930 -33.477264 0.908227 0.658366
280.765930 -33.477264 0.177773 0.602701
278.955322 -28.990587 -0.000019 0.222195
277.494995 -25.371830 -0.000015 0.199588
276.562683 -23.061565 -0.000012 0.266153
275.914703 -21.455849 -0.000009 0.258961
275.437286 -20.272833 -0.000007 0.218198
280.599091 -33.477272 7.551206 0.636912
280.599091 -33.477264 6.786458 0.672511
280.599091 -33.477264 6.032449 0.613581
280.599091 -33.477272 5.287371 0.641932
280.599091 -33.477264 4.549493 0.650782
280.599091 -33.477272 3.817152 0.670985
280.599091 -33.477268 3.088732 0.645350
280.599091 -33.477272 2.362651 0.654414
280.599091 -33.477272 1.637348 0.664652
280.599091 -33.477268 0.911268 0.662181
280.599091 -33.477272 0.182847 0.584482
278.842621 -29.035614 -0.000020 0.232835
277.407593 -25.406752 -0.000015 0.250104
276.491425 -23.090034 -0.000012 0.242565
275.854675 -21.479834 -0.000009 0.206314
275.385529 -20.293512 -0.000007 0.306760
280.433167 -33.477272 7.536059 0.656016
280.433167 -33.477264 6.773398 0.636957
280.433167 -33.477268 6.021446 0.657984
280.433167 -33.477268 5.278400 0.657511
280.433167 -33.477268 4.542536 0.679408
280.433167 -33.477268 3.812193 0.620539
280.433167 -33.477272 3.085762 0.629770
280.433167 -33.477272 2.361662 0.697780
280.433167 -33.477272 1.638338 0.676066
280.433167 -33.477272 0.914239 0.620508
280.433167 -33.477268 0.187806 0.659617
278.729584 -29.079859 -0.000020 0.221693
277.319916 -25.441063 -0.000015 0.233828
276.419983 -23.118006 -0.000012 0.243797
275.794464 -21.503395 -0.000009 0.203837
275.333618 -20.313831 -0.000007 0.204351
280.268127 -33.477272 7.521260 0.631327
280.268127 -33.477268 6.760639 0.652720
280.268127 -33.477268 6.010697 0.627497
280.268127 -33.477272 5.269637 0.654139
280.268127 -33.477264 4.535739 0.591012
280.268127 -33.477272 3.807349 0.651392
280.268127 -33.477272 3.082859 0.654902
280.268127 -33.477268 2.360696 0.633753
280.268127 -33.477268 1.639305 0.661357
280.268127 -33.477272 0.917141 0.599420
280.268127 -33.477272 0.192650 0.612451
278.616272 -29.123308 -0.000020 0.217827
277.232025 -25.474762 -0.000016 0.221250
276.348328 -23.145473 -0.000012 0.221525
275.734100 -21.526539 -0.000009 0.195256
275.281586 -20.333786 -0.000008 0.278564
280.103973 -33.477272 7.506809 0.625422
280.103973 -33.477268 6.748178 0.629648
280.103973 -33.477272 6.000199 0.672404
280.103973 -33.477272 5.261080 0.698070
280.103973 -33.477272 4.529103 0.664439
280.103973 -33.477272 3.802619 0.616785
280.103973 -33.477272 3.080025 0.626276
280.103973 -33.477268 2.359751 0.668727
280.103973 -33.477264 1.640249 0.647059
280.103973 -33.477272 0.919975 0.647059
280.103973 -33.477268 0.197381 0.613062
278.502655 -29.165966 -0.000020 0.241523
277.143921 -25.507839 -0.000016 0.210694
276.276489 -23.172445 -0.000012 0.192192
275.673584 -21.549263 -0.000009 0.213471
275.229401 -20.353376 -0.000007 0.284069
279.940674 -33.477264 7.492698 0.624353
279.940674 -33.477264 6.736012 0.653620
279.940674 -33.477264 5.989949 0.639689
279.940674 -33.477264 5.252724 0.654902
279.940674 -33.477264 4.522622 0.655802
279.940674 -33.477264 3.798000 0.600702
279.940674 -33.477264 3.077257 0.647059
279.940674 -33.477264 2.358829 0.661875
279.940674 -33.477264 1.641171 0.613245
279.940674 -33.477264 0.922742 0.666667
279.940674 -33.477264 0.202000 0.625452
276.627594 -24.363012 0.593012 0.520302
277.055542 -25.540306 -0.000015 0.238101
276.204437 -23.198914 -0.000012 0.262228
275.612915 -21.571558 -0.000009 0.224601
275.177063 -20.372602 -0.000007 0.219383
279.778198 -33.477268 7.478929 0.701976
279.778198 -33.477264 6.724139 0.613596
279.778198 -33.477264 5.979947 0.625986
279.778198 -33.477264 5.244569 0.614023
279.778198 -33.477264 4.516298 0.663737
279.778198 -33.477264 3.793492 0.665171
279.778198 -33.477264 3.074556 0.670130
279.778198 -33.477264 2.357929 0.660853
279.778198 -33.477264 1.642070 0.660594
279.778198 -33.477264 0.925443 0.645106
279.778198 -33.477264 0.206507 0.636637
276.553894 -24.410572 0.590732 0.472114
276.966980 -25.572155 -0.000016 0.203406
276.132233 -23.224878 -0.000012 0.233960
275.552063 -21.593433 -0.000009 0.244647
275.124634 -20.391462 -0.000008 0.250487
279.616516 -33.477264 7.465492 0.596719
279.616516 -33.477264 6.712554 0.602853
279.616516 -33.477268 5.970187 0.666667
279.616516 -33.477268 5.236613 0.678889
279.616516 -33.477264 4.510127 0.665782
279.616516 -33.477264 3.789094 0.651438
279.616516 -33.477264 3.071921 0.594141
279.616516 -33.477264 2.357052 0.649653
279.616516 -33.477264 1.642948 0.655680
279.616516 -33.477264 0.928078 0.654902
276.146332 -23.498968 1.077145 0.485496
276.513519 -24.554869 0.576613 0.455039
276.878174 -25.603390 -0.000016 0.231052
276.059845 -23.250340 -0.000013 0.217073
275.491089 -21.614883 -0.000010 0.248106
275.072021 -20.409956 -0.000007 0.195866
279.455627 -33.477264 7.452387 0.606592
279.455627 -33.477264 6.701253 0.661814
279.455627 -33.477261 5.960666 0.654902
279.455627 -33.477268 5.228851 0.643977
279.455627 -33.477264 4.504109 0.652293
279.455627 -33.477264 3.784804 0.642664
279.455627 -33.477261 3.069351 0.697307
279.455627 -33.477264 2.356196 0.697429
279.455627 -33.477264 1.643804 0.634256
279.455627 -33.477257 0.930649 0.652445
276.073273 -23.528248 1.076823 0.485298
278.045227 -29.328632 -0.000021 0.225546
276.789185 -25.633995 -0.000016 0.238160
275.987274 -23.275290 -0.000012 0.195268
275.429932 -21.635906 -0.000010 0.196333
275.019318 -20.428083 -0.000008 0.194406
279.295502 -33.477264 7.439610 0.655085
279.295502 -33.477264 6.690236 0.674174
279.295502 -33.477264 5.951385 0.667628
279.295502 -33.477264 5.221285 0.677028
279.295502 -33.477264 4.498240 0.649454
279.295502 -33.477268 3.780622 0.666377
279.295502 -33.477264 3.066845 0.663401
279.295502 -33.477264 2.355361 0.667369
279.295502 -33.477264 1.644639 0.670924
279.295502 -33.477264 0.933155 0.675151
279.295502 -33.477264 0.219378 0.613535
276.331329 -24.554333 0.583419 0.479805
276.699951 -25.663982 -0.000016 0.239597
275.914551 -23.299736 -0.000012 0.237107
275.368652 -21.656502 -0.000010 0.244216
274.966492 -20.445841 -0.000008 0.230226
279.136108 -33.477261 7.427153 0.623529
279.136108 -33.477264 6.679497 0.658122
279.136108 -33.477264 5.942338 0.667536
279.136108 -33.477268 5.213910 0.662135
279.136108 -33.477264 4.492520 0.638514
279.136108 -33.477264 3.776544 0.621164
279.136108 -33.477264 3.064403 0.652506
279.136108 -33.477264 2.354547 0.645365
279.136108 -33.477264 1.645453 0.669932
279.136108 -33.477264 0.935597 0.663676
275.788574 -23.160128 1.112828 0.548196
276.317719 -24.790955 0.558044 0.502342
276.610504 -25.693344 -0.000016 0.217552
275.841644 -23.323673 -0.000012 0.200725
275.307251 -21.676668 -0.000010 0.262599
274.913513 -20.463232 -0.000008 0.248477
278.977448 -33.477264 7.415020 0.653468
278.977448 -33.477264 6.669036 0.666667
278.977448 -33.477264 5.933523 0.638086
278.977448 -33.477264 5.206723 0.663722
278.977448 -33.477264 4.486948 0.647578
278.977448 -33.477272 3.772573 0.663294
278.977448 -33.477264 3.062023 0.669505
278.977448 -33.477264 2.353755 0.646372
278.977448 -33.477264 1.646245 0.687175
278.977448 -33.477264 0.937977 0.631205
275.717804 -23.186886 1.112510 0.495781
277.699280 -29.442226 -0.000021 0.221729
276.171021 -24.617653 0.171834 0.542702
275.768555 -23.347101 -0.000012 0.270055
275.245667 -21.696407 -0.000010 0.196153
274.860443 -20.480251 -0.000008 0.198008
278.819489 -33.477261 7.403202 0.662028
278.819489 -33.477264 6.658847 0.635248
278.819489 -33.477264 5.924940 0.718257
278.819489 -33.477264 5.199725 0.671809
278.819489 -33.477264 4.481521 0.628122
278.819489 -33.477264 3.768704 0.584802
278.819489 -33.477261 3.059705 0.678431
278.819489 -33.477261 2.352983 0.676997
278.819489 -33.477261 1.647017 0.682918
278.819489 -33.477257 0.940295 0.647089
275.647003 -23.213688 1.112147 0.499077
277.583466 -29.478470 -0.000021 0.214285
276.083954 -24.627304 0.174325 0.494072
275.695343 -23.370020 -0.000013 0.196656
275.183990 -21.715712 -0.000010 0.284021
274.807251 -20.496899 -0.000008 0.188386
278.662201 -33.477264 7.391699 0.646967
278.662201 -33.477264 6.648928 0.656123
278.662201 -33.477264 5.916584 0.711025
278.662201 -33.477264 5.192913 0.640192
278.662201 -33.477264 4.476237 0.630320
278.662201 -33.477264 3.764939 0.635538
278.662201 -33.477264 3.057449 0.651469
278.662201 -33.477264 2.352231 0.648127
278.662201 -33.477264 1.647769 0.700359
278.662201 -33.477264 0.942551 0.637201
278.662201 -33.477264 0.235061 0.580056
277.467377 -29.513906 -0.000021 0.221214
275.883850 -24.261234 0.234927 0.462699
275.621948 -23.392426 -0.000012 0.233026
275.122162 -21.734589 -0.000010 0.207307
274.753937 -20.513172 -0.000008 0.225654
278.505585 -33.477257 7.380506 0.653437
278.505585 -33.477264 6.639277 0.647379
278.505585 -33.477268 5.908453 0.734920
278.505585 -33.477268 5.186285 0.658534
278.505585 -33.477264 4.471097 0.631037
278.505585 -33.477264 3.761275 0.653727
278.505585 -33.477264 3.055253 0.663294
278.505585 -33.477261 2.351500 0.633234
278.505585 -33.477261 1.648500 0.668070
278.505585 -33.477264 0.944746 0.651728
278.505585 -33.477264 0.238725 0.621759
277.351044 -29.548534 -0.000021 0.224996
275.812256 -24.312206 0.230710 0.510033
275.548401 -23.414318 -0.000012 0.254245
275.060181 -21.753035 -0.000010 0.241703
274.700500 -20.529076 -0.000008 0.253252
278.349579 -33.477264 7.369621 0.646952
278.349609 -33.477264 6.629891 0.612848
278.349579 -33.477264 5.900546 0.665095
278.349579 -33.477264 5.179839 0.691966
278.349579 -33.477264 4.466097 0.642557
278.349579 -33.477264 3.757712 0.662623
275.625397 -23.962055 2.566886 0.523033
278.349579 -33.477268 2.350789 0.654307
278.349579 -33.477264 1.649211 0.674296
278.349579 -33.477264 0.946881 0.634424
278.349579 -33.477264 0.242288 0.606500
277.234467 -29.582354 -0.000022 0.210239
276.160400 -25.830757 -0.000016 0.204435
275.474701 -23.435698 -0.000013 0.202101
274.998108 -21.771044 -0.000010 0.193233
274.646973 -20.544605 -0.000008 0.205799
278.194244 -33.477261 7.359041 0.630518
278.194244 -33.477264 6.620767 0.733257
278.194244 -33.477261 5.892859 0.655528
278.194244 -33.477264 5.173573 0.678447
278.194244 -33.477261 4.461237 0.629572
275.579681 -24.098068 2.955876 0.481376
278.194244 -33.477264 3.051043 0.648356
278.194244 -33.477261 2.350098 0.635004
278.194244 -33.477261 1.649902 0.662150
278.194244 -33.477261 0.948956 0.657649
275.930206 -25.355545 0.937085 0.503960
277.117676 -29.615355 -0.000022 0.216247
276.069824 -25.856354 -0.000017 0.236557
275.400848 -23.456562 -0.000013 0.246011
274.935883 -21.788620 -0.000010 0.227712
274.593323 -20.559761 -0.000008 0.212214
278.039459 -33.477257 7.348759 0.390570
278.039459 -33.477264 6.611904 0.696254
278.039490 -33.477264 5.885393 0.670588
278.039490 -33.477264 5.167486 0.655634
278.039459 -33.477264 4.456516 0.688106
275.515411 -24.172073 2.960330 0.507088
275.456757 -23.955807 2.564365 0.460563
278.039490 -33.477264 2.349426 0.669322
278.039459 -33.477261 1.650574 0.700923
278.039459 -33.477257 0.950972 0.679057
278.039459 -33.477261 0.249116 0.657267
275.825378 -25.314716 0.516441 0.496147
275.979065 -25.881313 -0.000016 0.230920
275.326843 -23.476912 -0.000013 0.238101
274.873566 -21.805763 -0.000010 0.221094
274.539581 -20.574543 -0.000008 0.234151
279.195770 -38.445515 8.625830 0.466285
277.885315 -33.477268 6.603301 0.659144
277.885315 -33.477264 5.878143 0.660960
277.885315 -33.477264 5.161576 0.641749
277.885315 -33.477264 4.451933 0.632792
275.450562 -24.246784 2.964874 0.413214
275.372986 -23.952705 2.563155 0.519509
277.885315 -33.477257 2.348774 0.669245
275.209137 -23.331497 1.822929 0.478691
277.885315 -33.477261 0.952930 0.610285
275.138824 -23.064945 1.135345 0.484993
275.410370 -24.094357 0.664402 0.448325
275.888123 -25.905636 -0.000016 0.230657
275.252716 -23.496738 -0.000013 0.247112
274.811096 -21.822470 -0.000010 0.209833
274.485748 -20.588945 -0.000008 0.250260
279.356537 -39.816395 8.968298 0.513878
277.731689 -33.477264 6.594950 0.634791
277.731689 -33.477268 5.871109 0.683162
277.731689 -33.477268 5.155842 0.602686
277.731689 -33.477264 4.447487 0.597299
275.453674 -24.589773 2.992157 0.468299
275.336456 -24.132427 2.571249 0.493324
275.401184 -24.385000 2.194547 0.497658
275.160034 -23.444157 1.821347 0.478294
275.429047 -24.493645 1.410432 0.464668
275.049255 -23.011940 1.141401 0.511131
275.209656 -23.637817 0.721043 0.482460
275.797028 -25.929329 -0.000017 0.227689
275.178467 -23.516052 -0.000013 0.202149
274.748535 -21.838739 -0.000010 0.266752
274.431793 -20.602976 -0.000008 0.245880
279.234100 -40.128601 9.036612 0.622431
277.578644 -33.477272 6.586855 0.617777
277.578644 -33.477264 5.864289 0.627894
277.578644 -33.477264 5.150281 0.587427
277.578644 -33.477264 4.443173 0.650797
277.578644 -33.477264 3.741373 0.701762
275.509735 -25.164822 2.622507 0.487114
275.322388 -24.412073 2.194661 0.483589
275.110046 -23.558851 1.819727 0.479469
274.954102 -22.932301 1.490515 0.510277
275.351746 -24.530060 1.014637 0.523949
275.270966 -24.205423 0.656006 0.477714
275.705750 -25.952381 -0.000017 0.226324
275.104065 -23.534843 -0.000013 0.195543
274.685852 -21.854572 -0.000010 0.224409
274.377747 -20.616627 -0.000009 0.265495
nan nan nan 0.000000
277.426117 -33.477264 6.579010 0.668772
277.426117 -33.477268 5.857680 0.685695
277.426117 -33.477264 5.144894 0.628901
277.426117 -33.477264 4.438995 0.656886
277.426117 -33.477264 3.738395 0.703960
275.169891 -24.134346 2.569364 0.495171
275.241974 -24.432850 2.194677 0.488365
275.054291 -23.655624 1.818407 0.476738
274.876282 -22.918570 1.492080 0.481041
274.939789 -23.181479 1.130078 0.501228
275.193115 -24.230465 0.655341 0.570230
275.614349 -25.974796 -0.000017 0.222997
275.029541 -23.553120 -0.000013 0.227832
274.623077 -21.869968 -0.000010 0.200857
274.323608 -20.629902 -0.000009 0.230321
nan nan nan 0.000000
277.274109 -33.477264 6.571414 0.661662
277.274109 -33.477264 5.851279 0.692683
277.274109 -33.477264 5.139676 0.663874
277.274109 -33.477264 4.434949 0.633265
277.274109 -33.477261 3.735511 0.734554
275.093140 -24.161417 2.569785 0.485664
275.241516 -24.795231 2.200445 0.518334
275.037323 -23.922989 1.814214 0.467842
275.177124 -24.520193 1.412113 0.469642
275.076599 -24.090813 1.054944 0.496452
276.412292 -29.796165 -0.000023 0.224134
275.522766 -25.996574 -0.000017 0.250559
274.954865 -23.570873 -0.000013 0.233146
274.560181 -21.884926 -0.000010 0.215290
274.269379 -20.642801 -0.000009 0.197099
nan nan nan 0.000000
277.122589 -33.477264 6.564066 0.644373
277.122589 -33.477264 5.845090 0.649760
275.051605 -24.344402 3.745503 0.476051
275.184845 -24.932047 3.423030 0.479408
277.122589 -33.477261 3.732722 0.631556
275.002625 -24.128479 2.567209 0.483177
275.079895 -24.469166 2.194652 0.479164
274.919861 -23.763416 1.817191 0.485679
275.110443 -24.603947 1.408839 0.490623
274.984741 -24.049519 1.059935 0.509819
276.294037 -29.823418 -0.000023 0.227353
275.431030 -26.017712 -0.000017 0.241679
274.706421 -22.822220 0.142882 0.459571
274.497162 -21.899441 -0.000010 0.207212
274.215057 -20.655315 -0.000009 0.257417
nan nan nan 0.000000
277.002625 -33.618870 6.588274 0.627512
277.002625 -33.618866 5.865484 0.679469
275.006165 -24.520649 3.769553 0.512734
274.869171 -23.896347 3.298833 0.487495
274.811951 -23.635538 2.903850 0.485359
274.943970 -24.237228 2.571796 0.462165
274.998413 -24.485264 2.194618 0.490806
274.826721 -23.702835 1.818490 0.473671
275.040009 -24.674894 1.406190 0.474968
274.955658 -24.290470 1.041171 0.474617
275.073151 -24.825935 0.591682 0.477806
275.339172 -26.038204 -0.000017 0.226719
274.622345 -22.771511 0.155219 0.485328
274.434082 -21.913521 -0.000011 0.212693
274.160645 -20.667450 -0.000008 0.193341
nan nan nan 0.000000
277.002625 -34.333576 6.739163 0.737881
275.026611 -25.018303 4.259918 0.486961
274.882324 -24.338148 3.739215 0.522820
274.811829 -24.005802 3.309750 0.486305
277.002625 -34.333572 3.799196 0.661173
274.906952 -24.454266 2.581836 0.532372
274.914032 -24.487682 2.194366 0.472724
274.722534 -23.584854 1.820737 0.483482
274.765869 -23.789160 1.451566 0.494484
274.777740 -23.845108 1.079945 0.479896
274.805420 -23.975582 0.693804 0.511193
275.247162 -26.058062 -0.000017 0.215050
274.585052 -22.936832 0.127246 0.569268
274.370880 -21.927155 -0.000010 0.234283
274.106171 -20.679211 -0.000009 0.221022
nan nan nan 0.000000
280.261139 -51.004410 10.407591 0.977539
274.844818 -24.562990 4.172064 0.472465
274.807678 -24.381626 3.743269 0.489860
274.871063 -24.691109 3.388320 0.534844
275.007233 -25.355862 3.045164 0.466789
274.731262 -24.008598 2.558641 0.495109
274.826416 -24.473156 2.193841 0.475364
274.640808 -23.567051 1.821295 0.463722
274.692841 -23.820986 1.450768 0.498695
274.711121 -23.910297 1.075826 0.496803
275.938110 -29.900221 -0.000024 0.214428
275.154999 -26.077271 -0.000017 0.230800
274.521729 -22.985676 0.120897 0.479408
274.307587 -21.940350 -0.000011 0.205033
274.051605 -20.690588 -0.000009 0.227006
nan nan nan 0.000000
279.984100 -51.004410 10.395786 0.980392
274.851044 -25.024364 4.254589 0.515114
274.732758 -24.425800 3.747501 0.568627
274.735382 -24.439028 3.356811 0.481102
274.761322 -24.570381 2.978046 0.492668
274.634583 -23.928844 2.553863 0.464942
274.511017 -23.303391 2.174056 0.497658
274.529846 -23.398777 1.824353 0.495308
274.619568 -23.852917 1.449939 0.475120
274.739288 -24.458832 1.031277 0.534432
275.819122 -29.924160 -0.000023 0.232308
274.519958 -23.348621 0.415372 0.446036
274.579834 -23.651798 -0.000013 0.208253
274.244232 -21.953102 -0.000011 0.233313
273.996948 -20.701584 -0.000009 0.288270
279.835266 -51.673744 11.894701 0.223529
274.684601 -24.612545 4.582001 0.504738
274.753906 -24.976765 4.242721 0.501305
274.645935 -24.409443 3.742667 0.497704
274.677032 -24.572769 3.370637 0.484443
274.538330 -23.844053 2.916098 0.482521
274.606750 -24.203577 2.566852 0.483482
274.675812 -24.566349 2.194859 0.508049
274.655914 -24.461861 1.806882 0.534554
274.546112 -23.884953 1.449082 0.496193
274.634857 -24.351229 1.041569 0.518257
274.587494 -24.102333 0.684454 0.475395
274.511597 -23.703575 0.363919 0.490806
274.504517 -23.666409 -0.000013 0.235851
274.180756 -21.965412 -0.000011 0.220891
273.942230 -20.712196 -0.000009 0.269397
279.544525 -51.617126 11.867393 0.223529
274.615845 -24.700487 4.597947 0.481621
274.592407 -24.572437 4.165007 0.506645
274.578400 -24.495922 3.753437 0.479286
274.620697 -24.726940 3.386882 0.511727
274.476654 -23.940289 2.922927 0.492470
274.631165 -24.784142 2.595109 0.471901
274.418610 -23.623329 2.178917 0.513390
274.588165 -24.549372 1.805677 0.486778
274.491913 -24.023726 1.442869 0.520272
274.547913 -24.329418 1.044636 0.500938
275.580658 -29.969549 -0.000023 0.214919
274.427094 -23.669720 0.371156 0.458579
274.429077 -23.680494 -0.000014 0.247292
274.117218 -21.977280 -0.000011 0.203944
273.887421 -20.722427 -0.000009 0.240686
279.275238 -51.673744 11.869435 0.223529
274.443512 -24.205427 4.486129 0.481956
274.520813 -24.644981 4.175697 0.533181
277.002594 -38.753834 5.898673 0.691218
274.488525 -24.461388 3.354127 0.519097
274.387299 -23.885986 2.917250 0.477272
274.481842 -24.423382 2.576369 0.472145
274.339905 -23.616455 2.178579 0.494194
274.513672 -24.604290 1.805009 0.481300
274.734558 -25.860107 1.351966 0.487724
274.310944 -23.451855 1.118893 0.455756
274.448608 -24.234407 0.672386 0.475578
274.258240 -23.152206 0.451140 0.470817
274.353546 -23.694054 -0.000014 0.207032
274.053558 -21.988703 -0.000011 0.215613
273.832550 -20.732277 -0.000009 0.202329
274.465851 -24.821014 5.036254 0.478370
274.460266 -24.787888 4.610717 0.499886
274.384705 -24.339897 4.116785 0.453422
274.440735 -24.672110 3.775641 0.527337
274.430450 -24.611149 3.369971 0.518837
274.325562 -23.989365 2.924743 0.482185
274.404907 -24.459660 2.577483 0.478828
274.223785 -23.386086 2.174541 0.478996
274.425903 -24.584185 1.805576 0.469642
274.446716 -24.707495 1.410169 0.574334
274.380524 -24.315128 1.048168 0.491066
274.438202 -24.657011 0.624678 0.567880
274.156799 -22.989098 0.477539 0.520714
274.277924 -23.707083 -0.000014 0.222435
273.989868 -21.999676 -0.000011 0.225199
273.777618 -20.741743 -0.000009 0.253647
274.380798 -24.825144 5.033804 0.473045
274.308258 -24.376003 4.517597 0.465431
274.482147 -25.452412 4.319400 0.500572
274.222931 -23.847847 3.649742 0.494377
274.280457 -24.203873 3.320932 0.485435
274.228516 -23.882355 2.914790 0.477913
274.330017 -24.510729 2.579359 0.566583
274.188721 -23.636112 2.178484 0.570840
274.295502 -24.297115 1.810559 0.482475
274.245056 -23.984699 1.446818 0.473106
274.358795 -24.688820 1.018226 0.554406
274.261993 -24.089672 0.692376 0.487648
274.135193 -23.304680 0.431874 0.524926
274.202209 -23.719585 -0.000014 0.279126
273.926086 -22.010210 -0.000011 0.252474
273.722626 -20.750824 -0.000009 0.269468
274.295135 -24.824415 5.030275 0.517571
274.187256 -24.125694 4.460121 0.492653
274.388916 -25.431744 4.313038 0.484199
274.147522 -23.868282 3.650991 0.477760
278.380676 -51.287460 6.472106 0.968627
274.166931 -23.993912 2.923037 0.484489
274.224701 -24.368084 2.571630 0.441352
274.116791 -23.669235 2.178836 0.524529
274.217255 -24.319965 1.810389 0.477470
274.258118 -24.584513 1.417611 0.496651
274.079681 -23.428743 1.123853 0.487724
274.230835 -24.407917 0.656772 0.499748
273.989197 -22.842810 0.502926 0.483345
274.126434 -23.731560 -0.000014 0.203502
273.862213 -22.020298 -0.000011 0.235073
273.667572 -20.759521 -0.000009 0.188769
274.200989 -24.764788 5.011990 0.437201
274.209747 -24.824139 4.610008 0.482033
274.159973 -24.486221 4.136705 0.462562
278.106354 -51.287445 7.760357 0.968627
274.278290 -25.289658 3.444344 0.524422
274.234772 -24.994205 3.004970 0.529641
274.200470 -24.761257 2.590552 0.486809
273.989197 -23.326336 2.172976 0.449027
274.135986 -24.323210 1.810535 0.483360
274.091156 -24.018768 1.446317 0.531853
274.097137 -24.059380 1.072508 0.479423
274.118652 -24.205515 0.681722 0.476112
274.001678 -23.411156 0.419286 0.499611
274.050537 -23.743000 -0.000013 0.232643
273.798309 -22.029938 -0.000011 0.197625
273.612457 -20.767834 -0.000010 0.257369
274.125519 -24.831095 5.025741 0.478981
274.085876 -24.548111 4.547193 0.478370
274.091034 -24.584896 4.152693 0.480903
273.996429 -23.909712 3.653805 0.500862
274.055359 -24.330336 3.331457 0.489189
274.128418 -24.851845 2.992175 0.500328
274.114777 -24.754391 2.589619 0.509972
274.045593 -24.260746 2.188243 0.488502
274.016571 -24.053556 1.815181 0.515908
274.061890 -24.376934 1.429105 0.474678
274.081512 -24.516962 1.035552 0.541222
274.025543 -24.117491 0.693268 0.483848
274.018707 -24.068731 0.322376 0.506065
273.974579 -23.753914 -0.000014 0.198248
273.734314 -22.039135 -0.000011 0.218509
273.557281 -20.775763 -0.000010 0.231841
277.610779 -51.673752 11.805808 0.223529
273.987976 -24.436708 4.520492 0.480842
274.000610 -24.531576 4.140854 0.478004
273.997284 -24.506554 3.741542 0.488212
273.952454 -24.169506 3.311522 0.494667
274.044983 -24.865267 2.992340 0.447807
273.992218 -24.468487 2.574888 0.487800
273.961060 -24.234318 2.187627 0.519661
273.949371 -24.146255 1.813827 0.531395
273.932251 -24.017696 1.447452 0.483482
273.981506 -24.388039 1.047135 0.497948
274.741547 -30.102100 -0.000023 0.211556
273.918549 -23.914526 0.347051 0.473747
273.898560 -23.764299 -0.000014 0.204674
273.670258 -22.047882 -0.000011 0.211616
273.502045 -20.783304 -0.000009 0.193963
277.335327 -51.673759 11.796954 0.223529
273.985931 -25.072472 4.656611 0.476860
273.998352 -25.171144 4.256212 0.511650
273.922302 -24.567177 3.749032 0.477714
273.906525 -24.441868 3.341918 0.514382
273.958649 -24.855885 2.990668 0.463157
273.899109 -24.382984 2.570136 0.489326
273.872223 -24.169472 2.186388 0.537865
273.908783 -24.459814 1.808823 0.484901
273.854065 -24.025238 1.447578 0.486702
273.894165 -24.343662 1.051663 0.458289
273.858917 -24.063889 0.701908 0.494682
274.133667 -26.245926 -0.000018 0.219598
273.822449 -23.774151 -0.000014 0.201730
273.606140 -22.056181 -0.000011 0.237203
273.446777 -20.790462 -0.000010 0.254927
277.060364 -51.673752 11.788584 0.223529
273.889954 -24.992516 4.636952 0.438071
273.853638 -24.687054 4.165583 0.495308
273.773590 -24.013371 3.664811 0.513497
273.887970 -24.975945 3.402645 0.481575
273.863464 -24.769693 2.982705 0.493996
273.817627 -24.383802 2.569689 0.517281
273.784546 -24.105467 2.185174 0.489525
273.826965 -24.462551 1.808942 0.477378
276.994080 -51.115913 0.107808 0.956390
273.721832 -23.577660 1.115724 0.504433
274.500702 -30.132429 -0.000024 0.239716
273.747803 -23.796152 0.367636 0.501488
273.746277 -23.783472 -0.000014 0.209366
273.541962 -22.064034 -0.000011 0.222423
273.391449 -20.797234 -0.000010 0.239884
276.785828 -51.673759 11.780710 0.223529
276.711029 -51.004318 10.287811 0.976806
276.742676 -51.287415 9.034067 0.968627
273.706635 -24.119602 3.679328 0.471717
273.795044 -24.910835 3.393980 0.518425
273.778076 -24.758865 2.981021 0.457038
273.712036 -24.168016 2.558564 0.475563
276.734528 -51.214653 2.631398 0.223529
273.721832 -24.255657 1.812502 0.496666
273.650482 -23.617245 1.468662 0.480659
273.713531 -24.181414 1.066622 0.500252
273.787994 -24.847603 0.613340 0.493935
273.685455 -23.930115 0.348954 0.440635
273.670044 -23.792261 -0.000014 0.186579
273.477753 -22.071438 -0.000011 0.216917
273.336060 -20.803616 -0.000010 0.208696
276.511749 -51.673752 11.773321 0.223529
276.441681 -51.004311 10.281553 0.972213
273.699097 -24.806633 4.184083 0.479469
273.706573 -24.878036 3.791178 0.486076
273.672119 -24.549007 3.351075 0.506706
273.598846 -23.849075 2.905274 0.484367
273.620728 -24.058136 2.552714 0.440940
273.696381 -24.780704 2.195995 0.513985
273.640961 -24.251356 1.812714 0.533516
273.674591 -24.572727 1.421867 0.520317
273.646179 -24.301159 1.057454 0.479088
273.617157 -24.023930 0.709661 0.515251
273.853149 -26.278269 -0.000018 0.210969
273.593750 -23.800518 -0.000014 0.234702
273.413483 -22.078396 -0.000012 0.248309
273.280640 -20.809616 -0.000010 0.226731
276.238068 -51.673752 11.766422 0.223529
276.172699 -51.004303 10.275703 0.980392
273.617371 -24.831953 4.187170 0.519310
273.616821 -24.826271 3.782198 0.474617
273.600494 -24.659288 3.362868 0.473991
273.608124 -24.737335 2.977814 0.473716
273.593506 -24.587467 2.578452 0.485832
273.611877 -24.775642 2.195773 0.491600
273.639374 -25.057339 1.799595 0.502739
273.580597 -24.455303 1.428071 0.472786
273.565735 -24.303146 1.057956 0.491096
273.532349 -23.961254 0.717816 0.536492
273.759491 -26.287739 -0.000018 0.224912
273.517426 -23.808243 -0.000014 0.246167
273.349152 -22.084900 -0.000012 0.234055
273.225189 -20.815226 -0.000010 0.294744
275.959625 -51.617134 11.745766 0.223529
275.904114 -51.004303 10.270268 0.968627
275.918030 -51.158028 8.995541 0.223529
275.918030 -51.158020 7.702968 0.223529
273.518677 -24.672565 3.363506 0.486458
273.523560 -24.726631 2.976291 0.488075
273.421631 -23.601517 2.529437 0.536080
273.524445 -24.736267 2.194998 0.491676
273.499573 -24.461960 1.809509 0.478782
273.486298 -24.315224 1.435357 0.474983
273.478363 -24.227587 1.064796 0.485679
273.431732 -23.713106 0.747323 0.554910
273.665771 -26.296564 -0.000018 0.201646
273.441010 -23.815432 -0.000014 0.224924
273.284790 -22.090958 -0.000012 0.266105
273.169678 -20.820448 -0.000010 0.212310
275.691803 -51.673759 11.754077 0.223529
275.635864 -51.004288 10.265240 0.971206
275.659515 -51.287384 9.014908 0.968627
275.659515 -51.287384 7.718758 0.968627
273.436737 -24.685844 3.364211 0.488075
273.461151 -24.977903 2.996372 0.541146
273.381592 -24.025936 2.550038 0.532540
275.653442 -51.214653 2.629679 0.223529
273.398071 -24.223076 1.813547 0.458808
273.409058 -24.354666 1.433756 0.485557
273.425659 -24.553185 1.038574 0.517220
273.345886 -23.598606 0.761302 0.494896
273.572021 -26.304726 -0.000018 0.234367
273.364563 -23.822086 -0.000014 0.241176
273.220398 -22.096565 -0.000011 0.237574
273.114166 -20.825283 -0.000010 0.251588
275.419159 -51.673767 11.748631 0.223529
275.367920 -51.004280 10.260619 0.980392
275.389587 -51.287376 9.010988 0.968627
275.389587 -51.287384 7.715564 0.968627
275.389587 -51.287384 6.432659 0.968627
273.357239 -24.731880 2.975584 0.494392
273.327820 -24.347641 2.565582 0.505898
273.364166 -24.822481 2.196186 0.498787
275.389587 -51.287399 1.369478 0.968627
273.322327 -24.275892 1.437953 0.492851
273.345551 -24.579350 1.036959 0.525475
273.277527 -23.690535 0.751387 0.509773
273.478180 -26.312237 -0.000018 0.225403
273.288086 -23.828209 -0.000014 0.231602
273.155945 -22.101727 -0.000012 0.250679
273.058594 -20.829731 -0.000010 0.225211
275.146790 -51.673759 11.743663 0.223529
275.100250 -51.004280 10.256410 0.980392
275.119934 -51.287369 9.007414 0.968627
275.119934 -51.287369 7.712650 0.968627
275.119934 -51.287369 6.430397 0.968627
275.100250 -51.004288 5.134499 0.980392
275.119934 -51.287376 3.891951 0.968627
273.274261 -24.735905 2.194665 0.487297
275.119934 -51.287384 1.369800 0.968627
273.236877 -24.198246 1.442063 0.508858
274.140808 -37.201782 -0.000029 0.221573
273.206696 -23.764042 0.743547 0.493675
273.384308 -26.319092 -0.000018 0.250044
273.211548 -23.833797 -0.000014 0.237263
273.091461 -22.106430 -0.000012 0.216211
273.002991 -20.833790 -0.000010 0.241093
274.874695 -51.673759 11.739171 0.223529
274.832855 -51.004272 10.252604 0.968627
274.850555 -51.287361 9.004186 0.968627
274.850555 -51.287354 7.710015 0.968627
274.850555 -51.287361 6.428354 0.968627
274.832855 -51.004280 5.133055 0.975525
274.850555 -51.287376 3.891079 0.968627
273.192444 -24.758358 2.194944 0.469444
274.850555 -51.287376 1.370090 0.968627
273.204987 -24.959091 1.404870 0.471504
273.970886 -37.213005 -0.000029 0.225403
273.113251 -23.491123 0.775584 0.514168
273.290375 -26.325291 -0.000018 0.240578
273.134979 -23.838852 -0.000014 0.233218
273.026947 -22.110691 -0.000012 0.239884
272.947388 -20.837463 -0.000010 0.247100
274.602844 -51.673767 11.735163 0.223529
274.565674 -51.004265 10.249204 0.980392
274.581390 -51.287354 9.001298 0.968627
274.581390 -51.287346 7.707662 0.968627
274.581390 -51.287354 6.426531 0.968627
274.565674 -51.004272 5.131764 0.980392
274.581390 -51.287361 3.890300 0.968627
273.109528 -24.765448 2.194980 0.494026
273.076691 -24.173389 1.814723 0.500481
273.156067 -25.604080 1.373379 0.490013
273.800873 -37.223038 -0.000029 0.225798
273.054657 -23.776678 0.743187 0.498344
273.196411 -26.330839 -0.000018 0.207870
273.058380 -23.843370 -0.000014 0.242744
272.962433 -22.114498 -0.000011 0.241619
272.891724 -20.840748 -0.000010 0.253982
274.331207 -51.673767 11.731627 0.223529
274.298737 -51.004250 10.246209 0.968627
274.312469 -51.287346 8.998757 0.968627
274.312469 -51.287338 7.705589 0.968627
274.312469 -51.287354 6.424923 0.968627
274.298737 -51.004257 5.130625 0.969406
274.312469 -51.287354 3.889613 0.968627
274.308929 -51.214653 2.628230 0.223529
272.999603 -24.216068 1.814092 0.481178
273.010345 -24.437494 1.430985 0.454276
273.630829 -37.231888 -0.000030 0.222483
272.978607 -23.782999 0.742915 0.493675
273.102417 -26.335728 -0.000018 0.232284
272.981750 -23.847359 -0.000014 0.222207
272.897858 -22.117855 -0.000011 0.233972
272.836060 -20.843641 -0.000010 0.203633
274.057861 -51.628929 11.717333 0.223529
274.031952 -51.004250 10.243617 0.980392
274.043701 -51.287338 8.996555 0.968627
274.043701 -51.287338 7.703797 0.968627
274.043701 -51.287338 6.423532 0.968627
274.031952 -51.004257 5.129642 0.977356
274.043701 -51.287354 3.889019 0.968627
274.040680 -51.214653 2.628032 0.223529
272.919739 -24.203926 1.814349 0.474769
272.913940 -24.064434 1.449507 0.514702
273.460724 -37.239540 -0.000030 0.226420
272.883423 -23.329351 0.795543 0.539467
273.008392 -26.339958 -0.000018 0.247902
272.905090 -23.850807 -0.000014 0.245305
272.833282 -22.120766 -0.000012 0.234079
272.780396 -20.846148 -0.000010 0.233529
273.788422 -51.673767 11.725992 0.223529
273.765320 -51.004234 10.241427 0.969268
273.775085 -51.287331 8.994698 0.968627
273.775085 -51.287331 7.702283 0.968627
273.775085 -51.287338 6.422359 0.968627
273.765320 -51.004250 5.128812 0.980392
273.775085 -51.287346 3.888519 0.968627
273.772583 -51.214653 2.627866 0.223529
273.775085 -51.287346 1.370944 0.968627
272.835968 -24.073242 1.449220 0.506966
273.290558 -37.246010 -0.000030 0.224912
272.828674 -23.861645 0.734591 0.456168
272.914307 -26.343531 -0.000018 0.241069
272.828400 -23.853722 -0.000014 0.202305
272.768677 -22.123219 -0.000012 0.213183
272.724670 -20.848263 -0.000010 0.284356
273.517242 -51.673759 11.723885 0.223529
273.498840 -51.004234 10.239642 0.962615
273.506622 -51.287323 8.993183 0.968627
273.506622 -51.287315 7.701046 0.968627
273.506622 -51.287323 6.421400 0.968627
273.498840 -51.004242 5.128134 0.980392
273.506622 -51.287331 3.888109 0.968627
273.504608 -51.214661 2.627731 0.223529
273.506622 -51.287338 1.371080 0.968627
273.501892 -51.115906 0.120315 0.968994
273.120331 -37.251286 -0.000030 0.220209
272.805542 -25.813168 0.510275 0.457023
272.820221 -26.346451 -0.000018 0.203932
272.751709 -23.856100 -0.000014 0.221537
272.704071 -22.125223 -0.000012 0.245329
272.668976 -20.849991 -0.000010 0.187512
273.245667 -51.648476 11.715921 0.223529
273.232422 -51.004227 10.238261 0.963043
273.238251 -51.287315 8.992009 0.968627
273.238251 -51.287315 7.700089 0.968627
273.238251 -51.287315 6.420657 0.968627
273.232422 -51.004227 5.127607 0.980392
273.238251 -51.287331 3.887793 0.968627
273.236755 -51.214661 2.627625 0.223529
273.238251 -51.287331 1.371185 0.968627
273.234741 -51.115913 0.120630 0.980392
272.950104 -37.255386 -0.000031 0.226719
272.806244 -30.250219 -0.000024 0.216917
272.726135 -26.348713 -0.000018 0.229579
272.674988 -23.857944 -0.000014 0.211269
272.639435 -22.126778 -0.000013 0.234570
272.613251 -20.851330 -0.000010 0.202496
272.974884 -51.651184 11.715443 0.223529
272.966125 -51.004219 10.237278 0.980392
272.969971 -51.287308 8.991177 0.968627
272.969971 -51.287308 7.699411 0.968627
272.969971 -51.287308 6.420131 0.968627
272.966125 -51.004219 5.127235 0.980392
272.969971 -51.287315 3.887566 0.968627
272.968964 -51.214661 2.627550 0.223529
272.969971 -51.287331 1.371260 0.968627
272.605621 -24.402027 1.433343 0.524361
272.779846 -37.258282 -0.000030 0.229675
272.684906 -30.252281 -0.000024 0.234103
272.632019 -26.350315 -0.000018 0.222351
272.598267 -23.859249 -0.000014 0.211161
