# This PCD file was generated using the MATLABÂ® pcwrite function
# from Computer Vision ToolboxÂ®.
# .PCD v.7 - Point Cloud Data file format
VERSION .7
FIELDS x y z intensity
SIZE 4 4 4 4
TYPE F F F F
COUNT 1 1 1 1
WIDTH 1239
HEIGHT 1
VIEWPOINT 0 0 0 1 0 0 0
POINTS 1239
DATA ascii
nan nan nan 0.000000
nan nan nan 0.000000
nan nan nan 0.000000
nan nan nan 0.000000
251.921692 -118.836441 0.000058 0.230202
255.020889 -134.857986 0.000035 0.233146
256.351532 -141.736755 0.000026 0.228083
257.092621 -145.567886 0.000020 0.227880
257.565735 -148.013748 0.000016 0.271407
257.894592 -149.713715 0.000014 0.222303
258.136871 -150.966187 0.000012 0.196883
nan nan nan 0.000000
nan nan nan 0.000000
nan nan nan 0.000000
nan nan nan 0.000000
nan nan nan 0.000000
nan nan nan 0.000000
nan nan nan 0.000000
nan nan nan 0.000000
nan nan nan 0.000000
252.200912 -118.783447 0.000058 0.226420
255.188187 -134.826233 0.000035 0.221729
256.470764 -141.714111 0.000026 0.221370
257.185089 -145.550339 0.000020 0.235324
257.641144 -147.999435 0.000017 0.203382
257.958099 -149.701660 0.000014 0.239716
258.191620 -150.955795 0.000012 0.235910
nan nan nan 0.000000
nan nan nan 0.000000
nan nan nan 0.000000
nan nan nan 0.000000
nan nan nan 0.000000
nan nan nan 0.000000
nan nan nan 0.000000
nan nan nan 0.000000
nan nan nan 0.000000
252.480499 -118.732407 0.000059 0.230968
255.355698 -134.795639 0.000035 0.227006
256.590149 -141.692322 0.000026 0.217049
257.277679 -145.533432 0.000020 0.281472
257.716614 -147.985657 0.000017 0.243366
258.021698 -149.690048 0.000014 0.224074
258.246460 -150.945770 0.000012 0.213543
nan nan nan 0.000000
nan nan nan 0.000000
nan nan nan 0.000000
nan nan nan 0.000000
nan nan nan 0.000000
nan nan nan 0.000000
nan nan nan 0.000000
nan nan nan 0.000000
nan nan nan 0.000000
252.760437 -118.683311 0.000058 0.231805
255.523422 -134.766235 0.000036 0.231590
256.709717 -141.671356 0.000025 0.242577
257.370392 -145.517166 0.000020 0.228359
257.792206 -147.972397 0.000016 0.192623
258.085388 -149.678894 0.000014 0.221752
258.301361 -150.936157 0.000012 0.188111
nan nan nan 0.000000
nan nan nan 0.000000
nan nan nan 0.000000
nan nan nan 0.000000
nan nan nan 0.000000
245.015747 -69.887306 9.388984 0.223529
nan nan nan 0.000000
nan nan nan 0.000000
nan nan nan 0.000000
253.040695 -118.636162 0.000058 0.229723
255.691345 -134.737991 0.000036 0.235839
256.829407 -141.651215 0.000026 0.230896
257.463226 -145.501556 0.000020 0.228598
257.867889 -147.959671 0.000016 0.253982
258.149139 -149.668167 0.000014 0.201455
258.356323 -150.926895 0.000012 0.206685
nan nan nan 0.000000
nan nan nan 0.000000
nan nan nan 0.000000
nan nan nan 0.000000
nan nan nan 0.000000
245.552841 -69.253647 9.433279 0.968627
245.609268 -69.611977 6.435768 0.223529
nan nan nan 0.000000
nan nan nan 0.000000
253.321289 -118.590973 0.000058 0.230465
255.859467 -134.710907 0.000035 0.230920
256.949219 -141.631927 0.000026 0.222518
257.556152 -145.486588 0.000020 0.217624
257.943634 -147.947479 0.000016 0.186723
258.212952 -149.657883 0.000014 0.225798
258.411377 -150.918045 0.000012 0.263496
nan nan nan 0.000000
nan nan nan 0.000000
nan nan nan 0.000000
nan nan nan 0.000000
nan nan nan 0.000000
246.192703 -69.252693 9.425373 0.968627
246.145248 -68.936966 6.464537 0.968627
246.205292 -69.336472 3.480505 0.223529
246.245544 -69.604233 0.523926 0.972351
253.602188 -118.547745 0.000058 0.224601
256.027771 -134.685013 0.000035 0.238172
257.069183 -141.613464 0.000026 0.240195
257.649200 -145.472260 0.000020 0.212585
258.019470 -147.935791 0.000016 0.227928
258.276855 -149.648056 0.000014 0.207415
258.466461 -150.909561 0.000012 0.209485
nan nan nan 0.000000
nan nan nan 0.000000
nan nan nan 0.000000
nan nan nan 0.000000
nan nan nan 0.000000
246.831223 -69.251762 9.417849 0.968627
246.786057 -68.936363 6.459998 0.968627
246.753036 -68.705727 3.489415 0.968627
246.879898 -69.591766 0.525230 0.959030
253.883377 -118.506470 0.000058 0.231016
256.196259 -134.660294 0.000035 0.237861
257.189270 -141.595840 0.000026 0.218126
257.742310 -145.458603 0.000020 0.236964
258.095398 -147.924652 0.000016 0.229603
258.340820 -149.638657 0.000013 0.215254
258.521606 -150.901474 0.000012 0.240638
nan nan nan 0.000000
nan nan nan 0.000000
nan nan nan 0.000000
nan nan nan 0.000000
nan nan nan 0.000000
247.468491 -69.250893 9.410695 0.968627
247.425629 -68.935783 6.455683 0.968627
247.394287 -68.705482 3.487969 0.968627
247.513184 -69.579292 0.526462 0.977951
254.164856 -118.467178 0.000058 0.225391
256.364899 -134.636749 0.000035 0.232907
257.309448 -141.579056 0.000025 0.231399
257.835541 -145.445587 0.000020 0.216906
258.171387 -147.914047 0.000016 0.231865
258.404846 -149.629730 0.000013 0.243486
258.576813 -150.893753 0.000012 0.201000
nan nan nan 0.000000
nan nan nan 0.000000
nan nan nan 0.000000
nan nan nan 0.000000
nan nan nan 0.000000
248.104584 -69.250053 9.403913 0.968627
248.063980 -68.935226 6.451589 0.968627
248.034332 -68.705254 3.486600 0.968627
248.145416 -69.566750 0.527616 0.963363
254.446609 -118.429840 0.000058 0.229675
256.533691 -134.614380 0.000035 0.237945
257.429779 -141.563110 0.000025 0.240351
257.928864 -145.433228 0.000020 0.209102
258.247467 -147.903961 0.000016 0.220639
258.468933 -149.621231 0.000013 0.194550
258.632080 -150.886444 0.000012 0.262515
nan nan nan 0.000000
nan nan nan 0.000000
nan nan nan 0.000000
nan nan nan 0.000000
nan nan nan 0.000000
248.739532 -69.249252 9.397497 0.968627
248.701202 -68.934692 6.447721 0.968627
248.673218 -68.705025 3.485300 0.968627
248.776718 -69.554321 0.528699 0.972305
254.728607 -118.394478 0.000058 0.233529
256.702667 -134.593185 0.000035 0.237215
257.550201 -141.548004 0.000025 0.239130
258.022247 -145.421509 0.000020 0.256974
258.323608 -147.894409 0.000016 0.251517
258.533081 -149.613190 0.000013 0.245844
258.687378 -150.879501 0.000011 0.209653
nan nan nan 0.000000
nan nan nan 0.000000
nan nan nan 0.000000
nan nan nan 0.000000
nan nan nan 0.000000
257.399078 -139.167099 3.620811 0.445441
249.414795 -69.609024 6.410701 0.223529
249.311005 -68.704803 3.484076 0.968627
249.407104 -69.541916 0.529710 0.970459
255.010849 -118.361084 0.000057 0.230118
256.871765 -134.573181 0.000035 0.236652
257.670746 -141.533752 0.000025 0.213136
258.115723 -145.410446 0.000020 0.228395
258.399811 -147.885406 0.000016 0.268272
258.597260 -149.605591 0.000013 0.210922
258.742737 -150.872955 0.000011 0.215302
nan nan nan 0.000000
nan nan nan 0.000000
nan nan nan 0.000000
nan nan nan 0.000000
nan nan nan 0.000000
257.595154 -139.698715 3.575710 0.421317
249.972473 -68.933685 6.440647 0.968627
249.947800 -68.704613 3.482930 0.968627
250.036652 -69.529510 0.530647 0.971252
255.293304 -118.329651 0.000057 0.230262
257.040985 -134.554352 0.000035 0.237155
257.791351 -141.520325 0.000025 0.240255
258.209290 -145.400040 0.000019 0.217971
258.476074 -147.876907 0.000016 0.234020
258.661530 -149.598434 0.000013 0.257357
258.798157 -150.866791 0.000011 0.186974
nan nan nan 0.000000
nan nan nan 0.000000
nan nan nan 0.000000
nan nan nan 0.000000
nan nan nan 0.000000
257.725067 -139.649872 3.578589 0.437613
257.624634 -138.652145 2.995062 0.449882
250.583633 -68.704399 3.481852 0.968627
250.665436 -69.517151 0.531513 0.978317
255.575989 -118.300201 0.000057 0.224577
257.210358 -134.536697 0.000035 0.232105
257.912079 -141.507751 0.000025 0.224565
258.302887 -145.390289 0.000019 0.219562
258.552399 -147.868958 0.000016 0.220221
258.725830 -149.591736 0.000013 0.209928
258.853577 -150.861008 0.000011 0.216822
nan nan nan 0.000000
nan nan nan 0.000000
nan nan nan 0.000000
nan nan nan 0.000000
257.852722 -139.571503 4.222341 0.469001
257.859283 -139.641785 3.578186 0.570596
251.239975 -68.932816 6.434452 0.968627
251.218567 -68.704216 3.480851 0.968627
251.293518 -69.504768 0.532304 0.979019
255.858856 -118.272720 0.000057 0.231159
257.379852 -134.520248 0.000035 0.225331
258.032867 -141.496017 0.000025 0.235384
258.396576 -145.381180 0.000019 0.261833
258.628784 -147.861542 0.000016 0.224338
258.790161 -149.585495 0.000013 0.249111
258.909058 -150.855621 0.000011 0.262671
nan nan nan 0.000000
nan nan nan 0.000000
nan nan nan 0.000000
nan nan nan 0.000000
257.961487 -139.264160 4.256432 0.419196
257.965454 -139.310181 3.604485 0.417426
258.026703 -140.017487 2.926436 0.441932
257.978394 -139.459671 2.317754 0.425391
251.920944 -69.492409 0.533025 0.965866
256.141937 -118.247223 0.000057 0.224780
257.549438 -134.504974 0.000035 0.232452
258.153748 -141.485138 0.000025 0.228957
258.490326 -145.372742 0.000019 0.214524
258.705200 -147.854660 0.000016 0.207702
258.854553 -149.579697 0.000013 0.231028
258.964569 -150.850616 0.000011 0.266189
nan nan nan 0.000000
255.195038 -102.759552 14.142953 0.662882
nan nan nan 0.000000
nan nan nan 0.000000
258.145996 -139.856934 4.186717 0.426184
258.087952 -139.127319 3.618597 0.444083
252.504196 -68.931999 6.429138 0.968627
258.109833 -139.402435 2.318509 0.439078
252.547791 -69.480049 0.533673 0.975204
256.425140 -118.223694 0.000057 0.230429
257.719147 -134.490875 0.000035 0.225175
258.274719 -141.475082 0.000025 0.236210
258.584137 -145.364944 0.000019 0.214931
258.781677 -147.848312 0.000016 0.272867
258.918976 -149.574341 0.000013 0.254425
259.020142 -150.846008 0.000011 0.257548
nan nan nan 0.000000
255.767990 -105.233398 13.600803 0.645167
255.768005 -105.233665 11.773284 0.632563
255.768005 -105.233582 9.967479 0.624903
258.297760 -140.115021 4.155787 0.435279
258.203430 -138.814407 3.643462 0.450141
258.313110 -140.326538 2.910186 0.443397
258.273651 -139.782730 2.312101 0.425818
255.767990 -105.233376 1.121051 0.637034
256.708557 -118.202164 0.000058 0.225726
257.888947 -134.477966 0.000035 0.236162
258.395721 -141.465881 0.000025 0.237658
258.677979 -145.357819 0.000019 0.219909
258.858185 -147.842484 0.000016 0.192910
258.983429 -149.569443 0.000013 0.226492
259.075714 -150.841782 0.000011 0.270342
nan nan nan 0.000000
256.143768 -105.233383 13.595220 0.634699
256.143799 -105.233688 11.768573 0.634470
256.143799 -105.233597 9.963638 0.628977
258.446106 -140.378174 4.124411 0.459953
258.322510 -138.491394 3.669212 0.434592
258.433258 -140.181885 2.916869 0.419608
258.408722 -139.807358 2.311547 0.426200
256.143768 -105.233360 1.121475 0.641627
256.992065 -118.182602 0.000059 0.229663
258.058807 -134.466232 0.000035 0.230190
258.516815 -141.457520 0.000025 0.234750
258.771881 -145.351318 0.000019 0.244467
258.934753 -147.837204 0.000015 0.241535
259.047943 -149.564987 0.000013 0.229316
259.131317 -150.837936 0.000011 0.210898
nan nan nan 0.000000
256.519226 -105.233353 13.590209 0.638148
258.587067 -140.580215 5.321829 0.445548
256.519226 -105.233597 9.960193 0.638941
258.573639 -140.350525 4.126678 0.441306
258.484528 -138.827240 3.640904 0.444663
258.566315 -140.225449 2.914328 0.437598
256.519226 -105.233398 2.878144 0.643977
256.519226 -105.233360 1.121855 0.639673
257.275726 -118.165009 0.000058 0.233421
258.228760 -134.455688 0.000035 0.230046
258.637939 -141.450012 0.000024 0.220604
258.865845 -145.345505 0.000019 0.206553
259.011322 -147.832458 0.000015 0.251756
259.112457 -149.560989 0.000013 0.223631
259.186951 -150.834488 0.000011 0.228598
nan nan nan 0.000000
256.894348 -105.233345 13.585762 0.630030
256.894379 -105.233681 11.760597 0.622675
258.720917 -140.701004 4.689073 0.426352
258.701447 -140.323044 4.129026 0.430060
258.756104 -141.384308 3.430330 0.440681
256.894348 -105.233597 4.635293 0.641733
256.894348 -105.233429 2.877807 0.640040
256.894348 -105.233353 1.122192 0.633707
257.559509 -118.149414 0.000058 0.230501
258.398804 -134.446350 0.000035 0.245389
258.759125 -141.443344 0.000025 0.225857
258.959839 -145.340332 0.000019 0.234438
259.087952 -147.828247 0.000015 0.266823
259.177002 -149.557434 0.000013 0.220723
259.242615 -150.831421 0.000011 0.286786
nan nan nan 0.000000
257.269226 -105.233337 13.581881 0.626154
258.814575 -139.959091 5.432571 0.419608
258.846619 -140.679535 4.691360 0.432151
258.863678 -141.062805 4.043125 0.435096
258.780518 -139.194138 3.609612 0.577691
258.907806 -142.053833 2.823760 0.431373
257.269226 -105.233459 2.877512 0.638498
257.269226 -105.233353 1.122486 0.661845
257.843384 -118.135773 0.000058 0.231123
258.568878 -134.438187 0.000035 0.228443
258.880371 -141.437531 0.000025 0.233684
259.053833 -145.335815 0.000019 0.230764
259.164612 -147.824570 0.000015 0.194861
259.241577 -149.554337 0.000013 0.210658
259.298279 -150.828766 0.000011 0.208313
nan nan nan 0.000000
257.643860 -105.233345 13.578562 0.630533
257.643860 -105.233627 11.754543 0.635660
258.945557 -139.937683 4.800708 0.439216
258.988647 -141.086304 4.039835 0.430320
258.996704 -141.300980 3.436279 0.431373
259.023438 -142.013870 2.825488 0.444907
257.643860 -105.233498 2.877260 0.633158
257.643860 -105.233360 1.122738 0.678614
258.127350 -118.124115 0.000058 0.223416
258.739014 -134.431198 0.000035 0.234953
259.001617 -141.432556 0.000025 0.216929
259.147888 -145.331970 0.000019 0.214632
259.241272 -147.821411 0.000015 0.284955
259.306183 -149.551697 0.000013 0.247352
259.353973 -150.826477 0.000011 0.193532
nan nan nan 0.000000
258.018280 -105.233353 13.575812 0.648463
258.018311 -105.233604 11.752233 0.649195
259.098755 -140.636292 4.696367 0.409659
259.124756 -141.487701 3.993154 0.473777
259.120026 -141.333298 3.433286 0.414511
259.139069 -141.957062 2.828085 0.542611
259.088135 -140.287949 2.303157 0.429633
258.018280 -105.233360 1.122945 0.635157
258.411407 -118.114441 0.000058 0.231686
258.909210 -134.425415 0.000035 0.246095
259.122925 -141.428421 0.000024 0.217001
259.241974 -145.328766 0.000019 0.253695
259.317963 -147.818802 0.000015 0.198295
259.370789 -149.549484 0.000013 0.194442
259.409698 -150.824585 0.000010 0.232930
nan nan nan 0.000000
258.392578 -105.233345 13.573632 0.646662
259.221313 -140.450470 5.340694 0.431373
259.201660 -139.615524 4.847317 0.425803
259.260803 -142.128387 3.919052 0.465507
259.250946 -141.708771 3.402221 0.432853
259.177521 -138.589172 2.993427 0.434806
259.219543 -140.375107 2.301673 0.463264
258.392578 -105.233353 1.123111 0.649836
258.695526 -118.106781 0.000058 0.225917
259.079437 -134.420807 0.000035 0.226420
259.244263 -141.425140 0.000024 0.239513
259.336060 -145.326218 0.000019 0.204471
259.394684 -147.816727 0.000015 0.250571
259.435394 -149.547745 0.000013 0.252881
259.465424 -150.823074 0.000011 0.211819
nan nan nan 0.000000
258.766724 -105.233345 13.572012 0.633982
259.351990 -140.599228 5.313155 0.443824
259.332336 -139.413040 4.876960 0.438865
259.355865 -140.834427 4.067662 0.437766
259.352753 -140.646469 3.489141 0.437186
259.377228 -142.125656 2.819529 0.444251
258.766724 -105.233528 2.876765 0.643595
258.766724 -105.233353 1.123234 0.670512
258.979675 -118.101074 0.000058 0.229304
259.249664 -134.417404 0.000035 0.238507
259.365601 -141.422714 0.000024 0.225474
259.430176 -145.324341 0.000019 0.233182
259.471375 -147.815201 0.000015 0.245569
259.500031 -149.546448 0.000013 0.200797
259.521149 -150.821960 0.000011 0.247053
nan nan nan 0.000000
259.140778 -105.233345 13.570955 0.633936
259.477936 -140.478424 5.334834 0.431373
259.484222 -141.135574 4.621171 0.442832
259.479858 -140.679016 4.085353 0.467353
259.480438 -140.738342 3.481471 0.473869
259.494110 -142.167892 2.817379 0.421881
259.467346 -139.369370 2.318062 0.551095
259.456970 -138.286285 1.664214 0.431785
259.263855 -118.097374 0.000058 0.234032
259.419952 -134.415161 0.000035 0.241595
259.486969 -141.421127 0.000024 0.215936
259.524292 -145.323105 0.000019 0.246275
259.548126 -147.814194 0.000015 0.230202
259.564667 -149.545609 0.000012 0.239620
259.576874 -150.821228 0.000011 0.238998
nan nan nan 0.000000
259.514801 -105.233353 13.570465 0.657649
259.514801 -105.233414 11.747763 0.637690
259.608948 -141.655807 4.543890 0.411582
259.607147 -140.964981 4.052366 0.417823
259.606445 -140.690155 3.485359 0.430930
259.610382 -142.209869 2.815281 0.431373
259.605072 -140.156693 2.305165 0.429679
259.514801 -105.233368 1.123351 0.660090
259.548035 -118.095642 0.000058 0.231530
259.590210 -134.414139 0.000035 0.225151
259.608337 -141.420395 0.000024 0.218725
259.618408 -145.322540 0.000019 0.233445
259.624847 -147.813736 0.000015 0.235551
259.629333 -149.545212 0.000013 0.211664
259.632629 -150.820892 0.000010 0.240925
nan nan nan 0.000000
259.888794 -105.233345 13.570537 0.641489
259.729645 -141.430740 5.161434 0.428199
259.730255 -141.292267 4.597833 0.465126
259.725586 -142.356354 3.892313 0.431373
259.731018 -141.121460 3.450004 0.489845
259.726044 -142.254089 2.813115 0.461341
259.727356 -141.954193 2.275752 0.438697
259.888794 -105.233353 1.123345 0.639673
259.832245 -118.095909 0.000058 0.230034
259.760498 -134.414291 0.000034 0.237861
259.729706 -141.420502 0.000024 0.240925
259.712555 -145.322617 0.000018 0.242816
259.701599 -147.813797 0.000015 0.211532
259.693970 -149.545273 0.000013 0.296420
259.688354 -150.820938 0.000011 0.250727
nan nan nan 0.000000
260.263580 -105.168793 13.585117 0.678431
259.851898 -141.348740 5.176529 0.435309
259.846497 -141.821701 4.519437 0.432349
259.843933 -142.047211 3.927983 0.424735
259.853210 -141.232010 3.441019 0.438193
259.841400 -142.270950 2.812331 0.436942
259.843933 -142.047394 2.274242 0.430030
259.886658 -138.293961 1.664333 0.433783
260.116455 -118.098145 0.000058 0.222758
259.930786 -134.415634 0.000034 0.228323
259.851074 -141.421463 0.000024 0.224984
259.806671 -145.323364 0.000019 0.204375
259.778320 -147.814407 0.000015 0.252618
259.758606 -149.545776 0.000012 0.272712
259.744110 -150.821381 0.000010 0.277355
nan nan nan 0.000000
260.638092 -105.168808 13.586318 0.678431
259.984070 -140.788406 5.278831 0.449912
259.976074 -141.223740 4.608413 0.427680
259.971039 -141.498886 3.991274 0.435523
259.962036 -141.989426 3.379053 0.439216
259.955658 -142.336777 2.809181 0.437873
260.636932 -105.233330 2.876793 0.629633
260.636932 -105.233368 1.123206 0.649363
260.400635 -118.102371 0.000058 0.231219
260.101044 -134.418152 0.000034 0.221070
259.972412 -141.423264 0.000024 0.215410
259.900787 -145.324753 0.000019 0.233529
259.855042 -147.815552 0.000015 0.225259
259.823273 -149.546738 0.000012 0.244779
259.799835 -150.822205 0.000010 0.232380
nan nan nan 0.000000
260.109894 -140.789581 5.892267 0.444465
260.099915 -141.182846 5.207540 0.434516
260.113678 -140.639847 4.695451 0.598459
260.098419 -141.242142 4.021124 0.450904
260.093170 -141.448914 3.423596 0.421256
260.088104 -141.649292 2.843090 0.563043
261.011108 -105.233345 2.876929 0.656672
261.011108 -105.233353 1.123072 0.648234
260.684753 -118.108582 0.000058 0.231446
260.271301 -134.421890 0.000034 0.232811
260.093750 -141.425903 0.000024 0.218401
259.994873 -145.326813 0.000018 0.223536
259.931763 -147.817215 0.000015 0.236497
259.887878 -149.548157 0.000012 0.199564
259.855560 -150.823425 0.000010 0.192084
nan nan nan 0.000000
260.235046 -140.812027 5.888198 0.434043
260.211761 -141.532028 5.144614 0.450568
260.227234 -141.053864 4.634547 0.449241
260.176056 -142.636017 3.861095 0.574090
260.280396 -139.408813 3.591249 0.560311
260.265228 -139.878052 2.930320 0.526741
260.355377 -137.090363 2.355526 0.428428
260.275818 -139.551147 1.684763 0.578561
260.968842 -118.116768 0.000058 0.230597
260.441498 -134.426788 0.000034 0.223847
260.215088 -141.429413 0.000024 0.216558
260.088989 -145.329529 0.000018 0.234355
260.008453 -147.819427 0.000015 0.259176
259.952515 -149.550018 0.000012 0.219227
259.911285 -150.825027 0.000010 0.237658
nan nan nan 0.000000
260.359955 -140.834351 5.884344 0.428138
260.354858 -140.963959 5.248846 0.444480
260.358856 -140.862030 4.663685 0.408881
260.287842 -142.667770 3.857904 0.461097
260.378357 -140.366180 3.513087 0.429862
260.395935 -139.918961 2.928541 0.492699
260.387299 -140.138336 2.305700 0.570565
260.404510 -139.700790 1.687134 0.621805
260.407837 -139.616135 1.056570 0.514565
260.407440 -139.626511 0.426216 0.549142
260.336365 -141.433762 0.000024 0.222997
260.183044 -145.332901 0.000019 0.237789
260.085144 -147.822174 0.000015 0.257261
260.017120 -149.552338 0.000012 0.245628
259.966980 -150.827026 0.000010 0.222494
nan nan nan 0.000000
262.134583 -105.233353 13.582829 0.658640
260.473541 -141.095184 5.225915 0.447639
260.489502 -140.751053 4.680960 0.448722
260.398163 -142.722504 3.852155 0.432242
260.510651 -140.294220 3.519446 0.568261
260.568726 -139.040115 2.972040 0.423102
260.537323 -139.718292 2.312672 0.585672
260.561279 -139.201096 1.678855 0.573419
260.540924 -139.640350 1.057479 0.569207
260.540161 -139.656906 0.428240 0.586496
260.457642 -141.438934 0.000024 0.220053
260.277069 -145.336929 0.000018 0.239824
260.161835 -147.825455 0.000014 0.195292
260.081696 -149.555099 0.000013 0.212154
260.022675 -150.829407 0.000010 0.251888
nan nan nan 0.000000
262.509521 -105.233353 13.586860 0.621698
260.603729 -140.978226 5.248346 0.431800
260.562561 -141.750473 4.533433 0.443626
260.507843 -142.776764 3.846550 0.458213
260.625916 -140.562286 3.497963 0.424720
260.620941 -140.655502 2.892907 0.562936
260.667084 -139.790039 2.311606 0.424933
262.511383 -105.198792 1.121542 0.126482
260.676941 -139.605438 1.055434 0.569955
260.951874 -134.448654 0.000034 0.222818
260.578857 -141.444992 0.000024 0.207403
260.371094 -145.341614 0.000018 0.270210
260.238464 -147.829285 0.000014 0.279737
260.146271 -149.558304 0.000012 0.196022
260.078369 -150.832184 0.000010 0.280886
nan nan nan 0.000000
260.812836 -139.581635 6.159453 0.453315
260.762085 -140.422882 5.350869 0.430182
260.670532 -141.940674 4.506173 0.495003
260.755066 -140.539459 4.105132 0.459495
260.747803 -140.659943 3.490535 0.442756
262.884735 -105.233368 4.636600 0.669245
260.775574 -140.199173 2.305022 0.443046
262.886810 -105.198799 1.121193 0.145449
262.104431 -118.169373 0.000057 0.223129
261.121887 -134.458313 0.000034 0.216726
260.700012 -141.451874 0.000024 0.225283
260.465057 -145.346954 0.000018 0.247495
260.315063 -147.833633 0.000015 0.209797
260.210815 -149.561981 0.000012 0.265004
260.134003 -150.835342 0.000010 0.202089
nan nan nan 0.000000
263.260254 -105.233345 13.596623 0.657115
260.914948 -140.066452 5.417363 0.438605
260.842285 -141.145844 4.625458 0.426123
260.793854 -141.864792 3.953257 0.445121
260.796204 -141.829880 3.395053 0.445563
260.822296 -141.442703 2.854899 0.519051
261.031738 -138.331894 2.335783 0.419608
263.260956 -105.223282 1.121203 0.775525
262.388062 -118.187454 0.000057 0.230657
261.291809 -134.469147 0.000034 0.224074
260.821136 -141.459595 0.000023 0.229663
260.559021 -145.352936 0.000018 0.226348
260.391663 -147.838516 0.000014 0.253252
260.275330 -149.566101 0.000012 0.291585
260.189636 -150.838898 0.000010 0.205141
nan nan nan 0.000000
263.635468 -105.242401 13.600399 0.758190
263.636139 -105.233368 11.774639 0.636667
260.914429 -141.842072 4.523195 0.435050
260.913300 -141.857254 3.955093 0.445472
260.916779 -141.810196 3.397363 0.422858
260.927856 -141.661316 2.844553 0.437644
261.059143 -139.895386 2.310294 0.457725
263.636139 -105.233368 1.120935 0.642542
262.671570 -118.207550 0.000057 0.231698
261.461670 -134.481186 0.000034 0.222842
260.942200 -141.468170 0.000024 0.211436
260.652893 -145.359589 0.000018 0.226623
260.468201 -147.843933 0.000014 0.242876
260.339813 -149.570663 0.000012 0.242852
260.245239 -150.842834 0.000010 0.271922
nan nan nan 0.000000
261.146301 -140.456421 5.976070 0.424262
264.012421 -105.233368 11.779954 0.630030
261.070404 -141.389175 4.591970 0.430793
261.069061 -141.405777 4.008265 0.441962
261.184723 -139.984375 3.548326 0.460441
261.044952 -141.701874 2.843013 0.435859
261.026215 -141.932388 2.277019 0.431708
261.227112 -139.463577 1.682448 0.545769
262.954926 -118.229599 0.000057 0.230381
261.631439 -134.494400 0.000034 0.215721
261.063202 -141.477600 0.000024 0.205823
260.746735 -145.366898 0.000018 0.229723
260.544708 -147.849899 0.000014 0.225929
260.404266 -149.575684 0.000012 0.201994
260.300812 -150.847153 0.000010 0.201240
nan nan nan 0.000000
261.243683 -140.814331 5.900823 0.440772
264.389130 -105.233368 11.785751 0.636576
261.180969 -141.523849 4.573454 0.431373
261.152618 -141.844513 3.958788 0.439994
261.256500 -140.669571 3.492842 0.434043
261.178162 -141.555710 2.850721 0.464027
261.150024 -141.873886 2.278144 0.419608
264.389130 -105.233360 1.119935 0.645274
263.238098 -118.253616 0.000056 0.233122
261.801117 -134.508804 0.000034 0.222913
261.184143 -141.487854 0.000024 0.210969
260.840546 -145.374863 0.000018 0.225235
260.621155 -147.856384 0.000014 0.220580
260.468689 -149.581146 0.000012 0.238926
260.356354 -150.851868 0.000010 0.230178
nan nan nan 0.000000
261.372314 -140.793686 5.907807 0.426657
264.766296 -105.233368 11.792034 0.631617
261.344330 -141.087006 4.640199 0.437995
261.285400 -141.704285 3.976249 0.450492
261.424744 -140.244476 3.528814 0.414603
261.311554 -141.430466 2.857447 0.455268
261.228699 -142.298386 2.271345 0.433539
264.766296 -105.233368 1.119370 0.633738
263.521118 -118.279648 0.000056 0.229843
261.970673 -134.524384 0.000034 0.227820
261.305023 -141.498978 0.000024 0.231243
260.934265 -145.383469 0.000018 0.236222
260.697571 -147.863403 0.000014 0.202556
260.533051 -149.587067 0.000012 0.229831
260.411865 -150.856979 0.000010 0.234223
nan nan nan 0.000000
265.150574 -105.168808 13.645049 0.678431
265.143951 -105.233368 11.798802 0.632990
261.653351 -139.290741 4.909871 0.435737
261.428772 -141.481842 4.003340 0.451453
261.498138 -140.805176 3.483655 0.431525
261.366913 -142.085388 2.825697 0.504311
261.594147 -139.868240 2.311507 0.439048
261.670166 -139.126556 1.676292 0.565942
263.803955 -118.307617 0.000056 0.232416
262.140137 -134.541153 0.000033 0.215804
261.425781 -141.510925 0.000024 0.233325
261.027924 -145.392746 0.000018 0.243666
260.773926 -147.870972 0.000014 0.262491
260.597412 -149.593430 0.000012 0.219143
260.467346 -150.862473 0.000010 0.270881
nan nan nan 0.000000
265.522156 -105.233368 13.639643 0.618753
265.522156 -105.233353 11.806058 0.634119
261.572174 -141.289124 4.613819 0.439826
261.577972 -141.236282 4.033241 0.426856
261.600006 -141.035217 3.465778 0.460716
261.599915 -141.036011 2.878170 0.421134
261.471771 -142.205643 2.273260 0.448264
265.522156 -105.233368 1.118109 0.667857
264.086578 -118.337585 0.000056 0.228598
262.309479 -134.559097 0.000033 0.232643
261.546478 -141.523712 0.000024 0.232117
261.121552 -145.402664 0.000018 0.230046
260.850250 -147.879059 0.000014 0.241894
260.661682 -149.600250 0.000012 0.248130
260.522766 -150.868347 0.000010 0.264394
nan nan nan 0.000000
265.900940 -105.233368 13.648837 0.650431
265.900940 -105.233353 11.813805 0.636210
261.924866 -139.326965 4.908916 0.448264
261.653290 -141.655533 3.986290 0.434363
261.735474 -140.951019 3.473886 0.438193
261.715668 -141.120850 2.874668 0.419471
261.822876 -140.201538 2.306493 0.434684
265.900940 -105.233360 1.117412 0.638788
264.368988 -118.369522 0.000056 0.230405
262.478668 -134.578232 0.000033 0.224457
261.667084 -141.537354 0.000023 0.220161
261.215057 -145.413239 0.000018 0.227341
260.926483 -147.887680 0.000014 0.234594
260.725922 -149.607513 0.000012 0.211771
260.578156 -150.874603 0.000009 0.229364
nan nan nan 0.000000
266.280334 -105.233383 13.658612 0.657191
266.280334 -105.233360 11.822041 0.638498
261.896515 -140.671402 4.710409 0.431373
261.904266 -140.608688 4.109305 0.422827
261.851227 -141.037491 3.467979 0.416754
261.953522 -140.210541 2.920463 0.424002
261.969788 -140.078857 2.308773 0.441337
266.280334 -105.233360 1.116671 0.639689
264.651154 -118.403427 0.000056 0.223476
262.647736 -134.598557 0.000033 0.222243
261.787598 -141.551834 0.000024 0.252701
261.308533 -145.424469 0.000018 0.229197
261.002686 -147.896835 0.000014 0.231004
260.790100 -149.615219 0.000011 0.263245
260.633484 -150.881256 0.000009 0.234797
nan nan nan 0.000000
266.660400 -105.233368 13.668980 0.633433
266.660400 -105.233376 11.830766 0.654337
262.023285 -140.685684 4.710679 0.428367
262.064240 -140.372482 4.138582 0.424048
261.994690 -140.904282 3.480299 0.509560
262.078613 -140.262695 2.918698 0.438529
262.062805 -140.383499 2.304020 0.432258
266.660400 -105.233360 1.115886 0.670619
264.933075 -118.439301 0.000056 0.230441
262.816650 -134.620056 0.000033 0.226719
261.907990 -141.567154 0.000023 0.219012
261.401886 -145.436356 0.000018 0.238017
261.078796 -147.906525 0.000014 0.201084
260.854248 -149.623383 0.000011 0.232751
260.688782 -150.888290 0.000009 0.202951
nan nan nan 0.000000
267.041168 -105.233368 13.679927 0.641184
267.006927 -105.481651 11.794387 0.643580
262.289642 -139.688065 4.862607 0.434089
262.193298 -140.386688 4.138941 0.420661
262.113892 -140.962509 3.476869 0.437583
262.310516 -139.536667 2.955564 0.578332
262.398804 -138.896591 2.328868 0.459922
267.041168 -105.233368 1.115057 0.631662
265.214752 -118.477150 0.000056 0.228586
262.985413 -134.642731 0.000033 0.224218
262.028259 -141.583313 0.000023 0.241607
261.495178 -145.448883 0.000018 0.212310
261.154846 -147.916733 0.000014 0.235683
260.918304 -149.631989 0.000011 0.245341
260.744049 -150.895721 0.000010 0.245042
nan nan nan 0.000000
267.422638 -105.233376 13.691467 0.645899
267.127228 -107.270279 11.475209 0.657984
267.127289 -107.269958 9.724516 0.661311
267.127136 -107.270920 7.990573 0.619501
262.321442 -140.407501 3.524312 0.450355
267.127258 -107.270134 4.558245 0.636484
262.299164 -140.561035 2.301670 0.437720
267.422638 -105.233376 1.114183 0.660151
265.496155 -118.516953 0.000056 0.229448
263.154022 -134.666565 0.000033 0.226348
262.148438 -141.600311 0.000023 0.221441
261.588379 -145.462067 0.000018 0.233732
261.230835 -147.927490 0.000014 0.219694
260.982330 -149.641052 0.000011 0.210922
260.799225 -150.903519 0.000010 0.243486
nan nan nan 0.000000
267.804901 -105.233383 13.703602 0.651820
267.504272 -107.209045 11.496311 0.678431
262.562500 -139.686035 4.868713 0.432486
267.504272 -107.209061 8.003986 0.678431
262.601196 -139.431625 3.606832 0.497261
262.657745 -139.060013 2.981187 0.431418
262.415924 -140.649200 2.300524 0.421378
267.804901 -105.233376 1.113263 0.640162
265.777283 -118.558716 0.000056 0.232093
263.322449 -134.691589 0.000033 0.224397
262.268494 -141.618149 0.000023 0.252809
261.681488 -145.475906 0.000018 0.202149
261.306732 -147.938766 0.000014 0.204758
261.046265 -149.650543 0.000011 0.246323
260.854370 -150.911713 0.000010 0.257800
nan nan nan 0.000000
268.187988 -105.233376 13.716334 0.628077
267.873230 -107.209061 11.506643 0.678431
262.671448 -139.860291 4.845661 0.421912
262.578857 -140.441574 4.139215 0.429908
262.673553 -139.847137 3.574081 0.418021
267.873230 -107.209053 4.566723 0.678431
262.531830 -140.736679 2.299401 0.490074
268.187988 -105.233376 1.112299 0.650736
266.058105 -118.602463 0.000056 0.228143
263.490723 -134.717804 0.000033 0.230836
262.388428 -141.636826 0.000023 0.220280
261.774506 -145.490387 0.000018 0.225439
261.382568 -147.950577 0.000014 0.246993
261.110138 -149.660492 0.000012 0.216116
260.909454 -150.920288 0.000010 0.235528
nan nan nan 0.000000
268.571899 -105.233376 13.729665 0.628809
268.233917 -107.263550 11.507405 0.753216
268.233917 -107.263557 9.750715 0.779324
268.233917 -107.263535 8.011005 0.768887
268.233917 -107.263535 6.284346 0.780423
262.889465 -139.366241 2.968121 0.522133
262.902649 -139.287125 2.323789 0.444831
268.571899 -105.233376 1.111288 0.626154
266.338623 -118.648155 0.000056 0.230549
263.658783 -134.745178 0.000033 0.226647
262.508209 -141.656342 0.000023 0.233780
261.867401 -145.505524 0.000018 0.238807
261.458282 -147.962906 0.000014 0.210036
261.173950 -149.670883 0.000011 0.194191
260.964447 -150.929260 0.000009 0.195232
nan nan nan 0.000000
268.956726 -105.233368 13.743602 0.645274
268.613647 -107.209030 11.528772 0.678431
268.613647 -107.209045 9.768131 0.705150
268.613647 -107.209061 8.024509 0.678431
268.606262 -107.251541 6.290433 0.750484
268.613647 -107.209068 4.572697 0.678431
268.587585 -107.359100 2.854461 0.701625
268.956726 -105.233368 1.110233 0.646342
266.618805 -118.695808 0.000056 0.223584
263.826660 -134.773727 0.000033 0.223835
262.627869 -141.676697 0.000023 0.227928
261.960205 -145.521301 0.000018 0.224242
261.533936 -147.975769 0.000014 0.261175
261.237671 -149.681732 0.000011 0.219790
261.019409 -150.938599 0.000010 0.211520
nan nan nan 0.000000
269.342499 -105.233368 13.758143 0.630518
268.985168 -107.209038 11.540569 0.678431
268.985168 -107.209038 9.777752 0.707210
268.985168 -107.209061 8.031967 0.678431
268.977478 -107.251549 6.295745 0.749722
268.985168 -107.209061 4.575883 0.678431
263.249329 -138.922501 2.330638 0.438529
269.348755 -105.198822 1.108556 0.155444
266.898651 -118.745415 0.000056 0.230501
263.994324 -134.803452 0.000033 0.237035
262.747375 -141.697876 0.000023 0.212884
262.052887 -145.537735 0.000017 0.230357
261.609497 -147.989166 0.000014 0.186352
261.301331 -149.693008 0.000011 0.252271
261.074310 -150.948334 0.000009 0.174898
nan nan nan 0.000000
269.729218 -105.233376 13.773293 0.650080
269.357635 -107.209030 11.552865 0.678431
269.357635 -107.209030 9.787775 0.719799
269.357635 -107.209045 8.039743 0.678431
269.349640 -107.251556 6.301280 0.749615
269.357635 -107.209061 4.579203 0.678431
263.345612 -139.173676 2.326883 0.457908
269.735718 -105.198807 1.107407 0.125902
267.178131 -118.796967 0.000056 0.230788
264.161774 -134.834335 0.000032 0.213207
262.866730 -141.719894 0.000023 0.240123
262.145447 -145.554810 0.000017 0.202077
261.684967 -148.003082 0.000014 0.196333
261.364899 -149.704742 0.000011 0.209521
261.129120 -150.958435 0.000009 0.195567
nan nan nan 0.000000
270.129578 -105.168816 13.803269 0.678431
269.731079 -107.209045 11.565658 0.678431
269.731079 -107.209030 9.798203 0.704662
269.731079 -107.209053 8.047829 0.678431
269.722778 -107.251556 6.307042 0.757656
269.731079 -107.209076 4.582657 0.678431
269.701782 -107.358994 2.857770 0.692897
270.123718 -105.198799 1.106211 0.156008
267.457275 -118.850471 0.000055 0.229855
264.329010 -134.866394 0.000032 0.226360
262.985931 -141.742737 0.000023 0.231530
262.237885 -145.572525 0.000017 0.215661
261.760315 -148.017532 0.000014 0.244144
261.428406 -149.716919 0.000011 0.217217
261.183868 -150.968933 0.000009 0.208624
nan nan nan 0.000000
270.518860 -105.168808 13.819678 0.678431
270.105560 -107.209053 11.578950 0.678431
270.105560 -107.209045 9.809040 0.719402
270.105560 -107.209053 8.056235 0.678431
270.096924 -107.251564 6.313027 0.757290
270.105530 -107.209076 4.586246 0.678431
270.075165 -107.358971 2.858963 0.696391
270.507813 -105.223289 1.105379 0.775921
267.736023 -118.905930 0.000055 0.231339
264.496033 -134.899612 0.000032 0.225211
263.104950 -141.766418 0.000023 0.220639
262.330200 -145.590897 0.000017 0.215098
261.835602 -148.032501 0.000013 0.236856
261.491821 -149.729523 0.000011 0.230800
261.238525 -150.979813 0.000009 0.262120
nan nan nan 0.000000
270.909241 -105.168793 13.836709 0.678431
270.481079 -107.209061 11.592750 0.678431
270.481079 -107.209030 9.820295 0.678431
270.481079 -107.209045 8.064962 0.678431
270.472168 -107.251564 6.319242 0.766491
270.481079 -107.209068 4.589972 0.678431
270.449615 -107.358917 2.860201 0.714565
270.895691 -105.233353 1.104257 0.630808
268.014374 -118.963318 0.000055 0.230669
264.662811 -134.934006 0.000032 0.215529
263.223846 -141.790939 0.000023 0.234666
262.422394 -145.609909 0.000017 0.231506
261.910736 -148.048004 0.000013 0.193113
261.555115 -149.742584 0.000011 0.248393
261.293121 -150.991074 0.000009 0.202077
nan nan nan 0.000000
271.294098 -105.199547 13.847567 0.849760
270.851196 -107.239059 11.601473 0.849149
270.851196 -107.239075 9.827398 0.754467
270.857697 -107.209045 8.074009 0.678431
270.848480 -107.251579 6.325682 0.752819
270.857697 -107.209076 4.593834 0.678431
270.825165 -107.358894 2.861485 0.719493
271.286743 -105.233353 1.102922 0.664149
268.292297 -119.022659 0.000055 0.230764
264.829346 -134.969559 0.000032 0.227294
263.342529 -141.816269 0.000022 0.220089
262.514435 -145.629562 0.000017 0.240530
261.985779 -148.064026 0.000013 0.223584
261.618347 -149.756073 0.000011 0.228861
261.347626 -151.002716 0.000009 0.184700
nan nan nan 0.000000
271.678986 -105.233337 13.858363 0.633127
271.226410 -107.249512 11.614335 0.757321
271.228729 -107.239082 9.839476 0.898589
271.235474 -107.209045 8.083380 0.678431
271.225952 -107.251564 6.332356 0.737636
271.235474 -107.209053 4.597838 0.678431
271.201843 -107.358856 2.862814 0.697063
271.678986 -105.233353 1.101538 0.640925
268.569824 -119.083939 0.000055 0.229005
264.995605 -135.006287 0.000032 0.234821
263.461029 -141.842438 0.000022 0.249243
262.606354 -145.649857 0.000017 0.205584
262.060730 -148.080566 0.000013 0.287169
261.681488 -149.770020 0.000011 0.203573
261.402069 -151.014725 0.000009 0.212178
nan nan nan 0.000000
272.072449 -105.233337 13.877267 0.637278
271.599487 -107.273544 11.625172 0.644160
271.599487 -107.273552 9.846720 0.628489
271.599487 -107.273544 8.085461 0.633371
271.599487 -107.273544 6.337413 0.633600
271.599487 -107.273552 4.598727 0.640574
271.579742 -107.358810 2.864192 0.702281
271.670654 -106.966553 1.129219 0.640146
268.846924 -119.147156 0.000055 0.232548
265.161621 -135.044159 0.000032 0.219838
263.579376 -141.869446 0.000022 0.232512
262.698120 -145.670792 0.000017 0.234510
262.135529 -148.097641 0.000013 0.223536
261.744507 -149.784393 0.000011 0.218701
261.456421 -151.027130 0.000009 0.206158
nan nan nan 0.000000
272.467194 -105.233353 13.896810 0.634699
271.979187 -107.273575 11.641006 0.621927
271.979187 -107.273575 9.859629 0.661616
271.979187 -107.273575 8.095469 0.623713
271.979187 -107.273575 6.344547 0.652018
271.979187 -107.273575 4.603002 0.627298
271.958832 -107.358780 2.865614 0.721569
272.467194 -105.233353 1.098625 0.625269
269.123566 -119.212311 0.000055 0.225774
265.327393 -135.083191 0.000032 0.227952
263.697510 -141.897263 0.000022 0.214261
262.789764 -145.692368 0.000016 0.216140
262.210236 -148.115234 0.000013 0.240422
261.807434 -149.799225 0.000011 0.195280
261.510681 -151.039902 0.000009 0.179434
nan nan nan 0.000000
272.863281 -105.233337 13.917003 0.626886
272.362671 -107.263519 11.659251 0.772519
272.376099 -107.209061 9.882824 0.678431
272.376099 -107.209068 8.113459 0.678431
272.365601 -107.251564 6.353780 0.733715
272.376099 -107.209045 4.610683 0.678431
272.339172 -107.358734 2.867083 0.690990
272.863281 -105.233353 1.097095 0.647822
269.399719 -119.279381 0.000055 0.231267
265.492859 -135.123383 0.000032 0.228227
263.815460 -141.925903 0.000022 0.217348
262.881226 -145.714584 0.000016 0.247184
262.284790 -148.133347 0.000013 0.228957
261.870239 -149.814468 0.000011 0.248273
261.564819 -151.053055 0.000009 0.251983
nan nan nan 0.000000
273.260712 -105.233345 13.937841 0.629740
272.745026 -107.263535 11.676144 0.758267
272.758881 -107.209061 9.896610 0.678431
272.758881 -107.209061 8.124151 0.678431
272.748077 -107.251572 6.361393 0.735164
272.758881 -107.209053 4.615249 0.678431
272.720856 -107.358696 2.868601 0.681880
273.260712 -105.233353 1.095516 0.665400
269.675446 -119.348373 0.000055 0.227844
265.658051 -135.164734 0.000032 0.224972
263.933197 -141.955383 0.000022 0.220508
262.972534 -145.737442 0.000016 0.226336
262.359222 -148.151978 0.000013 0.251600
261.932953 -149.830170 0.000011 0.234678
261.618896 -151.066589 0.000009 0.210311
nan nan nan 0.000000
273.662170 -105.223305 13.961582 0.780545
273.128754 -107.263535 11.693566 0.703029
273.143005 -107.209076 9.910828 0.678431
273.143005 -107.209068 8.135178 0.678431
273.131897 -107.251549 6.369251 0.738521
273.143005 -107.209076 4.619958 0.678431
273.103882 -107.358643 2.870166 0.708568
273.659546 -105.233353 1.093887 0.672389
269.950653 -119.419327 0.000055 0.229544
265.822937 -135.207214 0.000032 0.225618
264.050720 -141.985657 0.000022 0.210694
263.063690 -145.760925 0.000017 0.222961
262.433533 -148.171127 0.000013 0.219526
261.995575 -149.846298 0.000010 0.205883
261.672882 -151.080505 0.000009 0.237323
nan nan nan 0.000000
274.062561 -105.223312 13.983747 0.767697
273.515808 -107.256401 11.712874 0.628901
273.528534 -107.209076 9.925489 0.678431
273.528534 -107.209076 8.146545 0.678431
273.517120 -107.251541 6.377348 0.734264
273.528534 -107.209076 4.624813 0.678431
273.488342 -107.358597 2.871779 0.694911
274.059845 -105.233368 1.092208 0.633738
270.225372 -119.492157 0.000054 0.231937
265.987518 -135.250870 0.000032 0.231099
264.168030 -142.016785 0.000022 0.217947
263.154663 -145.785049 0.000016 0.210586
262.507721 -148.190796 0.000013 0.240482
262.058044 -149.862869 0.000011 0.247603
261.726776 -151.094788 0.000009 0.210934
nan nan nan 0.000000
274.434265 -105.332443 13.982124 0.673442
273.898132 -107.272026 11.728433 0.772229
273.915527 -107.209076 9.940590 0.678431
273.915527 -107.209076 8.158258 0.678431
273.903809 -107.251549 6.385687 0.743114
273.915527 -107.209061 4.629815 0.678431
273.874207 -107.358559 2.873440 0.690196
274.461670 -105.233368 1.090478 0.670375
270.499573 -119.566917 0.000055 0.226851
266.151794 -135.295670 0.000032 0.228969
264.285126 -142.048706 0.000022 0.246753
263.245483 -145.809814 0.000016 0.236258
262.581757 -148.210983 0.000013 0.207810
262.120422 -149.879883 0.000010 0.240410
261.780548 -151.109451 0.000009 0.247866
nan nan nan 0.000000
274.796997 -105.472931 13.974046 0.647486
274.261597 -107.358437 11.731134 0.696101
274.304016 -107.209076 9.956137 0.678431
274.304016 -107.209061 8.170318 0.678431
274.291962 -107.251556 6.394272 0.756024
274.304016 -107.209061 4.634964 0.678431
274.261597 -107.358490 2.875152 0.687312
274.865021 -105.233368 1.088698 0.647684
270.773224 -119.643600 0.000055 0.230848
266.315765 -135.341599 0.000031 0.234809
264.402008 -142.081451 0.000022 0.228299
263.336121 -145.835220 0.000017 0.231686
262.655640 -148.231674 0.000013 0.261653
262.182678 -149.897324 0.000011 0.197853
261.834229 -151.124496 0.000009 0.195327
nan nan nan 0.000000
275.154572 -105.629272 13.962951 0.649287
274.650269 -107.359268 11.750546 0.715984
274.694061 -107.209076 9.972134 0.678431
274.694061 -107.209061 8.182724 0.678431
274.681671 -107.251556 6.403109 0.757626
274.694061 -107.209061 4.640262 0.678431
274.649445 -107.362122 2.876851 0.733028
275.269989 -105.233376 1.086866 0.659007
271.046356 -119.722153 0.000053 0.229017
266.479431 -135.388687 0.000031 0.220197
264.518646 -142.115005 0.000022 0.235755
263.426575 -145.861237 0.000017 0.245640
262.729370 -148.252899 0.000013 0.228861
262.244812 -149.915192 0.000010 0.239465
261.887787 -151.139908 0.000009 0.273430
nan nan nan 0.000000
275.515717 -105.771278 13.955624 0.660563
275.040497 -107.360107 11.770508 0.718257
275.085693 -107.209061 9.988588 0.678431
275.085693 -107.209045 8.195484 0.678431
275.072968 -107.251549 6.412196 0.770199
275.085693 -107.209053 4.645711 0.678431
275.040009 -107.361717 2.878667 0.721569
275.676605 -105.233376 1.084980 0.637461
271.318939 -119.802673 0.000054 0.230908
266.642731 -135.436905 0.000031 0.213339
264.635040 -142.149368 0.000021 0.225941
263.516846 -145.887894 0.000016 0.236581
262.802979 -148.274628 0.000013 0.207942
262.306793 -149.933502 0.000010 0.198116
261.941254 -151.155701 0.000009 0.206733
nan nan nan 0.000000
275.871490 -105.929245 13.945246 0.662882
275.432922 -107.359093 11.791385 0.690196
275.469666 -107.239311 10.000807 0.741360
275.469666 -107.239319 8.204959 0.750805
275.469666 -107.239304 6.422587 0.761227
275.469666 -107.239304 4.649757 0.744991
275.432281 -107.361206 2.880536 0.690547
276.084930 -105.233353 1.083044 0.655512
271.590942 -119.885040 0.000054 0.227796
266.805695 -135.486267 0.000031 0.225618
264.751190 -142.184555 0.000022 0.214883
263.606934 -145.915176 0.000016 0.233696
262.876404 -148.296875 0.000013 0.238256
262.368683 -149.952240 0.000010 0.238460
261.994598 -151.171860 0.000009 0.241188
nan nan nan 0.000000
276.275055 -105.933037 13.970314 0.649332
275.826538 -107.359711 11.812516 0.702586
275.873901 -107.209053 10.022878 0.678431
275.873901 -107.209045 8.222076 0.678431
275.860535 -107.251572 6.431130 0.726101
275.873901 -107.209038 4.657066 0.678431
275.826202 -107.360771 2.882454 0.693538
276.494995 -105.233360 1.081054 0.631937
271.862366 -119.969337 0.000053 0.232464
266.968323 -135.536774 0.000031 0.230633
264.867096 -142.220551 0.000021 0.231458
263.696838 -145.943100 0.000016 0.213554
262.949707 -148.319641 0.000013 0.222387
262.430420 -149.971420 0.000010 0.225941
262.047821 -151.188385 0.000008 0.263293
nan nan nan 0.000000
276.681976 -105.931671 13.997247 0.680552
276.222260 -107.359116 11.834454 0.721569
276.253021 -107.263535 10.032229 0.747341
276.253021 -107.263519 8.229330 0.772000
276.253021 -107.263527 6.439956 0.774166
276.253021 -107.263550 4.660164 0.773068
276.221863 -107.360291 2.884426 0.705684
276.306213 -107.098389 1.111073 0.676890
272.133179 -120.055527 0.000054 0.226923
267.130585 -135.588409 0.000031 0.219634
264.982758 -142.257355 0.000021 0.227521
263.786530 -145.971649 0.000016 0.194669
263.022827 -148.342896 0.000013 0.256268
262.492004 -149.991028 0.000011 0.219167
262.100952 -151.205292 0.000009 0.213279
nan nan nan 0.000000
277.090088 -105.932388 14.024412 0.662089
277.335571 -105.187973 12.272837 0.699504
277.335571 -105.187988 10.374714 0.678431
277.292572 -105.318390 8.479144 0.718029
277.326691 -105.214966 6.626941 0.734905
277.335571 -105.187988 4.773591 0.678431
277.292572 -105.318359 2.921623 0.718257
277.324463 -105.221664 1.076710 0.737240
272.403412 -120.143585 0.000053 0.228718
267.292480 -135.641174 0.000031 0.231686
265.098145 -142.294968 0.000021 0.236545
263.876007 -146.000809 0.000017 0.245748
263.095764 -148.366684 0.000013 0.230022
262.553467 -150.011063 0.000011 0.192946
262.153931 -151.222565 0.000008 0.251181
nan nan nan 0.000000
277.500458 -105.931938 14.052559 0.651591
277.751587 -105.187973 12.296793 0.678431
277.751587 -105.187996 10.394246 0.678431
277.707367 -105.319016 8.494179 0.693126
277.745209 -105.206848 6.638434 0.762295
277.751587 -105.187988 4.780060 0.678431
277.707520 -105.318466 2.923772 0.692988
277.740723 -105.220116 1.074531 0.758953
272.673004 -120.233551 0.000054 0.230812
267.454010 -135.695068 0.000031 0.224828
265.213287 -142.333389 0.000021 0.230561
263.965302 -146.030609 0.000016 0.226324
263.168579 -148.390976 0.000013 0.205823
262.614807 -150.031525 0.000010 0.201180
262.206818 -151.240204 0.000009 0.256148
nan nan nan 0.000000
278.153442 -105.234604 14.240659 0.666667
278.169525 -105.187973 12.321369 0.678431
278.169525 -105.187988 10.414280 0.678431
278.124054 -105.319664 8.509599 0.721569
278.165894 -105.198486 6.650231 0.727337
278.169525 -105.187988 4.786693 0.678431
278.124451 -105.318588 2.925974 0.708797
278.158997 -105.218529 1.072295 0.728267
272.941956 -120.325363 0.000053 0.231530
267.615173 -135.750092 0.000031 0.223165
265.328156 -142.372604 0.000021 0.216618
264.054382 -146.061020 0.000016 0.250463
263.241180 -148.415756 0.000013 0.218114
262.675995 -150.052414 0.000010 0.225283
262.259583 -151.258209 0.000008 0.267781
nan nan nan 0.000000
278.573059 -105.234550 14.270554 0.676402
278.589539 -105.187973 12.346565 0.678431
278.589539 -105.187988 10.434822 0.678431
278.543365 -105.318642 8.525616 0.714717
278.557861 -105.277588 6.654704 0.912932
278.589539 -105.187973 4.793496 0.678431
278.543365 -105.318710 2.928233 0.725078
278.579315 -105.216896 1.070001 0.731075
273.210297 -120.419067 0.000052 0.227341
267.775940 -135.806229 0.000031 0.234414
265.442719 -142.412613 0.000021 0.216379
264.143250 -146.092056 0.000016 0.236724
263.313629 -148.441071 0.000013 0.211257
262.737030 -150.073730 0.000010 0.206122
262.312195 -151.276596 0.000008 0.181373
nan nan nan 0.000000
278.994537 -105.235168 14.301043 0.637171
278.995209 -105.233345 12.363616 0.640726
278.995209 -105.233345 10.448722 0.648661
278.964264 -105.319008 8.541860 0.722972
278.995178 -105.233353 6.670179 0.618021
278.995178 -105.233353 4.798100 0.638560
278.964325 -105.318817 2.930547 0.721431
278.995178 -105.233360 1.067966 0.650950
273.477936 -120.514648 0.000052 0.230956
267.936310 -135.863495 0.000031 0.240363
265.557037 -142.453430 0.000021 0.209270
