# This PCD file was generated using the MATLABÂ® pcwrite function
# from Computer Vision ToolboxÂ®.
# .PCD v.7 - Point Cloud Data file format
VERSION .7
FIELDS x y z intensity
SIZE 4 4 4 4
TYPE F F F F
COUNT 1 1 1 1
WIDTH 1266
HEIGHT 1
VIEWPOINT 0 0 0 1 0 0 0
POINTS 1266
DATA ascii
162.498062 -124.960449 -0.000000 0.222112
160.767105 -124.916573 -0.000000 0.243582
159.491821 -124.884247 -0.000001 0.224158
nan nan nan 0.000000
nan nan nan 0.000000
nan nan nan 0.000000
nan nan nan 0.000000
nan nan nan 0.000000
241.849945 -127.603096 9.411329 0.368338
211.969696 -126.636909 4.971748 0.447211
210.382965 -126.585602 2.963896 0.463920
233.744125 -127.340996 0.653623 0.565362
192.200134 -125.997650 -0.000026 0.228778
175.888977 -125.470222 -0.000013 0.225845
168.886032 -125.243782 -0.000004 0.223428
164.985794 -125.117661 -0.000001 0.227318
162.495850 -125.037148 -0.000000 0.227832
160.765244 -124.981194 -0.000000 0.249566
159.490219 -124.939964 -0.000000 0.240817
nan nan nan 0.000000
nan nan nan 0.000000
nan nan nan 0.000000
nan nan nan 0.000000
nan nan nan 0.000000
241.852692 -128.234711 9.413408 0.319295
210.324463 -126.994843 4.891605 0.429328
211.643143 -127.046700 2.984776 0.453193
233.280350 -127.897598 0.660881 0.547738
192.189972 -126.281693 -0.000026 0.229077
175.882874 -125.640404 -0.000013 0.236736
168.881683 -125.365074 -0.000004 0.255382
164.982437 -125.211731 -0.000001 0.216128
162.493103 -125.113838 -0.000000 0.207930
160.762924 -125.045799 0.000000 0.254341
159.488220 -124.995667 -0.000000 0.208229
nan nan nan 0.000000
nan nan nan 0.000000
nan nan nan 0.000000
nan nan nan 0.000000
nan nan nan 0.000000
241.856018 -128.866745 9.415897 0.326772
237.636185 -128.671280 6.235647 0.653025
209.993942 -127.390892 2.958053 0.460288
233.280334 -128.469513 0.660482 0.546761
192.177795 -126.565651 -0.000026 0.231099
175.875595 -125.810532 -0.000013 0.236844
168.876495 -125.486336 -0.000005 0.224349
164.978409 -125.305771 -0.000001 0.234474
162.489822 -125.190506 -0.000000 0.265244
160.760162 -125.110382 0.000000 0.193999
159.485840 -125.051361 -0.000001 0.195387
nan nan nan 0.000000
nan nan nan 0.000000
nan nan nan 0.000000
nan nan nan 0.000000
nan nan nan 0.000000
241.859863 -129.499252 9.418793 0.352071
237.636169 -129.274048 6.237119 0.615396
210.147247 -127.808380 2.960899 0.450599
233.280350 -129.041809 0.660015 0.607980
192.163651 -126.849518 -0.000026 0.231351
175.867126 -125.980606 -0.000013 0.221908
168.870453 -125.607552 -0.000004 0.226240
164.973724 -125.399788 -0.000001 0.232332
162.486008 -125.267143 -0.000000 0.193712
160.756943 -125.174957 -0.000000 0.214943
159.483063 -125.107033 -0.000000 0.223284
nan nan nan 0.000000
nan nan nan 0.000000
nan nan nan 0.000000
nan nan nan 0.000000
nan nan nan 0.000000
241.864243 -130.132309 9.422095 0.346197
237.636169 -129.877258 6.238799 0.625452
234.911469 -129.712906 3.367257 0.580148
233.652100 -129.636932 0.653389 0.546456
192.147522 -127.133270 -0.000026 0.229795
175.857468 -126.150620 -0.000013 0.235168
168.863571 -125.728729 -0.000004 0.227808
164.968384 -125.493759 -0.000001 0.225810
162.481644 -125.343758 -0.000000 0.255765
160.753281 -125.239494 -0.000000 0.261079
159.479889 -125.162682 -0.000000 0.265052
nan nan nan 0.000000
nan nan nan 0.000000
nan nan nan 0.000000
nan nan nan 0.000000
nan nan nan 0.000000
241.869202 -130.766006 9.425810 0.369345
237.636169 -130.480988 6.240689 0.620768
234.823395 -130.291595 3.366420 0.644404
234.911469 -130.297531 0.632134 0.566842
192.129425 -127.416916 -0.000026 0.227880
175.846619 -126.320557 -0.000013 0.236293
168.855850 -125.849854 -0.000005 0.252330
164.962387 -125.587700 -0.000001 0.256064
162.476761 -125.420334 -0.000000 0.228921
160.749161 -125.304016 -0.000000 0.289862
159.476349 -125.218315 -0.000000 0.200174
nan nan nan 0.000000
nan nan nan 0.000000
nan nan nan 0.000000
nan nan nan 0.000000
nan nan nan 0.000000
241.874664 -131.400406 9.429935 0.389136
237.636169 -131.085281 6.242789 0.637125
235.571030 -130.931747 3.379367 0.568307
235.114395 -130.897797 0.628128 0.673518
192.109329 -127.700424 -0.000026 0.228706
175.834579 -126.490417 -0.000013 0.221190
168.847275 -125.970924 -0.000005 0.237047
164.955734 -125.681595 -0.000001 0.221262
162.471344 -125.496880 -0.000000 0.218294
160.744598 -125.368500 0.000000 0.213973
159.472412 -125.273918 -0.000000 0.185777
nan nan nan 0.000000
nan nan nan 0.000000
nan nan nan 0.000000
nan nan nan 0.000000
nan nan nan 0.000000
241.880707 -132.035599 9.434470 0.350713
237.636169 -131.690216 6.245095 0.626200
237.837952 -131.706635 3.417334 0.634852
234.823395 -131.461334 0.632159 0.643198
192.087280 -127.983788 -0.000026 0.228431
175.821365 -126.660194 -0.000013 0.232703
168.837845 -126.091927 -0.000005 0.245066
164.948425 -125.775436 -0.000000 0.208983
162.465378 -125.573387 -0.000000 0.196237
160.739578 -125.432953 0.000000 0.233050
159.468079 -125.329491 -0.000000 0.235659
nan nan nan 0.000000
nan nan nan 0.000000
nan nan nan 0.000000
nan nan nan 0.000000
nan nan nan 0.000000
241.887299 -132.671646 9.439422 0.329793
237.636169 -132.295822 6.247612 0.623575
234.911438 -132.054947 3.370098 0.670176
234.911453 -132.054947 0.629902 0.599924
192.063232 -128.266983 -0.000025 0.227557
175.806961 -126.829872 -0.000013 0.235192
168.827576 -126.212868 -0.000005 0.230190
164.940460 -125.869232 -0.000000 0.275967
162.458893 -125.649849 -0.000000 0.220855
160.734100 -125.497368 0.000000 0.252677
159.463364 -125.385033 0.000000 0.231339
nan nan nan 0.000000
nan nan nan 0.000000
nan nan nan 0.000000
nan nan nan 0.000000
nan nan nan 0.000000
241.894409 -133.308609 9.444782 0.398154
237.636169 -132.902176 6.250336 0.611765
234.911438 -132.642120 3.370977 0.586740
234.911438 -132.642120 0.629023 0.599344
192.037201 -128.550018 -0.000025 0.228658
175.791382 -126.999443 -0.000013 0.224900
168.816467 -126.333725 -0.000005 0.232775
164.931854 -125.962959 -0.000000 0.237765
162.451874 -125.726265 -0.000000 0.212537
160.728180 -125.561745 0.000000 0.283255
159.458267 -125.440536 0.000000 0.197314
nan nan nan 0.000000
nan nan nan 0.000000
nan nan nan 0.000000
nan nan nan 0.000000
nan nan nan 0.000000
241.902100 -133.946579 9.450562 0.363210
237.636169 -133.509338 6.253274 0.612589
234.911438 -133.230072 3.371924 0.561242
234.911438 -133.230072 0.628074 0.636133
192.009216 -128.832855 -0.000026 0.229795
175.774612 -127.168900 -0.000014 0.229759
168.804520 -126.454506 -0.000004 0.218796
164.922577 -126.056633 -0.000000 0.222806
162.444305 -125.802628 0.000000 0.240745
160.721817 -125.626076 0.000000 0.226731
159.452774 -125.496010 0.000000 0.210132
nan nan nan 0.000000
nan nan nan 0.000000
nan nan nan 0.000000
nan nan nan 0.000000
nan nan nan 0.000000
241.910324 -134.585632 9.456757 0.347219
237.636185 -134.117386 6.256423 0.646143
234.911438 -133.818878 3.372939 0.566033
234.911438 -133.818878 0.627059 0.589700
191.979248 -129.115494 -0.000026 0.231482
175.756653 -127.338242 -0.000013 0.235875
168.791718 -126.575203 -0.000004 0.248836
164.912659 -126.150238 -0.000000 0.236293
162.436218 -125.878929 0.000000 0.259738
160.715012 -125.690369 0.000000 0.208719
159.446899 -125.551437 0.000000 0.247818
nan nan nan 0.000000
nan nan nan 0.000000
nan nan nan 0.000000
249.011261 -136.052963 16.560978 0.358770
247.336182 -135.857605 13.098636 0.460395
241.919128 -135.225845 9.463373 0.335531
237.636185 -134.726349 6.259787 0.640803
234.911438 -134.408585 3.374026 0.661402
234.911438 -134.408585 0.625974 0.542962
191.947327 -129.397903 -0.000026 0.232512
175.737518 -127.507446 -0.000013 0.220460
168.778076 -126.695808 -0.000005 0.223105
164.902069 -126.243767 -0.000000 0.225056
162.427597 -125.955185 0.000000 0.242541
160.707748 -125.754608 -0.000000 0.241499
159.440628 -125.606827 0.000000 0.261917
nan nan nan 0.000000
nan nan nan 0.000000
nan nan nan 0.000000
245.769699 -136.342468 16.088696 0.398520
245.711090 -136.335220 12.919577 0.584436
241.928467 -135.867279 9.470409 0.352468
237.636169 -135.336304 6.263360 0.648951
234.911453 -134.999237 3.375177 0.591943
234.911453 -134.999237 0.624821 0.601221
191.913406 -129.680084 -0.000026 0.232153
175.717194 -127.676514 -0.000013 0.223201
168.763596 -126.816307 -0.000004 0.249147
164.890839 -126.337219 -0.000000 0.231267
162.418442 -126.031372 0.000000 0.225738
160.700027 -125.818794 -0.000000 0.245987
159.433975 -125.662170 0.000000 0.195028
nan nan nan 0.000000
nan nan nan 0.000000
246.641754 -137.125259 19.457268 0.330358
245.773071 -137.011627 16.101717 0.332341
245.660751 -136.996948 12.923439 0.308354
241.938354 -136.510056 9.477865 0.360800
237.636169 -135.947311 6.267151 0.635294
234.823425 -135.579407 3.374947 0.622751
234.911453 -135.590927 0.623598 0.681163
191.877533 -129.962036 -0.000025 0.228610
175.695709 -127.845444 -0.000013 0.233433
168.748276 -126.936707 -0.000004 0.222435
164.878967 -126.430595 -0.000000 0.215062
162.408752 -126.107491 0.000000 0.250559
160.691864 -125.882919 0.000000 0.190241
159.426941 -125.717468 0.000000 0.247986
nan nan nan 0.000000
247.542694 -137.925644 22.937395 0.352712
246.646210 -137.802017 19.474468 0.339651
245.776611 -137.682083 16.115484 0.354925
245.660736 -137.666107 12.933690 0.512932
241.948853 -137.154205 9.485752 0.352895
237.636169 -136.559448 6.271154 0.635294
237.839020 -136.587433 3.426054 0.607813
237.836090 -136.587021 0.573996 0.598459
191.839676 -130.243729 -0.000025 0.228909
175.673035 -128.014206 -0.000014 0.220604
168.732117 -127.056999 -0.000005 0.271694
164.866425 -126.523888 -0.000000 0.220783
162.398529 -126.183548 0.000000 0.208229
160.683258 -125.946991 0.000000 0.245114
159.419525 -125.772713 0.000000 0.207427
nan nan nan 0.000000
247.548370 -138.610321 22.959322 0.328435
246.650879 -138.480148 19.492594 0.351156
245.780365 -138.353897 16.129993 0.326955
245.660767 -138.336563 12.944496 0.433600
241.426727 -137.722504 9.449889 0.663157
237.636169 -137.172760 6.275377 0.625177
237.835770 -137.201706 3.427407 0.668284
237.834564 -137.201523 0.572613 0.614481
191.799866 -130.525146 -0.000025 0.228550
175.649185 -128.182816 -0.000014 0.228622
168.715118 -127.177177 -0.000005 0.222650
164.853241 -126.617088 0.000000 0.249350
162.387787 -126.259521 0.000000 0.217695
160.674194 -126.011002 0.000000 0.215146
159.411713 -125.827904 0.000000 0.208959
nan nan nan 0.000000
nan nan nan 0.000000
246.655823 -139.159790 19.511656 0.375662
245.784302 -139.027176 16.145248 0.321813
245.711090 -139.016037 12.961710 0.624537
245.711105 -139.016037 9.812963 0.589380
237.426682 -137.755432 6.269402 0.633555
236.187332 -137.566849 3.401603 0.345434
236.051163 -137.546127 0.600649 0.597009
191.758102 -130.806274 -0.000026 0.229424
175.624161 -128.351257 -0.000014 0.227030
168.697281 -127.297226 -0.000005 0.243343
164.839401 -126.710197 0.000000 0.224206
162.376511 -126.335426 0.000000 0.241547
160.664703 -126.074951 0.000000 0.245257
159.403519 -125.883041 0.000000 0.238938
nan nan nan 0.000000
nan nan nan 0.000000
246.660980 -139.840973 19.531660 0.371344
245.788437 -139.701965 16.161259 0.338048
245.660736 -139.681625 12.967771 0.437827
245.711105 -139.689636 9.821461 0.567697
239.194855 -138.651505 6.362005 0.369146
234.995758 -137.982513 3.383383 0.390127
234.975769 -137.979340 0.616948 0.572305
191.714355 -131.087112 -0.000026 0.231291
175.597961 -128.519516 -0.000014 0.227162
168.678604 -127.417152 -0.000005 0.227461
164.824921 -126.803200 0.000000 0.213243
162.364700 -126.411247 0.000000 0.208755
160.654755 -126.138824 0.000001 0.216367
159.394943 -125.938118 0.000001 0.240793
nan nan nan 0.000000
nan nan nan 0.000000
nan nan nan 0.000000
245.792755 -140.378326 16.178022 0.323568
245.711121 -140.364731 12.986126 0.641215
245.711121 -140.364731 9.830366 0.588861
239.201965 -139.281082 6.367325 0.391959
234.481293 -138.495163 3.376424 0.354910
234.464203 -138.492325 0.623859 0.620523
191.668655 -131.367630 -0.000026 0.231746
175.570587 -128.687592 -0.000014 0.230441
168.659088 -127.536942 -0.000005 0.214356
164.809784 -126.896103 0.000000 0.249697
162.352356 -126.486984 0.000001 0.225139
160.644348 -126.202637 0.000001 0.209629
159.385986 -125.993134 0.000000 0.260804
nan nan nan 0.000000
nan nan nan 0.000000
nan nan nan 0.000000
nan nan nan 0.000000
245.711105 -141.041412 12.999180 0.505028
245.711090 -141.041412 9.839666 0.578271
239.209412 -139.912292 6.372884 0.348684
233.976135 -139.003464 3.369668 0.398489
233.957672 -139.000259 0.630638 0.686061
191.621002 -131.647827 -0.000025 0.231973
175.542023 -128.855469 -0.000014 0.226133
168.638733 -127.656601 -0.000005 0.219359
164.794006 -126.988899 0.000000 0.235839
162.339493 -126.562637 0.000000 0.248525
160.633514 -126.266365 0.000001 0.270055
159.376633 -126.048088 0.000001 0.214344
nan nan nan 0.000000
nan nan nan 0.000000
nan nan nan 0.000000
nan nan nan 0.000000
nan nan nan 0.000000
nan nan nan 0.000000
239.217163 -140.545197 6.378687 0.364706
233.481949 -139.507889 3.363145 0.415869
233.456116 -139.503220 0.637283 0.634546
191.571381 -131.927689 -0.000025 0.227210
175.512299 -129.023132 -0.000014 0.230142
168.617554 -127.776108 -0.000005 0.220364
164.777573 -127.081589 0.000000 0.239238
162.326096 -126.638199 0.000000 0.220807
160.622238 -126.330025 0.000001 0.202748
159.366898 -126.102974 0.000001 0.278540
nan nan nan 0.000000
nan nan nan 0.000000
nan nan nan 0.000000
nan nan nan 0.000000
nan nan nan 0.000000
nan nan nan 0.000000
239.225266 -141.179871 6.384736 0.367346
233.403931 -140.084961 3.363605 0.413596
233.378082 -140.080109 0.636825 0.624964
191.519836 -132.207184 -0.000025 0.229125
175.481415 -129.190598 -0.000014 0.229939
168.595535 -127.895462 -0.000005 0.222135
164.760498 -127.174149 0.000000 0.229508
162.312180 -126.713661 0.000000 0.198619
160.610504 -126.393600 0.000000 0.209880
159.356796 -126.157791 0.000000 0.230393
nan nan nan 0.000000
nan nan nan 0.000000
nan nan nan 0.000000
nan nan nan 0.000000
nan nan nan 0.000000
nan nan nan 0.000000
239.233704 -141.816391 6.391031 0.337774
234.112244 -140.816055 3.377239 0.345357
234.055664 -140.805008 0.623702 0.623590
191.466324 -132.486328 -0.000025 0.229591
175.449356 -129.357834 -0.000014 0.237646
168.572693 -128.014664 -0.000005 0.214189
164.742783 -127.266594 0.000000 0.209844
162.297729 -126.789024 0.000000 0.208277
160.598328 -126.457092 0.000001 0.217540
159.346298 -126.212540 0.000001 0.229615
nan nan nan 0.000000
nan nan nan 0.000000
nan nan nan 0.000000
nan nan nan 0.000000
nan nan nan 0.000000
nan nan nan 0.000000
239.242462 -142.454849 6.397572 0.338628
234.834991 -141.561981 3.391222 0.305470
234.746460 -141.544037 0.610257 0.585702
191.410858 -132.765076 -0.000026 0.229556
175.416138 -129.524857 -0.000014 0.224756
168.549011 -128.133698 -0.000005 0.229173
164.724411 -127.358917 -0.000000 0.240087
162.282761 -126.864281 0.000000 0.240530
160.585724 -126.520493 0.000001 0.211795
159.335419 -126.267212 0.000001 0.193221
nan nan nan 0.000000
nan nan nan 0.000000
nan nan nan 0.000000
nan nan nan 0.000000
nan nan nan 0.000000
nan nan nan 0.000000
nan nan nan 0.000000
nan nan nan 0.000000
nan nan nan 0.000000
191.353455 -133.043427 -0.000025 0.228431
175.381744 -129.691635 -0.000015 0.224170
168.524490 -128.252579 -0.000005 0.225845
164.705399 -127.451103 0.000000 0.223883
162.267258 -126.939438 0.000000 0.224721
160.572662 -126.583809 0.000001 0.246191
159.324158 -126.321800 0.000001 0.209258
nan nan nan 0.000000
nan nan nan 0.000000
nan nan nan 0.000000
nan nan nan 0.000000
nan nan nan 0.000000
nan nan nan 0.000000
nan nan nan 0.000000
nan nan nan 0.000000
nan nan nan 0.000000
191.294098 -133.321396 -0.000024 0.227581
175.346176 -129.858154 -0.000015 0.244216
168.499146 -128.371277 -0.000005 0.250763
164.685745 -127.543159 0.000000 0.240003
162.251236 -127.014481 0.000000 0.245760
160.559158 -126.647034 0.000001 0.218162
159.312515 -126.376312 0.000000 0.216008
nan nan nan 0.000000
nan nan nan 0.000000
nan nan nan 0.000000
nan nan nan 0.000000
nan nan nan 0.000000
nan nan nan 0.000000
nan nan nan 0.000000
nan nan nan 0.000000
nan nan nan 0.000000
191.232819 -133.598923 -0.000024 0.227916
175.309464 -130.024445 -0.000015 0.226671
168.472977 -128.489792 -0.000005 0.220197
164.665451 -127.635071 -0.000000 0.233313
162.234695 -127.089417 0.000001 0.207355
160.545227 -126.710159 0.000001 0.246981
159.300507 -126.430748 0.000001 0.205524
nan nan nan 0.000000
nan nan nan 0.000000
nan nan nan 0.000000
nan nan nan 0.000000
nan nan nan 0.000000
nan nan nan 0.000000
nan nan nan 0.000000
nan nan nan 0.000000
nan nan nan 0.000000
191.169601 -133.876022 -0.000025 0.229663
175.271591 -130.190460 -0.000015 0.223069
168.445984 -128.608124 -0.000005 0.237897
164.644516 -127.726845 -0.000000 0.249195
162.217621 -127.164230 0.000001 0.230776
160.530838 -126.773193 0.000001 0.223871
159.288101 -126.485092 0.000001 0.224086
nan nan nan 0.000000
nan nan nan 0.000000
nan nan nan 0.000000
nan nan nan 0.000000
nan nan nan 0.000000
nan nan nan 0.000000
nan nan nan 0.000000
nan nan nan 0.000000
nan nan nan 0.000000
191.104446 -134.152679 -0.000024 0.231028
175.232544 -130.356216 -0.000014 0.231434
168.418167 -128.726257 -0.000005 0.227940
164.622940 -127.818466 -0.000000 0.228538
162.200027 -127.238922 0.000001 0.263736
160.516022 -126.836113 0.000001 0.229292
159.275330 -126.539345 0.000001 0.290400
nan nan nan 0.000000
nan nan nan 0.000000
nan nan nan 0.000000
nan nan nan 0.000000
nan nan nan 0.000000
nan nan nan 0.000000
nan nan nan 0.000000
nan nan nan 0.000000
nan nan nan 0.000000
191.037369 -134.428864 -0.000025 0.228490
175.192352 -130.521683 -0.000014 0.222207
168.389511 -128.844193 -0.000005 0.232081
164.600723 -127.909927 -0.000000 0.232368
162.181915 -127.313484 0.000001 0.218485
160.500763 -126.898933 0.000001 0.219431
159.262161 -126.593513 0.000001 0.208001
nan nan nan 0.000000
nan nan nan 0.000000
nan nan nan 0.000000
nan nan nan 0.000000
nan nan nan 0.000000
nan nan nan 0.000000
nan nan nan 0.000000
nan nan nan 0.000000
nan nan nan 0.000000
190.968369 -134.704575 -0.000025 0.228849
175.151001 -130.686890 -0.000014 0.223308
168.360046 -128.961945 -0.000005 0.224026
164.577866 -128.001251 -0.000000 0.216343
162.163284 -127.387924 0.000001 0.225690
160.485077 -126.961647 0.000001 0.201216
159.248642 -126.647591 0.000001 0.235300
nan nan nan 0.000000
nan nan nan 0.000000
nan nan nan 0.000000
nan nan nan 0.000000
nan nan nan 0.000000
nan nan nan 0.000000
nan nan nan 0.000000
nan nan nan 0.000000
nan nan nan 0.000000
190.897415 -134.979797 -0.000024 0.228119
175.108521 -130.851776 -0.000014 0.227724
168.329758 -129.079468 -0.000005 0.230429
164.554367 -128.092392 0.000000 0.247124
162.144135 -127.462234 0.000001 0.208360
160.468933 -127.024254 0.000001 0.209916
159.234726 -126.701569 0.000001 0.184257
nan nan nan 0.000000
nan nan nan 0.000000
nan nan nan 0.000000
nan nan nan 0.000000
nan nan nan 0.000000
nan nan nan 0.000000
nan nan nan 0.000000
nan nan nan 0.000000
nan nan nan 0.000000
190.824585 -135.254532 -0.000025 0.228514
175.064865 -131.016373 -0.000015 0.228933
168.298645 -129.196793 -0.000005 0.235324
164.530243 -128.183380 -0.000000 0.231135
162.124466 -127.536407 0.000001 0.202748
160.452362 -127.086739 0.000001 0.277798
159.220428 -126.755447 0.000001 0.232093
nan nan nan 0.000000
nan nan nan 0.000000
nan nan nan 0.000000
nan nan nan 0.000000
nan nan nan 0.000000
nan nan nan 0.000000
nan nan nan 0.000000
nan nan nan 0.000000
nan nan nan 0.000000
190.749817 -135.528732 -0.000024 0.230645
175.020065 -131.180664 -0.000015 0.230788
168.266724 -129.313889 -0.000005 0.241858
164.505493 -128.274185 -0.000000 0.221034
162.104279 -127.610443 0.000001 0.207463
160.435364 -127.149109 0.000001 0.236198
159.205765 -126.809227 0.000001 0.215398
nan nan nan 0.000000
nan nan nan 0.000000
nan nan nan 0.000000
nan nan nan 0.000000
206.452744 -140.283081 8.570538 0.756680
206.501190 -140.296829 6.687280 0.674662
206.873077 -140.402435 4.827339 0.755596
206.853668 -140.396927 2.941443 0.692195
206.853668 -140.396927 1.058557 0.692195
190.673126 -135.802414 -0.000025 0.230573
174.974121 -131.344635 -0.000014 0.230728
168.233978 -129.430756 -0.000005 0.228191
164.480087 -128.364822 0.000000 0.243737
162.083572 -127.684334 0.000001 0.215864
160.417908 -127.211365 0.000001 0.223201
159.190735 -126.862900 0.000001 0.219143
nan nan nan 0.000000
nan nan nan 0.000000
nan nan nan 0.000000
nan nan nan 0.000000
205.022766 -140.281555 8.412395 0.733577
205.075317 -140.296875 6.574924 0.667750
205.022766 -140.281555 4.738341 0.765179
204.732010 -140.196793 2.907173 0.709651
204.732025 -140.196793 1.092828 0.704662
190.594543 -136.075546 -0.000024 0.228024
174.927032 -131.508286 -0.000015 0.228311
168.200409 -129.547394 -0.000005 0.256639
164.454056 -128.455292 0.000000 0.225271
162.062363 -127.758072 0.000001 0.264083
160.400040 -127.273491 0.000001 0.202987
159.175323 -126.916466 0.000001 0.214644
nan nan nan 0.000000
nan nan nan 0.000000
nan nan nan 0.000000
206.504974 -141.131058 10.514832 0.708629
204.403748 -140.502579 8.351299 0.764782
203.572327 -140.253891 6.455733 0.748913
204.403748 -140.502563 4.712250 0.741176
204.050385 -140.396881 2.897403 0.741176
204.050385 -140.396881 1.102597 0.751568
190.514023 -136.348129 -0.000024 0.230704
174.878815 -131.671600 -0.000015 0.228143
168.166046 -129.663788 -0.000005 0.215816
164.427399 -128.545563 -0.000000 0.223667
162.040619 -127.831665 0.000001 0.251445
160.381729 -127.335487 0.000001 0.278755
159.159531 -126.969925 0.000001 0.209761
nan nan nan 0.000000
nan nan nan 0.000000
nan nan nan 0.000000
203.456909 -140.615311 10.059931 0.699626
202.418518 -140.296799 8.125862 0.665980
202.418518 -140.296799 6.366208 0.668116
202.418518 -140.296799 4.615980 0.678981
202.149277 -140.214218 2.866763 0.690196
202.149292 -140.214218 1.133238 0.700526
190.431641 -136.620148 -0.000024 0.230692
174.829453 -131.834564 -0.000014 0.238053
168.130844 -129.779953 -0.000005 0.246311
164.400116 -128.635651 -0.000000 0.252187
162.018372 -127.905106 0.000001 0.238065
160.362991 -127.397362 0.000001 0.263820
159.143372 -127.023277 0.000001 0.201802
nan nan nan 0.000000
nan nan nan 0.000000
nan nan nan 0.000000
201.178909 -140.296799 9.723209 0.669627
201.833069 -140.502441 8.068556 0.728878
201.833069 -140.502441 6.325365 0.736522
200.771591 -140.168732 4.536844 0.618631
201.527695 -140.406448 2.857981 0.761486
201.527695 -140.406448 1.142019 0.446433
190.347351 -136.891571 -0.000024 0.227677
174.778946 -131.997192 -0.000015 0.222255
168.094849 -129.895859 -0.000005 0.221812
164.372192 -128.725540 0.000000 0.246263
161.995621 -127.978394 0.000001 0.222542
160.343811 -127.459099 0.000001 0.226181
159.126846 -127.076508 0.000001 0.223356
nan nan nan 0.000000
nan nan nan 0.000000
nan nan nan 0.000000
199.993271 -140.296799 9.555617 0.655924
199.993271 -140.296799 7.859695 0.671565
199.993271 -140.296799 6.176500 0.582116
199.993271 -140.296799 4.502316 0.588434
199.804001 -140.235840 2.830257 0.698039
199.804001 -140.235840 1.169744 0.697948
190.261154 -137.162415 -0.000024 0.228502
174.727310 -132.159470 -0.000015 0.232715
168.058060 -130.011520 -0.000006 0.215134
164.343658 -128.815231 -0.000000 0.219143
161.972351 -128.051514 0.000001 0.214476
160.324203 -127.520706 0.000002 0.203178
159.109940 -127.129623 0.000002 0.207918
nan nan nan 0.000000
nan nan nan 0.000000
nan nan nan 0.000000
199.568558 -140.531174 9.506489 0.675303
199.568558 -140.531174 7.821596 0.657115
199.568558 -140.531174 6.149343 0.647089
199.568558 -140.531174 4.486047 0.649363
199.568573 -140.531174 2.828090 0.675486
199.568573 -140.531174 1.171909 0.672786
190.173096 -137.432632 -0.000024 0.227641
174.674545 -132.321365 -0.000015 0.234055
168.020447 -130.126923 -0.000005 0.240051
164.314484 -128.904724 0.000000 0.255059
161.948578 -128.124481 0.000001 0.209222
160.304169 -127.582169 0.000002 0.206254
159.092667 -127.182625 0.000001 0.212334
nan nan nan 0.000000
nan nan nan 0.000000
nan nan nan 0.000000
199.568573 -140.904053 9.523998 0.655695
199.568558 -140.904053 7.835173 0.651499
199.568558 -140.904053 6.159020 0.654841
178.657578 -133.845566 3.407608 0.685374
178.658096 -133.845749 2.468877 0.731212
199.568573 -140.904053 1.169979 0.694270
190.083130 -137.702240 -0.000024 0.230034
174.620636 -132.482910 -0.000015 0.217935
167.982025 -130.242050 -0.000005 0.222375
164.284698 -128.994019 0.000000 0.206924
161.924286 -128.197266 0.000001 0.220125
160.283722 -127.643494 0.000001 0.221022
159.075012 -127.235504 0.000002 0.224134
nan nan nan 0.000000
178.672104 -134.062210 8.206441 0.424903
178.368561 -133.957382 7.170310 0.696361
178.368561 -133.957382 6.214988 0.685939
178.632813 -134.048630 5.301059 0.551843
178.632080 -134.048386 4.352768 0.579507
178.183441 -133.893448 3.386324 0.684916
178.211990 -133.903305 2.462273 0.703105
178.213028 -133.903671 1.537710 0.688197
178.213028 -133.903671 0.612137 0.708888
174.565613 -132.644058 -0.000015 0.226947
167.942810 -130.356903 -0.000005 0.250284
164.254272 -129.083099 0.000000 0.234020
161.899490 -128.269882 0.000001 0.197829
160.262817 -127.704674 0.000001 0.212082
159.057007 -127.288254 0.000001 0.180224
nan nan nan 0.000000
178.033218 -134.049332 8.075253 0.560037
177.794510 -133.965027 7.072157 0.708751
177.794510 -133.965027 6.134971 0.685847
177.794525 -133.965027 5.206843 0.671733
178.030502 -134.048370 4.306200 0.568643
177.657898 -133.916779 3.362327 0.679271
177.672546 -133.921951 2.454040 0.700801
177.672485 -133.921921 1.545962 0.678431
177.672485 -133.921936 0.636912 0.678431
174.509460 -132.804825 -0.000014 0.222399
167.902786 -130.471497 -0.000005 0.227222
164.223236 -129.171967 0.000000 0.226755
161.874191 -128.342331 0.000001 0.247723
160.241516 -127.765709 0.000002 0.185993
159.038635 -127.340881 0.000001 0.196524
nan nan nan 0.000000
177.452942 -134.048599 7.957171 0.569650
177.714752 -134.143127 7.069390 0.689830
177.494949 -134.063766 6.098050 0.678431
177.494965 -134.063766 5.178210 0.678431
177.452301 -134.048370 4.261550 0.560601
177.102173 -133.921967 3.336702 0.693996
177.064026 -133.908188 2.444586 0.683223
177.102112 -133.921936 1.554752 0.678431
177.102112 -133.921936 0.663300 0.678431
174.452194 -132.965179 -0.000014 0.225032
167.861969 -130.585800 -0.000005 0.227485
164.191589 -129.260605 -0.000000 0.211484
161.848373 -128.414597 0.000001 0.211664
160.219772 -127.826591 0.000002 0.265327
159.019882 -127.393372 0.000001 0.235958
177.804779 -134.383667 9.020533 0.362463
176.649399 -133.957367 7.787386 0.680735
177.152893 -134.143143 6.973353 0.689204
176.937775 -134.063782 6.020411 0.678431
176.937790 -134.063782 5.117997 0.680323
176.497833 -133.901459 4.183902 0.820325
176.553452 -133.921967 3.311379 0.678431
176.481110 -133.895279 2.435553 0.702480
176.553375 -133.921951 1.563187 0.678431
176.553391 -133.921951 0.688623 0.678431
174.393814 -133.125153 -0.000014 0.232619
167.820358 -130.699814 -0.000005 0.236293
164.159317 -129.349030 -0.000000 0.205273
161.822067 -128.486679 0.000002 0.242325
160.197601 -127.887321 0.000002 0.195651
159.000763 -127.445732 0.000001 0.234139
177.047607 -134.307373 8.836145 0.343999
176.164093 -133.974365 7.690459 0.727306
176.576401 -134.129776 6.874218 0.700008
176.401367 -134.063797 5.945856 0.678431
176.401367 -134.063797 5.060176 0.678431
176.000336 -133.912643 4.146001 0.823240
175.959778 -133.897369 3.283630 0.751827
175.959778 -133.897369 2.427571 0.713512
175.959778 -133.897369 1.572429 0.720806
175.959778 -133.897369 0.716369 0.726894
174.334305 -133.284698 -0.000014 0.233924
167.777954 -130.813522 -0.000005 0.250954
164.126419 -129.437225 -0.000000 0.220292
161.795258 -128.558578 0.000002 0.312541
160.175018 -127.947891 0.000002 0.214536
158.981293 -127.497963 0.000001 0.211759
176.344727 -134.240997 8.665699 0.393500
175.626251 -133.964447 7.581141 0.689433
176.022659 -134.117020 6.779232 0.680461
175.884323 -134.063782 5.874182 0.678431
175.884323 -134.063782 5.004590 0.678431
175.595322 -133.952545 4.116130 0.821164
175.515839 -133.921951 3.263680 0.684565
175.441772 -133.893433 2.419627 0.685847
175.584610 -133.948425 1.577869 0.147906
175.584610 -133.948425 0.732700 0.138018
174.273697 -133.443832 -0.000014 0.224397
167.734741 -130.926956 -0.000005 0.221573
164.092911 -129.525192 0.000000 0.225115
161.767944 -128.630295 0.000002 0.233481
160.152008 -128.008301 0.000002 0.204303
158.961441 -127.550049 0.000002 0.206613
175.678268 -134.178711 8.504456 0.380209
175.346298 -134.048264 7.531352 0.551156
175.259094 -134.014008 6.642950 0.699290
175.259094 -134.014008 5.785068 0.725185
175.259094 -134.014008 4.935477 0.709087
175.099152 -133.951157 4.078173 0.824445
175.024811 -133.921951 3.241196 0.678431
174.952301 -133.893448 2.412161 0.704601
175.206223 -133.993225 1.583374 0.678431
175.206223 -133.993225 0.749227 0.678431
174.211975 -133.602539 -0.000014 0.226288
167.690750 -131.040070 -0.000006 0.254126
164.058792 -129.612915 0.000000 0.246777
161.740128 -128.701813 0.000002 0.202400
160.128571 -128.068558 0.000002 0.226384
158.941254 -127.602005 0.000002 0.254305
175.045181 -134.120148 8.351651 0.361822
174.761658 -134.006454 7.410656 0.667689
174.771118 -134.010254 6.560174 0.642832
174.866211 -134.048386 5.732784 0.564416
174.866211 -134.048386 4.894929 0.553948
174.623825 -133.951172 4.041948 0.822828
174.550934 -133.921936 3.219558 0.678431
174.479813 -133.893417 2.404975 0.682139
174.728668 -133.993225 1.590637 0.678431
174.728668 -133.993225 0.771033 0.678431
174.149139 -133.760818 -0.000014 0.229759
167.645966 -131.152878 -0.000005 0.221226
164.024063 -129.700409 0.000000 0.248118
161.711807 -128.773132 0.000002 0.206984
160.104721 -128.128647 0.000002 0.211113
158.920670 -127.653809 0.000002 0.223129
174.428116 -134.058945 8.202633 0.427573
174.178467 -133.956802 7.289888 0.711147
174.324661 -134.016617 6.485314 0.702953
174.245956 -133.984421 5.643947 0.752621
174.324661 -134.016617 4.835814 0.691936
174.046646 -133.902863 3.996598 0.832914
174.157990 -133.948425 3.202155 0.827604
174.158005 -133.948425 2.400432 0.826703
174.093979 -133.922241 1.600699 0.690028
174.093872 -133.922180 0.801248 0.748333
174.126022 -133.935349 -0.003630 0.663722
167.600403 -131.265366 -0.000006 0.223919
163.988724 -129.787643 0.000000 0.250918
161.682999 -128.844254 0.000002 0.201946
160.080444 -128.188553 0.000002 0.208013
158.899750 -127.705475 0.000002 0.231351
173.953186 -134.048065 8.091647 0.554086
173.800659 -133.984406 7.216751 0.711330
174.180878 -134.143097 6.469925 0.678431
173.990814 -134.063782 5.613464 0.686275
173.990814 -134.063766 4.802392 0.678431
173.591370 -133.897064 3.961915 0.827375
173.650986 -133.921951 3.178640 0.678431
173.714417 -133.948425 2.393724 0.827451
173.650970 -133.921951 1.607401 0.678431
173.650970 -133.921951 0.821361 0.678431
173.714417 -133.948425 0.027151 0.808576
167.554047 -131.377533 -0.000005 0.240937
163.952774 -129.874634 0.000000 0.268499
161.653702 -128.915176 0.000002 0.229436
160.055756 -128.248306 0.000002 0.226420
158.878464 -127.756996 0.000002 0.226935
173.518967 -134.047791 7.991392 0.531304
173.646149 -134.101913 7.195856 0.707591
173.742874 -134.143082 6.396482 0.689342
173.556549 -134.063782 5.554102 0.678431
173.556549 -134.063782 4.756354 0.678431
173.166595 -133.897842 3.929843 0.819791
173.223236 -133.921951 3.159275 0.678431
173.285461 -133.948425 2.387255 0.822904
173.223251 -133.921951 1.613851 0.678431
173.223236 -133.921951 0.840725 0.678431
173.285446 -133.948425 0.059564 0.839216
167.506912 -131.489380 -0.000005 0.224697
163.916229 -129.961380 -0.000000 0.261151
161.623901 -128.985886 0.000002 0.204638
160.030640 -128.307877 0.000002 0.248034
158.856812 -127.808357 0.000002 0.210132
172.890961 -133.957382 7.837916 0.679789
173.200546 -134.091690 7.106559 0.729747
173.200546 -134.091690 6.302125 0.687877
173.136200 -134.063766 5.496812 0.678431
173.136200 -134.063766 4.711925 0.678294
172.742203 -133.892853 3.897710 0.823133
172.809296 -133.921951 3.140590 0.678431
172.870316 -133.948425 2.381014 0.824308
172.809311 -133.921951 1.620075 0.678431
172.809311 -133.921951 0.859409 0.678431
172.870316 -133.948425 0.090839 0.824292
167.459000 -131.600891 -0.000005 0.235204
163.879059 -130.047867 0.000000 0.211484
161.593597 -129.056381 0.000002 0.231351
160.005127 -128.367279 0.000002 0.275201
158.834808 -127.859573 0.000002 0.228778
172.539673 -133.979965 7.759586 0.677256
172.908630 -134.143097 7.053260 0.678431
172.549789 -133.984436 6.185831 0.693935
172.646790 -134.027328 5.428145 0.707866
172.646790 -134.027328 4.658669 0.697108
172.486862 -133.956619 3.880630 0.823789
172.408463 -133.921951 3.122553 0.678431
172.468338 -133.948425 2.374988 0.827253
172.408493 -133.921967 1.626083 0.678431
172.408493 -133.921967 0.877445 0.678431
172.468338 -133.948425 0.121031 0.822812
167.410309 -131.712082 -0.000006 0.211125
163.841309 -130.134079 0.000000 0.259894
161.562820 -129.126678 0.000002 0.275751
159.979187 -128.426498 0.000002 0.225235
158.812439 -127.910637 0.000001 0.227246
172.107849 -133.961487 7.658925 0.749050
172.511032 -134.143127 6.974845 0.678431
172.273758 -134.036224 6.143808 0.698573
172.334930 -134.063782 5.388105 0.678431
172.158752 -133.984406 4.605387 0.713588
172.084702 -133.951050 3.850330 0.829236
172.020096 -133.921951 3.105130 0.678431
172.078857 -133.948425 2.369168 0.830045
172.020142 -133.921967 1.631886 0.678431
172.020142 -133.921967 0.894867 0.678431
171.956772 -133.893417 0.161174 0.742061
167.360840 -131.822906 -0.000006 0.254856
163.802933 -130.220032 0.000000 0.196046
161.531540 -129.196747 0.000002 0.232272
159.952835 -128.485535 0.000002 0.225127
158.789734 -127.961533 0.000002 0.230525
171.891113 -134.035553 7.617184 0.681041
171.883240 -134.031937 6.841475 0.721492
171.883240 -134.031937 6.078799 0.715969
171.883240 -134.031937 5.325156 0.717083
171.883240 -134.031937 4.578797 0.691188
171.338776 -133.782074 3.788918 0.829755
171.643570 -133.921951 3.088291 0.678431
171.701263 -133.948425 2.363543 0.827253
171.643631 -133.921982 1.637494 0.678431
171.643631 -133.921967 0.911705 0.678431
171.643631 -133.921967 0.183578 0.678141
167.310608 -131.933395 -0.000006 0.217767
163.763977 -130.305725 0.000000 0.211520
161.499771 -129.266602 0.000002 0.207846
159.926086 -128.544388 0.000002 0.217468
158.766647 -128.012283 0.000002 0.234091
171.363403 -133.961700 7.489465 0.696483
171.363403 -133.961700 6.733223 0.682658
171.363403 -133.961700 5.987599 0.686702
171.549026 -134.048462 5.281202 0.523308
171.548889 -134.048401 4.544692 0.536919
170.969177 -133.777435 3.761260 0.823484
171.046677 -133.813660 3.059448 0.688914
171.046692 -133.813660 2.352897 0.685069
171.334991 -133.948425 1.641895 0.827466
171.334991 -133.948425 0.924918 0.827100
171.334991 -133.948425 0.205630 0.827451
167.259583 -132.043518 -0.000005 0.259571
163.724411 -130.391129 0.000000 0.205692
161.467529 -129.336227 0.000002 0.253348
159.898911 -128.603043 0.000002 0.215589
158.743225 -128.062851 0.000002 0.209988
171.190369 -134.048782 7.459568 0.574685
171.189301 -134.048279 6.707190 0.551705
171.189255 -134.048264 5.965659 0.538811
171.189545 -134.048401 5.232969 0.569619
171.189484 -134.048370 4.507297 0.569894
170.934845 -133.927170 3.763951 0.820752
170.979492 -133.948425 3.059287 0.844526
170.979492 -133.948425 2.352843 0.839918
170.979492 -133.948425 1.647157 0.845624
170.979492 -133.948425 0.940713 0.839673
170.979492 -133.948425 0.231994 0.841672
167.207809 -132.153290 -0.000005 0.231865
163.684265 -130.476273 -0.000000 0.220723
161.434784 -129.405640 0.000002 0.220604
159.871338 -128.661514 0.000002 0.230908
158.719452 -128.113266 0.000002 0.197972
170.935608 -134.094437 7.406994 0.531868
170.934387 -134.093842 6.661822 0.599283
170.935150 -134.094208 5.927599 0.574609
170.934662 -134.093979 5.201815 0.530221
170.934891 -134.094086 4.483170 0.565515
170.934860 -134.094070 3.769876 0.521126
170.934860 -134.094070 3.060407 0.543954
170.934860 -134.094070 2.353216 0.599893
170.934860 -134.094070 1.646783 0.548989
170.934860 -134.094070 0.939592 0.549020
170.934860 -134.094070 0.230123 0.567926
167.155273 -132.262711 -0.000005 0.237706
163.643509 -130.561127 0.000000 0.190588
161.401566 -129.474808 0.000002 0.240207
159.843353 -128.719788 0.000002 0.214895
158.695313 -128.163513 0.000002 0.217265
170.934158 -134.261749 7.425075 0.544793
170.934296 -134.261810 6.677738 0.549096
170.934967 -134.262146 5.940989 0.545220
170.934982 -134.262146 5.212812 0.520653
164.197968 -130.939514 3.627506 0.383886
170.934860 -134.262085 3.775928 0.545739
170.934860 -134.262085 3.064033 0.524269
170.934860 -134.262085 2.354424 0.561395
170.934860 -134.262085 1.645576 0.544869
170.934860 -134.262085 0.935967 0.580865
170.934860 -134.262085 0.224072 0.551369
167.101959 -132.371750 -0.000005 0.233960
163.602173 -130.645691 0.000000 0.219096
161.367874 -129.543747 0.000002 0.223332
159.814957 -128.777863 0.000002 0.232679
158.670837 -128.213593 0.000002 0.238256
170.934311 -134.431000 7.443995 0.537774
170.935440 -134.431564 6.694289 0.537301
170.934799 -134.431244 5.954669 0.533242
170.934799 -134.431244 5.223963 0.556146
164.136108 -131.018982 3.625208 0.372763
170.934860 -134.431274 3.782107 0.539361
170.934860 -134.431274 3.067735 0.528481
170.934860 -134.431274 2.355657 0.589837
170.934860 -134.431274 1.644343 0.543389
170.934860 -134.431274 0.932265 0.588540
170.934860 -134.431274 0.217893 0.541726
167.047897 -132.480408 -0.000006 0.207846
163.560242 -130.729950 0.000000 0.216499
161.333679 -129.612457 0.000002 0.198176
159.786148 -128.835739 0.000002 0.202532
158.645996 -128.263504 0.000002 0.264705
170.934509 -134.601471 7.463325 0.528496
170.935410 -134.601929 6.710902 0.519799
170.934631 -134.601532 5.968639 0.519585
170.934631 -134.601532 5.235350 0.576242
163.874802 -130.996292 3.597209 0.358358
170.934860 -134.601639 3.788416 0.535485
170.934860 -134.601639 3.071516 0.526940
170.934860 -134.601639 2.356917 0.558877
170.934860 -134.601639 1.643083 0.556497
170.934860 -134.601639 0.928484 0.566155
170.934860 -134.601639 0.211583 0.554086
166.993073 -132.588699 -0.000005 0.230896
163.517715 -130.813934 0.000000 0.246933
161.299026 -129.680908 0.000003 0.232954
159.756958 -128.893417 0.000003 0.250643
158.620819 -128.313232 0.000002 0.207714
170.934753 -134.773178 7.483073 0.596384
170.935394 -134.773514 6.727870 0.532631
170.934494 -134.773041 5.982906 0.573312
170.934967 -134.773300 5.247060 0.577050
164.012665 -131.177124 3.620833 0.448569
170.934860 -134.773239 3.794859 0.585000
170.934860 -134.773239 3.075376 0.562234
170.934845 -134.773239 2.358203 0.581353
170.934845 -134.773239 1.641797 0.517327
170.934860 -134.773239 0.924624 0.595132
170.934860 -134.773239 0.205140 0.518029
166.937500 -132.696594 -0.000005 0.226576
163.474625 -130.897614 0.000000 0.238783
161.263885 -129.749130 0.000002 0.245090
159.727356 -128.950897 0.000002 0.217121
158.595306 -128.362793 0.000002 0.233421
170.935013 -134.946167 7.503241 0.541939
170.935410 -134.946365 6.745198 0.582895
170.935226 -134.946274 5.997650 0.553201
170.934814 -134.946060 5.258935 0.544121
163.548157 -131.042938 3.566336 0.410208
164.094635 -131.331696 3.167085 0.363577
165.150879 -131.889816 2.757939 0.389715
170.934860 -134.946075 2.359515 0.581979
170.934860 -134.946075 1.640485 0.560143
170.934860 -134.946075 0.920684 0.571313
170.934860 -134.946075 0.198563 0.519875
166.881180 -132.804108 -0.000005 0.220963
163.430939 -130.980988 0.000000 0.234917
161.228271 -129.817108 0.000003 0.286870
159.697342 -129.008163 0.000003 0.207056
158.569427 -128.412170 0.000003 0.203633
170.935333 -135.120453 7.523842 0.519738
170.935455 -135.120514 6.762896 0.561608
170.935120 -135.120331 6.012528 0.522805
170.934662 -135.120087 5.271056 0.558465
163.904373 -131.342255 3.618693 0.452995
163.380386 -131.060684 3.104950 0.407630
165.070358 -131.968811 2.756273 0.370718
170.934860 -135.120193 2.360855 0.604303
170.934860 -135.120193 1.639145 0.531273
170.934860 -135.120193 0.916661 0.547127
170.934860 -135.120193 0.191849 0.549874
166.824097 -132.911209 -0.000005 0.233876
163.386673 -131.064056 0.000000 0.200462
161.192184 -129.884827 0.000002 0.204986
159.666946 -129.065216 0.000002 0.222889
158.543213 -128.461365 0.000003 0.183707
170.934052 -135.295197 7.544416 0.565408
170.934265 -135.295303 6.780657 0.548547
164.549011 -131.806427 4.703605 0.371618
170.935043 -135.295731 5.283516 0.521737
164.055908 -131.536987 3.644695 0.388067
163.357574 -131.155426 3.107007 0.389914
164.990280 -132.047531 2.754656 0.390463
170.934860 -135.295624 2.362223 0.580697
170.934860 -135.295624 1.637777 0.551797
170.934845 -135.295624 0.912555 0.545510
170.934845 -135.295624 0.184996 0.574792
166.766266 -133.017929 -0.000005 0.239549
163.341827 -131.146820 0.000000 0.246777
161.155624 -129.952286 0.000003 0.229579
159.636139 -129.122055 0.000003 0.207415
158.516663 -128.510361 0.000002 0.223955
170.934448 -135.472183 7.565896 0.565927
164.299911 -131.786713 5.159960 0.426352
164.216614 -131.740433 4.644834 0.409628
164.462769 -131.877182 4.197917 0.347311
164.461792 -131.876633 3.704448 0.359716
163.356369 -131.262573 3.111160 0.441382
164.788635 -132.058197 2.746232 0.374319
170.934860 -135.472397 2.363619 0.602518
170.934860 -135.472397 1.636381 0.545861
170.934860 -135.472397 0.908364 0.565988
170.934860 -135.472397 0.178001 0.569818
166.707703 -133.124222 -0.000005 0.235204
163.296402 -131.229263 0.000000 0.193006
161.118591 -130.019501 0.000002 0.195722
159.604950 -129.178665 0.000002 0.209641
158.489761 -128.559189 0.000003 0.194502
170.934906 -135.650589 7.587831 0.519036
170.934479 -135.650345 6.817933 0.535546
164.178741 -131.835587 4.647282 0.405951
170.934769 -135.650513 5.309038 0.561227
164.595200 -132.070755 3.728749 0.396323
162.930389 -131.130676 3.075400 0.375677
163.563782 -131.488342 2.680052 0.353017
170.934860 -135.650558 2.365043 0.577325
170.934860 -135.650558 1.634957 0.544839
170.934845 -135.650558 0.904087 0.532967
170.934860 -135.650558 0.170863 0.571206
166.648392 -133.230133 -0.000005 0.218952
163.250412 -131.311386 0.000000 0.263748
161.081100 -130.086456 0.000003 0.246346
159.573364 -129.235077 0.000003 0.214392
158.462524 -128.607819 0.000002 0.228993
170.935394 -135.830429 7.610225 0.517952
170.934631 -135.829987 6.837156 0.517647
163.944122 -131.818054 4.608604 0.374014
162.908295 -131.223572 3.949452 0.378897
164.365616 -132.059952 3.705182 0.367254
163.648499 -131.648392 3.147573 0.361044
163.524567 -131.577271 2.680540 0.356664
170.934860 -135.830109 2.366497 0.550637
170.934860 -135.830109 1.633503 0.555749
170.934860 -135.830109 0.899723 0.546838
170.934860 -135.830109 0.163579 0.568399
166.588348 -133.335602 -0.000005 0.243462
163.203842 -131.393188 0.000001 0.203454
161.043137 -130.153137 0.000002 0.225032
159.541382 -129.291260 0.000003 0.256196
158.434952 -128.656265 0.000002 0.199253
170.934265 -136.010773 7.632604 0.562661
163.686844 -131.783859 5.044580 0.410651
163.812057 -131.856888 4.591343 0.373587
162.749054 -131.236908 3.929998 0.426871
163.204544 -131.502563 3.557455 0.393256
163.582275 -131.722870 3.145932 0.410758
164.532700 -132.277191 2.740628 0.370398
164.013519 -131.974380 2.236865 0.363256
170.934845 -136.011124 1.632020 0.592401
170.934845 -136.011124 0.895270 0.536706
170.934845 -136.011124 0.156147 0.523842
166.527573 -133.440659 -0.000006 0.215840
163.156708 -131.474670 0.000001 0.213279
161.004715 -130.219559 0.000002 0.232703
159.509003 -129.347214 0.000002 0.242289
158.407028 -128.704514 0.000002 0.200809
170.934845 -136.193604 7.655942 0.531243
163.728195 -131.922760 5.067482 0.379919
163.830124 -131.983170 4.605822 0.362295
162.959641 -131.467300 3.974247 0.424430
163.190933 -131.604370 3.562041 0.412604
163.605667 -131.850143 3.152874 0.358907
163.274353 -131.653809 2.671815 0.392111
163.576416 -131.832809 2.229524 0.362646
170.934860 -136.193604 1.630506 0.540536
170.934860 -136.193604 0.890726 0.517647
170.934845 -136.193604 0.148564 0.559060
166.466049 -133.545288 -0.000005 0.222961
163.108994 -131.555817 0.000000 0.208959
160.965820 -130.285706 0.000003 0.240339
159.476242 -129.402939 0.000002 0.216714
158.378784 -128.752563 0.000003 0.222279
163.931519 -132.160919 5.631900 0.428550
163.793152 -132.077606 5.096678 0.441978
163.802795 -132.083420 4.610908 0.360494
162.688324 -131.412399 3.935519 0.394888
163.216110 -131.730179 3.571950 0.386053
163.402756 -131.842560 3.138271 0.391196
163.594101 -131.957764 2.692958 0.393683
163.516129 -131.910812 2.229331 0.345495
170.934845 -136.377609 1.628962 0.554650
170.934845 -136.377609 0.886091 0.593332
170.934845 -136.377609 0.140826 0.549477
166.403809 -133.649475 -0.000005 0.243702
163.060730 -131.636612 0.000000 0.224637
160.926468 -130.351578 0.000003 0.273442
159.443085 -129.458450 0.000002 0.224218
158.350189 -128.800415 0.000003 0.200593
163.612396 -132.084396 5.553617 0.416800
163.432373 -131.974274 5.018484 0.413581
163.716583 -132.148117 4.603605 0.460700
162.562057 -131.441940 3.921781 0.400565
163.162430 -131.809158 3.571383 0.360784
163.318222 -131.904449 3.134979 0.352941
163.354706 -131.926773 2.682115 0.396185
164.000595 -132.321823 2.239599 0.442802
170.934845 -136.563171 1.627387 0.577203
170.934845 -136.563171 0.881361 0.572091
170.934845 -136.563171 0.132933 0.568093
166.340851 -133.753235 -0.000005 0.220891
163.011887 -131.717087 0.000001 0.237562
160.886658 -130.417191 0.000003 0.202089
159.409546 -129.513718 0.000003 0.216870
158.321274 -128.848068 0.000003 0.191079
163.406143 -132.072845 5.508121 0.362081
163.630280 -132.212097 5.081826 0.420294
170.934814 -136.750290 6.161077 0.557397
163.862854 -132.356583 4.157231 0.430854
163.163757 -131.922256 3.578341 0.389990
163.235794 -131.967010 3.131917 0.417884
163.395264 -132.066086 2.687402 0.395422
170.934845 -136.750320 2.374220 0.529290
170.934845 -136.750320 1.625780 0.568414
170.934845 -136.750320 0.876537 0.547036
170.934845 -136.750320 0.124880 0.539544
166.277161 -133.856567 -0.000006 0.260469
162.962494 -131.797211 0.000001 0.226288
160.846390 -130.482513 0.000003 0.196740
159.375626 -129.568741 0.000003 0.212238
158.292023 -128.895523 0.000003 0.256591
163.677811 -132.359879 5.603952 0.352941
163.322052 -132.135406 5.016611 0.344823
170.934875 -136.939102 6.179318 0.584817
163.756470 -132.409515 4.148023 0.367880
162.315475 -131.500244 3.469865 0.382589
163.152390 -132.028336 3.128789 0.393439
163.330093 -132.140472 2.686628 0.354314
170.934845 -136.939102 2.375860 0.578683
170.934845 -136.939102 1.624140 0.552087
170.934845 -136.939102 0.871615 0.586603
170.934845 -136.939102 0.116665 0.544182
166.212738 -133.959427 -0.000005 0.227258
162.912537 -131.876999 0.000000 0.281831
160.805664 -130.547546 0.000003 0.251876
159.341309 -129.623535 0.000003 0.214021
158.262451 -128.942764 0.000002 0.242612
170.935150 -137.129730 7.779072 0.629236
163.498077 -132.363998 5.075184 0.461799
163.639725 -132.454773 4.621363 0.343191
162.694382 -131.848999 3.970463 0.350805
162.305542 -131.599823 3.475047 0.387823
163.070923 -132.090271 3.125877 0.372198
163.113449 -132.117538 2.677042 0.345129
170.934845 -137.129547 2.377532 0.523278
170.934845 -137.129547 1.622468 0.585214
170.934845 -137.129547 0.866595 0.603983
170.934845 -137.129547 0.108286 0.596521
166.147614 -134.061844 -0.000005 0.220771
162.862030 -131.956421 0.000000 0.213949
160.764496 -130.612305 0.000003 0.224984
159.306625 -129.678085 0.000003 0.239704
158.232529 -128.989807 0.000003 0.256531
170.934311 -137.321350 7.804933 0.529976
163.210922 -132.295746 5.015085 0.473564
162.839417 -132.054016 4.459474 0.387533
162.672729 -131.945541 3.975535 0.380743
162.297058 -131.701096 3.480547 0.353826
162.440582 -131.794495 3.069302 0.399725
162.961334 -132.133331 2.671185 0.381888
170.934845 -137.321701 2.379238 0.518013
170.934845 -137.321701 1.620763 0.570748
170.934845 -137.321701 0.861473 0.583383
170.934845 -137.321701 0.099739 0.550362
166.081772 -134.163803 -0.000005 0.231686
162.810974 -132.035492 0.000001 0.241224
160.722855 -130.676758 0.000003 0.229807
159.271545 -129.732391 0.000003 0.218773
