# This PCD file was generated using the MATLABÂ® pcwrite function
# from Computer Vision ToolboxÂ®.
# .PCD v.7 - Point Cloud Data file format
VERSION .7
FIELDS x y z intensity
SIZE 4 4 4 4
TYPE F F F F
COUNT 1 1 1 1
WIDTH 1192
HEIGHT 1
VIEWPOINT 0 0 0 1 0 0 0
POINTS 1192
DATA ascii
280.601563 -96.342957 1.272786 0.622080
280.601563 -96.342957 0.786241 0.622660
280.601563 -96.342957 0.297077 0.681514
280.164276 -95.097610 0.000000 0.230860
279.338898 -92.747063 0.000000 0.204770
278.765228 -91.113342 0.000000 0.194944
278.342590 -89.909691 0.000000 0.200940
280.492279 -96.342957 5.698928 0.669749
280.492279 -96.342964 5.189356 0.639033
280.492279 -96.342957 4.686937 0.638392
280.492279 -96.342957 4.190471 0.634058
280.492279 -96.342964 3.698801 0.659709
280.492279 -96.342957 3.210821 0.614115
280.492279 -96.342957 2.725453 0.627619
280.492279 -96.342957 2.241645 0.656107
280.492279 -96.342957 1.758355 0.629618
280.492279 -96.342957 1.274546 0.649577
280.492279 -96.342957 0.789179 0.616999
280.492279 -96.342957 0.301200 0.633082
280.075348 -95.128494 0.000000 0.240566
279.266418 -92.772232 0.000001 0.224493
278.704163 -91.134552 0.000000 0.240374
278.289948 -89.927979 0.000000 0.213207
280.383545 -96.342957 5.690174 0.656550
280.383545 -96.342964 5.181808 0.644160
280.383545 -96.342957 4.680579 0.692531
280.383545 -96.342964 4.185287 0.636408
280.383545 -96.342957 3.694780 0.684413
280.383545 -96.342957 3.207955 0.632151
280.383545 -96.342957 2.723736 0.628840
280.383545 -96.342957 2.241073 0.637201
280.383545 -96.342957 1.758927 0.634302
280.383545 -96.342957 1.276263 0.635493
280.383545 -96.342957 0.792045 0.626261
280.383545 -96.342957 0.305220 0.642237
279.986206 -95.158745 0.000000 0.217372
279.193756 -92.796898 0.000000 0.223165
278.642944 -91.155327 0.000001 0.226264
278.237152 -89.945892 0.000000 0.218019
280.275330 -96.342957 5.681640 0.660716
280.275330 -96.342964 5.174449 0.643610
280.275330 -96.342964 4.674379 0.699031
280.275330 -96.342964 4.180233 0.639612
280.275330 -96.342957 3.690861 0.650431
280.275330 -96.342957 3.205161 0.643122
280.275330 -96.342957 2.722063 0.639017
280.278625 -96.353012 2.240689 0.712932
280.278625 -96.353012 1.759311 0.681376
280.278625 -96.353012 1.277417 0.691417
280.278625 -96.353012 0.793971 0.723598
280.278625 -96.353012 0.307922 0.651835
279.896881 -95.188370 0.000001 0.210658
279.120911 -92.821053 0.000000 0.234151
278.581604 -91.175682 0.000000 0.198128
278.184235 -89.963440 0.000001 0.202771
280.167572 -96.342957 5.673323 0.650309
280.167572 -96.342957 5.167278 0.650050
280.167572 -96.342964 4.668339 0.623011
280.167572 -96.342957 4.175307 0.642985
280.167572 -96.342964 3.687042 0.652308
280.167572 -96.342964 3.202439 0.621973
280.167572 -96.342957 2.720432 0.652827
280.191437 -96.417488 2.241253 0.678431
280.178619 -96.377487 1.759434 0.130953
280.178619 -96.377487 1.277787 0.135729
280.178619 -96.377487 0.794588 0.134646
280.175446 -96.367485 0.309996 0.460075
279.807312 -95.217377 0.000001 0.224721
279.047913 -92.844704 0.000000 0.225534
278.520081 -91.195602 0.000000 0.225905
278.131226 -89.980621 0.000000 0.215278
280.060333 -96.342957 5.665222 0.614267
280.060333 -96.342957 5.160294 0.656870
280.060333 -96.342964 4.662455 0.682918
280.060333 -96.342964 4.170511 0.621698
280.060333 -96.342964 3.683321 0.657023
280.060333 -96.342964 3.199788 0.650355
280.060333 -96.342957 2.718843 0.634974
280.083618 -96.417488 2.240721 0.678431
280.071106 -96.377487 1.759965 0.174319
280.071106 -96.377487 1.279380 0.137255
280.071106 -96.377487 0.797246 0.127459
280.067993 -96.367485 0.313723 0.462104
279.717560 -95.245758 0.000000 0.221657
278.974731 -92.867836 0.000000 0.254772
278.458435 -91.215096 0.000000 0.227868
278.078064 -89.997421 0.000000 0.269995
279.953522 -96.342957 5.657335 0.685481
279.953522 -96.342957 5.153493 0.643290
279.953522 -96.342964 4.656726 0.618860
279.953522 -96.342964 4.165840 0.621546
279.953522 -96.342964 3.679699 0.674647
279.953522 -96.342964 3.197206 0.624613
279.953522 -96.342957 2.717296 0.652979
279.976257 -96.417488 2.240203 0.678431
279.964050 -96.377487 1.760481 0.128069
279.964050 -96.377487 1.280930 0.135027
279.964050 -96.377487 0.799834 0.138155
279.960999 -96.367485 0.317351 0.465324
279.627625 -95.273514 0.000000 0.222710
278.901428 -92.890465 0.000000 0.246095
278.396667 -91.234154 0.000000 0.211448
278.024811 -90.013855 0.000000 0.260756
279.847198 -96.342957 5.649660 0.653010
279.847198 -96.342957 5.146874 0.639307
279.847198 -96.342964 4.651150 0.636408
279.847198 -96.342964 4.161294 0.609140
279.847198 -96.342964 3.676174 0.707622
279.847198 -96.342964 3.194693 0.582223
279.847198 -96.342957 2.715791 0.665293
279.869354 -96.417488 2.239699 0.678431
279.857452 -96.377487 1.760984 0.111208
279.857452 -96.377487 1.282440 0.119219
279.857452 -96.377487 0.802353 0.138293
279.854492 -96.367493 0.320883 0.464866
279.537506 -95.300636 0.000000 0.257548
278.827942 -92.912575 0.000000 0.230190
278.334778 -91.252785 0.000000 0.190050
277.971436 -90.029922 0.000000 0.241057
279.741302 -96.342957 5.642193 0.654063
279.741302 -96.342957 5.140437 0.630350
279.741302 -96.342964 4.645726 0.641962
279.741302 -96.342964 4.156873 0.623667
279.741302 -96.342964 3.672745 0.648280
279.741302 -96.342964 3.192249 0.582727
279.741302 -96.342957 2.714327 0.635065
279.762878 -96.417488 2.239209 0.678431
279.751282 -96.377487 1.761473 0.148653
279.751282 -96.377487 1.283908 0.129412
279.751282 -96.377487 0.804803 0.147662
279.748413 -96.367485 0.324318 0.463981
279.447174 -95.327133 0.000000 0.254520
278.754303 -92.934174 0.000000 0.245413
278.272736 -91.270981 0.000000 0.214715
277.917938 -90.045609 0.000000 0.230178
279.635834 -96.342957 5.634933 0.652171
279.635834 -96.342957 5.134178 0.635981
279.635834 -96.342964 4.640453 0.641917
279.635834 -96.342964 4.152574 0.622568
279.635834 -96.342964 3.669411 0.681712
279.635834 -96.342964 3.189873 0.598718
279.635834 -96.342964 2.712903 0.653040
279.656860 -96.417488 2.238732 0.678431
279.645569 -96.377487 1.761948 0.143069
279.645569 -96.377487 1.285335 0.136843
279.645569 -96.377487 0.807185 0.137255
279.642761 -96.367493 0.327657 0.466835
279.356659 -95.352997 0.000001 0.204088
278.680511 -92.955261 0.000000 0.209880
278.210571 -91.288742 0.000000 0.230609
277.864349 -90.060928 0.000000 0.223751
279.530762 -96.342949 5.627879 0.612085
279.530762 -96.342957 5.128095 0.641566
279.530762 -96.342964 4.635329 0.624353
279.530762 -96.342964 4.148397 0.618936
279.530762 -96.342957 3.666172 0.672923
279.530762 -96.342964 3.187564 0.621347
279.530762 -96.342964 2.711520 0.661479
279.551239 -96.417488 2.238269 0.678431
279.540253 -96.377487 1.762410 0.147021
279.540253 -96.377487 1.286721 0.138750
279.540253 -96.377487 0.809500 0.146929
279.537506 -96.367493 0.330902 0.457237
279.265991 -95.378220 0.000001 0.252749
278.606598 -92.975830 0.000000 0.224685
278.148285 -91.306068 0.000001 0.201658
277.810638 -90.075867 0.000001 0.221346
279.426117 -96.342949 5.621029 0.612131
279.426117 -96.342957 5.122188 0.610712
279.426117 -96.342957 4.630352 0.621973
279.426117 -96.342964 4.144341 0.635157
279.426117 -96.342964 3.663026 0.643076
279.426117 -96.342964 3.185322 0.636515
279.426117 -96.342964 2.710176 0.622385
279.446014 -96.417488 2.237818 0.678431
279.435333 -96.377487 1.762859 0.124758
279.435333 -96.377487 1.288068 0.143084
279.435333 -96.377487 0.811748 0.139513
279.432678 -96.367493 0.334054 0.453025
279.175140 -95.402824 0.000000 0.229364
278.532532 -92.995880 0.000001 0.236796
278.085876 -91.322960 0.000000 0.219299
277.756836 -90.090431 0.000000 0.224517
279.321869 -96.342949 5.614380 0.618372
279.321869 -96.342957 5.116456 0.652155
279.321869 -96.342957 4.625523 0.642191
279.321869 -96.342964 4.140404 0.632715
279.321869 -96.342964 3.659972 0.678660
279.321869 -96.342964 3.183145 0.640803
279.321869 -96.342957 2.708872 0.667094
279.341187 -96.417488 2.237382 0.678431
279.330811 -96.377487 1.763294 0.130663
279.330811 -96.377487 1.289376 0.138491
279.330811 -96.377487 0.813930 0.140475
279.328217 -96.367493 0.337113 0.463844
279.084106 -95.426788 0.000000 0.199756
278.458313 -93.015411 0.000001 0.194238
278.023376 -91.339424 0.000000 0.247519
277.702942 -90.104630 0.000000 0.228562
279.217957 -96.342949 5.607931 0.628092
279.217957 -96.342949 5.110895 0.669032
279.217957 -96.342957 4.620837 0.642237
279.217957 -96.342957 4.136584 0.628458
279.217957 -96.342964 3.657010 0.659922
279.217957 -96.342964 3.181035 0.631525
279.217957 -96.342957 2.707607 0.653468
279.236755 -96.417488 2.236958 0.678431
279.226685 -96.377487 1.763717 0.168521
279.226685 -96.377487 1.290643 0.137255
279.226685 -96.377487 0.816046 0.129610
279.224152 -96.367493 0.340080 0.454047
278.992920 -95.450111 0.000000 0.225977
278.383972 -93.034431 0.000000 0.217719
277.960754 -91.355438 0.000000 0.258506
277.648926 -90.118439 0.000000 0.251612
279.114441 -96.342949 5.601681 0.676432
279.114441 -96.342957 5.105506 0.636576
279.114441 -96.342957 4.616298 0.645335
279.114441 -96.342957 4.132883 0.672282
279.114441 -96.342964 3.654140 0.612696
279.114441 -96.342957 3.178988 0.639033
279.114441 -96.342964 2.706381 0.623392
279.116913 -96.353027 2.235462 0.776471
279.116913 -96.353027 1.764538 0.784436
279.116913 -96.353027 1.293109 0.784436
279.116913 -96.353020 0.820162 0.776471
279.116913 -96.353020 0.344669 0.776471
278.901550 -95.472801 0.000000 0.216247
278.309509 -93.052925 0.000000 0.238867
277.898010 -91.371025 0.000000 0.272975
277.594818 -90.131874 0.000000 0.226719
279.011292 -96.342941 5.595625 0.642374
279.011292 -96.342949 5.100285 0.658137
279.011292 -96.342957 4.611899 0.654124
279.011292 -96.342957 4.129297 0.654612
279.011292 -96.342964 3.651359 0.668238
279.011292 -96.342964 3.177007 0.648325
279.011292 -96.342964 2.705194 0.630655
279.011292 -96.342957 2.234897 0.644038
279.011292 -96.342957 1.765103 0.646876
279.011292 -96.342957 1.294806 0.638239
279.011292 -96.342957 0.822993 0.683391
279.011292 -96.342957 0.348642 0.623850
278.810059 -95.494858 0.000000 0.221980
278.234894 -93.070908 0.000000 0.222566
277.835144 -91.386169 0.000000 0.269313
277.540649 -90.144936 0.000001 0.246933
278.908447 -96.342949 5.589767 0.634745
278.908447 -96.342949 5.095233 0.634745
278.908447 -96.342957 4.607644 0.680751
278.908447 -96.342957 4.125828 0.648524
278.908447 -96.342964 3.648668 0.634470
278.908447 -96.342964 3.175088 0.612421
278.908447 -96.342957 2.704045 0.641642
278.908447 -96.342957 2.234514 0.632547
278.908447 -96.342957 1.765486 0.633600
278.908447 -96.342957 1.295955 0.634256
278.908447 -96.342957 0.824911 0.632853
278.908447 -96.342957 0.351332 0.612238
278.718384 -95.516266 0.000000 0.225630
278.160187 -93.088356 0.000000 0.227665
277.772186 -91.400879 0.000000 0.246909
277.486359 -90.157616 0.000000 0.235348
278.805939 -96.342949 5.584102 0.635050
278.805939 -96.342949 5.090348 0.640024
278.805939 -96.342957 4.603528 0.660441
278.805969 -96.342957 4.122472 0.671519
278.805969 -96.342964 3.646067 0.630640
278.805969 -96.342964 3.173234 0.641093
278.805969 -96.342964 2.702934 0.603326
278.805969 -96.342957 2.234144 0.624643
278.805969 -96.342957 1.765856 0.678798
278.805969 -96.342957 1.297066 0.600244
278.805939 -96.342957 0.826766 0.682612
278.805969 -96.342957 0.353934 0.599466
278.626587 -95.537033 0.000000 0.211628
278.085327 -93.105293 0.000000 0.226372
277.709137 -91.415138 0.000000 0.244348
277.431976 -90.169914 0.000000 0.199444
278.703766 -96.342949 5.578628 0.631251
278.705933 -96.353027 5.087855 0.793866
278.705933 -96.353027 4.601427 0.776471
278.705933 -96.353027 4.120759 0.776471
278.705933 -96.353027 3.644737 0.776471
278.703766 -96.342964 3.171443 0.631266
278.703766 -96.342957 2.701860 0.622782
278.703766 -96.342957 2.233786 0.651606
278.703766 -96.342957 1.766214 0.668666
278.703766 -96.342957 1.298140 0.664057
278.703766 -96.342957 0.828557 0.637140
278.703766 -96.342957 0.356449 0.621973
278.534637 -95.557159 0.000000 0.231434
278.010376 -93.121704 0.000000 0.235133
277.645996 -91.428963 0.000000 0.230310
277.377533 -90.181831 0.000000 0.192335
278.601898 -96.342949 5.573345 0.648463
278.615326 -96.407501 5.095315 0.678431
278.615326 -96.407501 4.607710 0.678431
278.615326 -96.407501 4.125882 0.678431
278.615326 -96.407501 3.648710 0.678431
278.601898 -96.342957 3.169713 0.636988
278.601898 -96.342957 2.700824 0.632441
278.601898 -96.342957 2.233441 0.678080
278.601898 -96.342957 1.766559 0.681788
278.601898 -96.342957 1.299176 0.663066
278.601898 -96.342957 0.830287 0.693080
278.601898 -96.342957 0.358875 0.622889
278.442535 -95.576653 0.000000 0.247316
277.935303 -93.137589 0.000000 0.220987
277.582733 -91.442352 0.000000 0.202963
277.322998 -90.193375 0.000000 0.240159
278.500336 -96.342949 5.568251 0.647120
278.513275 -96.407501 5.090902 0.678431
278.513275 -96.407501 4.603992 0.678431
278.513275 -96.407501 4.122852 0.678431
278.513275 -96.407501 3.646360 0.678431
278.500336 -96.342957 3.168045 0.635721
278.500336 -96.342957 2.699825 0.619379
278.500336 -96.342957 2.233108 0.621302
278.500336 -96.342957 1.766891 0.673106
278.500336 -96.342957 1.300175 0.633433
278.500336 -96.342957 0.831954 0.684062
278.500336 -96.342957 0.361214 0.630442
278.350311 -95.595490 0.000000 0.236138
277.860107 -93.152954 0.000000 0.237981
277.519409 -91.455292 0.000000 0.200593
277.268402 -90.204536 0.000000 0.242469
278.399017 -96.342941 5.563345 0.647715
278.411530 -96.407501 5.086653 0.678431
278.411530 -96.407501 4.600413 0.678431
278.411530 -96.407501 4.119933 0.678431
278.411530 -96.407501 3.644096 0.678431
278.399017 -96.342957 3.166440 0.636027
278.399017 -96.342957 2.698863 0.655070
278.399017 -96.342957 2.232788 0.650889
278.399017 -96.342957 1.767212 0.625376
278.399017 -96.342957 1.301137 0.661021
278.399017 -96.342957 0.833561 0.674968
278.399017 -96.342949 0.363467 0.627390
278.257965 -95.613693 0.000000 0.205321
277.784821 -93.167786 0.000000 0.211065
277.455963 -91.467789 0.000000 0.219969
277.213684 -90.215309 0.000000 0.270294
278.298004 -96.342949 5.558627 0.664576
278.310028 -96.407501 5.082565 0.678431
278.310028 -96.407501 4.596970 0.678431
278.310028 -96.407501 4.117125 0.678431
278.310028 -96.407501 3.641919 0.678431
278.298004 -96.342957 3.164895 0.635523
278.298004 -96.342957 2.697937 0.637385
278.298004 -96.342957 2.232480 0.652232
278.298004 -96.342957 1.767520 0.657679
278.298004 -96.342957 1.302062 0.671214
278.298004 -96.342957 0.835105 0.669062
278.298004 -96.342949 0.365635 0.634089
278.165497 -95.631248 0.000001 0.205572
277.709442 -93.182098 0.000000 0.239273
277.392456 -91.479843 0.000001 0.221501
277.158936 -90.225708 0.000000 0.237430
278.197266 -96.342949 5.554094 0.628580
278.208801 -96.407501 5.078638 0.678431
278.208801 -96.407501 4.593661 0.678431
278.208801 -96.407501 4.114429 0.678431
278.208801 -96.407501 3.639828 0.678431
278.197266 -96.342957 3.163411 0.610910
278.197266 -96.342957 2.697048 0.631647
278.197266 -96.342957 2.232184 0.586862
278.197266 -96.342957 1.767816 0.635493
278.197266 -96.342957 1.302952 0.623499
278.197266 -96.342957 0.836589 0.697185
278.197266 -96.342949 0.367717 0.611215
278.072876 -95.648155 0.000001 0.234606
277.633942 -93.195877 0.000001 0.215302
277.328857 -91.491463 0.000000 0.245975
277.104095 -90.235718 0.000000 0.205919
278.096741 -96.342949 5.549745 0.664775
278.107849 -96.407501 5.074871 0.678431
278.107849 -96.407501 4.590487 0.678431
278.107849 -96.407501 4.111841 0.678431
278.107849 -96.407501 3.637821 0.678431
278.096741 -96.342957 3.161987 0.621546
278.096741 -96.342957 2.696195 0.640864
278.096741 -96.342957 2.231899 0.623804
278.096741 -96.342957 1.768101 0.658335
278.096741 -96.342957 1.303804 0.676921
278.096741 -96.342957 0.838013 0.701381
278.096741 -96.342949 0.369714 0.627802
277.980164 -95.664413 0.000000 0.225044
277.558350 -93.209137 0.000000 0.215302
277.265198 -91.502625 0.000000 0.276541
277.049194 -90.245346 0.000000 0.205153
277.996490 -96.342949 5.545578 0.628260
278.007111 -96.407501 5.071262 0.678431
278.007111 -96.407501 4.587448 0.678431
278.007111 -96.407501 4.109363 0.678431
278.007111 -96.407501 3.635898 0.678431
277.996490 -96.342957 3.160623 0.603052
277.996490 -96.342957 2.695378 0.655818
277.996490 -96.342964 2.231627 0.663020
277.996490 -96.342957 1.768373 0.632212
277.996490 -96.342957 1.304622 0.669718
277.996490 -96.342957 0.839376 0.668559
277.996490 -96.342949 0.371628 0.611978
277.887360 -95.680023 0.000001 0.270534
277.482697 -93.221863 0.000000 0.215996
277.201447 -91.513351 0.000000 0.248130
276.994232 -90.254593 0.000000 0.203621
277.896454 -96.342949 5.541595 0.634348
277.906616 -96.407501 5.067811 0.678431
277.906616 -96.407501 4.584539 0.678431
277.906616 -96.407501 4.106992 0.678431
277.906616 -96.407501 3.634061 0.678431
277.896454 -96.342957 3.159319 0.620920
277.896454 -96.342957 2.694597 0.659358
277.896454 -96.342957 2.231367 0.615412
277.896454 -96.342957 1.768633 0.656672
277.896454 -96.342957 1.305403 0.631220
277.896454 -96.342957 0.840681 0.663523
277.896454 -96.342957 0.373457 0.617502
277.794434 -95.694992 0.000001 0.209737
277.406921 -93.234062 0.000001 0.213375
277.137604 -91.523628 0.000000 0.200174
276.939178 -90.263458 0.000000 0.194430
277.796631 -96.342949 5.537792 0.629831
277.806335 -96.407501 5.064517 0.678431
277.806335 -96.407509 4.581766 0.678431
277.806335 -96.407509 4.104731 0.678431
277.806335 -96.407509 3.632306 0.678431
277.796631 -96.342957 3.158074 0.623987
277.796631 -96.342957 2.693851 0.649149
277.796631 -96.342957 2.231118 0.624292
277.796631 -96.342957 1.768882 0.675074
277.796631 -96.342957 1.306149 0.669078
277.796631 -96.342957 0.841926 0.675166
277.796631 -96.342949 0.375204 0.650278
277.701385 -95.709312 0.000000 0.257453
277.331085 -93.245735 0.000000 0.204375
277.073730 -91.533463 0.000001 0.278277
276.884094 -90.271935 0.000000 0.209497
277.697021 -96.342949 5.534170 0.620890
277.706268 -96.407501 5.061379 0.678431
277.706268 -96.407509 4.579122 0.678431
277.706268 -96.407509 4.102575 0.678431
277.706268 -96.407509 3.630635 0.678431
277.697021 -96.342957 3.156888 0.619959
277.697021 -96.342957 2.693141 0.623880
277.697021 -96.342957 2.230882 0.617853
277.697021 -96.342957 1.769118 0.614038
277.697021 -96.342957 1.306859 0.660273
277.697021 -96.342957 0.843111 0.643793
277.697021 -96.342949 0.376867 0.646876
277.608246 -95.722977 0.000000 0.215577
277.255157 -93.256882 0.000000 0.229448
277.009766 -91.542847 0.000000 0.223596
276.828949 -90.280029 0.000000 0.198583
277.597626 -96.342949 5.530727 0.613703
277.606384 -96.407501 5.058397 0.678431
277.606384 -96.407509 4.576609 0.678431
277.606384 -96.407509 4.100528 0.678431
277.606384 -96.407509 3.629047 0.678431
277.597626 -96.342957 3.155761 0.621439
277.597626 -96.342957 2.692466 0.631296
277.597626 -96.342957 2.230657 0.618524
277.597626 -96.342957 1.769343 0.648890
277.597626 -96.342957 1.307534 0.663462
277.597626 -96.342949 0.844238 0.654429
277.597626 -96.342957 0.378448 0.620813
277.515045 -95.735992 0.000000 0.234043
277.179169 -93.267487 0.000000 0.217947
276.945740 -91.551788 0.000000 0.227940
276.773743 -90.287735 0.000000 0.202783
277.498383 -96.342949 5.527462 0.656367
277.506714 -96.407501 5.055569 0.678431
277.506714 -96.407509 4.574226 0.678431
277.506714 -96.407509 4.098585 0.678431
277.506714 -96.407509 3.627540 0.678431
277.498383 -96.342949 3.154693 0.618585
277.498383 -96.342957 2.691825 0.668711
277.498383 -96.342957 2.230444 0.654856
277.498383 -96.342957 1.769556 0.626566
277.498383 -96.342957 1.308175 0.660060
277.498383 -96.342949 0.845307 0.646097
277.498383 -96.342949 0.379948 0.679210
277.421722 -95.748360 0.000000 0.215098
277.103088 -93.277565 0.000000 0.235910
276.881653 -91.560280 0.000000 0.203083
276.718475 -90.295059 0.000000 0.228945
277.399353 -96.342949 5.524376 0.665232
277.400574 -96.353027 5.041042 0.801175
277.400574 -96.353027 4.561987 0.807843
277.400574 -96.353027 4.088607 0.807843
277.400574 -96.353027 3.619802 0.801175
277.399353 -96.342957 3.153682 0.607721
277.399353 -96.342957 2.691220 0.640650
277.399353 -96.342957 2.230242 0.660624
277.399353 -96.342957 1.769758 0.622293
277.399353 -96.342957 1.308780 0.680339
277.399353 -96.342957 0.846318 0.638010
277.399353 -96.342949 0.381366 0.655985
277.328308 -95.760071 0.000000 0.201335
277.026947 -93.287117 0.000001 0.253671
276.817505 -91.568321 0.000000 0.244695
276.663177 -90.301994 0.000000 0.210371
277.300476 -96.342949 5.521465 0.655085
277.304932 -96.381721 5.044769 0.827298
277.304932 -96.381721 4.565128 0.826703
277.304932 -96.381721 4.091167 0.819623
277.307892 -96.407509 3.624773 0.678431
277.300476 -96.342957 3.152730 0.613169
277.300476 -96.342957 2.690649 0.678035
277.300476 -96.342957 2.230052 0.647440
277.300476 -96.342957 1.769948 0.647349
277.300476 -96.342957 1.309351 0.622721
277.300476 -96.342949 0.847270 0.704219
277.300476 -96.342949 0.382702 0.653635
277.234833 -95.771126 0.000000 0.233672
276.950745 -93.296135 0.000000 0.241595
276.753296 -91.575920 0.000000 0.217743
276.607819 -90.308548 0.000000 0.264454
277.201782 -96.342949 5.518731 0.695079
277.208710 -96.407509 5.048007 0.678431
277.208710 -96.407509 4.567855 0.678431
277.208710 -96.407509 4.093390 0.678431
277.208710 -96.407509 3.623511 0.678431
277.201782 -96.342949 3.151834 0.617456
277.201782 -96.342957 2.690113 0.646922
277.201782 -96.342957 2.229873 0.665721
277.201782 -96.342957 1.770127 0.648661
277.201782 -96.342957 1.309887 0.642512
277.201782 -96.342949 0.848165 0.696574
277.201782 -96.342949 0.383958 0.659861
277.141296 -95.781540 0.000000 0.228335
276.874481 -93.304619 0.000000 0.249291
276.689056 -91.583069 0.000000 0.233433
276.552429 -90.314705 0.000000 0.222698
277.103210 -96.342949 5.516172 0.688502
277.109711 -96.407509 5.045791 0.678431
277.109711 -96.407509 4.565989 0.678431
277.109711 -96.407509 4.091869 0.678431
277.109711 -96.407509 3.622331 0.678431
277.103210 -96.342957 3.150997 0.606409
277.103210 -96.342957 2.689610 0.626444
277.103210 -96.342957 2.229706 0.663996
277.103210 -96.342957 1.770294 0.597009
277.103210 -96.342957 1.310389 0.632944
277.103210 -96.342949 0.849003 0.638514
277.103210 -96.342949 0.385133 0.660594
277.047668 -95.791290 0.000000 0.234391
276.798157 -93.312569 0.000000 0.228024
276.624756 -91.589767 0.000000 0.211975
276.496979 -90.320480 0.000000 0.229053
277.004791 -96.342949 5.513790 0.667659
277.008026 -96.377510 5.037218 0.827466
277.008026 -96.377510 4.558766 0.820417
277.008026 -96.377510 4.085981 0.825666
277.010834 -96.407509 3.621231 0.678431
277.004791 -96.342957 3.150217 0.620356
277.004791 -96.342957 2.689143 0.633036
277.004791 -96.342957 2.229550 0.632898
277.004791 -96.342957 1.770449 0.648005
277.004791 -96.342957 1.310857 0.632288
277.004791 -96.342949 0.849783 0.701686
277.004791 -96.342949 0.386228 0.646052
276.953979 -95.800392 0.000000 0.215039
276.721771 -93.319992 0.000000 0.239561
276.560394 -91.596016 0.000000 0.274974
276.441498 -90.325874 0.000000 0.234582
276.906464 -96.342949 5.511580 0.655665
276.907043 -96.349655 5.029271 0.733974
276.907043 -96.349655 4.552070 0.711269
276.907043 -96.349648 4.080521 0.728710
276.907043 -96.349617 3.613527 0.732860
276.906464 -96.342949 3.149493 0.598230
276.906464 -96.342957 2.688710 0.636332
276.906464 -96.342957 2.229406 0.624186
276.906464 -96.342957 1.770594 0.640528
276.906464 -96.342949 1.311290 0.633738
276.906464 -96.342949 0.850506 0.679072
276.906464 -96.342949 0.387242 0.654414
276.860229 -95.808838 0.000001 0.206948
276.645355 -93.326874 0.000000 0.213566
276.496002 -91.601822 0.000000 0.234762
276.385986 -90.330872 0.000000 0.273645
276.808289 -96.342949 5.509543 0.680262
276.808289 -96.342949 5.026062 0.638392
276.808289 -96.342949 4.549367 0.641276
276.808289 -96.342949 4.078319 0.648814
276.808289 -96.342949 3.611823 0.603281
276.808289 -96.342949 3.148827 0.591699
276.808289 -96.342957 2.688311 0.640757
276.808289 -96.342957 2.229273 0.659922
276.808289 -96.342957 1.770727 0.631220
276.808289 -96.342957 1.311689 0.651118
276.808289 -96.342949 0.851173 0.651530
276.808289 -96.342957 0.388177 0.672724
276.766418 -95.816628 0.000000 0.238184
276.568878 -93.333229 0.000000 0.259715
276.431580 -91.607170 0.000000 0.226887
276.330414 -90.335487 0.000000 0.197111
276.710236 -96.342949 5.507682 0.682124
276.710236 -96.342949 5.024456 0.653727
276.710236 -96.342949 4.548014 0.666499
276.710236 -96.342949 4.077216 0.639750
276.710236 -96.342949 3.610967 0.620584
276.710236 -96.342957 3.148217 0.623041
276.710236 -96.342957 2.687946 0.648768
276.710236 -96.342957 2.229151 0.656703
276.710236 -96.342957 1.770849 0.648981
276.710236 -96.342949 1.312055 0.645731
276.710236 -96.342949 0.851782 0.680766
276.710236 -96.342949 0.389033 0.670756
276.672577 -95.823761 0.000000 0.202664
276.492371 -93.339043 0.000000 0.202807
276.367126 -91.612068 0.000000 0.284979
276.274841 -90.339714 0.000000 0.270174
276.612244 -96.342957 5.505993 0.659281
276.612244 -96.342957 5.023000 0.655146
276.612244 -96.342949 4.546787 0.640391
276.612244 -96.342949 4.076215 0.628641
276.612244 -96.342957 3.610191 0.612177
276.612244 -96.342957 3.147664 0.623194
276.612244 -96.342957 2.687614 0.678614
276.612244 -96.342957 2.229041 0.618326
276.612244 -96.342957 1.770959 0.651118
276.612244 -96.342957 1.312386 0.613458
276.612244 -96.342949 0.852336 0.664927
276.612244 -96.342949 0.389809 0.625132
276.578674 -95.830246 0.000000 0.241894
276.415833 -93.344330 0.000000 0.237586
276.302643 -91.616524 0.000000 0.231147
276.219238 -90.343552 0.000000 0.283566
276.514374 -96.342957 5.504476 0.687785
276.514374 -96.342957 5.021692 0.644450
276.514374 -96.342957 4.545685 0.639551
276.514374 -96.342957 4.075316 0.639368
276.514374 -96.342957 3.609495 0.639063
276.514374 -96.342957 3.147167 0.630228
276.514374 -96.342957 2.687316 0.626886
276.514374 -96.342957 2.228942 0.656077
276.514374 -96.342957 1.771058 0.623301
276.514374 -96.342957 1.312683 0.632807
276.514374 -96.342949 0.852832 0.628336
276.514374 -96.342957 0.390505 0.648295
276.484711 -95.836075 0.000000 0.206326
276.339233 -93.349083 0.000000 0.210646
276.238098 -91.620522 0.000000 0.205129
276.163605 -90.347000 0.000000 0.186076
276.416565 -96.342957 5.503130 0.695384
276.416565 -96.342957 5.020532 0.625177
276.416565 -96.342957 4.544708 0.676875
276.416565 -96.342957 4.074520 0.650935
276.416565 -96.342957 3.608877 0.678798
276.416565 -96.342957 3.146727 0.629313
276.416565 -96.342957 2.687052 0.665232
276.416565 -96.342957 2.228854 0.650065
276.416565 -96.342957 1.771146 0.631846
276.416565 -96.342949 1.312947 0.636835
276.416565 -96.342949 0.853273 0.668269
276.416565 -96.342949 0.391123 0.653056
276.390747 -95.841240 0.000001 0.267924
276.262604 -93.353287 0.000000 0.261294
276.173553 -91.624069 0.000000 0.230932
276.107941 -90.350060 0.000000 0.250846
276.318848 -96.342957 5.501958 0.616815
276.318848 -96.342957 5.019520 0.623407
276.318848 -96.342957 4.543856 0.669017
276.318848 -96.342957 4.073825 0.589624
276.318848 -96.342957 3.608338 0.651926
276.318848 -96.342957 3.146343 0.628702
276.318848 -96.342957 2.686822 0.659754
276.318848 -96.342957 2.228777 0.609171
276.318848 -96.342957 1.771223 0.642283
276.318848 -96.342949 1.313178 0.612314
276.318848 -96.342949 0.853657 0.652369
276.318848 -96.342949 0.391662 0.611154
276.296722 -95.845749 0.000001 0.220987
276.185974 -93.356972 0.000000 0.214249
276.108978 -91.627174 0.000000 0.208229
276.052277 -90.352737 0.000000 0.230944
276.221161 -96.342957 5.500956 0.664683
276.221161 -96.342957 5.018656 0.623545
276.221161 -96.342957 4.543128 0.669978
276.221161 -96.342957 4.073231 0.617029
276.221161 -96.342957 3.607877 0.668544
276.221161 -96.342957 3.146015 0.624903
276.221161 -96.342957 2.686626 0.685527
276.221161 -96.342957 2.228712 0.623865
276.221161 -96.342957 1.771288 0.620081
276.221161 -96.342949 1.313374 0.618585
276.221161 -96.342949 0.853985 0.646616
276.221161 -96.342949 0.392123 0.627024
276.202667 -95.849609 0.000001 0.217181
276.109283 -93.360115 0.000000 0.226097
276.044373 -91.629814 0.000001 0.271958
275.996582 -90.355019 0.000000 0.205536
276.123566 -96.342957 5.500124 0.668437
276.123566 -96.342957 5.017940 0.639063
276.123566 -96.342957 4.542524 0.662333
276.123566 -96.342964 4.072741 0.624582
276.123566 -96.342957 3.607496 0.672236
276.123566 -96.342957 3.145743 0.628199
276.123566 -96.342957 2.686463 0.687633
276.123566 -96.342957 2.228658 0.613489
276.123566 -96.342957 1.771342 0.671901
276.123566 -96.342949 1.313537 0.605432
276.123566 -96.342949 0.854257 0.668315
276.123566 -96.342949 0.392505 0.629221
276.108582 -95.852814 0.000001 0.230764
276.032593 -93.362724 0.000000 0.205644
275.979767 -91.632019 0.000001 0.203513
275.940857 -90.356911 0.000000 0.277259
276.025970 -96.342964 5.499465 0.643046
276.025970 -96.342964 5.017371 0.619699
276.025970 -96.342964 4.542046 0.645457
276.025970 -96.342964 4.072350 0.644434
276.025970 -96.342957 3.607193 0.676173
276.025970 -96.342957 3.145527 0.626154
276.025970 -96.342957 2.686333 0.676555
276.025970 -96.342964 2.228614 0.640040
276.025970 -96.342957 1.771386 0.642313
276.025970 -96.342949 1.313667 0.626825
276.025970 -96.342949 0.854473 0.701457
276.025970 -96.342949 0.392808 0.635523
276.014496 -95.855347 0.000001 0.257800
275.955902 -93.364799 0.000000 0.260121
275.915161 -91.633766 0.000000 0.219814
275.885132 -90.358421 0.000000 0.302033
275.928436 -96.342957 5.498975 0.678325
275.928436 -96.342964 5.016949 0.620386
275.928436 -96.342964 4.541690 0.666560
275.928436 -96.342964 4.072061 0.648234
275.928436 -96.342972 3.606969 0.678004
275.928436 -96.342957 3.145367 0.632105
275.928436 -96.342957 2.686238 0.691905
275.928436 -96.342957 2.228583 0.651530
275.928436 -96.342957 1.771418 0.646082
275.928436 -96.342949 1.313763 0.646143
275.928436 -96.342949 0.854633 0.674067
275.928436 -96.342949 0.393033 0.679484
275.920380 -95.857239 0.000001 0.239776
275.879181 -93.366333 0.000000 0.280754
275.850525 -91.635056 0.000000 0.241188
275.829407 -90.359535 0.000000 0.259080
275.830902 -96.342964 5.498656 0.656977
275.830902 -96.342964 5.016674 0.611887
275.830902 -96.342964 4.541458 0.645411
275.830902 -96.342972 4.071872 0.654917
275.830902 -96.342972 3.606823 0.639765
275.830902 -96.342957 3.145263 0.610117
275.830902 -96.342957 2.686175 0.646967
275.830902 -96.342957 2.228561 0.672435
275.830902 -96.342957 1.771438 0.642329
275.830902 -96.342949 1.313825 0.621637
275.830902 -96.342949 0.854738 0.644648
275.830902 -96.342949 0.393179 0.672068
275.826263 -95.858467 0.000001 0.233266
275.802429 -93.367332 0.000000 0.201144
275.785889 -91.635902 0.000000 0.272508
275.773682 -90.360268 0.000000 0.263161
275.733398 -96.342964 5.498508 0.629587
275.733398 -96.342964 5.016546 0.620310
275.733398 -96.342964 4.541351 0.645289
275.733398 -96.342972 4.071784 0.650370
275.733398 -96.342972 3.606754 0.646052
275.733398 -96.342957 3.145214 0.602945
275.733398 -96.342957 2.686145 0.658656
275.733398 -96.342957 2.228552 0.642115
275.733398 -96.342957 1.771448 0.659678
275.733398 -96.342949 1.313854 0.617792
275.733398 -96.342949 0.854787 0.645106
275.733398 -96.342949 0.393248 0.628214
275.732147 -95.859039 0.000000 0.250954
275.725708 -93.367798 0.000000 0.278013
275.721222 -91.636292 0.000001 0.213148
275.717926 -90.360603 0.000000 0.246011
275.635895 -96.342964 5.498530 0.664958
275.635895 -96.342964 5.016565 0.608194
275.635895 -96.342972 4.541368 0.644282
275.635895 -96.342972 4.071797 0.643061
275.635895 -96.342972 3.606765 0.638056
275.635895 -96.342972 3.145223 0.610407
275.635895 -96.342957 2.686150 0.664958
275.635895 -96.342957 2.228553 0.644541
275.635895 -96.342957 1.771447 0.649332
275.635895 -96.342949 1.313850 0.624170
275.635895 -96.342949 0.854779 0.670146
275.635895 -96.342949 0.393237 0.659403
275.638000 -95.858955 0.000001 0.225199
275.648956 -93.367737 0.000000 0.206350
275.656586 -91.636238 0.000001 0.207056
275.662201 -90.360550 0.000000 0.227341
275.538361 -96.342964 5.498724 0.649348
275.538361 -96.342972 5.016732 0.629908
275.538361 -96.342972 4.541507 0.623941
275.538361 -96.342972 4.071912 0.632944
275.538361 -96.342972 3.606853 0.619074
275.538361 -96.342972 3.145286 0.618067
275.538361 -96.342957 2.686188 0.632166
275.538361 -96.342957 2.228566 0.638727
275.538361 -96.342957 1.771434 0.631083
275.538361 -96.342949 1.313812 0.608865
275.538361 -96.342949 0.854716 0.658015
275.538361 -96.342949 0.393149 0.658991
275.543884 -95.858208 0.000000 0.231770
275.572235 -93.367126 0.000000 0.253874
275.591949 -91.635727 0.000001 0.245580
275.606445 -90.360115 0.000000 0.196010
275.440857 -96.342972 5.499087 0.616754
275.440857 -96.342972 5.017045 0.646601
275.440857 -96.342972 4.541771 0.667948
275.440857 -96.342972 4.072126 0.603464
275.440857 -96.342979 3.607021 0.645274
275.440857 -96.342972 3.145405 0.595071
275.440857 -96.342979 2.686260 0.655207
275.440857 -96.342957 2.228589 0.616770
275.440857 -96.342949 1.771410 0.642161
275.440857 -96.342949 1.313741 0.600397
275.440857 -96.342949 0.854597 0.653407
275.440857 -96.342949 0.392982 0.619806
275.449768 -95.856812 0.000001 0.249602
275.495514 -93.365982 0.000000 0.196213
275.527283 -91.634766 0.000000 0.241344
275.550720 -90.359283 0.000000 0.246514
275.384369 -94.722633 5.093618 0.647761
275.384369 -94.722710 4.667450 0.633310
275.384369 -94.722778 4.247262 0.629252
275.384369 -94.722855 3.832044 0.639216
275.384338 -94.722923 3.420834 0.646708
275.384338 -94.723000 3.012706 0.637446
275.384338 -94.723068 2.606758 0.648554
275.343048 -96.353020 2.228790 0.776471
275.343048 -96.353020 1.771211 0.776471
275.343292 -96.342949 1.313636 0.616037
275.343292 -96.342949 0.854422 0.673838
275.343292 -96.342949 0.392737 0.665080
275.372803 -95.178062 0.100411 0.574762
275.418793 -93.364311 0.000000 0.239680
275.462646 -91.633354 0.000000 0.222530
275.494995 -90.358070 0.000000 0.188087
275.311676 -94.302788 4.989021 0.645106
275.311676 -94.302788 4.577247 0.642893
275.311676 -94.302795 4.171254 0.614282
275.311676 -94.302795 3.770070 0.690639
275.311676 -94.302795 3.372764 0.664652
275.311676 -94.302795 2.978438 0.625650
275.313080 -94.259201 2.584080 0.709590
275.243622 -96.407486 2.229727 0.678431
275.243622 -96.407486 1.770273 0.678431
275.245697 -96.342949 1.313498 0.630625
275.245697 -96.342949 0.854192 0.674647
275.245697 -96.342949 0.392413 0.640146
275.283447 -95.175484 0.100410 0.580560
275.342072 -93.362099 0.000000 0.211556
275.398041 -91.631493 0.000000 0.242600
275.439270 -90.356461 0.000000 0.263125
275.228302 -94.302788 4.989768 0.634241
275.228302 -94.302795 4.577891 0.614816
275.228302 -94.302795 4.171797 0.625925
275.228302 -94.302795 3.770513 0.651652
275.228302 -94.302795 3.373106 0.655482
275.228302 -94.302795 2.978682 0.616953
275.231506 -94.220924 2.582344 0.719585
275.145538 -96.407494 2.229785 0.678431
275.145538 -96.407494 1.770215 0.678431
275.148071 -96.342949 1.313327 0.586404
275.148071 -96.342949 0.853905 0.706157
275.148071 -96.342949 0.392011 0.594141
275.218170 -94.560417 0.191243 0.672633
275.265411 -93.359352 0.000000 0.257022
275.333435 -91.629173 0.000001 0.205692
275.383575 -90.354462 0.000000 0.266776
275.144867 -94.302788 4.990662 0.628840
275.144897 -94.302788 4.578661 0.641932
275.144867 -94.302788 4.172446 0.641917
275.144867 -94.302795 3.771042 0.650431
275.144867 -94.302795 3.373517 0.667765
275.144867 -94.302795 2.978975 0.639780
275.148682 -94.220795 2.582512 0.702373
275.135406 -94.507103 2.198722 0.701854
275.135406 -94.507103 1.801278 0.654475
275.135406 -94.507095 1.403408 0.656794
275.135406 -94.507103 1.004255 0.662333
275.135406 -94.507103 0.602954 0.604974
275.136780 -94.477707 0.202984 0.617884
275.188721 -93.356071 0.000000 0.224744
275.268860 -91.626404 0.000001 0.219850
275.327881 -90.352081 0.000000 0.242361
275.060883 -94.312767 4.994205 0.761028
275.060883 -94.312767 4.581717 0.752194
275.060883 -94.312759 4.175019 0.756893
275.060883 -94.312759 3.773139 0.750134
275.060883 -94.312767 3.375143 0.748638
275.060883 -94.312767 2.980134 0.754620
275.065796 -94.220642 2.582707 0.717113
275.052307 -94.473488 2.198241 0.644099
275.052307 -94.473488 1.801760 0.627359
275.052307 -94.473488 1.404853 0.681193
275.052307 -94.473488 1.006669 0.609094
275.052307 -94.473488 0.606340 0.690089
275.053223 -94.456375 0.205527 0.624781
275.112091 -93.352249 0.000000 0.244623
275.204285 -91.623192 0.000000 0.247005
275.272186 -90.349304 0.000000 0.283650
274.977356 -94.311646 4.995111 0.779690
274.977356 -94.311646 4.582499 0.782422
274.977356 -94.311646 4.175678 0.804486
274.977356 -94.311646 3.773677 0.782071
274.977356 -94.311646 3.375561 0.778119
274.977264 -94.312767 2.980523 0.721355
274.982849 -94.220467 2.582930 0.727871
274.965790 -94.502968 2.198802 0.718029
274.965790 -94.502968 1.801198 0.661707
274.965790 -94.502968 1.403166 0.675669
274.965790 -94.502968 1.003853 0.648280
274.965790 -94.502968 0.602390 0.643214
274.967712 -94.471161 0.202618 0.628336
275.035492 -93.347893 0.000000 0.210766
275.139740 -91.619522 0.000000 0.237347
275.216553 -90.346146 0.000000 0.247555
274.889923 -94.367249 5.010406 0.678431
274.889923 -94.367249 4.595685 0.678431
274.889923 -94.367249 4.186788 0.678431
274.889923 -94.367249 3.782734 0.678431
274.892792 -94.324753 3.377684 0.737819
274.893616 -94.312767 2.980960 0.657176
274.899841 -94.220276 2.583180 0.726528
274.752563 -96.407494 2.230127 0.678431
274.752563 -96.407494 1.769873 0.678431
274.756897 -96.342949 1.312303 0.630304
274.756897 -96.342949 0.852197 0.670298
274.756897 -96.342949 0.389615 0.662806
274.875397 -94.583389 0.185132 0.619257
274.958893 -93.343010 0.000000 0.269923
275.075226 -91.615410 0.000000 0.240602
275.160919 -90.342590 0.000000 0.183946
274.805817 -94.367249 5.011895 0.678431
274.805817 -94.367249 4.596970 0.678431
274.805817 -94.367249 4.187870 0.678431
274.805817 -94.367249 3.783615 0.678431
274.808960 -94.324753 3.378366 0.737453
274.809845 -94.312767 2.981445 0.714260
274.816742 -94.220062 2.583458 0.729656
274.654114 -96.407486 2.230241 0.678431
274.654114 -96.407486 1.769759 0.678431
274.658905 -96.342949 1.311963 0.621927
274.658905 -96.342949 0.851629 0.649973
274.658905 -96.342949 0.388818 0.672343
274.747833 -95.146950 0.100408 0.614511
274.882355 -93.337585 0.000000 0.266704
275.010742 -91.610840 0.000001 0.231351
275.105316 -90.338654 0.000000 0.250906
274.721588 -94.367249 5.013533 0.678431
274.721588 -94.367249 4.598382 0.678431
274.721588 -94.367249 4.189059 0.678431
274.721588 -94.367249 3.784585 0.678431
274.725037 -94.324745 3.379115 0.761212
274.726013 -94.312767 2.981978 0.705486
274.733582 -94.219826 2.583764 0.693919
274.555573 -96.407486 2.230366 0.678431
274.555573 -96.407486 1.769634 0.678431
274.560822 -96.342949 1.311589 0.634791
274.560822 -96.342949 0.851005 0.693355
274.560822 -96.342949 0.387942 0.675654
274.658691 -95.140007 0.100407 0.579767
274.805847 -93.331627 0.000000 0.202029
274.946289 -91.605820 0.000000 0.246933
275.049744 -90.334328 0.000000 0.220831
274.637268 -94.367249 5.015318 0.678431
274.637268 -94.367249 4.599922 0.678431
274.637268 -94.367249 4.190357 0.678431
274.637268 -94.367249 3.785643 0.678431
274.641022 -94.324753 3.379933 0.713695
274.642090 -94.312767 2.982561 0.661051
274.650513 -94.217339 2.583987 0.710506
274.456909 -96.407486 2.230503 0.678431
274.456909 -96.407486 1.769498 0.678431
274.462616 -96.342949 1.311181 0.655528
274.462616 -96.342949 0.850324 0.686061
274.462616 -96.342949 0.386987 0.666438
274.569611 -95.132454 0.100407 0.585382
274.729401 -93.325142 0.000000 0.289574
274.881866 -91.600357 0.000000 0.198631
274.994202 -90.329613 0.000000 0.190433
274.552856 -94.367249 5.017254 0.678431
274.552856 -94.367249 4.601591 0.678431
274.552856 -94.367249 4.191763 0.678431
274.552856 -94.367249 3.786789 0.678431
274.556885 -94.324753 3.380819 0.735088
274.558044 -94.312767 2.983192 0.693935
274.567139 -94.217323 2.584361 0.691020
274.358124 -96.407486 2.230650 0.678431
274.358124 -96.407486 1.769350 0.678431
274.364288 -96.342949 1.310739 0.659937
274.364288 -96.342949 0.849586 0.613336
274.364288 -96.342949 0.385951 0.651835
274.480591 -95.124268 0.100407 0.571405
274.652985 -93.318115 0.000000 0.208289
274.817474 -91.594437 0.000000 0.230034
274.938690 -90.324509 0.000000 0.223679
274.468323 -94.367249 5.019340 0.678431
274.468323 -94.367249 4.603388 0.678431
274.468323 -94.367249 4.193278 0.678431
274.468323 -94.367249 3.788024 0.678431
274.472656 -94.324745 3.381773 0.761456
274.473877 -94.312767 2.983871 0.726070
274.483673 -94.217308 2.584764 0.720150
274.259186 -96.407486 2.230810 0.678431
274.259186 -96.407486 1.769190 0.678431
274.265808 -96.342949 1.310262 0.659113
274.265808 -96.342949 0.848791 0.697124
274.265808 -96.342949 0.384836 0.649226
274.391632 -95.115471 0.100406 0.591821
274.576599 -93.310555 0.000001 0.217791
274.753143 -91.588074 0.000000 0.223440
274.883209 -90.319023 0.000000 0.293763
274.383667 -94.367249 5.021576 0.678431
274.383667 -94.367249 4.605316 0.678431
274.383667 -94.367249 4.194902 0.678431
274.383667 -94.367249 3.789349 0.678431
274.388306 -94.324745 3.382795 0.764111
274.389618 -94.312767 2.984600 0.728099
274.400085 -94.217285 2.585196 0.725856
274.160156 -96.407486 2.230981 0.678431
274.160156 -96.407486 1.769019 0.678431
274.167206 -96.342949 1.309752 0.632944
274.167206 -96.342949 0.847939 0.699077
274.167206 -96.342949 0.383640 0.626200
274.302704 -95.106049 0.100406 0.574411
274.500305 -93.302467 0.000001 0.210718
274.688873 -91.581253 0.000000 0.238819
274.827789 -90.313141 0.000000 0.205919
274.298859 -94.367249 5.023963 0.678431
274.298859 -94.367249 4.607374 0.678431
274.298859 -94.367249 4.196636 0.678431
274.298859 -94.367249 3.790761 0.678431
274.303833 -94.324753 3.383888 0.734417
274.305237 -94.312767 2.985378 0.723217
274.316376 -94.217270 2.585657 0.686778
274.060944 -96.407486 2.231164 0.678431
274.060944 -96.407486 1.768837 0.678431
274.068451 -96.342949 1.309206 0.667170
274.068451 -96.342949 0.847029 0.630457
274.068451 -96.342949 0.382364 0.650095
274.213867 -95.096008 0.100405 0.633722
274.424042 -93.293846 0.000000 0.232907
274.624634 -91.573990 0.000000 0.210563
274.772400 -90.306877 0.000000 0.247818
274.213959 -94.367249 5.026501 0.678431
274.213959 -94.367249 4.609563 0.678431
274.213959 -94.367249 4.198480 0.678431
274.213959 -94.367249 3.792265 0.678431
274.219208 -94.324753 3.385050 0.721141
274.220673 -94.312767 2.986204 0.724208
274.232513 -94.217239 2.586148 0.703960
273.961548 -96.407486 2.231357 0.678431
273.961548 -96.407486 1.768643 0.678431
273.969543 -96.342949 1.308627 0.671489
273.969543 -96.342949 0.846061 0.678157
273.969543 -96.342949 0.381006 0.641703
274.125122 -95.085342 0.100405 0.628367
274.347870 -93.284683 0.000001 0.206374
274.560455 -91.566277 0.000000 0.266213
274.717041 -90.300232 0.000000 0.233254
274.136017 -94.312767 5.015427 0.801724
274.136017 -94.312775 4.600016 0.807843
274.136017 -94.312767 4.190435 0.777874
274.136017 -94.312767 3.785707 0.780499
274.136017 -94.312767 3.384890 0.797177
274.136017 -94.312767 2.987081 0.787717
274.148499 -94.217224 2.586668 0.688457
273.862030 -96.407486 2.231563 0.678431
273.862030 -96.407486 1.768437 0.678431
273.870453 -96.342949 1.308012 0.640940
273.870453 -96.342949 0.845035 0.673030
273.870453 -96.342949 0.379567 0.627985
274.036438 -95.074081 0.100401 0.576547
274.271729 -93.275002 0.000001 0.212980
274.496307 -91.558121 0.000000 0.186483
274.661774 -90.293198 0.000000 0.210311
274.043640 -94.367249 5.032032 0.678431
274.043640 -94.367249 4.614332 0.678431
274.043640 -94.367249 4.202497 0.678431
274.043640 -94.367249 3.795540 0.678431
274.049500 -94.324745 3.387581 0.752102
274.051178 -94.312767 2.988007 0.737774
274.064331 -94.217194 2.587217 0.687236
273.762299 -96.407486 2.231781 0.678431
273.762299 -96.407486 1.768220 0.678431
273.771179 -96.342949 1.307363 0.670802
273.771179 -96.342949 0.843951 0.651835
273.771179 -96.342957 0.378046 0.640192
273.947815 -95.062134 0.100408 0.639979
274.195679 -93.264786 0.000001 0.264382
274.432251 -91.549507 0.000001 0.259355
274.606506 -90.285767 0.000000 0.214679
273.958252 -94.367249 5.035028 0.678431
273.958252 -94.367249 4.616916 0.678431
273.958252 -94.367249 4.204673 0.678431
273.958252 -94.367249 3.797314 0.678431
273.964417 -94.324753 3.388952 0.778225
273.966156 -94.312767 2.988984 0.745037
273.980042 -94.217178 2.587797 0.692775
273.662384 -96.407494 2.232009 0.678431
273.662384 -96.407494 1.767991 0.678431
273.671722 -96.342949 1.306679 0.667079
273.671722 -96.342949 0.842809 0.687556
273.671722 -96.342949 0.376443 0.651194
273.859314 -95.049530 0.100419 0.662013
274.119720 -93.254036 0.000000 0.223476
274.368225 -91.540451 0.000001 0.239489
274.551331 -90.277962 0.000000 0.229915
273.872711 -94.367249 5.038178 0.678431
273.872711 -94.367249 4.619632 0.678431
273.872711 -94.367249 4.206962 0.678431
273.872711 -94.367249 3.799180 0.678431
273.879181 -94.324745 3.390393 0.744335
273.880981 -94.312767 2.990010 0.739742
273.895538 -94.217148 2.588405 0.696162
273.562256 -96.407486 2.232250 0.678431
273.562256 -96.407486 1.767750 0.678431
273.572083 -96.342949 1.305959 0.636561
273.572083 -96.342949 0.841608 0.652613
273.572083 -96.342949 0.374759 0.665919
273.770874 -95.036430 0.100414 0.643977
274.043793 -93.242760 0.000001 0.222088
274.304291 -91.530952 0.000000 0.230597
274.496185 -90.269768 0.000000 0.194334
273.786957 -94.367249 5.041482 0.678431
273.786957 -94.367241 4.622481 0.678431
273.786957 -94.367241 4.209362 0.678431
273.786957 -94.367241 3.801136 0.678431
273.793732 -94.324745 3.391906 0.737118
273.795624 -94.312775 2.991087 0.719341
273.810883 -94.217125 2.589043 0.715251
273.461914 -96.407486 2.232502 0.678431
273.461914 -96.407486 1.767498 0.678431
273.472198 -96.342949 1.305204 0.665873
273.472198 -96.342949 0.840348 0.643122
273.472198 -96.342949 0.372990 0.671992
273.682526 -95.022820 0.100391 0.624979
273.967987 -93.230949 0.000001 0.211664
274.240417 -91.521004 0.000001 0.229675
274.441101 -90.261192 0.000001 0.194645
273.701019 -94.367249 5.044944 0.678431
273.701019 -94.367249 4.625465 0.678431
273.701019 -94.367241 4.211876 0.678431
273.701019 -94.367241 3.803186 0.678431
273.708099 -94.324745 3.393490 0.757382
273.710083 -94.312775 2.992215 0.730419
273.726013 -94.217094 2.589713 0.703899
273.361359 -96.407494 2.232767 0.678431
273.361359 -96.407494 1.767233 0.678431
273.372101 -96.342949 1.304413 0.642573
273.372101 -96.342949 0.839029 0.700908
273.372101 -96.342949 0.371139 0.625620
273.594238 -95.008705 0.100352 0.619165
273.892242 -93.218605 0.000001 0.232033
274.176605 -91.510605 0.000001 0.195040
274.386078 -90.252228 0.000000 0.206972
273.614899 -94.367249 5.048562 0.678431
273.614899 -94.367249 4.628585 0.678431
273.614899 -94.367249 4.214504 0.678431
273.614899 -94.367241 3.805328 0.678431
273.622253 -94.324745 3.395146 0.763745
273.624359 -94.312775 2.993393 0.712154
273.640961 -94.217056 2.590411 0.701091
273.270020 -96.353020 2.232139 0.759121
273.270020 -96.353020 1.767861 0.741176
273.271790 -96.342949 1.303587 0.617182
273.271790 -96.342949 0.837649 0.679362
273.271790 -96.342949 0.369204 0.637003
273.506256 -94.992729 0.100501 0.608545
273.816589 -93.205742 0.000001 0.226576
274.112854 -91.499771 0.000001 0.197182
274.331146 -90.242882 0.000001 0.199361
273.528534 -94.367249 5.052338 0.678431
273.528534 -94.367249 4.631840 0.678431
273.528534 -94.367249 4.217247 0.678431
273.528534 -94.367249 3.807564 0.678431
273.536224 -94.324745 3.396873 0.755978
273.538391 -94.312775 2.994624 0.750896
273.555725 -94.217041 2.591141 0.724361
273.169373 -96.353020 2.232426 0.769818
273.169373 -96.353020 1.767573 0.770718
273.169373 -96.353020 1.302222 0.771511
273.169373 -96.353020 0.835371 0.771267
273.169373 -96.353020 0.366008 0.771511
273.418213 -94.977280 0.100477 0.603098
273.741028 -93.192352 0.000001 0.195375
274.049194 -91.488480 0.000001 0.218354
274.276245 -90.233154 0.000001 0.210443
273.441986 -94.367249 5.056271 0.678431
