# This PCD file was generated using the MATLABÂ® pcwrite function
# from Computer Vision ToolboxÂ®.
# .PCD v.7 - Point Cloud Data file format
VERSION .7
FIELDS x y z intensity
SIZE 4 4 4 4
TYPE F F F F
COUNT 1 1 1 1
WIDTH 1162
HEIGHT 1
VIEWPOINT 0 0 0 1 0 0 0
POINTS 1162
DATA ascii
281.202057 -144.802887 2.218837 0.762509
281.202057 -144.802887 1.781162 0.450980
281.202057 -144.802887 1.343017 0.660319
281.202057 -144.802887 0.903461 0.495644
281.202057 -144.802887 0.461537 0.420661
281.202057 -144.802887 0.016274 0.701488
282.617157 -146.718307 -0.000016 0.207271
283.646027 -148.111008 -0.000014 0.209545
284.404083 -149.137070 -0.000012 0.270869
281.202057 -144.644257 5.381851 0.593774
281.202057 -144.644257 4.915959 0.511376
281.202057 -144.644257 4.456609 0.464347
281.202057 -144.644257 4.002700 0.455711
281.202057 -144.644257 3.553177 0.658564
281.202057 -144.644257 3.107027 0.570550
281.202057 -144.644257 2.663266 0.435187
281.202057 -144.644257 2.220931 0.617456
281.202057 -144.644257 1.779069 0.450980
281.202057 -144.644257 1.336733 0.481483
281.202057 -144.644257 0.892972 0.537377
281.202057 -144.644257 0.446823 0.482231
281.212708 -144.658859 -0.000020 0.236174
282.679016 -146.672928 -0.000016 0.244934
283.698181 -148.072769 -0.000013 0.234103
284.449036 -149.104111 -0.000012 0.239477
281.202057 -144.482574 5.414677 0.451240
281.202057 -144.482574 4.944263 0.482338
281.202057 -144.482574 4.480454 0.527382
281.202057 -144.482574 4.022140 0.654307
281.202057 -144.482574 3.568253 0.581918
281.202057 -144.482574 3.117773 0.482353
281.202057 -144.482574 2.669705 0.461494
281.202057 -144.482574 2.223075 0.607263
281.202057 -144.482574 1.776925 0.450980
281.202057 -144.482574 1.330295 0.482353
281.202057 -144.482574 0.882227 0.723201
281.202057 -144.482574 0.431747 0.478553
281.289001 -144.603729 -0.000020 0.261976
282.741211 -146.627975 -0.000016 0.195758
283.750580 -148.034912 -0.000013 0.280993
284.494202 -149.071457 -0.000011 0.206290
281.202057 -144.317688 5.448318 0.702541
281.202057 -144.317703 4.973269 0.776684
281.202057 -144.317703 4.504891 0.676081
281.202057 -144.317703 4.042061 0.477058
281.202057 -144.317703 3.583703 0.454749
281.202057 -144.317703 3.128785 0.481010
281.202057 -144.317688 2.676302 0.463630
281.202057 -144.317703 2.225273 0.573190
281.202057 -144.317688 1.774727 0.450980
281.202057 -144.317688 1.323697 0.494804
281.202057 -144.317703 0.871215 0.582071
281.202057 -144.317703 0.416297 0.628885
281.365662 -144.549133 -0.000020 0.212657
282.803711 -146.583466 -0.000016 0.195663
283.803223 -147.997406 -0.000013 0.197709
284.539612 -149.039124 -0.000012 0.223536
281.202057 -144.149536 5.482798 0.662547
281.202057 -144.149536 5.003000 0.639185
281.202057 -144.149536 4.529938 0.450980
281.202057 -144.149536 4.062480 0.464088
281.202057 -144.149536 3.599540 0.651484
281.202057 -144.149536 3.140072 0.744396
281.202057 -144.149536 2.683065 0.559197
281.202057 -144.149536 2.227525 0.510353
281.202057 -144.149536 1.772474 0.465690
281.202057 -144.149536 1.316935 0.482353
281.202057 -144.149536 0.859928 0.496101
281.202057 -144.149536 0.400460 0.615976
281.442719 -144.495056 -0.000020 0.212382
282.866547 -146.539398 -0.000016 0.201431
283.856140 -147.960266 -0.000013 0.245832
284.585236 -149.007111 -0.000012 0.238412
281.202087 -143.977966 5.518148 0.738430
281.202087 -143.977966 5.033480 0.525719
281.202087 -143.977966 4.555617 0.512825
281.202087 -143.977966 4.083414 0.452155
281.202087 -143.977966 3.615774 0.504616
281.202087 -143.977966 3.151643 0.454459
281.202087 -143.977966 2.689998 0.619989
281.202087 -143.977966 2.229835 0.701350
281.202087 -143.977966 1.770165 0.702464
281.202087 -143.977966 1.310002 0.634470
281.202087 -143.977966 0.848356 0.623957
281.202087 -143.977966 0.384226 0.715404
281.520142 -144.441528 -0.000020 0.221848
282.929657 -146.495758 -0.000016 0.216618
283.909332 -147.923508 -0.000013 0.249051
284.631104 -148.975403 -0.000011 0.195531
281.202087 -143.802887 5.554399 0.450980
281.202087 -143.802887 5.064736 0.492332
281.202087 -143.802887 4.581949 0.684733
281.202087 -143.802887 4.104880 0.657069
281.202087 -143.802887 3.632423 0.710674
281.202087 -143.802887 3.163510 0.780026
281.202087 -143.802887 2.697107 0.676173
281.202087 -143.802887 2.232203 0.542397
281.202087 -143.802887 1.767797 0.538567
281.202057 -143.802872 1.302892 0.442954
281.202087 -143.802887 0.836490 0.477424
281.202057 -143.802872 0.367577 0.450980
281.597961 -144.388550 -0.000020 0.231638
282.993073 -146.452560 -0.000016 0.226384
283.962769 -147.887115 -0.000013 0.235875
284.677155 -148.944031 -0.000011 0.256375
281.202087 -143.624130 5.591580 0.499474
281.202087 -143.624130 5.096796 0.451041
281.202087 -143.624130 4.608959 0.450980
281.202087 -143.624130 4.126900 0.472953
281.202087 -143.624130 3.649499 0.431907
281.202087 -143.624130 3.175681 0.652598
281.202087 -143.624130 2.704400 0.619760
281.202087 -143.624130 2.234632 0.484871
281.202087 -143.624130 1.765368 0.463340
281.202087 -143.624130 1.295600 0.424994
281.202087 -143.624130 0.824318 0.451957
281.202087 -143.624130 0.350500 0.472465
281.676117 -144.336105 -0.000020 0.216834
283.056824 -146.409805 -0.000016 0.204028
284.016449 -147.851105 -0.000013 0.232356
284.723450 -148.912979 -0.000011 0.216439
281.202087 -143.441589 5.629727 0.398489
281.202087 -143.441589 5.129688 0.653162
281.202087 -143.441589 4.636669 0.536248
281.202087 -143.441589 4.149489 0.488838
281.202087 -143.441589 3.667019 0.421881
281.202087 -143.441589 3.188168 0.499931
281.202087 -143.441589 2.711882 0.496010
281.202087 -143.441589 2.237124 0.458564
281.202087 -143.441589 1.762876 0.521721
281.202087 -143.441589 1.288118 0.519646
281.202087 -143.441589 0.811831 0.516106
281.202087 -143.441589 0.332981 0.629358
281.754639 -144.284210 -0.000020 0.212202
283.120850 -146.367508 -0.000016 0.224218
284.070374 -147.815460 -0.000013 0.265710
284.769958 -148.882248 -0.000011 0.247627
281.202087 -143.255127 5.668875 0.797330
281.202087 -143.255127 5.163443 0.740459
281.202087 -143.255127 4.665106 0.748653
281.202087 -143.255127 4.172672 0.567300
281.202087 -143.255127 3.684998 0.436454
281.202087 -143.255127 3.200982 0.441428
281.202087 -143.255127 2.719559 0.458335
281.202087 -143.255127 2.239682 0.458305
281.202087 -143.255127 1.760318 0.564492
281.202087 -143.255127 1.280440 0.629160
281.202087 -143.255127 0.799017 0.725078
281.202087 -143.255127 0.315001 0.622080
281.833557 -144.232880 -0.000020 0.231770
283.185150 -146.325653 -0.000016 0.221070
284.124573 -147.780197 -0.000013 0.213243
284.816681 -148.851852 -0.000011 0.238615
281.202087 -143.064590 5.709057 0.451362
281.202087 -143.064590 5.198091 0.609506
281.202087 -143.064590 4.694295 0.450553
281.202087 -143.064590 4.196468 0.601205
281.202087 -143.064590 3.703453 0.525490
281.202087 -143.064590 3.214136 0.482353
281.202087 -143.064590 2.727440 0.419791
281.202087 -143.064590 2.242307 0.450980
281.202087 -143.064590 1.757693 0.576791
281.202087 -143.064590 1.272559 0.720897
281.202087 -143.064590 0.785863 0.519219
281.202087 -143.064590 0.296547 0.450980
281.912781 -144.182083 -0.000020 0.243857
283.249756 -146.284241 -0.000016 0.197206
284.178986 -147.745316 -0.000013 0.231075
284.863617 -148.821762 -0.000011 0.242936
281.202087 -142.869827 5.750316 0.670726
281.202087 -142.869827 5.233664 0.452888
281.202087 -142.869827 4.724266 0.508064
281.202087 -142.869827 4.220901 0.419608
281.202087 -142.869827 3.722402 0.670970
281.202087 -142.869827 3.227642 0.534585
281.202087 -142.869827 2.735532 0.467521
281.202087 -142.869827 2.245002 0.465415
281.202087 -142.869827 1.754998 0.575677
281.202087 -142.869827 1.264468 0.569574
281.202087 -142.869812 0.772357 0.450980
281.202087 -142.869812 0.277598 0.481331
281.992401 -144.131851 -0.000020 0.236066
283.314636 -146.243286 -0.000016 0.185418
284.233673 -147.710815 -0.000013 0.195136
284.910767 -148.792023 -0.000011 0.254197
281.202087 -142.670654 5.792689 0.657710
281.202087 -142.670654 5.270200 0.467460
281.202087 -142.670670 4.755046 0.579187
281.202087 -142.670654 4.245994 0.717494
281.202087 -142.670654 3.741862 0.422019
281.202087 -142.670654 3.241513 0.618280
281.202087 -142.670654 2.743843 0.450980
281.202087 -142.670654 2.247771 0.477928
281.202087 -142.670654 1.752230 0.669596
281.202087 -142.670654 1.256157 0.692851
281.202087 -142.670654 0.758487 0.591211
281.202087 -142.670654 0.258138 0.623468
282.072357 -144.082169 -0.000020 0.219359
283.379822 -146.202789 -0.000016 0.213100
284.288574 -147.676697 -0.000013 0.233122
284.958099 -148.762604 -0.000011 0.202377
281.202087 -142.466934 5.836220 0.661357
281.202087 -142.466934 5.307734 0.531823
281.202087 -142.466934 4.786667 0.482780
281.202087 -142.466934 4.271773 0.614801
281.202087 -142.466934 3.761854 0.478187
281.202087 -142.466934 3.255762 0.644877
281.202087 -142.466934 2.752380 0.503563
281.202087 -142.466934 2.250614 0.489036
281.202087 -142.466934 1.749386 0.659007
281.202087 -142.466934 1.247620 0.479438
281.202087 -142.466934 0.744237 0.447913
281.202087 -142.466934 0.238145 0.605432
282.152649 -144.033051 -0.000019 0.210431
283.445282 -146.162735 -0.000016 0.212741
284.343719 -147.642960 -0.000013 0.217971
285.005646 -148.733505 -0.000011 0.253252
281.202087 -142.258484 5.880951 0.654063
281.202087 -142.258484 5.346303 0.521660
281.202087 -142.258484 4.819161 0.729519
281.202087 -142.258484 4.298263 0.604852
281.202087 -142.258469 3.782399 0.658534
281.202087 -142.258469 3.270405 0.448646
281.202087 -142.258469 2.761153 0.784680
281.202087 -142.258484 2.253536 0.520272
281.202087 -142.258469 1.746464 0.689632
281.202087 -142.258469 1.238847 0.419608
281.202087 -142.258469 0.729594 0.543984
281.202087 -142.258469 0.217601 0.629435
282.233276 -143.984482 -0.000019 0.259774
283.511017 -146.123154 -0.000015 0.240111
284.399109 -147.609604 -0.000013 0.231207
285.053406 -148.704758 -0.000011 0.233577
281.202087 -142.045090 5.926934 0.656825
281.202087 -142.045090 5.385950 0.419608
281.202087 -142.045074 4.852564 0.450980
281.202087 -142.045090 4.325493 0.553933
281.202087 -142.045090 3.803517 0.720409
281.202087 -142.045090 3.285457 0.455741
281.202087 -142.045090 2.770171 0.657557
281.202087 -142.045090 2.256540 0.452827
281.202087 -142.045090 1.743460 0.745800
281.202087 -142.045074 1.229828 0.495323
281.202087 -142.045074 0.714542 0.671168
281.202087 -142.045074 0.196483 0.419425
282.314270 -143.936493 -0.000019 0.215769
283.577026 -146.084030 -0.000015 0.257094
284.454712 -147.576645 -0.000013 0.252665
285.101349 -148.676331 -0.000010 0.193269
281.202087 -141.826569 5.974216 0.566430
281.202087 -141.826569 5.426718 0.500679
281.202087 -141.826569 4.886909 0.804059
281.202087 -141.826569 4.353492 0.556756
281.202087 -141.826553 3.825232 0.450980
281.202087 -141.826553 3.300934 0.670939
281.202087 -141.826569 2.779444 0.419898
281.202087 -141.826553 2.259629 0.450980
281.202087 -141.826553 1.740371 0.789914
281.202087 -141.826553 1.220556 0.512413
281.202087 -141.826553 0.699065 0.556634
281.202087 -141.826553 0.174768 0.721996
282.395569 -143.889069 -0.000019 0.258015
283.643311 -146.045364 -0.000015 0.225199
284.510559 -147.544067 -0.000013 0.212860
285.149506 -148.648239 -0.000010 0.191893
281.202087 -141.602707 6.022847 0.428367
281.202087 -141.602707 5.468650 0.436027
281.202087 -141.602707 4.922235 0.453941
281.202087 -141.602707 4.382292 0.450736
281.202087 -141.602707 3.847566 0.442329
281.202087 -141.602707 3.316854 0.784268
281.202087 -141.602692 2.788982 0.419532
281.202087 -141.602707 2.262806 0.451835
281.202087 -141.602707 1.737194 0.633585
281.202087 -141.602692 1.211017 0.564889
281.202087 -141.602707 0.683146 0.433753
281.202087 -141.602692 0.152433 0.467140
282.477203 -143.842209 -0.000019 0.221453
283.709869 -146.007172 -0.000015 0.202700
284.566620 -147.511887 -0.000013 0.233385
285.197845 -148.620499 -0.000010 0.248800
281.202087 -141.373291 6.072884 0.815198
281.202087 -141.373291 5.511794 0.518532
281.202087 -141.373291 4.958582 0.760113
281.202087 -141.373291 4.411922 0.557366
281.202087 -141.373291 3.870546 0.656580
281.202087 -141.373291 3.333233 0.657832
281.202087 -141.373291 2.798796 0.446632
281.202087 -141.373291 2.266075 0.744747
281.202087 -141.373291 1.733925 0.559991
281.202087 -141.373291 1.201204 0.754940
281.202087 -141.373291 0.666767 0.620661
281.202087 -141.373291 0.129453 0.455619
282.559174 -143.795914 -0.000019 0.231040
283.776703 -145.969421 -0.000015 0.212298
284.622925 -147.480087 -0.000013 0.199660
285.246399 -148.593079 -0.000011 0.215625
281.202087 -141.138092 6.124385 0.419608
281.202087 -141.138092 5.556200 0.444358
281.202087 -141.138077 4.995994 0.515419
281.202087 -141.138092 4.442421 0.429664
281.202087 -141.138092 3.894199 0.459312
281.202087 -141.138092 3.350091 0.473838
281.202087 -141.138092 2.808896 0.450980
281.202087 -141.138092 2.269439 0.464073
281.202087 -141.138092 1.730560 0.525582
281.202087 -141.138092 1.191103 0.581292
281.202087 -141.138092 0.649908 0.708476
281.202087 -141.138077 0.105800 0.584375
282.641449 -143.750198 -0.000019 0.220364
283.843781 -145.932159 -0.000015 0.202496
284.679443 -147.448700 -0.000013 0.234762
285.295105 -148.566010 -0.000011 0.314755
281.202087 -140.896835 6.177412 0.528008
281.202087 -140.896835 5.601923 0.633936
281.202087 -140.896835 5.034513 0.489723
281.202087 -140.896835 4.473824 0.450980
281.202087 -140.896835 3.918552 0.483497
281.202087 -140.896835 3.367449 0.450980
281.202087 -140.896835 2.819297 0.588464
281.202087 -140.896835 2.272903 0.483055
281.202087 -140.896835 1.727096 0.482216
281.202087 -140.896835 1.180703 0.467796
281.202087 -140.896835 0.632550 0.524468
281.202087 -140.896835 0.081447 0.539498
282.724030 -143.705063 -0.000019 0.227724
283.911102 -145.895355 -0.000015 0.255765
284.736176 -147.417694 -0.000013 0.233852
285.344025 -148.539276 -0.000010 0.208253
281.202087 -140.649292 6.232030 0.777081
281.202087 -140.649292 5.649015 0.649851
281.202087 -140.649292 5.074187 0.512306
281.202087 -140.649292 4.506167 0.557916
281.202087 -140.649292 3.943637 0.694835
281.202087 -140.649292 3.385328 0.563012
281.202087 -140.649292 2.830008 0.599542
281.202087 -140.649292 2.276472 0.499504
281.202087 -140.649292 1.723528 0.623011
281.202087 -140.649292 1.169991 0.419608
281.202087 -140.649292 0.614671 0.561990
281.202087 -140.649292 0.056363 0.450980
282.806946 -143.660492 -0.000019 0.231147
283.978699 -145.859039 -0.000015 0.264562
284.793121 -147.387085 -0.000012 0.272161
285.393127 -148.512894 -0.000010 0.213818
281.202087 -140.395187 6.288305 0.534127
281.202087 -140.395187 5.697538 0.496223
281.202087 -140.395187 5.115067 0.644236
281.202087 -140.395187 4.539493 0.476738
281.202087 -140.395187 3.969483 0.494545
281.202087 -140.395187 3.403749 0.728862
281.202087 -140.395187 2.841045 0.676768
281.202087 -140.395187 2.280148 0.502907
281.202087 -140.395187 1.719852 0.714229
281.202087 -140.395187 1.158954 0.463783
281.202087 -140.395187 0.596250 0.554513
281.202087 -140.395187 0.030517 0.491814
282.890167 -143.616516 -0.000019 0.229771
284.046539 -145.823181 -0.000015 0.258482
284.850281 -147.356888 -0.000012 0.199779
285.442413 -148.486847 -0.000010 0.201898
281.202087 -140.134216 6.346313 0.457099
281.202087 -140.134216 5.747555 0.554223
281.202087 -140.134216 5.157204 0.463828
281.202087 -140.134216 4.573844 0.698543
281.202087 -140.134216 3.996123 0.464836
281.202087 -140.134216 3.422738 0.465400
281.202087 -140.134216 2.852422 0.641947
281.202087 -140.134216 2.283937 0.592828
281.202087 -140.134216 1.716062 0.457328
281.202087 -140.134216 1.147578 0.451377
281.202087 -140.134216 0.577262 0.454200
281.202087 -140.134216 0.003876 0.760952
282.973694 -143.573120 -0.000019 0.226576
284.114655 -145.787796 -0.000015 0.221058
284.907623 -147.327072 -0.000012 0.243163
285.491882 -148.461151 -0.000010 0.194801
281.202087 -139.866074 6.406128 0.450980
281.202087 -139.866074 5.799131 0.448585
281.202087 -139.866074 5.200655 0.695537
281.202087 -139.866074 4.609267 0.480491
281.202087 -139.866074 4.023596 0.532952
281.202087 -139.866074 3.442318 0.465232
281.202087 -139.866074 2.864153 0.451621
281.202087 -139.866074 2.287845 0.597330
281.202087 -139.866074 1.712155 0.469505
281.202087 -139.866074 1.135846 0.456245
281.202087 -139.866074 0.557681 0.665675
281.294647 -140.048859 -0.000025 0.230621
283.057526 -143.530304 -0.000019 0.222782
284.182983 -145.752899 -0.000015 0.225163
284.965210 -147.297668 -0.000012 0.230393
285.541504 -148.435791 -0.000010 0.239872
281.202087 -139.590439 6.467834 0.714534
281.202087 -139.590439 5.852335 0.464805
281.202087 -139.590439 5.245478 0.450980
281.202087 -139.590439 4.645808 0.533211
281.202087 -139.590439 4.051935 0.449638
281.202087 -139.590439 3.462517 0.461830
281.202087 -139.590439 2.876256 0.464134
281.202087 -139.590439 2.291877 0.652842
281.202087 -139.590439 1.708123 0.456611
281.202087 -139.590439 1.123744 0.692317
281.202087 -139.590439 0.537482 0.463737
281.403107 -139.994415 -0.000025 0.231183
283.141663 -143.488068 -0.000018 0.208971
284.251556 -145.718475 -0.000015 0.196333
285.022980 -147.268661 -0.000012 0.261211
285.591339 -148.410782 -0.000010 0.227198
281.202087 -139.306946 6.531520 0.556512
281.202087 -139.306946 5.907247 0.645853
281.202087 -139.306946 5.291740 0.594430
281.202087 -139.306946 4.683522 0.452705
281.202087 -139.306946 4.081183 0.480583
281.202087 -139.306946 3.483364 0.648646
281.202087 -139.306946 2.888746 0.415930
281.202087 -139.306946 2.296037 0.717342
281.202087 -139.306946 1.703963 0.484901
281.202087 -139.306946 1.111254 0.719692
281.202087 -139.306946 0.516635 0.493919
281.511963 -139.940720 -0.000025 0.237622
283.226074 -143.446426 -0.000018 0.242983
284.320374 -145.684525 -0.000015 0.213614
285.080963 -147.240067 -0.000012 0.229017
285.641327 -148.386124 -0.000010 0.250296
281.202087 -139.015244 6.597272 0.436042
281.202087 -139.015244 5.963941 0.477638
281.202087 -139.015244 5.339502 0.484764
281.202087 -139.015244 4.722461 0.612085
281.202087 -139.015244 4.111381 0.582467
281.202087 -139.015244 3.504887 0.452827
281.202087 -139.015244 2.901641 0.420035
281.202087 -139.015244 2.300332 0.701564
281.202087 -139.015244 1.699667 0.457801
281.202087 -139.015244 1.098358 0.585641
281.202087 -139.015244 0.495112 0.498268
281.621185 -139.887787 -0.000025 0.227174
283.310791 -143.405380 -0.000019 0.225092
284.389435 -145.651047 -0.000015 0.256399
285.139130 -147.211884 -0.000012 0.234032
285.691498 -148.361816 -0.000010 0.189607
281.202087 -138.714951 6.665189 0.450553
281.202087 -138.714951 6.022502 0.472389
281.202087 -138.714951 5.388839 0.419608
281.202087 -138.714951 4.762680 0.407355
281.202087 -138.714951 4.142574 0.471290
281.202087 -138.714951 3.527120 0.450980
281.202087 -138.714951 2.914962 0.556344
281.202087 -138.714951 2.304770 0.577325
281.202087 -138.714951 1.695230 0.425086
281.202087 -138.714951 1.085038 0.482353
281.202087 -138.714951 0.472880 0.429160
281.730774 -139.835617 -0.000024 0.248417
283.395782 -143.364929 -0.000018 0.268439
284.458710 -145.618073 -0.000015 0.248333
285.197510 -147.184082 -0.000012 0.216439
285.741821 -148.337860 -0.000010 0.292171
281.202087 -138.405624 6.735379 0.468482
281.202087 -138.405624 6.083023 0.581308
281.202087 -138.405624 5.439826 0.531075
281.202087 -138.405624 4.804245 0.543633
281.202087 -138.405624 4.174809 0.586145
281.202087 -138.405624 3.550097 0.751614
281.202087 -138.405624 2.928728 0.688487
281.202087 -138.405624 2.309355 0.431983
281.202087 -138.405624 1.690645 0.462287
281.202087 -138.405624 1.071272 0.419486
281.202087 -138.405624 0.449903 0.421195
281.840729 -139.784225 -0.000024 0.203466
283.481049 -143.325058 -0.000018 0.222351
284.528229 -145.585571 -0.000015 0.242577
285.256073 -147.156708 -0.000012 0.207104
285.792297 -148.314240 -0.000010 0.234714
nan nan nan 0.000000
266.260223 -105.233353 13.940660 0.657252
267.189423 -107.276451 11.651254 0.629221
267.189819 -107.277283 9.867847 0.631312
267.190155 -107.278046 8.101748 0.620890
267.189209 -107.275978 6.349208 0.621500
267.190125 -107.278000 4.605684 0.626657
267.226959 -107.358963 2.866485 0.709804
266.260223 -105.233337 1.095303 0.637171
272.293915 -118.499962 -0.000047 0.229843
279.050293 -133.355560 -0.000034 0.220544
281.951050 -139.733582 -0.000024 0.233254
283.566589 -143.285797 -0.000018 0.225714
284.597992 -145.553558 -0.000014 0.226947
285.314819 -147.129745 -0.000012 0.251289
285.842987 -148.291000 -0.000010 0.212908
nan nan nan 0.000000
266.682892 -105.233360 13.903154 0.640894
267.581299 -107.245872 11.627033 0.774716
267.564850 -107.209053 9.854221 0.678431
267.564850 -107.209076 8.091272 0.678431
267.583832 -107.251572 6.337741 0.752560
267.564880 -107.209076 4.601210 0.678431
267.631744 -107.358887 2.863765 0.683497
267.478271 -107.015121 1.130074 0.653590
272.553040 -118.383209 -0.000046 0.228502
279.205536 -133.285599 -0.000034 0.247388
282.061707 -139.683731 -0.000024 0.222626
283.652405 -143.247131 -0.000018 0.204148
284.667938 -145.522034 -0.000014 0.197458
285.373779 -147.103180 -0.000012 0.260373
285.893799 -148.268097 -0.000010 0.207319
nan nan nan 0.000000
267.102966 -105.233360 13.866460 0.650950
267.968414 -107.209061 11.604671 0.678431
267.968414 -107.209045 9.830011 0.678431
267.968414 -107.209061 8.072498 0.678431
267.987030 -107.251556 6.324370 0.738537
267.968414 -107.209061 4.593191 0.678431
268.034058 -107.358887 2.861103 0.684169
267.102936 -105.233322 1.100924 0.632990
272.812988 -118.268265 -0.000046 0.230513
279.361298 -133.216736 -0.000033 0.232344
282.172699 -139.634644 -0.000024 0.229448
283.738495 -143.209045 -0.000018 0.212525
284.738129 -145.490997 -0.000014 0.246562
285.432892 -147.077026 -0.000012 0.227509
285.944763 -148.245544 -0.000010 0.189583
nan nan nan 0.000000
267.520447 -105.233360 13.830567 0.660594
268.369537 -107.209061 11.575620 0.678431
268.369537 -107.209076 9.806324 0.695094
268.369537 -107.209076 8.054129 0.678431
268.387787 -107.251572 6.311287 0.754849
268.369537 -107.209076 4.585347 0.678431
268.433899 -107.358879 2.858498 0.694682
267.520416 -105.233322 1.103643 0.664363
273.073730 -118.155136 -0.000045 0.228957
279.517517 -133.148956 -0.000033 0.227270
282.284027 -139.586319 -0.000024 0.257225
283.824860 -143.171585 -0.000018 0.228550
284.808533 -145.460449 -0.000014 0.247807
285.492188 -147.051300 -0.000011 0.209150
285.995911 -148.223358 -0.000010 0.212848
nan nan nan 0.000000
267.935455 -105.233368 13.795464 0.653742
268.768219 -107.209061 11.547207 0.678431
268.791199 -107.263527 9.774394 0.770092
268.768219 -107.209061 8.036167 0.678431
268.786163 -107.251572 6.298497 0.737392
268.768219 -107.209068 4.577677 0.678431
268.831360 -107.358810 2.855953 0.721569
267.935425 -105.233315 1.106302 0.642512
273.335266 -118.043823 -0.000045 0.230525
279.674194 -133.082260 -0.000033 0.218210
282.395721 -139.538788 -0.000024 0.228036
283.911469 -143.134720 -0.000018 0.225391
284.879120 -145.430405 -0.000014 0.244479
285.551697 -147.025986 -0.000012 0.204076
286.047211 -148.201538 -0.000010 0.199863
nan nan nan 0.000000
268.347992 -105.233368 13.761140 0.625360
269.164581 -107.209053 11.519428 0.678431
269.191650 -107.274536 9.750006 0.744228
269.164581 -107.209061 8.018601 0.678431
269.182159 -107.251572 6.285988 0.757122
269.164581 -107.209061 4.570177 0.678431
269.226471 -107.358810 2.853462 0.727230
268.347961 -105.233315 1.108903 0.666743
273.597534 -117.934341 -0.000045 0.228060
279.831329 -133.016678 -0.000032 0.235635
282.507721 -139.492035 -0.000024 0.209330
283.998322 -143.098465 -0.000018 0.241200
284.949951 -145.400848 -0.000014 0.243187
285.611359 -147.001083 -0.000011 0.193496
286.098633 -148.180054 -0.000010 0.214033
nan nan nan 0.000000
268.758179 -105.233368 13.727589 0.640070
269.558655 -107.209045 11.492271 0.678431
269.580719 -107.263535 9.729658 0.782635
269.558655 -107.209053 8.001434 0.678431
269.575897 -107.251564 6.273763 0.758404
269.558655 -107.209061 4.562843 0.678431
269.619324 -107.358772 2.851027 0.691920
268.758148 -105.233322 1.111445 0.632166
273.860596 -117.826706 -0.000045 0.231973
279.988953 -132.952179 -0.000032 0.229783
282.620056 -139.446075 -0.000023 0.208001
284.085449 -143.062820 -0.000018 0.229185
285.020966 -145.371780 -0.000014 0.271754
285.671173 -146.976593 -0.000012 0.210886
286.150238 -148.158951 -0.000009 0.198188
nan nan nan 0.000000
269.166046 -105.233368 13.694791 0.637217
269.950531 -107.209045 11.465730 0.678431
269.972137 -107.263519 9.708044 0.775158
269.950531 -107.209045 7.984653 0.678431
269.967407 -107.251556 6.261812 0.755398
269.950531 -107.209045 4.555676 0.678431
270.009979 -107.358765 2.848648 0.689509
269.166016 -105.233322 1.113930 0.655177
274.124390 -117.720871 -0.000045 0.228478
280.147003 -132.888779 -0.000032 0.229903
282.732697 -139.400894 -0.000023 0.220448
284.172791 -143.027771 -0.000018 0.207343
285.092194 -145.343216 -0.000014 0.264741
285.731171 -146.952530 -0.000011 0.222949
286.201965 -148.138199 -0.000010 0.263078
nan nan nan 0.000000
269.571655 -105.233368 13.662748 0.631937
270.340210 -107.209038 11.439791 0.678431
270.361389 -107.263519 9.686924 0.778454
270.340210 -107.209030 7.968254 0.678431
270.356750 -107.251556 6.250135 0.761791
270.340210 -107.209045 4.548675 0.678431
270.398438 -107.358734 2.846323 0.729015
269.558228 -105.198814 1.115752 0.145129
274.388916 -117.616928 -0.000045 0.231399
280.305481 -132.826492 -0.000032 0.226815
282.845673 -139.356491 -0.000023 0.208803
284.260406 -142.993347 -0.000018 0.267972
285.163605 -145.315155 -0.000014 0.214679
285.791351 -146.928879 -0.000011 0.198666
286.253845 -148.117813 -0.000009 0.214249
nan nan nan 0.000000
269.950470 -105.168793 13.646371 0.678431
270.727753 -107.208954 11.414471 0.732677
270.743988 -107.251572 9.668188 0.642390
270.727753 -107.208969 7.952243 0.740398
270.743958 -107.251511 6.238730 0.603418
270.727753 -107.208969 4.541838 0.745541
270.784821 -107.358734 2.844052 0.721569
269.961914 -105.198807 1.118125 0.137301
274.654144 -117.514801 -0.000045 0.228024
280.464386 -132.765305 -0.000033 0.223655
282.958923 -139.312897 -0.000023 0.220927
284.348267 -142.959518 -0.000018 0.216068
285.235199 -145.287582 -0.000014 0.235037
285.851685 -146.905655 -0.000011 0.231219
286.305878 -148.097778 -0.000009 0.247579
nan nan nan 0.000000
270.352264 -105.168793 13.615754 0.678431
271.113312 -107.209053 11.389707 0.678431
271.129181 -107.251556 9.648033 0.748104
271.113312 -107.209068 7.936585 0.678431
271.129150 -107.251541 6.227586 0.768536
271.113312 -107.209045 4.535152 0.678431
271.169128 -107.358711 2.841833 0.692088
270.363464 -105.198792 1.120443 0.116762
274.920105 -117.414536 -0.000045 0.231040
280.623718 -132.705246 -0.000032 0.227318
283.072510 -139.270081 -0.000023 0.238184
284.436340 -142.926315 -0.000017 0.224338
285.307007 -145.260498 -0.000014 0.200869
285.912170 -146.882843 -0.000011 0.232320
286.358032 -148.078110 -0.000009 0.227880
nan nan nan 0.000000
270.751984 -105.168800 13.585868 0.678431
271.501770 -107.222549 11.362932 0.839216
271.512360 -107.251564 9.628353 0.772686
271.501770 -107.222549 7.919660 0.825559
271.512360 -107.251572 6.216705 0.756802
271.501770 -107.222549 4.527924 0.839216
271.551453 -107.358704 2.839668 0.681437
270.775543 -105.233345 1.123308 0.638880
275.186737 -117.316139 -0.000045 0.227485
280.783478 -132.646286 -0.000032 0.213004
283.186371 -139.228058 -0.000023 0.245126
284.524628 -142.893738 -0.000017 0.239309
285.378998 -145.233932 -0.000014 0.220699
285.972809 -146.860474 -0.000011 0.260229
286.410309 -148.058823 -0.000009 0.210802
nan nan nan 0.000000
271.169098 -105.223267 13.544202 0.789471
271.901459 -107.273567 11.329498 0.664637
271.901459 -107.273567 9.605679 0.631251
271.901459 -107.273567 7.898521 0.644526
271.901459 -107.273567 6.204172 0.634897
271.901428 -107.273560 4.518897 0.613794
271.932251 -107.359848 2.837534 0.721294
271.838043 -107.096069 1.157883 0.658213
275.454071 -117.219612 -0.000044 0.228311
280.943665 -132.588440 -0.000032 0.230609
283.300537 -139.186829 -0.000023 0.232512
284.613159 -142.861755 -0.000017 0.222219
285.451172 -145.207870 -0.000014 0.223356
286.033630 -146.838501 -0.000011 0.208325
286.462738 -148.039886 -0.000009 0.212932
nan nan nan 0.000000
271.560028 -105.210884 13.518599 0.771282
272.258087 -107.209061 11.318952 0.678431
272.272919 -107.251556 9.590403 0.750774
272.258087 -107.209076 7.891850 0.678431
272.272919 -107.251556 6.195729 0.771099
272.258087 -107.209076 4.516048 0.678431
272.310730 -107.359764 2.835472 0.702770
271.567871 -105.233353 1.127669 0.633829
275.722076 -117.124954 -0.000044 0.230956
281.104218 -132.531723 -0.000032 0.212382
283.414978 -139.146393 -0.000023 0.217959
284.701935 -142.830399 -0.000017 0.227784
285.523529 -145.182312 -0.000014 0.218270
286.094574 -146.816986 -0.000011 0.228514
286.515320 -148.021317 -0.000009 0.254114
nan nan nan 0.000000
271.961151 -105.233368 13.485723 0.631510
272.635895 -107.209053 11.296507 0.678431
272.650421 -107.251564 9.572121 0.746532
272.635895 -107.209068 7.877661 0.678431
272.650421 -107.251556 6.185622 0.763058
272.635895 -107.209061 4.509989 0.678431
281.513519 -133.203262 2.386576 0.487877
281.432129 -132.964996 1.609305 0.457603
275.990692 -117.032150 -0.000044 0.229927
281.265167 -132.476135 -0.000032 0.230992
283.529694 -139.106781 -0.000023 0.247256
284.790894 -142.799667 -0.000017 0.223009
285.596069 -145.157257 -0.000013 0.211376
286.155701 -146.795868 -0.000011 0.216295
286.567993 -148.003113 -0.000009 0.231925
nan nan nan 0.000000
272.352539 -105.233368 13.458682 0.651225
273.015106 -107.218536 11.272799 0.112184
273.026123 -107.251564 9.554293 0.710185
273.015106 -107.218536 7.862675 0.116655
273.026123 -107.251572 6.175766 0.650019
273.015106 -107.218536 4.503588 0.115831
281.673462 -133.161575 2.386384 0.463096
281.598267 -132.936295 1.609729 0.494194
281.033600 -131.244400 0.740726 0.467018
281.426514 -132.421661 -0.000032 0.241990
283.644684 -139.067947 -0.000023 0.208492
284.880096 -142.769562 -0.000017 0.262635
285.668762 -145.132721 -0.000013 0.222566
286.216949 -146.775192 -0.000011 0.218210
286.620819 -147.985291 -0.000009 0.208492
nan nan nan 0.000000
272.742126 -105.233353 13.432327 0.634714
273.386200 -107.209045 11.253287 0.678431
273.400055 -107.251556 9.536918 0.741131
273.386200 -107.209053 7.850336 0.678431
281.752716 -132.872864 3.956518 0.478492
281.740112 -132.834213 3.174229 0.500664
281.686249 -132.669006 2.393974 0.467002
281.710846 -132.744415 1.607324 0.488685
281.716125 -132.760651 0.821970 0.455680
281.588226 -132.368317 -0.000032 0.217815
283.759949 -139.029922 -0.000023 0.239142
284.969482 -142.740082 -0.000017 0.226061
285.741638 -145.108673 -0.000013 0.204997
286.278320 -146.754944 -0.000010 0.247017
286.673737 -147.967819 -0.000008 0.232811
nan nan nan 0.000000
279.184082 -124.253784 9.095547 0.566720
279.184082 -124.253784 7.977787 0.602167
279.184082 -124.253784 6.873266 0.557397
279.184082 -124.253777 5.779422 0.546044
281.918884 -132.845657 3.954463 0.488396
281.915710 -132.835693 3.171515 0.506554
281.810516 -132.505219 2.395901 0.481178
281.866760 -132.681961 1.607134 0.461570
281.914917 -132.833252 0.828360 0.496101
281.750305 -132.316101 -0.000032 0.236988
283.875488 -138.992706 -0.000023 0.232188
285.059082 -142.711212 -0.000017 0.235599
285.814697 -145.085144 -0.000013 0.242995
286.339874 -146.735123 -0.000010 0.217312
286.726807 -147.950729 -0.000009 0.230992
nan nan nan 0.000000
279.424255 -124.253784 9.079987 0.546517
279.424255 -124.253784 7.964676 0.554452
279.460602 -124.370796 6.844405 0.682170
279.424255 -124.253784 5.771133 0.585214
282.121704 -132.937607 3.942282 0.464225
279.493134 -124.475449 3.599017 0.718196
282.018188 -132.604416 2.393333 0.486839
282.104797 -132.883270 1.611445 0.494469
281.915039 -132.272354 0.802074 0.457816
281.912781 -132.265015 -0.000031 0.236413
283.991272 -138.956299 -0.000023 0.216367
285.148865 -142.682983 -0.000017 0.212322
285.887878 -145.062134 -0.000013 0.205739
286.401550 -146.715729 -0.000011 0.209246
286.779968 -147.934021 -0.000008 0.225486
279.663391 -124.253815 10.193600 0.554971
279.663391 -124.253784 9.064837 0.550851
279.663391 -124.253784 7.951915 0.539773
279.672302 -124.283211 6.847614 0.726955
282.152008 -132.467407 4.775744 0.460548
282.192596 -132.601349 3.966936 0.453803
279.733612 -124.485558 3.595075 0.701854
282.145325 -132.445282 2.395213 0.466377
282.127350 -132.385941 1.603773 0.466621
282.089020 -132.259521 0.803979 0.451575
282.075562 -132.215073 -0.000032 0.230764
284.107300 -138.920715 -0.000022 0.237071
285.238861 -142.655365 -0.000017 0.221908
285.961243 -145.039627 -0.000013 0.201563
286.463348 -146.696762 -0.000010 0.222375
286.833252 -147.917664 -0.000009 0.218078
279.901520 -124.253799 10.176504 0.545998
279.901520 -124.253784 9.050095 0.555840
279.901489 -124.253784 7.939496 0.564736
279.931061 -124.353806 6.826580 0.700877
279.931061 -124.353806 5.743215 0.703593
282.409760 -132.745300 3.950525 0.530571
282.188324 -131.995728 3.207038 0.450126
282.595947 -133.375671 2.378513 0.493217
282.308624 -132.402954 1.604890 0.469780
282.419464 -132.778229 0.833045 0.482429
282.238708 -132.166260 -0.000031 0.229352
284.223572 -138.885925 -0.000022 0.230980
285.329041 -142.628387 -0.000017 0.218737
286.034760 -145.017624 -0.000013 0.234450
286.525269 -146.678238 -0.000010 0.213148
286.886658 -147.901688 -0.000009 0.250439
280.138641 -124.253799 10.159876 0.573236
280.138641 -124.253784 9.035759 0.592447
280.138641 -124.253784 7.927418 0.567361
280.129639 -124.222458 6.837040 0.698512
282.500031 -132.458527 4.765382 0.491295
280.134216 -124.238434 4.672396 0.690593
280.197144 -124.457062 3.589968 0.793591
282.720734 -133.225357 2.380303 0.477089
282.244049 -131.569122 1.591495 0.463218
282.589020 -132.767761 0.834883 0.463645
282.402191 -132.118591 -0.000031 0.220987
284.340088 -138.851944 -0.000022 0.216558
285.419403 -142.602036 -0.000017 0.220711
286.108429 -144.996140 -0.000013 0.206972
286.587341 -146.660126 -0.000010 0.209509
286.940186 -147.886078 -0.000009 0.255310
280.374817 -124.253799 10.143715 0.562493
280.374817 -124.253784 9.021820 0.571572
280.374817 -124.253784 7.915675 0.574151
280.348297 -124.159088 6.837220 0.678431
280.370514 -124.238441 5.741985 0.678431
282.684204 -132.493805 3.964118 0.566537
282.666962 -132.432281 3.179924 0.533669
282.831635 -133.019897 2.383042 0.469230
282.696350 -132.537186 1.608756 0.451530
282.587921 -132.150284 0.805687 0.553826
282.589661 -132.156555 0.007163 0.554314
284.456848 -138.818787 -0.000022 0.214009
285.509949 -142.576324 -0.000017 0.234917
286.182251 -144.975174 -0.000013 0.193760
286.649536 -146.642471 -0.000010 0.191845
286.993805 -147.870850 -0.000008 0.209067
280.610077 -124.253792 10.128010 0.539788
280.610077 -124.253784 9.008278 0.567712
280.610077 -124.253784 7.904266 0.532021
280.584259 -124.159103 6.827889 0.678431
280.605896 -124.238457 5.734767 0.709804
282.934021 -132.774185 3.936500 0.504555
282.883514 -132.589081 3.169665 0.517784
283.085693 -133.330338 2.377037 0.448066
283.044861 -133.180573 1.620423 0.455573
282.924896 -132.740814 0.838061 0.472633
282.730133 -132.026688 -0.000031 0.225451
284.573822 -138.786438 -0.000022 0.234091
285.600677 -142.551239 -0.000016 0.214931
286.256226 -144.954727 -0.000012 0.237933
286.711853 -146.625244 -0.000010 0.242648
287.047516 -147.856003 -0.000008 0.207595
280.844452 -124.253799 10.112761 0.543999
280.844452 -124.253784 8.995131 0.567773
280.844452 -124.253784 7.893189 0.562066
280.819336 -124.159081 6.818833 0.678431
280.840393 -124.238441 5.727761 0.678431
283.033081 -132.504639 3.955733 0.516991
283.124329 -132.848572 3.154282 0.474449
283.045013 -132.549576 2.389548 0.479774
283.090485 -132.721069 1.613356 0.477073
283.430939 -134.004501 0.904470 0.488060
282.894562 -131.982452 -0.000031 0.232248
284.691040 -138.754913 -0.000022 0.251552
285.691559 -142.526794 -0.000016 0.263999
286.330322 -144.934799 -0.000012 0.214679
286.774261 -146.608444 -0.000010 0.236940
287.101349 -147.841522 -0.000008 0.249015
281.077972 -124.253799 10.097959 0.563943
281.077942 -124.253784 8.982369 0.559075
281.077942 -124.253784 7.882439 0.580301
281.053558 -124.159103 6.810040 0.678431
281.074005 -124.238434 5.720961 0.678431
283.208710 -132.518860 3.950961 0.488518
283.069397 -131.978531 3.196315 0.482353
283.374512 -133.162018 2.378487 0.502312
283.255890 -132.701813 1.613736 0.488106
283.275726 -132.778839 0.844287 0.481910
283.059326 -131.939362 -0.000031 0.229735
284.808472 -138.724197 -0.000022 0.236377
285.782623 -142.502975 -0.000015 0.218114
286.404572 -144.915375 -0.000013 0.233828
286.836823 -146.592087 -0.000010 0.235887
287.155273 -147.827408 -0.000008 0.201443
281.319702 -124.290070 10.074243 0.793561
281.310608 -124.253792 8.969994 0.579293
281.310608 -124.253784 7.872013 0.534920
281.286926 -124.159119 6.801514 0.678431
281.306793 -124.238464 5.714364 0.678431
283.322693 -132.290222 3.966829 0.482689
283.212555 -131.850250 3.200691 0.476173
283.381165 -132.523773 2.388583 0.477653
281.339447 -124.368958 1.473853 0.678431
281.339447 -124.368958 0.420431 0.678431
283.224365 -131.897430 -0.000031 0.227150
284.926086 -138.694321 -0.000021 0.213016
285.873871 -142.479797 -0.000016 0.237143
286.478943 -144.896484 -0.000012 0.246921
286.899475 -146.576172 -0.000010 0.203023
287.209320 -147.813690 -0.000008 0.213028
281.542480 -124.253799 10.069699 0.555917
281.542480 -124.253784 8.958002 0.579049
281.542480 -124.253784 7.861911 0.549386
281.519470 -124.159103 6.793255 0.678431
281.538757 -124.238449 5.707974 0.678431
281.538757 -124.238449 4.642860 0.708888
283.392670 -131.868958 3.197680 0.501778
283.311981 -131.536865 2.404534 0.472114
283.393524 -131.872406 1.601116 0.471595
283.634430 -132.863907 0.852621 0.464439
283.389679 -131.856659 -0.000031 0.241009
285.043945 -138.665253 -0.000021 0.241511
285.965240 -142.457245 -0.000016 0.193520
286.553436 -144.878113 -0.000012 0.224397
286.962250 -146.560699 -0.000010 0.206984
287.263428 -147.800339 -0.000008 0.244085
281.807800 -124.399239 10.018803 0.694484
281.807800 -124.399239 8.914115 0.682628
281.773529 -124.253792 7.852126 0.526406
281.751221 -124.159088 6.785256 0.671534
281.788605 -124.317787 5.692410 0.692744
281.788605 -124.317780 4.631765 0.696330
283.578369 -131.914978 3.193359 0.496208
283.506409 -131.609467 2.402638 0.463966
283.528015 -131.701218 1.598904 0.474952
283.459290 -131.409424 0.781125 0.469978
283.555298 -131.817032 -0.000031 0.223177
285.161987 -138.637009 -0.000021 0.226444
286.056793 -142.435349 -0.000016 0.232272
286.628052 -144.860245 -0.000012 0.228790
287.025116 -146.545639 -0.000010 0.225905
287.317657 -147.787369 -0.000008 0.207403
281.991638 -124.200325 10.056938 0.680629
282.009735 -124.279648 8.929422 0.678431
282.025543 -124.348915 7.824907 0.678706
281.982239 -124.159088 6.777515 0.678431
282.000336 -124.238449 5.695798 0.678431
282.000336 -124.238457 4.634181 0.678431
282.052307 -124.466156 3.566775 0.806485
283.700897 -131.689667 2.400640 0.515312
283.754517 -131.924652 1.603303 0.462074
283.615479 -131.315353 0.778357 0.484382
283.721191 -131.778564 -0.000031 0.246215
285.280212 -138.609589 -0.000021 0.249530
286.148499 -142.414078 -0.000016 0.228873
286.702820 -144.842911 -0.000012 0.221465
287.088104 -146.531052 -0.000010 0.237035
287.371948 -147.774780 -0.000008 0.233038
282.221619 -124.200333 10.044314 0.683864
282.239136 -124.279663 8.918564 0.678431
282.254425 -124.348907 7.815784 0.696788
282.212494 -124.159096 6.770030 0.678431
282.230042 -124.238457 5.690008 0.678431
282.230042 -124.238449 4.630054 0.683253
282.273987 -124.437492 3.565762 0.786175
283.793274 -131.315353 2.406286 0.469154
282.256958 -124.360329 1.477159 0.130602
283.775696 -131.235855 0.776271 0.478859
283.887329 -131.741257 -0.000030 0.237921
285.398621 -138.583008 -0.000021 0.225810
286.240326 -142.393463 -0.000015 0.242110
286.777679 -144.826111 -0.000012 0.254724
287.151184 -146.516876 -0.000010 0.196716
287.426331 -147.762558 -0.000008 0.251050
282.450867 -124.200333 10.032125 0.689097
282.467804 -124.279663 8.908080 0.678431
282.482605 -124.348907 7.806969 0.671901
282.483643 -124.353798 6.733269 0.693141
282.483643 -124.353798 5.670847 0.709804
282.483643 -124.353790 4.616398 0.692378
282.505157 -124.454514 3.562534 0.868559
282.486877 -124.368958 2.521904 0.678431
284.014618 -131.521927 1.597786 0.440162
284.029938 -131.593628 0.796098 0.480079
284.053741 -131.705109 -0.000031 0.233337
285.517242 -138.557236 -0.000021 0.233876
286.332336 -142.373474 -0.000015 0.225666
286.852692 -144.809814 -0.000012 0.201958
287.214355 -146.503159 -0.000010 0.242337
287.480804 -147.750732 -0.000008 0.204483
282.679443 -124.200333 10.020360 0.678431
282.695801 -124.279648 8.897966 0.678431
282.710083 -124.348907 7.798464 0.709194
282.696533 -124.283218 6.737027 0.769558
282.690460 -124.253799 5.677217 0.571221
282.690460 -124.253799 4.620937 0.555795
282.734009 -124.464828 3.559729 0.723995
282.714233 -124.368958 2.521140 0.678431
284.110382 -131.136841 1.591941 0.469368
284.070801 -130.944870 0.765319 0.484855
284.220398 -131.670120 -0.000030 0.229304
285.636017 -138.532303 -0.000021 0.206326
286.424438 -142.354141 -0.000015 0.246562
286.927765 -144.794052 -0.000012 0.222399
287.277618 -146.489868 -0.000010 0.197314
287.535370 -147.739273 -0.000008 0.202424
282.907349 -124.200325 10.009024 0.681285
282.923157 -124.279648 8.888212 0.678431
282.936920 -124.348915 7.790264 0.693690
282.936920 -124.348907 6.720393 0.690196
282.917999 -124.253799 5.672019 0.569177
282.917999 -124.253799 4.617232 0.559136
282.950134 -124.415207 3.560009 0.775265
282.940918 -124.368950 2.520403 0.678431
282.930298 -124.315521 1.478705 0.678431
282.939209 -124.360321 0.437242 0.149020
284.387299 -131.636292 -0.000030 0.234642
285.754974 -138.508194 -0.000021 0.246658
286.516693 -142.335449 -0.000015 0.265016
287.002991 -144.778809 -0.000012 0.205608
287.340973 -146.477036 -0.000010 0.212106
287.589996 -147.728210 -0.000008 0.227473
283.134644 -124.200325 9.998104 0.654307
283.149872 -124.279648 8.878823 0.678431
283.163147 -124.348923 7.782371 0.678431
283.144897 -124.253799 6.728325 0.588449
283.144897 -124.253792 5.667014 0.545876
283.144897 -124.253799 4.613665 0.534676
283.189880 -124.488388 3.554221 0.774517
283.166992 -124.368958 2.519694 0.678431
283.156738 -124.315514 1.479415 0.678431
283.165344 -124.360329 0.439372 0.146563
284.554443 -131.603638 -0.000030 0.233876
285.874084 -138.484909 -0.000021 0.230740
286.609070 -142.317398 -0.000015 0.227641
287.078308 -144.764099 -0.000011 0.244827
287.404419 -146.464630 -0.000009 0.262096
287.644684 -147.717514 -0.000007 0.193712
283.375977 -124.279655 9.967398 0.692378
283.391998 -124.366631 8.850691 0.704265
283.388733 -124.348907 7.774783 0.689708
283.389648 -124.353798 6.707035 0.682612
283.389648 -124.353798 5.650502 0.698283
283.389648 -124.353806 4.601895 0.673548
283.409821 -124.463120 3.553443 0.773877
283.392456 -124.368950 2.519011 0.678431
283.382568 -124.315506 1.480099 0.678431
283.390839 -124.360329 0.441421 0.156558
284.721771 -131.572159 -0.000030 0.227808
285.993378 -138.462479 -0.000020 0.213914
286.701569 -142.299988 -0.000015 0.236246
287.153717 -144.749908 -0.000012 0.204842
287.467957 -146.452682 -0.000009 0.226887
287.699463 -147.707214 -0.000007 0.242924
283.587402 -124.200325 9.977522 0.678431
283.601471 -124.279648 8.861121 0.678431
283.621338 -124.391586 7.759607 0.683864
283.580109 -124.159088 6.730424 0.647059
283.608246 -124.317780 5.650101 0.702434
283.608246 -124.317787 4.601609 0.690394
283.635712 -124.472618 3.551008 0.705852
283.614624 -124.353806 2.518608 0.821256
283.615784 -124.360329 1.481500 0.129412
283.615784 -124.360329 0.443389 0.129412
284.889343 -131.541840 -0.000030 0.233433
286.112823 -138.440872 -0.000020 0.221489
286.794220 -142.283234 -0.000015 0.214261
287.229218 -144.736237 -0.000012 0.206805
287.531555 -146.441177 -0.000009 0.205967
287.754333 -147.697281 -0.000007 0.221764
283.812958 -124.200333 9.967850 0.647059
283.826447 -124.279655 8.852802 0.678431
283.839050 -124.353752 7.759605 0.706355
283.805939 -124.159088 6.724690 0.656214
283.832947 -124.317787 5.645676 0.700145
283.819427 -124.238441 4.605055 0.685786
283.858459 -124.467850 3.549366 0.863783
283.839081 -124.353806 2.517979 0.819211
283.839081 -124.353806 1.482020 0.820737
283.839081 -124.353806 0.444950 0.837140
285.057129 -131.512695 -0.000030 0.230441
286.232391 -138.420090 -0.000021 0.227030
286.886963 -142.267120 -0.000015 0.243558
287.304840 -144.723114 -0.000011 0.200761
287.595276 -146.430099 -0.000009 0.231985
287.809235 -147.687744 -0.000007 0.251947
284.071411 -124.405602 9.906494 0.726604
284.071411 -124.405602 8.817278 0.728008
284.061523 -124.344925 7.754541 0.818631
284.031219 -124.159088 6.719199 0.679255
284.057098 -124.317780 5.641439 0.705760
284.057098 -124.317787 4.595436 0.729946
284.066589 -124.376137 3.552131 0.787717
284.065430 -124.368958 2.517126 0.694606
284.065430 -124.368958 1.482874 0.654902
284.065430 -124.368950 0.447512 0.654902
285.225098 -131.484711 -0.000029 0.225343
286.352112 -138.400146 -0.000021 0.219132
286.979797 -142.251663 -0.000015 0.199875
287.380524 -144.710495 -0.000011 0.248644
287.659027 -146.419479 -0.000009 0.220173
287.864227 -147.678589 -0.000007 0.179973
284.273956 -124.274307 9.930985 0.784863
284.270782 -124.253792 8.842880 0.568856
284.283081 -124.332840 7.750368 0.661616
284.256012 -124.159103 6.713949 0.678431
284.280731 -124.317787 5.637388 0.694835
284.280731 -124.317787 4.592549 0.690059
284.302917 -124.460045 3.546233 0.822858
284.288727 -124.368958 2.516552 0.684779
284.288727 -124.368950 1.483449 0.678431
284.288727 -124.368958 0.449238 0.678431
285.393250 -131.457916 -0.000029 0.229532
286.471985 -138.381042 -0.000020 0.228969
287.072754 -142.236847 -0.000014 0.244085
287.456299 -144.698425 -0.000011 0.220364
287.722870 -146.409317 -0.000009 0.209114
287.919281 -147.669815 -0.000007 0.199325
284.507202 -124.340019 9.905920 0.783551
284.494385 -124.253792 8.835611 0.565774
284.504761 -124.323639 7.745951 0.646418
284.492096 -124.238441 6.697043 0.691615
284.503906 -124.317795 5.633523 0.692561
284.503906 -124.317795 4.589795 0.702449
284.515533 -124.395973 3.547773 0.750179
284.511505 -124.368958 2.516003 0.684504
284.511505 -124.368958 1.483997 0.678431
284.511505 -124.368958 0.450886 0.678431
285.561615 -131.432281 -0.000029 0.235551
286.591949 -138.362778 -0.000020 0.232057
287.165802 -142.222672 -0.000014 0.236784
287.532166 -144.686874 -0.000011 0.231099
287.786804 -146.399582 -0.000009 0.299950
287.974396 -147.661423 -0.000007 0.246622
284.717529 -124.253784 9.919729 0.560876
284.717560 -124.253792 8.828689 0.558450
284.727844 -124.326492 7.739606 0.678431
284.704132 -124.159096 6.704176 0.687434
284.726593 -124.317795 5.629845 0.692653
284.726593 -124.317795 4.587172 0.684245
284.746216 -124.456299 3.543212 0.669398
284.733856 -124.368950 2.515480 0.684031
284.733856 -124.368950 1.484520 0.678431
284.733856 -124.368958 0.452454 0.678431
285.730133 -131.407837 -0.000029 0.237191
286.712067 -138.345352 -0.000020 0.227677
287.258972 -142.209152 -0.000015 0.250571
287.608093 -144.675858 -0.000011 0.204255
287.850769 -146.390305 -0.000009 0.236964
288.029541 -147.653427 -0.000007 0.229508
284.940247 -124.253792 9.912104 0.538872
284.940247 -124.253792 8.822116 0.551293
284.951752 -124.339218 7.731747 0.807843
284.927521 -124.159088 6.699647 0.672831
284.949768 -124.324516 5.625570 0.694148
284.948853 -124.317795 4.584682 0.695918
284.963806 -124.429062 3.543076 0.868055
284.955750 -124.368958 2.514984 0.683757
284.955750 -124.368958 1.485016 0.678431
284.955750 -124.368958 0.453944 0.678431
285.898834 -131.384567 -0.000029 0.246095
286.832306 -138.328766 -0.000020 0.198391
287.352203 -142.196289 -0.000014 0.237359
287.684113 -144.665359 -0.000011 0.250176
287.914795 -146.381470 -0.000009 0.262371
288.084778 -147.645798 -0.000006 0.248166
285.162537 -124.253792 9.904879 0.569650
