# This PCD file was generated using the MATLABÂ® pcwrite function
# from Computer Vision ToolboxÂ®.
# .PCD v.7 - Point Cloud Data file format
VERSION .7
FIELDS x y z intensity
SIZE 4 4 4 4
TYPE F F F F
COUNT 1 1 1 1
WIDTH 1261
HEIGHT 1
VIEWPOINT 0 0 0 1 0 0 0
POINTS 1261
DATA ascii
164.250839 -132.229828 4.703875 0.385840
164.312210 -132.426605 3.910285 0.391669
164.360748 -132.582245 3.136522 0.387793
164.288177 -132.349518 2.382560 0.444282
nan nan nan 0.000000
159.127853 -115.801949 -0.000041 0.227689
163.986374 -131.381775 -0.000027 0.223763
166.072311 -138.070694 -0.000021 0.242660
167.234055 -141.796066 -0.000016 0.217468
167.975723 -144.174393 -0.000013 0.247699
168.491211 -145.827423 -0.000010 0.196428
168.871002 -147.045288 -0.000008 0.205069
nan nan nan 0.000000
nan nan nan 0.000000
nan nan nan 0.000000
nan nan nan 0.000000
164.408493 -132.184250 4.703547 0.415991
164.416611 -132.210938 3.924666 0.403082
164.527634 -132.575928 3.134405 0.392462
nan nan nan 0.000000
nan nan nan 0.000000
159.399475 -115.718285 -0.000041 0.230070
164.149124 -131.331635 -0.000026 0.223284
166.188293 -138.034973 -0.000021 0.242038
167.324020 -141.768372 -0.000015 0.185227
168.049072 -144.151810 -0.000012 0.229484
168.553009 -145.808380 -0.000010 0.210886
168.924286 -147.028870 -0.000008 0.244372
nan nan nan 0.000000
nan nan nan 0.000000
nan nan nan 0.000000
nan nan nan 0.000000
nan nan nan 0.000000
164.642532 -132.396378 3.904774 0.386206
164.604980 -132.269760 3.147718 0.417182
nan nan nan 0.000000
nan nan nan 0.000000
159.671677 -115.636490 -0.000041 0.229436
164.312210 -131.282639 -0.000027 0.219275
166.304535 -138.000061 -0.000021 0.220520
167.414154 -141.741287 -0.000016 0.219538
168.122559 -144.129730 -0.000012 0.202161
168.614914 -145.789780 -0.000010 0.233254
168.977661 -147.012833 -0.000008 0.236305
nan nan nan 0.000000
nan nan nan 0.000000
nan nan nan 0.000000
nan nan nan 0.000000
164.536209 -131.444382 4.780971 0.411017
nan nan nan 0.000000
164.774597 -132.269211 3.145403 0.398886
nan nan nan 0.000000
nan nan nan 0.000000
159.944458 -115.556641 -0.000041 0.230453
164.475632 -131.234787 -0.000027 0.226324
166.421021 -137.965942 -0.000021 0.240267
167.504501 -141.714828 -0.000015 0.260672
168.196198 -144.108170 -0.000013 0.228478
168.676956 -145.771622 -0.000010 0.197793
169.031158 -146.997177 -0.000008 0.273454
nan nan nan 0.000000
nan nan nan 0.000000
nan nan nan 0.000000
nan nan nan 0.000000
nan nan nan 0.000000
164.979431 -132.396194 3.897119 0.402609
164.904739 -132.130844 3.150186 0.388266
nan nan nan 0.000000
nan nan nan 0.000000
160.217758 -115.478653 -0.000043 0.227976
164.639389 -131.188080 -0.000027 0.217636
166.537735 -137.932648 -0.000021 0.247280
167.595016 -141.689011 -0.000016 0.210850
168.269989 -144.087112 -0.000013 0.259679
168.739136 -145.753891 -0.000010 0.214404
169.084763 -146.981888 -0.000009 0.209844
nan nan nan 0.000000
nan nan nan 0.000000
nan nan nan 0.000000
nan nan nan 0.000000
nan nan nan 0.000000
165.052856 -132.052902 3.922629 0.402777
165.009369 -131.894119 3.160016 0.408560
nan nan nan 0.000000
nan nan nan 0.000000
160.491623 -115.402611 -0.000042 0.230106
164.803467 -131.142517 -0.000028 0.240937
166.654678 -137.900177 -0.000021 0.227377
167.685715 -141.663818 -0.000016 0.248477
168.343933 -144.066589 -0.000013 0.236629
168.801422 -145.736588 -0.000010 0.189128
169.138474 -146.966965 -0.000009 0.198942
nan nan nan 0.000000
nan nan nan 0.000000
nan nan nan 0.000000
nan nan nan 0.000000
nan nan nan 0.000000
165.257507 -132.185135 3.907784 0.400610
165.228867 -132.077667 3.148498 0.438605
nan nan nan 0.000000
nan nan nan 0.000000
160.766006 -115.328461 -0.000043 0.232236
164.967865 -131.098099 -0.000027 0.226923
166.771851 -137.868515 -0.000021 0.259427
167.776581 -141.639267 -0.000016 0.233661
168.418015 -144.046570 -0.000013 0.219347
168.863831 -145.719727 -0.000010 0.202580
169.192291 -146.952423 -0.000008 0.223464
nan nan nan 0.000000
nan nan nan 0.000000
nan nan nan 0.000000
nan nan nan 0.000000
nan nan nan 0.000000
nan nan nan 0.000000
nan nan nan 0.000000
nan nan nan 0.000000
nan nan nan 0.000000
161.040894 -115.256241 -0.000043 0.225726
165.132553 -131.054825 -0.000028 0.224828
166.889252 -137.837677 -0.000021 0.255837
167.867630 -141.615356 -0.000016 0.251098
168.492233 -144.027069 -0.000013 0.219215
168.926361 -145.703293 -0.000010 0.232524
169.246201 -146.938263 -0.000008 0.211879
nan nan nan 0.000000
nan nan nan 0.000000
nan nan nan 0.000000
nan nan nan 0.000000
nan nan nan 0.000000
nan nan nan 0.000000
160.293335 -111.119392 4.206042 0.914351
nan nan nan 0.000000
nan nan nan 0.000000
161.316284 -115.185928 -0.000043 0.231291
165.297562 -131.012711 -0.000028 0.235982
167.006851 -137.807663 -0.000021 0.217360
167.958832 -141.592072 -0.000016 0.230752
168.566589 -144.008087 -0.000013 0.197841
168.988998 -145.687302 -0.000010 0.261869
169.300217 -146.924484 -0.000009 0.259750
nan nan nan 0.000000
nan nan nan 0.000000
nan nan nan 0.000000
nan nan nan 0.000000
nan nan nan 0.000000
nan nan nan 0.000000
160.597672 -111.044182 4.206032 0.920409
nan nan nan 0.000000
nan nan nan 0.000000
161.592163 -115.117554 -0.000044 0.228670
165.462845 -130.971741 -0.000028 0.223619
167.124649 -137.778458 -0.000021 0.227030
168.050186 -141.569427 -0.000017 0.242648
168.641068 -143.989624 -0.000013 0.207391
169.051743 -145.671753 -0.000010 0.246071
169.354309 -146.911072 -0.000009 0.239740
nan nan nan 0.000000
nan nan nan 0.000000
nan nan nan 0.000000
nan nan nan 0.000000
nan nan nan 0.000000
nan nan nan 0.000000
160.902527 -110.971130 4.206021 0.920668
nan nan nan 0.000000
nan nan nan 0.000000
161.868500 -115.051102 -0.000044 0.229735
165.628418 -130.931931 -0.000028 0.216463
167.242661 -137.750076 -0.000021 0.219179
168.141708 -141.547424 -0.000016 0.200605
168.715683 -143.971695 -0.000013 0.235575
169.114609 -145.656647 -0.000010 0.221717
169.408508 -146.898041 -0.000009 0.230250
nan nan nan 0.000000
nan nan nan 0.000000
nan nan nan 0.000000
nan nan nan 0.000000
nan nan nan 0.000000
nan nan nan 0.000000
161.207886 -110.900177 4.206010 0.919539
nan nan nan 0.000000
nan nan nan 0.000000
162.145309 -114.986580 -0.000044 0.227413
165.794250 -130.893265 -0.000029 0.233026
167.360870 -137.722534 -0.000022 0.235982
168.233383 -141.526047 -0.000016 0.199133
168.790405 -143.954269 -0.000013 0.197996
169.177567 -145.641968 -0.000011 0.256950
169.462799 -146.885376 -0.000009 0.262527
nan nan nan 0.000000
nan nan nan 0.000000
nan nan nan 0.000000
nan nan nan 0.000000
nan nan nan 0.000000
nan nan nan 0.000000
161.513733 -110.831345 4.206000 0.918883
nan nan nan 0.000000
nan nan nan 0.000000
162.422546 -114.924004 -0.000044 0.232667
165.960358 -130.855774 -0.000029 0.225642
167.479263 -137.695801 -0.000022 0.234989
168.325195 -141.505325 -0.000016 0.254161
168.865265 -143.937378 -0.000013 0.223009
169.240631 -145.627731 -0.000011 0.208815
169.517166 -146.873108 -0.000009 0.275740
nan nan nan 0.000000
nan nan nan 0.000000
nan nan nan 0.000000
nan nan nan 0.000000
nan nan nan 0.000000
nan nan nan 0.000000
161.819946 -110.764191 4.206014 0.918227
nan nan nan 0.000000
nan nan nan 0.000000
162.700226 -114.863342 -0.000044 0.225678
166.126724 -130.819427 -0.000029 0.223225
167.597839 -137.669907 -0.000022 0.214428
168.417160 -141.485245 -0.000016 0.243091
168.940231 -143.921005 -0.000013 0.190062
169.303787 -145.613937 -0.000011 0.262706
169.571625 -146.861206 -0.000009 0.278360
nan nan nan 0.000000
nan nan nan 0.000000
nan nan nan 0.000000
nan nan nan 0.000000
nan nan nan 0.000000
nan nan nan 0.000000
162.126724 -110.699646 4.206003 0.909880
nan nan nan 0.000000
nan nan nan 0.000000
162.978317 -114.804626 -0.000045 0.230393
166.293350 -130.784271 -0.000029 0.221705
167.716599 -137.644836 -0.000022 0.224960
168.509262 -141.465805 -0.000016 0.226528
169.015320 -143.905151 -0.000013 0.244252
169.367035 -145.600586 -0.000011 0.235336
169.626175 -146.849701 -0.000009 0.226312
nan nan nan 0.000000
nan nan nan 0.000000
nan nan nan 0.000000
nan nan nan 0.000000
nan nan nan 0.000000
nan nan nan 0.000000
162.433945 -110.637268 4.205992 0.911772
nan nan nan 0.000000
nan nan nan 0.000000
163.256805 -114.747879 -0.000045 0.231458
166.460205 -130.750259 -0.000029 0.225271
167.835510 -137.620590 -0.000022 0.224541
168.601501 -141.447006 -0.000017 0.192324
169.090500 -143.889816 -0.000013 0.211257
169.430389 -145.587677 -0.000011 0.233984
169.680786 -146.838562 -0.000009 0.212657
nan nan nan 0.000000
nan nan nan 0.000000
nan nan nan 0.000000
nan nan nan 0.000000
nan nan nan 0.000000
nan nan nan 0.000000
162.741577 -110.576981 4.205982 0.915618
nan nan nan 0.000000
nan nan nan 0.000000
163.535690 -114.693069 -0.000045 0.229544
166.627289 -130.717407 -0.000029 0.223045
167.954605 -137.597198 -0.000022 0.237047
168.693863 -141.428848 -0.000017 0.215410
169.165802 -143.875031 -0.000013 0.219120
169.493820 -145.575195 -0.000011 0.211125
169.735489 -146.827820 -0.000009 0.297928
nan nan nan 0.000000
nan nan nan 0.000000
nan nan nan 0.000000
nan nan nan 0.000000
nan nan nan 0.000000
nan nan nan 0.000000
163.049637 -110.518875 4.205973 0.920439
nan nan nan 0.000000
nan nan nan 0.000000
163.814957 -114.640182 -0.000045 0.229759
166.794601 -130.685730 -0.000029 0.235934
168.073868 -137.574615 -0.000022 0.240446
168.786346 -141.411331 -0.000017 0.275069
169.241196 -143.860748 -0.000014 0.253312
169.557343 -145.563171 -0.000011 0.214368
169.790253 -146.817444 -0.000009 0.253372
nan nan nan 0.000000
nan nan nan 0.000000
nan nan nan 0.000000
nan nan nan 0.000000
nan nan nan 0.000000
nan nan nan 0.000000
163.358093 -110.462921 4.205961 0.920821
nan nan nan 0.000000
nan nan nan 0.000000
164.094574 -114.589264 -0.000045 0.223835
166.962143 -130.655228 -0.000029 0.227282
168.193268 -137.552856 -0.000022 0.255645
168.878952 -141.394470 -0.000017 0.226611
169.316696 -143.847000 -0.000014 0.205895
169.620941 -145.551590 -0.000011 0.208588
169.845093 -146.807465 -0.000009 0.220795
nan nan nan 0.000000
nan nan nan 0.000000
nan nan nan 0.000000
nan nan nan 0.000000
157.336304 -73.451050 11.479302 0.651621
nan nan nan 0.000000
163.666824 -110.408600 4.205977 0.860594
nan nan nan 0.000000
nan nan nan 0.000000
164.374542 -114.540283 -0.000046 0.230920
167.129883 -130.625885 -0.000029 0.219443
168.312836 -137.531952 -0.000023 0.212836
168.971664 -141.378265 -0.000016 0.253719
169.392288 -143.833786 -0.000014 0.262587
169.684616 -145.540466 -0.000011 0.262347
169.900009 -146.797852 -0.000009 0.232200
nan nan nan 0.000000
nan nan nan 0.000000
nan nan nan 0.000000
nan nan nan 0.000000
158.099167 -74.547356 11.340405 0.677745
158.072174 -74.382896 8.671040 0.688411
163.976028 -110.356995 4.205967 0.922896
158.072174 -74.382889 3.331350 0.606455
158.072174 -74.382889 0.668651 0.667018
164.654846 -114.493256 -0.000047 0.222566
167.297821 -130.597733 -0.000029 0.223584
168.432526 -137.511871 -0.000023 0.239620
169.064499 -141.362686 -0.000017 0.238998
169.467957 -143.821091 -0.000013 0.225582
169.748383 -145.529770 -0.000011 0.217504
169.954971 -146.788635 -0.000009 0.209426
nan nan nan 0.000000
nan nan nan 0.000000
158.513489 -73.531502 16.943970 0.578836
158.597046 -74.063835 14.102829 0.555627
158.708481 -74.773773 11.303577 0.654734
158.695389 -74.690384 8.638048 0.618952
164.285583 -110.307495 4.205957 0.932418
158.695389 -74.690376 3.324764 0.613123
158.695389 -74.690376 0.675236 0.642267
164.935486 -114.448204 -0.000046 0.231434
167.465958 -130.570740 -0.000030 0.225247
168.552368 -137.492645 -0.000023 0.225199
169.157440 -141.347763 -0.000017 0.210335
169.543732 -143.808929 -0.000014 0.237287
169.812210 -145.519516 -0.000011 0.197111
170.010010 -146.779800 -0.000009 0.186699
nan nan nan 0.000000
159.072800 -73.394897 19.749123 0.600275
159.143417 -73.866302 16.866379 0.555642
159.201508 -74.254074 14.061342 0.552331
159.304138 -74.939117 11.274384 0.643076
159.275787 -74.749939 8.626008 0.655558
164.595413 -110.259766 4.205966 0.947997
159.275787 -74.749931 3.322363 0.572213
163.212601 -101.029099 1.112468 0.120607
165.216415 -114.405113 -0.000047 0.230645
167.634277 -130.544907 -0.000030 0.214512
168.672333 -137.474243 -0.000023 0.230034
169.250488 -141.333496 -0.000017 0.267877
169.619583 -143.797302 -0.000013 0.211544
169.876114 -145.509720 -0.000011 0.260157
170.065109 -146.771347 -0.000009 0.207391
nan nan nan 0.000000
nan nan nan 0.000000
159.684326 -73.619171 16.896629 0.580392
159.742462 -74.026642 14.083115 0.529412
159.828918 -74.632599 11.300540 0.561639
159.828461 -74.629387 8.629231 0.680827
164.905594 -110.214355 4.205969 0.925978
165.088852 -111.498756 2.713567 0.934813
165.088852 -111.498749 1.286432 0.937255
165.497650 -114.363998 -0.000047 0.230812
167.802765 -130.520264 -0.000030 0.232188
168.792435 -137.456665 -0.000023 0.225857
169.343628 -141.319885 -0.000017 0.218042
169.695511 -143.786194 -0.000014 0.253048
169.940079 -145.500366 -0.000011 0.214428
170.120270 -146.763290 -0.000010 0.230094
nan nan nan 0.000000
nan nan nan 0.000000
nan nan nan 0.000000
160.225754 -73.358459 14.171406 0.595575
160.376068 -74.467262 11.310706 0.602991
160.349121 -74.268509 8.652658 0.592218
165.216080 -110.171097 4.205972 0.917128
165.396057 -111.498764 2.712875 0.926268
163.935532 -100.724670 1.109207 0.223529
165.779160 -114.324837 -0.000047 0.231758
167.971436 -130.496811 -0.000030 0.227353
168.912643 -137.439957 -0.000023 0.234797
169.436859 -141.306900 -0.000017 0.223153
169.771515 -143.775620 -0.000014 0.209605
170.004105 -145.491455 -0.000011 0.195950
170.175476 -146.755600 -0.000010 0.188913
nan nan nan 0.000000
nan nan nan 0.000000
nan nan nan 0.000000
nan nan nan 0.000000
160.826767 -73.541122 11.409553 0.506203
160.807648 -73.392296 8.718965 0.615061
165.526871 -110.130013 4.205975 0.910658
165.702682 -111.498756 2.712219 0.937255
165.731140 -111.720238 1.291437 0.780819
166.060944 -114.287628 -0.000047 0.225307
168.140259 -130.474518 -0.000031 0.221370
169.032974 -137.424072 -0.000023 0.252175
169.530167 -141.294586 -0.000017 0.235109
169.847595 -143.765564 -0.000014 0.210371
170.068207 -145.483002 -0.000011 0.240997
170.230743 -146.748306 -0.000010 0.261318
nan nan nan 0.000000
nan nan nan 0.000000
nan nan nan 0.000000
nan nan nan 0.000000
nan nan nan 0.000000
161.196182 -71.845512 8.840864 0.540871
165.837952 -110.091370 4.205964 0.671992
164.707001 -100.772804 2.888404 0.949889
166.036850 -111.730103 1.292217 0.171389
166.342972 -114.252396 -0.000047 0.230645
168.309235 -130.453400 -0.000031 0.230106
169.153412 -137.409027 -0.000023 0.231710
169.623581 -141.282928 -0.000017 0.227820
169.923737 -143.756058 -0.000014 0.232679
170.132355 -145.474976 -0.000012 0.208504
170.286057 -146.741409 -0.000010 0.237574
nan nan nan 0.000000
nan nan nan 0.000000
nan nan nan 0.000000
nan nan nan 0.000000
nan nan nan 0.000000
161.782715 -71.848091 8.835028 0.559274
166.149292 -110.054710 4.205964 0.619013
165.088470 -100.772812 2.887672 0.990250
166.340775 -111.730103 1.292798 0.744060
166.625229 -114.219124 -0.000048 0.224517
168.478348 -130.433472 -0.000031 0.225271
169.273956 -137.394821 -0.000023 0.233110
169.717056 -141.271912 -0.000017 0.232859
169.999939 -143.747070 -0.000014 0.221370
170.196564 -145.467422 -0.000011 0.225510
170.341415 -146.734879 -0.000010 0.216475
nan nan nan 0.000000
nan nan nan 0.000000
nan nan nan 0.000000
nan nan nan 0.000000
nan nan nan 0.000000
162.368256 -71.850517 8.829546 0.543114
166.460861 -110.020164 4.205966 0.793286
165.469345 -100.772804 2.886988 0.937255
166.018036 -105.890091 1.197232 0.159625
166.907730 -114.187843 -0.000048 0.230573
168.647598 -130.414734 -0.000031 0.220352
169.394592 -137.381454 -0.000024 0.266620
169.810608 -141.261536 -0.000018 0.209952
170.076218 -143.738632 -0.000014 0.245545
170.260818 -145.460297 -0.000012 0.242229
170.396820 -146.728745 -0.000010 0.240410
nan nan nan 0.000000
nan nan nan 0.000000
nan nan nan 0.000000
nan nan nan 0.000000
nan nan nan 0.000000
162.952881 -71.852760 8.824417 0.496971
166.772675 -109.987747 4.205969 0.822095
165.849655 -100.772797 2.886345 0.937255
166.362228 -105.890106 1.197813 0.665019
167.190445 -114.158524 -0.000048 0.229460
168.816986 -130.397171 -0.000031 0.222542
169.515305 -137.368942 -0.000023 0.255239
169.904236 -141.251831 -0.000018 0.209222
170.152542 -143.730713 -0.000014 0.219538
170.325119 -145.453629 -0.000012 0.211173
170.452255 -146.722992 -0.000010 0.195148
nan nan nan 0.000000
nan nan nan 0.000000
nan nan nan 0.000000
nan nan nan 0.000000
nan nan nan 0.000000
163.536636 -71.854874 8.819641 0.549020
167.084702 -109.957558 4.205972 0.851286
166.229431 -100.772797 2.885749 0.937255
166.214706 -100.614639 1.111653 0.352941
167.473343 -114.131180 -0.000048 0.229579
168.986481 -130.380783 -0.000031 0.226863
169.636124 -137.357269 -0.000023 0.225714
169.997940 -141.242783 -0.000018 0.206446
170.228928 -143.723343 -0.000014 0.214488
170.389465 -145.447418 -0.000012 0.244575
170.507751 -146.717636 -0.000009 0.239441
nan nan nan 0.000000
nan nan nan 0.000000
nan nan nan 0.000000
nan nan nan 0.000000
nan nan nan 0.000000
164.119598 -71.856842 8.815214 0.550729
167.396927 -109.929535 4.205974 0.876692
166.608704 -100.772812 2.885194 0.937255
166.597672 -100.644646 1.112701 0.352941
167.756424 -114.105804 -0.000048 0.234785
169.156097 -130.365585 -0.000031 0.223045
169.757004 -137.346436 -0.000023 0.232751
170.091690 -141.234375 -0.000018 0.210084
170.305359 -143.716492 -0.000014 0.242684
170.453857 -145.441635 -0.000012 0.194645
170.563263 -146.712662 -0.000010 0.220508
nan nan nan 0.000000
nan nan nan 0.000000
nan nan nan 0.000000
nan nan nan 0.000000
nan nan nan 0.000000
164.701813 -71.858643 8.811139 0.489601
167.709351 -109.903687 4.205976 0.905501
166.987534 -100.772820 2.884684 0.937255
166.977402 -100.644653 1.113213 0.352941
168.039688 -114.082413 -0.000048 0.227712
169.325806 -130.351578 -0.000031 0.220879
169.877975 -137.336441 -0.000023 0.255885
170.185501 -141.226639 -0.000018 0.263879
170.381821 -143.710175 -0.000014 0.249961
170.518280 -145.436325 -0.000012 0.205225
170.618820 -146.708069 -0.000010 0.203190
nan nan nan 0.000000
nan nan nan 0.000000
nan nan nan 0.000000
nan nan nan 0.000000
165.373947 -73.118111 11.405836 0.633005
165.283340 -71.860283 8.807413 0.521706
168.021957 -109.880135 4.205973 0.885817
167.365936 -100.772812 2.884217 0.937255
167.361603 -100.712646 1.114796 0.352941
168.323105 -114.060997 -0.000049 0.231506
169.495605 -130.338745 -0.000031 0.235192
169.998993 -137.327301 -0.000024 0.231494
170.279358 -141.219543 -0.000018 0.229328
170.458344 -143.704391 -0.000014 0.212525
170.582748 -145.431458 -0.000012 0.197075
170.674408 -146.703873 -0.000010 0.230262
nan nan nan 0.000000
nan nan nan 0.000000
nan nan nan 0.000000
nan nan nan 0.000000
166.033539 -74.465469 11.246006 0.707774
166.008194 -74.075478 8.622140 0.658579
168.334702 -109.858688 4.205974 0.921187
167.743973 -100.772812 2.883793 0.937255
167.740051 -100.712646 1.115219 0.352941
168.606659 -114.041557 -0.000049 0.224744
169.665497 -130.327103 -0.000031 0.218054
170.120087 -137.319000 -0.000024 0.232045
170.373276 -141.213104 -0.000018 0.214823
170.534897 -143.699142 -0.000014 0.256435
170.647247 -145.427032 -0.000012 0.212406
170.730011 -146.700058 -0.000010 0.189236
nan nan nan 0.000000
nan nan nan 0.000000
166.512650 -73.036018 16.878363 0.565423
166.567429 -73.980232 13.988981 0.561090
166.604767 -74.623817 11.223790 0.631846
166.601517 -74.567894 8.578850 0.633555
168.647598 -109.839447 4.205975 0.917037
168.121643 -100.772812 2.883415 0.937255
168.118149 -100.712646 1.115599 0.352941
168.890350 -114.024109 -0.000049 0.232320
169.835464 -130.316650 -0.000031 0.220005
170.241226 -137.311554 -0.000023 0.212633
170.467224 -141.207321 -0.000018 0.220424
170.611496 -143.694427 -0.000014 0.218545
170.711777 -145.423065 -0.000012 0.240805
170.785645 -146.696640 -0.000010 0.197051
nan nan nan 0.000000
167.099869 -73.342064 19.587494 0.539528
167.122665 -73.788956 16.735519 0.548272
167.144943 -74.225739 13.947954 0.594415
167.180481 -74.922440 11.185882 0.645914
167.169525 -74.707848 8.564860 0.688121
168.960617 -109.822372 4.205975 0.932570
168.499023 -100.772804 2.883079 0.937255
168.495956 -100.712646 1.115936 0.352941
169.174149 -114.008652 -0.000049 0.224134
170.005493 -130.307373 -0.000031 0.234067
170.362427 -137.304947 -0.000024 0.217504
170.561203 -141.202209 -0.000018 0.230274
170.688126 -143.690262 -0.000014 0.230728
170.776321 -145.419540 -0.000012 0.260397
170.841309 -146.693604 -0.000010 0.249243
nan nan nan 0.000000
167.663559 -73.220497 19.607943 0.549752
167.686035 -73.731163 16.741161 0.561395
167.704498 -74.150894 13.955106 0.564584
167.732834 -74.794724 11.197544 0.685389
167.726974 -74.661530 8.566483 0.677623
169.273743 -109.807526 4.205972 0.923430
168.876129 -100.772812 2.882786 0.937255
168.873489 -100.712646 1.116229 0.352941
169.458054 -113.995148 -0.000050 0.228981
170.175598 -130.299301 -0.000031 0.226228
170.483658 -137.299194 -0.000023 0.211867
170.655228 -141.197739 -0.000018 0.207942
170.764771 -143.686615 -0.000014 0.243833
170.840897 -145.416473 -0.000012 0.196740
170.896988 -146.690964 -0.000010 0.214297
nan nan nan 0.000000
nan nan nan 0.000000
nan nan nan 0.000000
168.257019 -73.866699 13.993906 0.587716
168.282684 -74.560257 11.221931 0.676310
168.277191 -74.411751 8.585121 0.706477
169.586975 -109.794899 4.205970 0.934691
169.253006 -100.772797 2.882535 0.937255
169.250778 -100.712646 1.116478 0.352941
169.742035 -113.983643 -0.000050 0.233840
170.345734 -130.292404 -0.000031 0.219538
170.604935 -137.294266 -0.000023 0.222614
170.749283 -141.193924 -0.000018 0.204758
170.841446 -143.683502 -0.000014 0.233565
170.905502 -145.413864 -0.000012 0.225415
170.952682 -146.688705 -0.000010 0.239166
nan nan nan 0.000000
nan nan nan 0.000000
nan nan nan 0.000000
nan nan nan 0.000000
168.829590 -74.127602 11.269569 0.570169
168.820404 -73.821609 8.631989 0.635081
169.900299 -109.784454 4.205968 0.771298
169.629700 -100.772812 2.882329 0.937255
169.627884 -100.712639 1.116685 0.352941
170.026108 -113.974129 -0.000050 0.231028
170.515930 -130.286697 -0.000032 0.234726
170.726242 -137.290207 -0.000024 0.223787
170.843369 -141.190765 -0.000018 0.236018
170.918137 -143.680939 -0.000015 0.192048
170.970108 -145.411697 -0.000012 0.223440
171.008392 -146.686829 -0.000010 0.211556
nan nan nan 0.000000
nan nan nan 0.000000
nan nan nan 0.000000
nan nan nan 0.000000
nan nan nan 0.000000
nan nan nan 0.000000
170.213669 -109.776154 4.205967 0.797070
170.006210 -100.772812 2.882167 0.937255
170.004837 -100.712646 1.116850 0.352941
170.310226 -113.966583 -0.000050 0.230669
170.686157 -130.282166 -0.000033 0.232476
170.847565 -137.286987 -0.000024 0.219694
170.937454 -141.188278 -0.000018 0.219167
170.994843 -143.678894 -0.000015 0.259631
171.034729 -145.409973 -0.000012 0.248178
171.064117 -146.685349 -0.000010 0.229137
171.026123 -140.847229 5.462302 0.534417
171.026123 -140.847229 4.985327 0.539879
171.026123 -140.847229 4.515050 0.525612
171.027725 -140.947006 4.035539 0.837903
171.029922 -141.083450 3.562947 0.690196
171.029907 -141.083450 3.113990 0.678431
171.029907 -141.083450 2.667439 0.690196
171.030350 -141.110626 2.221876 0.680293
171.027725 -140.947220 1.775450 0.827451
171.027725 -140.947220 1.325868 0.823987
171.027725 -140.947220 0.874838 0.827451
171.027725 -140.947220 0.421380 0.827451
171.031570 -141.186432 -0.000018 0.242960
171.071564 -143.677399 -0.000015 0.198942
171.099365 -145.408722 -0.000012 0.238184
171.119858 -146.684265 -0.000010 0.267051
171.122620 -140.847229 5.461998 0.529534
171.122620 -140.847229 4.985065 0.596338
171.122620 -140.847229 4.514829 0.646265
171.123535 -140.947388 4.035303 0.827451
171.124573 -141.061615 3.565321 0.755032
171.124527 -141.056213 3.116126 0.807843
171.124664 -141.071625 2.667961 0.735790
171.124634 -141.068558 2.222545 0.591806
171.123535 -140.947220 1.775470 0.820691
171.123535 -140.947220 1.325927 0.825391
171.123535 -140.947220 0.874936 0.827268
171.123535 -140.947220 0.421518 0.827344
171.125687 -141.185242 -0.000019 0.225259
171.148300 -143.676437 -0.000015 0.198152
171.164017 -145.407898 -0.000013 0.232344
171.175583 -146.683563 -0.000010 0.223440
171.219116 -140.847229 5.461863 0.525826
171.219116 -140.847229 4.984949 0.544793
171.219116 -140.847229 4.514731 0.542596
171.219315 -140.947693 4.035178 0.821027
171.219559 -141.062897 3.565112 0.785016
171.219559 -141.063538 3.115482 0.791333
171.219559 -141.064087 2.668305 0.735485
171.219574 -141.066727 2.222566 0.642847
171.219391 -140.980408 1.776021 0.826627
171.219391 -140.980408 1.327584 0.824659
171.219391 -140.980408 0.877701 0.827344
171.219391 -140.980408 0.425398 0.819608
171.219818 -141.184723 -0.000018 0.245748
171.225037 -143.676010 -0.000015 0.256088
171.228653 -145.407547 -0.000012 0.191019
171.231323 -146.683258 -0.000010 0.256603
171.315598 -140.847229 5.461896 0.552453
171.315598 -140.847229 4.984979 0.582742
171.315598 -140.847229 4.514756 0.631785
171.315109 -140.946579 4.035364 0.823621
171.314453 -141.080902 3.563057 0.580194
171.315109 -140.947220 3.125031 0.819608
171.315109 -140.947220 2.674053 0.827451
171.315109 -140.947220 2.224524 0.827451
171.315109 -140.947220 1.775476 0.827451
171.315109 -140.947220 1.325947 0.827451
171.315109 -140.947220 0.874969 0.815778
171.315109 -140.947220 0.421564 0.824216
171.313950 -141.184860 -0.000019 0.245856
171.301773 -143.676117 -0.000015 0.243343
171.293304 -145.407623 -0.000013 0.255933
171.287079 -146.683334 -0.000010 0.221274
171.412094 -140.847229 5.462099 0.498619
171.412094 -140.847229 4.985153 0.523033
171.412094 -140.847229 4.514902 0.549020
171.410904 -140.946976 4.035423 0.826886
171.409470 -141.068359 3.564590 0.835142
171.410904 -140.947220 3.125096 0.823301
171.410904 -140.947220 2.674092 0.826886
171.410904 -140.947220 2.224537 0.827451
171.410904 -140.947220 1.775463 0.820401
171.410904 -140.947220 1.325907 0.827451
171.410904 -140.947220 0.874903 0.833539
171.410904 -140.947220 0.421472 0.827451
171.408066 -141.185638 -0.000018 0.230836
171.378510 -143.676758 -0.000015 0.267518
171.357956 -145.408173 -0.000012 0.255993
171.342819 -146.683792 -0.000010 0.195088
171.508591 -140.847229 5.462471 0.538674
171.508591 -140.847229 4.985473 0.555581
171.508591 -140.847229 4.515172 0.482628
171.506714 -140.947327 4.035591 0.840681
171.505539 -141.009262 3.571560 0.799161
171.505890 -140.990891 3.121636 0.705577
171.505890 -140.990891 2.672019 0.695216
171.505890 -140.990891 2.223846 0.705791
171.505890 -140.990891 1.776154 0.703304
171.505890 -140.990891 1.327981 0.721325
171.505890 -140.990891 0.878364 0.712734
171.505890 -140.990891 0.426327 0.688106
171.502197 -141.187088 -0.000018 0.247220
171.455231 -143.677933 -0.000015 0.224242
171.422592 -145.409164 -0.000013 0.244563
171.398544 -146.684647 -0.000010 0.234498
171.605133 -140.847229 5.463011 0.557748
171.605133 -140.847229 4.985939 0.542916
171.605133 -140.847214 4.515565 0.492515
171.602539 -140.947586 4.035869 0.826764
171.599823 -141.052551 3.566821 0.768750
171.602158 -140.962387 3.124149 0.678431
171.602158 -140.962387 2.673525 0.678431
171.602158 -140.962387 2.224348 0.678431
171.602158 -140.962387 1.775652 0.678431
171.602158 -140.962387 1.326475 0.678431
171.602158 -140.962387 0.875851 0.678431
171.602158 -140.962387 0.422801 0.678431
171.596298 -141.189194 -0.000019 0.208743
171.531952 -143.679657 -0.000015 0.236796
171.487228 -145.410614 -0.000012 0.200498
171.454269 -146.685898 -0.000010 0.248549
171.701706 -140.847214 5.463719 0.501442
171.701706 -140.847229 4.986550 0.553765
171.701706 -140.847214 4.516081 0.530938
171.698395 -140.947830 4.036249 0.826993
171.694092 -141.079041 3.564094 0.811856
171.697922 -140.962387 3.124379 0.678431
171.697922 -140.962387 2.673663 0.678431
171.697922 -140.962387 2.224394 0.678431
171.697922 -140.962387 1.775606 0.678431
171.697922 -140.962387 1.326337 0.678431
171.697922 -140.962387 0.875620 0.678431
171.697922 -140.962372 0.422478 0.678431
171.690384 -141.191956 -0.000018 0.273418
171.608658 -143.681900 -0.000015 0.213327
171.551849 -145.412506 -0.000013 0.231949
171.509995 -146.687531 -0.000010 0.227712
171.798309 -140.847229 5.464599 0.522530
171.798309 -140.847214 4.987308 0.527367
171.798309 -140.847229 4.516718 0.550301
171.794357 -140.946732 4.036928 0.827344
171.789322 -141.073090 3.565176 0.850370
171.793732 -140.962372 3.124665 0.678431
171.793732 -140.962387 2.673834 0.678431
171.793732 -140.962387 2.224451 0.678431
171.793732 -140.962387 1.775549 0.678431
171.793732 -140.962387 1.326166 0.678431
171.793732 -140.962372 0.875335 0.678431
171.793732 -140.962387 0.422078 0.678431
171.784454 -141.195374 -0.000019 0.221585
171.685333 -143.684692 -0.000015 0.240913
171.616455 -145.414856 -0.000012 0.250691
171.565704 -146.689560 -0.000011 0.228335
171.890305 -140.947220 5.440571 0.688807
171.890305 -140.947220 4.966591 0.697566
171.890305 -140.947220 4.499265 0.733623
171.890305 -140.947052 4.037498 0.827451
171.887924 -140.997894 3.574308 0.870588
171.889587 -140.962372 3.125004 0.678431
171.889587 -140.962387 2.674037 0.678431
171.889587 -140.962387 2.224519 0.678431
171.889587 -140.962387 1.775481 0.678431
171.889587 -140.962387 1.325962 0.678431
171.889587 -140.962387 0.874995 0.678431
171.889587 -140.962387 0.421601 0.678431
171.878494 -141.199432 -0.000019 0.243546
171.762009 -143.688004 -0.000015 0.236162
171.681046 -145.417648 -0.000012 0.263772
171.621384 -146.691971 -0.000011 0.226552
171.986328 -140.947220 5.441780 0.693355
171.986328 -140.947220 4.967632 0.694118
171.986328 -140.947220 4.500142 0.722606
171.986328 -140.947311 4.038176 0.827451
171.980865 -141.048752 3.569002 0.578119
171.985519 -140.962372 3.125400 0.678431
171.985519 -140.962387 2.674274 0.678431
171.985519 -140.962387 2.224597 0.678431
171.985519 -140.962387 1.775402 0.678431
171.985519 -140.962387 1.325726 0.678431
171.985519 -140.962372 0.874600 0.678431
171.985519 -140.962387 0.421046 0.678431
171.972504 -141.204163 -0.000019 0.224481
171.838638 -143.691864 -0.000015 0.216116
171.745605 -145.420898 -0.000013 0.249602
171.677063 -146.694763 -0.000011 0.213590
172.084625 -140.911209 5.452192 0.705104
172.084625 -140.911209 4.976611 0.693172
172.082428 -140.947220 4.501142 0.666667
172.082413 -140.947510 4.038962 0.826505
172.076370 -141.046783 3.569859 0.804059
172.081512 -140.962387 3.125850 0.678431
172.081512 -140.962387 2.674544 0.678431
172.081512 -140.962387 2.224687 0.678431
172.081512 -140.962387 1.775313 0.678431
172.081512 -140.962387 1.325456 0.678431
172.081512 -140.962387 0.874150 0.678431
172.081512 -140.962387 0.420414 0.678431
172.066483 -141.209549 -0.000019 0.229364
171.915253 -143.696259 -0.000015 0.206158
171.810150 -145.424591 -0.000013 0.197865
171.732712 -146.697952 -0.000010 0.201108
172.186432 -140.831879 5.473662 0.678431
172.186447 -140.831863 4.995124 0.678431
172.178619 -140.947220 4.502265 0.707469
172.178589 -140.947678 4.039851 0.827451
172.171768 -141.048264 3.570392 0.797681
172.177582 -140.962387 3.126356 0.678431
172.177582 -140.962387 2.674847 0.678431
172.177582 -140.962387 2.224789 0.678431
172.177582 -140.962387 1.775212 0.678431
172.177582 -140.962387 1.325153 0.678431
172.177582 -140.962387 0.873644 0.678431
172.177582 -140.962387 0.419705 0.678431
172.160416 -141.215591 -0.000019 0.223907
171.991837 -143.701172 -0.000015 0.252366
171.874664 -145.428741 -0.000013 0.236114
171.788345 -146.701538 -0.000010 0.182426
172.283524 -140.831879 5.475393 0.678431
172.283524 -140.831863 4.996617 0.678431
172.274887 -140.947220 4.503511 0.712230
172.274933 -140.946564 4.041033 0.827451
172.267426 -141.047028 3.571316 0.566506
172.273758 -140.962387 3.126916 0.678431
172.273758 -140.962387 2.675183 0.678431
172.273758 -140.962387 2.224900 0.678431
172.273758 -140.962387 1.775100 0.678431
172.273758 -140.962372 1.324817 0.678431
172.273758 -140.962387 0.873083 0.678431
172.273758 -140.962387 0.418918 0.678431
172.254303 -141.222290 -0.000019 0.223679
172.068375 -143.706635 -0.000015 0.212872
171.939148 -145.433350 -0.000013 0.200402
171.843933 -146.705505 -0.000011 0.236006
172.380707 -140.831879 5.477295 0.678431
172.380707 -140.831863 4.998256 0.678431
172.371262 -140.947220 4.504882 0.679286
172.371292 -140.946823 4.042112 0.825101
172.362503 -141.054199 3.571348 0.653498
172.370026 -140.962387 3.127533 0.678431
172.370026 -140.962387 2.675552 0.678431
172.370026 -140.962387 2.225023 0.678431
172.370026 -140.962387 1.774977 0.678431
172.370026 -140.962387 1.324447 0.678431
172.370026 -140.962387 0.872466 0.678431
172.370026 -140.962372 0.418053 0.678431
172.348145 -141.229645 -0.000019 0.224457
172.144882 -143.712631 -0.000015 0.204076
172.003601 -145.438385 -0.000013 0.253395
171.899506 -146.709854 -0.000011 0.207188
172.478012 -140.831863 5.479368 0.678431
172.478012 -140.831863 5.000043 0.678431
172.467758 -140.947220 4.506374 0.654353
172.467773 -140.947037 4.043299 0.826337
172.456726 -141.071243 3.570318 0.812009
172.466400 -140.962372 3.128206 0.678431
172.466400 -140.962372 2.675955 0.678431
172.466400 -140.962387 2.225158 0.678431
172.466400 -140.962387 1.774842 0.678431
172.466400 -140.962372 1.324044 0.678431
172.466400 -140.962372 0.871794 0.678431
172.466400 -140.962372 0.417109 0.678431
172.441940 -141.237656 -0.000019 0.223308
172.221344 -143.719162 -0.000015 0.237359
172.068008 -145.443893 -0.000013 0.213160
171.955048 -146.714600 -0.000011 0.210096
172.575424 -140.831863 5.481613 0.678431
172.575424 -140.831863 5.001978 0.678431
172.564362 -140.947220 4.507992 0.590997
172.564362 -140.947189 4.044593 0.826505
172.552597 -141.069748 3.571503 0.580392
172.562897 -140.962387 3.128933 0.678431
172.562897 -140.962372 2.676391 0.678431
172.562897 -140.962387 2.225302 0.678431
172.562897 -140.962387 1.774697 0.678431
172.562897 -140.962372 1.323608 0.678431
172.562897 -140.962372 0.871066 0.678431
172.562897 -140.962387 0.416088 0.678431
172.535660 -141.246307 -0.000020 0.245102
172.297745 -143.726227 -0.000015 0.208983
172.132385 -145.449844 -0.000013 0.195842
172.010559 -146.719727 -0.000011 0.253252
172.664795 -140.911209 5.464054 0.703639
172.664795 -140.911209 4.986837 0.697887
172.664795 -140.911209 4.516322 0.700160
172.661087 -140.947311 4.045995 0.827451
172.651337 -141.041870 3.575819 0.703090
172.659531 -140.962372 3.129718 0.678431
172.659531 -140.962387 2.676861 0.678431
172.659531 -140.962387 2.225459 0.678431
172.659531 -140.962387 1.774541 0.678431
172.659531 -140.962387 1.323138 0.678431
172.659531 -140.962372 0.870282 0.678431
172.659531 -140.962387 0.414988 0.678431
172.629333 -141.255630 -0.000019 0.222961
172.374100 -143.733810 -0.000015 0.233505
172.196716 -145.456238 -0.000013 0.216941
172.066025 -146.725250 -0.000011 0.231817
172.770660 -140.831863 5.486624 0.678431
172.770660 -140.831879 5.006298 0.678431
172.757965 -140.947220 4.511602 0.583032
172.757950 -140.947403 4.047504 0.827466
172.747452 -141.042816 3.576882 0.764950
172.756302 -140.962372 3.130558 0.678431
172.756302 -140.962387 2.677365 0.678431
172.756302 -140.962387 2.225627 0.678431
172.756302 -140.962387 1.774373 0.678431
172.756302 -140.962387 1.322635 0.678431
172.756302 -140.962372 0.869441 0.678431
172.756302 -140.962372 0.413808 0.678431
172.722931 -141.265594 -0.000019 0.225355
172.450409 -143.741943 -0.000016 0.217300
172.261002 -145.463089 -0.000013 0.230046
172.121460 -146.731155 -0.000011 0.210108
172.868500 -140.831863 5.489389 0.678431
172.868500 -140.831863 5.008684 0.678431
172.854996 -140.947220 4.513594 0.548211
172.854965 -140.947449 4.049121 0.819608
172.839600 -141.078613 3.573987 0.578393
172.853210 -140.962387 3.131455 0.678431
172.853210 -140.962387 2.677902 0.678431
172.853210 -140.962387 2.225806 0.678431
172.853210 -140.962387 1.774194 0.678431
172.853210 -140.962387 1.322098 0.678431
172.853210 -140.962387 0.868544 0.678431
172.853210 -140.962372 0.412550 0.678431
172.816452 -141.276215 -0.000020 0.207571
172.526657 -143.750595 -0.000016 0.234091
172.325241 -145.470383 -0.000013 0.252773
172.176834 -146.737442 -0.000011 0.244491
172.966492 -140.831863 5.492331 0.678431
172.966492 -140.831863 5.011220 0.678431
172.956650 -140.911209 4.522315 0.685695
172.952133 -140.947479 4.050844 0.824994
172.936432 -141.074005 3.575848 0.730159
172.950287 -140.962387 3.132408 0.678431
172.950287 -140.962387 2.678473 0.678431
172.950287 -140.962387 2.225996 0.678431
172.950287 -140.962387 1.774004 0.678431
172.950287 -140.962372 1.321526 0.678431
172.950287 -140.962372 0.867591 0.678431
172.950287 -140.962372 0.411212 0.678431
172.909912 -141.287506 -0.000019 0.244623
172.602844 -143.759796 -0.000016 0.206745
172.389420 -145.478119 -0.000013 0.224828
172.232178 -146.744110 -0.000011 0.245509
173.064667 -140.831863 5.495447 0.678431
173.064667 -140.831863 5.013906 0.678431
173.054245 -140.911209 4.524566 0.684031
173.049484 -140.947464 4.052675 0.823072
173.035278 -141.055771 3.579369 0.769482
173.047531 -140.962387 3.133419 0.678431
173.047531 -140.962387 2.679079 0.678431
173.047531 -140.962372 2.226198 0.678431
173.047531 -140.962372 1.773802 0.678431
173.047531 -140.962387 1.320921 0.678431
173.047531 -140.962387 0.866581 0.678431
173.047531 -140.962372 0.409795 0.678431
173.003281 -141.299423 -0.000020 0.212106
172.678955 -143.769516 -0.000016 0.196333
172.453552 -145.486313 -0.000013 0.208708
172.287476 -146.751175 -0.000011 0.242002
173.163025 -140.831879 5.498738 0.678431
173.163025 -140.831863 5.016745 0.678431
173.152039 -140.911209 4.526943 0.660670
173.147110 -140.946823 4.054706 0.823713
173.132523 -141.052155 3.581277 0.868513
173.144958 -140.962387 3.134486 0.678431
173.144958 -140.962372 2.679718 0.678431
173.144958 -140.962387 2.226411 0.678431
173.144958 -140.962372 1.773589 0.678431
173.144958 -140.962387 1.320281 0.678431
173.144958 -140.962372 0.865513 0.678431
173.144958 -140.962372 0.408297 0.678431
173.096558 -141.312012 -0.000019 0.217229
172.755005 -143.779770 -0.000016 0.206111
172.517624 -145.494965 -0.000013 0.225678
172.342712 -146.758621 -0.000011 0.203154
173.261551 -140.831863 5.502208 0.678431
173.261551 -140.831863 5.019737 0.678431
173.250015 -140.911209 4.529449 0.692973
173.244812 -140.946930 4.056726 0.826688
173.227127 -141.068481 3.580947 0.598825
173.242569 -140.962387 3.135611 0.678431
173.242569 -140.962387 2.680392 0.678431
173.242569 -140.962372 2.226636 0.678431
173.242569 -140.962372 1.773364 0.678431
173.242569 -140.962372 1.319607 0.678431
173.242569 -140.962372 0.864388 0.678431
173.242569 -140.962372 0.406718 0.678431
173.189758 -141.325241 -0.000020 0.245281
172.830978 -143.790558 -0.000016 0.206565
172.581619 -145.504044 -0.000013 0.258027
172.397903 -146.766464 -0.000011 0.212896
173.360291 -140.831863 5.505857 0.678431
173.360306 -140.831863 5.022882 0.678431
173.348190 -140.911209 4.532083 0.696300
173.342712 -140.947021 4.058855 0.826230
173.324982 -141.063232 3.583204 0.758755
173.340378 -140.962387 3.136794 0.678431
173.340378 -140.962387 2.681101 0.678431
173.340378 -140.962372 2.226871 0.678431
173.340378 -140.962372 1.773129 0.678431
173.340378 -140.962387 1.318898 0.678431
173.340378 -140.962372 0.863205 0.678431
173.340378 -140.962372 0.405059 0.678431
173.282852 -141.339111 -0.000020 0.245353
172.906876 -143.801880 -0.000016 0.233242
172.645569 -145.513580 -0.000014 0.205967
172.453033 -146.774689 -0.000011 0.238711
173.459244 -140.831863 5.509681 0.678431
173.459244 -140.831863 5.026180 0.678431
173.446564 -140.911209 4.534847 0.696880
173.440842 -140.947083 4.061092 0.819608
173.432602 -140.998581 3.592463 0.732586
173.438385 -140.962387 3.138035 0.678431
173.438385 -140.962387 2.681844 0.678431
173.438385 -140.962372 2.227119 0.678431
173.438385 -140.962372 1.772881 0.678431
173.438385 -140.962372 1.318155 0.678431
173.438385 -140.962372 0.861964 0.678431
173.438385 -140.962372 0.403319 0.678431
173.375854 -141.353638 -0.000020 0.259344
172.982697 -143.813721 -0.000016 0.230944
172.709442 -145.523560 -0.000013 0.257812
172.508118 -146.783279 -0.000011 0.188278
173.558426 -140.831879 5.513687 0.678431
173.558426 -140.831863 5.029634 0.678431
173.545166 -140.911209 4.537740 0.709804
173.539169 -140.947144 4.063437 0.821668
173.526077 -141.025574 3.591132 0.807843
173.536621 -140.962387 3.139333 0.678431
173.536621 -140.962387 2.682623 0.678431
173.536621 -140.962372 2.227378 0.678431
173.536621 -140.962372 1.772622 0.678431
173.536621 -140.962372 1.317377 0.678431
173.536621 -140.962372 0.860665 0.678431
173.536621 -140.962372 0.401496 0.678431
173.468765 -141.368820 -0.000019 0.249518
173.058426 -143.826096 -0.000016 0.220975
172.773239 -145.533981 -0.000013 0.297437
172.563126 -146.792282 -0.000011 0.206996
173.657822 -140.831879 5.517873 0.678431
173.657822 -140.831863 5.033244 0.678431
173.644012 -140.911209 4.540764 0.690867
173.637741 -140.947174 4.065890 0.839124
173.617554 -141.063080 3.588649 0.612940
173.635086 -140.962387 3.140691 0.678431
173.635086 -140.962387 2.683436 0.678431
173.635101 -140.962372 2.227649 0.678431
173.635101 -140.962372 1.772351 0.678431
173.635101 -140.962372 1.316564 0.678431
173.635086 -140.962372 0.859308 0.678431
173.635101 -140.962372 0.399591 0.678431
173.561554 -141.384659 -0.000019 0.234151
173.134079 -143.838989 -0.000016 0.188829
172.836975 -145.544846 -0.000013 0.228347
172.618073 -146.801651 -0.000011 0.205692
173.757462 -140.831879 5.522241 0.676844
173.757477 -140.831879 5.037011 0.683253
173.743073 -140.911209 4.543919 0.654902
173.736557 -140.947205 4.068452 0.825208
173.715195 -141.064941 3.590404 0.865339
173.730957 -140.978043 3.140803 0.678203
173.730957 -140.978043 2.683503 0.697581
173.731354 -140.975891 2.227708 0.683024
173.731354 -140.975891 1.772293 0.696757
173.731354 -140.975891 1.316390 0.687556
173.731354 -140.975891 0.859018 0.704509
173.731354 -140.975891 0.399184 0.655985
173.654221 -141.401123 -0.000020 0.230704
173.209625 -143.852417 -0.000016 0.197015
172.900620 -145.556168 -0.000013 0.205297
172.672958 -146.811401 -0.000011 0.214715
173.857376 -140.831863 5.526797 0.678431
173.857376 -140.831863 5.040936 0.678431
173.842407 -140.911209 4.547207 0.678431
173.835617 -140.947220 4.071122 0.823926
173.811279 -141.076233 3.591137 0.870588
173.835617 -140.947220 3.144849 0.834867
173.835617 -140.947220 2.685927 0.824323
173.835617 -140.947220 2.228479 0.827451
173.835617 -140.947220 1.771521 0.833707
173.835617 -140.947220 1.314073 0.827451
173.835617 -140.947220 0.855152 0.827451
173.835617 -140.947220 0.393759 0.827451
173.746780 -141.418243 -0.000020 0.229256
173.285080 -143.866379 -0.000016 0.266273
172.964188 -145.567932 -0.000014 0.244803
172.727768 -146.821548 -0.000012 0.260887
173.957535 -140.831863 5.531533 0.678431
173.957535 -140.831863 5.045019 0.678431
173.941986 -140.911209 4.550628 0.691417
173.934937 -140.947235 4.073901 0.826139
173.913025 -141.059143 3.595277 0.722148
173.934937 -140.947220 3.146386 0.827451
173.934937 -140.947220 2.686847 0.824353
173.934937 -140.947220 2.228786 0.826383
173.934937 -140.947220 1.771214 0.825299
173.934937 -140.947220 1.313152 0.822751
173.934937 -140.947220 0.853614 0.824475
173.934937 -140.947220 0.391602 0.819608
173.839218 -141.436020 -0.000020 0.215254
173.360443 -143.880875 -0.000016 0.228969
173.027679 -145.580124 -0.000014 0.266165
172.782501 -146.832062 -0.000012 0.273154
174.057968 -140.831863 5.536452 0.678431
174.057968 -140.831863 5.049261 0.678431
174.041855 -140.911209 4.554182 0.695872
174.034531 -140.947235 4.076790 0.826291
174.011948 -141.058441 3.597583 0.691966
174.034531 -140.947220 3.147984 0.837613
174.034531 -140.947220 2.687805 0.834821
174.034531 -140.947220 2.229105 0.819745
174.034531 -140.947220 1.770895 0.820035
174.034531 -140.947220 1.312195 0.819852
174.034531 -140.947220 0.852016 0.827390
174.034531 -140.947220 0.389361 0.819837
173.931534 -141.454422 -0.000020 0.212035
173.435699 -143.895874 -0.000016 0.214225
173.091080 -145.592773 -0.000013 0.233014
172.837173 -146.842972 -0.000011 0.192898
174.158691 -140.831863 5.541560 0.678431
174.158691 -140.831863 5.053666 0.678431
174.141998 -140.911209 4.557870 0.691325
174.134415 -140.947250 4.079788 0.829007
174.113831 -141.045074 3.601462 0.588312
174.134415 -140.947220 3.149642 0.821576
174.134415 -140.947220 2.688798 0.826261
174.127533 -140.979965 2.228888 0.681743
174.133041 -140.953751 1.770674 0.161883
174.133041 -140.953751 1.311529 0.136950
174.128403 -140.975815 0.852755 0.541390
174.133041 -140.953751 0.387803 0.159686
174.023712 -141.473480 -0.000020 0.236916
173.510849 -143.911407 -0.000016 0.244755
173.154388 -145.605865 -0.000014 0.211017
172.891754 -146.854248 -0.000012 0.288210
174.259705 -140.831863 5.546855 0.678431
174.259705 -140.831863 5.058232 0.678431
174.242432 -140.911209 4.561695 0.686519
174.234589 -140.947266 4.082894 0.827451
174.210022 -141.060074 3.602091 0.749706
174.231293 -140.962387 3.150088 0.654902
174.231293 -140.962372 2.689066 0.654902
174.227463 -140.979965 2.229230 0.687022
174.233170 -140.953751 1.770331 0.152422
174.233170 -140.953751 1.310500 0.144976
174.233170 -140.953751 0.849188 0.141939
174.233170 -140.953751 0.385392 0.156115
174.115753 -141.493179 -0.000020 0.202305
173.585876 -143.927475 -0.000016 0.205728
173.217606 -145.619385 -0.000014 0.221310
172.946274 -146.865921 -0.000012 0.288521
174.343170 -140.911209 5.531969 0.694560
174.343170 -140.911209 5.045397 0.699733
174.343170 -140.911209 4.565656 0.684474
174.335052 -140.947296 4.086112 0.820981
174.306152 -141.075775 3.602716 0.807843
174.331665 -140.962387 3.151867 0.678431
174.331665 -140.962372 2.690132 0.678431
174.327713 -140.979950 2.229585 0.655085
174.343689 -140.908936 1.769224 0.678431
174.343689 -140.908936 1.307177 0.678431
174.343689 -140.908936 0.843641 0.678431
174.333603 -140.953751 0.382895 0.149020
174.207657 -141.513519 -0.000020 0.244360
173.660812 -143.944061 -0.000016 0.245604
173.280716 -145.633362 -0.000014 0.227880
173.000702 -146.877960 -0.000012 0.243043
174.435867 -140.947220 5.528352 0.727321
174.435867 -140.947220 5.042277 0.736278
174.435867 -140.947220 4.563028 0.738430
174.435852 -140.947327 4.089439 0.819608
174.408142 -141.066559 3.606366 0.759991
174.432343 -140.962387 3.153707 0.678431
174.432343 -140.962372 2.691234 0.678431
174.428268 -140.979965 2.229951 0.679347
174.444763 -140.908936 1.768855 0.678431
174.444763 -140.908936 1.306070 0.678431
174.444763 -140.908936 0.841794 0.678431
174.434357 -140.953751 0.380312 0.147158
174.299423 -141.534500 -0.000020 0.225056
173.735611 -143.961151 -0.000016 0.261881
173.343750 -145.647766 -0.000014 0.220364
173.055038 -146.890381 -0.000012 0.229675
174.536987 -140.947220 5.534169 0.722911
174.536987 -140.947220 5.047294 0.724102
174.536987 -140.947220 4.567255 0.703517
174.536957 -140.947388 4.092876 0.827451
174.510834 -141.056381 3.610219 0.676783
174.533356 -140.962387 3.155610 0.678431
174.533356 -140.962372 2.692374 0.678431
174.529144 -140.979965 2.230331 0.734325
174.546173 -140.908936 1.768474 0.678431
174.546173 -140.908936 1.304926 0.678431
174.546173 -140.908936 0.839884 0.678431
174.535431 -140.953751 0.377640 0.149020
174.391037 -141.556122 -0.000020 0.210718
173.810303 -143.978790 -0.000016 0.228790
173.406662 -145.662628 -0.000013 0.241571
173.109283 -146.903198 -0.000012 0.236485
174.663162 -140.847229 5.565981 0.617136
174.663162 -140.847229 5.074723 0.565103
174.663162 -140.847229 4.590363 0.570199
174.638397 -140.947449 4.096425 0.830915
174.609909 -141.062759 3.612202 0.615198
174.634705 -140.962387 3.157575 0.678431
174.634705 -140.962372 2.693552 0.678431
174.630371 -140.979965 2.230722 0.698177
174.647919 -140.908936 1.768080 0.678431
174.647919 -140.908936 1.303744 0.678431
174.647919 -140.908936 0.837911 0.678431
174.636841 -140.953751 0.374882 0.142901
174.482498 -141.578384 -0.000020 0.213495
173.884857 -143.996933 -0.000016 0.252294
173.469482 -145.677917 -0.000014 0.247818
173.163452 -146.916382 -0.000012 0.209126
174.765717 -140.847229 5.572230 0.556039
