# This PCD file was generated using the MATLAB® pcwrite function
# from Computer Vision Toolbox®.
# .PCD v.7 - Point Cloud Data file format
VERSION .7
FIELDS x y z intensity
SIZE 4 4 4 4
TYPE F F F F
COUNT 1 1 1 1
WIDTH 1180
HEIGHT 1
VIEWPOINT 0 0 0 1 0 0 0
POINTS 1180
DATA ascii
nan nan nan 0.000000
318.888428 -53.449051 -0.000026 0.231853
310.363831 -67.365295 -0.000015 0.232236
306.703918 -73.340012 -0.000010 0.223955
304.665558 -76.667603 -0.000007 0.198918
303.364258 -78.791977 -0.000005 0.197805
302.459778 -80.268494 -0.000004 0.194167
301.793427 -81.356331 -0.000004 0.199133
nan nan nan 0.000000
nan nan nan 0.000000
279.371216 -117.498405 8.286240 0.387884
279.454834 -117.363968 7.101239 0.678431
282.069092 -113.162384 5.386945 0.433753
282.561432 -112.371140 4.337634 0.452262
282.592102 -112.321823 3.397721 0.430320
282.588196 -112.328133 2.465696 0.566720
282.457397 -112.538315 1.530253 0.434760
279.494629 -117.300034 0.314239 0.729229
284.736755 -108.874977 -0.000004 0.217169
288.438263 -102.926010 -0.000002 0.216319
290.499786 -99.612747 -0.000001 0.253910
291.815887 -97.497528 -0.000000 0.216439
292.730652 -96.027367 -0.000001 0.333547
293.404602 -94.944199 0.000004 0.344030
nan nan nan 0.000000
nan nan nan 0.000000
nan nan nan 0.000000
279.113281 -117.455078 7.139609 0.593118
281.827667 -113.159714 5.401441 0.436667
281.597931 -113.523262 4.459641 0.448249
282.426514 -112.212067 3.397475 0.444541
281.888336 -113.063683 2.481977 0.422599
279.176544 -117.354973 1.434954 0.825284
279.176544 -117.354973 0.303650 0.828504
284.592499 -108.784508 -0.000005 0.220257
288.335419 -102.861526 -0.000002 0.236377
290.420044 -99.562744 -0.000001 0.253036
291.750885 -97.456757 -0.000000 0.232188
292.675873 -95.993011 0.000001 0.339834
293.357361 -94.914581 0.000005 0.314733
286.758331 -105.094292 7.038701 0.638498
286.758362 -105.094284 6.344557 0.612940
286.758362 -105.094284 5.660160 0.663264
286.758362 -105.094284 4.983869 0.597269
286.758362 -105.094284 4.314116 0.649622
286.758362 -105.094284 3.649386 0.631556
286.758331 -105.094315 2.988218 0.642298
286.758331 -105.094299 2.329170 0.585855
286.758362 -105.094276 1.670830 0.670649
286.758362 -105.094246 1.011786 0.658000
286.758392 -105.094223 0.350620 0.611933
288.233063 -102.796333 -0.000002 0.221094
290.340637 -99.512184 -0.000001 0.221800
291.686157 -97.415535 -0.000000 0.253264
292.621338 -95.958282 0.000002 0.342290
293.310364 -94.884644 0.000005 0.341421
286.758606 -104.836670 6.984478 0.649622
286.758606 -104.836670 6.297805 0.639612
286.758606 -104.836670 5.620773 0.675486
286.758606 -104.836670 4.951760 0.652293
286.758606 -104.836678 4.289214 0.630640
286.758606 -104.836678 3.631637 0.651026
286.758606 -104.836655 2.977582 0.659037
286.758606 -104.836655 2.325628 0.590295
286.758606 -104.836685 1.674372 0.687221
286.758575 -104.836708 1.022416 0.696300
286.758575 -104.836731 0.368357 0.625803
288.131134 -102.730423 -0.000002 0.215445
290.261597 -99.461067 -0.000001 0.257572
291.621735 -97.373871 -0.000000 0.206565
292.567078 -95.923172 0.000003 0.330495
293.263550 -94.854370 0.000005 0.333654
286.758667 -104.584839 6.931740 0.613092
286.758667 -104.584839 6.252334 0.669169
286.758636 -104.584839 5.582466 0.640528
286.758636 -104.584846 4.920531 0.622217
286.758636 -104.584839 4.264993 0.664363
286.758636 -104.584846 3.614375 0.645731
286.758667 -104.584824 2.967238 0.621622
286.758667 -104.584808 2.322183 0.635691
286.758667 -104.584839 1.677817 0.667750
286.758636 -104.584885 1.032758 0.618494
286.758606 -104.584923 0.385617 0.650385
288.029694 -102.663811 -0.000003 0.228957
290.182922 -99.409401 -0.000001 0.251229
291.557587 -97.331749 0.000000 0.210407
292.513031 -95.887688 0.000003 0.323247
293.216949 -94.823776 0.000005 0.326787
286.758575 -104.338432 6.880394 0.709468
286.758575 -104.338440 6.208061 0.619684
286.758575 -104.338432 5.545166 0.640009
286.758575 -104.338432 4.890124 0.654917
286.758575 -104.338440 4.241411 0.650599
286.758575 -104.338432 3.597566 0.622461
286.758606 -104.338425 2.957168 0.636881
286.758606 -104.338417 2.318828 0.611811
286.758606 -104.338417 1.681172 0.705592
286.758575 -104.338455 1.042830 0.665690
286.758545 -104.338486 0.402428 0.627253
287.928680 -102.596489 -0.000003 0.230286
290.104614 -99.357193 -0.000001 0.224361
291.493744 -97.289185 -0.000001 0.233804
292.459229 -95.851822 0.000005 0.333898
293.170563 -94.792854 0.000005 0.339406
286.758484 -104.097130 6.830352 0.636561
286.758484 -104.097130 6.164912 0.608896
286.758484 -104.097137 5.508815 0.631266
286.758484 -104.097130 4.860488 0.669017
286.758484 -104.097137 4.218428 0.620569
286.758484 -104.097130 3.581185 0.672236
286.758484 -104.097130 2.947354 0.650233
286.758484 -104.097130 2.315559 0.650034
286.758484 -104.097130 1.684441 0.641413
286.758484 -104.097137 1.052645 0.592828
286.758484 -104.097137 0.418814 0.638972
287.828186 -102.528458 -0.000002 0.217372
290.026642 -99.304436 -0.000001 0.254999
291.430176 -97.246170 -0.000000 0.223153
292.431793 -95.777344 0.010002 1.000000
293.124420 -94.761612 0.000005 0.341192
286.758453 -103.860657 6.781536 0.660304
286.758453 -103.860657 6.122820 0.618830
286.758453 -103.860657 5.473354 0.649348
286.758453 -103.860657 4.831579 0.641428
286.758453 -103.860657 4.196008 0.621653
286.758453 -103.860649 3.565205 0.658335
286.758453 -103.860649 2.937780 0.667445
286.758453 -103.860657 2.312370 0.662760
286.758453 -103.860657 1.687630 0.645991
286.758453 -103.860657 1.062220 0.648920
286.758453 -103.860641 0.434796 0.650187
287.728149 -102.459732 -0.000003 0.236509
289.949066 -99.251129 -0.000001 0.198631
291.366943 -97.202721 -0.000001 0.196057
292.378754 -95.740929 0.009999 1.000000
293.078461 -94.730049 0.000005 0.324178
286.748474 -103.643021 6.738246 0.776471
286.748474 -103.643021 6.085495 0.776471
286.748474 -103.643013 5.441907 0.776471
286.748474 -103.643021 4.805944 0.776471
286.748474 -103.643013 4.176127 0.776471
286.748474 -103.643021 3.551034 0.807843
286.841125 -103.511147 2.921373 0.726329
286.748474 -103.643013 2.309542 0.776471
286.748474 -103.643013 1.690458 0.776471
286.748474 -103.643013 1.070710 0.776471
286.748474 -103.643021 0.448964 0.779644
287.628601 -102.390305 -0.000003 0.230956
289.871857 -99.197289 -0.000002 0.209043
291.303986 -97.158829 -0.000001 0.234079
292.325989 -95.704124 0.010002 1.000000
293.032745 -94.698166 0.000004 0.343633
286.693970 -103.492012 6.715261 0.678431
286.748474 -103.415558 6.045396 0.796078
286.693970 -103.492012 5.425212 0.678431
286.693970 -103.492012 4.792333 0.678431
286.693970 -103.492012 4.165570 0.678431
286.748474 -103.415558 3.535811 0.776944
286.833954 -103.295692 2.912937 0.699138
286.693970 -103.492012 2.308040 0.678431
286.693970 -103.492012 1.691959 0.678431
286.693970 -103.492012 1.075217 0.678431
286.748474 -103.415558 0.464188 0.796078
287.529510 -102.320190 -0.000003 0.233804
289.795013 -99.142914 -0.000002 0.217851
291.241364 -97.114494 -0.000001 0.185430
292.246643 -95.704636 0.000008 0.334188
292.987244 -94.665962 0.000004 0.339117
286.693970 -103.267830 6.669654 0.678431
286.748474 -103.192505 6.006269 0.794720
286.693970 -103.267838 5.392083 0.678431
286.693970 -103.267838 4.765326 0.678431
286.693970 -103.267838 4.144625 0.678431
286.748474 -103.192505 3.520957 0.793133
286.759583 -103.177139 2.910338 0.793210
286.693970 -103.267838 2.305061 0.678431
286.693970 -103.267838 1.694939 0.678431
286.693970 -103.267838 1.084162 0.678431
286.748474 -103.192505 0.479042 0.794934
287.430939 -102.249382 -0.000003 0.233565
289.718567 -99.087997 -0.000002 0.216439
291.179016 -97.069725 -0.000001 0.269756
292.194122 -95.666924 0.000008 0.343603
292.941956 -94.633438 0.000004 0.337560
286.693970 -103.047943 6.625144 0.678431
286.844086 -102.843521 5.933199 0.693645
286.693970 -103.047943 5.359750 0.678431
286.693970 -103.047951 4.738967 0.678431
286.693970 -103.047943 4.124183 0.678431
286.748474 -102.973717 3.506460 0.795712
286.751312 -102.969864 2.902349 0.779263
286.693970 -103.047943 2.302153 0.678431
286.693970 -103.047943 1.697847 0.678431
286.693970 -103.047943 1.092892 0.678431
286.748474 -102.973717 0.493539 0.798444
287.332855 -102.177887 -0.000003 0.214033
289.642517 -99.032547 -0.000002 0.201275
291.117035 -97.024521 -0.000000 0.192587
292.141876 -95.628845 0.000008 0.346990
292.896912 -94.600609 0.000004 0.331151
286.693970 -102.832191 6.581696 0.678431
286.844055 -102.630760 5.896255 0.710460
286.693970 -102.832199 5.328190 0.678431
286.693970 -102.832199 4.713238 0.678431
286.693970 -102.832199 4.104228 0.678431
286.748474 -102.759048 3.492309 0.776471
286.743195 -102.766129 2.894539 0.804623
286.693970 -102.832199 2.299315 0.678431
286.693970 -102.832199 1.700685 0.678431
286.693970 -102.832199 1.101413 0.678431
286.748474 -102.759048 0.507690 0.806561
287.235291 -102.105705 -0.000003 0.230884
289.566833 -98.976578 -0.000002 0.200749
291.055328 -96.978889 -0.000001 0.224505
292.089874 -95.590424 -0.000000 0.224481
292.852112 -94.567459 0.000004 0.339803
286.693970 -102.620453 6.539278 0.678431
286.844116 -102.421860 5.860165 0.701045
286.693970 -102.620453 5.297375 0.678431
286.693970 -102.620461 4.688116 0.678431
286.693970 -102.620453 4.084746 0.678431
286.748474 -102.548363 3.478493 0.785580
286.748474 -102.548355 2.885827 0.776471
286.693970 -102.620461 2.296544 0.678431
286.693970 -102.620461 1.703456 0.678431
286.693970 -102.620461 1.109732 0.678431
286.748474 -102.548363 0.521506 0.784176
287.138214 -102.032852 -0.000003 0.213985
289.491547 -98.920074 -0.000002 0.249662
290.993958 -96.932831 -0.000001 0.262144
292.038177 -95.551620 -0.000001 0.214668
292.807526 -94.533997 0.000004 0.324819
286.693970 -102.412590 6.497852 0.678431
286.844208 -102.216736 5.824908 0.687449
286.693970 -102.412590 5.267283 0.678431
286.693970 -102.412590 4.663586 0.678431
286.693970 -102.412590 4.065722 0.678431
286.748474 -102.341537 3.465001 0.792737
286.748474 -102.341522 2.877743 0.781521
286.693970 -102.412590 2.293837 0.678431
286.693970 -102.412590 1.706162 0.678431
286.693970 -102.412590 1.117857 0.678431
286.748474 -102.341537 0.534999 0.807843
287.041656 -101.959320 -0.000004 0.224338
289.416656 -98.863045 -0.000002 0.250858
290.932892 -96.886337 -0.000001 0.224565
291.986755 -95.512451 -0.000000 0.207164
292.763184 -94.500229 0.000005 0.332937
286.693970 -102.208466 6.457392 0.678431
286.844147 -102.015488 5.790519 0.701381
286.693970 -102.208466 5.237891 0.678431
286.693970 -102.208466 4.639625 0.678431
286.693970 -102.208466 4.047139 0.678431
286.748474 -102.138435 3.451823 0.786313
286.748474 -102.138428 2.869848 0.787381
286.693970 -102.208473 2.291194 0.678431
286.693970 -102.208473 1.708806 0.678431
286.693970 -102.208466 1.125792 0.678431
286.748474 -102.138435 0.548177 0.767010
286.945618 -101.885117 -0.000003 0.251792
289.342194 -98.805496 -0.000002 0.209043
290.872192 -96.839424 -0.000001 0.235252
291.935577 -95.472931 -0.000000 0.213219
292.719086 -94.466148 0.000004 0.348104
286.748474 -101.938950 6.395835 0.776471
286.844177 -101.817726 5.756898 0.700526
286.693970 -102.007973 5.209180 0.678431
286.693970 -102.007980 4.616218 0.678431
286.693970 -102.007980 4.028986 0.678431
286.748474 -101.938957 3.438949 0.784314
286.748474 -101.938942 2.862134 0.776471
286.693970 -102.007980 2.288612 0.678431
286.693970 -102.007980 1.711388 0.678431
286.693970 -102.007980 1.133544 0.678431
286.748474 -101.938957 0.561050 0.791165
286.850098 -101.810242 -0.000004 0.209390
289.268097 -98.747429 -0.000002 0.233349
290.811798 -96.792084 -0.000001 0.230525
291.884705 -95.433044 -0.000000 0.233361
292.675201 -94.431763 0.000004 0.350225
286.758423 -101.730530 6.353422 0.609842
286.844299 -101.623299 5.724012 0.725658
286.758423 -101.730530 5.162367 0.597345
286.758423 -101.730530 4.578054 0.620584
286.758423 -101.730530 3.999388 0.641321
286.758423 -101.730530 3.425065 0.663951
286.758423 -101.730530 2.853817 0.663127
286.758423 -101.730530 2.284402 0.672114
286.758423 -101.730530 1.715598 0.621195
286.758423 -101.730522 1.146184 0.600351
286.758453 -101.730492 0.574939 0.631266
286.758514 -101.730431 0.000626 0.644312
289.194427 -98.688843 -0.000002 0.225044
290.751709 -96.744324 -0.000002 0.224673
291.834106 -95.392815 -0.000001 0.230800
292.631561 -94.397064 0.000004 0.323827
286.857819 -101.415741 6.276415 0.647059
286.843933 -101.432861 5.692049 0.709163
286.758545 -101.537956 5.135080 0.646571
286.758545 -101.537956 4.555810 0.668452
286.857758 -101.415848 3.964037 0.647059
286.857819 -101.415756 3.399859 0.647059
286.758545 -101.537956 2.846449 0.654765
286.758545 -101.537964 2.281949 0.614115
286.758514 -101.537979 1.718051 0.626566
286.857605 -101.416031 1.161268 0.647059
286.857391 -101.416275 0.600086 0.636164
286.758484 -101.538033 0.017852 0.679500
289.121155 -98.629745 -0.000002 0.224888
290.691986 -96.696152 -0.000001 0.259056
291.783783 -95.352226 -0.000001 0.217253
292.588196 -94.362068 0.000004 0.338476
286.666260 -101.460800 6.315536 0.653590
286.791565 -101.308739 5.678461 0.692744
286.666290 -101.460777 5.134843 0.630716
286.666260 -101.460785 4.555617 0.621820
286.666260 -101.460793 3.981988 0.653529
286.666260 -101.460793 3.412663 0.636683
286.666290 -101.460770 2.846384 0.702785
286.666290 -101.460777 2.281927 0.633600
286.666260 -101.460785 1.718073 0.634974
286.666260 -101.460793 1.153614 0.615030
286.666260 -101.460800 0.587336 0.623148
286.758453 -101.348938 0.034686 0.683146
289.048309 -98.570137 -0.000002 0.245580
290.632599 -96.647552 -0.000001 0.232667
291.733765 -95.311287 -0.000000 0.258302
292.545044 -94.326775 0.000004 0.310460
286.807709 -101.104019 6.224137 0.640665
286.725494 -101.202377 5.669898 0.795392
286.509430 -101.460869 5.153080 0.641718
286.509430 -101.460869 4.570484 0.643656
286.807709 -101.104019 3.940012 0.648554
286.807709 -101.104019 3.382745 0.498527
286.509460 -101.460854 2.851308 0.640848
286.509430 -101.460869 2.283567 0.619745
286.509460 -101.460869 1.716433 0.618662
286.807709 -101.104019 1.171539 0.648402
286.807709 -101.104019 0.617255 0.540673
286.758514 -101.162880 0.051162 0.627146
288.975861 -98.510025 -0.000002 0.221860
290.573547 -96.598549 -0.000002 0.202795
291.684021 -95.270004 -0.000001 0.203418
292.502136 -94.291176 0.000003 0.346944
286.832184 -100.893097 6.179772 0.567803
286.666290 -101.088783 5.659366 0.777173
286.350098 -101.461746 5.171874 0.623346
286.350067 -101.461777 4.585811 0.632853
286.832184 -100.893105 3.919638 0.654032
286.832184 -100.893105 3.368222 0.491402
286.350098 -101.461761 2.856384 0.680140
286.350098 -101.461754 2.285257 0.640681
286.350067 -101.461769 1.714742 0.627680
286.832184 -100.893105 1.180240 0.660822
286.832184 -100.893105 0.631777 0.551095
286.758423 -100.980103 0.067241 0.660899
288.903870 -98.449409 -0.000002 0.233577
290.514862 -96.549133 -0.000002 0.211915
291.634552 -95.228363 -0.000001 0.185526
292.485321 -94.224815 0.010007 1.000000
286.790222 -100.763229 6.161859 0.527153
286.576355 -101.011948 5.659355 0.786450
286.189331 -101.462082 5.190916 0.625315
286.189270 -101.462120 4.601336 0.656535
286.790222 -100.763237 3.911411 0.632944
286.858093 -100.684303 3.353823 0.676081
286.189270 -101.462120 2.861527 0.644358
286.189301 -101.462082 2.286970 0.624537
286.189270 -101.462120 1.713029 0.644709
286.790192 -100.763237 1.183753 0.636469
286.790192 -100.763237 0.637641 0.557092
286.758453 -100.800156 0.082989 0.634195
288.832275 -98.388290 -0.000002 0.246215
290.456482 -96.499306 -0.000002 0.212190
291.585388 -95.186394 -0.000001 0.201982
292.443146 -94.188812 0.010005 1.000000
286.858185 -100.508781 6.102528 0.647257
286.487091 -100.934326 5.659302 0.769772
286.026489 -101.462532 5.210375 0.640986
286.026428 -101.462570 4.617199 0.661860
286.831268 -100.539673 3.888876 0.648539
286.858582 -100.508362 3.342890 0.666453
286.026428 -101.462601 2.866783 0.659556
286.026459 -101.462540 2.288720 0.621347
286.026428 -101.462578 1.711280 0.646220
286.831268 -100.539673 1.193377 0.647059
286.831268 -100.539673 0.653702 0.581552
286.758484 -100.623116 0.098387 0.650263
288.761108 -98.326675 -0.000003 0.267206
290.398468 -96.449074 -0.000002 0.240063
291.536499 -95.144073 -0.000001 0.252426
292.401215 -94.152512 0.010002 1.000000
286.858490 -100.335869 6.069936 0.654658
286.398254 -100.856239 5.659292 0.801862
285.861572 -101.463058 5.230247 0.643809
285.861542 -101.463097 4.633399 0.640452
285.861511 -101.463135 4.042317 0.710643
286.858276 -100.336105 3.332293 0.647059
285.861481 -101.463165 2.872150 0.638636
285.861572 -101.463066 2.290507 0.642313
285.861542 -101.463104 1.709492 0.657038
285.861511 -101.463150 1.127851 0.635264
285.861481 -101.463173 0.544334 0.656474
286.758514 -100.448914 0.113446 0.644327
288.690399 -98.264565 -0.000003 0.217803
290.340820 -96.398438 -0.000002 0.213638
291.487946 -95.101410 -0.000001 0.260636
292.359528 -94.115921 0.009999 1.000000
286.857971 -100.166565 6.038354 0.663462
286.310089 -100.777390 5.659238 0.783246
285.748169 -101.403870 5.235927 0.752941
285.748169 -101.403870 4.638022 0.736370
286.829590 -100.198196 3.859576 0.657069
286.858215 -100.166275 3.321897 0.641932
285.748169 -101.403877 2.873677 0.747936
285.748169 -101.403870 2.291017 0.730755
285.748169 -101.403870 1.708982 0.703670
286.829590 -100.198196 1.205889 0.647486
286.829590 -100.198196 0.674586 0.619287
286.758484 -100.277473 0.128172 0.629206
288.620087 -98.201958 -0.000003 0.212884
290.283508 -96.347404 -0.000002 0.238196
291.439667 -95.058418 -0.000001 0.228861
292.318115 -94.079033 0.009998 1.000000
286.776215 -100.089188 6.037697 0.665690
286.222015 -100.698425 5.659333 0.788647
285.641907 -101.336189 5.239750 0.723812
285.602417 -101.379608 4.649845 0.748501
286.776184 -100.089188 3.854388 0.637415
286.776184 -100.089195 3.321716 0.624537
285.748169 -101.219360 2.866951 0.776471
285.602417 -101.379608 2.292322 0.699794
285.602417 -101.379608 1.707678 0.736889
286.776215 -100.089180 1.208105 0.635111
286.776184 -100.089195 0.678284 0.638972
286.758423 -100.108711 0.142576 0.617121
288.550232 -98.138863 -0.000003 0.233074
290.226563 -96.295967 -0.000002 0.224062
291.391693 -95.015083 -0.000001 0.239872
292.250092 -94.071373 0.000003 0.332372
286.757904 -99.943062 6.013806 0.656352
286.757874 -99.943085 5.460862 0.653132
286.757874 -99.943077 4.915671 0.635645
286.757874 -99.943069 4.376939 0.608743
286.757904 -99.943062 3.843414 0.675441
286.757874 -99.943069 3.313894 0.656443
286.757904 -99.943054 2.787209 0.635554
286.758026 -99.942902 2.262212 0.626505
286.758179 -99.942757 1.737791 0.616678
286.758240 -99.942696 1.212815 0.651408
286.758240 -99.942696 0.686147 0.624903
286.758362 -99.942558 0.156665 0.629557
288.480835 -98.075279 -0.000002 0.236126
290.169983 -96.244133 -0.000002 0.259559
291.344025 -94.971413 -0.000001 0.244312
292.208984 -94.033722 0.000003 0.330877
286.752441 -99.785141 5.985754 0.773587
286.752441 -99.785141 5.436668 0.805920
286.752441 -99.785141 4.895291 0.784268
286.752441 -99.785141 4.360327 0.773236
286.752441 -99.785141 3.830531 0.795987
286.752441 -99.785141 3.304711 0.779141
286.752441 -99.785141 2.781708 0.776471
286.752441 -99.785141 2.260383 0.785504
286.752441 -99.785141 1.739617 0.771740
286.752441 -99.785141 1.218292 0.776471
286.752441 -99.785141 0.695288 0.776471
286.758514 -99.778648 0.170492 0.614404
288.411865 -98.011223 -0.000003 0.238376
290.113770 -96.191910 -0.000002 0.216917
291.296661 -94.927414 -0.000001 0.211556
292.168152 -93.995789 0.000003 0.335210
286.844055 -99.527161 5.922982 0.697017
286.702728 -99.676117 5.426888 0.122332
286.702728 -99.676125 4.887053 0.111910
286.702728 -99.676125 4.353609 0.129763
286.702728 -99.676117 3.825322 0.123247
286.748474 -99.627899 3.295549 0.795254
286.702728 -99.676125 2.779483 0.129412
286.702728 -99.676125 2.259642 0.113832
286.702728 -99.676125 1.740358 0.140368
286.702728 -99.676117 1.220517 0.128679
286.748474 -99.627899 0.704451 0.796078
286.758362 -99.617477 0.183977 0.636286
288.343353 -97.946678 -0.000003 0.240745
290.057922 -96.139290 -0.000002 0.221788
291.249603 -94.883087 -0.000001 0.247376
292.127563 -93.957581 -0.000001 0.206374
286.844299 -99.369186 5.894326 0.682719
286.693970 -99.525452 5.404665 0.678431
286.693970 -99.525452 4.868330 0.678431
286.693970 -99.525452 4.338346 0.678431
286.693970 -99.525452 3.813485 0.678431
286.748474 -99.468788 3.286115 0.790890
286.693970 -99.525452 2.774428 0.678431
286.693970 -99.525452 2.257959 0.678431
286.693970 -99.525452 1.742042 0.678431
286.693970 -99.525452 1.225572 0.678431
286.748474 -99.468788 0.713885 0.789868
286.758453 -99.458412 0.197217 0.659251
288.275299 -97.881660 -0.000003 0.237706
290.002441 -96.086281 -0.000002 0.254544
291.202850 -94.838432 -0.000001 0.218521
292.087250 -93.919075 -0.000001 0.236760
286.844147 -99.213913 5.866417 0.713359
286.693970 -99.367851 5.380216 0.678431
286.693970 -99.367851 4.847733 0.678431
286.693970 -99.367851 4.321555 0.678431
286.693970 -99.367851 3.800463 0.678431
286.748474 -99.311974 3.276879 0.783719
286.693970 -99.367851 2.768867 0.678431
286.693970 -99.367851 2.256106 0.678431
286.693970 -99.367851 1.743894 0.678431
286.693970 -99.367851 1.231133 0.678431
286.748474 -99.311974 0.723120 0.791119
286.758545 -99.301659 0.210175 0.679591
288.207672 -97.816162 -0.000003 0.222770
289.947327 -96.032890 -0.000002 0.225115
291.156403 -94.793449 -0.000002 0.202879
292.047241 -93.880287 -0.000001 0.255765
286.844208 -99.060623 5.839012 0.721782
286.693970 -99.212486 5.356280 0.678431
286.693970 -99.212486 4.827566 0.678431
286.693970 -99.212486 4.305114 0.678431
286.693970 -99.212486 3.787712 0.678431
286.748474 -99.157387 3.267837 0.799344
286.693970 -99.212486 2.763422 0.678431
286.693970 -99.212486 2.254292 0.678431
286.693970 -99.212486 1.745708 0.678431
286.693970 -99.212486 1.236578 0.678431
286.748474 -99.157387 0.732162 0.794095
286.758606 -99.147163 0.222859 0.678965
288.140533 -97.750198 -0.000003 0.265555
289.892578 -95.979111 -0.000002 0.254090
291.110291 -94.748146 -0.000002 0.231434
292.007477 -93.841225 -0.000001 0.263042
286.844177 -98.909576 5.812213 0.724330
286.693970 -99.059303 5.332840 0.678431
286.693970 -99.059303 4.807818 0.678431
286.693970 -99.059303 4.289016 0.678431
286.693970 -99.059303 3.775227 0.678431
286.748474 -99.004967 3.258984 0.807843
286.693970 -99.059303 2.758091 0.678431
286.693970 -99.059303 2.252517 0.678431
286.693970 -99.059303 1.747484 0.678431
286.693970 -99.059303 1.241909 0.678431
286.748474 -99.004967 0.741017 0.796078
286.758636 -98.994858 0.235275 0.621271
288.073853 -97.683769 -0.000003 0.194274
289.838196 -95.924957 -0.000002 0.188697
291.064484 -94.702522 -0.000002 0.205081
291.967987 -93.801888 -0.000001 0.241703
286.844147 -98.760628 5.785974 0.705226
286.693970 -98.908234 5.309886 0.678431
286.693970 -98.908234 4.788481 0.678431
286.693970 -98.908234 4.273251 0.678431
286.693970 -98.908234 3.763001 0.678431
286.748474 -98.854652 3.250312 0.799313
286.693970 -98.908234 2.752869 0.678431
286.693970 -98.908234 2.250777 0.678431
286.693970 -98.908234 1.749223 0.678431
286.693970 -98.908234 1.247130 0.678431
286.748474 -98.854652 0.749688 0.779660
286.758636 -98.844681 0.247428 0.650339
288.007629 -97.616875 -0.000003 0.230058
289.784210 -95.870422 -0.000002 0.242325
291.019012 -94.656578 -0.000002 0.236126
291.928772 -93.762268 -0.000001 0.212262
286.844269 -98.613533 5.760210 0.700023
286.693970 -98.759232 5.287406 0.678431
286.693970 -98.759232 4.769542 0.678431
286.693970 -98.759232 4.257812 0.678431
286.693970 -98.759232 3.751027 0.678431
286.748474 -98.706390 3.241820 0.786145
286.693970 -98.759232 2.747756 0.678431
286.693970 -98.759232 2.249074 0.678431
286.693970 -98.759232 1.750926 0.678431
286.693970 -98.759232 1.252244 0.678431
286.748474 -98.706390 0.758180 0.807843
286.758606 -98.696594 0.259326 0.651469
287.941864 -97.549522 -0.000003 0.240398
289.730621 -95.815514 -0.000002 0.285027
290.973846 -94.610321 -0.000002 0.206637
291.889832 -93.722382 -0.000001 0.276960
286.844177 -98.468643 5.735059 0.676982
286.693970 -98.612228 5.265386 0.678431
286.693970 -98.612228 4.750990 0.678431
286.693970 -98.612221 4.242687 0.678431
286.693970 -98.612221 3.739298 0.678431
286.748474 -98.560120 3.233502 0.784207
286.693970 -98.612228 2.742747 0.678431
286.693970 -98.612228 2.247406 0.678431
286.693970 -98.612228 1.752594 0.678431
286.693970 -98.612221 1.257252 0.678431
286.748474 -98.560120 0.766498 0.770642
286.758453 -98.550591 0.270964 0.643687
287.876587 -97.481705 -0.000004 0.209186
289.677399 -95.760231 -0.000002 0.234630
290.929016 -94.563744 -0.000002 0.252414
291.851166 -93.682220 -0.000001 0.215517
286.844025 -98.325729 5.710441 0.684245
286.693970 -98.467171 5.243816 0.678431
286.693970 -98.467171 4.732820 0.678431
286.693970 -98.467171 4.227874 0.678431
286.693970 -98.467171 3.727808 0.678431
286.748474 -98.415787 3.225354 0.796353
286.693970 -98.467171 2.737841 0.678431
286.693970 -98.467171 2.245772 0.678431
286.693970 -98.467171 1.754229 0.678431
286.693970 -98.467171 1.262159 0.678431
286.748505 -98.415787 0.774645 0.778378
286.758484 -98.406357 0.282391 0.668696
287.811798 -97.413437 -0.000003 0.219993
289.624573 -95.704575 -0.000002 0.209856
290.884521 -94.516861 -0.000002 0.242529
291.812775 -93.641800 -0.000001 0.220233
286.839142 -98.189064 5.687935 0.712474
286.693970 -98.324013 5.222686 0.678431
286.693970 -98.324013 4.715017 0.678431
286.693970 -98.324013 4.213361 0.678431
286.693970 -98.324005 3.716554 0.678431
286.748474 -98.273346 3.217372 0.796078
286.693970 -98.324013 2.733035 0.678431
286.693970 -98.324013 2.244170 0.678431
286.693970 -98.324013 1.755830 0.678431
286.693970 -98.324013 1.266965 0.678431
286.748474 -98.273346 0.782627 0.773968
286.758423 -98.264114 0.293567 0.684215
287.747467 -97.344719 -0.000003 0.283351
289.572113 -95.648560 -0.000002 0.242900
290.840332 -94.469658 -0.000001 0.252414
291.774689 -93.601105 -0.000002 0.200270
286.796692 -98.088554 5.678675 0.719249
286.693970 -98.182701 5.201984 0.678431
286.693970 -98.182701 4.697576 0.678431
286.693970 -98.182701 4.199143 0.678431
286.693970 -98.182701 3.705527 0.678431
286.748474 -98.132736 3.209552 0.782132
286.693970 -98.182701 2.728326 0.678431
286.693970 -98.182701 2.242602 0.678431
286.693970 -98.182701 1.757398 0.678431
286.693970 -98.182701 1.271674 0.678431
286.748474 -98.132736 0.790447 0.722042
286.758484 -98.123581 0.304538 0.669886
287.683624 -97.275558 -0.000004 0.222064
289.520081 -95.592171 -0.000002 0.253072
290.796478 -94.422157 -0.000002 0.210778
291.736877 -93.560143 -0.000002 0.231458
286.749878 -97.992661 5.671176 0.776471
286.693970 -98.043182 5.181701 0.678431
286.693970 -98.043182 4.680489 0.678431
286.693970 -98.043182 4.185212 0.678431
286.694000 -98.043182 3.694723 0.678431
286.747925 -97.994415 3.201951 0.807843
286.694000 -98.043182 2.723712 0.678431
286.694000 -98.043182 2.241065 0.678431
286.694000 -98.043182 1.758935 0.678431
286.694000 -98.043182 1.276288 0.678431
286.748474 -97.993919 0.798110 0.686595
286.758423 -97.984940 0.315270 0.658991
287.620239 -97.205948 -0.000004 0.194238
289.468414 -95.535423 -0.000003 0.246717
290.752960 -94.374352 -0.000002 0.227760
291.699341 -93.518921 -0.000002 0.236353
286.758484 -97.847939 5.645358 0.622690
286.758484 -97.847939 5.143166 0.676204
286.758484 -97.847939 4.648025 0.635340
286.758484 -97.847939 4.158747 0.611429
286.758484 -97.847939 3.674198 0.683726
286.758484 -97.847939 3.193285 0.621698
286.758484 -97.847939 2.714947 0.651576
286.758484 -97.847939 2.238146 0.623529
286.758484 -97.847939 1.761854 0.638331
286.758484 -97.847939 1.285053 0.644755
286.758484 -97.847939 0.806715 0.619532
286.758484 -97.847923 0.325804 0.618357
287.557373 -97.135895 -0.000003 0.219311
289.417175 -95.478317 -0.000002 0.227689
290.709778 -94.326241 -0.000002 0.246813
291.662109 -93.477440 -0.000001 0.205907
286.758453 -97.712692 5.622909 0.641154
286.758484 -97.712692 5.123808 0.660243
286.758453 -97.712692 4.631717 0.642374
286.758484 -97.712692 4.145452 0.620493
286.758453 -97.712692 3.663888 0.652583
286.758484 -97.712692 3.185936 0.633555
286.758484 -97.712692 2.710544 0.630335
286.758484 -97.712685 2.236679 0.627848
286.758484 -97.712685 1.763321 0.648676
286.758484 -97.712685 1.289456 0.631022
286.758484 -97.712685 0.814064 0.657313
286.758453 -97.712692 0.336112 0.644938
287.494995 -97.065407 -0.000003 0.223823
289.366302 -95.420853 -0.000002 0.199971
290.666931 -94.277832 -0.000002 0.195507
291.625183 -93.435699 -0.000001 0.210670
286.758423 -97.579109 5.600915 0.673243
286.758423 -97.579109 5.104844 0.642176
286.758423 -97.579109 4.615740 0.627482
286.758423 -97.579109 4.132427 0.657511
286.758423 -97.579109 3.653786 0.659983
286.758423 -97.579117 3.178737 0.623026
286.758423 -97.579109 2.706231 0.640970
286.758453 -97.579102 2.235242 0.648280
286.758453 -97.579102 1.764758 0.652476
286.758453 -97.579102 1.293770 0.706767
286.758453 -97.579102 0.821264 0.634928
286.758453 -97.579102 0.346216 0.653696
287.433105 -96.994492 -0.000004 0.229101
289.315857 -95.363037 -0.000003 0.252187
290.624420 -94.229118 -0.000002 0.215816
291.588531 -93.393700 -0.000001 0.188602
286.758575 -97.446999 5.579308 0.678782
286.758575 -97.446999 5.086214 0.609003
286.758575 -97.446999 4.600043 0.654078
286.758575 -97.446999 4.119631 0.682033
286.758575 -97.446999 3.643862 0.646494
286.758575 -97.446999 3.171663 0.624170
286.758575 -97.446999 2.701993 0.629969
286.758545 -97.447014 2.233831 0.692012
286.758545 -97.447021 1.766169 0.664714
286.758545 -97.447021 1.298005 0.681010
286.758545 -97.447021 0.828333 0.681437
286.758545 -97.447021 0.356134 0.639139
287.371704 -96.923141 -0.000004 0.202269
289.265808 -95.304871 -0.000003 0.222674
290.582275 -94.180115 -0.000002 0.231111
291.552185 -93.351448 -0.000002 0.230094
286.758575 -97.316559 5.558169 0.655909
286.758575 -97.316559 5.067988 0.625269
286.758575 -97.316559 4.584688 0.669612
286.758575 -97.316559 4.107113 0.671397
286.758575 -97.316559 3.634154 0.639246
286.758575 -97.316559 3.164743 0.607324
286.758575 -97.316559 2.697847 0.620905
286.758545 -97.316574 2.232450 0.645609
286.758545 -97.316582 1.767550 0.669795
286.758545 -97.316589 1.302151 0.647807
286.758545 -97.316589 0.835252 0.662486
286.758545 -97.316582 0.365841 0.609506
287.310822 -96.851364 -0.000004 0.189547
289.216156 -95.246353 -0.000003 0.243103
290.540436 -94.130814 -0.000002 0.248094
291.516113 -93.308937 -0.000002 0.239034
286.758575 -97.187637 5.537446 0.626581
286.758575 -97.187637 5.050119 0.689250
286.758575 -97.187637 4.569635 0.676860
286.758575 -97.187637 4.094842 0.625986
286.758575 -97.187637 3.624637 0.626398
286.758575 -97.187630 3.157960 0.613642
286.758606 -97.187630 2.693783 0.620096
286.758575 -97.187645 2.231096 0.614435
286.758575 -97.187653 1.768904 0.619715
286.758545 -97.187668 1.306215 0.664637
286.758545 -97.187668 0.842035 0.655665
286.758545 -97.187660 0.375358 0.677516
287.250427 -96.779160 -0.000004 0.229029
289.166931 -95.187492 -0.000003 0.198978
290.498962 -94.081230 -0.000002 0.226264
291.480347 -93.266182 -0.000002 0.196883
286.758636 -97.060181 5.517127 0.595331
286.758636 -97.060181 5.032599 0.694652
286.758636 -97.060181 4.554875 0.642771
286.758636 -97.060181 4.082808 0.612665
286.758636 -97.060181 3.615304 0.631022
286.758636 -97.060173 3.151309 0.587243
286.758636 -97.060173 2.689797 0.624216
286.758606 -97.060188 2.229768 0.614847
286.758606 -97.060204 1.770231 0.646113
286.758575 -97.060219 1.310199 0.617014
286.758575 -97.060219 0.848686 0.676646
286.758575 -97.060219 0.384688 0.619928
287.190552 -96.706535 -0.000004 0.261031
289.118103 -95.128288 -0.000003 0.213710
290.457825 -94.031349 -0.000002 0.205787
291.444885 -93.223175 -0.000002 0.219933
286.758331 -96.934448 5.497319 0.664576
286.758331 -96.934448 5.015520 0.652857
286.758331 -96.934448 4.540486 0.663996
286.758331 -96.934448 4.071078 0.655604
286.758331 -96.934448 3.606207 0.624399
286.758331 -96.934456 3.144825 0.627619
286.758301 -96.934456 2.685913 0.649226
286.758331 -96.934448 2.228474 0.646922
286.758362 -96.934433 1.771526 0.654398
286.758362 -96.934410 1.314090 0.610834
286.758392 -96.934402 0.855181 0.659922
286.758392 -96.934402 0.393800 0.669429
287.131165 -96.633499 -0.000004 0.221513
289.069702 -95.068748 -0.000003 0.269887
290.417053 -93.981186 -0.000002 0.224182
291.409729 -93.179924 -0.000002 0.204986
286.758392 -96.809837 5.477786 0.618250
286.758392 -96.809837 4.998678 0.644846
286.758392 -96.809837 4.526297 0.615671
286.758392 -96.809837 4.059512 0.662242
286.758392 -96.809830 3.597236 0.639643
286.758392 -96.809837 3.138431 0.651606
286.758362 -96.809845 2.682082 0.657435
286.758392 -96.809830 2.227198 0.629480
286.758392 -96.809830 1.772802 0.676600
286.758423 -96.809814 1.317919 0.613504
286.758423 -96.809807 0.861572 0.691112
286.758423 -96.809807 0.402768 0.653101
287.072296 -96.560051 -0.000004 0.239680
289.021698 -95.008873 -0.000003 0.247483
290.376617 -93.930740 -0.000002 0.205452
291.374878 -93.136429 -0.000002 0.294912
286.758484 -96.686562 5.458622 0.641688
286.758484 -96.686562 4.982154 0.581949
286.758484 -96.686562 4.512376 0.649897
286.758484 -96.686562 4.048162 0.663325
286.758484 -96.686562 3.588435 0.652445
286.758484 -96.686562 3.132158 0.614130
286.758484 -96.686562 2.678323 0.668132
286.758484 -96.686562 2.225946 0.589837
286.758484 -96.686562 1.774054 0.651942
286.758484 -96.686562 1.321676 0.583535
286.758484 -96.686562 0.867841 0.665843
286.758484 -96.686562 0.411564 0.565377
287.013947 -96.486191 -0.000004 0.213997
288.974152 -94.948654 -0.000003 0.222387
290.336548 -93.880020 -0.000003 0.271503
291.340302 -93.092690 -0.000002 0.236760
286.758667 -96.564590 5.439818 0.626535
286.758667 -96.564590 4.965940 0.635615
286.758667 -96.564590 4.498716 0.619181
286.758667 -96.564590 4.037027 0.722499
286.758667 -96.564590 3.579799 0.622797
286.758667 -96.564583 3.126001 0.687999
286.758667 -96.564575 2.674634 0.618067
286.758667 -96.564583 2.224718 0.644739
286.758636 -96.564598 1.775282 0.640528
286.758636 -96.564606 1.325363 0.611902
286.758606 -96.564621 0.873993 0.659022
286.758606 -96.564629 0.420193 0.607736
286.956116 -96.411926 -0.000004 0.203693
288.927002 -94.888115 -0.000003 0.234474
290.296814 -93.829010 -0.000003 0.246071
291.306061 -93.048714 -0.000002 0.263963
286.758331 -96.444298 5.421534 0.662257
286.758331 -96.444298 4.950175 0.681331
286.758331 -96.444298 4.485435 0.646250
286.758331 -96.444298 4.026199 0.684443
286.758331 -96.444298 3.571401 0.665446
286.758331 -96.444298 3.120018 0.696529
286.758331 -96.444305 2.671051 0.653742
286.758331 -96.444298 2.223523 0.626535
286.758362 -96.444290 1.776477 0.658289
286.758362 -96.444283 1.328952 0.614725
286.758362 -96.444275 0.879985 0.638514
286.758392 -96.444267 0.428604 0.653239
286.898804 -96.337257 -0.000004 0.257860
288.880280 -94.827248 -0.000003 0.233038
290.257477 -93.777733 -0.000003 0.196788
291.272125 -93.004494 -0.000002 0.267721
286.707520 -96.363197 5.419427 0.670832
286.707520 -96.363197 4.948359 0.663615
286.707520 -96.363197 4.483905 0.672557
286.707520 -96.363197 4.024952 0.693111
286.707520 -96.363197 3.570435 0.669047
286.707520 -96.363197 3.119328 0.657115
286.707611 -96.363136 2.670631 0.686336
286.707764 -96.363007 2.223381 0.679118
286.707947 -96.362869 1.776623 0.667765
286.708191 -96.362709 1.329404 0.625620
286.708435 -96.362511 0.880765 0.632837
286.708496 -96.362465 0.429706 0.628855
286.842010 -96.262192 -0.000004 0.261175
288.833984 -94.766052 -0.000003 0.236569
290.218445 -93.726173 -0.000003 0.262730
291.238495 -92.960045 -0.000002 0.248166
286.574646 -96.342979 5.443082 0.622507
286.574646 -96.342979 4.968756 0.646571
286.574646 -96.342979 4.501089 0.671061
286.574646 -96.342979 4.038960 0.739391
286.574646 -96.342979 3.581299 0.677012
286.574646 -96.342979 3.127071 0.653468
286.574646 -96.342972 2.675275 0.691646
286.574677 -96.342964 2.224931 0.689830
286.574707 -96.342949 1.775070 0.670054
286.574707 -96.342934 1.324728 0.635615
286.574738 -96.342926 0.872936 0.618601
286.574738 -96.342911 0.418714 0.657542
286.785736 -96.186729 -0.000004 0.237383
288.788086 -94.704529 -0.000004 0.216343
290.179810 -93.674347 -0.000002 0.206326
291.205170 -92.915352 -0.000002 0.232081
286.411835 -96.342979 5.475949 0.663859
286.411835 -96.342979 4.997095 0.676875
286.411835 -96.342979 4.524964 0.644572
286.411835 -96.342979 4.058424 0.630808
286.411835 -96.342979 3.596393 0.676402
286.411835 -96.342979 3.137830 0.650767
286.411835 -96.342987 2.681722 0.700084
286.411804 -96.342987 2.227078 0.663661
286.411804 -96.342995 1.772921 0.627848
286.411804 -96.343002 1.318277 0.650172
286.411804 -96.343002 0.862167 0.665248
286.411774 -96.343010 0.403601 0.662684
286.730011 -96.110886 -0.000005 0.238184
288.742645 -94.642693 -0.000003 0.240410
290.141541 -93.622253 -0.000003 0.226300
291.172150 -92.870438 -0.000002 0.212597
286.245850 -96.342979 5.509624 0.684413
286.245850 -96.342979 5.026130 0.664683
286.245850 -96.342979 4.549424 0.631830
286.245850 -96.342979 4.078365 0.656779
286.245850 -96.342979 3.611859 0.604578
286.245850 -96.342979 3.148852 0.612802
286.245850 -96.342979 2.688325 0.643854
286.245880 -96.342972 2.229278 0.660227
286.245880 -96.342964 1.770723 0.665904
286.245880 -96.342957 1.311676 0.667857
286.245911 -96.342949 0.851152 0.696513
286.245911 -96.342941 0.388149 0.678370
286.674805 -96.034645 -0.000004 0.218473
288.697662 -94.580544 -0.000003 0.245557
290.103607 -93.569893 -0.000003 0.216427
291.139465 -92.825287 -0.000002 0.214895
286.076630 -96.342979 5.544130 0.662943
286.076630 -96.342979 5.055882 0.694240
286.076630 -96.342979 4.574491 0.663844
286.076630 -96.342979 4.098800 0.635370
286.076630 -96.342979 3.627707 0.627268
286.076630 -96.342979 3.160148 0.620249
286.076630 -96.342972 2.695093 0.645151
286.076660 -96.342957 2.231531 0.633265
286.076691 -96.342934 1.768469 0.661219
286.076721 -96.342911 1.304912 0.679881
286.076752 -96.342896 0.839863 0.699687
286.076752 -96.342873 0.372314 0.648966
286.620117 -95.958023 -0.000004 0.206434
288.653076 -94.518082 -0.000003 0.210694
290.066071 -93.517265 -0.000003 0.244779
291.107086 -92.779915 -0.000002 0.194837
285.904022 -96.342979 5.579498 0.656168
285.904022 -96.342979 5.086378 0.645533
285.904022 -96.342979 4.600182 0.631998
285.904022 -96.342979 4.119744 0.646891
285.904022 -96.342979 3.643950 0.645441
285.904022 -96.342979 3.171726 0.643503
285.904022 -96.342979 2.702030 0.642512
285.904022 -96.342987 2.233843 0.632120
285.903992 -96.342987 1.766157 0.665324
285.903992 -96.342995 1.297968 0.657938
285.903992 -96.343002 0.828271 0.663111
285.903992 -96.343010 0.356045 0.621988
286.565979 -95.881020 -0.000005 0.231255
288.608948 -94.455307 -0.000004 0.228095
290.028870 -93.464386 -0.000003 0.209414
291.075043 -92.734314 -0.000002 0.223153
285.727936 -96.342979 5.615756 0.608881
285.727936 -96.342979 5.117642 0.642969
285.727936 -96.342979 4.626521 0.646464
285.727936 -96.342979 4.141217 0.615000
285.727936 -96.342979 3.660603 0.645777
285.727936 -96.342979 3.183595 0.600580
285.727936 -96.342972 2.709141 0.642191
285.727936 -96.342972 2.236211 0.614542
285.727936 -96.342972 1.763789 0.626078
285.727936 -96.342972 1.290859 0.679469
285.727936 -96.342964 0.816407 0.610895
285.727966 -96.342964 0.339401 0.635386
286.512390 -95.803642 -0.000004 0.227066
288.565247 -94.392227 -0.000004 0.197494
289.992065 -93.411240 -0.000003 0.244324
291.043274 -92.688492 -0.000002 0.264681
285.548218 -96.342979 5.652938 0.640162
285.548218 -96.342987 5.149702 0.635340
285.548218 -96.342979 4.653530 0.603632
285.548218 -96.342979 4.163235 0.598398
285.548218 -96.342979 3.677679 0.644953
285.548218 -96.342979 3.195765 0.636118
285.548248 -96.342972 2.716433 0.631434
285.548248 -96.342964 2.238640 0.619410
285.548279 -96.342957 1.761360 0.654475
285.548279 -96.342941 1.283569 0.640024
285.548279 -96.342934 0.804240 0.632837
285.548309 -96.342926 0.322332 0.627253
286.459320 -95.725891 -0.000004 0.206374
288.522003 -94.328842 -0.000003 0.250188
289.955627 -93.357841 -0.000003 0.265555
291.011871 -92.642448 -0.000002 0.230274
285.364777 -96.342979 5.691073 0.698238
285.364777 -96.342979 5.182584 0.645960
285.364777 -96.342979 4.681232 0.645350
285.364777 -96.342987 4.185819 0.640925
285.364777 -96.342979 3.695194 0.631998
285.364777 -96.342979 3.208249 0.651270
285.364777 -96.342972 2.723912 0.653971
285.364807 -96.342957 2.241131 0.656001
285.364838 -96.342941 1.758869 0.642664
285.364868 -96.342926 1.276092 0.641703
285.364868 -96.342911 0.791760 0.638758
285.364899 -96.342903 0.304823 0.642054
286.406799 -95.647774 -0.000005 0.232715
288.479187 -94.265160 -0.000004 0.208636
289.919556 -93.304184 -0.000003 0.263089
290.980774 -92.596191 -0.000002 0.238065
285.177460 -96.342979 5.730198 0.630579
285.177460 -96.342979 5.216317 0.662531
285.177460 -96.342979 4.709652 0.619120
285.177460 -96.342979 4.208988 0.630610
285.177460 -96.342979 3.713161 0.637522
285.177460 -96.342979 3.221056 0.690272
285.177460 -96.342972 2.731585 0.614206
285.177490 -96.342949 2.243687 0.659678
285.177521 -96.342934 1.756314 0.649516
285.177551 -96.342911 1.268420 0.638254
285.177582 -96.342896 0.778956 0.610468
285.177582 -96.342888 0.286858 0.660655
286.354828 -95.569290 -0.000005 0.206864
288.436829 -94.201172 -0.000003 0.246741
289.883881 -93.250282 -0.000003 0.204363
290.949982 -92.549713 -0.000002 0.218988
284.986115 -96.342979 5.770346 0.648859
284.986115 -96.342979 5.250935 0.646845
284.986084 -96.342987 4.738817 0.624018
284.986084 -96.342987 4.232763 0.639735
284.986084 -96.342979 3.731601 0.618647
284.986115 -96.342979 3.234199 0.649729
284.986115 -96.342972 2.739459 0.615946
284.986145 -96.342949 2.246310 0.625879
284.986176 -96.342926 1.753691 0.644343
284.986206 -96.342903 1.260546 0.647791
284.986237 -96.342880 0.765816 0.628489
284.986267 -96.342880 0.268421 0.617823
286.303436 -95.490448 -0.000005 0.239585
288.394897 -94.136902 -0.000004 0.251864
289.848572 -93.196136 -0.000003 0.224840
290.919556 -92.503021 -0.000003 0.250763
284.790588 -96.342979 5.811555 0.627268
284.790588 -96.342979 5.286467 0.667475
284.790588 -96.342987 4.768751 0.678950
284.790588 -96.342979 4.257167 0.656977
284.790588 -96.342987 3.750527 0.623270
284.790588 -96.342979 3.247688 0.634470
284.790588 -96.342972 2.747541 0.629374
284.790619 -96.342949 2.249002 0.691096
284.790680 -96.342926 1.750999 0.634058
284.790710 -96.342903 1.252464 0.635874
284.790741 -96.342880 0.752327 0.676326
284.790741 -96.342880 0.249495 0.640955
286.252563 -95.411247 -0.000005 0.224266
288.353424 -94.072334 -0.000004 0.207762
289.813629 -93.141739 -0.000003 0.227018
290.889435 -92.456116 -0.000003 0.242672
284.590729 -96.342987 5.853866 0.614816
284.590729 -96.342979 5.322948 0.630182
284.590729 -96.342987 4.799486 0.616510
284.590729 -96.342987 4.282223 0.674174
284.590729 -96.342987 3.769959 0.650217
284.590729 -96.342979 3.261538 0.643793
284.590759 -96.342972 2.755839 0.623423
284.590790 -96.342949 2.251766 0.639811
284.590820 -96.342934 1.748235 0.656809
284.590851 -96.342911 1.244166 0.645121
284.590881 -96.342888 0.738475 0.627131
284.590881 -96.342888 0.230061 0.657694
286.202240 -95.331688 -0.000005 0.251385
288.312408 -94.007477 -0.000004 0.212573
289.779083 -93.087097 -0.000003 0.237023
290.859619 -92.409004 -0.000003 0.204650
284.386383 -96.342979 5.897317 0.619455
284.386383 -96.342979 5.360414 0.638422
284.386383 -96.342979 4.831049 0.637201
284.386383 -96.342979 4.307955 0.661860
284.386383 -96.342979 3.789915 0.641871
284.386383 -96.342979 3.275762 0.659922
284.386414 -96.342964 2.764361 0.636484
284.386414 -96.342949 2.254605 0.677501
284.386444 -96.342934 1.745396 0.639002
284.386475 -96.342918 1.235643 0.629038
284.386505 -96.342911 0.724249 0.642374
284.386505 -96.342903 0.210102 0.680095
286.152496 -95.251785 -0.000005 0.238998
288.271851 -93.942337 -0.000004 0.236246
289.744904 -93.032219 -0.000003 0.232045
290.830170 -92.361687 -0.000002 0.232464
284.177368 -96.342979 5.941954 0.625315
284.177368 -96.342979 5.398901 0.626886
284.177368 -96.342979 4.863475 0.620996
284.177368 -96.342979 4.334388 0.625650
284.177368 -96.342979 3.810415 0.630991
284.177368 -96.342979 3.290373 0.619501
284.177368 -96.342964 2.773116 0.648737
284.177399 -96.342957 2.257521 0.639948
284.177429 -96.342941 1.742479 0.620111
284.177429 -96.342934 1.226887 0.623575
284.177429 -96.342926 0.709634 0.627543
284.177429 -96.342926 0.189597 0.638666
286.103302 -95.171539 -0.000005 0.204220
288.231750 -93.876915 -0.000004 0.218617
289.711121 -92.977104 -0.000003 0.230321
290.801025 -92.314163 -0.000003 0.237454
283.963470 -96.342979 5.987823 0.629450
283.963470 -96.342979 5.438451 0.613306
283.963470 -96.342979 4.896793 0.634775
283.963470 -96.342979 4.361551 0.616175
283.963470 -96.342979 3.831481 0.635782
283.963470 -96.342979 3.305388 0.638010
283.963501 -96.342964 2.782112 0.675990
283.963501 -96.342964 2.260518 0.677806
283.963501 -96.342964 1.739483 0.647227
283.963501 -96.342957 1.217889 0.677714
283.963501 -96.342957 0.694615 0.636408
283.963531 -96.342957 0.168525 0.623499
286.054657 -95.090942 -0.000005 0.239585
288.192108 -93.811218 -0.000004 0.224326
289.677704 -92.921753 -0.000003 0.242684
290.772217 -92.266441 -0.000003 0.205620
283.744537 -96.342987 6.034972 0.605356
283.744568 -96.342979 5.479103 0.616754
283.744568 -96.342979 4.931042 0.618692
283.744568 -96.342979 4.389472 0.628107
283.744568 -96.342979 3.853134 0.625269
283.744568 -96.342979 3.320822 0.645502
283.744598 -96.342964 2.791358 0.632837
283.744568 -96.342972 2.263598 0.678431
283.744568 -96.342979 1.736402 0.674067
283.744537 -96.342995 1.208639 0.623896
283.744537 -96.342987 0.679176 0.641382
283.744537 -96.342987 0.146864 0.629099
286.006592 -95.010017 -0.000005 0.253180
288.152924 -93.745239 -0.000004 0.251229
289.644684 -92.866173 -0.000003 0.216858
290.743774 -92.218513 -0.000003 0.206446
283.520386 -96.342979 6.083447 0.647547
283.520386 -96.342979 5.520902 0.627863
283.520386 -96.342979 4.966256 0.631815
283.520386 -96.342987 4.418179 0.650126
283.520386 -96.342979 3.875398 0.625605
283.520386 -96.342979 3.336690 0.612802
283.520416 -96.342957 2.800865 0.633555
283.520386 -96.342979 2.266766 0.644419
283.520325 -96.343010 1.733234 0.632425
283.520294 -96.343025 1.199128 0.644327
283.520325 -96.343025 0.663302 0.638483
283.520325 -96.343025 0.124592 0.634867
285.959076 -94.928757 -0.000005 0.204842
288.114197 -93.678993 -0.000004 0.225618
289.612061 -92.810364 -0.000003 0.212944
290.715637 -92.170395 -0.000003 0.221118
283.290741 -96.342979 6.133307 0.622126
283.290741 -96.342979 5.563893 0.620630
283.290741 -96.342979 5.002475 0.665827
283.290741 -96.342979 4.447705 0.662272
283.290741 -96.342979 3.898297 0.653208
283.290741 -96.342979 3.353012 0.643336
283.290802 -96.342957 2.810644 0.624308
283.290802 -96.342949 2.270021 0.633982
283.290833 -96.342934 1.729979 0.632105
283.290863 -96.342918 1.189360 0.619043
283.290863 -96.342918 0.646998 0.637049
283.290863 -96.342918 0.101718 0.621225
285.912140 -94.847168 -0.000005 0.256854
288.075928 -93.612480 -0.000004 0.263556
289.579834 -92.754326 -0.000004 0.265962
290.687836 -92.122078 -0.000003 0.210263
283.055420 -96.342979 6.184606 0.638224
283.055420 -96.342979 5.608125 0.648508
283.055420 -96.342979 5.039739 0.669810
283.055420 -96.342979 4.478084 0.652598
283.055420 -96.342987 3.921858 0.677577
283.055420 -96.342979 3.369804 0.618387
283.055481 -96.342957 2.820705 0.636088
283.055450 -96.342957 2.273373 0.617929
283.055450 -96.342964 1.726627 0.672923
283.055450 -96.342964 1.179294 0.633204
283.055450 -96.342964 0.630198 0.638422
283.055450 -96.342957 0.078148 0.651804
285.865784 -94.765244 -0.000005 0.199109
288.038116 -93.545700 -0.000004 0.228754
289.547974 -92.698067 -0.000004 0.248477
290.660370 -92.073563 -0.000003 0.246538
282.814178 -96.342987 6.237404 0.625055
282.814178 -96.342979 5.653648 0.648142
282.814178 -96.342979 5.078091 0.627115
282.814178 -96.342979 4.509350 0.638239
