# This PCD file was generated using the MATLABÂ® pcwrite function
# from Computer Vision ToolboxÂ®.
# .PCD v.7 - Point Cloud Data file format
VERSION .7
FIELDS x y z intensity
SIZE 4 4 4 4
TYPE F F F F
COUNT 1 1 1 1
WIDTH 1266
HEIGHT 1
VIEWPOINT 0 0 0 1 0 0 0
POINTS 1266
DATA ascii
213.101196 -155.713303 0.000012 0.335821
214.546143 -153.683960 0.000007 0.342611
215.550400 -152.273544 -0.000012 0.245233
216.290329 -151.234344 -0.000010 0.217025
nan nan nan 0.000000
nan nan nan 0.000000
nan nan nan 0.000000
nan nan nan 0.000000
nan nan nan 0.000000
nan nan nan 0.000000
nan nan nan 0.000000
nan nan nan 0.000000
nan nan nan 0.000000
197.076935 -177.728394 -0.000040 0.229532
206.635315 -164.500641 -0.000025 0.226779
210.739197 -158.821335 0.000010 0.335439
213.024704 -155.658447 0.000012 0.339055
214.483780 -153.639236 0.000006 0.327626
215.497864 -152.235870 -0.000012 0.252079
216.245041 -151.201859 -0.000010 0.190828
nan nan nan 0.000000
nan nan nan 0.000000
nan nan nan 0.000000
nan nan nan 0.000000
nan nan nan 0.000000
nan nan nan 0.000000
nan nan nan 0.000000
nan nan nan 0.000000
nan nan nan 0.000000
196.847153 -177.561111 -0.000039 0.229316
206.497650 -164.400421 -0.000025 0.228299
210.641068 -158.749908 0.000010 0.339895
212.948608 -155.603043 0.000013 0.336263
214.421738 -153.594086 0.000005 0.339010
215.445602 -152.197815 -0.000012 0.277176
216.199966 -151.169052 -0.000010 0.180152
nan nan nan 0.000000
nan nan nan 0.000000
nan nan nan 0.000000
nan nan nan 0.000000
nan nan nan 0.000000
nan nan nan 0.000000
nan nan nan 0.000000
nan nan nan 0.000000
nan nan nan 0.000000
196.618546 -177.392242 -0.000039 0.225702
206.360687 -164.299240 -0.000025 0.223272
210.543442 -158.677795 0.000010 0.335393
212.872894 -155.547119 0.000013 0.334096
214.360016 -153.548492 0.000005 0.336385
215.393600 -152.159409 -0.000012 0.257046
216.155136 -151.135941 -0.000010 0.182055
nan nan nan 0.000000
nan nan nan 0.000000
nan nan nan 0.000000
nan nan nan 0.000000
nan nan nan 0.000000
nan nan nan 0.000000
nan nan nan 0.000000
nan nan nan 0.000000
nan nan nan 0.000000
196.391113 -177.221786 -0.000039 0.224421
206.224426 -164.197113 -0.000025 0.230968
210.446320 -158.605011 0.000010 0.333944
212.797577 -155.490662 0.000012 0.334829
214.331711 -153.458633 0.010001 1.000000
215.341873 -152.120636 -0.000011 0.230417
216.110535 -151.102509 -0.000011 0.210539
nan nan nan 0.000000
nan nan nan 0.000000
nan nan nan 0.000000
nan nan nan 0.000000
nan nan nan 0.000000
nan nan nan 0.000000
nan nan nan 0.000000
nan nan nan 0.000000
nan nan nan 0.000000
196.164886 -177.049713 -0.000038 0.227521
206.088867 -164.094025 -0.000024 0.225367
210.349716 -158.531525 0.000011 0.338781
212.722641 -155.433701 0.000011 0.337423
214.270950 -153.412384 0.010006 1.000000
215.290405 -152.081497 -0.000011 0.245569
216.066162 -151.068756 -0.000010 0.259463
nan nan nan 0.000000
nan nan nan 0.000000
nan nan nan 0.000000
nan nan nan 0.000000
nan nan nan 0.000000
nan nan nan 0.000000
nan nan nan 0.000000
nan nan nan 0.000000
nan nan nan 0.000000
195.939865 -176.876099 -0.000038 0.235791
205.954056 -163.990005 -0.000024 0.228778
210.253632 -158.457382 0.000011 0.333791
212.648117 -155.376205 0.000010 0.337362
214.210495 -153.365768 0.010002 1.000000
215.239227 -152.042007 -0.000011 0.226815
216.022034 -151.034714 -0.000010 0.236581
nan nan nan 0.000000
nan nan nan 0.000000
nan nan nan 0.000000
nan nan nan 0.000000
nan nan nan 0.000000
nan nan nan 0.000000
nan nan nan 0.000000
nan nan nan 0.000000
nan nan nan 0.000000
195.716049 -176.700912 -0.000038 0.228466
205.819962 -163.885056 -0.000024 0.240805
210.158051 -158.382584 0.000010 0.341131
212.573990 -155.318192 0.000010 0.333623
214.150375 -153.318695 0.010003 1.000000
215.188324 -152.002167 -0.000011 0.179662
215.978134 -151.000351 -0.000010 0.198403
nan nan nan 0.000000
nan nan nan 0.000000
nan nan nan 0.000000
nan nan nan 0.000000
nan nan nan 0.000000
nan nan nan 0.000000
nan nan nan 0.000000
nan nan nan 0.000000
nan nan nan 0.000000
195.493469 -176.524155 -0.000038 0.226851
205.686600 -163.779160 -0.000024 0.223572
210.063004 -158.307098 0.000011 0.337011
212.500275 -155.259659 0.000009 0.338033
214.090576 -153.271225 0.010002 1.000000
215.137695 -151.961960 -0.000011 0.193054
215.934479 -150.965683 -0.000010 0.224122
nan nan nan 0.000000
nan nan nan 0.000000
nan nan nan 0.000000
nan nan nan 0.000000
nan nan nan 0.000000
nan nan nan 0.000000
nan nan nan 0.000000
nan nan nan 0.000000
nan nan nan 0.000000
195.272125 -176.345871 -0.000038 0.227820
205.553986 -163.672333 -0.000024 0.223476
209.968491 -158.230972 0.000011 0.338262
212.426971 -155.200607 0.000008 0.339544
213.996490 -153.266006 0.000001 0.339055
215.087341 -151.921402 -0.000012 0.227222
215.891068 -150.930725 -0.000010 0.196297
nan nan nan 0.000000
nan nan nan 0.000000
nan nan nan 0.000000
nan nan nan 0.000000
nan nan nan 0.000000
nan nan nan 0.000000
nan nan nan 0.000000
nan nan nan 0.000000
nan nan nan 0.000000
195.052048 -176.166031 -0.000037 0.228921
205.422119 -163.564575 -0.000024 0.239166
209.874496 -158.154175 0.000011 0.335561
212.354080 -155.141052 0.000008 0.340291
213.937057 -153.217453 0.000001 0.335424
215.037277 -151.880493 -0.000011 0.251134
215.847900 -150.895447 -0.000010 0.248560
nan nan nan 0.000000
nan nan nan 0.000000
nan nan nan 0.000000
nan nan nan 0.000000
nan nan nan 0.000000
nan nan nan 0.000000
nan nan nan 0.000000
nan nan nan 0.000000
nan nan nan 0.000000
194.833206 -175.984665 -0.000037 0.233768
205.291016 -163.455917 -0.000024 0.227461
209.781052 -158.076721 0.000011 0.331472
212.281601 -155.080994 0.000007 0.329793
213.877975 -153.168488 0.000000 0.327520
214.987503 -151.839249 -0.000011 0.248106
215.804993 -150.859879 -0.000010 0.188709
nan nan nan 0.000000
nan nan nan 0.000000
nan nan nan 0.000000
nan nan nan 0.000000
nan nan nan 0.000000
nan nan nan 0.000000
nan nan nan 0.000000
nan nan nan 0.000000
nan nan nan 0.000000
194.615662 -175.801758 -0.000036 0.231446
205.160675 -163.346344 -0.000023 0.222590
209.688156 -157.998611 0.000012 0.340429
212.209549 -155.020432 0.000006 0.335546
213.819244 -153.119110 -0.000000 0.337377
214.938019 -151.797653 -0.000011 0.241787
215.762314 -150.824005 -0.000010 0.262467
nan nan nan 0.000000
nan nan nan 0.000000
nan nan nan 0.000000
nan nan nan 0.000000
nan nan nan 0.000000
nan nan nan 0.000000
nan nan nan 0.000000
nan nan nan 0.000000
nan nan nan 0.000000
194.399384 -175.617355 -0.000036 0.228957
205.031082 -163.235855 -0.000023 0.235599
209.595795 -157.919861 0.000012 0.337728
212.137924 -154.959366 0.000006 0.338048
213.760803 -153.069382 -0.000012 0.260995
214.888824 -151.755707 -0.000011 0.206984
215.719910 -150.787842 -0.000010 0.227940
nan nan nan 0.000000
nan nan nan 0.000000
nan nan nan 0.000000
nan nan nan 0.000000
nan nan nan 0.000000
nan nan nan 0.000000
nan nan nan 0.000000
nan nan nan 0.000000
nan nan nan 0.000000
194.184402 -175.431442 -0.000036 0.229232
204.902283 -163.124466 -0.000023 0.232524
209.503998 -157.840485 0.000012 0.334615
212.066711 -154.897797 0.000004 0.332433
213.702759 -153.019180 -0.000012 0.232751
214.839920 -151.713409 -0.000011 0.221860
215.677734 -150.751389 -0.000010 0.174611
nan nan nan 0.000000
nan nan nan 0.000000
nan nan nan 0.000000
nan nan nan 0.000000
nan nan nan 0.000000
nan nan nan 0.000000
nan nan nan 0.000000
nan nan nan 0.000000
nan nan nan 0.000000
193.970718 -175.244034 -0.000036 0.229723
204.774261 -163.012177 -0.000023 0.231937
209.412750 -157.760452 0.000012 0.336126
211.995941 -154.835739 0.000004 0.331746
213.645065 -152.968582 -0.000012 0.206063
214.791321 -151.670792 -0.000011 0.239620
215.635834 -150.714630 -0.000010 0.186603
nan nan nan 0.000000
nan nan nan 0.000000
nan nan nan 0.000000
nan nan nan 0.000000
nan nan nan 0.000000
nan nan nan 0.000000
nan nan nan 0.000000
nan nan nan 0.000000
nan nan nan 0.000000
193.758347 -175.055130 -0.000036 0.232811
204.647034 -162.899002 -0.000022 0.227617
209.322067 -157.679779 0.000013 0.337102
211.925613 -154.773178 0.000003 0.343694
213.587723 -152.917587 -0.000012 0.227521
214.743011 -151.627823 -0.000011 0.201635
215.594177 -150.677582 -0.000010 0.195758
nan nan nan 0.000000
nan nan nan 0.000000
nan nan nan 0.000000
nan nan nan 0.000000
nan nan nan 0.000000
nan nan nan 0.000000
nan nan nan 0.000000
nan nan nan 0.000000
nan nan nan 0.000000
193.547318 -174.864746 -0.000036 0.229735
204.520584 -162.784943 -0.000022 0.231650
209.231934 -157.598495 0.000012 0.336339
211.855713 -154.710144 0.000003 0.344945
213.530746 -152.866196 -0.000012 0.211317
214.695007 -151.584518 -0.000011 0.209833
215.552795 -150.640244 -0.000010 0.221836
nan nan nan 0.000000
nan nan nan 0.000000
nan nan nan 0.000000
nan nan nan 0.000000
nan nan nan 0.000000
nan nan nan 0.000000
nan nan nan 0.000000
nan nan nan 0.000000
nan nan nan 0.000000
193.337601 -174.672913 -0.000036 0.227988
204.394928 -162.669998 -0.000022 0.224266
209.142380 -157.516586 0.000011 0.341283
211.786255 -154.646606 0.000002 0.334539
213.474136 -152.814392 -0.000012 0.242457
214.647308 -151.540878 -0.000011 0.203861
215.511658 -150.602615 -0.000010 0.261115
nan nan nan 0.000000
nan nan nan 0.000000
nan nan nan 0.000000
nan nan nan 0.000000
nan nan nan 0.000000
nan nan nan 0.000000
nan nan nan 0.000000
nan nan nan 0.000000
nan nan nan 0.000000
193.129242 -174.479614 -0.000035 0.224864
204.270096 -162.554199 -0.000023 0.238986
209.053391 -157.434052 0.000010 0.339757
211.717255 -154.582596 0.000001 0.327138
213.417877 -152.762207 -0.000012 0.213782
214.599915 -151.496918 -0.000011 0.197147
215.470795 -150.564713 -0.000010 0.208935
nan nan nan 0.000000
nan nan nan 0.000000
nan nan nan 0.000000
nan nan nan 0.000000
nan nan nan 0.000000
nan nan nan 0.000000
nan nan nan 0.000000
nan nan nan 0.000000
nan nan nan 0.000000
192.922226 -174.284866 -0.000035 0.227844
204.146057 -162.437515 -0.000022 0.208408
208.964981 -157.350891 0.000008 0.341573
211.648682 -154.518097 0.000000 0.335760
213.361984 -152.709625 -0.000012 0.216750
214.552826 -151.452621 -0.000011 0.224014
215.430191 -150.526520 -0.000010 0.235587
nan nan nan 0.000000
nan nan nan 0.000000
nan nan nan 0.000000
nan nan nan 0.000000
nan nan nan 0.000000
nan nan nan 0.000000
nan nan nan 0.000000
nan nan nan 0.000000
nan nan nan 0.000000
192.716583 -174.088669 -0.000035 0.233732
204.022858 -162.319962 -0.000022 0.238867
208.877167 -157.267120 0.000008 0.337957
211.580582 -154.453125 -0.000000 0.340398
213.306458 -152.656662 -0.000012 0.231913
214.506058 -151.407990 -0.000010 0.263987
215.389862 -150.488037 -0.000010 0.248106
nan nan nan 0.000000
nan nan nan 0.000000
nan nan nan 0.000000
nan nan nan 0.000000
nan nan nan 0.000000
nan nan nan 0.000000
nan nan nan 0.000000
nan nan nan 0.000000
nan nan nan 0.000000
192.512329 -173.891037 -0.000035 0.229208
203.900482 -162.201553 -0.000022 0.217911
208.789932 -157.182724 0.000007 0.340444
211.512924 -154.387680 -0.000001 0.336675
213.251312 -152.603302 -0.000012 0.199061
214.459595 -151.363037 -0.000010 0.287408
215.349808 -150.449280 -0.000010 0.199588
nan nan nan 0.000000
nan nan nan 0.000000
nan nan nan 0.000000
nan nan nan 0.000000
nan nan nan 0.000000
nan nan nan 0.000000
nan nan nan 0.000000
nan nan nan 0.000000
nan nan nan 0.000000
192.309433 -173.692001 -0.000035 0.229591
203.778915 -162.082306 -0.000022 0.232739
208.703278 -157.097748 0.000005 0.344610
211.445724 -154.321777 -0.000002 0.339651
213.196533 -152.549561 -0.000012 0.283710
214.413452 -151.317764 -0.000010 0.264813
215.310013 -150.410248 -0.000010 0.207750
nan nan nan 0.000000
nan nan nan 0.000000
nan nan nan 0.000000
nan nan nan 0.000000
nan nan nan 0.000000
nan nan nan 0.000000
nan nan nan 0.000000
nan nan nan 0.000000
nan nan nan 0.000000
192.107956 -173.491531 -0.000034 0.226839
203.658188 -161.962204 -0.000022 0.224349
208.617233 -157.012146 0.000005 0.339254
211.378998 -154.255386 -0.000003 0.339330
213.142136 -152.495438 -0.000011 0.209880
214.367615 -151.272171 -0.000010 0.200713
215.270493 -150.370926 -0.000010 0.241966
241.711884 -124.265182 9.307420 0.325200
239.470627 -126.471359 7.621498 0.315007
237.636169 -128.277100 6.267573 0.623667
237.837982 -128.078461 5.521057 0.741222
237.170242 -128.735733 4.622937 0.324819
235.954163 -129.932785 3.729584 0.280430
234.983582 -130.888184 2.969359 0.650385
234.978027 -130.893631 2.322762 0.620447
234.977783 -130.893875 1.677244 0.635294
234.977814 -130.893845 1.031037 0.650690
234.977844 -130.893829 0.382747 0.647547
233.311188 -132.534393 0.000006 0.250631
230.530228 -135.271820 0.000004 0.231949
228.754822 -137.019440 0.000003 0.235300
227.520844 -138.234100 0.000002 0.239824
226.611710 -139.129013 0.000001 0.212477
241.588608 -124.668678 9.214689 0.408392
239.385895 -126.806847 7.557761 0.406348
237.636169 -128.505295 6.238549 0.649546
237.812576 -128.334061 5.491859 0.407843
237.432098 -128.703384 4.647081 0.315068
236.185913 -129.913055 3.744303 0.350942
235.125656 -130.942230 2.972495 0.530953
235.122559 -130.945251 2.323863 0.564965
235.119446 -130.948273 1.676208 0.795621
235.116333 -130.951294 1.028144 0.513207
235.113205 -130.954330 0.378277 0.508598
233.396027 -132.621185 0.000006 0.247220
230.596024 -135.339142 0.000004 0.271754
228.808456 -137.074310 0.000003 0.245557
227.566025 -138.280334 0.000002 0.202448
226.650665 -139.168884 0.000001 0.181923
241.469269 -125.061264 9.124919 0.281071
239.303650 -127.134254 7.495897 0.295079
237.636169 -128.730423 6.210122 0.641352
237.821838 -128.552689 5.470341 0.273732
237.699066 -128.670212 4.671843 0.171374
236.421783 -129.892853 3.759377 0.423102
234.823395 -131.422882 2.945416 0.642527
234.823395 -131.422882 2.314913 0.654841
234.823395 -131.422882 1.685086 0.665888
234.823395 -131.422882 1.054584 0.650980
234.823395 -131.422882 0.422050 0.631708
233.480255 -132.708572 0.000006 0.230657
230.661346 -135.406906 0.000004 0.199791
228.861710 -137.129562 0.000003 0.257620
227.610901 -138.326889 0.000002 0.273705
226.689346 -139.209015 0.000002 0.285098
241.353699 -125.443428 9.037984 0.362234
239.223801 -127.453926 7.435829 0.384237
237.636169 -128.952545 6.182273 0.623529
237.806152 -128.792099 5.444185 0.388235
237.837982 -128.762054 4.676145 0.679316
236.661926 -129.872162 3.774817 0.315724
234.823395 -131.607635 2.939163 0.647059
234.823395 -131.607635 2.312831 0.623652
234.823395 -131.607635 1.687169 0.631937
234.823395 -131.607635 1.060837 0.653498
234.823395 -131.607635 0.432487 0.640986
233.563873 -132.796539 0.000006 0.221465
230.726196 -135.475128 0.000004 0.248034
228.914581 -137.185181 0.000003 0.181337
227.655441 -138.373734 0.000002 0.239441
226.727753 -139.249405 0.000001 0.239429
241.241730 -125.815628 8.953760 0.329915
239.146240 -127.766167 7.377487 0.330587
237.683395 -129.127808 6.166735 0.635920
237.837982 -128.983917 5.428172 0.560784
237.837982 -128.983917 4.658689 0.624048
236.906494 -129.850967 3.790637 0.388464
234.911453 -131.707993 2.938947 0.681971
234.911453 -131.707993 2.312759 0.541085
234.911453 -131.707993 1.687241 0.588159
234.911453 -131.707993 1.061052 0.611276
234.911453 -131.707993 0.432846 0.836500
233.646881 -132.885086 0.000006 0.246717
230.790573 -135.543808 0.000004 0.214440
228.967056 -137.241165 0.000004 0.203190
227.699646 -138.420898 0.000002 0.224565
226.765884 -139.290085 0.000001 0.198391
241.133224 -126.178299 8.872140 0.370520
239.070892 -128.071259 7.320808 0.374350
237.804657 -129.233505 6.169885 0.637232
237.837982 -129.202927 5.406121 0.498482
237.837982 -129.202927 4.641587 0.528435
234.823395 -131.969940 3.547272 0.660166
234.911453 -131.889114 2.932908 0.553994
234.911453 -131.889114 2.310747 0.513085
234.911453 -131.889114 1.689253 0.495430
234.911453 -131.889114 1.067092 0.482353
234.911453 -131.889114 0.442927 0.561395
233.729279 -132.974213 0.000006 0.232966
230.854462 -135.612930 0.000005 0.250487
229.019150 -137.297516 0.000003 0.248632
227.743530 -138.468384 0.000003 0.256100
226.803711 -139.331009 0.000002 0.220556
241.028030 -126.531845 8.793009 0.328740
238.997665 -128.369522 7.265727 0.298283
237.837967 -129.419159 6.151608 0.597238
237.837982 -129.419144 5.384516 0.742733
237.837982 -129.419144 4.624832 0.599390
234.823395 -132.147629 3.537457 0.638376
234.911453 -132.067917 2.926990 0.560418
234.911453 -132.067917 2.308776 0.560754
234.911453 -132.067917 1.691224 0.529992
234.911453 -132.067917 1.073009 0.576440
234.911453 -132.067917 0.452803 0.538949
233.811035 -133.063904 0.000006 0.231351
230.917877 -135.682495 0.000005 0.189260
229.070831 -137.354233 0.000004 0.251421
227.787079 -138.516159 0.000002 0.211352
226.841263 -139.372208 0.000002 0.274184
240.926010 -126.876656 8.716267 0.346731
238.926483 -128.661179 7.212185 0.356512
237.837967 -129.632660 6.125640 0.503258
237.837982 -129.632629 5.363346 0.682719
237.837982 -129.632645 4.608414 0.583612
234.911453 -132.244492 3.537519 0.503273
234.911453 -132.244492 2.921192 0.550439
234.911453 -132.244492 2.306845 0.485618
234.911453 -132.244492 1.693155 0.547097
234.911453 -132.244492 1.078808 0.517082
234.911453 -132.244492 0.462481 0.584161
233.892151 -133.154175 0.000006 0.224002
230.980789 -135.752502 0.000004 0.198607
229.122131 -137.411301 0.000003 0.232476
227.830292 -138.564240 0.000002 0.251050
226.878525 -139.413666 0.000002 0.213794
240.827026 -127.213104 8.641815 0.309911
238.857285 -128.946503 7.160127 0.384802
237.837967 -129.843506 6.100194 0.486213
237.837982 -129.843491 5.342601 0.570611
237.837982 -129.843491 4.592326 0.498161
234.911453 -132.418869 3.528035 0.831266
234.911453 -132.418869 2.915510 0.791577
234.911453 -132.418869 2.304952 0.517098
234.911453 -132.418869 1.695048 0.582361
234.911453 -132.418869 1.084490 0.701518
234.911453 -132.418869 0.471964 0.790448
233.972656 -133.245010 0.000006 0.225259
231.043228 -135.822952 0.000004 0.202867
229.173035 -137.468735 0.000003 0.198918
227.873169 -138.612625 0.000002 0.254724
226.915497 -139.455383 0.000002 0.263556
240.730988 -127.541519 8.569570 0.343374
238.789963 -129.225739 7.109495 0.393240
237.837967 -130.051788 6.075256 0.633585
237.837982 -130.051773 5.322271 0.557595
234.823395 -132.667526 4.117407 0.636667
234.911453 -132.591110 3.518741 0.487724
234.911453 -132.591110 2.909942 0.627100
234.911453 -132.591110 2.303097 0.558434
234.911453 -132.591110 1.696903 0.536828
234.911453 -132.591110 1.090058 0.708873
234.911453 -132.591110 0.481258 0.510750
234.052521 -133.336411 0.000006 0.216678
231.105164 -135.893829 0.000004 0.217444
229.223526 -137.526520 0.000004 0.212621
227.915710 -138.661301 0.000002 0.221238
226.952179 -139.497360 0.000002 0.190851
240.637756 -127.862251 8.499437 0.404685
238.724487 -129.499115 7.060241 0.381247
237.837967 -130.257568 6.050817 0.860960
237.837982 -130.257553 5.302348 0.583856
234.823395 -132.836624 4.104709 0.647059
234.911453 -132.761292 3.509633 0.495964
234.911453 -132.761292 2.904485 0.754360
234.911453 -132.761292 2.301279 0.834150
234.911453 -132.761292 1.698720 0.720562
234.911453 -132.761292 1.095515 0.829847
234.911453 -132.761292 0.490366 0.528206
234.131744 -133.428360 0.000006 0.218234
231.166595 -135.965134 0.000004 0.239357
229.273605 -137.584656 0.000003 0.230956
227.957901 -138.710281 0.000002 0.227557
226.988556 -139.539597 0.000002 0.233601
240.547226 -128.175598 8.431337 0.333425
238.660782 -129.766830 7.012320 0.207858
237.837967 -130.460892 6.026864 0.595346
237.837982 -130.460876 5.282820 0.488563
234.844193 -132.986176 4.095393 0.641062
234.911453 -132.929443 3.500707 0.555474
234.911453 -132.929443 2.899137 0.723552
234.911453 -132.929443 2.299498 0.498344
234.911453 -132.929443 1.700502 0.517647
234.911453 -132.929443 1.100863 0.727611
234.911453 -132.929443 0.499293 0.470192
234.210327 -133.520859 0.000006 0.246179
231.227539 -136.036880 0.000005 0.207918
229.323288 -137.643143 0.000004 0.235827
227.999756 -138.759552 0.000002 0.203490
227.024643 -139.582077 0.000002 0.255155
240.459290 -128.481857 8.365196 0.354314
238.598770 -130.029129 6.965677 0.334874
237.837967 -130.661835 6.003387 0.521691
237.837982 -130.661835 5.263680 0.567864
234.911453 -133.095627 4.093239 0.538537
234.911453 -133.095627 3.491957 0.545098
234.911453 -133.095627 2.893895 0.680568
234.911453 -133.095627 2.297752 0.537377
234.911453 -133.095627 1.702248 0.542565
234.911453 -133.095627 1.106105 0.790784
234.911453 -133.095627 0.508042 0.445808
234.288254 -133.613907 0.000006 0.238627
231.287979 -136.109039 0.000005 0.250272
229.372559 -137.701965 0.000003 0.223488
228.041275 -138.809113 0.000002 0.235647
227.060440 -139.624802 0.000001 0.277188
240.373871 -128.781296 8.300936 0.328969
238.538422 -130.286163 6.920278 0.364309
237.837967 -130.860474 5.980374 0.506966
237.837982 -130.860458 5.244919 0.692744
234.911453 -133.259903 4.081207 0.459007
234.911453 -133.259903 3.483381 0.595773
234.911453 -133.259888 2.888756 0.842496
234.911453 -133.259888 2.296041 0.573343
234.911453 -133.259888 1.703960 0.786160
234.911453 -133.259888 1.111244 0.887022
234.911453 -133.259903 0.516618 0.556359
234.365524 -133.707489 0.000006 0.224038
231.347916 -136.181610 0.000004 0.208420
229.421417 -137.761139 0.000003 0.229077
228.082428 -138.858963 0.000002 0.259703
227.095932 -139.667786 0.000002 0.193269
240.290848 -129.074203 8.238488 0.394919
238.479660 -130.538162 6.876075 0.276600
237.837967 -131.056839 5.957816 0.505669
234.823395 -133.493454 4.651551 0.656229
234.911453 -133.422287 4.069413 0.488533
234.911453 -133.422287 3.474974 0.613901
234.911453 -133.422287 2.883719 0.797024
234.884354 -133.444199 2.293792 0.321569
234.884354 -133.444199 1.706207 0.530312
234.911453 -133.422287 1.116281 0.666178
234.911453 -133.422287 0.525025 0.706584
234.442154 -133.801620 0.000006 0.223811
231.407333 -136.254608 0.000005 0.224960
229.469864 -137.820648 0.000004 0.218270
228.123245 -138.909088 0.000002 0.245509
227.131119 -139.711014 0.000002 0.206482
240.210159 -129.360825 8.177788 0.288853
238.422424 -130.785294 6.833027 0.422171
237.837952 -131.251007 5.935701 0.661967
234.823395 -133.653030 4.636734 0.660319
234.911453 -133.582870 4.057850 0.516289
234.911453 -133.582870 3.466734 0.660868
234.911453 -133.582870 2.878782 0.619425
234.884354 -133.604462 2.292151 0.437858
234.884354 -133.604462 1.707849 0.416602
234.911453 -133.582870 1.121218 0.585855
234.911453 -133.582870 0.533266 0.844358
234.518127 -133.896271 0.000006 0.256890
231.466248 -136.328018 0.000005 0.230657
229.517899 -137.880493 0.000003 0.222830
228.163712 -138.959518 0.000003 0.255502
227.166016 -139.754486 0.000002 0.200402
240.131699 -129.641388 8.118774 0.393088
238.366699 -131.027725 6.791100 0.412329
237.837967 -131.443024 5.914024 0.668376
234.823380 -133.810837 4.622210 0.607309
234.911453 -133.741669 4.046516 0.595300
234.911453 -133.741669 3.458655 0.656291
234.911453 -133.741669 2.873941 0.665660
234.884369 -133.762939 2.290542 0.552270
234.884354 -133.762939 1.709458 0.332921
234.911453 -133.741669 1.126058 0.741527
234.911453 -133.741669 0.541344 0.812985
234.593430 -133.991455 0.000006 0.215050
231.524658 -136.401840 0.000004 0.266847
229.565506 -137.940674 0.000003 0.216570
228.203827 -139.010208 0.000003 0.215218
227.200592 -139.798203 0.000002 0.243127
240.055405 -129.916122 8.061382 0.348730
238.312393 -131.265610 6.750256 0.395239
237.837967 -131.632935 5.892775 0.563210
234.823395 -133.966904 4.607975 0.653300
234.911453 -133.898727 4.035404 0.525948
234.911453 -133.898727 3.450736 0.798688
234.911453 -133.898727 2.869197 0.544213
234.911453 -133.898727 2.289525 0.494575
234.878708 -133.924088 1.711152 0.308736
234.911453 -133.898727 1.130803 0.522942
234.911453 -133.898727 0.549264 0.652125
234.668060 -134.087173 0.000006 0.247866
231.582535 -136.476074 0.000005 0.220460
229.612701 -138.001175 0.000003 0.205919
228.243576 -139.061188 0.000003 0.228191
227.234879 -139.842163 0.000002 0.290628
239.981201 -130.185272 8.005558 0.340322
238.259491 -131.499146 6.710458 0.425727
237.837967 -131.820816 5.871941 0.638163
235.051407 -133.947311 4.636562 0.647456
234.911453 -134.054108 4.024511 0.616114
234.911453 -134.054108 3.442971 0.819852
234.911453 -134.054108 2.864545 0.543481
234.911453 -134.054108 2.287976 0.498405
234.911453 -134.054108 1.712024 0.496147
234.911453 -134.054108 1.135455 0.535500
234.911453 -134.054108 0.557028 0.593240
234.742020 -134.183395 0.000007 0.212681
231.639893 -136.550705 0.000005 0.219802
229.659454 -138.062027 0.000004 0.221537
228.282974 -139.112457 0.000003 0.241547
227.268845 -139.886353 0.000002 0.200282
239.908997 -130.449005 7.951247 0.340749
238.207932 -131.728439 6.671675 0.365774
237.837967 -132.006699 5.851515 0.487312
237.837967 -132.006699 5.139868 0.513313
234.911453 -134.207840 4.013831 0.519310
234.911453 -134.207840 3.435359 0.789837
234.911453 -134.207825 2.859984 0.629023
234.911453 -134.207840 2.286457 0.630365
234.911453 -134.207840 1.713543 0.587320
234.911453 -134.207840 1.140015 0.659327
234.911453 -134.207840 0.564640 0.543175
234.815323 -134.280136 0.000007 0.240506
231.696747 -136.625732 0.000005 0.241631
229.705795 -138.123184 0.000004 0.260840
228.322006 -139.163986 0.000003 0.274555
227.302505 -139.930786 0.000002 0.192862
239.838745 -130.707550 7.898400 0.384054
238.157684 -131.953659 6.633879 0.363088
237.837967 -132.190643 5.831490 0.507256
237.837967 -132.190643 5.123543 0.653223
234.823395 -134.425232 3.990750 0.636515
234.911453 -134.359955 3.427896 0.538537
234.911453 -134.359955 2.855513 0.460121
234.911453 -134.359955 2.284967 0.512474
234.911453 -134.359955 1.715033 0.560311
234.911453 -134.359955 1.144487 0.556435
234.911453 -134.359955 0.572103 0.528084
234.887939 -134.377396 0.000006 0.242708
231.753052 -136.701157 0.000005 0.244372
229.751709 -138.184677 0.000003 0.190469
228.360687 -139.215775 0.000003 0.205069
227.335846 -139.975449 0.000002 0.247328
239.770355 -130.961090 7.846962 0.287617
238.108704 -132.174927 6.597032 0.327962
237.837967 -132.372711 5.811857 0.661402
237.837967 -132.372711 5.107537 0.745892
234.823380 -134.574860 3.980548 0.641810
234.911453 -134.510513 3.420580 0.501579
234.911453 -134.510513 2.851129 0.498375
234.911453 -134.510513 2.283507 0.521401
234.911453 -134.510513 1.716493 0.604944
234.911453 -134.510513 1.148871 0.556695
234.911453 -134.510513 0.579420 0.554772
234.911453 -134.510513 0.006904 0.651240
231.808853 -136.776962 0.000005 0.201670
229.797195 -138.246475 0.000003 0.214009
228.399002 -139.267853 0.000003 0.227174
227.368896 -140.020355 0.000002 0.267709
239.703796 -131.209793 7.796894 0.328313
238.060944 -132.392395 6.561110 0.422629
237.837967 -132.552902 5.792608 0.751659
237.837967 -132.552902 5.091846 0.616236
234.823395 -134.722931 3.970548 0.617502
234.911453 -134.659546 3.413406 0.528634
234.911453 -134.659546 2.846831 0.663386
234.911453 -134.659546 2.282075 0.683055
234.911453 -134.659546 1.717925 0.834165
234.911453 -134.659546 1.153169 0.719936
234.911453 -134.659546 0.586594 0.507652
234.911453 -134.659546 0.016969 0.606607
231.864105 -136.853165 0.000005 0.250260
229.842239 -138.308594 0.000003 0.215505
228.436966 -139.320190 0.000003 0.245293
227.401611 -140.065475 0.000002 0.208109
239.638992 -131.453842 7.748147 0.311330
238.014374 -132.606186 6.526082 0.278843
237.837967 -132.731308 5.773736 0.643153
237.837967 -132.731308 5.076460 0.644800
234.884445 -134.826248 3.969353 0.601907
234.911453 -134.807083 3.406373 0.545953
234.911453 -134.807083 2.842617 0.507469
234.911453 -134.807083 2.280672 0.518380
234.911453 -134.807083 1.719328 0.571206
234.911453 -134.807083 1.157383 0.506416
234.911453 -134.807083 0.593627 0.575387
234.911453 -134.807083 0.026837 0.541527
231.918839 -136.929749 0.000005 0.219790
229.886856 -138.371033 0.000004 0.249518
228.474548 -139.372787 0.000002 0.256567
227.434021 -140.110825 0.000002 0.249769
239.575897 -131.693390 7.700677 0.394842
237.636169 -133.048981 6.404232 0.635294
237.837967 -132.907959 5.755232 0.559213
237.837967 -132.907944 5.061376 0.567361
235.442490 -134.582047 4.038019 0.369558
234.911453 -134.953171 3.399477 0.577661
234.911453 -134.953171 2.838485 0.511101
234.911453 -134.953171 2.279295 0.513848
234.911453 -134.953171 1.720705 0.601740
234.911453 -134.953171 1.161515 0.528710
234.911453 -134.953171 0.600523 0.534783
234.911453 -134.953171 0.036512 0.545541
231.973022 -137.006714 0.000005 0.206194
229.931030 -138.433777 0.000004 0.199564
228.511765 -139.425644 0.000002 0.253778
227.466110 -140.156403 0.000001 0.222925
239.514420 -131.928619 7.654443 0.333364
237.636169 -133.221817 6.382954 0.656138
237.837967 -133.082870 5.737091 0.539284
237.837967 -133.082886 5.046585 0.550057
235.715683 -134.544113 4.066330 0.390829
234.911453 -135.097839 3.392715 0.544991
234.911453 -135.097839 2.834435 0.531624
234.911453 -135.097839 2.277946 0.486839
234.911453 -135.097839 1.722054 0.577569
234.911453 -135.097839 1.165565 0.513726
234.911453 -135.097839 0.607284 0.652461
234.911453 -135.097839 0.045997 0.749279
232.026672 -137.084061 0.000005 0.229544
229.974762 -138.496826 0.000003 0.206745
228.548615 -139.478760 0.000002 0.265208
227.497879 -140.202209 0.000002 0.244073
239.454559 -132.159637 7.609410 0.252857
237.636169 -133.393005 6.362093 0.640848
237.837967 -133.256134 5.719303 0.558434
237.837967 -133.256134 5.032084 0.570077
235.996872 -134.504913 4.095582 0.278370
234.823380 -135.300858 3.377362 0.627253
234.911453 -135.241119 2.830463 0.540658
234.911453 -135.241119 2.276623 0.536843
234.911453 -135.241119 1.723377 0.562890
234.911453 -135.241119 1.169536 0.503899
234.911453 -135.241119 0.613913 0.547570
234.911453 -135.241119 0.055298 0.607538
232.079773 -137.161774 0.000005 0.213112
230.018066 -138.560181 0.000003 0.230501
228.585083 -139.532135 0.000002 0.242577
227.529327 -140.248230 0.000002 0.262850
239.396240 -132.386627 7.565543 0.341054
237.636169 -133.562592 6.341640 0.664408
237.806549 -133.448746 5.694988 0.374182
237.806549 -133.448746 5.012262 0.278431
236.286423 -134.464401 4.125817 0.324346
234.823380 -135.441895 3.370903 0.634974
234.911453 -135.383041 2.826569 0.614115
234.911453 -135.383041 2.275326 0.581384
234.911453 -135.383041 1.724674 0.555001
234.911453 -135.383041 1.173431 0.599222
234.911453 -135.383041 0.620412 0.512047
234.911453 -135.383041 0.064416 0.524819
232.132339 -137.239853 0.000005 0.221848
230.060913 -138.623840 0.000003 0.254114
228.621185 -139.585770 0.000003 0.206529
227.560455 -140.294464 0.000002 0.185011
239.339417 -132.609711 7.522797 0.344808
237.636169 -133.730591 6.321588 0.635294
237.821838 -133.608398 5.681255 0.396338
237.821854 -133.608383 5.001069 0.305394
236.584747 -134.422501 4.157085 0.396612
234.823395 -135.581619 3.364572 0.641779
234.911453 -135.523666 2.822752 0.494820
234.911453 -135.523666 2.274054 0.601465
234.911453 -135.523666 1.725945 0.532738
234.911453 -135.523666 1.177248 0.599817
234.911453 -135.523666 0.626784 0.514763
234.911453 -135.523666 0.073356 0.584833
232.184357 -137.318298 0.000005 0.225044
230.103317 -138.687790 0.000003 0.242612
228.656906 -139.639648 0.000003 0.192455
227.591263 -140.340927 0.000002 0.262431
239.284042 -132.829025 7.481145 0.268132
237.636169 -133.897049 6.301929 0.643519
237.821854 -133.776703 5.664511 0.519326
237.821854 -133.776703 4.987417 0.431373
236.892319 -134.379150 4.189436 0.366094
234.973587 -135.622726 3.373040 0.640757
234.823395 -135.720062 2.813853 0.623346
234.823395 -135.720062 2.271091 0.658640
234.823395 -135.720062 1.728909 0.613886
234.823395 -135.720062 1.186146 0.624674
234.823395 -135.720062 0.641635 0.630350
234.823395 -135.720062 0.094193 0.654902
232.235840 -137.397110 0.000005 0.226444
230.145279 -138.752045 0.000003 0.254868
228.692261 -139.693771 0.000003 0.232308
227.621750 -140.387589 0.000002 0.235456
239.230072 -133.044693 7.440553 0.421164
237.636169 -134.062012 6.282655 0.648676
237.837967 -133.933212 5.651572 0.782452
237.837967 -133.933212 4.976868 0.791058
237.209579 -134.334290 4.222925 0.254582
235.525055 -135.409424 3.420532 0.397452
234.823395 -135.857269 2.810207 0.622522
234.823380 -135.857269 2.269876 0.633417
234.823380 -135.857269 1.730124 0.658854
234.823380 -135.857269 1.189793 0.645731
234.823380 -135.857269 0.647721 0.634058
234.823380 -135.857269 0.102732 0.632898
232.286743 -137.476288 0.000005 0.216738
230.186783 -138.816589 0.000004 0.220616
228.727234 -139.748138 0.000003 0.239956
227.651901 -140.434479 0.000002 0.224062
239.177490 -133.256836 7.400990 0.317250
237.636169 -134.225510 6.263761 0.628534
237.837967 -134.098679 5.635462 0.650690
237.838058 -134.098633 4.963751 0.792981
237.537048 -134.287796 4.257613 0.397543
235.794678 -135.382828 3.440375 0.334997
234.881927 -135.956467 2.810029 0.637415
234.882263 -135.956253 2.269824 0.641077
234.882111 -135.956345 1.730179 0.627085
234.882248 -135.956268 1.189952 0.625391
234.882111 -135.956345 0.647999 0.635157
234.882156 -135.956329 0.103117 0.631342
232.337112 -137.555801 0.000005 0.252845
230.227844 -138.881409 0.000004 0.205357
228.761826 -139.802765 0.000003 0.223021
227.681732 -140.481567 0.000002 0.199432
239.126221 -133.465576 7.362426 0.435691
237.636169 -134.387589 6.245238 0.633600
237.837967 -134.262711 5.619669 0.520226
237.838226 -134.262558 4.950904 0.731685
237.839127 -134.262009 4.288671 0.548974
236.072128 -135.355362 3.460871 0.448234
235.101334 -135.956070 2.819186 0.642542
235.101028 -135.956253 2.272861 0.671412
235.100861 -135.956360 1.727142 0.670527
235.100769 -135.956421 1.180847 0.651041
235.100937 -135.956314 0.632773 0.655131
235.100937 -135.956314 0.081759 0.653895
232.386917 -137.635666 0.000005 0.275117
230.268448 -138.946518 0.000004 0.244204
228.796036 -139.857620 0.000003 0.189176
227.711227 -140.528870 0.000002 0.271072
239.076233 -133.671036 7.324831 0.370016
237.636169 -134.548264 6.227081 0.652064
237.837967 -134.425323 5.604187 0.470909
237.838394 -134.425079 4.938313 0.679728
237.839294 -134.424530 4.278904 0.658412
236.357819 -135.326981 3.482053 0.427482
235.488678 -135.856415 2.837964 0.782849
235.488678 -135.856415 2.279122 0.633463
235.488693 -135.856415 1.720878 0.608362
235.488678 -135.856415 1.162036 0.648478
235.488678 -135.856415 0.601393 0.512200
235.488678 -135.856415 0.037733 0.595346
232.436172 -137.715897 0.000005 0.233469
230.308594 -139.011917 0.000004 0.216523
228.829865 -139.912704 0.000003 0.210060
227.740387 -140.576370 0.000002 0.207798
239.027512 -133.873291 7.288181 0.346426
237.636169 -134.707581 6.209283 0.612177
237.837982 -134.586563 5.589013 0.560265
237.838562 -134.586212 4.925970 0.550988
237.839462 -134.585678 4.269332 0.773220
236.652130 -135.297638 3.503951 0.224369
235.720245 -135.856415 2.847699 0.718837
235.720245 -135.856415 2.282365 0.816907
235.720245 -135.856415 1.717635 0.603372
235.720245 -135.856415 1.152300 0.548104
235.720245 -135.856415 0.585144 0.512749
235.720245 -135.856415 0.014934 0.526101
232.484863 -137.796448 0.000005 0.246550
230.348297 -139.077591 0.000004 0.223404
228.863297 -139.968033 0.000003 0.248584
227.769211 -140.624084 0.000002 0.232847
238.980011 -134.072464 7.252446 0.337575
237.636169 -134.865570 6.191838 0.623743
237.837982 -134.746460 5.574138 0.559518
237.838745 -134.746017 4.913873 0.553124
237.839615 -134.745499 4.259947 0.806271
236.955505 -135.267273 3.526602 0.298283
235.957245 -135.856430 2.857706 0.582559
235.957245 -135.856430 2.285698 0.718196
235.957245 -135.856430 1.714302 0.546227
235.957245 -135.856430 1.142294 0.494057
235.957245 -135.856430 0.568442 0.555245
235.893585 -135.893997 0.000007 0.219395
232.532990 -137.877335 0.000005 0.242660
230.387527 -139.143539 0.000004 0.279856
228.896347 -140.023590 0.000003 0.227018
227.797714 -140.671982 0.000002 0.239106
238.933685 -134.268661 7.217604 0.350164
237.636169 -135.022263 6.174738 0.641367
237.838013 -134.905029 5.559565 0.490379
237.838913 -134.904510 4.902016 0.523476
237.839798 -134.903992 4.250752 0.677134
237.268402 -135.235855 3.550043 0.405066
236.199936 -135.856415 2.867995 0.500130
236.199936 -135.856430 2.289125 0.816632
236.199936 -135.856430 1.710875 0.482353
236.199936 -135.856415 1.132004 0.476570
236.199936 -135.856415 0.551270 0.523110
235.954895 -135.998734 0.000007 0.215062
232.580536 -137.958572 0.000005 0.219598
230.426300 -139.209763 0.000004 0.217648
228.929016 -140.079391 0.000003 0.232057
227.825882 -140.720093 0.000002 0.192455
238.888519 -134.461960 7.183630 0.378912
237.667267 -135.159912 6.165716 0.617960
237.838181 -135.062225 5.545314 0.521324
237.839081 -135.061722 4.890397 0.507378
237.839966 -135.061218 4.241740 0.622980
237.591263 -135.203339 3.574314 0.414343
236.448517 -135.856430 2.878577 0.485969
236.448517 -135.856430 2.292650 0.683543
236.448517 -135.856430 1.707350 0.513024
236.448517 -135.856430 1.121423 0.497642
236.448532 -135.856430 0.533608 0.649668
236.015503 -136.103897 0.000007 0.240147
232.627533 -138.040131 0.000005 0.210371
230.464600 -139.276245 0.000004 0.217971
228.961288 -140.135406 0.000003 0.177914
227.853714 -140.768387 0.000002 0.179183
238.844482 -134.652466 7.150498 0.360571
237.748734 -135.268585 6.169451 0.636301
237.838348 -135.218201 5.531343 0.648783
237.839218 -135.217697 4.879004 0.484092
237.840088 -135.217209 4.232903 0.492622
237.840973 -135.216721 3.591585 0.806226
236.703262 -135.856430 2.889464 0.478553
236.703262 -135.856430 2.296276 0.648463
236.703262 -135.856430 1.703724 0.503670
236.703262 -135.856430 1.110536 0.505394
236.703262 -135.856430 0.515437 0.670970
236.075348 -136.209488 0.000007 0.210838
232.673950 -138.122025 0.000005 0.206529
230.502441 -139.343002 0.000004 0.233062
228.993164 -140.191635 0.000003 0.272329
227.881195 -140.816879 0.000002 0.283710
238.801529 -134.840271 7.118188 0.330800
237.828751 -135.378326 6.172999 0.631128
237.838516 -135.372940 5.517656 0.672419
237.839401 -135.372452 4.867846 0.488838
237.840271 -135.371964 4.224250 0.548974
237.841141 -135.371475 3.585415 0.844434
237.047485 -135.810471 2.905332 0.618601
236.964401 -135.856430 2.300008 0.718624
236.964401 -135.856430 1.699992 0.685466
236.964401 -135.856430 1.099332 0.655985
236.964401 -135.856430 0.496736 0.709499
236.134460 -136.315491 0.000007 0.229556
232.719803 -138.204224 0.000005 0.255610
230.539825 -139.410019 0.000004 0.221932
229.024658 -140.248108 0.000003 0.226013
227.908340 -140.865555 0.000002 0.277415
238.759644 -135.025452 7.086681 0.347509
237.837982 -135.526871 6.159316 0.601816
237.838669 -135.526489 5.504244 0.654414
237.839554 -135.526016 4.856910 0.482444
237.840408 -135.525558 4.215765 0.587900
237.841278 -135.525070 3.579369 0.590051
237.109344 -135.923279 2.905331 0.647974
237.232224 -135.856430 2.303851 0.843244
237.232224 -135.856430 1.696149 0.765454
237.232224 -135.856430 1.087796 0.724132
237.232224 -135.856430 0.477483 0.543450
236.192841 -136.421906 0.000007 0.223165
232.765076 -138.286758 0.000005 0.210658
230.576721 -139.477295 0.000003 0.230345
229.055740 -140.304779 0.000003 0.236138
227.935150 -140.914429 0.000002 0.245413
238.718781 -135.208099 7.055950 0.336034
237.837982 -135.679352 6.143678 0.554040
237.838837 -135.678894 5.491104 0.545144
237.839722 -135.678421 4.846199 0.591546
237.840591 -135.677948 4.207458 0.557580
237.841461 -135.677490 3.573447 0.646525
237.321701 -135.955566 2.913759 0.638575
237.507019 -135.856430 2.307808 0.590661
237.507019 -135.856430 1.692192 0.573510
237.507004 -135.856430 1.075916 0.645274
237.507004 -135.856430 0.457654 0.525353
236.250473 -136.528717 0.000007 0.252247
232.809753 -138.369598 0.000005 0.215769
230.613159 -139.544830 0.000004 0.220747
229.086441 -140.361679 0.000003 0.229711
227.961624 -140.963486 0.000002 0.209186
238.678955 -135.388275 7.025982 0.307515
237.838043 -135.830658 6.128376 0.483040
237.838959 -135.830185 5.478220 0.517800
237.839828 -135.829712 4.835694 0.678569
237.840729 -135.829239 4.199316 0.550072
237.841614 -135.828781 3.567644 0.569879
237.602722 -135.954453 2.925981 0.639200
237.789063 -135.856430 2.311885 0.587457
237.789063 -135.856430 1.688115 0.545251
237.789063 -135.856430 1.063676 0.707927
237.789063 -135.856430 0.437224 0.540536
236.307343 -136.635925 0.000007 0.231758
232.853882 -138.452744 0.000005 0.236150
230.649124 -139.612625 0.000004 0.237143
229.116745 -140.418793 0.000003 0.260696
227.987747 -141.012726 0.000002 0.206553
238.640091 -135.566071 6.996754 0.295460
237.838058 -135.980881 6.113372 0.486381
237.838974 -135.980423 5.465579 0.502937
237.839844 -135.979965 4.825388 0.797452
237.840729 -135.979507 4.191321 0.486946
237.841614 -135.979050 3.561946 0.597665
237.841476 -135.979126 2.935820 0.550439
237.840591 -135.979584 2.311701 0.532235
237.839722 -135.980026 1.688315 0.457420
237.838837 -135.980484 1.064326 0.559060
237.837967 -135.980927 0.438390 0.544244
236.363480 -136.743546 0.000007 0.237035
232.897415 -138.536194 0.000005 0.224732
230.684616 -139.680664 0.000004 0.203490
229.146637 -140.476105 0.000003 0.249267
228.013535 -141.062149 0.000002 0.235791
238.602203 -135.741562 6.968252 0.367285
237.838089 -136.130035 6.098680 0.551995
237.838989 -136.129578 5.453198 0.557321
237.839890 -136.129120 4.815298 0.585763
237.840775 -136.128662 4.183496 0.525948
235.299438 -137.420639 3.322527 0.630182
237.840652 -136.128723 2.932431 0.525795
237.839798 -136.129166 2.310573 0.475639
237.838928 -136.129593 1.689443 0.512520
237.838074 -136.130035 1.067712 0.840726
237.837296 -136.130432 0.444032 0.635004
236.418869 -136.851547 0.000007 0.249458
232.940353 -138.619965 0.000005 0.234199
230.719635 -139.748947 0.000004 0.233696
229.176132 -140.533630 0.000003 0.253515
228.038971 -141.111755 0.000002 0.254054
238.565247 -135.914825 6.940453 0.335683
237.838104 -136.278122 6.084289 0.767285
237.839005 -136.277664 5.441073 0.538857
237.839890 -136.277222 4.805410 0.681605
237.840775 -136.276794 4.175826 0.542641
235.075485 -137.658417 3.297354 0.648768
237.839905 -136.277222 2.929114 0.521691
237.839035 -136.277649 2.309468 0.598901
237.838181 -136.278076 1.690548 0.548592
237.837311 -136.278519 1.071028 0.483879
237.836914 -136.278717 0.449533 0.520043
236.473495 -136.959930 0.000007 0.221657
232.982727 -138.704010 0.000005 0.200450
230.754166 -139.817459 0.000004 0.292614
229.205231 -140.591354 0.000003 0.217085
228.064056 -141.161530 0.000002 0.243797
238.529205 -136.085907 6.913343 0.326436
237.838135 -136.425171 6.070196 0.742611
237.839020 -136.424744 5.429199 0.502510
237.839905 -136.424301 4.795731 0.507286
237.840698 -136.423920 4.168307 0.585397
234.859879 -137.887314 3.273183 0.637552
235.266495 -137.687683 2.785070 0.486717
235.266479 -137.687698 2.261503 0.517494
235.266479 -137.687698 1.738497 0.486229
235.266495 -137.687683 1.214930 0.588754
235.266495 -137.687683 0.689676 0.793469
235.266495 -137.687683 0.161595 0.759884
233.024506 -138.788361 0.000005 0.250655
230.788223 -139.886230 0.000004 0.282047
229.233932 -140.649292 0.000003 0.231650
228.088791 -141.211487 0.000002 0.217348
238.494064 -136.254883 6.886905 0.258503
237.838135 -136.571243 6.056394 0.704814
237.839050 -136.570801 5.417574 0.512367
237.839935 -136.570374 4.786252 0.541283
237.839951 -136.570374 4.160857 0.581018
234.652176 -138.107834 3.249956 0.652491
235.028549 -137.926315 2.769429 0.533379
235.028549 -137.926315 2.256293 0.494743
235.028549 -137.926315 1.743707 0.534356
235.028549 -137.926315 1.230570 0.768643
235.028549 -137.926315 0.715781 0.492943
235.028549 -137.926315 0.198221 0.526284
233.065689 -138.873001 0.000006 0.219323
230.821808 -139.955231 0.000004 0.228969
229.262207 -140.707428 0.000003 0.205584
228.113174 -141.261597 0.000003 0.243151
238.459793 -136.421829 6.861126 0.373404
237.838135 -136.716324 6.042880 0.573602
237.839035 -136.715897 5.406188 0.556832
237.839905 -136.715485 4.776965 0.543786
237.839218 -136.715820 4.153565 0.883024
234.451874 -138.320480 3.227619 0.624033
234.799881 -138.155624 2.754436 0.701411
234.799896 -138.155624 2.251299 0.462928
234.799896 -138.155624 1.748701 0.482200
234.799881 -138.155624 1.245564 0.703639
234.799896 -138.155624 0.740806 0.550027
234.799896 -138.155624 0.233330 0.537179
233.106277 -138.957932 0.000005 0.207511
230.854889 -140.024460 0.000004 0.224074
229.290100 -140.765747 0.000003 0.228993
228.137222 -141.311890 0.000002 0.205297
238.426376 -136.586807 6.835988 0.333150
237.838165 -136.860443 6.029657 0.722789
237.839050 -136.860031 5.395043 0.735470
237.839249 -136.859940 4.767772 0.518257
237.838470 -136.860306 4.146424 0.835996
234.258621 -138.525665 3.206125 0.654902
234.579956 -138.376175 2.740051 0.585931
234.579956 -138.376175 2.246508 0.494423
234.579956 -138.376175 1.753492 0.502235
234.579956 -138.376175 1.259948 0.491142
234.579956 -138.376175 0.764814 0.539467
234.579956 -138.376175 0.267016 0.767208
233.146286 -139.043137 0.000005 0.197326
230.887512 -140.093933 0.000004 0.244910
229.317566 -140.824265 0.000003 0.221513
228.160904 -141.362350 0.000003 0.227318
238.393784 -136.749863 6.811476 0.378500
237.838196 -137.003632 6.016716 0.584710
237.839081 -137.003220 5.384140 0.646677
237.838486 -137.003494 4.758754 0.489250
237.837723 -137.003845 4.139432 0.825833
234.071991 -138.723801 3.185427 0.632517
234.368256 -138.588486 2.726240 0.486534
234.368256 -138.588486 2.241907 0.492927
234.368256 -138.588486 1.758093 0.582086
234.368256 -138.588486 1.273760 0.492470
234.368256 -138.588486 0.787867 0.559258
234.368256 -138.588486 0.299359 0.479744
233.185684 -139.128616 0.000005 0.228933
230.919632 -140.163620 0.000004 0.224780
229.344635 -140.882980 0.000003 0.274028
228.184235 -141.412979 0.000002 0.238328
238.362015 -136.911072 6.787579 0.323873
237.838211 -137.145905 6.004052 0.528801
237.838516 -137.145767 5.373353 0.664576
237.837738 -137.146118 4.749932 0.562890
235.091400 -138.377380 3.786446 0.214725
233.891663 -138.915253 3.165483 0.641840
234.164291 -138.793030 2.712968 0.525765
234.164291 -138.793030 2.237486 0.458793
234.164291 -138.793030 1.762514 0.526024
234.164291 -138.793030 1.287032 0.527047
234.164291 -138.793030 0.810018 0.759121
234.164291 -138.793030 0.330436 0.545235
233.224487 -139.214371 0.000005 0.247340
230.951263 -140.233521 0.000004 0.211209
229.371277 -140.941879 0.000003 0.247447
228.207230 -141.463760 0.000002 0.218749
238.331039 -137.070480 6.764279 0.275288
237.838226 -137.287308 5.991656 0.513924
237.837799 -137.287491 5.362767 0.592493
237.837021 -137.287827 4.741302 0.537850
235.062759 -138.508423 3.777315 0.361456
233.717285 -139.100388 3.146254 0.620584
233.967651 -138.990234 2.700206 0.530404
233.967651 -138.990234 2.233235 0.649302
233.967651 -138.990234 1.766765 0.717388
233.967651 -138.990234 1.299794 0.559319
233.967651 -138.990234 0.831318 0.707546
233.967651 -138.990234 0.360321 0.638483
233.262695 -139.300400 0.000006 0.224194
230.982407 -140.303650 0.000004 0.233637
229.397522 -141.000961 0.000003 0.215433
228.229843 -141.514709 0.000003 0.213710
237.657089 -137.506027 6.565933 0.643214
237.544159 -137.554779 5.910354 0.662760
237.543945 -137.554855 5.294315 0.610376
237.544098 -137.554794 4.685648 0.635294
234.559494 -138.843140 3.708857 0.359655
233.548569 -139.279510 3.127704 0.648844
233.777908 -139.180527 2.687926 0.509438
233.777908 -139.180527 2.229145 0.705959
233.777908 -139.180527 1.770855 0.606455
233.777908 -139.180527 1.312074 0.520226
233.777908 -139.180527 0.851814 0.441245
233.777908 -139.180527 0.389077 0.540795
233.300308 -139.386688 0.000005 0.265256
231.013077 -140.374008 0.000004 0.237203
229.423355 -141.060226 0.000003 0.248333
228.252121 -141.565796 0.000002 0.272209
237.556625 -137.686752 6.524998 0.670039
237.391174 -137.756805 5.862819 0.635294
237.396591 -137.754517 5.255380 0.623529
237.415512 -137.746506 4.656930 0.635752
234.237640 -139.092026 3.663556 0.391852
233.385208 -139.452957 3.109797 0.654948
233.594696 -139.364258 2.676102 0.692927
233.594696 -139.364258 2.225207 0.708461
233.594696 -139.364258 1.774794 0.701839
233.594696 -139.364258 1.323898 0.542519
233.594696 -139.364258 0.871550 0.537697
233.594696 -139.364258 0.416766 0.845319
233.337311 -139.473236 0.000005 0.244132
231.043243 -140.444565 0.000004 0.230609
