# This PCD file was generated using the MATLAB® pcwrite function
# from Computer Vision Toolbox®.
# .PCD v.7 - Point Cloud Data file format
VERSION .7
FIELDS x y z intensity
SIZE 4 4 4 4
TYPE F F F F
COUNT 1 1 1 1
WIDTH 1176
HEIGHT 1
VIEWPOINT 0 0 0 1 0 0 0
POINTS 1176
DATA ascii
246.787231 -135.857529 13.514690 0.205554
246.767624 -135.872055 11.390733 0.517647
246.767624 -135.872055 9.282903 0.494209
246.767639 -135.872040 7.190890 0.600595
247.254623 -135.511063 5.080300 0.557671
250.198212 -133.329102 2.966074 0.598199
250.198181 -133.329132 1.033925 0.491981
264.920105 -122.416336 -0.000023 0.230345
278.030579 -112.698059 -0.000014 0.227078
283.659363 -108.525673 -0.000010 0.216439
286.794281 -106.201874 -0.000007 0.212202
288.795654 -104.718338 -0.000006 0.211364
290.186676 -103.687218 -0.000005 0.209342
291.211548 -102.927536 -0.000004 0.212190
nan nan nan 0.000000
246.041489 -135.855164 15.797196 0.467292
246.018341 -135.872070 13.628942 0.703899
246.018341 -135.872070 11.480254 0.551049
246.018326 -135.872086 9.352334 0.651576
246.183899 -135.751129 7.223565 0.384344
247.256332 -134.967728 5.064412 0.497108
250.198212 -132.818680 2.961124 0.576959
250.198181 -132.818710 1.038875 0.517647
264.751648 -122.187424 -0.000024 0.229292
277.929657 -112.560905 -0.000014 0.224326
283.587433 -108.427910 -0.000010 0.233852
286.738495 -106.126060 -0.000007 0.213854
288.750183 -104.656525 -0.000006 0.242792
290.148376 -103.635147 -0.000005 0.181337
291.178497 -102.882645 -0.000004 0.202748
nan nan nan 0.000000
nan nan nan 0.000000
nan nan nan 0.000000
nan nan nan 0.000000
242.875717 -137.584534 9.760662 0.625650
246.224792 -135.173721 7.193058 0.347219
247.258011 -134.429962 5.048837 0.692287
250.198212 -132.313477 2.956270 0.553964
250.198181 -132.313492 1.043729 0.517647
264.584778 -121.957336 -0.000024 0.224876
277.829681 -112.423050 -0.000014 0.230477
283.516174 -108.329659 -0.000010 0.242361
286.683228 -106.049858 -0.000007 0.231446
288.705139 -104.594406 -0.000006 0.226276
290.110413 -103.582809 -0.000005 0.234618
291.145782 -102.837517 -0.000004 0.185861
nan nan nan 0.000000
nan nan nan 0.000000
nan nan nan 0.000000
nan nan nan 0.000000
242.826935 -137.041733 9.728925 0.365240
246.264801 -134.603256 7.163193 0.379797
247.327637 -133.849380 5.029471 0.333455
250.198212 -131.813278 2.951512 0.517647
250.198196 -131.813293 1.048488 0.517647
264.419556 -121.726089 -0.000024 0.225307
277.730682 -112.284500 -0.000014 0.222590
283.445618 -108.230904 -0.000010 0.216953
286.628510 -105.973274 -0.000008 0.192695
288.660522 -104.531967 -0.000006 0.202724
290.072845 -103.530212 -0.000005 0.241894
291.113373 -102.792160 -0.000004 0.214165
nan nan nan 0.000000
nan nan nan 0.000000
nan nan nan 0.000000
nan nan nan 0.000000
242.889465 -136.425812 9.682249 0.333104
246.303986 -134.039551 7.133955 0.321187
247.311829 -133.335220 5.015564 0.306233
250.196182 -131.319458 2.946887 0.626932
250.199310 -131.317276 1.053176 0.642161
264.255920 -121.493690 -0.000024 0.230932
277.632660 -112.145271 -0.000014 0.220436
283.375732 -108.131668 -0.000010 0.260911
286.574310 -105.896309 -0.000008 0.213806
288.616333 -104.469231 -0.000006 0.197135
290.035614 -103.477356 -0.000005 0.226863
291.081268 -102.746590 -0.000004 0.283806
nan nan nan 0.000000
nan nan nan 0.000000
nan nan nan 0.000000
nan nan nan 0.000000
242.950638 -135.817688 9.636593 0.366598
246.342331 -133.482452 7.105335 0.367193
247.259003 -132.851303 5.004147 0.522057
250.286285 -130.766968 2.940522 0.648508
250.286270 -130.766968 1.059477 0.640879
264.093933 -121.260162 -0.000024 0.227712
277.535583 -112.005348 -0.000014 0.236856
283.306549 -108.031937 -0.000010 0.219562
286.520660 -105.818970 -0.000008 0.246610
288.572601 -104.406174 -0.000006 0.205656
289.998779 -103.424232 -0.000005 0.279150
291.049500 -102.700783 -0.000004 0.261522
nan nan nan 0.000000
nan nan nan 0.000000
nan nan nan 0.000000
nan nan nan 0.000000
243.010498 -135.217102 9.591923 0.344427
246.379883 -132.931732 7.077317 0.345861
247.259003 -132.335449 4.989848 0.597604
250.198181 -130.341888 2.937788 0.646815
250.198212 -130.341858 1.062212 0.651423
263.933594 -121.025497 -0.000024 0.227078
277.439514 -111.864754 -0.000014 0.242469
283.238068 -107.931732 -0.000010 0.239800
286.467560 -105.741249 -0.000008 0.200581
288.529297 -104.342819 -0.000006 0.239010
289.962311 -103.370857 -0.000005 0.288378
291.018066 -102.654762 -0.000004 0.235336
nan nan nan 0.000000
nan nan nan 0.000000
nan nan nan 0.000000
nan nan nan 0.000000
243.069061 -134.623901 9.548226 0.302342
246.416626 -132.387283 7.049886 0.356390
247.259003 -131.824463 4.975829 0.684337
250.198181 -129.860718 2.933391 0.703304
250.198196 -129.860703 1.066609 0.750774
263.774841 -120.789734 -0.000024 0.229579
277.344421 -111.723495 -0.000014 0.220328
283.170288 -107.831047 -0.000010 0.208444
286.415009 -105.663170 -0.000007 0.240638
288.486450 -104.279167 -0.000006 0.195232
289.926208 -103.317230 -0.000005 0.254592
290.986938 -102.608521 -0.000004 0.223667
nan nan nan 0.000000
nan nan nan 0.000000
nan nan nan 0.000000
nan nan nan 0.000000
243.126343 -134.037842 9.505475 0.343145
246.452637 -131.848892 7.023029 0.384817
247.258972 -131.318237 4.962087 0.596536
250.198181 -129.384018 2.929079 0.594827
250.198196 -129.384003 1.070920 0.647364
263.617767 -120.552864 -0.000024 0.230130
277.250305 -111.581573 -0.000014 0.234127
283.103210 -107.729897 -0.000010 0.237047
286.362976 -105.584717 -0.000008 0.224744
288.444031 -104.215210 -0.000006 0.215517
289.890472 -103.263351 -0.000005 0.209797
290.956116 -102.562065 -0.000004 0.212406
nan nan nan 0.000000
nan nan nan 0.000000
nan nan nan 0.000000
nan nan nan 0.000000
243.182373 -133.458755 9.463650 0.309300
286.660583 -105.279671 3.071431 0.724285
247.297333 -130.791779 4.946366 0.511269
250.198181 -128.911682 2.924854 0.611215
250.198181 -128.911682 1.075146 0.552056
263.462372 -120.314896 -0.000024 0.229627
277.157196 -111.439003 -0.000015 0.224697
283.036865 -107.628281 -0.000010 0.256591
286.311493 -105.505913 -0.000008 0.232428
288.402100 -104.150963 -0.000006 0.245736
289.855103 -103.209229 -0.000005 0.203011
290.925629 -102.515396 -0.000005 0.222483
286.758484 -105.108963 5.229354 0.723033
286.758484 -105.108963 4.784471 0.580392
286.758484 -105.108963 4.345834 0.612573
286.758484 -105.108963 3.912392 0.632166
286.758484 -105.108963 3.483140 0.643931
286.758484 -105.108971 3.057108 0.637781
286.758484 -105.108971 2.633358 0.599695
286.758484 -105.108963 2.210969 0.647059
286.758484 -105.108963 1.789032 0.625483
286.758484 -105.108963 1.366642 0.622614
286.758484 -105.108963 0.942891 0.599741
286.758484 -105.108963 0.516861 0.626474
286.758484 -105.108963 0.087609 0.643275
288.360565 -104.086426 -0.000006 0.230681
289.820160 -103.154854 -0.000005 0.249123
290.895477 -102.468513 -0.000004 0.247436
286.758575 -105.002594 5.215074 0.669886
286.758575 -105.002594 4.772158 0.674846
286.758575 -105.002594 4.335461 0.624521
286.758575 -105.002594 3.903936 0.633829
286.758575 -105.002594 3.476582 0.683528
286.758606 -105.002586 3.052433 0.671336
286.758606 -105.002586 2.630557 0.620996
286.758575 -105.002586 2.210036 0.680995
286.758575 -105.002594 1.789964 0.672343
286.758575 -105.002602 1.369442 0.622583
286.758575 -105.002602 0.947564 0.625971
286.758545 -105.002609 0.523415 0.638483
286.758545 -105.002609 0.096058 0.691936
288.319519 -104.021591 -0.000006 0.215864
289.785553 -103.100235 -0.000005 0.225451
290.865662 -102.421425 -0.000004 0.197278
286.758636 -104.897186 5.201091 0.580392
286.758636 -104.897186 4.760101 0.654368
286.758636 -104.897186 4.325303 0.623529
286.758636 -104.897186 3.895655 0.606577
286.758636 -104.897186 3.470160 0.661799
286.758636 -104.897179 3.047855 0.631983
286.758667 -104.897171 2.627814 0.643351
286.758636 -104.897179 2.209122 0.690394
286.758636 -104.897186 1.790878 0.675685
286.758636 -104.897194 1.372184 0.629633
286.758606 -104.897202 0.952141 0.632456
286.758606 -104.897209 0.529835 0.647059
286.758575 -104.897217 0.104336 0.621698
288.278900 -103.956482 -0.000006 0.219359
289.751343 -103.045380 -0.000005 0.235180
290.836182 -102.374123 -0.000005 0.265040
286.758667 -104.792709 5.187395 0.643839
286.758667 -104.792709 4.748293 0.623331
286.758667 -104.792709 4.315355 0.667765
286.758636 -104.792709 3.887546 0.614755
286.758667 -104.792709 3.463870 0.621851
286.758667 -104.792709 3.043373 0.688502
286.758667 -104.792694 2.625128 0.643351
286.758667 -104.792702 2.208227 0.665980
286.758667 -104.792709 1.791773 0.652094
286.758636 -104.792717 1.374870 0.641947
286.758636 -104.792725 0.956623 0.640513
286.758606 -104.792740 0.536124 0.654429
286.758606 -104.792747 0.112445 0.690501
288.238770 -103.891090 -0.000006 0.212047
289.717529 -102.990288 -0.000005 0.257596
290.807007 -102.326622 -0.000004 0.212262
286.758636 -104.689140 5.173981 0.673869
286.758636 -104.689140 4.736728 0.594491
286.758636 -104.689140 4.305611 0.663218
286.758636 -104.689140 3.879601 0.635523
286.758636 -104.689140 3.457710 0.647059
286.758636 -104.689140 3.038982 0.666850
286.758636 -104.689133 2.622497 0.645029
286.758636 -104.689133 2.207351 0.689021
286.758636 -104.689140 1.792649 0.634195
286.758606 -104.689148 1.377501 0.659754
286.758606 -104.689156 0.961015 0.615534
286.758606 -104.689163 0.542285 0.663966
286.758575 -104.689163 0.120391 0.668666
288.199066 -103.825409 -0.000006 0.236940
289.684082 -102.934959 -0.000005 0.239094
290.778168 -102.278915 -0.000004 0.205883
286.758575 -104.586449 5.160839 0.654902
286.758575 -104.586449 4.725396 0.608545
286.758575 -104.586449 4.296065 0.637507
286.758575 -104.586449 3.871819 0.658030
286.758575 -104.586449 3.451674 0.653376
286.758575 -104.586449 3.034680 0.647059
286.758606 -104.586441 2.619920 0.610544
286.758606 -104.586441 2.206492 0.689021
286.758606 -104.586449 1.793507 0.642954
286.758575 -104.586456 1.380079 0.643397
286.758575 -104.586464 0.965317 0.600122
286.758545 -104.586464 0.548323 0.618662
286.758575 -104.586464 0.128177 0.608789
288.159851 -103.759468 -0.000007 0.199026
289.651031 -102.879402 -0.000006 0.257273
290.749664 -102.231010 -0.000004 0.244085
286.758514 -104.484612 5.147964 0.669703
286.758514 -104.484612 4.714293 0.615152
286.758514 -104.484612 4.286711 0.611765
286.758514 -104.484612 3.864194 0.674571
286.758514 -104.484604 3.445760 0.649332
286.758514 -104.484604 3.030466 0.690196
286.758545 -104.484604 2.617395 0.621042
286.758545 -104.484604 2.205652 0.693019
286.758514 -104.484604 1.794349 0.649241
286.758514 -104.484612 1.382604 0.696529
286.758514 -104.484612 0.969533 0.624170
286.758514 -104.484612 0.554239 0.664088
286.758514 -104.484612 0.135805 0.611765
288.121063 -103.693245 -0.000006 0.239752
289.618378 -102.823608 -0.000005 0.267661
290.721497 -102.182907 -0.000004 0.240470
286.758453 -104.383591 5.135345 0.673198
286.758453 -104.383591 4.703414 0.677211
286.758453 -104.383591 4.277546 0.624170
286.758453 -104.383591 3.856722 0.698161
286.758453 -104.383591 3.439965 0.639567
286.758453 -104.383591 3.026336 0.697322
286.758453 -104.383591 2.614921 0.599054
286.758453 -104.383591 2.204828 0.670222
286.758453 -104.383591 1.795173 0.625269
286.758453 -104.383591 1.385079 0.692012
286.758453 -104.383591 0.973665 0.647959
286.758484 -104.383591 0.560036 0.664637
286.758453 -104.383591 0.143278 0.633692
288.082764 -103.626755 -0.000007 0.236150
289.586090 -102.767593 -0.000005 0.247340
290.693665 -102.134605 -0.000005 0.269397
286.758575 -104.283279 5.122929 0.633249
286.758575 -104.283279 4.692707 0.656229
286.758575 -104.283279 4.268526 0.647059
286.758575 -104.283279 3.849368 0.699763
286.758575 -104.283272 3.434262 0.618906
286.758575 -104.283279 3.022271 0.646250
286.758575 -104.283272 2.612485 0.621134
286.758575 -104.283272 2.204015 0.666163
286.758575 -104.283272 1.795984 0.616632
286.758575 -104.283272 1.387515 0.686458
286.758575 -104.283287 0.977728 0.647059
286.758545 -104.283287 0.565734 0.671626
286.758575 -104.283272 0.150633 0.636667
288.044922 -103.559998 -0.000007 0.234534
289.554199 -102.711357 -0.000005 0.188051
290.666199 -102.086113 -0.000005 0.257321
286.758484 -104.183861 5.110817 0.611765
286.758484 -104.183853 4.682264 0.668223
286.758484 -104.183853 4.259727 0.621180
286.758484 -104.183861 3.842196 0.689738
286.758484 -104.183853 3.428700 0.611765
286.758484 -104.183861 3.018306 0.661524
286.758484 -104.183861 2.610110 0.653346
286.758484 -104.183853 2.203225 0.642390
286.758484 -104.183853 1.796775 0.643885
286.758484 -104.183853 1.389890 0.690196
286.758484 -104.183861 0.981693 0.647059
286.758484 -104.183861 0.571300 0.675715
286.758484 -104.183861 0.157804 0.647059
288.007538 -103.492981 -0.000007 0.215565
289.522736 -102.654892 -0.000006 0.231219
290.639038 -102.037430 -0.000005 0.203346
286.758545 -104.085129 5.098911 0.609659
286.758545 -104.085129 4.671998 0.674266
286.758545 -104.085129 4.251080 0.644480
286.758545 -104.085129 3.835145 0.645823
286.758545 -104.085129 3.423232 0.611765
286.758545 -104.085129 3.014409 0.627146
286.758545 -104.085121 2.607774 0.645457
286.758545 -104.085121 2.202447 0.636912
286.758545 -104.085121 1.797553 0.646754
286.758545 -104.085121 1.392225 0.697063
286.758545 -104.085129 0.985590 0.592233
286.758514 -104.085136 0.576766 0.646052
286.758575 -104.085114 0.164859 0.592996
287.970642 -103.425705 -0.000007 0.203729
289.491638 -102.598213 -0.000005 0.257848
290.612244 -101.988556 -0.000005 0.198415
286.758484 -103.987206 5.087279 0.641642
286.758484 -103.987206 4.661969 0.671366
286.758484 -103.987206 4.242630 0.664027
286.758484 -103.987206 3.828258 0.581811
286.758484 -103.987213 3.417890 0.647044
286.758484 -103.987206 3.010602 0.627604
286.758484 -103.987213 2.605494 0.626719
286.758484 -103.987213 2.201687 0.637705
286.758484 -103.987213 1.798313 0.647059
286.758484 -103.987213 1.394506 0.666667
286.758484 -103.987206 0.989398 0.621271
286.758484 -103.987206 0.582110 0.717281
286.758453 -103.987213 0.171740 0.647059
287.934204 -103.358170 -0.000007 0.264454
289.460938 -102.541321 -0.000006 0.270486
290.585754 -101.939499 -0.000005 0.203956
286.758484 -103.889977 5.075860 0.597665
286.758514 -103.889969 4.652122 0.598489
286.758514 -103.889969 4.234335 0.684642
286.758514 -103.889969 3.821495 0.613413
286.758514 -103.889969 3.412645 0.626307
286.758484 -103.889977 3.006863 0.580392
286.758514 -103.889969 2.603254 0.611765
286.758514 -103.889969 2.200941 0.645319
286.758514 -103.889969 1.799059 0.641932
286.758484 -103.889977 1.396746 0.657023
286.758484 -103.889977 0.993137 0.612222
286.758484 -103.889977 0.587354 0.652171
286.758514 -103.889961 0.178508 0.611765
287.898224 -103.290382 -0.000007 0.265938
289.430634 -102.484207 -0.000006 0.226947
290.559631 -101.890259 -0.000005 0.221417
286.758514 -103.793457 5.064677 0.660410
286.758514 -103.793457 4.642481 0.633127
286.758514 -103.793457 4.226212 0.678340
286.758514 -103.793457 3.814873 0.634791
286.758514 -103.793457 3.407510 0.661692
286.758514 -103.793457 3.003203 0.611765
286.758514 -103.793457 2.601061 0.627405
286.758514 -103.793457 2.200210 0.641260
286.758514 -103.793457 1.799789 0.627619
286.758514 -103.793457 1.398939 0.651392
286.758514 -103.793457 0.996797 0.612238
286.758484 -103.793457 0.592490 0.674052
286.758545 -103.793434 0.185135 0.632670
287.862732 -103.222343 -0.000007 0.222471
289.400726 -102.426895 -0.000006 0.244635
290.533844 -101.840836 -0.000005 0.217300
286.759186 -103.697296 5.053535 0.778988
286.759186 -103.697289 4.632874 0.791623
286.759186 -103.697296 4.218118 0.794858
286.759186 -103.697289 3.808274 0.788540
286.759186 -103.697289 3.402392 0.776471
286.844116 -103.654114 2.991742 0.723033
286.759186 -103.697289 2.598876 0.784314
286.759186 -103.697289 2.199483 0.785260
286.759186 -103.697289 1.800517 0.788083
286.759186 -103.697289 1.401124 0.798978
286.759186 -103.697289 1.000445 0.764706
286.759186 -103.697289 0.597608 0.776898
286.758423 -103.697678 0.191599 0.692866
287.827728 -103.154060 -0.000007 0.249494
289.371246 -102.369362 -0.000005 0.247232
290.508423 -101.791237 -0.000005 0.207176
286.748474 -103.607498 5.045805 0.736339
286.748474 -103.607498 4.626208 0.721401
286.748474 -103.607498 4.212502 0.698390
286.748474 -103.607498 3.803696 0.740841
286.748505 -103.607498 3.398841 0.777996
286.844269 -103.559647 2.988245 0.713603
286.748474 -103.607498 2.597359 0.704021
286.748474 -103.607498 2.198978 0.736675
286.748474 -103.607498 1.801022 0.706645
286.748474 -103.607498 1.402640 0.699565
286.748474 -103.607498 1.002975 0.710445
286.748474 -103.607498 0.601158 0.793225
286.758423 -103.602531 0.197953 0.695476
287.793182 -103.085541 -0.000007 0.245892
289.342133 -102.311638 -0.000006 0.224373
290.483337 -101.741463 -0.000005 0.233864
286.694000 -103.539688 5.050498 0.678431
286.694000 -103.539688 4.630255 0.678431
286.694000 -103.539688 4.215913 0.678431
286.694000 -103.539688 3.806477 0.678431
286.748505 -103.512932 3.394013 0.787900
286.844177 -103.465958 2.984843 0.699916
286.694000 -103.539688 2.598280 0.678431
286.694000 -103.539688 2.199284 0.678431
286.694000 -103.539688 1.800716 0.678431
286.694000 -103.539688 1.401720 0.678431
286.694000 -103.539688 1.001438 0.678431
286.748474 -103.512932 0.605987 0.794888
286.758453 -103.508041 0.204176 0.708583
287.759125 -103.016769 -0.000007 0.237359
289.313446 -102.253708 -0.000006 0.243761
290.458588 -101.691513 -0.000005 0.244815
286.694000 -103.445297 5.040153 0.678431
286.694000 -103.445297 4.621335 0.678431
286.694000 -103.445297 4.208397 0.678431
286.694000 -103.445297 3.800350 0.678431
286.748474 -103.419014 3.389285 0.793133
286.844086 -103.372910 2.981511 0.748501
286.694000 -103.445297 2.596251 0.678431
286.694000 -103.445297 2.198608 0.678431
286.694000 -103.445297 1.801391 0.678431
286.694000 -103.445297 1.403749 0.678431
286.694000 -103.445297 1.004825 0.678431
286.748474 -103.419014 0.610715 0.786191
286.758484 -103.414200 0.210269 0.610910
287.725555 -102.947769 -0.000007 0.216056
289.285156 -102.195572 -0.000006 0.242421
290.434204 -101.641388 -0.000005 0.222076
286.694000 -103.351540 5.030025 0.678431
286.694000 -103.351540 4.612601 0.678431
286.694000 -103.351540 4.201039 0.678431
286.694000 -103.351540 3.794352 0.678431
286.748474 -103.325722 3.384657 0.792721
286.844269 -103.280350 2.978224 0.714809
286.694000 -103.351540 2.594265 0.678431
286.694000 -103.351540 2.197947 0.678431
286.694000 -103.351540 1.802053 0.678431
286.694000 -103.351540 1.405735 0.678431
286.694000 -103.351540 1.008140 0.678431
286.748474 -103.325722 0.615343 0.795392
286.758423 -103.321007 0.216227 0.667338
287.692444 -102.878540 -0.000007 0.210479
289.257263 -102.137245 -0.000006 0.233469
290.410156 -101.591095 -0.000005 0.256735
286.694000 -103.258400 5.020110 0.678431
286.694000 -103.258400 4.604053 0.678431
286.694000 -103.258400 4.193837 0.678431
286.694000 -103.258400 3.788481 0.678431
286.748505 -103.233047 3.380126 0.784314
286.844177 -103.188530 2.975032 0.721569
286.694000 -103.258400 2.592320 0.678431
286.694000 -103.258400 2.197299 0.678431
286.694000 -103.258400 1.802701 0.678431
286.694000 -103.258400 1.407680 0.678431
286.694000 -103.258400 1.011386 0.678431
286.748474 -103.233047 0.619874 0.784314
286.758453 -103.228409 0.222067 0.621836
287.659851 -102.809074 -0.000007 0.220592
289.229797 -102.078728 -0.000006 0.209809
290.386475 -101.540634 -0.000005 0.209366
286.694000 -103.165863 5.010406 0.678431
286.694000 -103.165863 4.595686 0.678431
286.694000 -103.165863 4.186788 0.678431
286.694000 -103.165863 3.782734 0.678431
286.748505 -103.140968 3.375692 0.788586
286.844055 -103.097313 2.971909 0.701274
286.694000 -103.165863 2.590417 0.678431
286.694000 -103.165863 2.196665 0.678431
286.694000 -103.165863 1.803335 0.678431
286.694000 -103.165863 1.409583 0.678431
286.694000 -103.165863 1.014562 0.678431
286.748505 -103.140968 0.624308 0.797452
286.758484 -103.136398 0.227785 0.611765
287.627716 -102.739388 -0.000007 0.220628
289.202728 -102.020020 -0.000006 0.226456
290.363129 -101.490013 -0.000005 0.189547
286.694000 -103.073914 5.000911 0.678431
286.694000 -103.073914 4.587499 0.678431
286.694000 -103.073914 4.179890 0.678431
286.694000 -103.073914 3.777111 0.678431
286.748505 -103.049477 3.371352 0.799481
286.844269 -103.006538 2.968825 0.682872
286.694000 -103.073914 2.588555 0.678431
286.694000 -103.073914 2.196045 0.678431
286.694000 -103.073914 1.803955 0.678431
286.694000 -103.073914 1.411445 0.678431
286.694000 -103.073914 1.017671 0.678431
286.748474 -103.049484 0.628647 0.793118
286.758514 -103.044983 0.233379 0.647059
287.596100 -102.669479 -0.000007 0.187321
289.176086 -101.961121 -0.000006 0.233457
290.340149 -101.439232 -0.000005 0.216259
286.694000 -102.982536 4.991620 0.678431
286.694000 -102.982536 4.579487 0.678431
286.694000 -102.982536 4.173141 0.678431
286.694000 -102.982536 3.771609 0.678431
286.748505 -102.958557 3.367106 0.787045
286.844177 -102.916466 2.965835 0.679683
286.694000 -102.982536 2.586733 0.678431
286.694000 -102.982536 2.195438 0.678431
286.694000 -102.982536 1.804562 0.678431
286.694000 -102.982544 1.413267 0.678431
286.694000 -102.982536 1.020712 0.678431
286.748474 -102.958565 0.632893 0.785855
286.758453 -102.954170 0.238840 0.663127
287.564941 -102.599350 -0.000007 0.266811
289.149841 -101.902031 -0.000006 0.247627
290.317535 -101.388290 -0.000005 0.264849
286.694000 -102.891724 4.982532 0.678431
286.694000 -102.891724 4.571651 0.678431
286.694000 -102.891724 4.166539 0.678431
286.694000 -102.891724 3.766227 0.678431
286.748474 -102.868202 3.362954 0.787625
286.844055 -102.826942 2.962911 0.703899
286.694000 -102.891724 2.584950 0.678431
286.694000 -102.891724 2.194844 0.678431
286.694000 -102.891724 1.805156 0.678431
286.694000 -102.891724 1.415050 0.678431
286.694000 -102.891724 1.023687 0.678431
286.748474 -102.868202 0.637046 0.795987
286.758484 -102.863876 0.244195 0.647059
287.534271 -102.528999 -0.000007 0.225965
289.124023 -101.842773 -0.000006 0.220580
290.295258 -101.337189 -0.000005 0.255514
286.694000 -102.801453 4.973643 0.678431
286.694000 -102.801453 4.563987 0.678431
286.694000 -102.801453 4.160083 0.678431
286.694000 -102.801453 3.760962 0.678431
286.748505 -102.778381 3.358892 0.792538
286.844299 -102.737808 2.960019 0.710140
286.694000 -102.801453 2.583207 0.678431
286.694000 -102.801453 2.194264 0.678431
286.694000 -102.801453 1.805737 0.678431
286.694000 -102.801453 1.416793 0.678431
286.694000 -102.801453 1.026596 0.678431
286.748505 -102.778381 0.641108 0.778271
286.758484 -102.774147 0.249425 0.668986
287.504120 -102.458443 -0.000008 0.218581
289.098602 -101.783325 -0.000006 0.181134
290.273346 -101.285934 -0.000005 0.212585
286.694000 -102.711716 4.964951 0.678431
286.694000 -102.711716 4.556493 0.678431
286.694000 -102.711716 4.153769 0.678431
286.694000 -102.711716 3.755815 0.678431
286.748505 -102.689087 3.354919 0.797818
286.844177 -102.649353 2.957223 0.703395
286.694000 -102.711716 2.581502 0.678431
286.694000 -102.711716 2.193695 0.678431
286.694000 -102.711716 1.806304 0.678431
286.694000 -102.711716 1.418498 0.678431
286.694000 -102.711716 1.029442 0.678431
286.748474 -102.689087 0.645080 0.778439
286.758484 -102.684937 0.254543 0.658900
287.474457 -102.387672 -0.000007 0.219419
289.073608 -101.723709 -0.000006 0.218796
290.251801 -101.234528 -0.000005 0.222004
286.694000 -102.622498 4.956453 0.678431
286.694000 -102.622498 4.549166 0.678431
286.694000 -102.622498 4.147596 0.678431
286.694000 -102.622498 3.750783 0.678431
286.748505 -102.600311 3.351037 0.790616
286.844086 -102.561409 2.954489 0.717021
286.694000 -102.622498 2.579835 0.678431
286.694000 -102.622498 2.193140 0.678431
286.694000 -102.622498 1.806860 0.678431
286.694000 -102.622498 1.420164 0.678431
286.694000 -102.622498 1.032223 0.678431
286.748474 -102.600311 0.648963 0.776287
286.758484 -102.596245 0.259547 0.615076
287.445251 -102.316704 -0.000007 0.239537
289.049011 -101.663918 -0.000006 0.238579
290.230591 -101.182968 -0.000005 0.198475
286.694000 -102.533783 4.948148 0.678431
286.694000 -102.533783 4.542004 0.678431
286.694000 -102.533783 4.141563 0.678431
286.694000 -102.533783 3.745865 0.678431
286.748474 -102.512047 3.347241 0.780118
286.844360 -102.473801 2.951783 0.731411
286.694000 -102.533783 2.578207 0.678431
286.694000 -102.533783 2.192598 0.678431
286.694000 -102.533783 1.807402 0.678431
286.694000 -102.533783 1.421793 0.678431
286.694000 -102.533783 1.034942 0.678431
286.748474 -102.512047 0.652759 0.774578
286.758484 -102.508057 0.264436 0.647684
287.416595 -102.245529 -0.000008 0.236210
289.024872 -101.603951 -0.000006 0.233481
290.209778 -101.131271 -0.000005 0.248501
286.694000 -102.445564 4.940031 0.678431
286.694000 -102.445564 4.535006 0.678431
286.694000 -102.445564 4.135667 0.678431
286.694000 -102.445564 3.741059 0.678431
286.748505 -102.424263 3.343532 0.776471
286.844238 -102.386841 2.949174 0.725551
286.694000 -102.445564 2.576614 0.678431
286.694000 -102.445564 2.192068 0.678431
286.694000 -102.445564 1.807932 0.678431
286.694000 -102.445564 1.423385 0.678431
286.694000 -102.445564 1.037599 0.678431
286.748505 -102.424263 0.656468 0.781186
286.758484 -102.420364 0.269211 0.612863
287.388397 -102.174156 -0.000007 0.215565
289.001129 -101.543823 -0.000006 0.207427
290.189301 -101.079422 -0.000005 0.240542
286.694000 -102.357826 4.932101 0.678431
286.694000 -102.357826 4.528169 0.678431
286.694000 -102.357826 4.129908 0.678431
286.694000 -102.357826 3.736363 0.678431
286.748474 -102.336960 3.339908 0.796078
286.844116 -102.300346 2.946623 0.729351
286.694000 -102.357826 2.575059 0.678431
286.694000 -102.357826 2.191549 0.678431
286.694000 -102.357826 1.808450 0.678431
286.694000 -102.357826 1.424940 0.678431
286.694000 -102.357826 1.040195 0.678431
286.748474 -102.336960 0.660092 0.779995
286.758484 -102.333130 0.273882 0.657740
287.360718 -102.102585 -0.000008 0.242577
288.977783 -101.483528 -0.000006 0.192551
290.169189 -101.027435 -0.000005 0.193413
286.694000 -102.270554 4.924358 0.678431
286.694000 -102.270554 4.521492 0.678431
286.694000 -102.270554 4.124281 0.678431
286.694000 -102.270554 3.731776 0.678431
286.748505 -102.250122 3.336370 0.798108
286.844025 -102.214310 2.944132 0.704814
286.694000 -102.270554 2.573541 0.678431
286.694000 -102.270554 2.191044 0.678431
286.694000 -102.270554 1.808956 0.678431
286.694000 -102.270554 1.426459 0.678431
286.694000 -102.270554 1.042730 0.678431
286.748474 -102.250122 0.663630 0.785794
286.758514 -102.246368 0.278444 0.634653
287.333527 -102.030823 -0.000007 0.220963
288.954895 -101.423073 -0.000006 0.195555
290.149445 -100.975311 -0.000005 0.224637
286.694000 -102.183731 4.916796 0.678431
286.694000 -102.183731 4.514972 0.678431
286.694000 -102.183739 4.118789 0.678431
286.694000 -102.183731 3.727298 0.678431
286.748474 -102.163742 3.332914 0.777890
286.844330 -102.128578 2.941664 0.684123
286.694000 -102.183739 2.572058 0.678431
286.694000 -102.183739 2.190550 0.678431
286.694000 -102.183739 1.809450 0.678431
286.694000 -102.183739 1.427942 0.678431
286.694000 -102.183731 1.045205 0.678431
286.748505 -102.163742 0.667086 0.781445
286.758514 -102.160057 0.282897 0.692164
287.306854 -101.958878 -0.000008 0.213674
288.932404 -101.362457 -0.000006 0.268284
290.130066 -100.923042 -0.000005 0.231291
286.694000 -102.097359 4.909415 0.678431
286.694000 -102.097359 4.508608 0.678431
286.694000 -102.097359 4.113427 0.678431
286.694000 -102.097359 3.722928 0.678431
286.748474 -102.077797 3.329541 0.777676
286.844208 -102.043434 2.939291 0.694240
286.694000 -102.097359 2.570610 0.678431
286.694000 -102.097359 2.190068 0.678431
286.694000 -102.097359 1.809933 0.678431
286.694000 -102.097359 1.429390 0.678431
286.694000 -102.097359 1.047621 0.678431
286.748474 -102.077797 0.670459 0.777295
286.758545 -102.074181 0.287248 0.696666
287.280670 -101.886749 -0.000007 0.270629
288.910370 -101.301689 -0.000006 0.248513
290.111023 -100.870644 -0.000005 0.179769
286.694000 -102.011421 4.902211 0.678431
286.694000 -102.011421 4.502397 0.678431
286.694000 -102.011421 4.108195 0.678431
286.694000 -102.011421 3.718662 0.678431
286.748474 -101.992287 3.326249 0.783093
286.844116 -101.958710 2.936975 0.705638
286.694000 -102.011421 2.569197 0.678431
286.694000 -102.011421 2.189597 0.678431
286.694000 -102.011421 1.810403 0.678431
286.694000 -102.011421 1.430803 0.678431
286.694000 -102.011421 1.049979 0.678431
286.748505 -101.992287 0.673751 0.790433
286.758575 -101.988739 0.291493 0.679835
287.255005 -101.814430 -0.000008 0.271958
288.888733 -101.240768 -0.000006 0.210359
290.092377 -100.818115 -0.000006 0.274160
286.694000 -101.925896 4.895185 0.678431
286.694000 -101.925896 4.496337 0.678431
286.694000 -101.925896 4.103090 0.678431
286.694000 -101.925896 3.714501 0.678431
286.748474 -101.907188 3.323038 0.790661
286.843994 -101.874397 2.934716 0.692027
286.694000 -101.925903 2.567819 0.678431
286.694000 -101.925896 2.189138 0.678431
286.694000 -101.925896 1.810862 0.678431
286.694000 -101.925903 1.432181 0.678431
286.694000 -101.925903 1.052279 0.678431
286.748505 -101.907188 0.676962 0.789136
286.758575 -101.903725 0.295628 0.644572
287.229828 -101.741943 -0.000007 0.252677
288.867523 -101.179695 -0.000006 0.199301
290.074097 -100.765457 -0.000006 0.247974
286.748505 -101.822502 4.873933 0.787121
286.748505 -101.822502 4.478014 0.782559
286.748505 -101.822502 4.087654 0.790967
286.748505 -101.822502 3.701916 0.779690
286.748474 -101.822502 3.319907 0.795453
286.844360 -101.790344 2.932474 0.692866
286.748505 -101.822502 2.563651 0.776623
286.748474 -101.822502 2.187750 0.778943
286.748474 -101.822502 1.812250 0.780453
286.748505 -101.822502 1.436349 0.785580
286.748505 -101.822502 1.059236 0.779568
286.748505 -101.822502 0.680093 0.776471
286.758575 -101.819115 0.299664 0.681285
287.205170 -101.669281 -0.000008 0.204291
288.846741 -101.118477 -0.000006 0.248058
290.056183 -100.712677 -0.000005 0.185155
286.758423 -101.734955 4.864670 0.647059
286.758423 -101.734955 4.470026 0.588693
286.758423 -101.734955 4.080924 0.631998
286.758423 -101.734955 3.696430 0.589487
286.758423 -101.734955 3.315652 0.616632
286.844238 -101.706825 2.930327 0.698650
286.758423 -101.734955 2.561834 0.642283
286.758423 -101.734955 2.187145 0.642374
286.758423 -101.734955 1.812856 0.609201
286.758423 -101.734955 1.438165 0.644984
286.758423 -101.734955 1.062269 0.644999
286.758453 -101.734940 0.684352 0.650263
286.758575 -101.734909 0.303592 0.685344
287.181000 -101.596443 -0.000008 0.228203
288.826385 -101.057121 -0.000007 0.253108
290.038635 -100.659767 -0.000005 0.228514
286.758392 -101.651131 4.858205 0.654902
286.758392 -101.651131 4.464452 0.616037
286.758392 -101.651131 4.076228 0.634440
286.758392 -101.651131 3.692602 0.661768
286.758392 -101.651131 3.312683 0.656931
286.844116 -101.623695 2.928235 0.722240
286.758392 -101.651131 2.560567 0.650111
286.758392 -101.651131 2.186722 0.611765
286.758392 -101.651131 1.813278 0.632258
286.758423 -101.651131 1.439434 0.631937
286.758423 -101.651123 1.064387 0.625116
286.758453 -101.651115 0.687322 0.612406
286.758545 -101.651085 0.307420 0.650904
287.157349 -101.523438 -0.000008 0.211771
288.806458 -100.995613 -0.000006 0.210718
290.021454 -100.606743 -0.000006 0.241811
286.758514 -101.567635 4.851867 0.647059
286.758514 -101.567635 4.458988 0.641062
286.758514 -101.567635 4.071625 0.613886
286.758514 -101.567635 3.688849 0.679286
286.758514 -101.567635 3.309773 0.672480
286.844025 -101.540932 2.926197 0.691676
286.758514 -101.567635 2.559324 0.649271
286.758514 -101.567635 2.186308 0.611765
286.758514 -101.567642 1.813692 0.624811
286.758514 -101.567642 1.440675 0.631800
286.758514 -101.567642 1.066458 0.649958
286.758514 -101.567642 0.690225 0.642008
286.758484 -101.567650 0.311144 0.635981
287.134216 -101.450272 -0.000008 0.219957
288.786987 -100.933975 -0.000006 0.218964
290.004639 -100.553589 -0.000006 0.186016
286.722595 -101.495491 4.855142 0.688472
286.722595 -101.495491 4.461811 0.668482
286.858276 -101.454147 4.048192 0.647059
286.858276 -101.454140 3.669745 0.678431
286.858276 -101.454147 3.294959 0.647059
286.842743 -101.458878 2.924313 0.706325
286.722595 -101.495491 2.559965 0.665476
286.722595 -101.495491 2.186522 0.612192
286.722595 -101.495499 1.813478 0.626841
286.858246 -101.454147 1.447002 0.647059
286.858185 -101.454170 1.077011 0.635294
286.858276 -101.454147 0.705042 0.678431
286.758392 -101.484581 0.314765 0.612909
287.111603 -101.376945 -0.000008 0.179099
288.767914 -100.872200 -0.000006 0.233864
289.988220 -100.500328 -0.000005 0.220005
286.556976 -101.461693 4.892428 0.638804
286.556946 -101.461700 4.493968 0.700969
286.556885 -101.461716 4.101101 0.611765
286.556854 -101.461723 3.712884 0.619944
286.858093 -101.372223 3.292263 0.664973
286.842285 -101.376915 2.922412 0.706935
286.557007 -101.461678 2.567276 0.680278
286.556976 -101.461693 2.188958 0.621576
286.556946 -101.461700 1.811042 0.643305
286.556915 -101.461708 1.432718 0.628321
286.556885 -101.461716 1.053174 0.661189
286.556854 -101.461731 0.671584 0.687495
286.758270 -101.401878 0.318283 0.613108
287.089478 -101.303467 -0.000008 0.201910
288.749298 -100.810295 -0.000007 0.251636
289.972168 -100.446953 -0.000005 0.190373
286.267670 -101.461525 4.961950 0.672190
286.267578 -101.461555 4.553929 0.646296
286.267609 -101.461555 4.151606 0.657343
286.267609 -101.461548 3.754049 0.677348
286.858063 -101.290588 3.289623 0.678431
286.841858 -101.295273 2.920561 0.689647
286.267792 -101.461494 2.580908 0.665095
286.267700 -101.461525 2.193500 0.635798
286.267578 -101.461555 1.806499 0.668376
286.267609 -101.461555 1.419082 0.650492
286.267609 -101.461548 1.030418 0.686290
286.267639 -101.461540 0.639664 0.638727
286.758575 -101.319389 0.321770 0.614389
287.067871 -101.229836 -0.000008 0.239848
288.731079 -100.748260 -0.000006 0.236054
289.956451 -100.393463 -0.000005 0.217229
285.958954 -101.462814 5.036395 0.660044
285.958832 -101.462845 4.618121 0.651667
286.828461 -101.217621 4.041284 0.660929
286.828461 -101.217621 3.664113 0.650538
286.858459 -101.209160 3.287004 0.667491
286.841461 -101.213951 2.918761 0.702388
285.959015 -101.462799 2.595511 0.625757
285.958923 -101.462822 2.198364 0.671778
285.958832 -101.462852 1.801635 0.641093
286.828461 -101.217621 1.448868 0.604669
286.828461 -101.217621 1.080132 0.654246
286.828461 -101.217621 0.709410 0.635065
286.758423 -101.237366 0.325093 0.646097
287.046783 -101.156052 -0.000008 0.202568
288.713318 -100.686104 -0.000007 0.230549
289.941162 -100.339867 -0.000005 0.248417
285.748199 -101.432907 5.085249 0.778363
285.748199 -101.432907 4.660217 0.776928
286.831696 -101.135513 4.036711 0.647059
286.831696 -101.135513 3.660386 0.647074
286.858276 -101.128220 3.284527 0.671443
286.841064 -101.132942 2.917011 0.690150
285.748199 -101.432907 2.605095 0.791928
285.748199 -101.432907 2.201555 0.792554
285.748199 -101.432907 1.798446 0.778408
286.831696 -101.135513 1.450103 0.581659
286.831696 -101.135513 1.082192 0.650996
286.831696 -101.135513 0.712301 0.627314
286.758270 -101.155670 0.328316 0.614206
287.026215 -101.082123 -0.000008 0.228478
288.695984 -100.623817 -0.000006 0.206972
289.926208 -100.286163 -0.000005 0.189798
285.614471 -101.379608 5.114089 0.691188
285.614471 -101.379608 4.685084 0.717723
285.614471 -101.379608 4.262105 0.724605
285.614471 -101.379608 3.844134 0.724895
286.858032 -101.047607 3.282134 0.647059
286.840637 -101.052246 2.915316 0.705074
285.743195 -101.345245 2.604207 0.678431
285.614471 -101.379608 2.203438 0.730190
285.614471 -101.379608 1.796561 0.706432
285.614471 -101.379608 1.389248 0.699886
285.614471 -101.379608 0.980622 0.702312
285.614471 -101.379608 0.569797 0.717342
286.758545 -101.074158 0.331518 0.633082
287.006165 -101.008049 -0.000008 0.251265
288.679108 -100.561417 -0.000006 0.284165
289.911652 -100.232353 -0.000005 0.191964
285.512939 -101.316292 5.134650 0.129412
285.512939 -101.316292 4.702814 0.110384
285.512939 -101.316292 4.277041 0.111742
285.512939 -101.316292 3.856311 0.130480
286.858765 -100.967026 3.279690 0.647059
286.837463 -100.972557 2.913904 0.696391
285.743195 -101.256538 2.603098 0.678431
285.512939 -101.316292 2.204782 0.113466
285.512939 -101.316292 1.795218 0.108690
285.512939 -101.316292 1.385215 0.125353
285.512939 -101.316292 0.973892 0.118563
285.528198 -101.312332 0.562168 0.757488
286.758362 -100.993088 0.334550 0.632898
286.986633 -100.933846 -0.000008 0.235755
288.662659 -100.498901 -0.000006 0.202688
289.897461 -100.178452 -0.000005 0.252893
285.498199 -101.229912 5.132865 0.678431
285.498199 -101.229912 4.701275 0.678431
286.831879 -100.893723 4.025481 0.656016
286.831879 -100.893723 3.651231 0.651606
286.858459 -100.887016 3.277443 0.647059
286.834442 -100.893074 2.912530 0.692332
285.743195 -101.168152 2.602022 0.678431
285.498199 -101.229912 2.204665 0.678431
285.498199 -101.229912 1.795335 0.678431
286.831879 -100.893723 1.453135 0.581033
286.831879 -100.893723 1.087253 0.660761
286.831879 -100.893723 0.719401 0.628534
286.758606 -100.912186 0.337562 0.599893
286.967621 -100.859497 -0.000008 0.274794
288.646637 -100.436264 -0.000007 0.240781
289.883636 -100.124451 -0.000005 0.234618
285.498199 -101.140022 5.127438 0.678431
285.498199 -101.140022 4.696596 0.678431
285.498199 -101.140022 4.271802 0.678431
285.498199 -101.140022 3.852039 0.678431
286.858246 -100.807266 3.275257 0.677577
286.831512 -100.813805 2.911196 0.709010
285.743195 -101.080078 2.600979 0.678431
285.498199 -101.140022 2.204311 0.678431
285.498199 -101.140022 1.795689 0.678431
285.498199 -101.140022 1.386630 0.678431
285.498199 -101.140022 0.976253 0.678431
285.528198 -101.132675 0.567220 0.760769
286.758362 -100.831696 0.340405 0.635752
286.949127 -100.785027 -0.000008 0.223715
288.631042 -100.373528 -0.000006 0.184868
289.870209 -100.070351 -0.000005 0.210108
285.498199 -101.050438 5.122181 0.678431
285.498199 -101.050438 4.692063 0.678431
285.498199 -101.050438 4.267983 0.678431
285.498199 -101.050438 3.848926 0.678431
286.857971 -100.727791 3.273145 0.647059
286.828735 -100.734726 2.909899 0.723171
285.743195 -100.992302 2.599969 0.678431
285.498199 -101.050438 2.203967 0.678431
285.498199 -101.050438 1.796033 0.678431
285.498199 -101.050438 1.387661 0.678431
285.498199 -101.050438 0.977973 0.678431
285.528198 -101.043320 0.569628 0.757321
286.758606 -100.751366 0.343232 0.626383
286.931152 -100.710426 -0.000008 0.251409
288.615906 -100.310677 -0.000007 0.234414
289.857147 -100.016159 -0.000005 0.233481
285.498199 -100.961143 5.117095 0.678431
285.498199 -100.961143 4.687675 0.678431
286.832458 -100.654381 4.015173 0.655894
286.832458 -100.654381 3.642828 0.662150
286.859467 -100.648170 3.270895 0.644602
286.826080 -100.655846 2.908640 0.693217
285.743195 -100.904816 2.598991 0.678431
285.498199 -100.961143 2.203635 0.678431
285.498199 -100.961143 1.796365 0.678431
286.832458 -100.654373 1.455918 0.580530
286.832458 -100.654381 1.091898 0.662882
286.832458 -100.654381 0.725918 0.644465
286.758362 -100.671417 0.345890 0.660639
286.913696 -100.635704 -0.000008 0.267865
288.601196 -100.247719 -0.000006 0.255550
289.844452 -99.961876 -0.000005 0.216738
285.498199 -100.872147 5.112174 0.678431
285.498199 -100.872147 4.683434 0.678431
285.498199 -100.872147 4.260714 0.678431
285.498199 -100.872147 3.843000 0.678431
286.857147 -100.569672 3.269162 0.670390
286.804657 -100.581360 2.909006 0.708064
285.743195 -100.817612 2.598046 0.678431
285.498199 -100.872147 2.203314 0.678431
285.498199 -100.872147 1.796687 0.678431
285.498199 -100.872147 1.389623 0.678431
285.498199 -100.872147 0.981249 0.678431
285.528198 -100.865471 0.574212 0.782422
286.758545 -100.591621 0.348533 0.638575
286.896759 -100.560860 -0.000008 0.196955
288.586914 -100.184669 -0.000007 0.221370
289.832153 -99.907509 -0.000005 0.222399
285.528198 -100.776962 5.099734 0.759747
285.528198 -100.776962 4.672708 0.734539
285.528198 -100.776962 4.251678 0.765393
285.528198 -100.776962 3.835634 0.758953
286.854919 -100.491364 3.267484 0.647059
286.789063 -100.505547 2.908924 0.709667
285.743195 -100.730682 2.597132 0.678431
285.528198 -100.776962 2.202501 0.764141
285.528198 -100.776962 1.797499 0.758465
285.528198 -100.776962 1.392063 0.762753
285.528198 -100.776962 0.985321 0.756634
285.528198 -100.776962 0.576390 0.800183
286.758270 -100.512177 0.351010 0.624689
286.880341 -100.485893 -0.000008 0.231578
288.573090 -100.121513 -0.000006 0.234032
289.820251 -99.853058 -0.000006 0.207020
285.498199 -100.694962 5.102835 0.678431
286.858215 -100.412125 4.375360 0.648646
286.803223 -100.423553 4.011387 0.650156
286.803223 -100.423553 3.639742 0.655634
286.852905 -100.413223 3.265852 0.666987
286.774261 -100.429581 2.908822 0.687999
285.743195 -100.644005 2.596251 0.678431
285.498199 -100.694962 2.202703 0.678431
285.498199 -100.694962 1.797297 0.678431
286.803223 -100.423553 1.456940 0.602838
286.803223 -100.423553 1.093603 0.651560
286.803223 -100.423553 0.728312 0.641855
286.758453 -100.432869 0.353472 0.654536
286.864471 -100.410820 -0.000008 0.215924
288.559723 -100.058266 -0.000007 0.225080
289.808716 -99.798523 -0.000005 0.204674
285.498199 -100.606758 5.098411 0.678431
286.858276 -100.333794 4.371957 0.647059
286.832062 -100.339066 4.003173 0.649393
286.832062 -100.339066 3.633046 0.670451
286.851013 -100.335258 3.264270 0.662303
286.760193 -100.353485 2.908704 0.684062
285.743195 -100.557587 2.595401 0.678431
285.498199 -100.606758 2.202414 0.678431
285.498199 -100.606758 1.797585 0.678431
286.832062 -100.339066 1.459158 0.581659
286.832062 -100.339066 1.097306 0.652995
286.832062 -100.339066 0.733506 0.629206
286.758606 -100.353798 0.355844 0.625666
286.849091 -100.335640 -0.000008 0.201527
288.546783 -99.994926 -0.000006 0.197721
289.797546 -99.743912 -0.000005 0.214548
285.498199 -100.518799 5.094151 0.678431
286.858307 -100.255699 4.368691 0.647059
285.498199 -100.518799 4.247622 0.678431
285.498199 -100.518799 3.832327 0.678431
286.844086 -100.258453 3.263344 0.650904
286.746887 -100.277252 2.908566 0.697444
285.743195 -100.471405 2.594582 0.678431
285.498199 -100.518799 2.202136 0.678431
285.498199 -100.518799 1.797864 0.678431
285.498199 -100.518799 1.393158 0.678431
285.498199 -100.518799 0.987149 0.678431
285.528198 -100.513000 0.582469 0.785077
286.758301 -100.275047 0.358056 0.622797
286.834259 -100.260353 -0.000008 0.237275
288.534271 -99.931503 -0.000007 0.217659
289.786774 -99.689217 -0.000005 0.231518
285.498199 -100.431084 5.090055 0.678431
286.858276 -100.177826 4.365559 0.647059
285.498199 -100.431084 4.244645 0.678431
285.498199 -100.431084 3.829900 0.678431
286.828003 -100.183464 3.263553 0.650095
286.734222 -100.200928 2.908418 0.688762
285.743195 -100.385460 2.593795 0.678431
285.498199 -100.431084 2.201868 0.678431
285.498199 -100.431084 1.798131 0.678431
285.498199 -100.431084 1.393962 0.678431
285.498199 -100.431084 0.988490 0.678431
285.528198 -100.425499 0.584346 0.783932
286.758423 -100.196419 0.360253 0.633738
286.819946 -100.184959 -0.000008 0.238555
288.522217 -99.867989 -0.000006 0.245760
289.776367 -99.634453 -0.000005 0.226468
285.498169 -100.343597 5.086119 0.678431
286.858337 -100.100136 4.362532 0.647059
286.858154 -100.100166 3.990400 0.647059
286.858246 -100.100151 3.622618 0.647211
286.858215 -100.100159 3.258411 0.655848
286.722229 -100.124496 2.908259 0.691691
285.743195 -100.299736 2.593038 0.678431
285.498199 -100.343590 2.201611 0.678431
285.498199 -100.343590 1.798389 0.678431
286.858398 -100.100121 1.462619 0.647059
286.858032 -100.100189 1.103052 0.647059
286.858246 -100.100151 0.741593 0.652354
286.758575 -100.117996 0.362362 0.632517
286.806183 -100.109474 -0.000008 0.277954
288.510620 -99.804390 -0.000006 0.234367
289.766357 -99.579620 -0.000006 0.257512
286.759064 -100.039703 4.761881 0.612863
286.759064 -100.039703 4.381398 0.580530
286.759064 -100.039703 4.006258 0.580392
286.759064 -100.039703 3.635561 0.612268
286.759064 -100.039711 3.268446 0.638727
286.759064 -100.039703 2.904083 0.644755
286.759033 -100.039711 2.541677 0.620035
286.758972 -100.039719 2.180431 0.593164
286.758911 -100.039726 1.819568 0.591913
286.758881 -100.039742 1.458315 0.611978
286.758820 -100.039749 1.095895 0.611231
286.758759 -100.039757 0.731521 0.609934
286.758698 -100.039772 0.364384 0.580530
286.792908 -100.033890 -0.000008 0.247759
288.499451 -99.740715 -0.000006 0.208384
289.756714 -99.524719 -0.000006 0.282992
286.758209 -99.961838 4.758859 0.654551
286.758209 -99.961838 4.378793 0.616907
286.758209 -99.961838 4.004062 0.611765
286.758209 -99.961838 3.633770 0.621653
286.758209 -99.961838 3.267056 0.669581
286.758179 -99.961838 2.903096 0.644663
286.758240 -99.961830 2.541080 0.628565
286.758270 -99.961823 2.180231 0.611841
286.758301 -99.961815 1.819770 0.619211
286.758331 -99.961815 1.458925 0.646525
286.758362 -99.961807 1.096918 0.646021
286.758362 -99.961807 0.732962 0.653635
286.758331 -99.961815 0.366250 0.633509
286.780182 -99.958214 -0.000008 0.202017
288.488708 -99.676964 -0.000006 0.234498
289.747467 -99.469749 -0.000005 0.246394
286.758423 -99.883957 4.755700 0.645609
286.758423 -99.883957 4.376069 0.585718
286.758423 -99.883957 4.001767 0.634516
286.758423 -99.883957 3.631899 0.645319
286.758423 -99.883957 3.265605 0.642237
286.758423 -99.883957 2.902061 0.644572
286.758453 -99.883957 2.540462 0.588846
286.758453 -99.883957 2.180025 0.593256
286.758453 -99.883957 1.819975 0.625086
286.758453 -99.883957 1.459539 0.670466
286.758453 -99.883957 1.097941 0.645106
286.758453 -99.883957 0.734398 0.639460
286.758423 -99.883957 0.368101 0.616922
286.758484 -99.883949 -0.001757 0.668650
288.478455 -99.613136 -0.000006 0.222028
289.738617 -99.414711 -0.000005 0.235013
286.758484 -99.806282 4.752726 0.648493
286.758484 -99.806282 4.373505 0.641962
286.758484 -99.806282 3.999607 0.665232
286.758484 -99.806282 3.630138 0.648585
286.758484 -99.806282 3.264240 0.643229
286.758484 -99.806282 2.901087 0.638605
286.758484 -99.806290 2.539879 0.637125
286.758484 -99.806282 2.179831 0.631205
286.758484 -99.806282 1.820169 0.611765
286.758484 -99.806290 1.460120 0.647684
286.758484 -99.806290 1.098912 0.645319
286.758484 -99.806290 0.735759 0.652354
286.758545 -99.806282 0.369868 0.652232
286.758484 -99.806290 0.000391 0.672969
288.468597 -99.549240 -0.000006 0.214476
289.730133 -99.359619 -0.000005 0.241392
286.748474 -99.730217 4.752439 0.780941
286.748474 -99.730217 4.373257 0.780514
286.748474 -99.730217 3.999398 0.776471
286.748505 -99.730217 3.629968 0.776699
286.748505 -99.730217 3.264108 0.773129
286.749451 -99.730080 2.900913 0.788357
286.748505 -99.730217 2.539823 0.780941
286.748505 -99.730217 2.179812 0.776745
286.748505 -99.730217 1.820188 0.776822
286.748505 -99.730217 1.460177 0.770871
286.748505 -99.730217 1.099007 0.777005
286.748505 -99.730217 0.735892 0.790753
286.758606 -99.728767 0.371549 0.631891
286.758484 -99.728783 0.002436 0.670893
288.459229 -99.485275 -0.000007 0.227018
289.722046 -99.304466 -0.000006 0.200557
286.694000 -99.660210 4.763535 0.678431
286.694000 -99.660210 4.382824 0.678431
286.694000 -99.660210 4.007458 0.678431
286.748505 -99.652794 3.628380 0.774945
286.748474 -99.652794 3.262877 0.799619
286.748596 -99.652786 2.900108 0.778241
286.694000 -99.660210 2.541999 0.678431
286.694000 -99.660210 2.180537 0.678431
286.694000 -99.660210 1.819463 0.678431
286.694000 -99.660210 1.458001 0.678431
286.694000 -99.660210 1.095374 0.678431
286.748474 -99.652794 0.737123 0.793362
286.758698 -99.651405 0.373147 0.626017
286.758453 -99.651436 0.004379 0.665309
288.450287 -99.421249 -0.000007 0.201240
289.714325 -99.249260 -0.000006 0.258075
286.694000 -99.582550 4.760979 0.678431
286.694000 -99.582550 4.380620 0.678431
286.694000 -99.582550 4.005602 0.678431
286.748505 -99.575523 3.626874 0.775250
286.748505 -99.575523 3.261709 0.791989
286.747742 -99.575615 2.899344 0.776654
286.694000 -99.582550 2.541498 0.678431
286.694000 -99.582550 2.180371 0.678431
286.694000 -99.582550 1.819630 0.678431
286.694000 -99.582550 1.458502 0.678431
