# This PCD file was generated using the MATLABÂ® pcwrite function
# from Computer Vision ToolboxÂ®.
# .PCD v.7 - Point Cloud Data file format
VERSION .7
FIELDS x y z intensity
SIZE 4 4 4 4
TYPE F F F F
COUNT 1 1 1 1
WIDTH 1285
HEIGHT 1
VIEWPOINT 0 0 0 1 0 0 0
POINTS 1285
DATA ascii
256.266174 -96.392792 2.831750 0.678431
256.266174 -96.392792 2.277052 0.678431
256.266174 -96.392792 1.722948 0.678431
256.266174 -96.392792 1.168250 0.678431
256.259491 -96.402802 0.610777 0.689128
256.299622 -96.342941 0.059190 0.635187
258.186768 -93.529480 0.000003 0.237000
259.574524 -91.460556 0.000002 0.197613
260.539032 -90.022575 0.000002 0.218126
261.249664 -88.963127 0.000003 0.219598
256.116364 -96.402802 6.264001 0.737987
256.149994 -96.353424 5.663678 0.749752
256.123169 -96.392799 5.095210 0.678431
256.123199 -96.392799 4.523305 0.678431
256.123199 -96.392799 3.956928 0.678431
256.116394 -96.402794 3.395792 0.742199
256.123199 -96.392799 2.835684 0.678431
256.123199 -96.392799 2.278363 0.678431
256.123199 -96.392799 1.721637 0.678431
256.123199 -96.392792 1.164316 0.678431
256.116364 -96.402802 0.604206 0.682078
256.157135 -96.342941 0.050011 0.619837
258.108795 -93.476776 0.000003 0.212214
259.510925 -91.417587 0.000002 0.273178
260.485474 -89.986374 0.000003 0.196069
261.203491 -88.931915 0.000003 0.205045
255.971909 -96.402809 6.284473 0.744121
256.011322 -96.345779 5.679262 0.731258
255.978821 -96.392799 5.110069 0.678431
255.978821 -96.392799 4.535420 0.678431
255.978821 -96.392799 3.966324 0.678431
255.971924 -96.402786 3.402493 0.786313
255.978821 -96.392799 2.839696 0.678431
255.978821 -96.392792 2.279699 0.678431
255.978821 -96.392792 1.720301 0.678431
255.978821 -96.392799 1.160304 0.678431
255.971909 -96.402802 0.597505 0.713115
256.013275 -96.342941 0.040648 0.666682
258.031158 -93.423531 0.000003 0.222052
259.447662 -91.374176 0.000003 0.272568
260.432159 -89.949799 0.000003 0.229256
261.157532 -88.900383 0.000003 0.232009
255.844528 -96.376450 6.297288 0.797452
255.903183 -96.292847 5.683227 0.694133
255.844452 -96.376572 5.121619 0.139696
255.844452 -96.376572 4.544835 0.128267
255.844452 -96.376572 3.973626 0.131258
255.844452 -96.376556 3.406701 0.744381
255.844528 -96.376457 2.842807 0.122194
255.844528 -96.376457 2.280735 0.132097
255.844528 -96.376457 1.719265 0.129412
255.841537 -96.380707 1.156937 0.098116
255.844543 -96.376442 0.593311 0.737774
255.868042 -96.342941 0.031100 0.676005
257.953918 -93.369736 0.000002 0.261809
259.384674 -91.330322 0.000003 0.253611
260.379120 -89.912857 0.000002 0.225822
261.111786 -88.868530 0.000003 0.193077
255.721695 -96.342476 6.308097 0.656596
255.778275 -96.263000 5.693534 0.732052
255.721695 -96.342476 5.129444 0.629984
255.721695 -96.342476 4.551215 0.657633
255.721695 -96.342476 3.978573 0.627710
255.721695 -96.342476 3.410229 0.678660
255.721695 -96.342476 2.844927 0.658732
255.721695 -96.342476 2.281441 0.655726
255.721695 -96.342476 1.718559 0.647669
255.721695 -96.342476 1.155073 0.614359
255.721695 -96.342476 0.589771 0.647044
255.721695 -96.342476 0.021427 0.688884
257.877045 -93.315407 0.000003 0.261402
259.322021 -91.286034 0.000003 0.217875
260.326324 -89.875542 0.000003 0.262695
261.066254 -88.836357 0.000003 0.251074
nan nan nan 0.000000
nan nan nan 0.000000
nan nan nan 0.000000
241.631363 -115.636917 8.095104 0.557198
243.097595 -113.607834 6.439015 0.416358
244.267380 -111.988960 5.000140 0.431525
244.967072 -111.020676 3.738822 0.512200
245.611115 -110.129387 2.561199 0.365164
245.842377 -109.809341 1.445262 0.597436
245.842377 -109.809341 0.334597 0.614771
251.411407 -102.102417 0.000003 0.232607
255.515060 -96.423439 0.000003 0.232942
257.800568 -93.260544 0.000003 0.232009
259.259674 -91.241310 0.000003 0.222554
260.273804 -89.837860 0.000003 0.269492
261.020966 -88.803864 0.000003 0.235001
nan nan nan 0.000000
nan nan nan 0.000000
nan nan nan 0.000000
241.275650 -115.636902 8.126156 0.579400
243.122574 -113.118210 6.391784 0.326207
244.120361 -111.757492 4.991891 0.298985
244.819260 -110.804398 3.734505 0.537041
245.210327 -110.271057 2.566933 0.415778
245.534836 -109.828522 1.442047 0.623713
245.534851 -109.828522 0.324944 0.530434
251.273743 -102.002205 0.000003 0.231123
255.416931 -96.352005 0.000003 0.245772
257.724457 -93.205147 0.000003 0.238807
259.197632 -91.196152 0.000003 0.248680
260.221527 -89.799820 0.000003 0.214261
260.975891 -88.771065 0.000003 0.200569
nan nan nan 0.000000
nan nan nan 0.000000
nan nan nan 0.000000
240.916275 -115.636909 8.157831 0.635920
242.972290 -112.873718 6.379431 0.391409
243.974030 -111.527420 4.983845 0.393011
244.672180 -110.589142 3.730292 0.545464
244.672241 -110.589073 2.576351 0.665995
245.222412 -109.849670 1.438730 0.501732
245.222397 -109.849678 0.314987 0.690028
251.136780 -101.901024 0.000003 0.222076
255.319305 -96.279892 0.000003 0.228502
257.648743 -93.149223 0.000003 0.225642
259.135895 -91.150551 0.000003 0.219718
260.169525 -89.761406 0.000003 0.195064
260.931061 -88.737946 0.000003 0.223979
nan nan nan 0.000000
nan nan nan 0.000000
nan nan nan 0.000000
240.553146 -115.636909 8.190136 0.709224
242.758545 -112.715759 6.379637 0.227359
243.825256 -111.302856 4.976429 0.260716
244.525818 -110.374916 3.726183 0.433265
244.756607 -110.069229 2.568715 0.635493
245.272278 -109.386215 1.445289 0.549020
245.272278 -109.386215 0.334676 0.517647
251.000519 -101.798897 0.000003 0.237000
255.222183 -96.207108 0.000003 0.221477
257.573425 -93.092766 0.000003 0.281101
259.074493 -91.104530 0.000003 0.209629
260.117798 -89.722633 0.000003 0.209773
260.886444 -88.704514 0.000002 0.222494
nan nan nan 0.000000
nan nan nan 0.000000
nan nan nan 0.000000
240.186172 -115.636917 8.223089 0.633829
242.402710 -112.743240 6.406936 0.305592
243.492386 -111.320663 4.994111 0.375647
244.250610 -110.330811 3.732643 0.518318
244.548325 -109.942154 2.569124 0.611414
245.074081 -109.255783 1.445025 0.624338
245.074081 -109.255783 0.333883 0.597879
250.864960 -101.695816 0.000003 0.224625
255.125580 -96.133629 0.000003 0.237430
257.498505 -93.035789 0.000003 0.249769
259.013428 -91.058083 0.000003 0.245174
260.066345 -89.683502 0.000003 0.225032
260.842102 -88.670769 0.000003 0.209150
nan nan nan 0.000000
nan nan nan 0.000000
nan nan nan 0.000000
nan nan nan 0.000000
239.815247 -115.636917 6.852332 0.645701
243.155411 -111.338837 5.012170 0.473274
243.938782 -110.330811 3.742001 0.498589
244.160141 -110.045975 2.574350 0.375036
244.479462 -109.635071 1.434167 0.802563
244.480484 -109.633759 0.301368 0.559106
250.730148 -101.591805 0.000003 0.232559
255.029480 -96.059494 0.000003 0.222650
257.423981 -92.978287 0.000003 0.217480
258.952667 -91.011208 0.000003 0.216427
260.015167 -89.644012 0.000003 0.259008
260.797943 -88.636719 0.000003 0.221681
nan nan nan 0.000000
nan nan nan 0.000000
nan nan nan 0.000000
nan nan nan 0.000000
239.440262 -115.636917 6.878921 0.509834
242.814194 -111.357407 5.030614 0.383642
243.623550 -110.330818 3.751547 0.514000
244.162170 -109.647614 2.569195 0.342947
244.346100 -109.414314 1.435666 0.773785
244.347122 -109.413025 0.305868 0.805661
250.596054 -101.486847 0.000002 0.225498
254.933899 -95.984680 0.000003 0.223631
257.349854 -92.920273 0.000003 0.219718
258.892242 -90.963905 0.000003 0.231004
259.964264 -89.604164 0.000003 0.252845
260.754059 -88.602364 0.000003 0.194274
nan nan nan 0.000000
nan nan nan 0.000000
nan nan nan 0.000000
nan nan nan 0.000000
239.061142 -115.636917 6.906043 0.592645
242.468613 -111.376373 5.049452 0.337163
243.304825 -110.330811 3.761283 0.566140
244.029694 -109.424469 2.567684 0.347555
244.214188 -109.193787 1.437150 0.803037
244.215195 -109.192528 0.310321 0.618936
250.462692 -101.380951 0.000003 0.235683
254.838852 -95.909210 0.000003 0.210120
257.276154 -92.861740 0.000003 0.221884
258.832153 -90.916191 0.000003 0.211089
259.913635 -89.563957 0.000003 0.209426
260.710419 -88.567696 0.000003 0.245221
nan nan nan 0.000000
nan nan nan 0.000000
nan nan nan 0.000000
nan nan nan 0.000000
238.677765 -115.636917 6.933710 0.720882
242.118561 -111.395737 5.068695 0.261952
242.982513 -110.330818 3.771216 0.569375
243.897888 -109.202530 2.566208 0.310872
244.083282 -108.973999 1.438607 0.594293
244.084412 -108.972626 0.314704 0.788159
250.330093 -101.274124 0.000003 0.223823
254.744339 -95.833069 0.000003 0.246275
257.202850 -92.802689 0.000003 0.233672
258.772400 -90.868050 0.000003 0.228454
259.863281 -89.523407 0.000003 0.234139
260.666992 -88.532730 0.000003 0.181397
nan nan nan 0.000000
nan nan nan 0.000000
nan nan nan 0.000000
nan nan nan 0.000000
238.290009 -115.636917 6.961934 0.637659
241.763916 -111.415527 5.088350 0.358495
242.710602 -110.265144 3.777170 0.409323
243.766739 -108.981750 2.564768 0.335973
243.953003 -108.755402 1.440028 0.756344
243.954407 -108.753716 0.318991 0.768704
250.198227 -101.166382 0.000003 0.226671
254.650360 -95.756279 0.000003 0.238579
257.129944 -92.743134 0.000004 0.226013
258.712952 -90.819496 0.000003 0.216140
259.813232 -89.482498 0.000003 0.251409
260.623840 -88.497459 0.000003 0.222554
nan nan nan 0.000000
nan nan nan 0.000000
nan nan nan 0.000000
nan nan nan 0.000000
nan nan nan 0.000000
241.404526 -111.435738 5.108431 0.411933
242.730362 -109.847351 3.760748 0.381811
243.636230 -108.762100 2.563365 0.331212
243.821976 -108.539566 1.441380 0.593133
243.823669 -108.537537 0.323070 0.712444
250.067108 -101.057716 0.000003 0.228825
254.556900 -95.678825 0.000003 0.245569
257.057465 -92.683067 0.000003 0.240123
258.653870 -90.770531 0.000003 0.211819
259.763428 -89.441246 0.000003 0.230764
260.580902 -88.461891 0.000003 0.206888
nan nan nan 0.000000
nan nan nan 0.000000
nan nan nan 0.000000
nan nan nan 0.000000
nan nan nan 0.000000
nan nan nan 0.000000
242.667389 -109.534508 3.750975 0.322240
243.506348 -108.543564 2.561994 0.327016
243.693085 -108.322975 1.442735 0.577554
243.695068 -108.320641 0.327160 0.794736
249.936768 -100.948143 0.000003 0.225379
254.464005 -95.600723 0.000003 0.234211
256.985443 -92.622498 0.000003 0.201658
258.595154 -90.721153 0.000003 0.214404
259.713959 -89.399651 0.000003 0.238232
260.538239 -88.426025 0.000003 0.250236
nan nan nan 0.000000
nan nan nan 0.000000
nan nan nan 0.000000
nan nan nan 0.000000
nan nan nan 0.000000
nan nan nan 0.000000
241.655624 -110.330826 3.812992 0.702647
243.377045 -108.326088 2.560659 0.288075
243.564056 -108.108292 1.444038 0.740383
243.566132 -108.105888 0.331079 0.723888
249.807190 -100.837662 0.000003 0.220257
254.371643 -95.521980 0.000003 0.241823
256.913788 -92.561424 0.000003 0.202281
258.536743 -90.671364 0.000004 0.244396
259.664764 -89.357704 0.000003 0.227246
260.495819 -88.389854 0.000003 0.218066
nan nan nan 0.000000
nan nan nan 0.000000
nan nan nan 0.000000
nan nan nan 0.000000
nan nan nan 0.000000
nan nan nan 0.000000
241.313980 -110.330826 3.823971 0.706966
243.083664 -108.298767 2.563461 0.294911
243.316483 -108.031425 1.442340 0.665568
243.316971 -108.030876 0.325859 0.699062
249.678375 -100.726273 0.000003 0.242158
254.279831 -95.442589 0.000003 0.242648
256.842590 -92.499855 0.000003 0.234654
258.478699 -90.621170 0.000003 0.232308
259.615875 -89.315414 0.000003 0.266117
260.453674 -88.353394 0.000003 0.276087
nan nan nan 0.000000
nan nan nan 0.000000
nan nan nan 0.000000
nan nan nan 0.000000
nan nan nan 0.000000
nan nan nan 0.000000
241.068192 -110.217575 3.827749 0.642298
242.759506 -108.302650 2.567006 0.357671
242.999069 -108.031425 1.438915 0.696330
242.999557 -108.030876 0.315578 0.747982
249.550369 -100.613991 0.000003 0.241320
254.188583 -95.362564 0.000003 0.225056
256.771851 -92.437790 0.000003 0.240865
258.421021 -90.570572 0.000004 0.252989
259.567261 -89.272789 0.000003 0.214356
260.411774 -88.316643 0.000003 0.257680
nan nan nan 0.000000
nan nan nan 0.000000
nan nan nan 0.000000
nan nan nan 0.000000
nan nan nan 0.000000
207.759888 -147.013718 9.120127 0.622583
240.719467 -110.217590 3.839136 0.649531
242.431198 -108.306625 2.570626 0.322683
242.703491 -108.002632 1.436052 0.362173
242.678192 -108.030876 0.305085 0.695003
249.423141 -100.500809 0.000004 0.229484
254.097900 -95.281898 0.000003 0.211089
256.701508 -92.375229 0.000003 0.189667
258.363678 -90.519577 0.000003 0.233684
259.518951 -89.229828 0.000003 0.251708
260.370117 -88.279594 0.000003 0.191426
nan nan nan 0.000000
nan nan nan 0.000000
nan nan nan 0.000000
nan nan nan 0.000000
nan nan nan 0.000000
207.570480 -146.320648 9.088331 0.654902
236.948685 -113.979942 4.100462 0.281468
242.098633 -108.310669 2.574320 0.398962
242.398148 -107.980949 1.432969 0.354726
242.352814 -108.030861 0.294378 0.566827
249.296692 -100.386757 0.000003 0.229627
254.007782 -95.200600 0.000003 0.220029
256.631622 -92.312180 0.000003 0.220747
258.306702 -90.468178 0.000003 0.249027
259.470947 -89.186523 0.000003 0.246586
260.328735 -88.242256 0.000003 0.187273
nan nan nan 0.000000
nan nan nan 0.000000
nan nan nan 0.000000
nan nan nan 0.000000
nan nan nan 0.000000
207.570465 -145.429901 9.034441 0.659922
236.522736 -114.001755 4.115377 0.350195
241.761688 -108.314789 2.578092 0.339025
242.022049 -108.032158 1.428197 0.687800
242.023254 -108.030853 0.283451 0.591943
249.171036 -100.271820 0.000003 0.228012
253.918228 -95.118683 0.000003 0.229352
256.562164 -92.248650 0.000003 0.255478
258.250092 -90.416382 0.000003 0.239094
259.423248 -89.142883 0.000003 0.249303
260.287598 -88.204636 0.000004 0.193508
nan nan nan 0.000000
nan nan nan 0.000000
nan nan nan 0.000000
nan nan nan 0.000000
nan nan nan 0.000000
207.570465 -144.552551 8.981701 0.669001
207.570465 -144.552567 6.183031 0.679072
239.665894 -110.196899 2.623995 0.341039
241.687927 -108.032471 1.424474 0.630426
241.689346 -108.030960 0.272291 0.594064
249.046204 -100.156013 0.000003 0.230202
253.829239 -95.036140 0.000003 0.213052
256.493164 -92.184631 0.000004 0.259762
258.193817 -90.364197 0.000003 0.208528
259.375854 -89.098923 0.000003 0.207930
260.246735 -88.166725 0.000003 0.210658
nan nan nan 0.000000
nan nan nan 0.000000
nan nan nan 0.000000
nan nan nan 0.000000
nan nan nan 0.000000
207.570465 -143.688232 8.930082 0.663371
207.570450 -143.688232 6.152104 0.674510
239.315109 -110.180092 2.627729 0.385260
240.549530 -108.877106 1.401643 0.305196
240.692490 -108.726189 0.213858 0.777890
248.922180 -100.039337 0.000003 0.214739
253.740845 -94.952972 0.000003 0.230848
256.424591 -92.120140 0.000003 0.241511
258.137939 -90.311615 0.000004 0.234498
259.328766 -89.054626 0.000003 0.216104
260.206116 -88.128525 0.000003 0.264430
nan nan nan 0.000000
nan nan nan 0.000000
nan nan nan 0.000000
nan nan nan 0.000000
206.162140 -144.302490 11.885983 0.724239
207.570465 -142.836578 8.879556 0.666102
207.570450 -142.836578 6.121832 0.661280
238.960068 -110.163109 2.631537 0.420005
240.305389 -108.762764 1.400239 0.334325
240.448410 -108.613884 0.209573 0.577768
248.798965 -99.921783 0.000003 0.239142
253.653030 -94.869186 0.000004 0.239680
256.356476 -92.055161 0.000004 0.254401
258.082397 -90.258644 0.000003 0.257297
259.281982 -89.010002 0.000003 0.231387
260.165802 -88.090050 0.000003 0.246167
nan nan nan 0.000000
nan nan nan 0.000000
nan nan nan 0.000000
nan nan nan 0.000000
206.215546 -143.387939 11.806094 0.605493
207.570465 -141.997162 8.830091 0.666545
207.570450 -141.997192 6.092195 0.650126
238.600616 -110.145950 2.635425 0.344610
240.060104 -108.647858 1.398799 0.386084
240.203125 -108.501053 0.205177 0.610636
248.676575 -99.803391 0.000003 0.226743
253.565796 -94.784798 0.000003 0.231997
256.288849 -91.989716 0.000004 0.243187
258.027252 -90.205292 0.000003 0.275476
259.235535 -88.965050 0.000003 0.253838
260.125732 -88.051292 0.000003 0.186375
nan nan nan 0.000000
nan nan nan 0.000000
nan nan nan 0.000000
nan nan nan 0.000000
206.245789 -142.510590 11.731609 0.793103
207.570450 -141.169739 8.781658 0.621530
207.570435 -141.169739 6.063178 0.638636
238.236679 -110.128616 2.639394 0.382452
239.565231 -108.783836 1.391540 0.401251
239.955673 -108.388618 0.200607 0.564767
248.555023 -99.684135 0.000003 0.227952
253.479156 -94.699806 0.000003 0.246191
256.221649 -91.923798 0.000003 0.212549
257.972473 -90.151550 0.000003 0.221764
259.189392 -88.919777 0.000003 0.220580
260.085938 -88.012260 0.000003 0.265663
nan nan nan 0.000000
nan nan nan 0.000000
nan nan nan 0.000000
nan nan nan 0.000000
205.315353 -142.604904 11.814795 0.710872
207.570435 -140.353897 8.734234 0.621836
207.570435 -140.353912 6.034764 0.669352
207.570435 -140.353912 3.343962 0.655833
238.209442 -109.770386 1.364448 0.502922
239.084579 -108.896835 0.152725 0.543206
248.434296 -99.564041 0.000003 0.244886
253.393112 -94.614204 0.000003 0.262419
256.154907 -91.857407 0.000004 0.208229
257.918091 -90.097427 0.000004 0.250308
259.143555 -88.874176 0.000004 0.228227
260.046417 -87.972946 0.000003 0.206577
279.278412 -68.963753 6.773470 0.968627
279.347412 -68.895844 6.136774 0.968627
279.416107 -68.828217 5.502651 0.968627
279.045410 -69.193100 4.778307 0.968719
279.476776 -68.768509 4.224322 0.968627
279.536255 -68.709946 3.592231 0.968627
279.595947 -68.651199 2.958086 0.968627
279.655945 -68.592133 2.320512 0.968627
279.716400 -68.532616 1.678100 0.968627
279.777466 -68.472511 1.029400 0.968627
278.784973 -69.449478 0.494209 0.980392
278.087158 -70.136368 -0.000006 0.224864
275.306152 -72.873833 -0.000005 0.257381
273.530731 -74.621468 -0.000004 0.244563
272.296753 -75.836143 -0.000003 0.229711
271.387604 -76.731056 -0.000003 0.277235
279.465851 -68.967224 6.806435 0.968627
279.536255 -68.898872 6.165486 0.968627
279.606415 -68.830780 5.527086 0.968627
279.233154 -69.193100 4.798222 0.968627
279.669098 -68.769936 4.240030 0.968627
279.729858 -68.710968 3.603523 0.968627
279.790802 -68.651802 2.964911 0.968627
279.852081 -68.592316 2.322805 0.968627
279.913818 -68.532372 1.675787 0.968627
279.976196 -68.471832 1.022395 0.968627
278.966095 -69.452347 0.483753 0.951507
278.171997 -70.223160 -0.000006 0.249147
275.371948 -72.941147 -0.000005 0.222183
273.584381 -74.676346 -0.000004 0.196536
272.341949 -75.882370 -0.000003 0.275536
271.426575 -76.770920 -0.000003 0.213160
279.655853 -68.970779 6.840085 0.968627
279.727753 -68.901962 6.194799 0.968627
279.799377 -68.833405 5.552033 0.968627
279.423615 -69.193100 4.818561 0.980392
279.864166 -68.771393 4.256070 0.968627
279.926208 -68.711998 3.615057 0.968627
279.988464 -68.652412 2.971882 0.968627
280.051056 -68.592499 2.325147 0.968627
280.114136 -68.532120 1.673424 0.968627
280.177826 -68.471130 1.015239 0.968627
279.149719 -69.455261 0.473078 0.958984
278.256226 -70.310547 -0.000006 0.236808
275.437286 -73.008911 -0.000005 0.213291
273.637634 -74.731590 -0.000004 0.230812
272.386810 -75.928917 -0.000004 0.200581
271.465271 -76.811050 -0.000003 0.240482
279.848541 -68.974411 6.874440 0.968627
279.921936 -68.905121 6.224728 0.968627
279.995056 -68.836090 5.577505 0.968627
279.616852 -69.193100 4.839337 0.977172
280.062042 -68.772873 4.272452 0.968627
280.125397 -68.713058 3.626835 0.968627
280.188995 -68.653038 2.979001 0.968627
280.252930 -68.592690 2.327539 0.968627
280.317352 -68.531860 1.671011 0.968627
280.382446 -68.470428 1.007930 0.968627
279.335999 -69.458206 0.462173 0.948058
278.339844 -70.398514 -0.000006 0.236700
275.502136 -73.077141 -0.000005 0.237981
273.690491 -74.787209 -0.000004 0.247172
272.431335 -75.975769 -0.000003 0.230465
271.503662 -76.851448 -0.000003 0.229017
280.043945 -68.978111 6.909518 0.968627
280.118896 -68.908340 6.255290 0.968627
280.193573 -68.838821 5.603519 0.968627
279.812988 -69.193100 4.860564 0.968627
280.262817 -68.774391 4.289184 0.968627
280.327545 -68.714142 3.638867 0.968627
280.392487 -68.653679 2.986274 0.968627
280.457825 -68.592880 2.329984 0.968627
280.523651 -68.531601 1.668545 0.968627
280.590149 -68.469696 1.000460 0.968627
279.524963 -69.461197 0.451036 0.959960
278.422852 -70.487061 -0.000006 0.221070
275.566498 -73.145813 -0.000005 0.228048
273.742981 -74.843193 -0.000004 0.264071
272.475555 -76.022934 -0.000004 0.259511
271.541779 -76.892120 -0.000003 0.266010
280.242188 -68.981895 6.945337 0.968627
280.318726 -68.911629 6.286500 0.968627
280.394989 -68.841621 5.630087 0.968627
280.012085 -69.193100 4.882251 0.960540
280.466553 -68.775940 4.306275 0.968627
280.532684 -68.715248 3.651158 0.968627
280.599060 -68.654335 2.993703 0.968627
280.665802 -68.593079 2.332480 0.968627
280.733063 -68.531334 1.666025 0.968627
280.801025 -68.468956 0.992829 0.968627
279.716675 -69.464233 0.439662 0.968627
278.505249 -70.576187 -0.000007 0.236868
275.630402 -73.214935 -0.000005 0.210239
273.795074 -74.899544 -0.000004 0.273454
272.519440 -76.070412 -0.000004 0.227545
271.579620 -76.933052 -0.000003 0.201646
280.443298 -68.985764 6.981920 0.968627
280.521484 -68.914993 6.318377 0.968627
280.599396 -68.844475 5.657225 0.968627
280.214233 -69.193100 4.904413 0.980392
280.673370 -68.777527 4.323736 0.968627
280.740936 -68.716377 3.663715 0.968627
280.808746 -68.655006 3.001295 0.968627
280.876953 -68.593277 2.335032 0.968627
280.945679 -68.531059 1.663451 0.968627
281.015137 -68.468201 0.985029 0.968627
279.911255 -69.467323 0.428042 0.964218
278.587006 -70.665894 -0.000006 0.223308
275.693817 -73.284500 -0.000005 0.237885
273.846771 -74.956261 -0.000004 0.226623
272.562988 -76.118187 -0.000004 0.266644
271.617157 -76.974251 -0.000003 0.198990
280.647400 -68.989700 7.019285 0.968627
280.727295 -68.918427 6.350938 0.968627
280.806885 -68.847389 5.684947 0.968627
280.419495 -69.193100 4.927061 0.980392
280.883331 -68.779144 4.341578 0.968627
280.952393 -68.717529 3.676548 0.968627
281.021667 -68.655685 3.009053 0.968627
281.091370 -68.593483 2.337639 0.968627
281.161621 -68.530777 1.660820 0.968627
281.232605 -68.467430 0.977057 0.968627
280.108734 -69.470474 0.416171 0.958602
278.668121 -70.756165 -0.000006 0.229556
275.756744 -73.354507 -0.000005 0.226588
273.898071 -75.013329 -0.000004 0.243546
272.606201 -76.166275 -0.000004 0.186986
271.654419 -77.015709 -0.000003 0.215146
280.854584 -68.993736 7.057452 0.968627
280.936188 -68.921928 6.384203 0.968627
281.017487 -68.850372 5.713269 0.968627
280.628052 -69.193100 4.950210 0.961547
281.096558 -68.780800 4.359809 0.968627
281.167114 -68.718712 3.689660 0.968627
281.237946 -68.656387 3.016981 0.968627
281.309174 -68.593697 2.340305 0.968627
281.107697 -68.771004 1.664088 0.223529
281.108795 -68.770042 0.991470 0.223529
280.309265 -69.473633 0.404037 0.968261
278.748627 -70.847000 -0.000006 0.252917
275.819153 -73.424957 -0.000005 0.225714
273.948944 -75.070755 -0.000004 0.211041
272.649078 -76.214653 -0.000004 0.218832
271.691406 -77.057426 -0.000003 0.308017
281.064911 -68.997856 7.096447 0.968627
281.148285 -68.925514 6.418188 0.968627
281.231384 -68.853424 5.742208 0.968627
280.839905 -69.193108 4.973875 0.972534
281.313110 -68.782486 4.378441 0.968627
281.104401 -68.963593 3.672575 0.223529
281.105499 -68.962646 3.002182 0.223529
281.106598 -68.961700 2.333845 0.223529
281.107666 -68.960754 1.666131 0.223529
281.108765 -68.959808 0.997605 0.223529
280.512909 -69.476837 0.391637 0.978363
278.828491 -70.938385 -0.000007 0.223177
275.881104 -73.495834 -0.000005 0.244204
273.999451 -75.128540 -0.000004 0.227940
272.691620 -76.263336 -0.000004 0.248046
271.728088 -77.099396 -0.000004 0.238890
281.278503 -69.002068 7.136288 0.968627
281.363678 -68.929184 6.452916 0.968627
281.101105 -69.153831 5.688571 0.223529
281.055206 -69.193108 4.998069 0.980392
281.103333 -69.151932 4.332414 0.223529
281.104401 -69.150993 3.662547 0.223529
281.105499 -69.150063 2.996172 0.223529
281.106598 -69.149139 2.331843 0.223529
281.107666 -69.148209 1.668133 0.223529
281.164490 -69.099609 1.000015 0.223529
280.719727 -69.480110 0.378965 0.980301
278.907715 -71.030334 -0.000007 0.223655
275.942535 -73.567146 -0.000005 0.257201
274.049530 -75.186676 -0.000004 0.272592
272.733826 -76.312317 -0.000004 0.269516
271.764465 -77.141632 -0.000003 0.234690
281.098877 -69.340851 7.047056 0.223529
281.100006 -69.339890 6.352085 0.223529
281.101135 -69.338951 5.666768 0.223529
281.102234 -69.338013 4.989471 0.223529
281.103333 -69.337090 4.318624 0.223529
281.104431 -69.336174 3.652717 0.223529
281.164581 -69.285439 2.994078 0.223529
281.237671 -69.223785 2.332687 0.223529
281.311371 -69.161621 1.665735 0.223529
281.385834 -69.098793 0.991701 0.223529
280.929810 -69.483452 0.366012 0.955230
278.986298 -71.122841 -0.000006 0.225822
276.003479 -73.638885 -0.000005 0.238196
274.099213 -75.245163 -0.000004 0.238208
272.775665 -76.361580 -0.000004 0.217887
271.800568 -77.184113 -0.000003 0.255298
281.098907 -69.523766 7.017646 0.223529
281.100037 -69.522827 6.326720 0.223529
281.101166 -69.521896 5.645398 0.223529
281.162537 -69.470863 4.983675 0.223529
281.236359 -69.409462 4.325011 0.223529
281.310333 -69.347946 3.665041 0.223529
281.384613 -69.286171 3.002342 0.223529
281.459381 -69.224007 2.335466 0.223529
281.534760 -69.161316 1.662930 0.223529
282.374084 -68.463303 0.934435 0.968627
281.143311 -69.486862 0.352772 0.980392
279.064240 -71.215889 -0.000006 0.213172
276.063934 -73.711044 -0.000005 0.187165
274.148499 -75.303986 -0.000005 0.197733
272.817200 -76.411140 -0.000004 0.227689
271.836334 -77.226845 -0.000003 0.213136
281.154053 -69.659393 7.006666 0.223529
281.230072 -69.597076 6.338164 0.223529
281.305725 -69.535034 5.672579 0.223529
281.381256 -69.473129 5.008476 0.223529
281.456726 -69.411232 4.344430 0.223529
281.532379 -69.349213 3.679015 0.223529
282.372833 -68.660133 3.059360 0.968627
282.452484 -68.594833 2.354553 0.968627
282.532806 -68.528984 1.643747 0.968627
282.613983 -68.462418 0.925320 0.968627
281.360382 -69.490242 0.339223 0.980392
279.141510 -71.309471 -0.000007 0.224062
276.123871 -73.783623 -0.000005 0.213243
274.197357 -75.363159 -0.000004 0.214787
272.858337 -76.460991 -0.000004 0.233469
271.871826 -77.269829 -0.000003 0.204064
281.371307 -69.663231 7.048257 0.223529
281.449005 -69.600418 6.374381 0.223529
281.526398 -69.537865 5.703390 0.223529
281.952942 -69.193108 5.100467 0.980392
282.449738 -68.791534 4.478031 0.968627
282.530365 -68.726364 3.774717 0.968627
282.611328 -68.660934 3.068421 0.968627
282.692810 -68.595078 2.357600 0.968627
282.774963 -68.528656 1.640670 0.968627
282.858032 -68.461517 0.915993 0.968627
281.438782 -69.608688 0.340370 0.976394
279.218140 -71.403595 -0.000006 0.228107
276.183289 -73.856621 -0.000005 0.224613
274.245789 -75.422668 -0.000004 0.242433
272.899170 -76.511131 -0.000004 0.241236
271.907043 -77.313057 -0.000003 0.232667
282.398621 -69.024544 7.349088 0.968627
282.493744 -68.948753 6.638453 0.968627
282.588593 -68.873177 5.929827 0.968627
282.187103 -69.193108 5.127556 0.980392
282.688629 -68.793465 4.499326 0.968627
282.771118 -68.727753 3.790041 0.968627
282.853943 -68.661751 3.077692 0.968627
282.937317 -68.595329 2.360718 0.968627
283.021393 -68.528328 1.637522 0.968627
283.106384 -68.460587 0.906450 0.968627
281.665253 -69.608902 0.325898 0.968627
279.294098 -71.498253 -0.000006 0.227557
276.242188 -73.930038 -0.000005 0.239549
274.293823 -75.482513 -0.000004 0.200976
272.939636 -76.561546 -0.000004 0.254951
271.941925 -77.356529 -0.000003 0.262946
282.633850 -69.029350 7.394552 0.968627
282.731140 -68.952934 6.678105 0.968627
282.828186 -68.876732 5.963613 0.968627
282.425385 -69.193100 5.155278 0.979294
282.931671 -68.795441 4.521111 0.968627
283.016052 -68.729164 3.805720 0.968627
283.100800 -68.662590 3.087177 0.968627
283.186127 -68.595581 2.363909 0.968627
283.272186 -68.527985 1.634300 0.968627
283.359192 -68.459641 0.896681 0.968627
281.895996 -69.608910 0.311060 0.967437
279.369415 -71.593445 -0.000007 0.225810
276.300598 -74.003853 -0.000005 0.221884
274.341431 -75.542694 -0.000005 0.220173
272.979736 -76.612244 -0.000004 0.229197
271.976501 -77.400246 -0.000004 0.232332
282.873108 -69.034264 7.441054 0.968627
282.972626 -68.957214 6.718664 0.968627
283.071899 -68.880371 5.998174 0.968627
282.667969 -69.193100 5.183652 0.976577
283.178955 -68.797470 4.543401 0.968627
283.265320 -68.730606 3.821765 0.968627
283.352051 -68.663452 3.096886 0.968627
283.439392 -68.595840 2.367174 0.968627
283.527466 -68.527641 1.631002 0.968627
283.616547 -68.458679 0.886682 0.968627
282.130890 -69.608910 0.295871 0.971664
279.444061 -71.689148 -0.000007 0.243570
276.358490 -74.078079 -0.000005 0.216092
274.388611 -75.603210 -0.000005 0.247232
273.019501 -76.663223 -0.000004 0.218892
272.010773 -77.444199 -0.000003 0.193616
283.116486 -69.039291 7.488621 0.968627
283.218323 -68.961594 6.760157 0.968627
283.319855 -68.884094 6.033536 0.968627
282.914948 -69.193108 5.212699 0.980392
283.430664 -68.799538 4.566215 0.968627
283.519043 -68.732086 3.838187 0.968627
283.607849 -68.664330 3.106822 0.968627
283.697235 -68.596115 2.370518 0.968627
283.787445 -68.527283 1.627626 0.968627
283.878632 -68.457687 0.876444 0.968627
282.370087 -69.608894 0.280321 0.972305
279.518005 -71.785385 -0.000007 0.237215
276.415833 -74.152710 -0.000005 0.247842
274.435394 -75.664047 -0.000004 0.199157
273.058899 -76.714485 -0.000004 0.178752
272.044739 -77.488396 -0.000003 0.249997
282.523193 -69.676941 7.273712 0.709804
283.468323 -68.966080 6.802613 0.968627
283.572266 -68.887909 6.069723 0.968627
283.166473 -69.193108 5.242441 0.968627
283.686920 -68.801666 4.589565 0.968627
283.777405 -68.733604 3.854997 0.968627
283.868317 -68.665230 3.116995 0.968627
283.959839 -68.596390 2.373940 0.968627
284.052216 -68.526924 1.624169 0.968627
284.145599 -68.456680 0.865960 0.968627
282.613708 -69.608871 0.264398 0.980392
279.591309 -71.882126 -0.000006 0.214739
276.472687 -74.227737 -0.000005 0.207343
274.481720 -75.725212 -0.000004 0.202831
273.097931 -76.766014 -0.000003 0.230441
272.078400 -77.532822 -0.000003 0.264825
282.555450 -69.835991 7.256350 0.709804
283.722839 -68.970665 6.846066 0.968627
283.829224 -68.891808 6.106760 0.968627
283.422760 -69.193108 5.272900 0.978271
283.947906 -68.803833 4.613471 0.968627
284.040558 -68.735153 3.872209 0.968627
284.133636 -68.666153 3.127412 0.968627
284.227356 -68.596672 2.377445 0.968627
284.321960 -68.526550 1.620628 0.968627
284.417633 -68.455635 0.855221 0.968627
282.861816 -69.608910 0.248100 0.970413
279.663910 -71.979370 -0.000007 0.206924
276.528992 -74.303162 -0.000005 0.228251
274.527649 -75.786697 -0.000005 0.242301
273.136597 -76.817810 -0.000004 0.201922
272.111755 -77.577492 -0.000004 0.245569
282.797546 -69.840561 7.304513 0.709804
283.981964 -68.975357 6.890543 0.968627
284.090851 -68.895805 6.144676 0.968627
284.199768 -68.816254 5.398865 0.968627
284.071350 -68.910057 4.617668 0.966384
284.308594 -68.736748 3.889835 0.968627
284.403961 -68.667099 3.138080 0.968627
284.499969 -68.596954 2.381035 0.968627
284.596863 -68.526169 1.617001 0.968627
284.694885 -68.454567 0.844220 0.968627
283.114716 -69.608871 0.231395 0.977676
279.735870 -72.077133 -0.000006 0.233637
276.584808 -74.378975 -0.000005 0.195531
274.573120 -75.848503 -0.000005 0.269528
273.174927 -76.869881 -0.000004 0.204196
272.144806 -77.622383 -0.000003 0.220663
283.044037 -69.845299 7.353796 0.709804
284.245880 -68.980164 6.936078 0.968627
284.357391 -68.899895 6.183498 0.968627
284.468872 -68.819626 5.430891 0.968627
284.165833 -69.037781 4.617841 0.979995
284.581757 -68.738373 3.907889 0.968627
284.679443 -68.668060 3.149008 0.968627
284.777802 -68.597252 2.384712 0.968627
284.877075 -68.525787 1.613286 0.968627
284.977509 -68.453484 0.832947 0.968627
283.372437 -69.608894 0.214289 0.980392
279.807098 -72.175385 -0.000006 0.248321
276.640045 -74.455177 -0.000005 0.228203
274.618164 -75.910629 -0.000005 0.252737
273.212891 -76.922218 -0.000004 0.231028
272.177521 -77.667511 -0.000003 0.193233
283.352722 -69.809280 7.421957 0.709804
284.514709 -68.985085 6.982703 0.968627
284.628906 -68.904083 6.223256 0.968627
284.743134 -68.823067 5.463693 0.968627
284.259369 -69.166191 4.618009 0.969116
284.860168 -68.740044 3.926384 0.968627
284.960266 -68.669060 3.160205 0.968627
285.061066 -68.597557 2.388481 0.968627
285.162811 -68.525383 1.609478 0.968627
284.893829 -68.716171 0.843796 0.223529
283.635223 -69.608910 0.196757 0.968627
279.877686 -72.274139 -0.000007 0.214715
276.694794 -74.531761 -0.000005 0.241320
274.662781 -75.973061 -0.000004 0.219431
273.250458 -76.974815 -0.000004 0.268942
272.209930 -77.712868 -0.000003 0.243366
283.551147 -69.854958 7.456012 0.709804
284.788666 -68.990120 7.030456 0.968627
284.905640 -68.908371 6.263978 0.968627
285.022644 -68.826599 5.497294 0.968627
284.498230 -69.193092 4.638696 0.968627
285.144073 -68.741753 3.945335 0.968627
284.890045 -68.919281 3.150307 0.223529
284.891296 -68.918396 2.383187 0.223529
284.892548 -68.917519 1.616788 0.223529
284.893829 -68.916634 0.849465 0.223529
283.903229 -69.608910 0.178789 0.969818
279.947540 -72.373375 -0.000007 0.255909
276.748962 -74.608727 -0.000005 0.210180
274.706970 -76.035805 -0.000005 0.239106
273.287689 -77.027679 -0.000004 0.224062
272.242035 -77.758446 -0.000004 0.220556
284.947845 -69.077950 7.854405 0.968627
285.067902 -68.995293 7.079371 0.968627
285.187744 -68.912766 6.305697 0.968627
284.886261 -69.120346 5.455833 0.223529
284.780609 -69.193092 4.665386 0.980392
284.888794 -69.118599 3.910525 0.223529
284.890045 -69.117737 3.144751 0.223529
284.891296 -69.116867 2.381336 0.223529
284.892548 -69.116005 1.618639 0.223529
284.937225 -69.085251 0.852434 0.223529
284.176666 -69.608910 0.160366 0.958419
280.016724 -72.473099 -0.000007 0.207606
276.802612 -74.686066 -0.000006 0.244659
274.750702 -76.098854 -0.000005 0.230609
273.324524 -77.080795 -0.000004 0.222842
272.273804 -77.804245 -0.000003 0.249638
284.882385 -69.319504 7.806733 0.223529
284.883698 -69.318611 7.007128 0.223529
284.885010 -69.317734 6.218642 0.223529
284.886292 -69.316864 5.439389 0.223529
284.887543 -69.316002 4.667566 0.223529
284.888794 -69.315147 3.901433 0.223529
284.913330 -69.298508 3.140685 0.223529
285.017609 -69.227783 2.382019 0.223529
285.122894 -69.156364 1.615899 0.223529
285.229462 -69.084084 0.840549 0.223529
284.455719 -69.608902 0.141476 0.968627
280.085205 -72.573311 -0.000007 0.232524
276.855743 -74.763786 -0.000005 0.205404
274.793976 -76.162216 -0.000005 0.215290
273.360992 -77.134171 -0.000004 0.279509
272.305237 -77.850266 -0.000004 0.185286
284.442627 -69.807968 7.647024 0.709804
284.883728 -69.513237 6.983659 0.223529
284.885040 -69.512375 6.198868 0.223529
284.886719 -69.511246 5.423342 0.223529
284.991913 -69.440964 4.669497 0.223529
285.097443 -69.370445 3.913092 0.223529
285.203583 -69.299545 3.152484 0.223529
285.310516 -69.228096 2.385992 0.223529
286.364807 -68.523689 1.593259 0.968627
286.478668 -68.447617 0.772179 0.968627
284.740570 -69.608887 0.122100 0.973495
280.152985 -72.673996 -0.000007 0.221848
276.908295 -74.841873 -0.000005 0.235946
274.836853 -76.225868 -0.000005 0.204519
273.397095 -77.187798 -0.000004 0.216164
272.336365 -77.896507 -0.000004 0.232978
284.625549 -69.875992 7.675796 0.709804
284.959351 -69.656319 6.980194 0.223529
285.067169 -69.585373 6.219148 0.223529
285.174896 -69.514481 5.458702 0.223529
285.282745 -69.443497 4.697221 0.223529
286.338043 -68.749039 4.026029 0.968627
286.451447 -68.674408 3.220549 0.968627
286.565735 -68.599197 2.408798 0.968627
286.681152 -68.523239 1.588941 0.968627
286.797974 -68.446350 0.759071 0.968627
285.031372 -69.608917 0.102228 0.964492
280.220062 -72.775146 -0.000007 0.218390
276.960327 -74.920319 -0.000005 0.193413
274.879242 -76.289818 -0.000005 0.229424
273.432831 -77.241684 -0.000004 0.212286
272.367188 -77.942963 -0.000004 0.236377
284.907776 -69.881577 7.734221 0.709804
285.247986 -69.661079 7.031823 0.223529
286.373718 -68.931480 6.483253 0.968627
286.506165 -68.845619 5.678295 0.968627
285.970062 -69.193092 4.779174 0.968627
286.652222 -68.750977 4.047512 0.968627
286.768555 -68.675560 3.233562 0.968627
286.885834 -68.599548 2.413181 0.968627
287.004303 -68.522774 1.584509 0.968627
287.124237 -68.445053 0.745616 0.968627
285.328491 -69.608902 0.081830 0.966506
280.286438 -72.876770 -0.000007 0.235898
277.011780 -74.999130 -0.000005 0.253767
274.921204 -76.354073 -0.000005 0.261605
273.468170 -77.295807 -0.000004 0.255957
272.397675 -77.989632 -0.000004 0.221262
286.413940 -69.109848 8.156106 0.968627
286.549866 -69.023109 7.342849 0.968627
286.685608 -68.936462 6.530497 0.968627
286.821503 -68.849724 5.717307 0.968627
286.283539 -69.193092 4.809505 0.969543
286.973114 -68.752960 4.069553 0.968627
287.092529 -68.676743 3.246917 0.968627
287.212921 -68.599915 2.417679 0.968627
287.334503 -68.522301 1.579961 0.968627
287.457642 -68.443718 0.731805 0.968627
285.632019 -69.608917 0.060897 0.966842
280.352081 -72.978844 -0.000007 0.230094
277.062714 -75.078293 -0.000005 0.230046
274.962708 -76.418610 -0.000005 0.196823
273.503143 -77.350182 -0.000004 0.235922
272.427826 -78.036514 -0.000004 0.205704
286.725464 -69.116722 8.221107 0.968627
286.864868 -69.029106 7.399635 0.968627
287.004150 -68.941574 6.578966 0.968627
287.143616 -68.853928 5.757338 0.968627
286.603943 -69.193092 4.840646 0.964950
287.301025 -68.755005 4.092178 0.968627
287.423615 -68.677963 3.260624 0.968627
287.547211 -68.600288 2.422297 0.968627
287.672058 -68.521812 1.575289 0.968627
287.798523 -68.442352 0.717622 0.968627
285.942291 -69.608917 0.039405 0.961196
280.417023 -73.081383 -0.000007 0.239238
277.113068 -75.157814 -0.000006 0.210598
275.003784 -76.483437 -0.000005 0.208696
273.537750 -77.404793 -0.000004 0.235204
272.457642 -78.083611 -0.000003 0.244408
287.043579 -69.123772 8.287786 0.968627
287.186646 -69.035255 7.457900 0.968627
287.329559 -68.946815 6.628702 0.968627
287.472687 -68.858253 5.798420 0.968627
286.931549 -69.193100 4.872625 0.980392
287.636169 -68.757103 4.115404 0.968627
287.762054 -68.679207 3.274701 0.968627
287.888977 -68.600670 2.427040 0.968627
288.017242 -68.521309 1.570493 0.968627
288.147125 -68.440941 0.703053 0.968627
286.439423 -69.497620 -0.000012 0.230130
280.481232 -73.184372 -0.000007 0.237538
277.162872 -75.237686 -0.000006 0.242660
275.044373 -76.548553 -0.000005 0.205357
273.571960 -77.459648 -0.000004 0.197230
272.487122 -78.130905 -0.000004 0.181337
287.368561 -69.131012 8.356209 0.968627
287.515381 -69.041580 7.517694 0.968627
287.662109 -68.952194 6.679754 0.968627
287.809052 -68.862686 5.840595 0.968627
287.266632 -69.193092 4.905477 0.980392
287.978851 -68.759254 4.139258 0.968627
288.108124 -68.680496 3.289157 0.968627
288.238525 -68.601067 2.431911 0.968627
nan nan nan 0.000000
300.465851 -61.152679 -0.000023 0.229544
286.528503 -69.642731 -0.000012 0.235970
280.544739 -73.287804 -0.000007 0.240710
277.212128 -75.317902 -0.000006 0.223811
275.084534 -76.613945 -0.000005 0.236198
273.605774 -77.514740 -0.000004 0.206781
272.516296 -78.178413 -0.000003 0.223093
287.700653 -69.138435 8.426441 0.968627
287.851410 -69.048050 7.579081 0.968627
288.002045 -68.957718 6.732172 0.968627
288.152954 -68.867241 5.883904 0.968627
287.609497 -69.193100 4.939235 0.980392
288.329315 -68.761475 4.163759 0.968627
288.462189 -68.681808 3.304009 0.968627
nan nan nan 0.000000
288.358582 -68.743942 1.567618 0.223529
288.239014 -68.815620 0.708773 0.223529
286.616577 -69.788475 -0.000011 0.233289
280.607513 -73.391678 -0.000007 0.207822
277.260803 -75.398460 -0.000006 0.231889
275.124237 -76.679619 -0.000005 0.243725
273.639221 -77.570068 -0.000004 0.202197
272.545135 -78.226120 -0.000003 0.188937
288.040131 -69.146065 8.498545 0.968627
288.194916 -69.054710 7.642109 0.968627
288.349640 -68.963394 6.786001 0.968627
288.504639 -68.871918 5.928386 0.968627
287.960449 -69.193100 4.973930 0.980392
288.687927 -68.763741 4.188935 0.968627
nan nan nan 0.000000
288.480255 -68.886307 2.432902 0.223529
288.360077 -68.957245 1.569381 0.223529
288.240997 -69.027512 0.714012 0.223529
286.703674 -69.934814 -0.000012 0.233278
280.669586 -73.495987 -0.000007 0.209761
277.308929 -75.479355 -0.000006 0.234558
275.163452 -76.745567 -0.000005 0.249530
273.672272 -77.625633 -0.000004 0.194490
272.573639 -78.274017 -0.000004 0.254305
288.387268 -69.153893 8.572594 0.968627
288.546265 -69.061546 7.706850 0.968627
288.705231 -68.969223 6.841300 0.968627
288.864502 -68.876724 5.974090 0.968627
288.319763 -69.193100 5.009604 0.980392
nan nan nan 0.000000
288.602417 -69.028946 3.301274 0.223529
288.481293 -69.099289 2.431157 0.223529
288.391479 -69.151451 1.570543 0.223529
288.533234 -69.069115 0.702655 0.223529
286.789703 -70.081772 -0.000012 0.236617
280.730896 -73.600723 -0.000007 0.237442
277.356506 -75.560585 -0.000006 0.229472
275.202240 -76.811790 -0.000005 0.220185
273.704926 -77.681419 -0.000004 0.244312
272.601807 -78.322128 -0.000004 0.272556
288.742371 -69.161942 8.648661 0.968627
288.905762 -69.068573 7.773365 0.968627
nan nan nan 0.000000
nan nan nan 0.000000
288.687866 -69.193100 5.046295 0.968627
288.725281 -69.171715 4.174782 0.223529
288.602753 -69.241737 3.296071 0.223529
288.621368 -69.231102 2.432066 0.223529
288.765198 -69.148895 1.565223 0.223529
301.043640 -62.131729 -0.000023 0.232332
286.874695 -70.229324 -0.000012 0.230932
280.791504 -73.705887 -0.000008 0.214428
277.403503 -75.642151 -0.000006 0.240123
275.240540 -76.878281 -0.000005 0.221537
273.737213 -77.737434 -0.000004 0.249518
272.629608 -78.370422 -0.000004 0.203322
289.105774 -69.170204 8.726826 0.968627
nan nan nan 0.000000
nan nan nan 0.000000
288.975220 -69.243607 5.961345 0.223529
288.849121 -69.314522 5.055545 0.223529
288.724609 -69.384521 4.166127 0.223529
288.853821 -69.311867 3.305101 0.223529
nan nan nan 0.000000
nan nan nan 0.000000
301.183807 -62.378983 -0.000023 0.227102
286.958679 -70.377464 -0.000012 0.238543
280.851349 -73.811478 -0.000008 0.217205
277.449921 -75.724030 -0.000006 0.207247
275.278381 -76.945038 -0.000005 0.234953
273.769073 -77.793678 -0.000004 0.209952
272.657104 -78.418915 -0.000004 0.195830
nan nan nan 0.000000
289.233734 -69.313660 7.809174 0.223529
289.102539 -69.386230 6.866775 0.223529
288.973724 -69.457481 5.945701 0.223529
288.940552 -69.475830 5.055695 0.223529
289.088257 -69.394142 4.191785 0.223529
nan nan nan 0.000000
nan nan nan 0.000000
nan nan nan 0.000000
301.322235 -62.627213 -0.000023 0.231937
287.041626 -70.526184 -0.000012 0.234678
280.910461 -73.917480 -0.000007 0.237526
277.495758 -75.806236 -0.000006 0.222028
275.315765 -77.012054 -0.000005 0.220675
273.800568 -77.850136 -0.000004 0.191941
272.684265 -78.467598 -0.000004 0.194968
289.365875 -69.455544 8.749245 0.223529
289.231476 -69.528671 7.786407 0.223529
289.100037 -69.600174 6.847651 0.223529
289.173981 -69.559944 5.964434 0.223529
nan nan nan 0.000000
nan nan nan 0.000000
nan nan nan 0.000000
nan nan nan 0.000000
nan nan nan 0.000000
301.458954 -62.876392 -0.000023 0.232224
287.123535 -70.675476 -0.000012 0.223608
280.968842 -74.023888 -0.000008 0.211723
277.541016 -75.888763 -0.000006 0.249063
275.352661 -77.079330 -0.000005 0.211532
273.831665 -77.906815 -0.000004 0.215565
272.711060 -78.516472 -0.000004 0.226659
289.362549 -69.670654 8.722929 0.223529
289.253326 -69.729103 7.770005 0.223529
289.407898 -69.646400 6.892958 0.223529
nan nan nan 0.000000
nan nan nan 0.000000
nan nan nan 0.000000
nan nan nan 0.000000
nan nan nan 0.000000
nan nan nan 0.000000
301.593903 -63.126530 -0.000023 0.232117
287.204376 -70.825340 -0.000012 0.223284
281.026459 -74.130707 -0.000007 0.261223
277.585724 -75.971611 -0.000005 0.205596
275.389099 -77.146866 -0.000005 0.266141
273.862366 -77.963715 -0.000004 0.253001
272.737549 -78.565529 -0.000004 0.221262
289.484436 -69.818268 8.732567 0.223529
289.642456 -69.735130 7.843640 0.223529
nan nan nan 0.000000
nan nan nan 0.000000
nan nan nan 0.000000
nan nan nan 0.000000
nan nan nan 0.000000
nan nan nan 0.000000
nan nan nan 0.000000
301.727112 -63.377594 -0.000023 0.227425
287.284210 -70.975769 -0.000012 0.224804
281.083344 -74.237923 -0.000008 0.210215
277.629852 -76.054756 -0.000006 0.196931
275.425049 -77.214653 -0.000005 0.249410
273.892670 -78.020821 -0.000004 0.223368
272.763672 -78.614769 -0.000004 0.202400
nan nan nan 0.000000
nan nan nan 0.000000
nan nan nan 0.000000
nan nan nan 0.000000
nan nan nan 0.000000
nan nan nan 0.000000
nan nan nan 0.000000
nan nan nan 0.000000
nan nan nan 0.000000
301.858551 -63.629593 -0.000023 0.231590
287.362946 -71.126747 -0.000012 0.235073
281.139496 -74.345535 -0.000008 0.210838
277.673370 -76.138214 -0.000006 0.223847
275.460541 -77.282692 -0.000005 0.197793
273.922577 -78.078140 -0.000004 0.248908
272.789429 -78.664192 -0.000004 0.210227
nan nan nan 0.000000
nan nan nan 0.000000
nan nan nan 0.000000
nan nan nan 0.000000
nan nan nan 0.000000
nan nan nan 0.000000
nan nan nan 0.000000
nan nan nan 0.000000
nan nan nan 0.000000
301.988281 -63.882492 -0.000024 0.229496
287.440643 -71.278275 -0.000012 0.227689
281.194885 -74.453529 -0.000008 0.220639
277.716309 -76.221977 -0.000006 0.227078
275.495575 -77.350967 -0.000005 0.253563
273.952057 -78.135666 -0.000004 0.185622
272.814880 -78.713791 -0.000004 0.200881
nan nan nan 0.000000
nan nan nan 0.000000
nan nan nan 0.000000
nan nan nan 0.000000
nan nan nan 0.000000
nan nan nan 0.000000
nan nan nan 0.000000
nan nan nan 0.000000
nan nan nan 0.000000
302.116180 -64.136299 -0.000024 0.229879
287.517273 -71.430344 -0.000012 0.222279
281.249512 -74.561913 -0.000008 0.237622
277.758698 -76.306030 -0.000006 0.265244
275.530090 -77.419495 -0.000005 0.228347
273.981171 -78.193398 -0.000004 0.267661
272.839966 -78.763573 -0.000004 0.200127
nan nan nan 0.000000
nan nan nan 0.000000
nan nan nan 0.000000
nan nan nan 0.000000
nan nan nan 0.000000
nan nan nan 0.000000
nan nan nan 0.000000
nan nan nan 0.000000
nan nan nan 0.000000
302.242310 -64.390991 -0.000024 0.227401
287.592865 -71.582939 -0.000012 0.234426
281.303375 -74.670677 -0.000008 0.255921
277.800476 -76.390381 -0.000006 0.269097
275.564148 -77.488258 -0.000005 0.193544
274.009857 -78.251328 -0.000004 0.238484
272.864716 -78.813522 -0.000004 0.212765
nan nan nan 0.000000
nan nan nan 0.000000
nan nan nan 0.000000
nan nan nan 0.000000
nan nan nan 0.000000
nan nan nan 0.000000
nan nan nan 0.000000
nan nan nan 0.000000
nan nan nan 0.000000
302.366669 -64.646561 -0.000024 0.233397
287.667389 -71.736053 -0.000013 0.232272
281.356476 -74.779816 -0.000008 0.222854
277.841644 -76.475021 -0.000006 0.238867
275.597748 -77.557259 -0.000005 0.206410
274.038147 -78.309456 -0.000004 0.263664
272.889099 -78.863640 -0.000004 0.247495
nan nan nan 0.000000
nan nan nan 0.000000
nan nan nan 0.000000
nan nan nan 0.000000
nan nan nan 0.000000
nan nan nan 0.000000
nan nan nan 0.000000
nan nan nan 0.000000
nan nan nan 0.000000
302.489258 -64.902985 -0.000024 0.231315
287.740814 -71.889694 -0.000012 0.229484
281.408813 -74.889320 -0.000007 0.258183
277.882233 -76.559944 -0.000006 0.221106
275.630829 -77.626495 -0.000005 0.217612
274.066010 -78.367783 -0.000004 0.243462
272.913147 -78.913933 -0.000004 0.240841
nan nan nan 0.000000
nan nan nan 0.000000
nan nan nan 0.000000
nan nan nan 0.000000
nan nan nan 0.000000
nan nan nan 0.000000
nan nan nan 0.000000
nan nan nan 0.000000
nan nan nan 0.000000
302.610046 -65.160271 -0.000024 0.228766
287.813171 -72.043839 -0.000012 0.237550
281.460388 -74.999184 -0.000007 0.219802
277.922241 -76.645149 -0.000007 0.234187
275.663452 -77.695953 -0.000005 0.199779
274.093506 -78.426308 -0.000004 0.210180
272.936829 -78.964394 -0.000004 0.214476
nan nan nan 0.000000
nan nan nan 0.000000
nan nan nan 0.000000
nan nan nan 0.000000
nan nan nan 0.000000
nan nan nan 0.000000
nan nan nan 0.000000
nan nan nan 0.000000
nan nan nan 0.000000
302.729034 -65.418381 -0.000024 0.228131
287.884460 -72.198486 -0.000012 0.225223
281.511200 -75.109413 -0.000008 0.236652
277.961639 -76.730637 -0.000006 0.209222
275.695557 -77.765648 -0.000005 0.213686
274.120544 -78.485016 -0.000004 0.200940
272.960144 -79.015015 -0.000004 0.198714
nan nan nan 0.000000
nan nan nan 0.000000
nan nan nan 0.000000
nan nan nan 0.000000
nan nan nan 0.000000
nan nan nan 0.000000
nan nan nan 0.000000
nan nan nan 0.000000
nan nan nan 0.000000
302.846191 -65.677322 -0.000024 0.233146
287.954681 -72.353622 -0.000013 0.240518
