# This PCD file was generated using the MATLABÂ® pcwrite function
# from Computer Vision ToolboxÂ®.
# .PCD v.7 - Point Cloud Data file format
VERSION .7
FIELDS x y z intensity
SIZE 4 4 4 4
TYPE F F F F
COUNT 1 1 1 1
WIDTH 1293
HEIGHT 1
VIEWPOINT 0 0 0 1 0 0 0
POINTS 1293
DATA ascii
214.920715 -52.223392 2.477608 0.643412
214.920715 -52.223392 2.159089 0.517647
214.920715 -52.223392 1.840911 0.635523
214.920715 -52.223392 1.522391 0.610788
214.920715 -52.223392 1.202845 0.553429
214.920715 -52.223392 0.881580 0.613230
214.920715 -52.223392 0.557885 0.591424
214.920715 -52.223396 0.231031 0.572915
215.226456 -51.877308 -0.000002 0.217420
216.071060 -50.921246 -0.000002 0.199959
214.920715 -52.121681 4.416187 0.524697
214.920715 -52.121677 4.083327 0.517693
214.920715 -52.121677 3.755141 0.543770
214.920715 -52.121677 3.430842 0.640925
214.920715 -52.121677 3.109678 0.534295
214.920715 -52.121681 2.790923 0.507607
214.920715 -52.121677 2.473875 0.487831
214.920715 -52.121681 2.157846 0.533898
214.920715 -52.121681 1.842154 0.610758
214.920715 -52.121681 1.526125 0.529854
214.920715 -52.121681 1.209076 0.547372
214.920715 -52.121681 0.890322 0.575631
214.920715 -52.121681 0.569158 0.565438
214.920715 -52.121681 0.244859 0.553979
215.178162 -51.834335 -0.000001 0.211113
216.029419 -50.884193 -0.000001 0.282130
214.920700 -52.021553 4.397567 0.581964
214.920715 -52.021542 4.067268 0.434928
214.920715 -52.021538 3.741612 0.555154
214.920715 -52.021542 3.419814 0.565942
214.920715 -52.021542 3.101124 0.619120
214.920715 -52.021538 2.784827 0.549020
214.920715 -52.021538 2.470222 0.558892
214.920715 -52.021542 2.156629 0.548745
214.920715 -52.021542 1.843371 0.518013
214.920715 -52.021542 1.529777 0.534249
214.920715 -52.021542 1.215173 0.589700
214.920715 -52.021542 0.898875 0.604685
214.920715 -52.021542 0.580186 0.505104
214.920715 -52.021542 0.258387 0.557168
215.130157 -51.791031 -0.000002 0.215757
215.988037 -50.846855 -0.000001 0.244456
214.920715 -51.922928 4.379337 0.621958
214.920715 -51.922928 4.051555 0.647059
214.920715 -51.922928 3.728374 0.533837
214.920715 -51.922928 3.409021 0.501442
214.920715 -51.922928 3.092754 0.603525
214.920715 -51.922928 2.778861 0.544564
214.920715 -51.922928 2.466649 0.553796
214.920715 -51.922928 2.155438 0.531350
214.920715 -51.922928 1.844562 0.562814
214.920715 -51.922928 1.533351 0.522210
214.920715 -51.922928 1.221138 0.608972
214.920715 -51.922928 0.907245 0.587121
214.920715 -51.922928 0.590978 0.567788
214.920715 -51.922928 0.271625 0.576288
215.082458 -51.747387 -0.000001 0.276134
215.946915 -50.809223 -0.000001 0.251540
214.920700 -51.825817 4.361509 0.661280
214.920715 -51.825798 4.036177 0.516182
214.920715 -51.825798 3.715419 0.567498
214.920715 -51.825798 3.398460 0.596674
214.920715 -51.825802 3.084564 0.589700
214.920715 -51.825798 2.773023 0.519692
214.920715 -51.825798 2.463151 0.609216
214.920715 -51.825798 2.154273 0.558312
214.920715 -51.825798 1.845727 0.493385
214.920715 -51.825798 1.536849 0.529503
214.920715 -51.825802 1.226976 0.644694
214.920715 -51.825802 0.915436 0.720821
214.920715 -51.825802 0.601540 0.594125
214.920715 -51.825802 0.284580 0.645075
215.035080 -51.703415 -0.000002 0.266429
215.906052 -50.771313 -0.000001 0.212920
214.920715 -51.730114 4.344049 0.537255
214.920715 -51.730110 4.021126 0.515770
214.920715 -51.730110 3.702739 0.560540
214.920715 -51.730110 3.388123 0.585672
214.920715 -51.730110 3.076547 0.633646
214.920715 -51.730110 2.767309 0.482353
214.920715 -51.730110 2.459727 0.533608
214.920715 -51.730110 2.153133 0.547707
214.920715 -51.730110 1.846867 0.507424
214.920715 -51.730110 1.540273 0.529046
214.920715 -51.730110 1.232691 0.473548
214.920715 -51.730110 0.923453 0.601343
214.920715 -51.730110 0.611877 0.574044
214.920715 -51.730114 0.297260 0.572168
214.987991 -51.659111 -0.000001 0.247483
215.865448 -50.733112 -0.000001 0.281161
214.920731 -51.635815 4.326959 0.587945
214.920715 -51.635826 4.006394 0.547066
214.920715 -51.635822 3.690327 0.513985
214.920715 -51.635822 3.378004 0.611765
214.920715 -51.635822 3.068700 0.555779
214.920715 -51.635822 2.761716 0.547921
214.920715 -51.635822 2.456376 0.575784
214.920715 -51.635822 2.152017 0.579919
214.920715 -51.635822 1.847983 0.537194
214.920715 -51.635826 1.543624 0.517952
214.920715 -51.635826 1.238284 0.572778
214.920715 -51.635826 0.931300 0.499794
214.920715 -51.635826 0.621996 0.530449
214.920715 -51.635826 0.309672 0.532616
214.941223 -51.614483 -0.000001 0.243091
215.825119 -50.694630 -0.000001 0.195172
214.920715 -51.542900 4.310235 0.565026
214.920715 -51.542892 3.991970 0.545937
214.920715 -51.542896 3.678176 0.532708
214.920715 -51.542892 3.368098 0.587366
214.920715 -51.542892 3.061017 0.560754
214.920715 -51.542892 2.756240 0.575952
214.920715 -51.542896 2.453095 0.543084
214.920715 -51.542896 2.150924 0.546563
214.920715 -51.542896 1.849076 0.560784
214.920715 -51.542896 1.546905 0.544991
214.920715 -51.542896 1.243760 0.594598
214.920715 -51.542896 0.938983 0.549020
214.920715 -51.542896 0.631902 0.547738
214.920715 -51.542896 0.321824 0.607294
214.920715 -51.542896 0.008029 0.579614
215.785065 -50.655869 -0.000001 0.219431
214.920715 -51.451290 4.293855 0.536477
214.920715 -51.451286 3.977848 0.595331
214.920715 -51.451286 3.666278 0.552575
214.920715 -51.451286 3.358399 0.562249
214.920715 -51.451286 3.053495 0.532128
214.920715 -51.451290 2.750879 0.605188
214.920715 -51.451286 2.449883 0.546120
214.920715 -51.451290 2.149854 0.447791
214.920715 -51.451290 1.850146 0.609201
214.920715 -51.451286 1.550117 0.502068
214.920715 -51.451290 1.249121 0.607584
214.920715 -51.451290 0.946505 0.520928
214.920715 -51.451290 0.641601 0.480659
214.920715 -51.451290 0.333721 0.558541
214.920715 -51.451290 0.022152 0.536339
215.745285 -50.616829 -0.000001 0.171499
214.920715 -51.360966 4.277817 0.566171
214.920715 -51.360966 3.964020 0.598993
214.920715 -51.360966 3.654628 0.695140
214.920715 -51.360966 3.348902 0.583368
214.920715 -51.360966 3.046130 0.569100
214.920715 -51.360966 2.745629 0.630823
214.920715 -51.360966 2.446738 0.603891
214.920715 -51.360966 2.148806 0.577234
214.920715 -51.360970 1.851194 0.514946
214.920715 -51.360970 1.553262 0.526024
214.920715 -51.360970 1.254371 0.537942
214.920715 -51.360970 0.953870 0.609781
214.920715 -51.360970 0.651098 0.577752
214.920715 -51.360966 0.345371 0.536507
214.920715 -51.360970 0.035980 0.536156
215.705765 -50.577511 -0.000001 0.251552
nan nan nan 0.000000
nan nan nan 0.000000
nan nan nan 0.000000
nan nan nan 0.000000
nan nan nan 0.000000
nan nan nan 0.000000
nan nan nan 0.000000
nan nan nan 0.000000
nan nan nan 0.000000
250.373993 -16.381170 -0.000025 0.229939
238.742355 -27.828243 -0.000015 0.222590
233.748489 -32.742863 -0.000011 0.222327
230.967194 -35.480038 -0.000009 0.220963
229.191574 -37.227482 -0.000008 0.287456
227.957443 -38.442024 -0.000006 0.201814
227.048203 -39.336842 -0.000006 0.207415
nan nan nan 0.000000
nan nan nan 0.000000
nan nan nan 0.000000
nan nan nan 0.000000
nan nan nan 0.000000
nan nan nan 0.000000
nan nan nan 0.000000
nan nan nan 0.000000
nan nan nan 0.000000
250.572632 -16.584438 -0.000025 0.228311
238.861374 -27.950031 -0.000015 0.235192
233.833328 -32.829666 -0.000011 0.209641
231.032990 -35.547356 -0.000009 0.232105
229.245209 -37.282364 -0.000007 0.211819
228.002640 -38.488258 -0.000006 0.217253
227.087158 -39.376709 -0.000006 0.190564
nan nan nan 0.000000
nan nan nan 0.000000
nan nan nan 0.000000
nan nan nan 0.000000
nan nan nan 0.000000
nan nan nan 0.000000
nan nan nan 0.000000
nan nan nan 0.000000
nan nan nan 0.000000
250.769867 -16.789085 -0.000025 0.230274
238.979538 -28.072641 -0.000015 0.236712
233.917557 -32.917061 -0.000011 0.254820
231.098297 -35.615131 -0.000009 0.206158
229.298462 -37.337616 -0.000007 0.209904
228.047501 -38.534809 -0.000006 0.217600
227.125839 -39.416843 -0.000006 0.258494
nan nan nan 0.000000
nan nan nan 0.000000
nan nan nan 0.000000
nan nan nan 0.000000
nan nan nan 0.000000
nan nan nan 0.000000
nan nan nan 0.000000
nan nan nan 0.000000
nan nan nan 0.000000
250.965668 -16.995108 -0.000025 0.229125
239.096848 -28.196081 -0.000015 0.225199
234.001160 -33.005035 -0.000011 0.227150
231.163147 -35.683365 -0.000009 0.196225
229.351318 -37.393242 -0.000008 0.237813
228.092026 -38.581669 -0.000006 0.194873
227.164246 -39.457249 -0.000006 0.261737
nan nan nan 0.000000
nan nan nan 0.000000
nan nan nan 0.000000
nan nan nan 0.000000
nan nan nan 0.000000
nan nan nan 0.000000
nan nan nan 0.000000
nan nan nan 0.000000
nan nan nan 0.000000
251.160019 -17.202490 -0.000026 0.230824
239.213287 -28.320330 -0.000016 0.223237
234.084167 -33.093594 -0.000012 0.246849
231.227509 -35.752045 -0.000009 0.234606
229.403793 -37.449234 -0.000007 0.232296
228.136230 -38.628841 -0.000006 0.226444
227.202362 -39.497921 -0.000006 0.233804
nan nan nan 0.000000
nan nan nan 0.000000
nan nan nan 0.000000
nan nan nan 0.000000
nan nan nan 0.000000
nan nan nan 0.000000
nan nan nan 0.000000
nan nan nan 0.000000
nan nan nan 0.000000
251.352921 -17.411224 -0.000026 0.231411
239.328873 -28.445389 -0.000016 0.228275
234.166534 -33.182732 -0.000012 0.203262
231.291397 -35.821175 -0.000009 0.265160
229.455872 -37.505589 -0.000008 0.208719
228.180115 -38.676319 -0.000006 0.204722
227.240189 -39.538860 -0.000006 0.229651
nan nan nan 0.000000
nan nan nan 0.000000
nan nan nan 0.000000
nan nan nan 0.000000
nan nan nan 0.000000
nan nan nan 0.000000
nan nan nan 0.000000
nan nan nan 0.000000
nan nan nan 0.000000
251.544357 -17.621296 -0.000027 0.230860
239.443573 -28.571253 -0.000016 0.234558
234.248291 -33.272446 -0.000011 0.220101
231.354797 -35.890747 -0.000009 0.249159
229.507553 -37.562309 -0.000007 0.211388
228.223663 -38.724102 -0.000007 0.208923
227.277740 -39.580063 -0.000006 0.261593
nan nan nan 0.000000
nan nan nan 0.000000
nan nan nan 0.000000
nan nan nan 0.000000
nan nan nan 0.000000
nan nan nan 0.000000
nan nan nan 0.000000
nan nan nan 0.000000
nan nan nan 0.000000
251.734329 -17.832705 -0.000026 0.225295
239.557373 -28.697920 -0.000016 0.223596
234.329407 -33.362724 -0.000011 0.258685
231.417709 -35.960762 -0.000009 0.246346
229.558853 -37.619385 -0.000008 0.270893
228.266861 -38.772190 -0.000007 0.221106
227.315002 -39.621525 -0.000006 0.234283
nan nan nan 0.000000
nan nan nan 0.000000
nan nan nan 0.000000
nan nan nan 0.000000
nan nan nan 0.000000
nan nan nan 0.000000
nan nan nan 0.000000
nan nan nan 0.000000
nan nan nan 0.000000
251.922821 -18.045427 -0.000027 0.227006
239.670303 -28.825375 -0.000016 0.212501
234.409897 -33.453564 -0.000012 0.219790
231.480133 -36.031212 -0.000009 0.250810
229.609741 -37.676819 -0.000008 0.233744
228.309738 -38.820576 -0.000007 0.228347
227.351959 -39.663246 -0.000006 0.217887
nan nan nan 0.000000
nan nan nan 0.000000
nan nan nan 0.000000
nan nan nan 0.000000
nan nan nan 0.000000
nan nan nan 0.000000
nan nan nan 0.000000
nan nan nan 0.000000
nan nan nan 0.000000
252.109818 -18.259468 -0.000027 0.230597
239.782349 -28.953609 -0.000016 0.229197
234.489761 -33.544968 -0.000012 0.235659
231.542068 -36.102100 -0.000010 0.248058
229.660217 -37.734612 -0.000008 0.268738
228.352264 -38.869263 -0.000007 0.223165
227.388641 -39.705223 -0.000006 0.236832
nan nan nan 0.000000
nan nan nan 0.000000
nan nan nan 0.000000
nan nan nan 0.000000
nan nan nan 0.000000
nan nan nan 0.000000
nan nan nan 0.000000
nan nan nan 0.000000
nan nan nan 0.000000
252.295303 -18.474813 -0.000027 0.229603
239.893494 -29.082626 -0.000017 0.222590
234.568970 -33.636925 -0.000012 0.226588
231.603500 -36.173420 -0.000009 0.200845
229.710312 -37.792747 -0.000008 0.244563
228.394470 -38.918243 -0.000007 0.203813
227.425018 -39.747456 -0.000006 0.239381
nan nan nan 0.000000
nan nan nan 0.000000
nan nan nan 0.000000
nan nan nan 0.000000
nan nan nan 0.000000
nan nan nan 0.000000
nan nan nan 0.000000
nan nan nan 0.000000
nan nan nan 0.000000
252.479309 -18.691444 -0.000027 0.227976
240.003723 -29.212421 -0.000017 0.228634
234.647537 -33.729439 -0.000012 0.231004
231.664429 -36.245163 -0.000009 0.264442
229.759979 -37.851238 -0.000008 0.253395
228.436310 -38.967518 -0.000007 0.204471
227.461105 -39.789944 -0.000006 0.230728
nan nan nan 0.000000
nan nan nan 0.000000
nan nan nan 0.000000
nan nan nan 0.000000
nan nan nan 0.000000
nan nan nan 0.000000
nan nan nan 0.000000
nan nan nan 0.000000
nan nan nan 0.000000
252.661774 -18.909351 -0.000027 0.227318
240.113052 -29.342978 -0.000016 0.228478
234.725464 -33.822491 -0.000012 0.238807
231.724869 -36.317329 -0.000010 0.258302
229.809250 -37.910069 -0.000008 0.232332
228.477814 -39.017082 -0.000007 0.232224
227.496887 -39.832680 -0.000006 0.201982
nan nan nan 0.000000
nan nan nan 0.000000
nan nan nan 0.000000
nan nan nan 0.000000
nan nan nan 0.000000
nan nan nan 0.000000
nan nan nan 0.000000
nan nan nan 0.000000
nan nan nan 0.000000
252.842743 -19.128513 -0.000028 0.229280
240.221466 -29.474295 -0.000017 0.228083
234.802734 -33.916084 -0.000012 0.247436
231.784790 -36.389915 -0.000010 0.257129
229.858093 -37.969246 -0.000008 0.236988
228.518982 -39.066936 -0.000007 0.208444
227.532379 -39.875664 -0.000006 0.253994
nan nan nan 0.000000
nan nan nan 0.000000
nan nan nan 0.000000
nan nan nan 0.000000
nan nan nan 0.000000
nan nan nan 0.000000
nan nan nan 0.000000
nan nan nan 0.000000
nan nan nan 0.000000
253.022141 -19.348951 -0.000028 0.234606
240.328964 -29.606365 -0.000017 0.220783
234.879349 -34.010216 -0.000012 0.230561
231.844208 -36.462925 -0.000010 0.236150
229.906540 -38.028763 -0.000008 0.213172
228.559784 -39.117077 -0.000007 0.280072
227.567566 -39.918900 -0.000006 0.226839
nan nan nan 0.000000
nan nan nan 0.000000
nan nan nan 0.000000
nan nan nan 0.000000
nan nan nan 0.000000
nan nan nan 0.000000
251.299072 -21.084978 3.880630 0.822705
251.299057 -21.084984 2.626429 0.546700
251.299057 -21.084984 1.373571 0.550774
251.299057 -21.084982 0.119370 0.545846
240.435532 -29.739182 -0.000017 0.217348
234.955307 -34.104885 -0.000012 0.237287
231.903122 -36.536343 -0.000010 0.212059
229.954559 -38.088612 -0.000008 0.269959
228.600250 -39.167503 -0.000007 0.182821
227.602448 -39.962376 -0.000006 0.225869
nan nan nan 0.000000
nan nan nan 0.000000
nan nan nan 0.000000
251.299149 -21.424719 7.647212 0.544244
251.299576 -21.424391 6.379710 0.559533
251.299042 -21.424805 5.121583 0.589990
251.299057 -21.424791 3.870273 0.573587
251.299057 -21.424791 2.622980 0.558160
251.299072 -21.424789 1.377020 0.549752
251.299057 -21.424789 0.129726 0.547173
240.541168 -29.872742 -0.000017 0.234474
235.030594 -34.200081 -0.000012 0.235480
231.961517 -36.610168 -0.000010 0.251146
230.002167 -38.148800 -0.000008 0.257955
228.640350 -39.218204 -0.000007 0.185586
227.637024 -40.006096 -0.000006 0.192958
nan nan nan 0.000000
nan nan nan 0.000000
nan nan nan 0.000000
251.298676 -21.761190 7.616467 0.559167
251.299683 -21.760401 6.355952 0.565316
251.299271 -21.760727 5.104663 0.584375
251.299072 -21.760885 3.860122 0.526268
251.299072 -21.760878 2.619597 0.569238
251.299072 -21.760878 1.380402 0.531060
251.299072 -21.760881 0.139878 0.523537
240.645874 -30.007034 -0.000018 0.219646
235.105225 -34.295792 -0.000013 0.230692
232.019379 -36.684402 -0.000010 0.233960
230.049347 -38.209316 -0.000009 0.205620
228.680099 -39.269188 -0.000007 0.242445
227.671295 -40.050053 -0.000007 0.249997
nan nan nan 0.000000
nan nan nan 0.000000
nan nan nan 0.000000
251.298248 -22.093988 7.586337 0.562448
251.299835 -22.092785 6.332666 0.570001
251.298843 -22.093536 5.088007 0.585595
251.299072 -22.093369 3.850168 0.550210
251.299072 -22.093367 2.616283 0.561898
251.299072 -22.093367 1.383718 0.567071
251.299072 -22.093369 0.149831 0.550820
240.749634 -30.142059 -0.000017 0.229244
235.179169 -34.392036 -0.000012 0.235336
232.076736 -36.759037 -0.000010 0.249685
230.096100 -38.270161 -0.000008 0.248525
228.719498 -39.320450 -0.000007 0.220568
227.705261 -40.094254 -0.000007 0.242960
nan nan nan 0.000000
nan nan nan 0.000000
252.263901 -21.696810 9.036173 0.414664
251.297913 -22.423201 7.556811 0.564172
251.298447 -22.422794 6.309616 0.570932
251.299088 -22.422316 5.071746 0.551186
251.299072 -22.422333 3.840411 0.522759
251.299072 -22.422331 2.613033 0.546899
251.299072 -22.422331 1.386968 0.550042
251.299072 -22.422333 0.159589 0.536965
240.852448 -30.277802 -0.000017 0.220783
235.252457 -34.488785 -0.000012 0.237981
232.133575 -36.834068 -0.000010 0.206493
230.142441 -38.331333 -0.000008 0.193688
228.758530 -39.371983 -0.000007 0.229185
227.738922 -40.138687 -0.000007 0.250643
nan nan nan 0.000000
nan nan nan 0.000000
252.057617 -22.185698 8.952881 0.390494
251.300079 -22.747101 7.528328 0.533059
251.298660 -22.748156 6.287244 0.557076
251.299332 -22.747665 5.055803 0.525185
251.299072 -22.747856 3.830844 0.528557
251.299072 -22.747854 2.609845 0.544335
251.299072 -22.747854 1.390154 0.546029
251.299072 -22.747858 0.169155 0.578851
240.954315 -30.414255 -0.000018 0.228048
235.325073 -34.586044 -0.000013 0.237287
232.189880 -36.909500 -0.000010 0.225211
230.188339 -38.392822 -0.000009 0.193963
228.797195 -39.423790 -0.000007 0.203873
227.772263 -40.183353 -0.000007 0.250691
nan nan nan 0.000000
nan nan nan 0.000000
251.838867 -22.675800 8.867973 0.400931
251.299835 -23.069475 7.499959 0.568566
251.298889 -23.070164 6.265314 0.574548
251.298950 -23.070120 5.040110 0.527565
251.299072 -23.070032 3.821465 0.554391
251.299072 -23.070038 2.606721 0.520623
251.299072 -23.070038 1.393279 0.551293
251.299072 -23.070032 0.178535 0.568689
241.055237 -30.551420 -0.000018 0.228131
235.396988 -34.683807 -0.000013 0.213722
232.245667 -36.985321 -0.000010 0.234738
230.233826 -38.454636 -0.000009 0.232476
228.835510 -39.475864 -0.000007 0.230369
227.805298 -40.228256 -0.000007 0.174934
nan nan nan 0.000000
nan nan nan 0.000000
251.646347 -23.139004 8.790140 0.298817
251.299652 -23.388519 7.472158 0.546334
251.299133 -23.388887 6.243814 0.584588
251.299194 -23.388847 5.024786 0.587640
251.299072 -23.388937 3.812268 0.559701
251.299072 -23.388933 2.603658 0.536812
251.299072 -23.388933 1.396342 0.567956
251.299072 -23.388935 0.187731 0.594522
241.155182 -30.689285 -0.000018 0.221621
235.468231 -34.782070 -0.000013 0.228969
232.300919 -37.061527 -0.000010 0.255681
230.278854 -38.516758 -0.000009 0.257824
228.873459 -39.528202 -0.000008 0.267817
227.838013 -40.273384 -0.000007 0.186435
nan nan nan 0.000000
nan nan nan 0.000000
251.460892 -23.589903 8.714990 0.446937
251.299515 -23.704342 7.444910 0.570657
251.299408 -23.704418 6.222740 0.574762
251.298859 -23.704811 5.009703 0.568109
251.299072 -23.704655 3.803253 0.551965
251.299072 -23.704653 2.600655 0.534752
251.299072 -23.704653 1.399345 0.570428
251.299072 -23.704655 0.196747 0.566964
241.254166 -30.827850 -0.000018 0.238902
235.538788 -34.880829 -0.000013 0.256711
232.355637 -37.138119 -0.000010 0.256723
230.323471 -38.579201 -0.000009 0.236652
228.911041 -39.580803 -0.000008 0.245437
227.870422 -40.318741 -0.000006 0.269432
nan nan nan 0.000000
nan nan nan 0.000000
251.412994 -23.937660 8.671440 0.365393
251.299408 -24.017017 7.418201 0.576867
251.299698 -24.016827 6.202079 0.560357
251.299103 -24.017239 4.994973 0.567864
251.299072 -24.017262 3.794413 0.552850
251.299072 -24.017262 2.597710 0.552148
251.299072 -24.017262 1.402290 0.566674
251.299072 -24.017262 0.205587 0.562478
241.352203 -30.967093 -0.000018 0.228730
235.608658 -34.980076 -0.000013 0.219622
232.409821 -37.215088 -0.000010 0.213243
230.367630 -38.641949 -0.000009 0.282609
228.948242 -39.633671 -0.000007 0.219359
227.902512 -40.364323 -0.000007 0.258135
nan nan nan 0.000000
nan nan nan 0.000000
251.403717 -24.254795 8.637169 0.301808
251.299393 -24.326614 7.392025 0.554360
251.298553 -24.327190 6.181623 0.546075
251.299347 -24.326641 4.980532 0.555520
251.299072 -24.326834 3.785746 0.574334
251.299072 -24.326830 2.594823 0.557473
251.299072 -24.326832 1.405176 0.575341
251.299072 -24.326832 0.214253 0.562615
241.449234 -31.107025 -0.000018 0.227892
235.677826 -35.079811 -0.000013 0.233720
232.463455 -37.292439 -0.000010 0.217324
230.411362 -38.705006 -0.000009 0.223895
228.985092 -39.686794 -0.000008 0.256687
227.934280 -40.410130 -0.000007 0.245341
nan nan nan 0.000000
nan nan nan 0.000000
251.395309 -24.568184 8.603737 0.317235
251.299393 -24.633228 7.366368 0.560586
251.298889 -24.633574 6.161771 0.579431
251.299042 -24.633465 4.966320 0.567956
251.299072 -24.633442 3.777249 0.549035
251.299072 -24.633442 2.591993 0.551980
251.299072 -24.633442 1.408007 0.539910
251.299072 -24.633442 0.222751 0.548470
241.545303 -31.247627 -0.000018 0.227629
235.746292 -35.180027 -0.000013 0.230381
232.516556 -37.370159 -0.000010 0.230645
230.454651 -38.768364 -0.000009 0.197924
229.021561 -39.740173 -0.000008 0.247699
227.965714 -40.456154 -0.000007 0.233206
nan nan nan 0.000000
nan nan nan 0.000000
251.387619 -24.878016 8.571098 0.297520
251.299454 -24.936913 7.341223 0.546578
251.299225 -24.937057 6.142311 0.530694
251.299286 -24.937016 4.952438 0.561669
251.299072 -24.937160 3.768917 0.528878
251.299072 -24.937160 2.589218 0.553491
251.299072 -24.937160 1.410782 0.570123
251.299072 -24.937159 0.231082 0.572519
241.640381 -31.388897 -0.000018 0.237873
235.814056 -35.280716 -0.000013 0.217253
232.569122 -37.448250 -0.000010 0.197601
230.497513 -38.832027 -0.000009 0.224900
229.057663 -39.793804 -0.000008 0.223344
227.996841 -40.502396 -0.000007 0.187764
nan nan nan 0.000000
nan nan nan 0.000000
251.382843 -25.182951 8.539717 0.443076
251.299545 -25.237755 7.316578 0.537179
251.299591 -25.237728 6.123233 0.589303
251.299011 -25.238108 4.938778 0.553964
251.299072 -25.238064 3.760750 0.538628
251.299072 -25.238066 2.586497 0.543587
251.299072 -25.238066 1.413502 0.565835
251.299072 -25.238064 0.239250 0.583703
241.734467 -31.530828 -0.000018 0.232332
235.881119 -35.381878 -0.000013 0.258625
232.621124 -37.526703 -0.000011 0.193760
230.539902 -38.895985 -0.000009 0.241595
229.093384 -39.847687 -0.000008 0.251624
228.027649 -40.548859 -0.000007 0.237119
nan nan nan 0.000000
nan nan nan 0.000000
251.375626 -25.486609 8.508410 0.394720
251.299683 -25.535822 7.292420 0.596597
251.298569 -25.536543 6.104341 0.599786
251.299255 -25.536095 4.925438 0.549355
251.299072 -25.536215 3.752742 0.573663
251.299072 -25.536217 2.583830 0.563241
251.299072 -25.536217 1.416170 0.570871
251.299072 -25.536215 0.247258 0.524941
241.827576 -31.673409 -0.000019 0.236892
235.947479 -35.483505 -0.000013 0.232703
232.672592 -37.605515 -0.000011 0.218808
230.581863 -38.960236 -0.000009 0.227748
229.128723 -39.901817 -0.000008 0.260074
228.058121 -40.595531 -0.000007 0.280575
nan nan nan 0.000000
nan nan nan 0.000000
251.367798 -25.787825 8.477568 0.376516
251.299866 -25.831175 7.268748 0.521508
251.298981 -25.831739 6.086012 0.519890
251.298996 -25.831728 4.912308 0.549371
251.299072 -25.831676 3.744891 0.524742
251.299072 -25.831678 2.581215 0.571847
251.299072 -25.831678 1.418785 0.552346
251.299072 -25.831676 0.255108 0.575189
241.919678 -31.816643 -0.000019 0.240231
236.013123 -35.585590 -0.000014 0.236844
232.723495 -37.684689 -0.000011 0.205823
230.623367 -39.024780 -0.000009 0.190828
229.163681 -39.956196 -0.000008 0.239537
228.088272 -40.642418 -0.000007 0.234881
nan nan nan 0.000000
nan nan nan 0.000000
251.360504 -26.085920 8.447431 0.430854
251.300079 -26.123892 7.245546 0.567147
251.299377 -26.124329 6.068046 0.585016
251.299255 -26.124413 4.899487 0.533623
251.299072 -26.124523 3.737194 0.545144
251.299072 -26.124523 2.578652 0.567071
251.299072 -26.124523 1.421348 0.560265
251.299072 -26.124523 0.262805 0.561746
242.010773 -31.960508 -0.000019 0.222877
236.078049 -35.688133 -0.000014 0.214572
232.773849 -37.764217 -0.000011 0.225630
230.664413 -39.089615 -0.000009 0.246454
229.198273 -40.010815 -0.000008 0.228562
228.118088 -40.689510 -0.000007 0.265675
nan nan nan 0.000000
nan nan nan 0.000000
251.353638 -26.381050 8.417959 0.415412
251.298096 -26.415419 7.222417 0.591257
251.298447 -26.415197 6.050251 0.579034
251.299011 -26.414852 4.886870 0.591180
251.299072 -26.414806 3.729650 0.582498
251.299072 -26.414806 2.576139 0.563302
251.299072 -26.414806 1.423862 0.525582
251.299072 -26.414806 0.270349 0.559411
242.100876 -32.105011 -0.000019 0.235061
236.142273 -35.791130 -0.000014 0.235707
232.823654 -37.844093 -0.000011 0.204363
230.705002 -39.154732 -0.000009 0.232416
229.232483 -40.065674 -0.000008 0.236880
228.147583 -40.736813 -0.000007 0.204878
nan nan nan 0.000000
nan nan nan 0.000000
251.347137 -26.673330 8.389128 0.181094
251.298401 -26.703011 7.200140 0.556191
251.298904 -26.702705 6.032993 0.556130
251.299255 -26.702486 4.874552 0.582055
251.299072 -26.702600 3.722254 0.595071
251.299072 -26.702599 2.573675 0.579477
251.299072 -26.702599 1.426326 0.544472
251.299072 -26.702600 0.277746 0.546838
242.189941 -32.250141 -0.000019 0.235970
236.205765 -35.894569 -0.000014 0.208109
232.872894 -37.924316 -0.000011 0.205213
230.745148 -39.220131 -0.000009 0.212166
229.266296 -40.120770 -0.000008 0.213578
228.176743 -40.784321 -0.000007 0.209701
nan nan nan 0.000000
nan nan nan 0.000000
251.340881 -26.962891 8.360908 0.331579
251.298737 -26.988155 7.178309 0.531212
251.299362 -26.987782 6.016078 0.576471
251.299026 -26.987976 4.862429 0.557076
251.299072 -26.987951 3.715003 0.586923
251.299072 -26.987953 2.571259 0.553841
251.299072 -26.987953 1.428741 0.539651
251.299072 -26.987953 0.284995 0.542489
242.278015 -32.395889 -0.000019 0.229603
236.268524 -35.998451 -0.000014 0.221752
232.921570 -38.004879 -0.000011 0.227605
230.784836 -39.285812 -0.000009 0.216594
229.299728 -40.176102 -0.000008 0.238376
228.205566 -40.832031 -0.000007 0.212465
nan nan nan 0.000000
nan nan nan 0.000000
251.334808 -27.249838 8.333269 0.353948
251.299103 -27.270905 7.156917 0.549172
251.298492 -27.271263 5.999323 0.507027
251.299301 -27.270794 4.850594 0.550591
251.299072 -27.270922 3.707898 0.555230
251.299072 -27.270927 2.568892 0.550271
251.299072 -27.270927 1.431107 0.548913
251.299072 -27.270926 0.292102 0.554162
242.365067 -32.542244 -0.000019 0.229819
236.330566 -36.102768 -0.000014 0.240267
232.969696 -38.085781 -0.000011 0.244815
230.824066 -39.351761 -0.000010 0.214584
229.332779 -40.231667 -0.000008 0.223787
228.234055 -40.879936 -0.000007 0.213937
nan nan nan 0.000000
251.764084 -27.281567 9.594051 0.418784
251.328873 -27.534273 8.306190 0.367773
251.299500 -27.551327 7.135954 0.580606
251.298996 -27.551626 5.983078 0.555169
251.299072 -27.551580 4.838947 0.536507
251.299088 -27.551575 3.700933 0.563424
251.299088 -27.551573 2.566573 0.579110
251.299088 -27.551573 1.433427 0.552178
251.299072 -27.551577 0.299066 0.570520
242.451096 -32.689209 -0.000019 0.239058
236.391876 -36.207512 -0.000014 0.223608
233.017242 -38.167015 -0.000011 0.226815
230.862823 -39.417988 -0.000009 0.201575
229.365433 -40.287460 -0.000008 0.203214
228.262222 -40.928047 -0.000007 0.228072
nan nan nan 0.000000
251.602783 -27.656441 9.523451 0.450401
251.322998 -27.816301 8.279652 0.416480
251.299942 -27.829472 7.115417 0.555947
251.299484 -27.829727 5.967159 0.557931
251.298874 -27.830082 4.827536 0.569818
251.299088 -27.829958 3.694108 0.538476
251.299072 -27.829962 2.564300 0.561303
251.299072 -27.829962 1.435701 0.556893
251.299088 -27.829958 0.305892 0.588922
242.536072 -32.836765 -0.000019 0.231961
236.452469 -36.312683 -0.000015 0.229771
233.064224 -38.248581 -0.000011 0.224326
230.901123 -39.484482 -0.000010 0.244120
229.397705 -40.343479 -0.000008 0.271790
228.290039 -40.976345 -0.000008 0.213255
nan nan nan 0.000000
251.592087 -27.941429 9.491091 0.338140
251.582352 -27.946901 8.308990 0.547417
251.582367 -27.946894 7.143276 0.542947
251.582367 -27.946896 5.988825 0.540215
251.582367 -27.946890 4.843036 0.517647
251.350296 -28.077349 3.690304 0.693828
251.351578 -28.076622 2.563056 0.682658
251.404434 -28.046911 1.435951 0.821134
251.404434 -28.046909 0.306644 0.820798
242.620041 -32.984913 -0.000019 0.222686
236.512314 -36.418282 -0.000014 0.232895
233.110641 -38.330475 -0.000011 0.272604
230.938965 -39.551243 -0.000010 0.239034
229.429581 -40.399723 -0.000008 0.221214
228.317520 -41.024841 -0.000008 0.220472
nan nan nan 0.000000
252.082611 -27.946869 9.583054 0.551644
252.082565 -27.946896 8.388487 0.532311
252.082611 -27.946875 7.208089 0.545296
252.082596 -27.946875 6.039090 0.565194
252.082596 -27.946878 4.878861 0.562646
251.666992 -28.176695 3.701516 0.717952
251.845078 -28.078218 2.570097 0.710887
251.845078 -28.078220 1.429903 0.692546
251.845078 -28.078218 0.288486 0.717357
242.702972 -33.133644 -0.000020 0.220304
236.571411 -36.524284 -0.000014 0.221776
233.156479 -38.412685 -0.000011 0.206721
230.976334 -39.618263 -0.000009 0.214213
229.461060 -40.456184 -0.000008 0.233900
228.344666 -41.073528 -0.000007 0.240135
252.891449 -27.785967 10.991645 0.346288
252.595612 -27.946873 9.680202 0.532570
252.595581 -27.946894 8.470334 0.555184
252.477982 -28.010849 7.254950 0.700343
252.477982 -28.010851 6.075432 0.692607
252.477997 -28.010847 4.904766 0.696086
252.173767 -28.176310 3.723354 0.750057
252.383942 -28.062002 2.577956 0.684550
252.383896 -28.062027 1.422045 0.678431
252.383896 -28.062029 0.264895 0.678431
242.784851 -33.282951 -0.000020 0.224732
236.629776 -36.630703 -0.000014 0.224505
233.201736 -38.495216 -0.000011 0.227318
231.013229 -39.685547 -0.000010 0.233313
229.492142 -40.512871 -0.000008 0.237418
228.371475 -41.122402 -0.000008 0.252941
253.121933 -27.946888 11.023319 0.565728
253.121964 -27.946869 9.780256 0.598199
253.121918 -27.946890 8.554626 0.566751
252.934921 -28.046911 7.312067 0.706920
253.011047 -28.006201 6.129659 0.701579
253.011032 -28.006207 4.943415 0.661448
252.622559 -28.213993 3.741880 0.822934
252.906723 -28.062000 2.585486 0.678431
252.906677 -28.062019 1.414515 0.678431
252.906677 -28.062021 0.242290 0.692760
242.865692 -33.432823 -0.000020 0.225391
236.687393 -36.737530 -0.000014 0.241224
233.246429 -38.578064 -0.000011 0.273561
231.049667 -39.753086 -0.000009 0.262108
229.522827 -40.569771 -0.000008 0.225702
228.397934 -41.171463 -0.000007 0.245269
253.532837 -28.014925 11.106262 0.670985
253.532837 -28.014925 9.851764 0.680964
253.662186 -27.946888 8.641474 0.560174
253.662186 -27.946894 7.414320 0.558450
253.564880 -27.998066 6.186385 0.695247
253.565262 -27.997866 4.983882 0.685420
253.142075 -28.220438 3.764279 0.824659
253.443329 -28.061996 2.593243 0.678431
253.443298 -28.062012 1.406757 0.678431
253.443298 -28.062012 0.219001 0.705165
242.945496 -33.583260 -0.000020 0.222973
236.744263 -36.844749 -0.000014 0.250798
233.290527 -38.661221 -0.000011 0.208205
231.085617 -39.820877 -0.000010 0.237598
229.553131 -40.626881 -0.000008 0.278169
228.424057 -41.220707 -0.000007 0.263161
254.117111 -27.998531 11.237930 0.712673
253.986664 -28.065977 9.933576 0.723186
253.986664 -28.065977 8.683802 0.738766
254.216965 -27.946905 7.487288 0.557076
254.400162 -27.852177 6.279347 0.678431
254.119034 -27.997538 5.024155 0.692119
254.019974 -28.048758 3.806421 0.822385
253.994354 -28.062002 2.601237 0.678431
253.994339 -28.062012 1.398762 0.678431
253.994339 -28.062014 0.194997 0.701228
243.024231 -33.734245 -0.000020 0.219359
236.800385 -36.952370 -0.000014 0.224792
233.334061 -38.744682 -0.000011 0.214117
231.121109 -39.888916 -0.000010 0.235898
229.583023 -40.684200 -0.000008 0.188422
228.449829 -41.270134 -0.000007 0.183240
254.787018 -27.946873 11.393158 0.563104
254.716904 -27.982506 10.082151 0.737011
254.719742 -27.981060 8.809551 0.701747
254.786957 -27.946899 7.562529 0.559625
254.688873 -27.996758 6.301314 0.693538
254.688873 -27.996750 5.065764 0.694057
254.592255 -28.045862 3.831504 0.826688
254.504364 -28.090525 2.608452 0.687602
254.577423 -28.053392 1.390207 0.135912
254.577362 -28.053423 0.169316 0.146883
243.101913 -33.885784 -0.000020 0.224804
236.855759 -37.060375 -0.000015 0.217241
233.376999 -38.828445 -0.000011 0.226133
231.156113 -39.957203 -0.000010 0.206326
229.612518 -40.741734 -0.000008 0.215685
228.475266 -41.319736 -0.000007 0.212106
255.372833 -27.946888 11.524204 0.562066
239.946213 -35.652386 6.487780 0.223529
255.213654 -28.026405 8.886097 0.690684
255.182419 -28.042006 7.608568 0.685283
255.182419 -28.042006 6.349678 0.687694
255.372803 -27.946909 5.117684 0.555123
255.172272 -28.047071 3.856924 0.826856
255.142365 -28.062014 2.617986 0.678431
255.249252 -28.008621 1.380060 0.678431
255.159515 -28.053442 0.143776 0.169772
243.178543 -34.037857 -0.000020 0.227126
236.910385 -37.168762 -0.000015 0.216558
233.419357 -38.912502 -0.000012 0.239082
231.190643 -40.025734 -0.000010 0.230896
229.641602 -40.799465 -0.000008 0.201934
228.500336 -41.369514 -0.000008 0.189822
255.975403 -27.946842 11.659473 0.547127
240.031219 -35.772255 6.492745 0.223529
240.022202 -35.776680 5.783177 0.223529
240.267471 -35.656303 5.124686 0.223529
256.168365 -27.852142 6.461017 0.678431
256.006592 -27.931534 5.164816 0.678355
255.770813 -28.047262 3.883271 0.823758
255.740768 -28.062000 2.626761 0.678431
255.800232 -28.032820 1.372155 0.204883
255.758255 -28.053425 0.117416 0.147570
243.254105 -34.190464 -0.000020 0.238675
236.964233 -37.277531 -0.000015 0.228490
233.461121 -38.996861 -0.000012 0.209701
231.224686 -40.094498 -0.000010 0.234295
229.670288 -40.857399 -0.000009 0.209844
228.525070 -41.419472 -0.000007 0.239788
256.595154 -27.946894 11.799067 0.545922
240.145004 -35.878616 6.504796 0.223529
240.107346 -35.896770 5.787550 0.223529
240.098389 -35.901089 5.086246 0.223529
240.240082 -35.832767 4.411610 0.223529
256.627045 -27.931519 5.210566 0.678431
256.280792 -28.098475 3.904699 0.821164
256.297180 -28.090569 2.634744 0.692241
256.297180 -28.090569 1.365255 0.729137
256.387787 -28.046885 0.089464 0.820157
243.328598 -34.343590 -0.000020 0.226109
237.017334 -37.386673 -0.000015 0.222818
233.502304 -39.081505 -0.000011 0.240925
231.258255 -40.163506 -0.000010 0.189667
229.698563 -40.915535 -0.000008 0.244204
228.549469 -41.469597 -0.000007 0.221022
240.211151 -36.008404 7.225473 0.223529
240.230560 -35.999210 6.510239 0.223529
240.221344 -36.003574 5.797887 0.223529
240.183685 -36.021408 5.089969 0.223529
240.174774 -36.025627 4.395266 0.223529
240.208435 -36.009686 3.710280 0.223529
256.905090 -28.102308 3.932290 0.829465
256.990082 -28.062061 2.645175 0.678431
256.990112 -28.062042 1.354823 0.678431
257.022095 -28.046886 0.061348 0.827848
243.402023 -34.497234 -0.000020 0.227150
237.069656 -37.496185 -0.000014 0.206493
233.542877 -39.166431 -0.000012 0.249602
231.291351 -40.232742 -0.000010 0.213495
229.726440 -40.973866 -0.000008 0.245832
228.573502 -41.519890 -0.000007 0.265363
240.296829 -36.129173 7.232048 0.223529
240.316330 -36.120102 6.515915 0.223529
240.307068 -36.124413 5.802665 0.223529
257.890381 -27.946905 7.976558 0.555184
240.260239 -36.146191 4.398272 0.223529
240.251358 -36.150322 3.708565 0.223529
240.242523 -36.154430 3.023195 0.223529
257.642792 -28.062061 2.654845 0.678431
257.642792 -28.062050 1.345155 0.678431
257.675385 -28.046892 0.032294 0.826963
243.474365 -34.651390 -0.000020 0.230453
237.121231 -37.606056 -0.000015 0.233170
233.582886 -39.251640 -0.000012 0.261893
231.323944 -40.302208 -0.000010 0.226025
229.753906 -41.032387 -0.000009 0.230800
228.597183 -41.570351 -0.000007 0.214261
240.382767 -36.250237 7.238907 0.223529
240.402328 -36.241306 6.521827 0.223529
240.413696 -36.236115 5.811779 0.223529
258.567566 -27.946913 8.067786 0.546044
258.500610 -27.977486 6.697354 0.806775
240.336975 -36.271149 3.710795 0.223529
240.328094 -36.275200 3.024530 0.223529
240.319260 -36.279236 2.341107 0.223529
258.315399 -28.062056 1.335158 0.678431
258.348602 -28.046896 0.002258 0.776242
243.545639 -34.806046 -0.000020 0.245102
237.172028 -37.716290 -0.000015 0.239321
233.622269 -39.337132 -0.000012 0.219024
231.356064 -40.371899 -0.000010 0.260851
229.780975 -41.091103 -0.000009 0.232966
228.620514 -41.620975 -0.000007 0.221681
nan nan nan 0.000000
240.488556 -36.362831 6.527977 0.223529
240.684052 -36.275211 5.853666 0.223529
245.276260 -34.216988 5.888103 0.223529
259.265747 -27.946930 6.779001 0.568536
259.265747 -27.946932 5.406234 0.557809
259.040955 -28.047697 4.028715 0.827176
240.404999 -36.400280 2.341569 0.223529
240.396133 -36.404255 1.658590 0.223529
240.688477 -36.273224 0.959299 0.223529
243.615829 -34.961193 -0.000021 0.223225
237.222046 -37.826870 -0.000015 0.242577
233.661072 -39.422894 -0.000012 0.212370
231.387695 -40.441814 -0.000010 0.246969
229.807617 -41.150002 -0.000009 0.225295
228.643478 -41.671764 -0.000008 0.178166
nan nan nan 0.000000
240.575012 -36.484692 6.534364 0.223529
245.198669 -34.451031 6.739150 0.223529
245.251129 -34.427948 5.871998 0.223529
245.335785 -34.390717 5.013532 0.223529
nan nan nan 0.000000
nan nan nan 0.000000
nan nan nan 0.000000
240.482056 -36.525581 1.658111 0.223529
240.473129 -36.529503 0.974078 0.223529
240.651001 -36.451271 0.271747 0.223529
237.271301 -37.937798 -0.000015 0.231722
233.699265 -39.508923 -0.000012 0.238651
231.418839 -40.511948 -0.000010 0.226336
229.833847 -41.209087 -0.000009 0.240662
228.666107 -41.722710 -0.000008 0.279485
243.038284 -35.581341 7.914877 0.223529
240.657852 -36.608578 6.540078 0.957687
245.174118 -34.659660 6.719893 0.223529
245.475098 -34.529774 5.896422 0.223529
245.310410 -34.600845 5.001202 0.223529
245.394577 -34.564526 4.146625 0.223529
nan nan nan 0.000000
nan nan nan 0.000000
240.599808 -36.633625 1.657050 0.223529
240.559250 -36.651131 0.972586 0.223529
240.550247 -36.655014 0.285994 0.223529
237.319778 -38.049068 -0.000015 0.246885
233.736862 -39.595219 -0.000012 0.230728
231.449478 -40.582298 -0.000010 0.248118
229.859665 -41.268356 -0.000009 0.203166
228.688370 -41.773811 -0.000008 0.235575
243.360458 -35.623985 7.984886 0.223529
240.669083 -36.763184 6.529185 0.980392
245.149765 -34.866615 6.701019 0.223529
nan nan nan 0.000000
245.587296 -34.681419 5.026850 0.223529
245.368958 -34.773834 4.137948 0.223529
245.452820 -34.738335 3.285408 0.223529
nan nan nan 0.000000
240.686417 -36.755848 1.656533 0.223529
240.677368 -36.759674 0.969345 0.223529
240.636566 -36.776947 0.283415 0.223529
237.367477 -38.160675 -0.000015 0.235635
233.773865 -39.681770 -0.000012 0.236413
231.479645 -40.652859 -0.000010 0.222171
229.885071 -41.327801 -0.000009 0.225439
228.710281 -41.825066 -0.000008 0.265351
nan nan nan 0.000000
240.835983 -36.852421 6.554978 0.223529
245.125565 -35.071945 6.682516 0.223529
nan nan nan 0.000000
nan nan nan 0.000000
nan nan nan 0.000000
245.454346 -34.935482 3.281733 0.223529
245.510757 -34.912067 2.427938 0.223529
240.773285 -36.878441 1.655998 0.223529
258.958618 -29.330278 -0.000034 0.232356
243.885712 -35.586571 -0.000021 0.232488
237.414398 -38.272610 -0.000015 0.212753
233.810242 -39.768581 -0.000012 0.214679
231.509308 -40.723633 -0.000010 0.223763
229.910065 -41.387424 -0.000009 0.239597
228.731827 -41.876476 -0.000008 0.215589
nan nan nan 0.000000
240.923508 -36.975758 6.562339 0.223529
245.101547 -35.275681 6.664380 0.223529
nan nan nan 0.000000
nan nan nan 0.000000
nan nan nan 0.000000
nan nan nan 0.000000
245.569794 -35.085152 2.427755 0.223529
240.860428 -37.001427 1.655444 0.223529
259.066650 -29.593163 -0.000034 0.232775
243.950439 -35.744080 -0.000021 0.217695
237.460541 -38.384872 -0.000015 0.230561
233.846024 -39.855644 -0.000012 0.235839
231.538483 -40.794605 -0.000010 0.245413
229.934647 -41.447220 -0.000009 0.229998
228.753021 -41.928032 -0.000008 0.251385
nan nan nan 0.000000
241.011337 -37.099499 6.569947 0.223529
245.077682 -35.477867 6.646606 0.223529
nan nan nan 0.000000
nan nan nan 0.000000
nan nan nan 0.000000
nan nan nan 0.000000
nan nan nan 0.000000
240.947861 -37.124813 1.654871 0.223529
245.626343 -35.259064 0.716432 0.223529
244.014069 -35.902031 -0.000021 0.226827
237.505890 -38.497452 -0.000015 0.213985
233.881195 -39.942955 -0.000012 0.244144
231.567154 -40.865784 -0.000010 0.260421
229.958801 -41.507183 -0.000009 0.216666
228.773834 -41.979740 -0.000007 0.227150
237.308899 -38.704727 6.289822 0.223529
237.447418 -38.650604 5.730968 0.223529
245.053986 -35.678535 6.629188 0.223529
nan nan nan 0.000000
nan nan nan 0.000000
nan nan nan 0.000000
nan nan nan 0.000000
274.056610 -24.346491 2.925856 0.488060
241.035599 -37.248615 1.654279 0.223529
245.802353 -35.386124 0.710681 0.223529
244.076599 -36.060421 -0.000021 0.228634
237.550461 -38.610344 -0.000015 0.251923
233.915771 -40.030510 -0.000012 0.218928
231.595322 -40.937160 -0.000010 0.221238
229.982544 -41.567314 -0.000009 0.207116
228.794312 -42.031586 -0.000007 0.238938
237.239014 -38.859489 6.259511 0.223529
237.375946 -38.807087 5.704379 0.223529
237.513290 -38.754524 5.147588 0.223529
nan nan nan 0.000000
nan nan nan 0.000000
nan nan nan 0.000000
274.229858 -24.703125 4.781170 0.483467
273.192993 -25.099920 2.908227 0.499580
241.123627 -37.372849 1.653669 0.223529
259.379761 -30.386246 -0.000035 0.231375
244.138016 -36.219246 -0.000021 0.232835
237.594238 -38.723545 -0.000015 0.207870
233.949707 -40.118301 -0.000012 0.244324
231.623001 -41.008732 -0.000010 0.204220
230.005859 -41.627613 -0.000009 0.227174
228.814423 -42.083576 -0.000008 0.211508
237.334763 -38.950386 6.273880 0.223529
237.323639 -38.954556 5.682536 0.223529
237.441208 -38.910500 5.125270 0.223529
237.577652 -38.859371 4.569427 0.223529
nan nan nan 0.000000
nan nan nan 0.000000
243.998428 -36.453400 3.187809 0.223529
243.999588 -36.452965 2.395674 0.223529
241.211975 -37.497532 1.653040 0.223529
259.480408 -30.652042 -0.000035 0.232452
244.198318 -36.378498 -0.000021 0.225044
237.637222 -38.837051 -0.000015 0.222961
233.983047 -40.206329 -0.000012 0.230824
231.650177 -41.080494 -0.000010 0.227724
230.028748 -41.688072 -0.000009 0.201539
228.834152 -42.135704 -0.000008 0.229615
237.482635 -39.023026 6.302285 0.223529
237.471329 -39.027172 5.706993 0.223529
237.460205 -39.031254 5.120874 0.223529
237.504990 -39.014828 4.551303 0.223529
237.640839 -38.965000 3.995289 0.223529
237.777939 -38.914715 3.434117 0.223529
244.090469 -36.599434 3.189555 0.223529
244.091629 -36.599010 2.396255 0.223529
241.300659 -37.622669 1.652391 0.223529
259.579224 -30.918533 -0.000035 0.228790
244.257523 -36.538166 -0.000021 0.232296
237.679413 -38.950855 -0.000015 0.218593
234.015778 -40.294586 -0.000012 0.244120
231.676849 -41.152447 -0.000010 0.211951
230.051224 -41.748688 -0.000008 0.219933
228.853531 -42.187973 -0.000008 0.183384
237.729172 -39.061947 6.357011 0.223529
237.667816 -39.083965 5.742702 0.223529
237.609711 -39.104820 5.141881 0.223529
237.598557 -39.108822 4.559595 0.223529
237.587540 -39.112778 3.983726 0.223529
237.703125 -39.071293 3.423971 0.223529
237.840195 -39.022102 2.860315 0.223529
244.582870 -36.602325 2.403794 0.302876
241.389664 -37.748287 1.651723 0.223529
259.676147 -31.185715 -0.000035 0.228191
244.315598 -36.698242 -0.000021 0.227832
237.720810 -39.064949 -0.000015 0.250224
234.047882 -40.383072 -0.000012 0.248955
231.703033 -41.224583 -0.000010 0.271168
230.073273 -41.809460 -0.000009 0.225714
228.872543 -42.240372 -0.000008 0.264131
237.881989 -39.137001 6.386796 0.223529
237.819641 -39.158890 5.768190 0.223529
245.083298 -36.609238 6.575315 0.223529
237.749908 -39.183365 4.577055 0.223529
237.738693 -39.187302 3.997246 0.223529
237.727600 -39.191196 3.422574 0.223529
237.764816 -39.178131 2.854261 0.223529
237.902145 -39.129929 2.286932 0.223529
238.041626 -39.080967 1.710649 0.223529
259.771210 -31.453568 -0.000035 0.228323
244.372559 -36.858719 -0.000021 0.238627
237.761414 -39.179329 -0.000015 0.218318
234.079361 -40.471779 -0.000012 0.220268
231.728699 -41.296898 -0.000010 0.197147
230.094894 -41.870384 -0.000009 0.210371
228.891190 -42.292900 -0.000008 0.262659
238.036942 -39.213085 6.417215 0.223529
237.973572 -39.234837 5.794219 0.223529
249.653214 -35.226479 7.443368 0.223529
nan nan nan 0.000000
nan nan nan 0.000000
237.880661 -39.266724 3.432400 0.223529
237.869446 -39.270569 2.857628 0.223529
237.858307 -39.274391 2.285480 0.223529
237.964096 -39.238087 1.712691 0.223529
238.104446 -39.189919 1.130166 0.223529
244.428391 -37.019592 -0.000021 0.240865
237.801208 -39.293987 -0.000015 0.230597
234.110229 -40.560703 -0.000012 0.205081
231.753860 -41.369392 -0.000010 0.217576
230.116104 -41.931458 -0.000009 0.224625
228.909470 -42.345562 -0.000008 0.229771
238.193573 -39.290405 6.448145 0.223529
238.129700 -39.311825 5.820811 0.223529
249.511169 -35.494400 7.403232 0.223529
249.605042 -35.462917 6.419559 0.223529
249.736496 -35.418823 5.443503 0.223529
nan nan nan 0.000000
238.024475 -39.347118 2.863632 0.223529
238.013123 -39.350925 2.287476 0.223529
238.001831 -39.354717 1.712719 0.223529
238.026367 -39.346481 1.136269 0.223529
238.167908 -39.299015 0.546147 0.223529
237.840210 -39.408928 -0.000015 0.245341
234.140472 -40.649841 -0.000012 0.209497
231.778519 -41.442059 -0.000010 0.210144
230.136871 -41.992680 -0.000008 0.206278
228.927383 -42.398350 -0.000008 0.237909
238.349426 -39.369797 6.478945 0.223529
238.288055 -39.389908 5.847965 0.223529
249.334290 -35.770515 7.356871 0.223529
249.787491 -35.622021 6.437820 0.223529
249.628098 -35.674248 5.422419 0.223529
249.685669 -35.655380 4.444297 0.223529
247.499008 -36.371857 3.351438 0.223529
243.522888 -37.674667 2.381689 0.307271
238.158661 -39.432304 1.710683 0.223529
238.147156 -39.436069 1.132022 0.223529
238.135651 -39.439838 0.552291 0.223529
237.878403 -39.524132 -0.000015 0.233768
234.170090 -40.739189 -0.000012 0.260181
231.802658 -41.514896 -0.000010 0.216594
230.157211 -42.054043 -0.000009 0.207068
228.944916 -42.451260 -0.000008 0.217288
238.471985 -39.461647 6.501063 0.980392
238.448700 -39.469101 5.875704 0.223529
249.160370 -36.041954 7.311550 0.223529
nan nan nan 0.000000
249.850464 -35.821163 5.441548 0.223529
249.691910 -35.871891 4.439315 0.223529
249.634628 -35.890213 3.458542 0.223529
243.220459 -37.942398 2.375631 0.315145
238.435745 -39.473244 1.706575 0.223529
238.368027 -39.494911 1.122590 0.223529
238.294342 -39.518482 0.541898 0.223529
237.915787 -39.639599 -0.000016 0.245233
234.199097 -40.828739 -0.000012 0.220424
231.826309 -41.587898 -0.000010 0.206146
230.177124 -42.115547 -0.000008 0.229855
228.962097 -42.504288 -0.000008 0.216654
238.820541 -39.484226 6.582608 0.976181
238.611725 -39.549431 5.904052 0.223529
248.989334 -36.308861 7.267237 0.223529
nan nan nan 0.000000
nan nan nan 0.000000
nan nan nan 0.000000
249.756592 -36.069271 3.461604 0.223529
242.926102 -38.202202 2.369757 0.308370
238.594772 -39.554729 1.704496 0.223529
238.525940 -39.576221 1.116396 0.223529
244.640472 -37.666859 -0.000021 0.221812
237.952377 -39.755329 -0.000016 0.214344
234.227463 -40.918491 -0.000012 0.242876
231.849426 -41.661068 -0.000010 0.231159
230.196609 -42.177189 -0.000009 0.208612
228.978897 -42.557438 -0.000008 0.198248
238.900131 -39.593498 6.593592 0.968627
238.777176 -39.630951 5.933008 0.223529
248.821075 -36.571377 7.223903 0.223529
nan nan nan 0.000000
nan nan nan 0.000000
nan nan nan 0.000000
nan nan nan 0.000000
242.887924 -38.378735 2.368309 0.294987
238.756088 -39.637379 1.702372 0.223529
238.686111 -39.658691 1.110071 0.223529
244.690674 -37.829582 -0.000021 0.227808
237.988144 -39.871307 -0.000016 0.232703
234.255203 -41.008438 -0.000012 0.222303
231.872040 -41.734398 -0.000010 0.246813
230.215668 -42.238964 -0.000009 0.255310
228.995316 -42.610706 -0.000008 0.210574
238.979172 -39.703579 6.604608 0.968627
238.945160 -39.713676 5.962605 0.223529
248.655533 -36.829628 7.181521 0.223529
nan nan nan 0.000000
nan nan nan 0.000000
nan nan nan 0.000000
nan nan nan 0.000000
242.858475 -38.551395 2.367034 0.287358
238.919754 -39.721226 1.700203 0.223529
238.848602 -39.742359 1.103611 0.223529
244.739731 -37.992649 -0.000021 0.229747
238.023102 -39.987537 -0.000015 0.219048
234.282318 -41.098576 -0.000012 0.206529
231.894150 -41.807880 -0.000010 0.265256
230.234283 -42.300873 -0.000009 0.218784
229.011383 -42.664085 -0.000008 0.256938
239.058136 -39.814323 6.615783 0.963302
239.094376 -39.803833 5.988052 0.223529
248.492599 -37.083744 7.140064 0.223529
