# This PCD file was generated using the MATLABÂ® pcwrite function
# from Computer Vision ToolboxÂ®.
# .PCD v.7 - Point Cloud Data file format
VERSION .7
FIELDS x y z intensity
SIZE 4 4 4 4
TYPE F F F F
COUNT 1 1 1 1
WIDTH 1177
HEIGHT 1
VIEWPOINT 0 0 0 1 0 0 0
POINTS 1177
DATA ascii
nan nan nan 0.000000
nan nan nan 0.000000
235.850281 -140.387909 4.719653 0.445960
235.893326 -141.355103 3.997827 0.402945
235.931763 -142.219070 3.353040 0.419120
235.933212 -142.251526 2.809067 0.568475
235.933212 -142.251526 2.269496 0.504280
235.933212 -142.251526 1.730504 0.575174
235.933212 -142.251526 1.190932 0.637385
235.933212 -142.251526 0.649623 0.875029
235.933212 -142.251526 0.105400 0.614725
236.065948 -145.234497 -0.000019 0.225750
236.176682 -147.723312 -0.000015 0.242505
236.253662 -149.453140 -0.000013 0.216187
236.310364 -150.727600 -0.000011 0.192886
nan nan nan 0.000000
nan nan nan 0.000000
nan nan nan 0.000000
235.978424 -140.389206 4.718680 0.351659
236.014679 -141.356003 3.997151 0.413794
236.047073 -142.219650 3.352605 0.426459
236.048264 -142.251526 2.808836 0.525551
236.048264 -142.251526 2.269419 0.476890
236.048264 -142.251526 1.730581 0.486061
236.048264 -142.251526 1.191164 0.563577
236.048264 -142.251526 0.650010 0.580835
236.048264 -142.251526 0.105943 0.567590
236.159988 -145.230637 -0.000019 0.221908
236.253357 -147.720169 -0.000015 0.211185
236.318253 -149.450500 -0.000012 0.239118
236.366058 -150.725311 -0.000011 0.204890
nan nan nan 0.000000
nan nan nan 0.000000
nan nan nan 0.000000
236.106476 -140.390289 4.717875 0.404211
236.135956 -141.356750 3.996591 0.421912
236.162308 -142.220139 3.352244 0.421759
236.163269 -142.251526 2.808644 0.510155
236.163269 -142.251526 2.269356 0.558679
236.163269 -142.251526 1.730644 0.679072
236.163269 -142.251526 1.191356 0.659983
236.163269 -142.251526 0.650330 0.764569
236.163269 -142.251526 0.106392 0.703304
236.254074 -145.227432 -0.000019 0.210838
236.330048 -147.717560 -0.000015 0.193772
236.382858 -149.448303 -0.000012 0.244120
236.421768 -150.723419 -0.000011 0.202700
nan nan nan 0.000000
nan nan nan 0.000000
nan nan nan 0.000000
236.234436 -140.391144 4.717236 0.366278
236.257172 -141.357346 3.996146 0.311666
236.277481 -142.220520 3.351958 0.398352
236.278214 -142.251526 2.808491 0.471611
236.278214 -142.251526 2.269304 0.470787
236.278214 -142.251526 1.730695 0.469856
236.278214 -142.251526 1.191509 0.553445
236.278214 -142.251526 0.650585 0.565072
236.278214 -142.251526 0.106749 0.583612
236.348160 -145.224884 -0.000019 0.225546
236.406769 -147.715485 -0.000015 0.217959
236.447495 -149.446548 -0.000013 0.194621
236.477493 -150.721909 -0.000011 0.207678
nan nan nan 0.000000
nan nan nan 0.000000
nan nan nan 0.000000
236.362350 -140.391785 4.716762 0.470008
236.378326 -141.357788 3.995816 0.438514
236.392609 -142.220810 3.351746 0.372992
236.393112 -142.251526 2.808378 0.501183
236.393112 -142.251526 2.269267 0.704540
236.393112 -142.251526 1.730733 0.650233
236.393112 -142.251526 1.191622 0.835081
236.393112 -142.251526 0.650773 0.687556
236.393112 -142.251526 0.107014 0.855207
236.442276 -145.223007 -0.000019 0.230776
236.483490 -147.713959 -0.000015 0.201180
236.512131 -149.445251 -0.000013 0.244611
236.533234 -150.720795 -0.000011 0.237239
nan nan nan 0.000000
nan nan nan 0.000000
nan nan nan 0.000000
236.490219 -140.392197 4.716453 0.341268
236.499451 -141.358078 3.995601 0.317968
236.507706 -142.220993 3.351607 0.414923
236.507996 -142.251526 2.808304 0.491981
236.507996 -142.251526 2.269242 0.487404
236.507996 -142.251526 1.730757 0.519814
236.507996 -142.251526 1.191695 0.570336
236.507996 -142.251526 0.650897 0.548714
236.507996 -142.251526 0.107186 0.633951
236.536392 -145.221771 -0.000019 0.240889
236.560211 -147.712952 -0.000015 0.205847
236.576767 -149.444412 -0.000013 0.188757
236.588959 -150.720062 -0.000011 0.228083
nan nan nan 0.000000
nan nan nan 0.000000
nan nan nan 0.000000
236.618073 -140.392380 4.716310 0.337530
236.620560 -141.358215 3.995500 0.334508
236.622787 -142.221085 3.351542 0.339437
236.622864 -142.251526 2.808270 0.659464
236.622864 -142.251526 2.269231 0.730220
236.622864 -142.251526 1.730769 0.761273
236.622864 -142.251526 1.191730 0.788907
236.622864 -142.251526 0.650954 0.788418
236.622864 -142.251526 0.107267 0.842008
236.630524 -145.221207 -0.000020 0.225008
236.636948 -147.712494 -0.000015 0.197853
236.641418 -149.444016 -0.000013 0.198978
236.644699 -150.719727 -0.000011 0.194286
nan nan nan 0.000000
nan nan nan 0.000000
nan nan nan 0.000000
236.745911 -140.392365 4.716331 0.404578
236.741653 -141.358200 3.995515 0.360067
236.737854 -142.221069 3.351552 0.343725
236.737717 -142.251526 2.808275 0.520592
236.737717 -142.251526 2.269233 0.497108
236.737717 -142.251526 1.730767 0.480751
236.737717 -142.251526 1.191724 0.528023
236.737717 -142.251526 0.650945 0.570809
236.737717 -142.251526 0.107255 0.625895
236.724655 -145.221283 -0.000020 0.220783
236.713684 -147.712555 -0.000016 0.262826
236.706055 -149.444077 -0.000013 0.229304
236.700439 -150.719772 -0.000011 0.291274
nan nan nan 0.000000
nan nan nan 0.000000
nan nan nan 0.000000
236.873764 -140.392105 4.716517 0.345006
236.862762 -141.358032 3.995645 0.333852
236.852936 -142.220963 3.351636 0.401602
236.852600 -142.251526 2.808320 0.512901
236.852600 -142.251526 2.269248 0.567285
236.852600 -142.251526 1.730752 0.677058
236.852600 -142.251526 1.191680 0.744228
236.852600 -142.251526 0.650871 0.789822
236.852600 -142.251526 0.107151 0.789944
236.818771 -145.222031 -0.000020 0.208923
236.790421 -147.713165 -0.000015 0.203274
236.770706 -149.444580 -0.000013 0.234307
236.756180 -150.720215 -0.000011 0.241739
nan nan nan 0.000000
nan nan nan 0.000000
nan nan nan 0.000000
237.001648 -140.391632 4.716869 0.353094
236.983902 -141.357697 3.995891 0.332845
236.968048 -142.220749 3.351794 0.324331
236.967484 -142.251526 2.808404 0.522545
236.967484 -142.251526 2.269275 0.469459
236.967484 -142.251526 1.730724 0.480858
236.967484 -142.251526 1.191596 0.575494
236.967484 -142.251526 0.650731 0.613565
236.967484 -142.251526 0.106954 0.686961
236.912903 -145.223434 -0.000019 0.214368
236.867142 -147.714310 -0.000016 0.259715
236.835342 -149.445541 -0.000013 0.217648
236.811920 -150.721054 -0.000011 0.206829
nan nan nan 0.000000
nan nan nan 0.000000
nan nan nan 0.000000
237.129562 -140.390945 4.717387 0.379156
237.105072 -141.357224 3.996250 0.333333
237.083191 -142.220428 3.352025 0.365713
237.082397 -142.251526 2.808528 0.614282
237.082397 -142.251526 2.269317 0.738643
237.082397 -142.251526 1.730683 0.763546
237.082397 -142.251526 1.191473 0.731060
237.082397 -142.251526 0.650525 0.834607
237.082397 -142.251526 0.106665 0.846860
237.007004 -145.225494 -0.000020 0.228263
236.943863 -147.715973 -0.000016 0.200713
236.899979 -149.446960 -0.000013 0.263137
236.867645 -150.722260 -0.000011 0.232368
nan nan nan 0.000000
nan nan nan 0.000000
nan nan nan 0.000000
237.257553 -140.390030 4.718070 0.381292
237.226288 -141.356583 3.996726 0.380514
237.198380 -142.220016 3.352332 0.372183
237.197357 -142.251526 2.808690 0.492515
237.197357 -142.251526 2.269371 0.486549
237.197357 -142.251526 1.730629 0.513970
237.197357 -142.251526 1.191310 0.577783
237.197357 -142.251526 0.650253 0.585519
237.197357 -142.251526 0.106283 0.602289
237.101089 -145.228195 -0.000019 0.218808
237.020569 -147.718185 -0.000016 0.235887
236.964600 -149.448822 -0.000013 0.231638
236.923370 -150.723877 -0.000011 0.216092
nan nan nan 0.000000
nan nan nan 0.000000
237.484283 -137.880203 5.791982 0.642451
237.385620 -140.388885 4.718919 0.357549
237.347595 -141.355789 3.997316 0.357107
237.313629 -142.219513 3.352711 0.321569
237.312363 -142.251526 2.808892 0.728176
237.312363 -142.251526 2.269438 0.826642
237.312363 -142.251526 1.730562 0.855543
237.312363 -142.251526 1.191108 0.754025
237.312363 -142.251526 0.649915 0.807691
237.312363 -142.251526 0.105810 0.859998
237.195160 -145.231567 -0.000019 0.257608
237.097260 -147.720947 -0.000016 0.200617
237.029205 -149.451141 -0.000013 0.207427
236.979080 -150.725861 -0.000011 0.194921
nan nan nan 0.000000
237.623291 -138.023438 6.471406 0.635294
237.621399 -138.064346 5.759574 0.631617
237.513779 -140.387527 4.719934 0.435904
237.468979 -141.354843 3.998022 0.365377
237.428940 -142.218903 3.353166 0.373922
237.427429 -142.251526 2.809134 0.576059
237.427429 -142.251526 2.269519 0.494606
237.427429 -142.251526 1.730481 0.510704
237.427429 -142.251526 1.190866 0.577249
237.427429 -142.251526 0.649511 0.595483
237.427429 -142.251526 0.105243 0.686595
237.289200 -145.235596 -0.000020 0.223452
237.173920 -147.724213 -0.000016 0.229879
237.093796 -149.453903 -0.000013 0.234319
237.034775 -150.728256 -0.000011 0.222195
nan nan nan 0.000000
237.768387 -138.016769 6.474403 0.666224
237.772766 -137.934723 5.784502 0.610758
237.642059 -140.385941 4.721115 0.329015
237.590454 -141.353745 3.998844 0.375463
237.544357 -142.218201 3.353694 0.331502
237.542587 -142.251526 2.809416 0.768505
237.542587 -142.251526 2.269613 0.784329
237.542587 -142.251526 1.730387 0.712963
237.542587 -142.251526 1.190584 0.810666
237.542587 -142.251526 0.649042 0.715312
237.542587 -142.251526 0.104584 0.732937
237.383224 -145.240280 -0.000020 0.232966
237.250565 -147.728043 -0.000016 0.233541
237.158371 -149.457123 -0.000013 0.251768
237.090439 -150.731033 -0.000011 0.225941
nan nan nan 0.000000
237.920273 -137.900742 6.501285 0.646647
237.921738 -137.876526 5.796613 0.566674
237.770462 -140.384140 4.722464 0.430869
237.712051 -141.352478 3.999783 0.377829
237.659882 -142.217392 3.354298 0.349722
237.657822 -142.251526 2.809737 0.491371
237.657822 -142.251526 2.269720 0.542901
237.657822 -142.251526 1.730280 0.530968
237.657822 -142.251526 1.190263 0.580743
237.657822 -142.251526 0.648505 0.575723
237.657822 -142.251526 0.103832 0.606119
237.477188 -145.245621 -0.000020 0.227653
237.327179 -147.732391 -0.000016 0.198523
237.222916 -149.460785 -0.000013 0.229280
237.146088 -150.734192 -0.000012 0.253407
nan nan nan 0.000000
238.067734 -137.876526 6.508531 0.531899
238.067734 -137.876526 5.798305 0.566766
237.899017 -140.382111 4.723979 0.339681
237.833771 -141.351074 4.000837 0.329519
237.775513 -142.216476 3.354976 0.324605
237.773148 -142.251526 2.810098 0.788159
237.773148 -142.251526 2.269840 0.838712
237.773148 -142.251526 1.730160 0.698817
237.773148 -142.251526 1.189902 0.773846
237.773148 -142.251526 0.647903 0.658885
237.773148 -142.251526 0.102987 0.797009
237.571136 -145.251617 -0.000020 0.219443
237.403763 -147.737274 -0.000016 0.212250
237.287430 -149.464905 -0.000013 0.188566
237.201721 -150.737732 -0.000012 0.261510
nan nan nan 0.000000
238.213867 -137.876526 6.510762 0.635065
238.213867 -137.876526 5.800184 0.702419
238.027740 -140.379852 4.725661 0.409522
237.955658 -141.349503 4.002007 0.372946
237.891266 -142.215469 3.355730 0.309148
237.888580 -142.251526 2.810499 0.527565
237.888580 -142.251526 2.269974 0.544396
237.888580 -142.251526 1.730027 0.516258
237.888580 -142.251526 1.189501 0.599512
237.888580 -142.251526 0.647234 0.548379
237.888580 -142.251526 0.102049 0.624369
237.665024 -145.258270 -0.000020 0.199744
237.480301 -147.742706 -0.000016 0.205069
237.351913 -149.469482 -0.000013 0.233936
237.257324 -150.741684 -0.000012 0.253575
238.356979 -137.915573 7.224490 0.644327
238.360153 -137.876526 6.513215 0.613108
238.360168 -137.876511 5.802251 0.527993
238.156647 -140.377380 4.727513 0.325063
238.077682 -141.347778 4.003294 0.424994
238.007172 -142.214355 3.356558 0.392309
238.004150 -142.251526 2.810940 0.645411
238.004135 -142.251526 2.270120 0.718486
238.004135 -142.251526 1.729880 0.571160
238.004135 -142.251526 1.189061 0.784268
238.004150 -142.251526 0.646498 0.649622
238.004135 -142.251526 0.101017 0.708125
237.758865 -145.265579 -0.000020 0.238244
237.556808 -147.748657 -0.000016 0.227689
237.416367 -149.474487 -0.000013 0.241476
237.312897 -150.746002 -0.000011 0.199253
238.496216 -137.994110 7.207838 0.666377
238.506607 -137.876526 6.515891 0.806134
238.506607 -137.876526 5.804504 0.555962
238.285767 -140.374664 4.729533 0.358785
238.199890 -141.345886 4.004701 0.411597
238.123230 -142.213150 3.357462 0.416861
238.119827 -142.251526 2.811420 0.508827
238.119827 -142.251526 2.270280 0.525719
238.119827 -142.251526 1.729720 0.520409
238.119827 -142.251526 1.188580 0.590753
238.119827 -142.251526 0.645696 0.597955
238.119827 -142.251526 0.099891 0.681483
237.852661 -145.273544 -0.000020 0.197781
237.633270 -147.755157 -0.000016 0.210598
237.480789 -149.479965 -0.000013 0.214811
237.368439 -150.750717 -0.000011 0.253970
238.635742 -138.059982 7.194605 0.646922
238.653244 -137.876526 6.518789 0.725795
238.621460 -138.209549 5.746076 0.659464
238.415085 -140.371735 4.731721 0.340887
238.322296 -141.343857 4.006223 0.349386
238.239456 -142.211838 3.358442 0.417700
238.235657 -142.251526 2.811941 0.526833
238.235657 -142.251526 2.270453 0.589548
238.235657 -142.251526 1.729546 0.515908
238.235657 -142.251526 1.188059 0.636622
238.235672 -142.251526 0.644827 0.654887
238.235657 -142.251526 0.098671 0.696803
237.946396 -145.282150 -0.000020 0.225558
237.709686 -147.762177 -0.000016 0.265663
237.545166 -149.485870 -0.000014 0.226564
237.423950 -150.755829 -0.000011 0.242672
238.788315 -137.991226 7.215509 0.633417
238.800079 -137.876526 6.521912 0.761028
238.654160 -139.300201 5.549173 0.596475
238.544647 -140.368576 4.734081 0.398291
238.444916 -141.341660 4.007863 0.341878
238.355865 -142.210419 3.359497 0.417029
238.351654 -142.251526 2.812502 0.526055
238.351654 -142.251526 2.270640 0.583474
238.351654 -142.251526 1.729359 0.540825
238.351654 -142.251526 1.187498 0.522240
238.351654 -142.251526 0.643890 0.538720
238.351654 -142.251526 0.097357 0.563088
238.040070 -145.291428 -0.000020 0.244874
237.786057 -147.769730 -0.000016 0.229783
237.609497 -149.492249 -0.000013 0.184401
237.479416 -150.761322 -0.000011 0.199851
238.947159 -137.876114 7.248378 0.607950
238.554199 -141.462906 5.746041 0.641596
238.654144 -140.550644 5.322914 0.670863
238.654144 -140.550659 4.708935 0.627359
238.567749 -141.339310 4.009623 0.412863
238.472473 -142.208908 3.360629 0.361685
238.467804 -142.251526 2.813104 0.533181
238.467804 -142.251526 2.270841 0.619257
238.467804 -142.251526 1.729159 0.536294
238.467804 -142.251526 1.186896 0.641764
238.467804 -142.251526 0.642886 0.551629
238.467804 -142.251526 0.095948 0.595697
238.133667 -145.301346 -0.000020 0.240398
237.862366 -147.777832 -0.000016 0.179207
237.673782 -149.499069 -0.000013 0.206565
237.534851 -150.767197 -0.000011 0.255370
239.094376 -137.876572 7.252409 0.470024
238.654160 -141.651169 5.708065 0.668803
238.654144 -141.651184 5.123931 0.571633
238.654160 -141.651169 4.546721 0.549538
238.654160 -141.651154 3.975090 0.492256
238.589294 -142.207291 3.361837 0.376089
238.584137 -142.251526 2.813746 0.532586
238.584137 -142.251526 2.271055 0.493812
238.584137 -142.251526 1.728945 0.519692
238.584137 -142.251526 1.186254 0.542611
238.584137 -142.251526 0.641814 0.555673
238.584137 -142.251526 0.094444 0.594995
238.227203 -145.311920 -0.000020 0.238795
237.938614 -147.786453 -0.000016 0.213363
237.738022 -149.506332 -0.000013 0.243606
237.590240 -150.773453 -0.000012 0.218593
239.241882 -137.876572 7.256817 0.507713
238.674713 -142.461212 5.534889 0.497063
238.674713 -142.461227 4.978039 0.480507
238.674713 -142.461227 4.427784 0.516411
238.674713 -142.461212 3.882848 0.519112
238.674713 -142.461227 3.342000 0.567147
238.674713 -142.461227 2.804048 0.612222
238.674713 -142.461227 2.267824 0.725887
238.674713 -142.461227 1.732175 0.767880
238.674713 -142.461227 1.195951 0.719127
238.674713 -142.461227 0.657999 0.639612
238.654160 -142.627396 0.136414 0.593271
238.320663 -145.323151 -0.000020 0.204638
238.014801 -147.795609 -0.000016 0.214931
237.802216 -149.514038 -0.000014 0.204220
237.645584 -150.780106 -0.000012 0.265244
238.775970 -142.568130 6.076305 0.646601
238.789948 -142.461212 5.538032 0.537240
238.789948 -142.461227 4.980685 0.527260
238.789948 -142.461212 4.429942 0.529473
238.789948 -142.461227 3.884521 0.554940
238.789948 -142.461227 3.343193 0.535653
238.789948 -142.461227 2.804763 0.698054
238.789948 -142.461227 2.268063 0.727504
238.789948 -142.461227 1.731937 0.789044
238.789948 -142.461227 1.195237 0.654521
238.789948 -142.461227 0.656807 0.633417
238.713257 -143.047516 0.183502 0.607004
238.414047 -145.335037 -0.000020 0.226516
238.090927 -147.805283 -0.000016 0.203059
237.866348 -149.522202 -0.000014 0.251911
237.700882 -150.787140 -0.000012 0.248022
238.890656 -142.568130 6.080131 0.620569
238.905396 -142.461227 5.541350 0.492088
238.905396 -142.461212 4.983483 0.556634
238.905396 -142.461212 4.432222 0.507118
238.905396 -142.461212 3.886290 0.553079
238.905396 -142.461212 3.344454 0.525338
238.905396 -142.461227 2.805518 0.662806
238.905396 -142.461227 2.268315 0.722515
238.905396 -142.461227 1.731686 0.728786
238.905396 -142.461227 1.194481 0.613748
238.905396 -142.461212 0.655546 0.624582
238.824539 -143.047516 0.181797 0.592248
238.507324 -145.347580 -0.000020 0.228742
238.166977 -147.815506 -0.000016 0.198140
237.930420 -149.530807 -0.000014 0.234774
237.756134 -150.794571 -0.000011 0.251289
239.005554 -142.568130 6.084162 0.623835
239.021057 -142.461227 5.544850 0.501442
239.021057 -142.461212 4.986431 0.502281
239.021057 -142.461227 4.434626 0.504494
239.021057 -142.461227 3.888154 0.553506
239.021057 -142.461227 3.345782 0.548638
239.021057 -142.461227 2.806315 0.614404
239.021057 -142.461227 2.268579 0.733501
239.021057 -142.461227 1.731421 0.785840
239.021057 -142.461212 1.193685 0.556817
239.021057 -142.461227 0.654217 0.600366
238.936020 -143.047531 0.180001 0.602579
238.600525 -145.360764 -0.000020 0.221178
238.242950 -147.826263 -0.000016 0.261558
237.994431 -149.539871 -0.000014 0.206338
237.811325 -150.802368 -0.000011 0.212501
239.136963 -142.461227 6.115488 0.674601
239.136963 -142.461212 5.548530 0.510246
239.136963 -142.461212 4.989531 0.488930
239.136963 -142.461227 4.437153 0.513466
239.136963 -142.461227 3.890113 0.618708
239.136963 -142.461212 3.347179 0.604685
239.136963 -142.461227 2.807151 0.570642
239.136963 -142.461227 2.268858 0.767666
239.136963 -142.461227 1.731142 0.817731
239.136963 -142.461227 1.192848 0.669139
239.136963 -142.461212 0.652821 0.580392
239.047745 -143.047531 0.178112 0.631708
238.693634 -145.374588 -0.000020 0.204232
238.318863 -147.837540 -0.000016 0.214249
238.058365 -149.549362 -0.000014 0.227126
237.866455 -150.810562 -0.000011 0.232583
239.253113 -142.461227 6.119964 0.453559
239.253113 -142.461212 5.552390 0.494621
239.253113 -142.461212 4.992784 0.500618
239.253113 -142.461212 4.439804 0.557412
239.253113 -142.461212 3.892169 0.559991
239.253113 -142.461227 3.348644 0.573816
239.253113 -142.461227 2.808029 0.675258
239.253113 -142.461227 2.269151 0.769848
239.253113 -142.461227 1.730849 0.768627
239.253113 -142.461212 1.191970 0.662303
239.253113 -142.461227 0.651355 0.581079
239.159698 -143.047516 0.176130 0.596750
238.786652 -145.389084 -0.000020 0.257477
238.394684 -147.849350 -0.000016 0.265962
238.122253 -149.559326 -0.000013 0.206194
237.921539 -150.819138 -0.000011 0.223907
239.369522 -142.461227 6.124653 0.602075
239.369522 -142.461212 5.556432 0.572305
239.369522 -142.461212 4.996189 0.598047
239.369522 -142.461212 4.442580 0.551659
239.369522 -142.461227 3.894323 0.572549
239.369522 -142.461227 3.350179 0.643351
239.369522 -142.461227 2.808949 0.611292
239.369522 -142.461227 2.269457 0.791897
239.369522 -142.461227 1.730543 0.788327
239.369522 -142.461227 1.191051 0.636912
239.369522 -142.461227 0.649821 0.580392
239.271912 -143.047516 0.174054 0.612024
238.879547 -145.404221 -0.000020 0.249410
238.470413 -147.861679 -0.000016 0.245138
238.186050 -149.569717 -0.000013 0.236521
237.976547 -150.828110 -0.000012 0.221752
239.486191 -142.461227 6.129554 0.456718
239.486191 -142.461212 5.560658 0.577081
239.486191 -142.461212 4.999749 0.577188
239.486191 -142.461227 4.445482 0.549401
239.486191 -142.461212 3.896574 0.549020
239.486191 -142.461227 3.351783 0.580392
239.486191 -142.461227 2.809910 0.584817
239.486191 -142.461227 2.269777 0.786404
239.486191 -142.461227 1.730223 0.790219
239.486191 -142.461227 1.190090 0.692821
239.486191 -142.461227 0.648216 0.638605
239.384369 -143.047516 0.171884 0.606210
238.972351 -145.419998 -0.000020 0.223931
238.546066 -147.874542 -0.000016 0.250380
238.249786 -149.580551 -0.000014 0.219179
238.031509 -150.837448 -0.000011 0.227186
239.603165 -142.461212 6.134668 0.669429
239.603165 -142.461212 5.565066 0.546197
239.603149 -142.461227 5.003462 0.627390
239.603165 -142.461227 4.448511 0.507393
239.603165 -142.461227 3.898922 0.609857
239.603149 -142.461227 3.353457 0.565011
239.603149 -142.461227 2.810913 0.620951
239.603149 -142.461227 2.270111 0.730663
239.603165 -142.461227 1.729889 0.754299
239.603149 -142.461227 1.189087 0.709178
239.603149 -142.461227 0.646542 0.580392
239.497116 -143.047531 0.169621 0.592889
239.065033 -145.436432 -0.000020 0.208097
238.621628 -147.887939 -0.000016 0.236724
238.313446 -149.591843 -0.000013 0.243809
238.086395 -150.847183 -0.000011 0.241811
239.720413 -142.461227 6.139996 0.548287
239.720413 -142.461227 5.569660 0.511162
239.720413 -142.461227 5.007333 0.538598
239.720413 -142.461227 4.451666 0.473655
239.720413 -142.461227 3.901370 0.601480
239.720413 -142.461227 3.355201 0.644617
239.720413 -142.461227 2.811958 0.630381
239.720413 -142.461227 2.270459 0.733440
239.720413 -142.461227 1.729540 0.702144
239.720413 -142.461227 1.188042 0.663600
239.720413 -142.461227 0.644798 0.577768
239.610138 -143.047531 0.167262 0.605600
239.157593 -145.453506 -0.000020 0.230788
238.697098 -147.901855 -0.000016 0.202149
238.377014 -149.603561 -0.000014 0.249889
238.141205 -150.857300 -0.000012 0.211376
239.837982 -142.461227 6.145540 0.720882
239.837982 -142.461212 5.574442 0.548699
239.837982 -142.461227 5.011361 0.560296
239.837982 -142.461212 4.454949 0.544091
239.837982 -142.461227 3.903915 0.519478
239.837982 -142.461227 3.357017 0.671168
239.837982 -142.461227 2.813046 0.636545
239.837982 -142.461227 2.270821 0.737530
239.837982 -142.461227 1.729178 0.766476
239.837982 -142.461227 1.186954 0.685939
239.837982 -142.461227 0.642983 0.585626
239.723450 -143.047531 0.164808 0.568627
239.250046 -145.471222 -0.000020 0.230465
238.772461 -147.916306 -0.000016 0.263353
238.440506 -149.615738 -0.000014 0.242792
238.195953 -150.867783 -0.000011 0.202628
239.955872 -142.461227 6.151301 0.524834
239.955872 -142.461212 5.579411 0.596994
239.955872 -142.461227 5.015547 0.629389
239.955872 -142.461227 4.458361 0.550546
239.955872 -142.461227 3.906562 0.549020
239.955872 -142.461227 3.358902 0.596597
239.955872 -142.461227 2.814175 0.626154
239.955872 -142.461227 2.271198 0.828443
239.955872 -142.461227 1.728802 0.830213
239.955872 -142.461227 1.185824 0.696544
239.955872 -142.461227 0.641097 0.588113
239.837097 -143.047516 0.162257 0.611154
239.342361 -145.489594 -0.000020 0.215972
238.847717 -147.931290 -0.000016 0.207128
238.503922 -149.628342 -0.000014 0.241320
238.250626 -150.878662 -0.000011 0.244479
240.074081 -142.461227 6.157284 0.791897
240.074081 -142.461227 5.584567 0.666331
240.067245 -142.493820 5.013830 0.416556
240.067245 -142.493820 4.456963 0.263630
240.059799 -142.529327 3.901303 0.071290
240.074081 -142.461227 3.360861 0.625299
240.074081 -142.461227 2.815349 0.732860
240.074081 -142.461227 2.271589 0.827802
240.074081 -142.461227 1.728411 0.727428
240.074081 -142.461227 1.184651 0.791882
240.074081 -142.461227 0.639139 0.598459
239.951035 -143.047531 0.159609 0.580392
239.434555 -145.508606 -0.000020 0.232559
238.922867 -147.946777 -0.000016 0.231650
238.567230 -149.641403 -0.000014 0.218162
238.305222 -150.889923 -0.000012 0.250894
240.192657 -142.461227 6.163485 0.572381
240.192657 -142.461227 5.589914 0.673747
240.185577 -142.493820 5.018325 0.235294
240.185577 -142.493820 4.460627 0.211170
240.177856 -142.529327 3.904140 0.073365
240.192657 -142.461212 3.362890 0.621958
240.192657 -142.461227 2.816565 0.756893
240.192657 -142.461227 2.271994 0.773068
240.192657 -142.461227 1.728006 0.790326
240.192657 -142.461227 1.183435 0.779080
240.192657 -142.461227 0.637109 0.589029
240.065323 -143.047531 0.156864 0.591882
239.526611 -145.528259 -0.000020 0.249973
238.997925 -147.962799 -0.000016 0.233493
238.630463 -149.654907 -0.000014 0.244025
238.359726 -150.901566 -0.000012 0.242014
240.311584 -142.461212 6.169909 0.752758
240.311584 -142.461212 5.595452 0.672618
240.304260 -142.493835 5.022981 0.377249
240.304260 -142.493835 4.464423 0.260929
240.296295 -142.529327 3.907077 0.076905
240.311584 -142.461227 3.364993 0.666178
240.311584 -142.461227 2.817825 0.786160
240.311584 -142.461227 2.272413 0.715999
240.311584 -142.461227 1.727587 0.663432
240.311584 -142.461227 1.182175 0.769543
240.311584 -142.461227 0.635007 0.554528
240.179962 -143.047516 0.154020 0.589761
239.618530 -145.548553 -0.000020 0.211472
239.072845 -147.979355 -0.000016 0.211317
238.693588 -149.668839 -0.000014 0.220807
238.414169 -150.913574 -0.000012 0.248704
240.430878 -142.461212 6.176555 0.570291
240.430878 -142.461227 5.601184 0.649088
240.423325 -142.493820 5.027801 0.656443
240.423325 -142.493820 4.468351 0.563210
240.415100 -142.529327 3.910117 0.070787
240.430878 -142.461227 3.367169 0.639231
240.430878 -142.461212 2.819129 0.792599
240.430878 -142.461227 2.272848 0.740688
240.430878 -142.461227 1.727152 0.731716
240.430878 -142.461212 1.180871 0.750820
240.430878 -142.461227 0.632831 0.560861
240.294952 -143.047516 0.151078 0.599069
239.710297 -145.569489 -0.000020 0.244838
239.147659 -147.996429 -0.000016 0.200390
238.756622 -149.683228 -0.000014 0.229532
238.468506 -150.925980 -0.000011 0.207942
240.550568 -142.461227 6.183428 0.643198
240.550568 -142.461227 5.607109 0.690013
240.542770 -142.493820 5.032784 0.916945
240.542770 -142.493820 4.472414 0.352941
240.534271 -142.529327 3.913260 0.068757
240.550568 -142.461227 3.369418 0.763424
240.550568 -142.461227 2.820476 0.779461
240.550568 -142.461227 2.273297 0.739483
240.550568 -142.461227 1.726703 0.651286
240.550568 -142.461227 1.179523 0.741939
240.550568 -142.461227 0.630581 0.588464
240.410324 -143.047531 0.148036 0.630549
239.801926 -145.591064 -0.000020 0.249805
239.222351 -148.014008 -0.000016 0.232966
238.819550 -149.698044 -0.000014 0.243163
238.522766 -150.938766 -0.000012 0.208636
240.670654 -142.461227 6.190526 0.605341
240.670654 -142.461227 5.613232 0.502754
240.662613 -142.493820 5.037930 0.310445
240.662613 -142.493820 4.476610 0.335836
240.653854 -142.529327 3.916507 0.063249
240.670654 -142.461212 3.371743 0.741100
240.670654 -142.461227 2.821869 0.780102
240.670654 -142.461227 2.273760 0.746731
240.670654 -142.461227 1.726239 0.635157
241.172470 -140.426224 1.075163 0.572549
240.670654 -142.461227 0.628257 0.593439
240.526077 -143.047531 0.144892 0.641123
239.893387 -145.613281 -0.000020 0.251014
239.296921 -148.032135 -0.000016 0.252199
238.882370 -149.713303 -0.000014 0.264885
238.576935 -150.951920 -0.000011 0.193700
240.791153 -142.461227 6.197856 0.691081
240.791153 -142.461227 5.619550 0.573129
240.773865 -142.529327 5.036578 0.062745
240.773865 -142.529327 4.475507 0.062745
240.773865 -142.529327 3.919859 0.062745
240.791153 -142.461212 3.374142 0.792370
240.791153 -142.461227 2.823306 0.739223
240.791153 -142.461227 2.274239 0.657588
241.323380 -140.365921 1.690384 0.791241
241.323380 -140.365921 1.070490 0.661738
240.791153 -142.461227 0.625858 0.608637
240.642227 -143.047531 0.141648 0.601068
239.984695 -145.636139 -0.000020 0.219251
239.371368 -148.050751 -0.000016 0.218796
238.945084 -149.729004 -0.000014 0.223871
238.631012 -150.965454 -0.000012 0.201814
240.912094 -142.461227 6.205416 0.699367
240.912094 -142.461227 5.626069 0.519936
240.900436 -142.505783 5.046474 0.082429
240.903381 -142.494492 4.485306 0.138308
240.894287 -142.529327 3.923317 0.080140
240.912094 -142.461212 3.376617 0.708766
240.912079 -142.461227 2.824789 0.750118
240.912079 -142.461227 2.274733 0.767071
241.459915 -140.365921 1.689827 0.894118
241.459915 -140.365921 1.068815 0.729534
240.912094 -142.461227 0.623383 0.588022
240.758789 -143.047516 0.138301 0.601465
240.075851 -145.659637 -0.000020 0.212908
239.445679 -148.069916 -0.000016 0.221752
239.007675 -149.745132 -0.000014 0.212154
238.684982 -150.979370 -0.000012 0.197805
241.033463 -142.461227 6.213210 0.759487
241.033463 -142.461227 5.632789 0.599191
241.033463 -142.461227 5.060516 0.460594
241.033463 -142.461227 4.495023 0.637461
241.033463 -142.461212 3.934994 0.779995
241.033463 -142.461212 3.379168 0.700832
241.033463 -142.461227 2.826317 0.721035
241.596939 -140.365921 2.310748 0.821073
241.596939 -140.365921 1.689252 0.793744
241.596939 -140.365921 1.067090 0.594644
241.033463 -142.461227 0.620832 0.592157
240.875793 -143.047516 0.134851 0.614328
240.166840 -145.683762 -0.000021 0.215601
239.519852 -148.089584 -0.000016 0.254688
239.070175 -149.761703 -0.000014 0.265698
238.738861 -150.993652 -0.000012 0.260648
241.155289 -142.461227 6.221238 0.718776
241.155289 -142.461227 5.639710 0.466316
241.155289 -142.461212 5.066349 0.515572
241.155289 -142.461227 4.499776 0.715969
241.155289 -142.461227 3.938681 0.644175
241.155289 -142.461227 3.381795 0.673564
241.155289 -142.461212 2.827892 0.811460
241.734482 -140.365921 2.311340 0.776471
241.734482 -140.365921 1.688660 0.807843
241.734482 -140.365921 1.065312 0.586358
241.155289 -142.461227 0.618204 0.583246
240.993225 -143.047531 0.131298 0.613931
240.257645 -145.708527 -0.000020 0.231135
239.593887 -148.109772 -0.000016 0.226300
239.132538 -149.778717 -0.000014 0.226887
238.792648 -151.008316 -0.000011 0.205033
241.277588 -142.461227 6.229503 0.655009
241.277588 -142.461212 5.646838 0.465782
241.277588 -142.461212 5.072352 0.514290
241.277588 -142.461227 4.504671 0.486900
241.277588 -142.461227 3.942477 0.631159
241.277588 -142.461212 3.384501 0.596399
241.277588 -142.461212 2.829513 0.741817
241.872559 -140.365921 2.311950 0.613764
241.872559 -140.365921 1.688050 0.669642
241.872559 -140.365921 1.063482 0.588479
241.277588 -142.461227 0.615499 0.618250
241.111099 -143.047531 0.127639 0.605356
240.348282 -145.733917 -0.000020 0.210084
239.667770 -148.130463 -0.000016 0.196895
239.194794 -149.796158 -0.000014 0.263796
238.846313 -151.023361 -0.000011 0.191127
241.400375 -142.461227 6.238007 0.559503
241.400375 -142.461212 5.654171 0.514794
241.400375 -142.461227 5.078530 0.512047
241.400375 -142.461227 4.509706 0.560876
241.400375 -142.461227 3.946383 0.583001
241.400375 -142.461227 3.387285 0.567224
242.011185 -140.365936 2.938401 0.819608
242.011185 -140.365936 2.312577 0.738872
242.011185 -140.365921 1.687423 0.794247
242.011185 -140.365921 1.061599 0.567315
241.400375 -142.461227 0.612715 0.583932
241.229462 -143.047531 0.123874 0.597940
240.438751 -145.759949 -0.000020 0.204076
239.741516 -148.151688 -0.000016 0.240889
239.256912 -149.814026 -0.000014 0.276158
238.899887 -151.038773 -0.000012 0.216391
241.523666 -142.461227 6.246753 0.625254
241.523666 -142.461227 5.661712 0.539101
241.523666 -142.461227 5.084883 0.585763
241.523666 -142.461227 4.514887 0.588678
241.523666 -142.461227 3.950399 0.523125
241.523666 -142.461227 3.390148 0.668894
242.150375 -140.365921 2.940337 0.827451
242.150375 -140.365921 2.313222 0.738872
242.150375 -140.365921 1.686778 0.771923
242.150375 -140.365921 1.059662 0.641505
241.523666 -142.461227 0.609852 0.647013
241.348297 -143.047531 0.120002 0.668208
240.529022 -145.786606 -0.000020 0.245473
239.815109 -148.173416 -0.000016 0.246490
239.318924 -149.832336 -0.000014 0.204997
238.953354 -151.054550 -0.000012 0.227318
241.647461 -142.461227 6.255744 0.546563
241.647461 -142.461212 5.669464 0.555718
241.647461 -142.461227 5.091414 0.484840
241.647461 -142.461212 4.520211 0.492683
241.647461 -142.461227 3.954529 0.420279
241.647461 -142.461212 3.393091 0.687724
242.290146 -140.365921 2.942328 0.819608
242.290146 -140.365921 2.313885 0.734188
242.290146 -140.365921 1.686115 0.903426
242.290146 -140.365921 1.057672 0.527810
241.647461 -142.461212 0.606909 0.623575
241.467636 -143.047516 0.116022 0.593317
240.619110 -145.813889 -0.000021 0.236545
239.888550 -148.195663 -0.000016 0.245102
239.380798 -149.851089 -0.000014 0.259092
239.006699 -151.070709 -0.000012 0.222135
241.771805 -142.461227 6.264980 0.511193
241.771805 -142.461227 5.677427 0.584909
241.771805 -142.461227 5.098123 0.732525
241.771805 -142.461227 4.525681 0.613962
241.771805 -142.461227 3.958770 0.506874
241.771805 -142.461212 3.396114 0.706889
242.430527 -140.365921 2.944373 0.819608
242.430527 -140.365921 2.314566 0.584741
242.430527 -140.365921 1.685434 0.789441
242.430527 -140.365921 1.055627 0.542748
241.771805 -142.461212 0.603885 0.647059
241.587479 -143.047531 0.111933 0.631937
240.709000 -145.841812 -0.000020 0.212765
239.961838 -148.218430 -0.000016 0.230764
239.442535 -149.870255 -0.000014 0.267278
239.059937 -151.087250 -0.000012 0.289443
241.896683 -142.461227 6.274466 0.540993
241.896683 -142.461227 5.685607 0.569421
241.896683 -142.461212 5.105014 0.566964
241.896683 -142.461227 4.531299 0.512413
241.896683 -142.461227 3.963127 0.517983
241.896683 -142.461227 3.399220 0.466453
242.571518 -140.365936 2.946474 0.825559
242.571518 -140.365921 2.315266 0.454749
242.571518 -140.365921 1.684734 0.644480
242.571518 -140.365921 1.053526 0.576913
241.896683 -142.461227 0.600780 0.605020
241.707855 -143.047531 0.107733 0.677943
240.798691 -145.870361 -0.000020 0.201862
240.034958 -148.241699 -0.000016 0.257094
239.504135 -149.889862 -0.000013 0.227593
239.113052 -151.104156 -0.000011 0.203980
242.022125 -142.461227 6.284203 0.548684
242.022125 -142.461227 5.694003 0.813962
241.999664 -142.529327 5.099038 0.074510
241.999664 -142.529327 4.526426 0.085389
241.999664 -142.529327 3.959349 0.074052
242.022125 -142.461212 3.402407 0.659983
242.713135 -140.365936 2.948630 0.827451
242.713135 -140.365921 2.315984 0.459678
242.713135 -140.365921 1.684016 0.674784
242.713135 -140.365936 1.051370 0.576349
242.022125 -142.461227 0.597592 0.581491
241.828766 -143.047516 0.103423 0.625971
240.888199 -145.899521 -0.000020 0.231518
240.107925 -148.265472 -0.000016 0.243283
239.565598 -149.909897 -0.000013 0.207319
239.166046 -151.121429 -0.000012 0.187668
242.148148 -142.461227 6.294196 0.562142
242.148148 -142.461212 5.702619 0.517983
242.137146 -142.493805 5.113086 0.396384
242.137146 -142.493820 4.537879 0.339742
242.137146 -142.493820 3.968231 0.711681
242.148148 -142.461227 3.405677 0.467399
242.855423 -140.365921 2.950842 0.827451
242.855423 -140.365921 2.316721 0.443351
242.855423 -140.365921 1.683279 0.718990
242.855423 -140.365921 1.049158 0.554482
242.148148 -142.461227 0.594322 0.592157
241.950241 -143.047531 0.099000 0.611963
240.977478 -145.929321 -0.000020 0.208971
240.180710 -148.289764 -0.000016 0.213818
239.626923 -149.930359 -0.000014 0.220484
239.218918 -151.139069 -0.000011 0.210730
242.274765 -142.461227 6.304444 0.627436
242.274765 -142.461227 5.711454 0.722896
242.263504 -142.493820 5.120513 0.412711
242.263504 -142.493820 4.543934 0.511604
242.263504 -142.493820 3.972927 0.556634
242.274765 -142.461227 3.409032 0.538857
242.998367 -140.365936 2.953110 0.827451
242.998367 -140.365921 2.317477 0.394400
242.998367 -140.365921 1.682523 0.604837
242.998367 -140.365921 1.046889 0.514290
242.274765 -142.461227 0.590967 0.592157
242.072296 -143.047516 0.094462 0.592325
241.066559 -145.959732 -0.000020 0.192072
240.253326 -148.314560 -0.000016 0.230166
239.688110 -149.951248 -0.000013 0.198750
239.271667 -151.157074 -0.000012 0.200174
242.401993 -142.461227 6.314951 0.535302
242.401993 -142.461227 5.720514 0.668971
242.390488 -142.493820 5.128131 0.778561
242.390488 -142.493820 4.550145 0.451850
242.390488 -142.493820 3.977745 0.248020
242.401993 -142.461227 3.412472 0.460533
243.142014 -140.365921 2.955438 0.827451
243.142014 -140.365921 2.318252 0.361334
243.142014 -140.365921 1.681748 0.568627
243.142014 -140.365936 1.044562 0.580392
242.401993 -142.461227 0.587528 0.600610
242.194931 -143.047516 0.089810 0.593378
241.155426 -145.990768 -0.000020 0.214009
240.325775 -148.339859 -0.000016 0.213531
239.749146 -149.972565 -0.000013 0.233397
239.324295 -151.175461 -0.000012 0.235312
242.529861 -142.461227 6.325722 0.566857
242.529861 -142.461227 5.729802 0.764172
242.518082 -142.493820 5.135941 0.587381
242.518082 -142.493820 4.556511 0.208835
242.518082 -142.493820 3.982681 0.292592
242.529861 -142.461227 3.415998 0.457938
243.286362 -140.365936 2.957823 0.826291
243.286362 -140.365921 2.319046 0.450980
243.286362 -140.365921 1.680954 0.575494
243.286362 -140.365936 1.042177 0.535134
242.529861 -142.461227 0.584002 0.580392
242.318176 -143.047516 0.085042 0.594736
241.244080 -146.022430 -0.000020 0.218844
240.398041 -148.365662 -0.000016 0.245401
239.810028 -149.994308 -0.000014 0.220448
239.376801 -151.194199 -0.000012 0.224541
242.658371 -142.461212 6.336761 0.669017
242.658356 -142.461212 5.739318 0.647028
242.633240 -142.529327 5.137055 0.062745
242.633240 -142.529327 4.557420 0.062745
242.633240 -142.529327 3.983386 0.062745
242.658356 -142.461227 3.419611 0.485191
243.431458 -140.365921 2.960267 0.823072
243.431458 -140.365936 2.319861 0.312932
243.431458 -140.365921 1.680140 0.403983
243.431458 -140.365921 1.039733 0.371588
242.658371 -142.461212 0.580388 0.563272
242.442047 -143.047516 0.080156 0.596429
241.332504 -146.054703 -0.000020 0.220723
240.470123 -148.391983 -0.000016 0.213136
239.870758 -150.016464 -0.000014 0.257740
239.429153 -151.213318 -0.000011 0.233266
242.787537 -142.461227 6.348065 0.805920
242.787537 -142.461227 5.749066 0.595804
242.775238 -142.493820 5.152139 0.178088
242.775238 -142.493820 4.569715 0.279500
242.775253 -142.493820 3.992922 0.237064
242.787537 -142.461227 3.423311 0.487449
243.577286 -140.365921 2.962770 0.819608
243.577286 -140.365921 2.320694 0.258244
243.577286 -140.365921 1.679306 0.393164
243.577286 -140.365921 1.037229 0.341848
242.787537 -142.461227 0.576688 0.569146
242.566544 -143.047516 0.075152 0.554803
241.420700 -146.087601 -0.000020 0.236174
240.542023 -148.418793 -0.000016 0.231650
239.931320 -150.039063 -0.000013 0.236700
239.481384 -151.232788 -0.000012 0.195268
242.917389 -142.461227 6.359644 0.723812
242.895752 -142.517410 5.746045 0.642863
242.891174 -142.529312 5.153611 0.079377
242.904831 -142.493820 4.576558 0.439704
242.904831 -142.493820 3.998228 0.312535
242.917389 -142.461227 3.427101 0.471611
243.723877 -140.365936 2.965334 0.827451
243.700684 -140.426224 2.320491 0.321569
243.723877 -140.365936 1.678452 0.352941
243.723877 -140.365936 1.034666 0.379507
242.917389 -142.461227 0.572898 0.552895
242.691711 -143.047516 0.070026 0.596597
241.508652 -146.121109 -0.000019 0.245497
240.613739 -148.446106 -0.000016 0.221022
239.991745 -150.062073 -0.000014 0.190552
239.533478 -151.252640 -0.000011 0.256399
243.047928 -142.461227 6.371496 0.799130
243.005936 -142.568115 5.744464 0.634165
243.047928 -142.461227 5.175497 0.705394
243.047928 -142.461227 4.588758 0.486412
243.047928 -142.461227 4.007689 0.479362
243.047928 -142.461227 3.430982 0.530983
243.871277 -140.365921 2.967958 0.827451
243.863327 -140.386154 2.322066 0.226505
243.871277 -140.365936 1.677578 0.321569
243.871277 -140.365936 1.032041 0.329976
243.047928 -142.461212 0.569017 0.580392
242.817551 -143.047516 0.064779 0.578241
241.596390 -146.155228 -0.000019 0.206278
240.685257 -148.473923 -0.000016 0.205093
240.051987 -150.085510 -0.000014 0.278360
239.585434 -151.272842 -0.000011 0.242600
243.179199 -142.461227 6.383629 0.463661
243.136337 -142.568115 5.754856 0.637369
243.179199 -142.461227 5.184311 0.804349
243.179199 -142.461227 4.595943 0.605127
243.179199 -142.461227 4.013262 0.538964
243.179199 -142.461227 3.434953 0.554833
243.981781 -140.459930 2.965669 0.778286
244.019485 -140.365921 2.323318 0.827451
244.019485 -140.365921 1.676683 0.827207
244.019485 -140.365921 1.029354 0.409308
243.179199 -142.461227 0.565046 0.560784
242.944077 -143.047516 0.059408 0.571679
241.683868 -146.189957 -0.000020 0.242158
240.756577 -148.502243 -0.000016 0.228466
240.112076 -150.109360 -0.000014 0.204782
239.637238 -151.293411 -0.000011 0.215110
243.311203 -142.461227 6.396044 0.450980
243.267471 -142.568115 5.765491 0.627298
243.311203 -142.461227 5.193329 0.728405
243.311203 -142.461227 4.603295 0.506477
243.311203 -142.461227 4.018963 0.520470
243.311203 -142.461227 3.439017 0.498878
243.993713 -140.793137 2.950717 0.456718
244.168518 -140.365921 2.324233 0.819608
244.168518 -140.365921 1.675767 0.827451
244.168518 -140.365921 1.026606 0.411521
243.311203 -142.461227 0.560982 0.570977
243.071320 -143.047516 0.053912 0.583154
241.771118 -146.225296 -0.000020 0.216834
240.827698 -148.531052 -0.000016 0.214775
240.171997 -150.133636 -0.000013 0.231794
239.688904 -151.314331 -0.000011 0.256375
243.443970 -142.461227 6.408744 0.452796
243.399353 -142.568115 5.776369 0.628122
243.443970 -142.461227 5.202554 0.552544
243.443970 -142.461212 4.610817 0.803433
243.443970 -142.461227 4.024797 0.748180
243.443970 -142.461227 3.443174 0.709194
244.005722 -141.115158 2.936323 0.460044
244.350204 -140.289734 2.326521 0.629633
244.350204 -140.289719 1.673479 0.583108
244.350204 -140.289719 1.019737 0.530526
243.443970 -142.461227 0.556825 0.591379
243.199295 -143.047516 0.048289 0.586313
241.858109 -146.261246 -0.000020 0.232105
240.898621 -148.560364 -0.000016 0.201646
240.231750 -150.158325 -0.000014 0.273059
239.740417 -151.335632 -0.000011 0.277008
243.577499 -142.461227 6.421734 0.726696
243.532013 -142.568115 5.787496 0.629511
243.577515 -142.461212 5.211992 0.536828
243.577515 -142.461227 4.618508 0.732021
243.577499 -142.461227 4.030763 0.482124
243.577499 -142.461227 3.447427 0.484733
244.017395 -141.427536 2.922403 0.497032
244.447693 -140.416367 2.325230 0.722850
244.501587 -140.289719 1.672517 0.608698
244.501587 -140.289719 1.016849 0.538949
243.577515 -142.461227 0.552573 0.603922
243.328003 -143.047516 0.042539 0.680018
241.944855 -146.297791 -0.000020 0.236557
240.969330 -148.590164 -0.000016 0.234977
240.291321 -150.183426 -0.000013 0.214476
239.791779 -151.357269 -0.000011 0.245245
243.711838 -142.461227 6.435019 0.471275
243.665466 -142.568115 5.798875 0.620005
243.711838 -142.461227 5.221642 0.522606
243.711838 -142.461227 4.626375 0.742245
243.711838 -142.461227 4.036864 0.567697
243.711838 -142.461227 3.451775 0.515068
243.720169 -142.442047 2.870847 0.497398
244.449417 -140.761032 2.320060 0.638376
244.653885 -140.289719 1.671533 0.618814
244.653885 -140.289719 1.013895 0.540551
243.711838 -142.461227 0.548224 0.607507
243.457489 -143.047531 0.036658 0.672740
242.031342 -146.334961 -0.000019 0.234977
241.039841 -148.620453 -0.000016 0.277116
240.350708 -150.208954 -0.000013 0.191187
239.843002 -151.379272 -0.000012 0.233888
243.847000 -142.461212 6.448602 0.576867
243.799728 -142.568115 5.810508 0.619165
243.847000 -142.461212 5.231507 0.490654
243.847000 -142.461227 4.634419 0.566323
243.847000 -142.461227 4.043101 0.458793
243.847000 -142.461227 3.456221 0.613169
243.847000 -142.461212 2.872484 0.539239
244.451111 -141.094879 2.315067 0.674052
244.694626 -140.544113 1.675079 0.557336
244.807114 -140.289719 1.010875 0.557870
243.847000 -142.461212 0.543778 0.608469
243.587769 -143.047516 0.030646 0.559075
242.117554 -146.372726 -0.000020 0.223093
241.110123 -148.651245 -0.000015 0.189583
240.409927 -150.234879 -0.000014 0.204004
239.894058 -151.401642 -0.000011 0.254317
243.982986 -142.461227 6.462483 0.542107
243.934830 -142.568115 5.822401 0.644556
243.982986 -142.461212 5.241591 0.549752
243.982986 -142.461227 4.642640 0.605020
243.982986 -142.461227 4.049478 0.546960
243.982971 -142.461227 3.460765 0.526543
243.982986 -142.461212 2.875206 0.589700
244.454849 -141.413818 2.310326 0.554528
244.694305 -140.882309 1.680135 0.500664
244.817932 -140.607880 1.024932 0.696727
243.982986 -142.461212 0.539233 0.608316
243.718842 -143.047516 0.024500 0.695598
242.203506 -146.411087 -0.000019 0.230908
241.180206 -148.682510 -0.000015 0.246466
240.468964 -150.261230 -0.000014 0.195112
239.944962 -151.424362 -0.000011 0.194262
244.119827 -142.461212 6.476673 0.556329
244.070770 -142.568115 5.834553 0.641688
244.099411 -142.505722 5.242989 0.074540
244.104858 -142.493820 4.645721 0.339391
244.104858 -142.493820 4.051867 0.265141
244.119827 -142.461227 3.465410 0.631144
244.119827 -142.461227 2.877989 0.594278
244.155930 -142.382553 2.293870 0.732677
244.692230 -141.214005 1.685090 0.733486
244.816681 -140.942841 1.039937 0.730999
244.119827 -142.461212 0.534589 0.610483
243.850754 -143.047516 0.018218 0.580392
242.289200 -146.450043 -0.000020 0.205177
241.250061 -148.714279 -0.000016 0.208181
240.527817 -150.287994 -0.000013 0.253587
239.995712 -151.447433 -0.000011 0.250595
244.257553 -142.461227 6.491172 0.694301
244.207581 -142.568115 5.846973 0.624537
244.242310 -142.493835 5.255881 0.222110
244.242310 -142.493835 4.654290 0.381247
244.242310 -142.493835 4.058513 0.464027
244.257553 -142.461227 3.470156 0.567010
244.257553 -142.461227 2.880832 0.524041
244.257553 -142.461227 2.293401 0.559884
244.380844 -142.197464 1.701834 0.528817
244.815536 -141.267471 1.054432 0.822629
244.257553 -142.461212 0.529842 0.603159
243.983505 -143.047516 0.011800 0.592157
242.374603 -146.489609 -0.000019 0.238017
241.319687 -148.746521 -0.000015 0.201551
240.586487 -150.315170 -0.000014 0.265926
240.046280 -151.470871 -0.000011 0.211364
244.396179 -142.461227 6.505985 0.684413
244.345306 -142.568115 5.859661 0.652140
244.363770 -142.529312 5.259470 0.088365
244.363770 -142.529327 4.657215 0.094118
244.363770 -142.529327 4.060781 0.062745
244.396179 -142.461227 3.475005 0.644526
244.396179 -142.461227 2.883738 0.508064
244.396179 -142.461212 2.294369 0.612268
244.396179 -142.461212 1.705631 0.669413
244.471161 -142.303696 1.107691 0.778195
244.396179 -142.461227 0.524994 0.611994
244.117126 -143.047516 0.005242 0.593423
242.459747 -146.529770 -0.000020 0.215804
241.389099 -148.779266 -0.000015 0.278229
240.644943 -150.342743 -0.000013 0.214763
240.096695 -151.494644 -0.000011 0.196680
244.535736 -142.461212 6.521120 0.528191
244.483932 -142.568115 5.872624 0.635569
244.519928 -142.493820 5.277594 0.139712
244.519928 -142.493820 4.671990 0.531685
244.519928 -142.493820 4.072239 0.195834
244.535721 -142.461227 3.479959 0.570047
244.535721 -142.461227 2.886705 0.538109
244.535721 -142.461227 2.295357 0.529366
244.535736 -142.461212 1.704642 0.631754
244.535736 -142.461227 1.113294 0.551064
244.535736 -142.461212 0.520040 0.616861
244.251648 -143.047516 -0.001457 0.622660
242.544601 -146.570511 -0.000019 0.220843
241.458267 -148.812485 -0.000016 0.236246
240.703232 -150.370728 -0.000013 0.183898
240.146942 -151.518784 -0.000011 0.203023
244.676224 -142.461227 6.536574 0.506920
244.623505 -142.568115 5.885863 0.622797
244.637207 -142.540344 5.279359 0.129412
244.642639 -142.529327 4.675253 0.062745
244.642639 -142.529312 4.074771 0.062745
244.676224 -142.461227 3.485019 0.616175
244.676224 -142.461227 2.889737 0.539040
244.676224 -142.461212 2.296367 0.554284
244.676239 -142.461212 1.703632 0.649165
244.676224 -142.461227 1.110263 0.461097
244.676224 -142.461212 0.514980 0.593439
244.355255 -143.112030 -0.000025 0.246287
242.629166 -146.611862 -0.000019 0.212406
241.527206 -148.846191 -0.000015 0.236066
240.761307 -150.399124 -0.000013 0.244300
240.197021 -151.543259 -0.000011 0.275620
244.817703 -142.461227 6.552360 0.531563
244.764038 -142.568115 5.899384 0.649454
244.783524 -142.529327 5.293015 0.068757
244.801331 -142.493820 4.690454 0.523400
244.801346 -142.493820 4.086559 0.412802
244.817688 -142.461227 3.490185 0.662028
244.817703 -142.461227 2.892833 0.589258
244.817703 -142.461212 2.297398 0.470893
244.817703 -142.461212 1.702602 0.589090
244.817703 -142.461227 1.107167 0.548241
