# This PCD file was generated using the MATLABÂ® pcwrite function
# from Computer Vision ToolboxÂ®.
# .PCD v.7 - Point Cloud Data file format
VERSION .7
FIELDS x y z intensity
SIZE 4 4 4 4
TYPE F F F F
COUNT 1 1 1 1
WIDTH 1222
HEIGHT 1
VIEWPOINT 0 0 0 1 0 0 0
POINTS 1222
DATA ascii
nan nan nan 0.000000
nan nan nan 0.000000
nan nan nan 0.000000
nan nan nan 0.000000
nan nan nan 0.000000
200.320557 -104.230797 8.332715 0.347997
200.339005 -104.165894 5.790881 0.678431
200.368073 -104.063538 3.260984 0.834073
200.368073 -104.063545 0.739016 0.831724
210.300278 -69.099449 -0.000020 0.229220
214.759720 -53.400993 -0.000013 0.225103
216.674316 -46.661102 -0.000009 0.233469
217.740646 -42.907345 -0.000007 0.233852
218.421402 -40.510895 -0.000006 0.246454
218.894547 -38.845276 -0.000005 0.286152
219.243149 -37.618122 -0.000004 0.190062
214.921371 -52.238464 7.818785 0.542885
214.921448 -52.238197 7.017117 0.549432
214.920731 -52.240658 6.227238 0.581277
214.920776 -52.240486 5.446140 0.538506
214.920654 -52.240929 4.672679 0.570611
214.920700 -52.240765 3.904939 0.566827
214.920700 -52.240761 3.141329 0.540841
214.920700 -52.240761 2.380172 0.544366
214.920700 -52.240761 1.619829 0.563119
214.920700 -52.240761 0.858671 0.580133
214.920700 -52.240768 0.095060 0.566522
216.557678 -46.627525 -0.000009 0.252342
217.650192 -42.881306 -0.000007 0.237514
218.347656 -40.489670 -0.000006 0.207403
218.832428 -38.827393 -0.000005 0.215792
219.189575 -37.602703 -0.000004 0.219622
214.919525 -51.678894 7.684494 0.581247
214.920227 -51.676552 6.900856 0.547127
214.920044 -51.677151 6.128940 0.551369
214.920441 -51.675827 5.365827 0.578363
214.920792 -51.674656 4.610199 0.532036
214.920700 -51.674969 3.860447 0.573938
214.920700 -51.674965 3.114672 0.542428
214.920700 -51.674961 2.371292 0.556405
214.920700 -51.674961 1.628708 0.569680
214.920700 -51.674965 0.885328 0.561685
214.920700 -51.674969 0.139553 0.551843
216.441284 -46.593143 -0.000009 0.219299
217.559906 -42.854641 -0.000007 0.242768
218.274063 -40.467926 -0.000006 0.227844
218.770416 -38.809074 -0.000005 0.254927
219.136124 -37.586910 -0.000004 0.238519
214.921463 -51.132477 7.553363 0.558953
214.921661 -51.131832 6.788173 0.562783
214.921066 -51.133785 6.034266 0.568948
214.921036 -51.133877 5.288866 0.573587
214.920776 -51.134724 4.550754 0.548592
214.920700 -51.134972 3.818072 0.552819
214.920700 -51.134975 3.089284 0.567132
214.920700 -51.134975 2.362836 0.556863
214.920700 -51.134972 1.637165 0.561074
214.920700 -51.134972 0.910716 0.596521
214.920700 -51.134975 0.181927 0.547936
216.325134 -46.557941 -0.000009 0.213854
217.469833 -42.827343 -0.000007 0.219251
218.200623 -40.445675 -0.000006 0.221741
218.708557 -38.790329 -0.000005 0.223237
219.082779 -37.570744 -0.000004 0.192060
214.921661 -50.615932 7.429785 0.542458
214.920624 -50.619263 6.682520 0.543694
214.920471 -50.619724 5.944972 0.533410
214.920746 -50.618874 5.215924 0.571328
214.920715 -50.618988 4.494097 0.564355
214.920700 -50.618996 3.777669 0.562890
214.920700 -50.618996 3.065076 0.553048
214.920700 -50.618996 2.354772 0.544503
214.920700 -50.618996 1.645228 0.575494
214.920700 -50.618996 0.934924 0.562005
214.920700 -50.618996 0.222330 0.577249
216.209213 -46.521935 -0.000009 0.252570
217.379944 -42.799416 -0.000007 0.264095
218.127335 -40.422909 -0.000006 0.213124
218.646820 -38.771149 -0.000005 0.239561
219.029541 -37.554207 -0.000004 0.219658
214.920227 -50.126949 7.313180 0.523110
214.920975 -50.124634 6.580700 0.571984
214.920822 -50.125092 5.859191 0.530327
214.920502 -50.126068 5.146278 0.569253
214.920654 -50.125587 4.440012 0.548714
214.920700 -50.125450 3.739107 0.539452
214.920700 -50.125446 3.041972 0.534691
214.920700 -50.125443 2.347076 0.527245
214.920700 -50.125443 1.652924 0.592508
214.920700 -50.125446 0.958028 0.579660
214.920700 -50.125446 0.260893 0.551095
216.093567 -46.485119 -0.000009 0.249901
217.290253 -42.770859 -0.000007 0.251971
218.054230 -40.399632 -0.000006 0.226935
218.585220 -38.751537 -0.000005 0.248884
218.976425 -37.537300 -0.000004 0.240841
214.920532 -49.653343 7.200368 0.584894
214.920135 -49.654533 6.484224 0.530388
214.920349 -49.653900 5.777704 0.548211
214.920746 -49.652702 5.079508 0.541680
214.920731 -49.652756 4.388293 0.568917
214.920700 -49.652824 3.702263 0.578332
214.920700 -49.652824 3.019897 0.598672
214.920700 -49.652824 2.339723 0.550057
214.920700 -49.652824 1.660277 0.581476
214.920700 -49.652824 0.980103 0.534249
214.920700 -49.652824 0.297737 0.558587
215.978180 -46.447498 -0.000010 0.220699
217.200760 -42.741684 -0.000007 0.263676
217.981262 -40.375847 -0.000006 0.211628
218.523758 -38.731495 -0.000005 0.241655
218.923431 -37.520020 -0.000004 0.223189
214.920837 -49.199379 7.092482 0.545586
214.920517 -49.200348 6.391150 0.532525
214.920685 -49.199860 5.699319 0.552163
214.920563 -49.200211 5.015849 0.556222
214.920700 -49.199799 4.338866 0.542000
214.920700 -49.199783 3.667026 0.531945
214.920715 -49.199776 2.998785 0.550164
214.920700 -49.199783 2.332691 0.574685
214.920700 -49.199783 1.667310 0.554513
214.920715 -49.199776 1.001215 0.542046
214.920700 -49.199783 0.332974 0.554345
215.863037 -46.409065 -0.000009 0.227712
217.111465 -42.711880 -0.000007 0.210263
217.908478 -40.351547 -0.000006 0.249805
218.462433 -38.711029 -0.000005 0.220197
218.870560 -37.502369 -0.000004 0.239836
214.919769 -48.767803 6.990265 0.575204
214.920853 -48.764668 6.302078 0.572915
214.920303 -48.766258 5.624681 0.588693
214.920761 -48.764942 4.954738 0.531838
214.920685 -48.765163 4.291550 0.538018
214.920715 -48.765106 3.633298 0.593835
214.920715 -48.765106 2.978577 0.552712
214.920715 -48.765106 2.325960 0.600855
214.920715 -48.765102 1.674041 0.549050
214.920715 -48.765106 1.021423 0.535790
214.920715 -48.765102 0.366702 0.545052
215.748184 -46.369835 -0.000009 0.218952
217.022385 -42.681458 -0.000007 0.223476
217.835861 -40.326744 -0.000006 0.213435
218.401245 -38.690132 -0.000005 0.233230
218.817810 -37.484352 -0.000004 0.218928
214.920135 -48.349258 6.891261 0.538415
214.920242 -48.348980 6.217366 0.566552
214.920609 -48.347908 5.552798 0.571359
214.920624 -48.347900 4.896344 0.555230
214.920715 -48.347626 4.246202 0.590036
214.920715 -48.347641 3.600983 0.519921
214.920715 -48.347637 2.959215 0.560128
214.920715 -48.347641 2.319510 0.549889
214.920715 -48.347641 1.680490 0.571313
214.920715 -48.347633 1.040784 0.562158
214.920715 -48.347637 0.399018 0.534142
215.633606 -46.329803 -0.000009 0.233900
216.933533 -42.650410 -0.000007 0.195854
217.763412 -40.301434 -0.000006 0.231291
218.340225 -38.668808 -0.000004 0.202508
218.765182 -37.465969 -0.000004 0.250775
214.920471 -47.947021 6.796349 0.555657
214.920578 -47.946732 6.135528 0.553231
214.920319 -47.947464 5.484201 0.603113
214.920792 -47.946152 4.840215 0.544900
214.920715 -47.946365 4.202732 0.586572
214.920715 -47.946362 3.569997 0.574350
214.920715 -47.946358 2.940651 0.613153
214.920715 -47.946358 2.313327 0.574212
214.920715 -47.946358 1.686673 0.536095
214.920715 -47.946358 1.059349 0.555795
214.920715 -47.946358 0.430003 0.545769
215.519318 -46.288979 -0.000009 0.236030
216.844879 -42.618744 -0.000007 0.230429
217.691147 -40.275623 -0.000006 0.210311
218.279343 -38.647064 -0.000005 0.206852
218.712692 -37.447220 -0.000004 0.221226
214.920792 -47.560089 6.705279 0.580667
214.920883 -47.559822 6.057007 0.561898
214.920593 -47.560631 5.418065 0.567575
214.920670 -47.560417 4.786473 0.583215
214.920715 -47.560295 4.161012 0.578103
214.920715 -47.560303 3.540262 0.543954
214.920715 -47.560303 2.922835 0.577890
214.920715 -47.560299 2.307392 0.527092
214.920715 -47.560299 1.692608 0.587549
214.920715 -47.560299 1.077164 0.538537
214.920715 -47.560303 0.459738 0.535973
215.405304 -46.247345 -0.000009 0.237801
216.756470 -42.586464 -0.000007 0.229591
217.619064 -40.249302 -0.000005 0.241559
218.218613 -38.624889 -0.000005 0.223990
218.660324 -37.428097 -0.000004 0.197159
214.920013 -47.190422 6.618589 0.560357
214.920395 -47.189407 5.982088 0.524269
214.920837 -47.188255 5.354567 0.537682
214.920578 -47.188934 4.734848 0.589059
214.920715 -47.188576 4.120945 0.559335
214.920715 -47.188576 3.511704 0.540337
214.920715 -47.188576 2.905725 0.529702
214.920715 -47.188580 2.301693 0.547707
214.920715 -47.188576 1.698307 0.589303
214.920715 -47.188576 1.094274 0.591470
214.920715 -47.188576 0.488295 0.532815
215.291580 -46.204922 -0.000009 0.222818
216.668274 -42.553562 -0.000007 0.244336
217.547180 -40.222481 -0.000005 0.221178
218.158035 -38.602295 -0.000005 0.239513
218.608093 -37.408615 -0.000004 0.255370
214.920349 -46.831318 6.534504 0.536233
214.920700 -46.830406 5.909610 0.541283
214.920593 -46.830688 5.293785 0.523888
214.920715 -46.830376 4.685141 0.540932
214.920715 -46.830372 4.082438 0.543770
214.920715 -46.830368 3.484257 0.563790
214.920715 -46.830368 2.889281 0.549905
214.920715 -46.830368 2.296216 0.547066
214.920715 -46.830368 1.703785 0.613733
214.920715 -46.830368 1.110719 0.513420
214.920715 -46.830368 0.515742 0.530098
215.178162 -46.161713 -0.000009 0.230022
216.580322 -42.520042 -0.000007 0.248572
217.475464 -40.195156 -0.000005 0.231195
218.097626 -38.579277 -0.000005 0.214524
218.556015 -37.388767 -0.000004 0.218138
214.920654 -46.485069 6.453645 0.540871
214.920975 -46.484261 5.839914 0.518776
214.920807 -46.484680 5.235095 0.515679
214.920639 -46.485115 4.637414 0.541695
214.920715 -46.484921 4.045400 0.590173
214.920715 -46.484917 3.457860 0.528038
214.920715 -46.484921 2.873465 0.576318
214.920715 -46.484924 2.290947 0.535012
214.920715 -46.484921 1.709053 0.581796
214.920715 -46.484921 1.126535 0.516915
214.920715 -46.484917 0.542140 0.560433
215.065048 -46.117706 -0.000009 0.242900
216.492599 -42.485916 -0.000006 0.242732
217.403946 -40.167336 -0.000005 0.252642
218.037384 -38.555836 -0.000005 0.219897
218.504059 -37.368557 -0.000004 0.235432
214.920944 -46.150963 6.375839 0.568048
214.920578 -46.151867 5.773223 0.569329
214.920609 -46.151794 5.178815 0.541772
214.920746 -46.151459 4.591409 0.536675
214.920715 -46.151520 4.009753 0.550179
214.920715 -46.151524 3.432453 0.542550
214.920715 -46.151520 2.858242 0.546700
214.920715 -46.151520 2.285877 0.517601
214.920715 -46.151520 1.714123 0.566094
214.920715 -46.151520 1.141757 0.542824
214.920715 -46.151524 0.567547 0.563149
214.952255 -46.072906 -0.000009 0.237933
216.405106 -42.451176 -0.000007 0.250356
217.332626 -40.139015 -0.000005 0.260600
217.977295 -38.531979 -0.000005 0.244707
218.452255 -37.347980 -0.000004 0.270306
214.920639 -45.829731 6.301291 0.610910
214.920486 -45.830086 5.708818 0.573953
214.920624 -45.829765 5.124507 0.592920
214.920639 -45.829742 4.547186 0.550240
214.920715 -45.829536 3.975423 0.595209
214.920715 -45.829533 3.407983 0.535836
214.920715 -45.829536 2.843582 0.537667
214.920715 -45.829540 2.280993 0.556268
214.920715 -45.829540 1.719007 0.590188
214.920715 -45.829536 1.156418 0.552911
214.920715 -45.829533 0.592016 0.549432
214.920715 -45.829536 0.024577 0.551980
216.317871 -42.415825 -0.000007 0.193377
217.261520 -40.110199 -0.000006 0.195244
217.917389 -38.507698 -0.000005 0.220783
218.400589 -37.327049 -0.000004 0.230010
214.885986 -45.601547 6.251785 0.512261
214.885910 -45.601715 5.666089 0.532509
214.885925 -45.601685 5.088565 0.525582
214.885895 -45.601780 4.517904 0.563851
214.920731 -45.518326 3.942336 0.829541
214.920700 -45.518372 3.384404 0.541650
214.920715 -45.518368 2.829455 0.555306
214.920715 -45.518368 2.276287 0.535241
214.920715 -45.518368 1.723713 0.573144
214.920715 -45.518368 1.170545 0.559152
214.920715 -45.518372 0.615595 0.590646
214.920715 -45.518368 0.057659 0.577981
216.230881 -42.379868 -0.000007 0.222207
217.190598 -40.080883 -0.000006 0.276122
217.857635 -38.483002 -0.000005 0.216463
218.349075 -37.305756 -0.000004 0.204866
214.757217 -45.601494 6.264301 0.666117
214.757172 -45.601616 5.676871 0.541146
214.757065 -45.601875 5.097706 0.582666
214.757111 -45.601734 4.525317 0.548409
214.821228 -45.451134 3.939659 0.822019
214.856125 -45.369141 3.375186 0.672740
214.856125 -45.369141 2.823932 0.695644
214.856125 -45.369141 2.274447 0.681895
214.799667 -45.501778 1.723193 0.819730
214.799667 -45.501774 1.168986 0.819669
214.799667 -45.501774 0.612994 0.825833
214.799667 -45.501778 0.054009 0.828580
216.144150 -42.343307 -0.000007 0.199708
217.119888 -40.051075 -0.000006 0.225630
217.798065 -38.457890 -0.000005 0.202329
218.297714 -37.284103 -0.000004 0.216822
214.627396 -45.602100 6.277282 0.599710
214.627441 -45.601982 5.688006 0.525002
214.627533 -45.601780 5.106997 0.587442
214.627533 -45.601788 4.532915 0.517647
214.693024 -45.450863 3.945455 0.830350
214.723740 -45.380077 3.380296 0.676921
214.721344 -45.385590 2.827289 0.777111
214.730515 -45.364479 2.275190 0.642466
214.670929 -45.501778 1.722362 0.827146
214.670929 -45.501774 1.166489 0.820676
214.670929 -45.501774 0.608826 0.831632
214.670929 -45.501774 0.048161 0.824475
216.057663 -42.306137 -0.000007 0.217875
217.049393 -40.020771 -0.000006 0.206864
217.738678 -38.432362 -0.000005 0.217504
218.246506 -37.262093 -0.000004 0.209210
214.497070 -45.602062 6.290375 0.535775
214.497131 -45.601898 5.699284 0.588174
214.497223 -45.601700 5.116497 0.585382
214.497208 -45.601753 4.540669 0.527459
214.563812 -45.451134 3.951448 0.823423
214.541412 -45.501778 3.395436 0.834409
214.541412 -45.501778 2.836064 0.827268
214.541412 -45.501778 2.278489 0.838483
214.541412 -45.501778 1.721511 0.835630
214.541412 -45.501778 1.163936 0.835355
214.541412 -45.501778 0.604564 0.827451
214.541412 -45.501778 0.042182 0.829709
215.971451 -42.268364 -0.000007 0.210383
216.979095 -39.989979 -0.000005 0.197589
217.679459 -38.406418 -0.000005 0.228873
218.195450 -37.239723 -0.000004 0.265124
214.372604 -45.587196 6.299683 0.666758
214.366013 -45.601822 5.710814 0.555825
214.365997 -45.601883 5.126262 0.571725
214.366028 -45.601799 4.548607 0.545113
214.433792 -45.451416 3.957575 0.823041
214.411102 -45.501774 3.399791 0.821317
214.411102 -45.501778 2.838674 0.819608
214.411102 -45.501774 2.279358 0.826322
214.411102 -45.501774 1.720642 0.836820
214.411102 -45.501778 1.161326 0.825650
214.411102 -45.501774 0.600208 0.824323
214.411102 -45.501778 0.036070 0.828305
215.885498 -42.229988 -0.000007 0.244037
216.909027 -39.958698 -0.000005 0.256639
217.620422 -38.380066 -0.000005 0.209234
218.144547 -37.217003 -0.000004 0.214739
214.249100 -45.569000 6.308342 0.872099
214.234055 -45.601761 5.722601 0.571038
214.234039 -45.601810 5.136190 0.521569
214.234055 -45.601776 4.556708 0.573541
214.303314 -45.450916 3.963738 0.826658
214.279968 -45.501774 3.404243 0.826535
214.279968 -45.501774 2.841341 0.825238
214.279968 -45.501774 2.280246 0.817151
214.279968 -45.501774 1.719753 0.819608
214.279968 -45.501774 1.158659 0.815427
214.279968 -45.501774 0.595756 0.824247
214.279968 -45.501770 0.029824 0.828260
215.799820 -42.191021 -0.000007 0.255107
216.839172 -39.926926 -0.000005 0.198224
217.561569 -38.353298 -0.000005 0.270414
218.093811 -37.193924 -0.000004 0.202712
214.117966 -45.565975 6.321464 0.860044
214.101257 -45.601719 5.734652 0.584314
214.101242 -45.601749 5.146338 0.535332
214.101212 -45.601807 4.564997 0.559518
214.171402 -45.451672 3.970196 0.825833
214.173676 -45.446815 3.403818 0.660258
214.160339 -45.475338 2.842633 0.672404
214.173676 -45.446815 2.280162 0.723720
214.160339 -45.475338 1.719323 0.686397
214.160339 -45.475334 1.157367 0.686397
214.160339 -45.475338 0.593600 0.686519
214.147980 -45.501774 0.023441 0.835691
215.714401 -42.151447 -0.000007 0.205680
216.769547 -39.894669 -0.000005 0.258482
217.502914 -38.326118 -0.000005 0.221118
218.043228 -37.170486 -0.000004 0.241260
213.967484 -45.601875 6.345682 0.607233
213.967545 -45.601727 5.746975 0.583535
213.967560 -45.601704 5.156712 0.520272
213.967514 -45.601791 4.573458 0.577844
214.039505 -45.450592 3.976559 0.828580
214.041290 -45.446815 3.408450 0.720043
214.027725 -45.475342 2.845413 0.678431
214.041290 -45.446815 2.281086 0.725780
214.027725 -45.475334 1.718397 0.678431
214.027725 -45.475338 1.154586 0.678431
214.027725 -45.475334 0.588960 0.678431
214.015137 -45.501774 0.016920 0.825910
215.629272 -42.111286 -0.000007 0.215350
216.700150 -39.861923 -0.000005 0.223691
217.444458 -38.298534 -0.000004 0.235731
217.992813 -37.146702 -0.000004 0.241069
213.881393 -45.501785 6.332419 0.703166
213.881393 -45.501785 5.735575 0.670237
213.881393 -45.501785 5.147111 0.705531
213.881393 -45.501785 4.565617 0.678981
213.905579 -45.451878 3.983363 0.821027
213.908035 -45.446815 3.413181 0.717800
213.894211 -45.475342 2.848253 0.678431
213.908035 -45.446815 2.282030 0.757824
213.894211 -45.475342 1.717451 0.678431
213.894211 -45.475338 1.151747 0.678431
213.894211 -45.475338 0.584220 0.678431
213.881409 -45.501774 0.010259 0.823331
215.544434 -42.070526 -0.000007 0.220927
216.630981 -39.828697 -0.000005 0.231734
217.386185 -38.270542 -0.000005 0.205333
217.942566 -37.122566 -0.000004 0.217743
213.728989 -45.537804 6.357295 0.693553
213.728989 -45.537804 5.757024 0.711208
213.728989 -45.537804 5.165180 0.703471
213.728989 -45.537804 4.580348 0.702831
213.774689 -45.445156 3.989283 0.827710
213.746750 -45.501778 3.423039 0.827451
213.759796 -45.475338 2.851154 0.678431
213.773865 -45.446815 2.282995 0.771923
213.759796 -45.475338 1.716485 0.678431
213.759796 -45.475334 1.148846 0.678431
213.759796 -45.475338 0.579378 0.678431
213.746765 -45.501770 0.003455 0.828779
215.459869 -42.029175 -0.000006 0.231758
216.562042 -39.794987 -0.000005 0.195088
217.328094 -38.242142 -0.000004 0.221034
217.892502 -37.098080 -0.000003 0.243127
213.513443 -45.696480 6.416934 0.678431
213.553253 -45.617161 5.789278 0.678431
213.553253 -45.617165 5.192355 0.678431
213.593094 -45.537804 4.589329 0.673396
213.624268 -45.475723 4.000141 0.827054
213.611191 -45.501778 3.427991 0.827115
213.624451 -45.475342 2.854117 0.678431
213.638779 -45.446815 2.283980 0.732341
213.624451 -45.475338 1.715498 0.678431
213.624451 -45.475342 1.145883 0.678431
213.624451 -45.475338 0.574434 0.678431
213.611191 -45.501770 -0.003494 0.818402
215.375595 -41.987236 -0.000007 0.227557
216.493347 -39.760796 -0.000005 0.196644
217.270233 -38.213341 -0.000005 0.239022
217.842590 -37.073246 -0.000004 0.261617
213.375198 -45.696480 6.432577 0.678431
213.415726 -45.617157 5.802698 0.678431
213.415726 -45.617161 5.203661 0.678431
213.456253 -45.537804 4.598499 0.702541
213.473953 -45.503166 4.010770 0.826459
213.474655 -45.501774 3.433048 0.822522
213.488159 -45.475338 2.857141 0.678431
213.502731 -45.446819 2.284986 0.705577
213.488159 -45.475342 1.714490 0.678431
213.488159 -45.475338 1.142858 0.678431
213.488159 -45.475334 0.569385 0.678431
213.516495 -45.419861 -0.000009 0.242589
215.291626 -41.944710 -0.000006 0.216092
216.424896 -39.726128 -0.000005 0.253192
217.212555 -38.184132 -0.000004 0.247962
217.792862 -37.048061 -0.000004 0.239884
213.235977 -45.696480 6.448550 0.678431
213.277191 -45.617157 5.816401 0.678431
213.277191 -45.617165 5.215205 0.678431
213.277191 -45.617165 4.621129 0.682643
213.335571 -45.504826 4.018230 0.828473
213.337158 -45.501774 3.438213 0.823163
213.350891 -45.475342 2.860230 0.678431
213.365723 -45.446815 2.286013 0.764736
213.350891 -45.475342 1.713461 0.678431
213.350891 -45.475342 1.139770 0.678431
213.350891 -45.475338 0.564230 0.678431
213.408600 -45.364273 -0.000009 0.246705
215.207947 -41.901600 -0.000006 0.224721
216.356674 -39.690987 -0.000006 0.203490
217.155090 -38.154526 -0.000004 0.189355
217.743317 -37.022530 -0.000004 0.210036
213.137665 -45.617165 6.442384 0.707469
213.145416 -45.602486 5.826805 0.712581
213.145416 -45.602489 5.223970 0.686549
213.145416 -45.602493 4.628277 0.685603
213.197433 -45.504070 4.025531 0.822980
213.198654 -45.501778 3.443484 0.827909
213.212631 -45.475338 2.863383 0.678431
213.227692 -45.446815 2.287061 0.716274
213.212616 -45.475342 1.712411 0.678431
213.212631 -45.475338 1.136617 0.678431
213.212631 -45.475342 0.558967 0.678431
213.301102 -45.307930 -0.000009 0.220233
215.124573 -41.857903 -0.000006 0.190337
216.288712 -39.655365 -0.000005 0.228610
217.097824 -38.124512 -0.000004 0.238113
217.693939 -36.996655 -0.000003 0.191079
212.954468 -45.696487 6.481503 0.678431
212.997101 -45.617176 5.844674 0.678431
212.997101 -45.617168 5.239022 0.678431
212.997101 -45.617172 4.640546 0.678431
213.057266 -45.505241 4.033235 0.825193
213.059128 -45.501774 3.448866 0.823835
213.073334 -45.475342 2.866602 0.678431
213.088669 -45.446815 2.288131 0.688167
213.073334 -45.475338 1.711339 0.678431
213.073334 -45.475342 1.133398 0.678431
213.073334 -45.475338 0.553594 0.678431
213.194000 -45.250839 -0.000009 0.217372
215.041519 -41.813633 -0.000006 0.236377
216.220993 -39.619270 -0.000005 0.234690
217.040771 -38.094105 -0.000004 0.216247
217.644745 -36.970436 -0.000004 0.212549
212.812119 -45.696487 6.498493 0.678431
212.855469 -45.617168 5.859248 0.678431
212.855469 -45.617165 5.251302 0.678431
212.855469 -45.617168 4.650557 0.678431
212.917145 -45.504337 4.040824 0.826307
212.918549 -45.501774 3.454359 0.827451
212.932983 -45.475338 2.869888 0.678431
212.948578 -45.446815 2.289224 0.698878
212.932983 -45.475342 1.710245 0.678431
212.932983 -45.475342 1.130112 0.678431
212.932983 -45.475342 0.548111 0.678431
213.087296 -45.193005 -0.000009 0.208145
214.958755 -41.768776 -0.000006 0.229185
216.153534 -39.582703 -0.000005 0.259296
216.983932 -38.063301 -0.000004 0.200653
217.595749 -36.943874 -0.000003 0.217253
212.668701 -45.696484 6.515832 0.678431
212.712769 -45.617165 5.874123 0.678431
212.712769 -45.617165 5.263834 0.678431
212.712769 -45.617161 4.660772 0.678431
212.775620 -45.504047 4.048653 0.819242
212.776886 -45.501778 3.459965 0.821759
212.791580 -45.475342 2.873240 0.678431
212.807419 -45.446815 2.290338 0.715785
212.791565 -45.475342 1.709128 0.678431
212.791565 -45.475342 1.126759 0.678431
212.791565 -45.475342 0.542514 0.678431
212.981003 -45.134422 -0.000008 0.229591
214.876328 -41.723347 -0.000007 0.257848
216.086319 -39.545666 -0.000005 0.256938
216.927322 -38.032097 -0.000004 0.220723
217.546921 -36.916973 -0.000004 0.223655
212.568939 -45.617165 6.510710 0.700114
212.591171 -45.577827 5.879547 0.742947
212.591171 -45.577827 5.268403 0.697429
212.591171 -45.577827 4.664497 0.708949
212.632599 -45.504478 4.056738 0.825833
212.634125 -45.501778 3.465686 0.836912
212.649048 -45.475342 2.876663 0.678431
212.665161 -45.446815 2.291476 0.775967
212.649048 -45.475342 1.707988 0.678431
212.649048 -45.475342 1.123337 0.678431
212.649048 -45.475346 0.536803 0.678431
212.875107 -45.075104 -0.000008 0.225893
214.794205 -41.677341 -0.000006 0.234403
216.019379 -39.508163 -0.000005 0.269444
216.870911 -38.000504 -0.000004 0.237466
217.498291 -36.889725 -0.000004 0.214404
212.378448 -45.696491 6.551589 0.678431
212.423996 -45.617165 5.904796 0.678431
212.423996 -45.617165 5.289675 0.678431
212.423996 -45.617161 4.681839 0.678431
212.488739 -45.504379 4.064918 0.821775
212.490234 -45.501778 3.471524 0.828153
212.505402 -45.475346 2.880155 0.678431
212.521774 -45.446815 2.292637 0.709804
212.505402 -45.475342 1.706825 0.678431
212.505402 -45.475346 1.119845 0.678431
212.505402 -45.475346 0.530974 0.678431
212.769638 -45.015045 -0.000008 0.219826
214.712402 -41.630760 -0.000006 0.231339
215.952682 -39.470192 -0.000005 0.209282
216.814743 -37.968513 -0.000004 0.257189
217.449860 -36.862144 -0.000004 0.279270
212.231583 -45.696495 6.570016 0.678431
212.277863 -45.617161 5.920603 0.678431
212.277863 -45.617157 5.302992 0.678431
212.277863 -45.617161 4.692696 0.678431
212.343643 -45.504417 4.073281 0.822034
212.345184 -45.501778 3.477482 0.822675
212.360596 -45.475342 2.883718 0.678431
212.377243 -45.446815 2.293822 0.735927
212.360596 -45.475346 1.705638 0.678431
212.360596 -45.475342 1.116282 0.678431
212.360596 -45.475346 0.525027 0.678431
212.664581 -44.954262 -0.000009 0.219933
214.630936 -41.583618 -0.000006 0.203669
215.886276 -39.431755 -0.000005 0.230477
216.758789 -37.936131 -0.000004 0.236030
217.401611 -36.834225 -0.000004 0.213471
212.083511 -45.696499 6.588819 0.678431
212.130539 -45.617161 5.936733 0.678431
212.130554 -45.617161 5.316580 0.678431
212.130554 -45.617161 4.703773 0.678431
212.197357 -45.504440 4.081814 0.827237
212.198944 -45.501778 3.483560 0.821881
212.214615 -45.475342 2.887354 0.678431
212.231522 -45.446815 2.295031 0.673106
212.214615 -45.475346 1.704427 0.678431
212.214615 -45.475346 1.112646 0.678431
212.214615 -45.475342 0.518959 0.678431
212.559967 -44.892727 -0.000008 0.241835
214.549789 -41.535900 -0.000006 0.217109
215.820129 -39.392853 -0.000005 0.262347
216.703064 -37.903358 -0.000004 0.215122
217.353561 -36.805969 -0.000003 0.187321
211.934235 -45.696487 6.607996 0.678431
212.029800 -45.537804 5.933180 0.735164
212.029800 -45.537804 5.313587 0.701427
212.029800 -45.537800 4.701333 0.729351
212.049576 -45.504944 4.090585 0.819791
212.051483 -45.501778 3.489761 0.833936
212.067413 -45.475342 2.891062 0.678431
212.084595 -45.446815 2.296264 0.702693
212.067413 -45.475346 1.703191 0.678431
212.067413 -45.475346 1.108937 0.678431
212.067413 -45.475349 0.512768 0.672831
212.455780 -44.830475 -0.000008 0.225439
214.468994 -41.487621 -0.000006 0.218473
215.754257 -39.353500 -0.000005 0.249075
216.647568 -37.870201 -0.000004 0.241380
217.305710 -36.777378 -0.000003 0.201694
211.783676 -45.696487 6.627564 0.678431
211.832199 -45.617168 5.969979 0.678431
211.832199 -45.617172 5.344590 0.678431
211.832199 -45.617172 4.726607 0.678431
211.901352 -45.504124 4.099352 0.817182
211.902786 -45.501778 3.496088 0.825360
211.902802 -45.501770 2.896369 0.820249
211.902802 -45.501766 2.298576 0.824414
211.902802 -45.501762 1.701424 0.822904
211.902802 -45.501766 1.103631 0.820676
211.902802 -45.501770 0.503913 0.821256
212.352020 -44.767498 -0.000008 0.216894
214.388519 -41.438778 -0.000006 0.234187
215.688660 -39.313679 -0.000005 0.240482
216.592300 -37.836655 -0.000004 0.265722
217.258057 -36.748451 -0.000003 0.249937
211.631821 -45.696487 6.647530 0.694118
211.681107 -45.617172 5.987105 0.678431
211.681107 -45.617172 5.359018 0.678431
211.681107 -45.617172 4.738370 0.678431
211.751038 -45.504646 4.108479 0.824537
211.819031 -45.395226 3.492256 0.869841
211.766571 -45.479645 2.898956 0.819608
211.766571 -45.479649 2.299438 0.819608
211.766571 -45.479649 1.700562 0.820417
211.766571 -45.479645 1.101044 0.819608
211.766571 -45.479649 0.499594 0.819608
212.248718 -44.703796 -0.000009 0.214895
214.308411 -41.389374 -0.000006 0.242972
215.623337 -39.273403 -0.000005 0.219514
216.537262 -37.802727 -0.000004 0.244791
217.210617 -36.719193 -0.000003 0.284488
211.491058 -45.676830 6.662071 0.687495
211.528702 -45.617176 6.004578 0.678431
211.528702 -45.617172 5.373737 0.678431
211.528702 -45.617176 4.750370 0.678431
211.599152 -45.505569 4.117844 0.817823
211.616791 -45.477608 3.506783 0.856275
211.601547 -45.501774 2.904181 0.826780
211.601547 -45.501766 2.301178 0.826307
211.601547 -45.501766 1.698822 0.135988
211.601547 -45.501770 1.095819 0.131029
211.601547 -45.501766 0.490875 0.153368
212.145844 -44.639370 -0.000008 0.235264
214.228622 -41.339413 -0.000006 0.281676
215.558304 -39.232674 -0.000005 0.221513
216.482483 -37.768410 -0.000004 0.202257
217.163361 -36.689610 -0.000003 0.196811
211.425842 -45.537800 6.641453 0.677119
211.425842 -45.537800 6.002036 0.711864
211.425842 -45.537796 5.371597 0.698878
211.425842 -45.537800 4.748625 0.718700
211.447617 -45.503807 4.127028 0.820645
211.448929 -45.501778 3.515841 0.826993
211.465866 -45.475346 2.906662 0.678431
211.448929 -45.501766 2.302519 0.835660
211.448929 -45.501766 1.697481 0.249302
211.448929 -45.501766 1.091796 0.138064
211.448929 -45.501770 0.484158 0.137392
212.043442 -44.574234 -0.000008 0.233397
214.149200 -41.288898 -0.000006 0.234630
215.493561 -39.191490 -0.000005 0.256340
216.427933 -37.733715 -0.000004 0.236377
217.116333 -36.659695 -0.000003 0.193927
211.294937 -45.501778 6.651664 0.738766
211.294937 -45.501774 6.010839 0.720592
211.294937 -45.501778 5.379014 0.711498
211.294937 -45.501778 4.754671 0.689998
211.296173 -45.499878 4.136102 0.818601
211.294937 -45.501778 3.522692 0.823819
211.312134 -45.475349 2.910760 0.678431
211.294937 -45.501766 2.303886 0.816770
211.265778 -45.546585 1.695239 0.678431
211.265762 -45.546585 1.085064 0.678431
211.294937 -45.501770 0.477307 0.156909
211.941483 -44.508377 -0.000008 0.217372
214.070145 -41.237823 -0.000006 0.248716
215.429092 -39.149857 -0.000005 0.200964
216.373627 -37.698639 -0.000004 0.233266
217.069504 -36.629448 -0.000003 0.245485
211.073456 -45.601772 6.703033 0.517647
211.073456 -45.601772 6.055132 0.577813
211.073456 -45.601772 5.416330 0.616220
211.073456 -45.601776 4.785092 0.562692
211.159760 -45.471180 4.141947 0.831952
211.209534 -45.395855 3.519270 0.752178
211.156998 -45.475342 2.914939 0.678431
211.139542 -45.501770 2.305280 0.826810
211.109924 -45.546585 1.693841 0.678431
211.109924 -45.546589 1.080865 0.678431
211.139542 -45.501774 0.470319 0.142672
211.839996 -44.441822 -0.000008 0.236617
213.991425 -41.186203 -0.000006 0.245198
215.364929 -39.107773 -0.000005 0.245604
216.319565 -37.663185 -0.000004 0.272532
217.022903 -36.598881 -0.000003 0.243570
210.947891 -45.553665 6.710436 0.643549
210.945328 -45.557480 6.062508 0.740215
210.915604 -45.601776 5.432248 0.545342
210.915604 -45.601776 4.798070 0.550301
211.017487 -45.449921 4.148982 0.834577
211.051086 -45.399857 3.526744 0.806226
211.000427 -45.475342 2.919203 0.678431
210.982712 -45.501766 2.306702 0.822003
210.952637 -45.546585 1.692414 0.678431
210.952637 -45.546589 1.076583 0.678431
210.982697 -45.501778 0.463192 0.134798
211.738968 -44.374550 -0.000008 0.225415
213.913086 -41.134029 -0.000006 0.253599
215.301056 -39.065243 -0.000005 0.250200
216.265762 -37.627354 -0.000004 0.226300
216.976501 -36.567986 -0.000003 0.205644
210.818268 -45.510765 6.719717 0.684825
210.818268 -45.510765 6.069518 0.701991
210.756287 -45.601776 5.448484 0.570413
210.756287 -45.601776 4.811305 0.547372
210.858673 -45.451447 4.159361 0.823377
210.867920 -45.437847 3.537735 0.786542
210.842392 -45.475342 2.923550 0.678431
210.824387 -45.501766 2.308154 0.822522
210.793869 -45.546589 1.690959 0.678431
210.793869 -45.546585 1.072214 0.678431
210.824387 -45.501785 0.455921 0.149111
211.638428 -44.306580 -0.000008 0.214344
213.835098 -41.081318 -0.000006 0.221800
215.237488 -39.022266 -0.000005 0.201467
216.212204 -37.591148 -0.000003 0.224828
216.930328 -36.536766 -0.000003 0.241847
210.595428 -45.601776 6.770096 0.548898
210.595428 -45.601776 6.112958 0.590127
210.595428 -45.601776 5.465045 0.509438
210.595428 -45.601776 4.824806 0.570260
210.699707 -45.450932 4.169658 0.826078
210.740723 -45.391613 3.540511 0.771176
210.682831 -45.475342 2.927985 0.678431
210.664566 -45.501770 2.309633 0.821454
210.633575 -45.546589 1.689475 0.678431
210.633575 -45.546593 1.067759 0.678431
210.664551 -45.501785 0.448506 0.137514
211.538345 -44.237904 -0.000008 0.225678
213.757477 -41.028061 -0.000006 0.248261
215.174210 -38.978848 -0.000005 0.195627
216.158890 -37.554573 -0.000004 0.196788
216.884354 -36.505230 -0.000003 0.227952
210.503189 -45.501778 6.762749 0.691432
210.503189 -45.501778 6.106622 0.705562
210.503189 -45.501778 5.459707 0.719463
210.503189 -45.501778 4.820455 0.710231
210.536774 -45.453911 4.180653 0.835325
210.594528 -45.371613 3.546016 0.855970
210.521744 -45.475338 2.932509 0.678431
210.503189 -45.501770 2.311142 0.827451
210.471741 -45.546589 1.687961 0.678431
210.471741 -45.546589 1.063215 0.678431
210.503174 -45.501785 0.440943 0.138354
211.438751 -44.168537 -0.000008 0.212346
213.680252 -40.974258 -0.000006 0.199241
215.111252 -38.934990 -0.000005 0.232153
216.105850 -37.517624 -0.000004 0.194167
216.838623 -36.473370 -0.000003 0.246035
210.314575 -45.537792 6.797388 0.729458
210.314575 -45.537796 6.136490 0.746044
210.314575 -45.537792 5.484869 0.717830
210.314560 -45.537796 4.840968 0.727855
210.370987 -45.458580 4.192101 0.819608
210.413757 -45.398514 3.556374 0.790265
210.359055 -45.475338 2.937122 0.678431
210.340225 -45.501770 2.312682 0.827451
210.308304 -45.546589 1.686418 0.555093
210.308304 -45.546589 1.058580 0.554467
210.340210 -45.501785 0.433230 0.150668
211.339645 -44.098473 -0.000008 0.223703
213.603378 -40.919922 -0.000006 0.230453
215.048584 -38.890694 -0.000005 0.249338
216.053055 -37.480301 -0.000004 0.219215
216.793106 -36.441193 -0.000003 0.188207
210.034897 -45.696484 6.870524 0.678431
210.149597 -45.537796 6.157261 0.696605
210.092224 -45.617176 5.520191 0.678431
210.092224 -45.617172 4.869762 0.678431
210.103348 -45.601780 4.223435 0.590860
210.260696 -45.384064 3.562727 0.842268
210.204956 -45.461197 2.940971 0.701946
210.175629 -45.501770 2.314252 0.836408
210.175629 -45.501778 1.685748 0.169009
210.175629 -45.501778 1.056569 0.150942
210.175629 -45.501781 0.425362 0.145647
211.241028 -44.027718 -0.000007 0.238208
213.526901 -40.865051 -0.000006 0.226540
214.986237 -38.845955 -0.000004 0.207247
216.000534 -37.442616 -0.000004 0.237514
216.747818 -36.408695 -0.000003 0.232655
209.866562 -45.696480 6.895343 0.678431
209.981674 -45.539524 6.178910 0.710307
209.924728 -45.617172 5.538130 0.678431
209.924728 -45.617172 4.884387 0.678431
209.936020 -45.601780 4.234766 0.533410
210.081543 -45.403374 3.572655 0.801770
210.009369 -45.501774 2.948238 0.823774
210.009369 -45.501774 2.315854 0.825498
210.009369 -45.501774 1.684146 0.823011
210.009369 -45.501774 1.051761 0.830289
210.009369 -45.501774 0.417339 0.828000
211.142914 -43.956280 -0.000007 0.217875
213.450806 -40.809643 -0.000005 0.218425
214.924194 -38.800793 -0.000005 0.250188
215.948273 -37.404564 -0.000004 0.192730
216.702744 -36.375885 -0.000003 0.186926
209.755508 -45.617165 6.895894 0.739696
209.814575 -45.537804 6.200058 0.664149
209.769577 -45.598267 5.552138 0.722332
209.769577 -45.598270 4.895807 0.718898
209.766953 -45.601784 4.246323 0.534173
209.938889 -45.370773 3.577456 0.616983
209.841385 -45.501774 2.953142 0.820615
209.841385 -45.501774 2.317487 0.819913
209.841385 -45.501778 1.682513 0.826291
209.841385 -45.501774 1.046857 0.822461
209.841385 -45.501774 0.409154 0.825986
211.045288 -43.884155 -0.000007 0.254293
213.375107 -40.753708 -0.000005 0.203980
214.862488 -38.755192 -0.000004 0.218737
215.896271 -37.366146 -0.000004 0.270665
216.657913 -36.342762 -0.000003 0.181708
209.524628 -45.696491 6.946483 0.678431
209.524628 -45.696491 6.265045 0.678431
209.584518 -45.617165 5.575087 0.678431
209.584534 -45.617161 4.914515 0.678431
209.596146 -45.601784 4.258110 0.528572
209.736313 -45.416149 3.590396 0.713161
209.691620 -45.475346 2.956517 0.687510
209.713150 -45.446831 2.318026 0.762417
209.691620 -45.475342 1.681389 0.684062
209.691620 -45.475342 1.043483 0.689952
209.691620 -45.475342 0.403522 0.689952
210.948181 -43.811356 -0.000008 0.219646
213.299789 -40.697247 -0.000005 0.212765
214.801086 -38.709164 -0.000005 0.247447
215.844543 -37.327370 -0.000003 0.210168
216.613312 -36.309330 -0.000003 0.219730
209.350952 -45.696487 6.972820 0.678431
209.350952 -45.696487 6.287753 0.678431
209.411728 -45.617165 5.594122 0.678431
209.411728 -45.617165 4.930034 0.678431
209.423508 -45.601784 4.270134 0.563226
209.583542 -45.392910 3.596463 0.870588
209.520386 -45.475342 2.961610 0.678431
209.500137 -45.501774 2.320853 0.832654
209.520386 -45.475342 1.679693 0.678431
209.520386 -45.475342 1.038390 0.678431
209.520386 -45.475342 0.395021 0.678431
210.851578 -43.737869 -0.000007 0.234953
213.224869 -40.640259 -0.000005 0.188709
214.740005 -38.662704 -0.000004 0.226671
215.793091 -37.288227 -0.000003 0.205871
216.568954 -36.275581 -0.000002 0.252151
209.215317 -45.645142 6.983393 0.729213
209.215317 -45.645142 6.296870 0.681804
209.237061 -45.617168 5.613540 0.686397
209.237076 -45.617161 4.945862 0.680262
209.249023 -45.601784 4.282398 0.591485
209.411087 -45.393295 3.605127 0.807843
209.347305 -45.475342 2.966804 0.678431
209.326767 -45.501778 2.322586 0.833356
209.347305 -45.475342 1.677962 0.678431
209.347305 -45.475338 1.033195 0.678431
209.347305 -45.475342 0.386351 0.678431
210.755493 -43.663715 -0.000007 0.228730
213.150360 -40.582752 -0.000005 0.238472
214.679260 -38.615822 -0.000004 0.207786
215.741913 -37.248734 -0.000003 0.229663
216.524826 -36.241524 -0.000003 0.219646
208.997940 -45.696491 7.027088 0.678431
208.997955 -45.696487 6.334543 0.678431
209.086899 -45.583683 5.625586 0.704677
209.060501 -45.617172 4.962009 0.678431
209.072632 -45.601784 4.294908 0.560601
209.231277 -45.400593 3.614687 0.661143
209.172333 -45.475342 2.972104 0.678431
209.151489 -45.501778 2.324354 0.823850
209.172333 -45.475342 1.676197 0.678431
209.172333 -45.475342 1.027896 0.678431
209.172333 -45.475342 0.377507 0.678431
210.659927 -43.588898 -0.000007 0.226970
213.076233 -40.524727 -0.000005 0.240985
214.618835 -38.568516 -0.000004 0.206051
215.691010 -37.208881 -0.000003 0.287324
216.480927 -36.207161 -0.000003 0.204591
208.818527 -45.696487 7.055038 0.678431
208.818527 -45.696484 6.358644 0.678431
208.945465 -45.537800 5.635054 0.734661
208.881973 -45.617172 4.978478 0.678431
208.894287 -45.601780 4.307667 0.524498
209.054474 -45.401539 3.623764 0.597269
208.995438 -45.475342 2.977508 0.678431
208.974289 -45.501774 2.326158 0.820981
208.995438 -45.475338 1.674396 0.678431
208.995438 -45.475342 1.022491 0.678431
208.995438 -45.475342 0.368486 0.678431
210.564880 -43.513412 -0.000007 0.231111
213.002533 -40.466187 -0.000005 0.215290
214.558746 -38.520794 -0.000004 0.232703
215.640381 -37.168674 -0.000003 0.207882
216.437286 -36.172493 -0.000002 0.222483
208.661575 -45.666309 7.073818 0.715572
208.661575 -45.666309 6.374837 0.687861
208.701447 -45.617172 5.674156 0.678065
208.701447 -45.617172 4.995280 0.678431
208.713943 -45.601780 4.320683 0.546578
208.886307 -45.389362 3.631638 0.615351
208.816544 -45.475338 2.983022 0.678431
208.795090 -45.501778 2.327997 0.825803
208.816544 -45.475338 1.672560 0.678431
208.816544 -45.475338 1.016978 0.678431
208.816544 -45.475338 0.359283 0.678431
210.470367 -43.437267 -0.000007 0.222925
212.929230 -40.407127 -0.000005 0.243450
214.498993 -38.472649 -0.000004 0.226611
215.590042 -37.128113 -0.000004 0.233194
216.393875 -36.137520 -0.000002 0.254173
208.453583 -45.696484 7.112638 0.678431
208.453583 -45.696484 6.408311 0.678431
208.518875 -45.617172 5.695180 0.678431
208.518875 -45.617172 5.012419 0.678431
208.531540 -45.601776 4.333962 0.527520
208.694656 -45.403606 3.642486 0.858366
208.635620 -45.475338 2.988647 0.678431
208.613846 -45.501778 2.329874 0.823835
208.635620 -45.475338 1.670686 0.678431
208.635620 -45.475338 1.011353 0.678431
208.635620 -45.475342 0.349895 0.678431
210.376404 -43.360458 -0.000007 0.239106
212.856354 -40.347557 -0.000005 0.257967
214.439575 -38.424088 -0.000004 0.204184
215.539993 -37.087200 -0.000003 0.225056
216.350723 -36.102245 -0.000002 0.231028
208.267960 -45.696487 7.142316 0.678431
208.267960 -45.696487 6.433899 0.678431
208.334167 -45.617172 5.716628 0.678431
208.334167 -45.617176 5.029904 0.678431
208.347031 -45.601776 4.347509 0.611475
208.512787 -45.403229 3.651980 0.705333
208.452591 -45.475338 2.994385 0.678431
208.430511 -45.501778 2.331789 0.829328
208.452591 -45.475338 1.668775 0.678431
208.452591 -45.475338 1.005614 0.678431
208.452591 -45.475338 0.340317 0.678431
210.282959 -43.282997 -0.000007 0.249422
212.783875 -40.287487 -0.000005 0.229197
214.380508 -38.375114 -0.000004 0.271036
215.490219 -37.045944 -0.000003 0.213650
216.307800 -36.066669 -0.000002 0.280874
208.091721 -45.682835 7.168109 0.712139
208.091721 -45.682831 6.456138 0.711574
208.147324 -45.617172 5.738509 0.678431
208.147308 -45.617180 5.047742 0.678431
208.160355 -45.601776 4.361329 0.586282
208.344025 -45.384884 3.659734 0.859556
208.267426 -45.475334 3.000240 0.678431
208.245041 -45.501778 2.333742 0.823346
208.267426 -45.475338 1.666825 0.678431
208.267426 -45.475338 0.999760 0.678431
208.267426 -45.475338 0.330547 0.678431
210.190063 -43.204884 -0.000006 0.254353
212.711838 -40.226910 -0.000005 0.247065
214.321777 -38.325729 -0.000004 0.197697
215.440735 -37.004337 -0.000003 0.204435
216.265137 -36.030796 -0.000002 0.292363
208.026398 -45.537804 7.151083 0.668482
208.026413 -45.537800 6.441457 0.731487
208.026413 -45.537800 5.741796 0.682719
208.026413 -45.537796 5.050421 0.692241
207.971466 -45.601772 4.375430 0.545556
208.170776 -45.369713 3.668006 0.754543
208.080063 -45.475334 3.006212 0.678431
208.057343 -45.501778 2.335735 0.828183
208.080048 -45.475338 1.664835 0.678431
208.080063 -45.475334 0.993788 0.678431
208.080063 -45.475334 0.320577 0.678431
210.097717 -43.126129 -0.000007 0.229220
212.640213 -40.165829 -0.000005 0.232392
214.263382 -38.275932 -0.000004 0.208636
215.391541 -36.962387 -0.000003 0.218007
216.222717 -35.994629 -0.000002 0.251983
207.780243 -45.601833 7.203552 0.633341
207.780273 -45.601791 6.486688 0.566461
207.780350 -45.601707 5.779881 0.633402
207.780319 -45.601730 5.081473 0.513481
207.780289 -45.601772 4.389817 0.595331
207.962326 -45.392784 3.680618 0.800092
207.890427 -45.475334 3.012307 0.678431
207.867386 -45.501778 2.337768 0.827008
207.890427 -45.475334 1.662805 0.678431
207.890427 -45.475334 0.987693 0.678431
207.890427 -45.475334 0.310405 0.678431
210.005920 -43.046730 -0.000007 0.225941
212.569016 -40.104256 -0.000005 0.226145
214.205353 -38.225735 -0.000004 0.250691
215.342651 -36.920097 -0.000003 0.173618
216.180557 -35.958160 -0.000002 0.215757
207.598511 -45.588486 7.231058 0.716152
207.598511 -45.588486 6.510415 0.682857
207.586716 -45.601845 5.803134 0.556481
207.586777 -45.601776 5.100413 0.615717
207.586777 -45.601776 4.404500 0.534279
207.772064 -45.392033 3.690860 0.623346
207.698471 -45.475334 3.018525 0.678431
207.675110 -45.501781 2.339843 0.825238
207.698471 -45.475334 1.660734 0.678431
207.698471 -45.475334 0.981474 0.678431
207.698471 -45.475334 0.300026 0.678431
209.914673 -42.966690 -0.000007 0.240303
212.498260 -40.042179 -0.000005 0.203035
214.147659 -38.175129 -0.000004 0.219921
215.294052 -36.877464 -0.000003 0.259236
216.138657 -35.921402 -0.000002 0.218162
207.439087 -45.547951 7.250016 0.670008
207.439072 -45.547955 6.526763 0.825910
207.390854 -45.601772 5.826812 0.552666
207.390808 -45.601837 5.119741 0.519112
207.390854 -45.601776 4.419480 0.644114
207.577057 -45.393944 3.701605 0.868589
207.510742 -45.467960 3.024385 0.698039
207.480438 -45.501781 2.341961 0.831556
207.509094 -45.469795 1.658742 0.711391
207.509094 -45.469795 0.975494 0.666117
207.509109 -45.469795 0.290044 0.709529
209.824005 -42.886009 -0.000006 0.246729
212.427933 -39.979610 -0.000005 0.222363
214.090332 -38.124123 -0.000004 0.239381
215.245758 -36.834492 -0.000003 0.283961
216.097015 -35.884350 -0.000002 0.186148
207.192245 -45.602036 7.301495 0.582361
207.192383 -45.601879 6.571102 0.523323
207.192535 -45.601704 5.850975 0.587671
207.192490 -45.601757 5.139439 0.542824
207.192490 -45.601761 4.434766 0.574228
207.382263 -45.392895 3.712241 0.746273
207.283325 -45.501781 3.033103 0.836301
207.283325 -45.501781 2.344122 0.828092
207.283325 -45.501781 1.655878 0.823560
207.283325 -45.501781 0.966897 0.819944
207.283325 -45.501781 0.275696 0.827268
209.733887 -42.804710 -0.000006 0.220963
212.358047 -39.916553 -0.000005 0.218473
214.033356 -38.072720 -0.000004 0.229400
215.197754 -36.791187 -0.000003 0.254437
216.055634 -35.847008 -0.000002 0.238795
206.991592 -45.601742 7.335368 0.572610
206.991409 -45.601936 6.600412 0.534081
206.991699 -45.601631 5.875636 0.520623
206.991501 -45.601837 5.159574 0.558450
206.991577 -45.601765 4.450369 0.558450
207.190918 -45.385414 3.722379 0.780591
207.173676 -45.404137 3.033201 0.766888
207.190460 -45.385918 2.343749 0.784344
207.109177 -45.474129 1.654288 0.821164
207.109177 -45.474129 0.962124 0.823896
207.109177 -45.474129 0.267729 0.822370
209.644333 -42.722775 -0.000006 0.224709
212.288605 -39.853012 -0.000005 0.214344
213.976746 -38.020920 -0.000004 0.226228
215.150055 -36.747543 -0.000003 0.280622
216.014511 -35.809380 -0.000002 0.223272
nan nan nan 0.000000
nan nan nan 0.000000
nan nan nan 0.000000
nan nan nan 0.000000
nan nan nan 0.000000
206.952133 -45.426170 3.738146 0.825864
nan nan nan 0.000000
nan nan nan 0.000000
nan nan nan 0.000000
193.629730 -59.683640 -0.000015 0.228981
204.771713 -47.759628 -0.000009 0.221274
209.555374 -42.640224 -0.000007 0.236952
212.219604 -39.788986 -0.000004 0.202065
213.920486 -37.968723 -0.000004 0.239453
215.102661 -36.703571 -0.000003 0.232404
215.973648 -35.771465 -0.000002 0.199636
nan nan nan 0.000000
nan nan nan 0.000000
nan nan nan 0.000000
nan nan nan 0.000000
nan nan nan 0.000000
nan nan nan 0.000000
nan nan nan 0.000000
nan nan nan 0.000000
nan nan nan 0.000000
193.422729 -59.488869 -0.000015 0.229663
204.647705 -47.642929 -0.000009 0.218952
209.466980 -42.557045 -0.000006 0.232093
212.151062 -39.724483 -0.000004 0.227222
213.864609 -37.916134 -0.000003 0.218306
215.055588 -36.659267 -0.000002 0.196979
215.933044 -35.733265 -0.000002 0.206182
nan nan nan 0.000000
nan nan nan 0.000000
nan nan nan 0.000000
nan nan nan 0.000000
nan nan nan 0.000000
nan nan nan 0.000000
nan nan nan 0.000000
nan nan nan 0.000000
nan nan nan 0.000000
193.217117 -59.292656 -0.000015 0.229101
204.524506 -47.525368 -0.000009 0.220759
209.379181 -42.473255 -0.000006 0.219503
212.082962 -39.659500 -0.000005 0.214380
213.809082 -37.863163 -0.000004 0.219562
215.008820 -36.614639 -0.000003 0.237682
215.892715 -35.694786 -0.000002 0.215924
nan nan nan 0.000000
nan nan nan 0.000000
nan nan nan 0.000000
nan nan nan 0.000000
nan nan nan 0.000000
nan nan nan 0.000000
nan nan nan 0.000000
nan nan nan 0.000000
nan nan nan 0.000000
193.012878 -59.095009 -0.000015 0.229639
204.402130 -47.406952 -0.000009 0.240530
209.291946 -42.388855 -0.000006 0.250356
212.015320 -39.594048 -0.000005 0.223608
213.753937 -37.809803 -0.000004 0.268200
214.962357 -36.569683 -0.000002 0.221382
215.852661 -35.656021 -0.000002 0.228694
nan nan nan 0.000000
nan nan nan 0.000000
nan nan nan 0.000000
nan nan nan 0.000000
nan nan nan 0.000000
nan nan nan 0.000000
nan nan nan 0.000000
nan nan nan 0.000000
nan nan nan 0.000000
192.810013 -58.895954 -0.000015 0.229627
204.280594 -47.287685 -0.000009 0.217923
209.205322 -42.303848 -0.000006 0.210646
211.948120 -39.528118 -0.000005 0.218437
213.699173 -37.756058 -0.000004 0.250954
214.916214 -36.524403 -0.000002 0.220161
215.812881 -35.616982 -0.000002 0.267577
nan nan nan 0.000000
nan nan nan 0.000000
nan nan nan 0.000000
nan nan nan 0.000000
nan nan nan 0.000000
nan nan nan 0.000000
nan nan nan 0.000000
nan nan nan 0.000000
nan nan nan 0.000000
192.608551 -58.695465 -0.000015 0.230836
204.159882 -47.167572 -0.000009 0.231291
209.119293 -42.218235 -0.000006 0.206015
211.881409 -39.461723 -0.000004 0.245198
213.644775 -37.701927 -0.000003 0.202676
214.870392 -36.478802 -0.000002 0.229256
215.773361 -35.577663 -0.000002 0.250966
nan nan nan 0.000000
nan nan nan 0.000000
nan nan nan 0.000000
nan nan nan 0.000000
nan nan nan 0.000000
nan nan nan 0.000000
nan nan nan 0.000000
nan nan nan 0.000000
nan nan nan 0.000000
250.441605 -1.381313 -0.000026 0.231147
238.809967 -12.828384 -0.000016 0.339101
233.816101 -17.743010 -0.000012 0.214943
231.034790 -20.480186 -0.000009 0.219933
229.259171 -22.227631 -0.000008 0.240961
228.025040 -23.442177 -0.000006 0.209485
227.115799 -24.336992 -0.000006 0.250392
nan nan nan 0.000000
nan nan nan 0.000000
nan nan nan 0.000000
nan nan nan 0.000000
nan nan nan 0.000000
nan nan nan 0.000000
nan nan nan 0.000000
nan nan nan 0.000000
nan nan nan 0.000000
250.640244 -1.584581 -0.000026 0.227318
238.929001 -12.950155 -0.000019 0.335821
233.900925 -17.829813 -0.000012 0.247699
231.100586 -20.547504 -0.000009 0.207092
229.312805 -22.282515 -0.000008 0.184760
228.070236 -23.488411 -0.000007 0.179865
227.154755 -24.376858 -0.000006 0.236593
nan nan nan 0.000000
nan nan nan 0.000000
nan nan nan 0.000000
nan nan nan 0.000000
nan nan nan 0.000000
nan nan nan 0.000000
