# This PCD file was generated using the MATLABÂ® pcwrite function
# from Computer Vision ToolboxÂ®.
# .PCD v.7 - Point Cloud Data file format
VERSION .7
FIELDS x y z intensity
SIZE 4 4 4 4
TYPE F F F F
COUNT 1 1 1 1
WIDTH 1191
HEIGHT 1
VIEWPOINT 0 0 0 1 0 0 0
POINTS 1191
DATA ascii
250.689072 -43.805901 4.637402 0.980392
nan nan nan 0.000000
245.808044 -47.897724 2.422124 0.223529
244.160629 -49.278767 1.613054 0.223529
250.657349 -43.832493 0.421855 0.753704
244.731995 -48.799782 -0.000021 0.222542
239.362549 -53.301064 -0.000015 0.217624
236.372055 -55.808025 -0.000011 0.212872
234.462891 -57.408501 -0.000009 0.208971
233.135956 -58.520893 -0.000007 0.190708
232.158325 -59.340446 -0.000006 0.193508
249.294907 -45.249489 9.557240 0.968627
243.428879 -50.097725 6.872483 0.943969
244.255219 -49.414761 6.299987 0.223529
246.602325 -47.474892 5.957159 0.968627
248.236359 -46.124367 5.312817 0.960586
250.950500 -43.881157 4.649928 0.968627
nan nan nan 0.000000
246.052078 -47.929672 2.424859 0.223529
244.106812 -49.537422 1.616439 0.223529
250.583633 -44.184364 0.435698 0.422889
244.840942 -48.930660 -0.000021 0.231937
239.440201 -53.394344 -0.000015 0.245652
236.432281 -55.880371 -0.000011 0.264262
234.511978 -57.467480 -0.000009 0.211867
233.177307 -58.570580 -0.000008 0.243103
232.193985 -59.383293 -0.000006 0.187548
249.471024 -45.377678 9.570969 0.966491
243.632935 -50.134609 6.901499 0.672694
234.686859 -57.423977 4.029627 0.445930
234.816055 -57.318699 3.679333 0.457786
248.714233 -45.994316 5.364804 0.968032
234.642807 -57.459862 2.909957 0.428199
nan nan nan 0.000000
274.589569 -24.910816 3.024808 0.480705
244.053909 -49.791599 1.619746 0.223529
250.503036 -44.536789 0.449742 0.670909
244.948975 -49.062294 -0.000021 0.240877
239.517197 -53.488167 -0.000015 0.225247
236.491989 -55.953133 -0.000011 0.226396
234.560669 -57.526794 -0.000009 0.265914
233.218323 -58.620552 -0.000007 0.226767
232.229340 -59.426380 -0.000006 0.190552
244.005173 -50.038830 7.772204 0.223529
nan nan nan 0.000000
234.753357 -57.470444 4.033717 0.538460
246.869736 -47.737846 5.963270 0.968627
248.890839 -46.114380 5.371911 0.976669
234.708725 -57.506294 2.911764 0.427649
nan nan nan 0.000000
274.527679 -25.521324 3.017740 0.472633
244.001923 -50.041447 1.622980 0.223529
250.401642 -44.900803 0.464862 0.730800
245.056076 -49.194687 -0.000021 0.226252
239.593536 -53.582527 -0.000015 0.208576
236.551193 -56.026314 -0.000011 0.239944
234.608932 -57.586456 -0.000009 0.222794
233.258987 -58.670815 -0.000007 0.185107
232.264404 -59.469715 -0.000006 0.242517
244.102097 -50.167282 7.771123 0.223529
nan nan nan 0.000000
234.821289 -57.516182 4.038191 0.461707
233.919479 -58.230274 3.490962 0.416999
249.078461 -46.226810 5.380723 0.980392
233.894852 -58.249767 2.821580 0.432044
nan nan nan 0.000000
275.158630 -25.575562 3.025257 0.488167
243.950790 -50.287094 1.626140 0.223529
250.239243 -45.307667 0.483562 0.956680
245.162247 -49.327820 -0.000021 0.218940
239.669205 -53.677418 -0.000015 0.212908
236.609879 -56.099903 -0.000011 0.215230
234.656769 -57.646450 -0.000009 0.235887
233.299286 -58.721355 -0.000008 0.212585
232.299164 -59.513298 -0.000006 0.208408
244.070526 -50.395969 7.729503 0.223529
nan nan nan 0.000000
244.042374 -50.417946 6.155468 0.223529
247.143524 -47.997372 5.971211 0.968627
234.836990 -57.603123 3.283874 0.517159
235.092133 -57.403984 2.941619 0.419608
nan nan nan 0.000000
nan nan nan 0.000000
243.900528 -50.528667 1.629230 0.223529
249.948151 -45.808239 0.510003 0.967254
245.267502 -49.461681 -0.000021 0.231638
239.744217 -53.772835 -0.000015 0.221657
236.668060 -56.173901 -0.000011 0.202006
234.704193 -57.706776 -0.000009 0.276458
233.339249 -58.772179 -0.000008 0.196728
232.333618 -59.557117 -0.000006 0.246753
244.410889 -50.335587 7.806157 0.223529
nan nan nan 0.000000
243.991379 -50.658340 6.121340 0.223529
234.088486 -58.277306 3.506433 0.420340
249.456451 -46.453701 5.398940 0.968627
233.993790 -58.350166 2.822910 0.447257
234.033325 -58.319748 2.495490 0.431830
nan nan nan 0.000000
243.851059 -50.766296 1.632251 0.223529
243.789505 -50.813656 0.899781 0.223529
243.766891 -50.831055 0.166015 0.223529
239.818573 -53.868767 -0.000015 0.242960
236.725723 -56.248302 -0.000011 0.237490
234.751205 -57.767429 -0.000009 0.232272
233.378845 -58.823280 -0.000008 0.250380
232.367752 -59.601181 -0.000006 0.232188
244.671921 -50.340729 7.857336 0.223529
nan nan nan 0.000000
235.011459 -57.666378 4.048804 0.427359
234.565201 -58.004787 3.587167 0.426062
249.635010 -46.577156 5.406644 0.969528
234.038528 -58.404171 2.823137 0.436835
234.080185 -58.372581 2.495744 0.431373
243.785950 -51.012573 2.364456 0.223529
243.763565 -51.029552 1.636004 0.223529
243.741211 -51.046501 0.908610 0.223529
243.765411 -51.028141 0.175920 0.223529
239.892242 -53.965225 -0.000015 0.220675
236.782852 -56.323109 -0.000011 0.263724
234.797791 -57.828411 -0.000009 0.238496
233.418091 -58.874653 -0.000008 0.255035
232.401596 -59.645477 -0.000006 0.251098
250.539627 -46.159161 9.661550 0.980392
234.529877 -58.124447 4.289297 0.433051
234.010834 -58.512363 3.810760 0.414496
234.253754 -58.330807 3.521172 0.438422
243.805069 -51.192394 4.551492 0.223529
235.060974 -57.727512 2.923485 0.436316
234.243271 -58.338638 2.503149 0.430579
243.804871 -51.192551 2.362931 0.223529
243.859055 -51.152054 1.635962 0.223529
243.913635 -51.111256 0.903756 0.223529
243.968735 -51.070072 0.164669 0.223529
239.965240 -54.062187 -0.000015 0.223117
236.839462 -56.398312 -0.000011 0.203478
234.843933 -57.889717 -0.000009 0.220544
233.456970 -58.926304 -0.000008 0.189882
232.435120 -59.690010 -0.000006 0.218425
250.719925 -46.291557 9.678060 0.980392
235.007507 -57.864548 4.405592 0.414527
234.031433 -58.583473 3.806062 0.449805
234.343811 -58.353394 3.529902 0.443305
243.843521 -51.356384 4.543802 0.223529
236.094833 -57.063675 3.023999 0.451713
234.008148 -58.600624 2.486203 0.432273
236.389023 -56.846985 2.210340 0.399023
244.062958 -51.194756 1.633698 0.223529
250.437134 -46.499851 0.511392 0.968139
245.679062 -50.004414 -0.000021 0.232907
240.037552 -54.159660 -0.000015 0.233840
236.895554 -56.473904 -0.000011 0.231279
234.889664 -57.951344 -0.000009 0.245413
233.495499 -58.978222 -0.000007 0.189523
232.468338 -59.734776 -0.000006 0.208432
234.716476 -58.171871 4.685656 0.419608
235.115433 -57.882286 4.422148 0.444587
234.445175 -58.368793 3.889888 0.480827
234.427841 -58.381363 3.537518 0.433051
235.725159 -57.439732 3.376822 0.444221
235.174149 -57.839672 2.925503 0.517647
234.245407 -58.513790 2.498130 0.469642
236.782898 -56.671989 2.217233 0.437232
246.378510 -49.707146 1.588742 0.969482
250.721054 -46.555161 0.501737 0.968627
245.779572 -50.141869 -0.000021 0.223272
240.109192 -54.257637 -0.000015 0.246682
236.951111 -56.549885 -0.000011 0.242385
234.934952 -58.013290 -0.000009 0.208660
233.533646 -59.030407 -0.000007 0.220544
232.501236 -59.779770 -0.000006 0.190624
251.074799 -46.563927 9.709922 0.968627
234.405975 -58.485977 4.221606 0.427283
233.725235 -58.972862 3.719350 0.431373
234.520416 -58.404125 3.546684 0.525429
235.871307 -57.437923 3.390584 0.441398
234.252823 -58.595520 2.827981 0.431189
234.300308 -58.561550 2.498946 0.419608
nan nan nan 0.000000
246.528488 -49.815582 1.587789 0.977310
251.009781 -46.610428 0.491815 0.975021
245.879120 -50.280033 -0.000021 0.219443
240.180145 -54.356110 -0.000015 0.232093
237.006134 -56.626259 -0.000011 0.218210
234.979813 -58.075550 -0.000009 0.198714
233.571442 -59.082859 -0.000008 0.288294
232.533813 -59.824997 -0.000006 0.248525
235.563385 -57.758160 4.918498 0.429206
234.850784 -58.260349 4.328153 0.461036
234.568390 -58.459362 3.898539 0.420279
234.139221 -58.761814 3.469862 0.415854
235.390808 -57.879787 3.316084 0.431250
235.849258 -57.556702 2.984027 0.443473
235.483719 -57.814304 2.567603 0.435447
nan nan nan 0.000000
246.680664 -49.923485 1.586780 0.978515
251.301590 -46.666969 0.481734 0.976135
245.977692 -50.418884 -0.000021 0.230393
240.250412 -54.455074 -0.000015 0.236365
237.060638 -56.703011 -0.000011 0.210060
235.024231 -58.138119 -0.000009 0.234414
233.608871 -59.135571 -0.000008 0.199648
232.566086 -59.870449 -0.000007 0.232703
234.096512 -58.875687 4.456961 0.435599
234.860336 -58.345341 4.319320 0.422141
233.817596 -59.069344 3.722977 0.431373
233.958771 -58.971325 3.430114 0.412619
235.809113 -57.686577 3.368256 0.438025
235.858505 -57.652279 2.980156 0.438834
234.401123 -58.664188 2.500090 0.446387
235.594788 -57.835384 2.190357 0.433402
246.832520 -50.032661 1.585768 0.979538
251.596848 -46.724632 0.471472 0.969162
246.075302 -50.558422 -0.000021 0.226564
240.319977 -54.554527 -0.000015 0.242361
237.114594 -56.780136 -0.000012 0.222231
235.068222 -58.200996 -0.000009 0.202604
233.645920 -59.188545 -0.000008 0.222303
232.598038 -59.916126 -0.000006 0.218401
245.145844 -51.400517 7.798450 0.223529
234.064468 -58.980576 4.099929 0.434226
233.864166 -59.117588 3.724972 0.424643
234.785538 -58.487335 3.571836 0.444221
235.730942 -57.840641 3.350795 0.455879
235.834045 -57.770119 2.973022 0.464973
234.419861 -58.737473 2.498805 0.554238
236.824081 -57.092899 2.213816 0.430350
235.661407 -57.888210 1.809235 0.452277
251.841629 -46.820362 0.464239 0.223529
246.171936 -50.698639 -0.000021 0.236042
240.388855 -54.654469 -0.000015 0.243283
237.167999 -56.857643 -0.000012 0.236808
235.111771 -58.264183 -0.000010 0.248632
233.682602 -59.241776 -0.000008 0.255562
232.629669 -59.962021 -0.000006 0.197194
235.659317 -57.987755 4.905645 0.443748
234.871323 -58.518730 4.300136 0.419608
233.909698 -59.166714 3.726804 0.440665
233.998199 -59.107071 3.423573 0.412863
245.589645 -51.296341 4.712017 0.223529
235.702728 -57.958500 2.955438 0.432715
235.707809 -57.955082 2.572743 0.432334
nan nan nan 0.000000
247.140656 -50.251217 1.583626 0.968627
252.043060 -46.947803 0.459569 0.223529
246.267593 -50.839516 -0.000022 0.224493
240.457031 -54.754883 -0.000015 0.221489
237.220871 -56.935520 -0.000012 0.228095
235.154877 -58.327667 -0.000010 0.200593
233.718918 -59.295261 -0.000008 0.221358
232.660980 -60.008141 -0.000006 0.206362
235.704788 -58.054771 4.905783 0.419883
234.592865 -58.792786 4.217239 0.457740
234.155167 -59.083305 3.772369 0.418952
234.955063 -58.552387 3.587298 0.421759
235.835022 -57.968327 3.352517 0.431373
235.547806 -58.158966 2.935740 0.433097
235.467239 -58.212440 2.555891 0.603616
236.008041 -57.853497 2.195786 0.431647
246.036087 -51.197556 1.607259 0.223529
252.245697 -47.076035 0.454795 0.223529
246.007980 -51.216209 0.034843 0.968627
240.524506 -54.855770 -0.000015 0.228682
237.273209 -57.013763 -0.000012 0.239920
235.197525 -58.391457 -0.000010 0.212346
233.754868 -59.349003 -0.000007 0.225175
232.691971 -60.054474 -0.000007 0.304199
235.724564 -58.138599 4.898369 0.468101
234.343964 -59.041126 4.142840 0.440986
236.513794 -57.622665 4.276971 0.421103
234.147995 -59.169235 3.436988 0.427970
234.994232 -58.616028 3.230752 0.444846
234.484818 -58.949047 2.827315 0.419608
237.076843 -57.254581 2.647813 0.431144
234.473206 -58.956635 2.164881 0.451392
246.035812 -51.397915 1.609066 0.223529
236.055374 -57.922344 1.412140 0.454932
246.007965 -51.416119 0.043861 0.969726
240.591263 -54.957130 -0.000015 0.224373
237.324982 -57.092373 -0.000012 0.232009
235.239746 -58.455540 -0.000009 0.239417
233.790421 -59.402988 -0.000008 0.282298
232.722641 -60.101025 -0.000006 0.255957
234.181854 -59.227871 4.425684 0.432044
235.544586 -58.350540 4.441559 0.421561
234.048080 -59.313995 3.733091 0.431373
235.212738 -58.564190 3.618334 0.434043
235.069626 -58.656322 3.235505 0.546380
234.517166 -59.011993 2.826732 0.432288
234.542007 -58.996010 2.496781 0.590494
234.549500 -58.991180 2.165621 0.419608
236.206512 -57.924393 1.802130 0.434409
246.148529 -51.523705 0.825079 0.223529
246.007950 -51.614212 0.052703 0.966506
240.657333 -55.058949 -0.000015 0.216941
237.376205 -57.171341 -0.000012 0.212717
235.281509 -58.519913 -0.000010 0.247926
233.825607 -59.457222 -0.000008 0.244479
232.752975 -60.147789 -0.000007 0.222770
235.661240 -58.370026 4.853651 0.435142
235.108643 -58.720360 4.319211 0.432456
234.095963 -59.362366 3.735696 0.437354
233.969162 -59.442757 3.392718 0.448539
237.247833 -57.364174 3.526703 0.423102
234.542526 -59.079262 2.825514 0.436759
234.290100 -59.239296 2.479917 0.470008
234.572662 -59.060158 2.165333 0.426062
236.017929 -58.143894 1.806665 0.424155
246.147751 -51.721886 0.830353 0.223529
246.007935 -51.810528 0.061371 0.968627
240.722672 -55.161228 -0.000015 0.241727
237.426895 -57.250660 -0.000012 0.212872
235.322815 -58.584579 -0.000010 0.223727
233.860413 -59.511703 -0.000008 0.228443
232.782990 -60.194763 -0.000007 0.209438
245.810654 -52.128250 7.838100 0.968627
235.087860 -58.821709 4.303757 0.514443
234.843948 -58.973965 3.888528 0.416480
234.290131 -59.319675 3.442739 0.552956
235.868912 -58.334152 3.333012 0.420752
234.574387 -59.142227 2.824976 0.428840
234.103516 -59.436157 2.467009 0.409888
235.991882 -58.257397 2.191985 0.464485
236.015320 -58.242767 1.807562 0.432364
246.303543 -51.820580 0.826456 0.223529
246.007919 -52.005112 0.069867 0.980392
240.787308 -55.263962 -0.000015 0.223296
237.477005 -57.330338 -0.000012 0.231626
235.363678 -58.649532 -0.000010 0.285924
233.894836 -59.566422 -0.000008 0.200198
232.812668 -60.241943 -0.000007 0.199073
235.757599 -58.497509 4.857218 0.496666
234.482147 -59.281364 4.140263 0.422675
235.309784 -58.772720 3.979870 0.432624
235.476990 -58.669960 3.643160 0.432853
236.596771 -57.981781 3.425542 0.505257
237.587219 -57.373089 3.111378 0.436225
234.197769 -59.456131 2.470428 0.433158
235.989182 -58.355186 2.191106 0.434409
246.686798 -51.780785 1.603423 0.968627
246.804382 -51.708527 0.802640 0.968627
246.007904 -52.198013 0.078197 0.971572
240.851212 -55.367146 -0.000015 0.248178
237.526581 -57.410358 -0.000012 0.255107
235.404083 -58.714767 -0.000010 0.221250
233.928879 -59.621380 -0.000008 0.222411
232.842010 -60.289333 -0.000007 0.190995
245.818680 -52.503731 7.790567 0.968627
234.516815 -59.341244 4.139925 0.612055
234.129745 -59.575420 3.720506 0.440284
234.384689 -59.421185 3.446806 0.461082
237.579285 -57.488487 3.551589 0.434409
235.224640 -58.913017 2.880243 0.563836
234.293472 -59.476372 2.473925 0.433402
235.917236 -58.494007 2.188917 0.567910
246.686554 -51.978680 1.605113 0.968627
246.803619 -51.907852 0.807770 0.968627
246.007889 -52.389267 0.086362 0.968627
240.914398 -55.470772 -0.000015 0.223859
237.575577 -57.490723 -0.000012 0.221429
235.444031 -58.780285 -0.000010 0.193508
233.962540 -59.676579 -0.000008 0.259571
232.871033 -60.336926 -0.000007 0.213949
245.822586 -52.689247 7.767487 0.968627
236.236099 -58.397926 4.563159 0.429862
235.313705 -58.947212 3.964044 0.560784
237.280746 -57.775848 3.940747 0.444465
237.337997 -57.741760 3.512794 0.463416
236.095322 -58.481762 2.959654 0.438849
234.586945 -59.379993 2.488723 0.537057
246.571152 -52.243477 2.391038 0.968627
246.686310 -52.174904 1.606769 0.968627
246.802887 -52.105480 0.812797 0.968627
246.007874 -52.578903 0.094366 0.967163
240.976868 -55.574837 -0.000015 0.233601
237.624023 -57.571430 -0.000012 0.241990
235.483521 -58.846081 -0.000010 0.269289
233.995804 -59.732006 -0.000008 0.243414
232.899719 -60.384720 -0.000007 0.251026
235.908218 -58.686123 4.865250 0.420142
234.562790 -59.474644 4.133715 0.441978
234.675812 -59.408401 3.821429 0.438331
235.530960 -58.907227 3.631910 0.449104
234.245819 -59.660412 3.094251 0.429099
235.821701 -58.736832 2.929699 0.415534
235.421097 -58.971619 2.534210 0.596262
236.668625 -58.240467 2.201605 0.556054
246.686066 -52.369492 1.608392 0.968627
246.802155 -52.301453 0.817725 0.968627
246.007858 -52.766975 0.102211 0.978469
241.038605 -55.679337 -0.000015 0.218461
237.671906 -57.652473 -0.000011 0.240291
235.522552 -58.912148 -0.000010 0.241128
234.028687 -59.787666 -0.000008 0.257907
232.928070 -60.432709 -0.000007 0.204255
235.957657 -58.749798 4.867938 0.437949
235.022141 -59.289337 4.239600 0.431708
234.539215 -59.567863 3.785357 0.433219
235.620285 -58.944370 3.640596 0.431556
245.864853 -53.035980 4.632851 0.977722
234.367538 -59.666874 2.788289 0.451896
234.595917 -59.535160 2.485249 0.424018
246.571609 -52.628365 2.387860 0.968627
246.685837 -52.562492 1.609983 0.968627
246.801453 -52.495811 0.822554 0.968627
246.007843 -52.953514 0.109900 0.968627
241.099609 -55.784260 -0.000016 0.246825
237.719208 -57.733845 -0.000012 0.237442
235.561127 -58.978485 -0.000010 0.212106
234.061188 -59.843559 -0.000008 0.220340
232.956100 -60.480900 -0.000007 0.218413
234.504074 -59.666565 4.437864 0.427909
234.547318 -59.642021 4.112759 0.462745
234.997177 -59.386742 3.874052 0.430579
235.565933 -59.063988 3.624787 0.426810
234.479568 -59.680473 3.116392 0.466239
237.502411 -57.965103 3.080695 0.459205
234.607407 -59.607922 2.483964 0.421515
246.571838 -52.818493 2.386318 0.968627
246.685608 -52.753937 1.611541 0.968627
246.800751 -52.688591 0.827287 0.968627
246.007828 -53.138550 0.117435 0.958556
241.159866 -55.889610 -0.000015 0.240626
237.765961 -57.815548 -0.000012 0.260516
235.599243 -59.045094 -0.000010 0.222064
234.093292 -59.899670 -0.000008 0.215960
232.983780 -60.529282 -0.000007 0.265902
234.538162 -59.725349 4.438084 0.419608
234.480087 -59.757774 4.087841 0.425269
234.653412 -59.661011 3.795064 0.435752
234.380524 -59.813354 3.417029 0.424857
234.538879 -59.724945 3.119830 0.540307
234.564819 -59.710464 2.800595 0.439628
234.801712 -59.578217 2.492998 0.446021
235.820297 -59.009563 2.183305 0.559457
246.685379 -52.943867 1.613070 0.968627
246.800079 -52.879829 0.831924 0.968627
246.007813 -53.322132 0.124819 0.974319
241.219406 -55.995380 -0.000016 0.234163
237.812119 -57.897579 -0.000012 0.260385
235.636871 -59.111965 -0.000010 0.229903
234.125000 -59.956009 -0.000008 0.200605
233.011108 -60.577858 -0.000007 0.222255
235.771881 -59.125370 4.781240 0.553704
234.818787 -59.648766 4.163244 0.432380
234.693192 -59.717739 3.796395 0.429252
234.438690 -59.857498 3.421404 0.431373
236.896667 -58.507690 3.424958 0.448600
234.756363 -59.683044 2.815424 0.431373
236.713120 -58.608490 2.598224 0.434195
235.882614 -59.064560 2.183762 0.572717
236.702026 -58.614586 1.800941 0.512795
246.799408 -53.069576 0.836469 0.968627
246.007797 -53.504288 0.132055 0.980392
241.278198 -56.101563 -0.000016 0.222494
237.857727 -57.979927 -0.000012 0.217887
235.674042 -59.179100 -0.000010 0.201036
234.156311 -60.012566 -0.000008 0.210311
233.038116 -60.626625 -0.000007 0.260337
235.890137 -59.149597 4.804352 0.416800
234.743500 -59.768902 4.136554 0.539773
234.750732 -59.764996 3.801478 0.428794
234.563400 -59.866169 3.437037 0.431281
234.738297 -59.771709 3.137349 0.429862
234.602707 -59.844940 2.798010 0.431113
236.720413 -58.701164 2.596362 0.450904
237.619598 -58.215515 2.215369 0.421836
236.738647 -58.691319 1.801015 0.567712
246.798752 -53.257851 0.840921 0.968627
246.007782 -53.685051 0.139145 0.958236
241.336258 -56.208153 -0.000015 0.208708
237.902740 -58.062592 -0.000012 0.233349
235.710754 -59.246487 -0.000010 0.251552
234.187241 -60.069340 -0.000008 0.246598
233.064774 -60.675579 -0.000007 0.204555
235.906326 -59.229500 4.798474 0.461189
234.822495 -59.805138 4.147899 0.423346
234.808533 -59.812561 3.806663 0.434852
234.980362 -59.721294 3.501706 0.448905
234.817596 -59.807739 3.143434 0.429038
236.066650 -59.144348 2.930948 0.431922
234.626862 -59.909050 2.477680 0.437095
246.572708 -53.564411 2.380454 0.968627
236.876312 -58.714321 1.799207 0.573754
246.798111 -53.444691 0.845282 0.968627
246.007782 -53.864456 0.146091 0.979477
241.393555 -56.315144 -0.000015 0.228622
237.947189 -58.145565 -0.000012 0.201192
235.746979 -59.314133 -0.000010 0.272556
234.217758 -60.126328 -0.000008 0.198798
233.091095 -60.724716 -0.000007 0.199791
235.916122 -59.312374 4.790973 0.436912
234.804855 -59.892677 4.135716 0.434775
234.866577 -59.860447 3.811948 0.426596
234.433609 -60.086540 3.404700 0.423728
234.461090 -60.072193 3.092968 0.439536
236.424789 -59.046753 2.960660 0.552209
235.243561 -59.663586 2.510106 0.430869
235.416626 -59.573212 2.173109 0.431373
246.684525 -53.689125 1.618877 0.968627
246.797485 -53.630138 0.849555 0.968627
246.007767 -54.042530 0.152896 0.961456
241.450119 -56.422531 -0.000016 0.219550
237.991043 -58.228851 -0.000012 0.235982
235.782745 -59.382027 -0.000010 0.240961
234.247879 -60.183529 -0.000008 0.209366
233.117065 -60.774036 -0.000007 0.213279
235.075119 -59.831535 4.544106 0.434043
234.733322 -60.006996 4.110645 0.430533
236.070114 -59.320759 4.051571 0.435935
238.028152 -58.315613 3.998982 0.464317
237.256424 -58.711777 3.450499 0.419074
236.819565 -58.936035 2.993579 0.413321
235.380936 -59.674549 2.515851 0.431281
235.434540 -59.647034 2.172813 0.437720
236.319061 -59.192963 1.810916 0.592203
236.746216 -58.973686 1.408755 0.539254
246.007751 -54.219315 0.159562 0.968627
241.505920 -56.530312 -0.000015 0.233864
236.637970 -59.029259 0.232816 0.507500
235.818024 -59.450172 -0.000010 0.196333
234.277603 -60.240936 -0.000008 0.244037
233.142700 -60.823536 -0.000007 0.226755
235.233383 -59.831108 4.579484 0.437415
234.915848 -59.991322 4.147313 0.420600
236.088669 -59.399567 4.048075 0.450370
235.918777 -59.485283 3.641425 0.511452
237.216034 -58.830742 3.440151 0.443534
245.719681 -54.540176 3.807453 0.223529
235.279068 -59.808052 2.508416 0.431373
235.166092 -59.865059 2.167280 0.430701
236.418152 -59.233326 1.809771 0.551781
236.564041 -59.159718 1.420877 0.530617
236.606323 -59.138378 1.029529 0.617350
236.606766 -59.138157 0.638357 0.531472
236.596756 -59.143208 0.245932 0.634134
235.852829 -59.518562 -0.000010 0.209677
234.306931 -60.298553 -0.000008 0.230788
233.167984 -60.873215 -0.000007 0.222854
235.254105 -59.901077 4.576288 0.437125
235.221146 -59.917419 4.213426 0.431235
235.928665 -59.566612 4.008440 0.427848
236.126663 -59.468437 3.670121 0.436774
236.005051 -59.528736 3.279633 0.437903
246.033569 -54.556313 3.829880 0.223529
235.296738 -59.879936 2.507613 0.422370
235.300674 -59.877983 2.169155 0.424857
236.556152 -59.255482 1.807913 0.580163
236.586456 -59.240459 1.421666 0.510048
236.629959 -59.218891 1.030749 0.617044
236.628601 -59.219563 0.640299 0.527489
236.620590 -59.223534 0.248099 0.534554
235.887146 -59.587193 -0.000010 0.217648
234.335846 -60.356373 -0.000008 0.214919
233.192917 -60.923069 -0.000007 0.221932
234.934006 -60.136883 4.478274 0.455360
235.245071 -59.985348 4.211593 0.419608
236.175568 -59.532047 4.051533 0.450355
236.316498 -59.463387 3.695725 0.428519
237.446487 -58.912907 3.459704 0.565927
236.048401 -59.593998 2.912889 0.442496
236.547684 -59.350769 2.574234 0.552834
235.438553 -59.891094 2.171086 0.434806
236.589249 -59.330521 1.807969 0.568032
236.667633 -59.292336 1.419212 0.545571
236.704163 -59.274540 1.027301 0.587732
236.696304 -59.278358 0.636292 0.535134
236.684769 -59.283981 0.243510 0.447318
235.921005 -59.656059 -0.000010 0.203513
234.364365 -60.414391 -0.000008 0.197817
233.217514 -60.973095 -0.000007 0.240123
234.964172 -60.199024 4.478311 0.436362
235.159882 -60.105366 4.183752 0.429816
235.442886 -59.969933 3.896833 0.431373
236.483475 -59.471958 3.717476 0.426871
236.086227 -59.662064 3.281310 0.435966
236.450790 -59.487598 2.946394 0.559625
235.338074 -60.020092 2.506423 0.431067
235.506073 -59.939693 2.171735 0.576410
246.683563 -54.590694 1.625492 0.968627
237.079453 -59.186752 1.398737 0.621927
246.007706 -54.914124 0.184876 0.980392
241.721573 -56.965256 -0.000016 0.227006
238.201584 -58.649757 -0.000012 0.220400
235.954361 -59.725163 -0.000010 0.203274
234.392471 -60.472607 -0.000008 0.240183
233.241745 -61.023293 -0.000007 0.201778
235.284058 -60.124992 4.558657 0.433738
235.192657 -60.167957 4.184356 0.439826
236.129211 -59.727776 4.028551 0.431250
236.473190 -59.566105 3.710113 0.439216
236.004272 -59.786499 3.266658 0.518944
236.095291 -59.743713 2.911058 0.432609
235.613800 -59.970016 2.519717 0.462699
235.523926 -60.012257 2.171490 0.420111
237.631546 -59.021679 1.790402 0.560082
246.793991 -54.715332 0.873396 0.968627
246.007690 -55.084892 0.190877 0.978744
241.773590 -57.074921 -0.000016 0.244120
238.241913 -58.734802 -0.000013 0.241416
235.987259 -59.794495 -0.000010 0.229663
234.420181 -60.531021 -0.000008 0.214189
233.265625 -61.073654 -0.000007 0.243570
235.333862 -60.180553 4.564087 0.469200
235.173126 -60.254734 4.172618 0.421027
236.222015 -59.770664 4.040565 0.429908
236.650360 -59.572979 3.733507 0.603281
236.661545 -59.567822 3.345823 0.597925
236.002350 -59.872040 2.899706 0.532006
235.464722 -60.120155 2.509963 0.435172
236.554001 -59.617451 2.189498 0.615183
237.714508 -59.081879 1.789587 0.582193
246.793442 -54.891907 0.877083 0.968627
246.007690 -55.254539 0.196750 0.977584
241.824829 -57.184944 -0.000016 0.238998
238.281662 -58.820133 -0.000012 0.224098
236.019653 -59.864056 -0.000010 0.222207
234.447464 -60.589626 -0.000008 0.240877
233.289169 -61.124187 -0.000007 0.264609
235.353516 -60.250099 4.561321 0.419608
235.258804 -60.293015 4.186010 0.546670
236.624542 -59.674244 4.114469 0.442542
236.468506 -59.744942 3.698366 0.523293
236.049072 -59.934975 3.264180 0.439628
239.261307 -58.479626 3.190205 0.437171
236.902283 -59.548412 2.585871 0.430091
236.870209 -59.562946 2.194575 0.451560
237.398468 -59.323612 1.795935 0.559030
246.792908 -55.067337 0.880690 0.968627
246.007675 -55.423103 0.202499 0.980392
241.875305 -57.295322 -0.000016 0.217288
238.320801 -58.905735 -0.000012 0.238519
236.051559 -59.933846 -0.000010 0.236353
234.474350 -60.648415 -0.000008 0.216654
233.312347 -61.174881 -0.000007 0.274112
235.840744 -60.111572 4.686872 0.568719
235.305527 -60.349567 4.190215 0.442420
235.193771 -60.399265 3.822935 0.442145
235.680908 -60.182648 3.565192 0.433158
236.673874 -59.741100 3.338888 0.558984
239.150406 -58.639843 3.176529 0.411810
237.546112 -59.353237 2.618653 0.596445
236.905655 -59.638031 2.194600 0.430594
246.682846 -55.290359 1.630301 0.968627
246.792389 -55.241646 0.884220 0.968627
246.007660 -55.590599 0.208124 0.972854
241.925003 -57.406052 -0.000016 0.229675
238.359344 -58.991611 -0.000012 0.223248
236.082977 -60.003853 -0.000010 0.242744
234.500824 -60.707394 -0.000008 0.219443
233.335175 -61.225735 -0.000007 0.187668
236.951523 -59.708599 4.982192 0.573495
235.476913 -60.352028 4.223876 0.453056
235.193817 -60.475555 3.817347 0.466819
235.762817 -60.227272 3.573644 0.560616
235.835251 -60.195671 3.229517 0.444419
237.955704 -59.270432 3.066037 0.455909
237.149796 -59.622082 2.595511 0.435706
237.407852 -59.509483 2.202969 0.431281
246.682678 -55.462517 1.631440 0.968627
246.791885 -55.414864 0.887674 0.968627
246.007660 -55.757057 0.213627 0.956863
241.973938 -57.517124 -0.000016 0.213052
238.397293 -59.077751 -0.000012 0.224182
236.113922 -60.074078 -0.000010 0.212178
234.526886 -60.766560 -0.000008 0.249554
233.357651 -61.276745 -0.000008 0.206122
236.487274 -59.997726 4.846716 0.419867
235.209045 -60.544880 4.154245 0.432425
235.380051 -60.471680 3.848734 0.442451
235.609116 -60.373631 3.544101 0.431556
235.485901 -60.426376 3.182096 0.442039
238.145218 -59.288044 3.079728 0.430091
237.664734 -59.493713 2.621235 0.434012
237.132858 -59.721386 2.197463 0.453452
246.682526 -55.633625 1.632553 0.968627
246.791397 -55.587017 0.891052 0.968627
246.007645 -55.922508 0.219009 0.980026
242.022095 -57.628536 -0.000016 0.243031
238.434631 -59.164158 -0.000012 0.202137
236.144363 -60.144516 -0.000010 0.216355
234.552536 -60.825901 -0.000008 0.236186
233.379761 -61.327915 -0.000007 0.227210
235.187607 -60.629402 4.485228 0.458701
235.197433 -60.625275 4.145159 0.436805
235.632416 -60.442661 3.893072 0.438437
235.962692 -60.304008 3.596422 0.438148
235.574600 -60.466934 3.189671 0.419608
238.116653 -59.399738 3.073997 0.418936
237.406281 -59.697964 2.605628 0.439109
237.075760 -59.836723 2.195866 0.438499
246.682358 -55.803707 1.633641 0.968627
246.790909 -55.758133 0.894354 0.968627
246.007629 -56.086967 0.224274 0.980392
242.069458 -57.740284 -0.000016 0.224852
238.471375 -59.250820 -0.000012 0.219993
236.174316 -60.215164 -0.000010 0.256208
234.577774 -60.885422 -0.000008 0.207307
233.401520 -61.379234 -0.000007 0.275991
235.182053 -60.706593 4.476521 0.558862
235.047531 -60.761967 4.103930 0.458427
235.291245 -60.661644 3.820454 0.440146
236.775085 -60.050858 3.722111 0.456931
235.730133 -60.480984 3.205572 0.465904
238.167816 -59.477566 3.075421 0.434928
237.726852 -59.659081 2.620903 0.437781
237.966812 -59.560303 2.211066 0.431373
246.682190 -55.972797 1.634706 0.968627
246.790436 -55.928242 0.897584 0.968627
246.007629 -56.250469 0.229420 0.970321
242.116058 -57.852356 -0.000016 0.228802
238.507507 -59.337738 -0.000012 0.241152
236.203766 -60.286026 -0.000010 0.238831
234.602585 -60.945118 -0.000008 0.211843
233.422913 -61.430706 -0.000007 0.234546
236.094330 -60.412926 4.715899 0.432792
235.155807 -60.791611 4.123170 0.438834
236.932510 -60.074734 4.137312 0.430274
235.930679 -60.478958 3.582152 0.431540
235.695801 -60.573734 3.197887 0.419608
237.657837 -59.782070 3.027275 0.550881
236.685501 -60.174397 2.563973 0.549142
239.082214 -59.207352 2.230148 0.422553
246.682053 -56.140907 1.635746 0.968627
246.789978 -56.097363 0.900741 0.968627
246.007614 -56.413033 0.234452 0.973724
242.161850 -57.964752 -0.000016 0.218270
238.543030 -59.424904 -0.000012 0.223703
236.232727 -60.357086 -0.000010 0.228478
234.626984 -61.004986 -0.000008 0.207882
233.443954 -61.482327 -0.000007 0.206613
235.125687 -60.877319 4.447424 0.445167
235.972855 -60.542355 4.307015 0.428321
235.191452 -60.851318 3.790700 0.424094
236.389175 -60.377743 3.650882 0.535409
237.728531 -59.848171 3.446014 0.431601
237.950562 -59.760384 3.050224 0.420432
236.697906 -60.255672 2.563058 0.591775
246.575500 -56.350140 2.361364 0.968627
246.681900 -56.308071 1.636763 0.968627
246.789520 -56.265518 0.903826 0.968627
246.007599 -56.574680 0.239369 0.965545
242.206879 -58.077465 -0.000016 0.246873
238.577942 -59.512318 -0.000012 0.230070
236.261200 -60.428349 -0.000010 0.233337
234.650970 -61.065022 -0.000008 0.185993
233.464630 -61.534092 -0.000008 0.252223
234.822311 -61.067978 4.359254 0.425162
235.109024 -60.956924 4.100644 0.441794
236.071320 -60.584183 3.957504 0.457420
235.925415 -60.640701 3.572603 0.430320
236.738388 -60.325802 3.319914 0.562325
237.147919 -60.167171 2.976781 0.426825
236.696136 -60.342167 2.561429 0.511559
246.575653 -56.515411 2.360381 0.968627
246.681747 -56.474312 1.637757 0.968627
246.789078 -56.432743 0.906840 0.968627
246.007599 -56.735439 0.244174 0.968627
242.251114 -58.190491 -0.000016 0.239668
238.612259 -59.599972 -0.000012 0.230190
236.289154 -60.499805 -0.000010 0.255023
234.674530 -61.125221 -0.000008 0.192359
233.484940 -61.585999 -0.000007 0.236353
234.903488 -61.107513 4.374696 0.419303
235.260345 -60.972145 4.129983 0.426719
237.245483 -60.219112 4.180772 0.446799
236.399002 -60.540211 3.643536 0.451575
236.759094 -60.403614 3.318936 0.431525
237.236481 -60.222527 2.981937 0.432807
237.842041 -59.992813 2.620137 0.430976
246.575790 -56.679798 2.359420 0.968627
246.681610 -56.639656 1.638728 0.968627
246.788635 -56.599052 0.909784 0.968627
246.007584 -56.895332 0.248867 0.967025
242.294556 -58.303818 -0.000016 0.250308
238.645950 -59.687866 -0.000012 0.210503
236.316620 -60.571457 -0.000010 0.236461
234.697662 -61.185589 -0.000008 0.209892
233.504898 -61.638046 -0.000008 0.258853
235.059723 -61.120090 4.410229 0.433768
235.069122 -61.116600 4.080356 0.431022
235.212051 -61.063519 3.780380 0.453651
236.059174 -60.748924 3.585462 0.439216
235.982758 -60.777302 3.220215 0.427359
235.819946 -60.837769 2.855467 0.419608
237.874008 -60.074947 2.620190 0.431601
246.575928 -56.843315 2.358482 0.968627
246.681473 -56.804119 1.639675 0.968627
246.788223 -56.764473 0.912659 0.968627
246.007584 -57.054382 0.253451 0.968627
242.337204 -58.417450 -0.000016 0.204411
238.679016 -59.775990 -0.000012 0.215649
236.343597 -60.643299 -0.000010 0.249853
234.720383 -61.246113 -0.000008 0.248237
233.524475 -61.690235 -0.000007 0.227880
235.069092 -61.188160 4.406551 0.462486
235.049484 -61.195286 4.070513 0.449210
235.221222 -61.132870 3.777595 0.424216
235.398972 -61.068268 3.477201 0.439948
237.307419 -60.374649 3.379230 0.431449
237.312836 -60.372684 2.983519 0.431525
236.735184 -60.582623 2.559074 0.554940
246.576065 -57.005993 2.357567 0.968627
246.681335 -56.967731 1.640601 0.968627
246.787811 -56.929035 0.915466 0.968627
246.007568 -57.212608 0.257925 0.975067
242.379059 -58.531376 -0.000016 0.233864
238.711487 -59.864346 -0.000012 0.223727
236.370056 -60.715328 -0.000010 0.237119
234.742676 -61.306793 -0.000008 0.281831
233.543701 -61.742558 -0.000007 0.211017
235.748047 -61.017937 4.581016 0.437064
236.253128 -60.838348 4.341229 0.419608
235.449402 -61.124123 3.817203 0.394186
235.422256 -61.133778 3.477163 0.420539
236.019333 -60.921478 3.218502 0.431373
235.902710 -60.962944 2.858339 0.434546
236.785278 -60.649136 2.560284 0.517922
246.576187 -57.167847 2.356672 0.968627
246.681198 -57.130508 1.641504 0.968627
246.787415 -57.092747 0.918206 0.968627
246.007568 -57.370029 0.262293 0.975891
242.420120 -58.645592 -0.000016 0.225271
238.743332 -59.952923 -0.000012 0.227449
236.396027 -60.787540 -0.000010 0.257165
234.764557 -61.367630 -0.000008 0.236461
233.562561 -61.795013 -0.000007 0.178154
235.239212 -61.271030 4.439746 0.429618
236.319336 -60.895447 4.350627 0.429160
235.239517 -61.270924 3.772314 0.447379
235.445541 -61.199284 3.477198 0.469184
237.418274 -60.513325 3.385902 0.419913
235.400391 -61.214981 2.812628 0.415167
238.365463 -60.183968 2.641099 0.428809
238.507004 -60.134754 2.215999 0.420264
246.681061 -57.292480 1.642385 0.968627
246.787018 -57.255642 0.920879 0.968627
246.007553 -57.526672 0.266554 0.980392
242.460388 -58.760090 -0.000016 0.201156
238.774551 -60.041721 -0.000012 0.256375
236.421478 -60.859932 -0.000010 0.278337
234.785995 -61.428619 -0.000008 0.240566
233.581055 -61.847599 -0.000007 0.259774
236.064072 -61.062466 4.652124 0.462989
236.354309 -60.963814 4.352968 0.402090
237.077744 -60.717907 4.121337 0.558770
235.468842 -61.264793 3.477307 0.436667
236.243835 -61.001366 3.239878 0.464027
236.059998 -61.063850 2.867804 0.458289
246.472885 -57.524384 3.060235 0.968627
238.600388 -60.200344 2.217095 0.437873
246.680939 -57.453663 1.643245 0.968627
246.786636 -57.417740 0.923486 0.968627
246.007553 -57.682560 0.270710 0.980392
242.499847 -58.874866 -0.000016 0.231111
238.805161 -60.130737 -0.000012 0.226623
236.446426 -60.932499 -0.000010 0.192276
234.807007 -61.489754 -0.000008 0.205237
233.599182 -61.900311 -0.000008 0.237754
235.913528 -61.190353 4.606177 0.434806
236.383072 -61.034401 4.354001 0.423194
235.257767 -61.408161 3.767422 0.428382
235.492157 -61.330307 3.477491 0.425818
236.216461 -61.089741 3.233655 0.437263
235.828751 -61.218513 2.845790 0.431373
235.378784 -61.367970 2.483455 0.428382
246.576569 -57.648712 2.354119 0.968627
246.680817 -57.614082 1.644083 0.968627
246.786255 -57.579063 0.926028 0.968627
246.007538 -57.837708 0.274763 0.980392
242.538513 -58.989922 -0.000016 0.222471
238.835144 -60.219963 -0.000012 0.217863
236.470871 -61.005241 -0.000010 0.206458
234.827606 -61.551033 -0.000008 0.246191
233.616928 -61.953152 -0.000007 0.217624
235.826355 -61.294998 4.577252 0.438407
236.311005 -61.137772 4.332252 0.422415
235.841141 -61.290199 3.874971 0.419516
245.542267 -58.143070 5.041386 0.223529
235.480698 -61.407127 3.141847 0.431373
245.735458 -58.080399 3.697833 0.223529
235.390396 -61.436424 2.482949 0.421942
245.930389 -58.017159 2.342192 0.223529
246.029053 -57.985153 1.656110 0.223529
246.128799 -57.952797 0.962442 0.223529
246.007538 -57.992134 0.278713 0.980392
242.576355 -59.105236 -0.000016 0.245832
238.864502 -60.309399 -0.000012 0.251074
236.494797 -61.078148 -0.000010 0.225474
234.847778 -61.612457 -0.000008 0.229173
233.634323 -62.006111 -0.000007 0.194298
235.741226 -61.397308 4.549124 0.431205
236.242859 -61.238430 4.311599 0.458946
236.620758 -61.118748 4.019580 0.424323
245.543213 -58.292919 5.034734 0.223529
235.492340 -61.476128 3.140699 0.492897
236.533890 -61.146259 2.902617 0.548455
245.832916 -58.201168 3.019991 0.223529
245.930481 -58.170265 2.341429 0.223529
246.028915 -58.139091 1.656881 0.223529
246.128448 -58.107571 0.964780 0.223529
246.007523 -58.145866 0.282562 0.980392
242.613403 -59.220818 -0.000016 0.228203
238.893234 -60.399033 -0.000012 0.241033
236.518219 -61.151222 -0.000010 0.233421
234.867508 -61.674019 -0.000008 0.216475
233.651337 -62.059193 -0.000008 0.175305
236.097122 -61.361679 4.636871 0.438117
236.657883 -61.188377 4.400374 0.450156
237.689850 -60.869453 4.218778 0.433829
237.830627 -60.825947 3.830670 0.433936
235.503998 -61.544979 3.139614 0.419608
235.263931 -61.619171 2.791657 0.545998
245.919357 -58.326164 3.022211 0.223529
238.956436 -60.478024 2.221236 0.426230
246.028793 -58.292343 1.657632 0.223529
246.128098 -58.261658 0.967056 0.223529
246.007523 -58.298920 0.286309 0.980392
242.649658 -59.336651 -0.000016 0.220963
238.921341 -60.488869 -0.000013 0.217504
236.541138 -61.224457 -0.000010 0.186866
234.886810 -61.735718 -0.000008 0.213172
233.667984 -62.112392 -0.000007 0.216882
237.285706 -61.080181 4.942213 0.435111
237.094086 -61.137936 4.493663 0.439109
237.642883 -60.972523 4.205130 0.428183
245.864029 -58.494560 5.071369 0.974136
235.515686 -61.613689 3.138591 0.446998
235.229538 -61.699940 2.787026 0.462837
246.474609 -58.310524 3.048524 0.968627
246.577011 -58.279655 2.351009 0.968627
246.420135 -58.326942 1.651672 0.223529
246.418930 -58.327309 0.954333 0.223529
246.007507 -58.451313 0.289958 0.980392
242.685089 -59.452736 -0.000016 0.222195
238.948822 -60.578899 -0.000012 0.245604
236.563538 -61.297852 -0.000010 0.180523
234.905685 -61.797550 -0.000008 0.230058
233.684250 -62.165707 -0.000007 0.209605
237.052322 -61.234219 4.875175 0.467674
237.254883 -61.174706 4.524682 0.440360
236.143173 -61.501339 3.916137 0.419608
235.912338 -61.569164 3.526403 0.431373
235.027908 -61.829021 3.077742 0.441001
238.219498 -60.891285 3.040919 0.456458
246.474915 -58.465733 3.046364 0.968627
246.577133 -58.435703 2.350282 0.968627
246.680252 -58.405407 1.647959 0.968627
246.784531 -58.374767 0.937783 0.968627
246.007507 -58.603065 0.293507 0.980392
242.719711 -59.569065 -0.000016 0.253312
238.975662 -60.669117 -0.000013 0.234127
236.585434 -61.371399 -0.000010 0.195339
234.924118 -61.859512 -0.000009 0.280503
233.700150 -62.219135 -0.000007 0.292183
245.921707 -58.778755 7.180251 0.968627
236.668182 -61.427528 4.387773 0.406836
237.259018 -61.258408 4.123450 0.431388
235.711487 -61.701382 3.492324 0.431373
235.539139 -61.750713 3.136737 0.419608
237.147324 -61.290375 2.947370 0.458137
236.085983 -61.594181 2.513374 0.439139
246.577225 -58.591114 2.349575 0.968627
246.680145 -58.561657 1.648673 0.968627
246.784210 -58.531868 0.939947 0.968627
246.007507 -58.754196 0.296960 0.973129
242.753510 -59.685635 -0.000016 0.238735
239.001892 -60.759518 -0.000012 0.206577
236.606796 -61.445099 -0.000010 0.212154
234.942139 -61.921604 -0.000009 0.226205
233.715683 -62.272671 -0.000007 0.188554
236.746567 -61.485809 4.784199 0.454994
246.039230 -58.895882 6.484156 0.968627
235.699356 -61.777672 3.824661 0.431373
235.783920 -61.754105 3.500539 0.438315
235.490891 -61.835773 3.128736 0.430854
237.235077 -61.349655 2.952972 0.430518
246.475525 -58.774284 3.042221 0.968627
246.577332 -58.745907 2.348888 0.968627
246.680038 -58.717281 1.649367 0.968627
246.783905 -58.688335 0.942052 0.968627
246.007492 -58.904724 0.300316 0.980392
242.786499 -59.802437 -0.000016 0.244432
239.027481 -60.850101 -0.000012 0.223907
236.627655 -61.518948 -0.000010 0.193544
234.959702 -61.983818 -0.000009 0.222135
233.730835 -62.326313 -0.000007 0.264490
236.755814 -61.563698 4.781262 0.515373
235.996292 -61.769680 4.228143 0.417014
236.050247 -61.755051 3.887314 0.437736
235.857468 -61.807331 3.508966 0.491051
235.881866 -61.800713 3.173173 0.432334
235.793594 -61.824650 2.828681 0.436561
237.249359 -61.429852 2.570597 0.464729
246.577423 -58.900101 2.348221 0.968627
246.679947 -58.872299 1.650041 0.968627
246.783600 -58.844189 0.944095 0.968627
246.007492 -59.054668 0.303576 0.976806
242.818680 -59.919464 -0.000015 0.219335
239.052429 -60.940865 -0.000013 0.219467
236.648010 -61.592937 -0.000010 0.238220
234.976837 -62.046154 -0.000009 0.224373
233.745605 -62.380058 -0.000007 0.247543
245.926529 -59.225395 7.151752 0.968627
246.041977 -59.194946 6.467824 0.968627
235.860596 -61.879951 3.848107 0.431373
235.932159 -61.861076 3.517609 0.426093
235.867950 -61.878010 3.169330 0.431373
235.929855 -61.861687 2.838689 0.421363
235.938828 -61.859318 2.502950 0.523537
237.311081 -61.497433 2.190753 0.438300
246.679855 -59.026733 1.650695 0.968627
246.783310 -58.999447 0.946080 0.968627
246.007492 -59.204044 0.306741 0.968627
242.850037 -60.036716 -0.000016 0.254437
239.076752 -61.031796 -0.000012 0.213674
236.667831 -61.667068 -0.000010 0.187189
234.993546 -62.108604 -0.000009 0.252007
233.760010 -62.433910 -0.000008 0.233038
236.775055 -61.718803 4.776014 0.434012
246.043304 -59.343693 6.460016 0.968627
235.940369 -61.932709 3.859739 0.420661
245.864075 -59.389618 5.035724 0.980392
235.854950 -61.954597 3.165665 0.431815
236.053101 -61.903816 2.847601 0.514076
235.891373 -61.945259 2.499631 0.419608
237.178680 -61.615372 2.188171 0.431373
246.679749 -59.180592 1.651330 0.968627
246.783035 -59.154125 0.948006 0.968627
246.007477 -59.352871 0.309812 0.968627
242.880585 -60.154182 -0.000015 0.248189
239.100433 -61.122894 -0.000012 0.231351
236.687134 -61.741337 -0.000010 0.242852
235.009811 -62.171173 -0.000009 0.248584
233.774033 -62.487858 -0.000007 0.216702
245.929504 -59.520569 7.134120 0.968627
237.013138 -61.739288 4.442358 0.435691
235.887848 -62.019306 3.846616 0.442618
237.073746 -61.724209 3.686690 0.425895
235.842896 -62.030487 3.162184 0.425681
235.901001 -62.016033 2.833255 0.424323
236.259171 -61.926907 2.517371 0.431373
246.577698 -59.359276 2.346334 0.968627
246.679657 -59.333904 1.651946 0.968627
246.782761 -59.308250 0.949873 0.968627
246.007477 -59.501167 0.312789 0.947982
242.910309 -60.271858 -0.000016 0.210251
239.123489 -61.214157 -0.000013 0.209545
236.705933 -61.815735 -0.000010 0.223201
235.025650 -62.233852 -0.000009 0.241655
233.787689 -62.541904 -0.000007 0.237514
245.930923 -59.667431 7.125707 0.968627
237.022873 -61.818157 4.440343 0.481102
235.836960 -62.104481 3.833931 0.404349
236.475861 -61.950226 3.592569 0.552392
246.276886 -59.583900 4.395020 0.968627
235.887802 -62.092201 2.830718 0.427024
237.166122 -61.783569 2.562322 0.425742
246.577789 -59.511253 2.345744 0.968627
246.679581 -59.486679 1.652543 0.968627
246.782486 -59.461834 0.951682 0.968627
246.007477 -59.648949 0.315675 0.961776
242.939194 -60.389744 -0.000016 0.243103
239.145889 -61.305580 -0.000012 0.221824
236.724197 -61.890266 -0.000010 0.232176
235.041031 -62.296642 -0.000008 0.251134
233.800949 -62.596043 -0.000007 0.253946
245.932297 -59.813828 7.117560 0.968627
246.047012 -59.786976 6.438000 0.968627
237.219101 -61.853237 4.089177 0.425940
236.567307 -62.005798 3.603861 0.456550
236.082275 -62.119324 3.186554 0.451713
235.846741 -62.174454 2.825883 0.455116
236.405396 -62.043694 2.523007 0.434684
237.354874 -61.821457 2.190168 0.431373
246.679489 -59.638939 1.653121 0.968627
246.782227 -59.614891 0.953434 0.968627
246.007462 -59.796234 0.318469 0.968719
242.967270 -60.507820 -0.000016 0.222686
239.167664 -61.397156 -0.000012 0.228837
236.741943 -61.964920 -0.000010 0.246382
235.055984 -62.359539 -0.000008 0.259547
233.813843 -62.650272 -0.000007 0.243953
245.933624 -59.959778 7.109677 0.968627
246.048172 -59.933807 6.431125 0.968627
246.162415 -59.907906 5.754405 0.968627
245.864105 -59.975533 5.015329 0.980392
246.278015 -59.881699 4.387338 0.968627
246.377487 -59.859146 3.709938 0.968627
246.477386 -59.836498 3.029528 0.968627
246.577957 -59.813702 2.344618 0.968627
246.679413 -59.790699 1.653679 0.968627
246.781982 -59.767445 0.955128 0.968627
246.007446 -59.943039 0.321172 0.975250
242.994522 -60.626095 -0.000016 0.249733
239.188797 -61.488884 -0.000012 0.218569
236.759186 -62.039700 -0.000010 0.247507
235.070496 -62.422535 -0.000008 0.223488
233.826370 -62.704590 -0.000007 0.245377
245.934906 -60.105293 7.102056 0.968627
246.049301 -60.080200 6.424479 0.968627
237.186707 -62.024471 4.076539 0.428885
236.727142 -62.125286 3.623065 0.427176
236.853882 -62.097485 3.273682 0.432853
235.824265 -62.323360 2.821385 0.431373
237.280746 -62.003838 2.565380 0.429923
246.578033 -59.964203 2.344083 0.968627
246.679321 -59.941982 1.654220 0.968627
246.781738 -59.919514 0.956766 0.968627
246.007446 -60.089378 0.323784 0.980392
243.020950 -60.744556 -0.000016 0.218030
239.209290 -61.580757 -0.000012 0.212358
236.775879 -62.114597 -0.000010 0.256364
235.084564 -62.485634 -0.000008 0.188781
233.838501 -62.758999 -0.000007 0.201240
245.936157 -60.250385 7.094697 0.968627
246.050385 -60.226162 6.418059 0.968627
236.377045 -62.277618 3.922816 0.432547
245.864136 -60.265663 5.006109 0.979385
246.279083 -60.177662 4.380160 0.968627
246.378250 -60.156631 3.704772 0.968627
246.477844 -60.135506 3.026402 0.968627
246.578110 -60.114243 2.343567 0.968627
246.679260 -60.092796 1.654741 0.968627
246.781509 -60.071110 0.958347 0.968627
246.007446 -60.235268 0.326307 0.980392
243.046539 -60.863197 -0.000016 0.237933
239.229141 -61.672768 -0.000012 0.221346
236.792053 -62.189606 -0.000010 0.244743
235.098206 -62.548828 -0.000008 0.226073
233.850250 -62.813484 -0.000007 0.201084
245.937347 -60.395084 7.087596 0.968627
246.051422 -60.371723 6.411866 0.968627
236.448730 -62.338245 3.933334 0.439216
236.479980 -62.331848 3.580841 0.423590
246.279572 -60.325001 4.376759 0.968627
246.378601 -60.304722 3.702323 0.968627
246.478058 -60.284351 3.024921 0.968627
246.578186 -60.263847 2.343069 0.968627
246.679184 -60.243168 1.655244 0.968627
246.781281 -60.222256 0.959873 0.968627
246.007431 -60.380733 0.328742 0.980392
243.071304 -60.982018 -0.000016 0.217013
239.248352 -61.764915 -0.000012 0.213746
236.807724 -62.264729 -0.000010 0.233170
235.111404 -62.612118 -0.000008 0.210084
233.861633 -62.868057 -0.000007 0.236126
245.938507 -60.539391 7.080752 0.968627
246.052429 -60.516888 6.405897 0.968627
246.166046 -60.494446 5.732908 0.968627
245.864136 -60.554081 4.997528 0.980392
246.280060 -60.471928 4.373479 0.968627
246.378952 -60.452393 3.699963 0.968627
246.478271 -60.432774 3.023493 0.968627
246.578247 -60.413025 2.342588 0.968627
246.679108 -60.393105 1.655729 0.968627
246.781067 -60.372967 0.961344 0.968627
246.007431 -60.525776 0.331087 0.978927
243.095245 -61.101006 -0.000016 0.251146
239.266907 -61.857197 -0.000012 0.223584
236.822861 -62.339958 -0.000010 0.196656
235.124146 -62.675495 -0.000008 0.209294
233.872620 -62.922703 -0.000007 0.201563
245.939621 -60.683323 7.074162 0.968627
246.053406 -60.661671 6.400149 0.968627
246.166870 -60.640079 5.728012 0.968627
236.776199 -62.426949 3.621217 0.453742
246.280518 -60.618458 4.370323 0.968627
246.379272 -60.599663 3.697691 0.968627
246.478470 -60.580788 3.022119 0.968627
246.578323 -60.561790 2.342126 0.968627
246.679047 -60.542625 1.656196 0.968627
246.780853 -60.523251 0.962759 0.968627
246.007431 -60.670418 0.333345 0.980392
243.118347 -61.220158 -0.000016 0.229747
239.284821 -61.949604 -0.000012 0.214153
236.837463 -62.415291 -0.000010 0.209138
235.136459 -62.738960 -0.000009 0.193137
233.883224 -62.977425 -0.000007 0.214392
245.940704 -60.826897 7.067827 0.968627
246.054337 -60.806095 6.394624 0.968627
246.167664 -60.785347 5.723304 0.968627
236.811234 -62.498104 3.624388 0.417304
246.280960 -60.764606 4.367288 0.968627
246.379608 -60.746552 3.695508 0.968627
246.478668 -60.728416 3.020798 0.968627
246.578384 -60.710163 2.341681 0.968627
246.678970 -60.691750 1.656645 0.968627
246.780655 -60.673138 0.964120 0.968627
246.007431 -60.814682 0.335516 0.980392
243.140610 -61.339470 -0.000016 0.225845
