# This PCD file was generated using the MATLABÂ® pcwrite function
# from Computer Vision ToolboxÂ®.
# .PCD v.7 - Point Cloud Data file format
VERSION .7
FIELDS x y z intensity
SIZE 4 4 4 4
TYPE F F F F
COUNT 1 1 1 1
WIDTH 1254
HEIGHT 1
VIEWPOINT 0 0 0 1 0 0 0
POINTS 1254
DATA ascii
206.548111 -150.746689 -0.000016 0.226923
213.766357 -136.110306 -0.000011 0.232464
216.865387 -129.826385 -0.000008 0.240087
218.591400 -126.326591 -0.000006 0.264909
219.693314 -124.092239 0.000001 0.338064
220.459167 -122.539307 0.000001 0.333486
221.023422 -121.395180 0.000001 0.334890
nan nan nan 0.000000
nan nan nan 0.000000
nan nan nan 0.000000
nan nan nan 0.000000
nan nan nan 0.000000
nan nan nan 0.000000
nan nan nan 0.000000
nan nan nan 0.000000
nan nan nan 0.000000
206.293655 -150.620102 -0.000017 0.232907
213.613892 -136.034454 -0.000010 0.223452
216.756729 -129.772339 -0.000008 0.252689
218.507126 -126.284660 -0.000006 0.233708
219.624603 -124.058060 0.000001 0.332708
220.401291 -122.510513 0.000001 0.331106
220.973511 -121.370354 0.000001 0.332433
nan nan nan 0.000000
207.846756 -146.953720 9.934795 0.587213
nan nan nan 0.000000
nan nan nan 0.000000
nan nan nan 0.000000
nan nan nan 0.000000
nan nan nan 0.000000
nan nan nan 0.000000
nan nan nan 0.000000
206.040085 -150.491714 -0.000017 0.228658
213.461960 -135.957550 -0.000010 0.225379
216.648438 -129.717514 -0.000008 0.229388
218.423141 -126.242142 -0.000006 0.246921
219.556137 -124.023399 0.000001 0.336843
220.343613 -122.481316 0.000001 0.333715
220.923782 -121.345177 0.000001 0.329900
nan nan nan 0.000000
207.561905 -146.945694 9.961426 0.580926
nan nan nan 0.000000
nan nan nan 0.000000
nan nan nan 0.000000
nan nan nan 0.000000
207.570450 -146.929260 3.810003 0.681849
nan nan nan 0.000000
nan nan nan 0.000000
205.787415 -150.361572 -0.000017 0.228335
213.310577 -135.879578 -0.000011 0.225798
216.540543 -129.661942 -0.000008 0.235252
218.339462 -126.199043 -0.000006 0.225020
219.487930 -123.988266 0.000000 0.335683
220.286133 -122.451714 0.000001 0.342763
220.874222 -121.319656 0.000000 0.342763
nan nan nan 0.000000
207.497101 -146.517487 9.885996 0.719799
207.570450 -146.378677 8.615150 0.647959
207.570450 -146.378677 7.392867 0.678157
207.570450 -146.378677 6.182393 0.657664
207.570450 -146.378677 4.981000 0.658167
207.570450 -146.378677 3.786044 0.651255
207.570435 -146.378677 2.594922 0.630961
207.570435 -146.378677 1.405077 0.666987
207.570450 -146.378677 0.213956 0.620157
213.159744 -135.800537 -0.000010 0.225391
216.433029 -129.605606 -0.000008 0.230968
218.256073 -126.155357 -0.000006 0.217360
219.419952 -123.952652 0.000001 0.336568
220.228867 -122.421707 0.000001 0.345769
220.824844 -121.293785 0.000001 0.336217
nan nan nan 0.000000
207.570450 -145.842468 9.749886 0.658366
207.570450 -145.842484 8.529050 0.662257
207.570435 -145.842484 7.322674 0.648722
207.570450 -145.842484 6.127954 0.633524
207.570450 -145.842484 4.942201 0.665202
207.570435 -145.842484 3.762796 0.664805
207.570450 -145.842484 2.587179 0.621744
207.570450 -145.842484 1.412821 0.679744
207.570435 -145.842484 0.237203 0.633783
213.009460 -135.720459 -0.000011 0.235145
216.325928 -129.548523 -0.000008 0.246071
218.173004 -126.111099 -0.000006 0.236724
219.352234 -123.916565 0.000000 0.336522
220.171814 -122.391312 0.000001 0.344076
220.775650 -121.267570 0.000001 0.341161
nan nan nan 0.000000
207.570450 -145.320007 9.650671 0.663386
207.570450 -145.320023 8.445467 0.648493
207.570450 -145.320007 7.254532 0.653452
207.570435 -145.320023 6.075109 0.636988
207.570450 -145.320007 4.904534 0.658244
207.570450 -145.320023 3.740229 0.627298
207.570450 -145.320023 2.579663 0.674235
207.570450 -145.320023 1.420338 0.662898
207.570450 -145.320023 0.259771 0.664210
212.859741 -135.639328 -0.000010 0.226719
216.219208 -129.490707 -0.000008 0.243462
218.090256 -126.066254 -0.000006 0.220424
219.311111 -123.831787 0.009998 1.000000
220.114975 -122.360512 0.000000 0.334997
220.726654 -121.241013 0.000001 0.341894
nan nan nan 0.000000
207.570450 -144.810745 9.554335 0.645258
207.570450 -144.810745 8.364304 0.653178
207.570450 -144.810745 7.188365 0.623926
207.570450 -144.810745 6.023793 0.654322
207.570450 -144.810745 4.867960 0.674159
207.570450 -144.810745 3.718315 0.668482
207.570450 -144.810745 2.572363 0.646693
207.570450 -144.810745 1.427637 0.673411
207.570450 -144.810745 0.281685 0.668070
212.710602 -135.557159 -0.000010 0.228837
216.112900 -129.432144 -0.000008 0.227521
218.007797 -126.020836 -0.000006 0.233888
219.244217 -123.794975 0.009992 1.000000
220.058350 -122.329315 0.000000 0.327657
220.677826 -121.214119 0.000000 0.329198
nan nan nan 0.000000
207.570450 -144.314102 9.460745 0.622232
207.570450 -144.314102 8.285456 0.660578
207.570450 -144.314102 7.124088 0.671580
207.570450 -144.314102 5.973944 0.652110
207.570450 -144.314102 4.832429 0.653132
207.570450 -144.314102 3.697027 0.672389
207.570450 -144.314102 2.565272 0.667506
207.570450 -144.314102 1.434728 0.653666
207.570450 -144.314102 0.302972 0.672999
212.562012 -135.473953 -0.000010 0.217899
216.007004 -129.372833 -0.000008 0.225319
217.925674 -125.974838 -0.000006 0.218940
219.177597 -123.757668 0.009992 1.000000
220.001953 -122.297729 0.000000 0.329931
220.629181 -121.186882 0.000000 0.338277
206.765610 -145.232025 10.952326 0.573190
207.570450 -143.829590 9.369804 0.658351
207.570450 -143.829605 8.208841 0.665766
207.570450 -143.829590 7.061628 0.664744
207.570450 -143.829590 5.925504 0.672114
207.570450 -143.829605 4.797904 0.653651
207.570450 -143.829605 3.676342 0.658091
207.570450 -143.829590 2.558381 0.657542
207.570450 -143.829590 1.441618 0.675944
207.570450 -143.829605 0.323658 0.650339
212.414032 -135.389709 -0.000010 0.235180
215.901520 -129.312790 -0.000008 0.236138
217.843872 -125.928268 -0.000006 0.214105
219.083908 -123.767525 -0.000000 0.335149
219.945770 -122.265747 0.000000 0.332082
220.580750 -121.159302 -0.000000 0.331182
206.877396 -144.545105 10.789370 0.723217
207.570450 -143.356750 9.281406 0.629358
207.570450 -143.356750 8.134369 0.653742
207.570450 -143.356750 7.000917 0.673274
207.570450 -143.356750 5.878419 0.647379
207.570450 -143.356750 4.764345 0.653758
207.570450 -143.356750 3.656235 0.660685
207.570450 -143.356750 2.551685 0.646281
207.570450 -143.356750 1.448316 0.654108
207.570450 -143.356750 0.343765 0.654902
212.266632 -135.304443 -0.000010 0.231279
215.796463 -129.252014 -0.000008 0.232739
217.762405 -125.881134 -0.000006 0.218258
219.017487 -123.729095 -0.000000 0.339498
219.889816 -122.233376 -0.000000 0.332738
220.532501 -121.131393 -0.000000 0.333303
206.984726 -143.883453 10.632872 0.571038
207.570450 -142.895081 9.195450 0.648783
207.570450 -142.895081 8.061953 0.667582
207.570450 -142.895081 6.941882 0.690059
207.570450 -142.895081 5.832634 0.674403
207.570450 -142.895081 4.731711 0.647547
207.570450 -142.895081 3.636684 0.649470
207.570450 -142.895081 2.545172 0.649516
207.570450 -142.895081 1.454829 0.650156
207.570450 -142.895081 0.363316 0.683314
212.119843 -135.218140 -0.000010 0.220472
215.691849 -129.190491 -0.000008 0.229532
217.681259 -125.833427 -0.000006 0.227784
218.951324 -123.690231 -0.000005 0.256519
219.834076 -122.200607 -0.000000 0.339086
220.484436 -121.103142 -0.000000 0.340749
207.087906 -143.245636 10.482457 0.765866
207.570450 -142.444168 9.111839 0.677455
207.570450 -142.444168 7.991516 0.657938
207.570450 -142.444183 6.884459 0.673182
207.570450 -142.444168 5.788101 0.647059
207.570450 -142.444183 4.699970 0.656291
207.570450 -142.444168 3.617665 0.632013
207.570450 -142.444168 2.538836 0.639506
207.570450 -142.444168 1.461163 0.651240
207.570450 -142.444168 0.382334 0.662028
211.973648 -135.130814 -0.000010 0.218952
215.587646 -129.128265 -0.000008 0.223093
217.600449 -125.785164 -0.000006 0.220747
218.885452 -123.650879 -0.000005 0.265902
219.778580 -122.167458 -0.000000 0.338598
220.436584 -121.074554 0.000000 0.342031
207.187134 -142.630295 10.337790 0.555200
207.570450 -142.003586 9.030490 0.667247
207.570450 -142.003586 7.922979 0.666941
207.570450 -142.003601 6.828588 0.654902
207.570450 -142.003586 5.744770 0.664576
207.570450 -142.003586 4.669086 0.660761
207.570450 -142.003586 3.599161 0.634256
207.570450 -142.003586 2.532673 0.674556
207.570450 -142.003586 1.467327 0.691707
207.570450 -142.003586 0.400838 0.653742
211.828064 -135.042465 -0.000010 0.232799
215.483887 -129.065292 -0.000008 0.235647
217.519974 -125.736328 -0.000006 0.245533
218.819839 -123.611069 -0.000005 0.230573
219.723312 -122.133919 -0.000001 0.335210
220.388931 -121.045639 0.000000 0.343008
207.282623 -142.036240 10.198570 0.770672
207.570450 -141.572952 8.951315 0.653437
207.570450 -141.572952 7.856278 0.653559
207.570450 -141.572952 6.774210 0.675517
207.570450 -141.572952 5.702599 0.650919
207.570450 -141.572952 4.639028 0.663905
207.570450 -141.572952 3.581152 0.634409
207.570450 -141.572952 2.526675 0.657023
207.570450 -141.572952 1.473326 0.649439
207.570450 -141.572952 0.418847 0.644831
211.683105 -134.953110 -0.000010 0.225199
215.380569 -129.001602 -0.000008 0.234486
217.439850 -125.686935 -0.000006 0.212525
218.754517 -123.570801 -0.000005 0.241308
219.668274 -122.099998 -0.000000 0.337087
220.341492 -121.016388 0.000000 0.345418
207.374603 -141.462280 10.064487 0.568505
207.570450 -141.151886 8.874233 0.688182
207.570450 -141.151886 7.791338 0.659022
207.570450 -141.151886 6.721271 0.670893
207.570450 -141.151886 5.661540 0.653101
207.570450 -141.151886 4.609764 0.663081
207.570450 -141.151886 3.563620 0.667079
207.570450 -141.151886 2.520834 0.685054
207.570450 -141.151871 1.479166 0.656138
207.570450 -141.151886 0.436380 0.697459
211.538788 -134.862747 -0.000010 0.230669
215.277695 -128.937195 -0.000007 0.244635
217.360062 -125.636978 -0.000006 0.239297
218.689484 -123.530075 -0.000005 0.246107
219.613480 -122.065689 -0.000000 0.333196
220.294235 -120.986809 -0.000000 0.330129
207.463211 -140.907394 9.935287 0.753353
207.570450 -140.740036 8.799173 0.668025
207.570450 -140.740051 7.728104 0.672114
207.570450 -140.740051 6.669718 0.662226
207.570450 -140.740051 5.621562 0.647303
207.570450 -140.740051 4.581268 0.659571
207.570450 -140.740051 3.546546 0.631647
207.570450 -140.740051 2.515148 0.630518
207.570450 -140.740051 1.484853 0.656855
207.570450 -140.740051 0.453453 0.656291
211.395081 -134.771378 -0.000010 0.232069
215.175278 -128.872070 -0.000007 0.216415
217.280640 -125.586472 -0.000006 0.208588
218.624725 -123.488907 -0.000005 0.197099
219.558929 -122.030998 -0.000001 0.332616
220.247208 -120.956894 -0.000000 0.341100
207.570313 -140.337280 9.800762 0.742397
207.570450 -140.337067 8.726058 0.618845
207.570450 -140.337067 7.666506 0.648432
207.570450 -140.337067 6.619502 0.662089
207.570450 -140.337067 5.582616 0.655451
207.570450 -140.337067 4.553510 0.654139
207.570450 -140.337067 3.529915 0.654292
207.570450 -140.337067 2.509608 0.666087
207.570450 -140.337067 1.490393 0.684810
207.570450 -140.337067 0.470084 0.666911
211.252029 -134.679001 -0.000010 0.230944
215.073318 -128.806229 -0.000008 0.222231
217.201553 -125.535408 -0.000006 0.263903
218.560257 -123.447281 -0.000005 0.217887
219.504623 -121.995934 -0.000000 0.334752
220.200378 -120.926659 -0.000000 0.339605
207.283203 -140.377441 9.848608 0.751873
207.336456 -140.296844 8.746502 0.650034
207.336456 -140.296844 7.683729 0.654734
207.336456 -140.296844 6.633542 0.660639
207.336456 -140.296829 5.593504 0.653422
207.336456 -140.296829 4.561271 0.664179
207.369446 -140.246918 3.531626 0.696269
207.336441 -140.296860 2.511157 0.693645
207.336441 -140.296844 1.488843 0.693645
207.336456 -140.296860 0.465433 0.607141
211.109619 -134.585632 -0.000010 0.224996
214.971817 -128.739685 -0.000007 0.217755
217.122849 -125.483803 -0.000006 0.194286
218.496094 -123.405205 -0.000005 0.235013
219.450562 -121.960487 -0.000000 0.343771
220.153763 -120.896095 -0.000001 0.326787
206.976166 -140.442505 9.904791 0.766064
207.073868 -140.296844 8.777932 0.670787
207.102661 -140.253906 7.700799 0.733944
207.073868 -140.296844 6.655127 0.631434
207.102661 -140.253906 5.604298 0.749096
207.102661 -140.253906 4.568963 0.729107
207.107361 -140.246918 3.538761 0.690379
207.107346 -140.246918 2.512553 0.714519
207.107346 -140.246918 1.487446 0.723522
207.073868 -140.296844 0.458286 0.619226
210.967880 -134.491272 -0.000010 0.225678
214.870773 -128.672424 -0.000008 0.214775
217.044495 -125.431641 -0.000006 0.235875
218.432205 -123.362686 -0.000006 0.248213
219.396744 -121.924660 -0.000001 0.337911
220.107361 -120.865211 -0.000001 0.344671
206.664230 -140.509201 9.962388 0.739406
206.808807 -140.296844 8.809984 0.611765
206.668777 -140.502518 7.782485 0.741176
206.808823 -140.296844 6.677142 0.657526
206.668777 -140.502502 5.655942 0.741176
206.736877 -140.402496 4.595852 0.755337
206.842804 -140.246918 3.546037 0.692592
206.808823 -140.296844 2.515966 0.143877
206.740738 -140.396835 1.482054 0.741176
206.808807 -140.296844 0.450994 0.634150
210.826782 -134.395920 -0.000010 0.230106
214.770218 -128.604462 -0.000007 0.236904
216.966507 -125.378937 -0.000006 0.224505
218.368637 -123.319717 -0.000005 0.288569
219.343185 -121.888458 -0.000000 0.343877
220.061172 -120.834000 -0.000000 0.330724
206.347183 -140.577576 10.021438 0.757244
206.541229 -140.296860 8.842682 0.678431
206.399078 -140.502502 7.810245 0.741176
206.541229 -140.296844 6.699599 0.688075
206.399078 -140.502502 5.673492 0.741176
206.399078 -140.502502 4.618283 0.741176
206.575729 -140.246918 3.553460 0.701854
206.541229 -140.296844 2.518443 0.120027
206.472107 -140.396835 1.479567 0.741176
206.541229 -140.296844 0.443558 0.619974
210.686371 -134.299591 -0.000010 0.225678
214.670135 -128.535797 -0.000008 0.215218
216.888885 -125.325684 -0.000006 0.262120
218.305359 -123.276306 -0.000005 0.188937
219.316193 -121.813797 0.010000 1.000000
220.015213 -120.802460 -0.000001 0.339406
206.024918 -140.647705 10.081982 0.727611
206.271042 -140.296844 8.876027 0.654200
206.126770 -140.502502 7.838559 0.741176
206.271042 -140.296844 6.722499 0.655726
206.126770 -140.502502 5.691395 0.741176
206.126770 -140.502502 4.631042 0.741176
206.306076 -140.246918 3.561030 0.696849
206.271057 -140.296844 2.520969 0.154650
206.200897 -140.396835 1.477031 0.741176
206.271057 -140.296844 0.435973 0.623072
210.546631 -134.202271 -0.000010 0.236664
214.570526 -128.466446 -0.000008 0.221956
216.811630 -125.271896 -0.000006 0.188051
218.242386 -123.232452 -0.000005 0.222483
219.263397 -121.777069 0.009993 1.000000
219.969467 -120.770607 -0.000001 0.338140
205.697205 -140.719589 10.144064 0.732952
205.998199 -140.296860 8.910040 0.627939
205.851776 -140.502502 7.867439 0.741176
205.998199 -140.296844 6.745859 0.647059
205.851776 -140.502502 5.709655 0.741176
205.851776 -140.502502 4.644058 0.741176
206.033752 -140.246918 3.568751 0.695430
205.998215 -140.296844 2.523546 0.101335
205.998199 -140.296844 1.476453 0.120272
205.998215 -140.296829 0.428238 0.636835
210.407562 -134.104004 -0.000010 0.234606
214.471420 -128.396393 -0.000008 0.215745
216.734772 -125.217567 -0.000006 0.230716
218.179718 -123.188164 -0.000005 0.243845
219.210861 -121.739944 0.009993 1.000000
219.923935 -120.738441 -0.000001 0.327733
205.363892 -140.793320 10.207736 0.775158
205.722626 -140.296844 8.944728 0.663142
205.581635 -140.491974 7.894531 0.072999
205.722626 -140.296844 6.769684 0.641596
205.574036 -140.502502 5.728277 0.741176
205.574036 -140.502502 4.657331 0.741176
205.758713 -140.246918 3.576627 0.688029
205.722626 -140.296844 2.526175 0.100343
205.650391 -140.396835 1.471806 0.741176
205.722641 -140.296844 0.420347 0.633463
210.269196 -134.004745 -0.000010 0.229771
214.372787 -128.325653 -0.000007 0.251720
216.658279 -125.162704 -0.000006 0.200390
218.117371 -123.143433 -0.000005 0.205704
219.131485 -121.739960 -0.000001 0.338506
219.878647 -120.705948 -0.000001 0.333577
205.024765 -140.868958 10.273045 0.677577
205.444275 -140.296860 8.980112 0.662120
205.348480 -140.427505 7.910014 0.093400
205.444275 -140.296860 6.793985 0.661784
205.293472 -140.502502 5.747272 0.741176
205.293472 -140.502502 4.670869 0.741176
205.480896 -140.246918 3.584659 0.694560
205.444275 -140.296844 2.528856 0.120974
205.370956 -140.396835 1.469115 0.741176
205.444275 -140.296844 0.412299 0.637079
210.131516 -133.904526 -0.000010 0.224601
214.274673 -128.254227 -0.000007 0.219179
216.582184 -125.107307 -0.000005 0.230321
218.055328 -123.098282 -0.000005 0.296695
219.079224 -121.701912 -0.000001 0.341421
219.833572 -120.673141 -0.000001 0.342092
204.679642 -140.946533 10.340038 0.640269
205.163040 -140.296844 9.016197 0.668574
205.187775 -140.263611 7.903399 0.731456
205.163040 -140.296860 6.818771 0.685740
205.187775 -140.263611 5.732390 0.731289
205.187775 -140.263611 4.660262 0.746014
205.200211 -140.246902 3.592852 0.682902
205.163040 -140.296844 2.531590 0.154131
205.088638 -140.396851 1.466370 0.773159
205.163055 -140.296844 0.404089 0.627710
209.994553 -133.803345 -0.000010 0.230968
214.177032 -128.182114 -0.000007 0.223847
216.506470 -125.051384 -0.000006 0.209713
217.993607 -123.052681 -0.000005 0.195627
219.027222 -121.663498 -0.000001 0.332128
219.788742 -120.640030 -0.000001 0.341512
204.328308 -141.026138 10.408775 0.780697
204.878891 -140.296844 9.053005 0.660227
204.878891 -140.296844 7.941947 0.650095
204.878876 -140.296844 6.844049 0.647059
204.878891 -140.296844 5.756761 0.668360
204.878876 -140.296844 4.677634 0.647059
204.916580 -140.246918 3.601209 0.689204
204.916580 -140.246918 2.533355 0.700511
204.916565 -140.246933 1.466645 0.691188
204.878876 -140.296860 0.395717 0.623163
209.858292 -133.701218 -0.000010 0.231686
214.079926 -128.109329 -0.000008 0.230022
216.431137 -124.994934 -0.000006 0.235180
217.932190 -123.006668 -0.000005 0.213806
218.975479 -121.624741 -0.000005 0.188087
219.744141 -120.606598 -0.000001 0.348013
203.970535 -141.107819 10.479307 0.738460
204.591721 -140.296829 9.090546 0.666667
204.618164 -140.262329 7.965663 0.747127
204.591721 -140.296844 6.869833 0.674342
204.618164 -140.262314 5.771756 0.752941
204.618164 -140.262329 4.688320 0.718776
204.629959 -140.246902 3.609732 0.703410
204.629959 -140.246918 2.536195 0.681025
204.629959 -140.246918 1.463806 0.691447
204.591705 -140.296844 0.387177 0.600687
209.722748 -133.598145 -0.000010 0.230920
213.983307 -128.035858 -0.000007 0.235827
216.356216 -124.937958 -0.000006 0.211640
217.871109 -122.960213 -0.000005 0.267446
218.924026 -121.585609 -0.000005 0.231458
219.699768 -120.572853 -0.000001 0.337407
203.606094 -141.191650 10.551697 0.544976
204.301468 -140.296829 9.128838 0.663066
204.141632 -140.502518 8.053232 0.741176
204.301468 -140.296829 6.896132 0.656184
204.199905 -140.427521 5.816196 0.084901
204.141632 -140.502518 4.727782 0.741176
204.340256 -140.246902 3.618425 0.680446
204.301453 -140.296844 2.540125 0.108232
204.223755 -140.396835 1.457803 0.741176
204.301453 -140.296844 0.378467 0.594736
209.587921 -133.494125 -0.000010 0.219598
213.887222 -127.961708 -0.000007 0.221154
216.281693 -124.880455 -0.000006 0.223979
217.810364 -122.913338 -0.000005 0.194801
218.872833 -121.546120 -0.000005 0.253707
219.655640 -120.538803 -0.000001 0.334524
203.234741 -141.277710 10.626004 0.709804
204.008041 -140.296829 9.167900 0.658030
203.845886 -140.502502 8.086401 0.741176
204.008026 -140.296829 6.922961 0.666667
203.904999 -140.427521 5.837108 0.060883
203.845886 -140.502518 4.742728 0.741176
204.047394 -140.246918 3.627295 0.694179
204.008011 -140.296860 2.543084 0.104738
203.929184 -140.396851 1.454831 0.741176
204.008011 -140.296860 0.369581 0.639307
209.453827 -133.389175 -0.000010 0.228634
213.791641 -127.886902 -0.000008 0.243534
216.207565 -124.822441 -0.000006 0.211041
217.749939 -122.866043 -0.000005 0.229208
218.821930 -121.506271 -0.000005 0.200533
219.611740 -120.504448 -0.000001 0.325109
202.856247 -141.366043 10.702290 0.760082
203.711365 -140.296829 9.207747 0.667674
203.606842 -140.427521 8.102762 0.043702
203.711349 -140.296829 6.950326 0.654047
203.606842 -140.427521 5.858437 0.066697
203.606827 -140.427521 4.750101 0.084916
203.751282 -140.246902 3.636339 0.711635
203.711334 -140.296860 2.546104 0.133394
203.631363 -140.396851 1.451801 0.741176
203.711334 -140.296860 0.360517 0.622599
209.320465 -133.283279 -0.000010 0.232930
213.696594 -127.811432 -0.000007 0.228203
216.133850 -124.763908 -0.000006 0.227820
217.689835 -122.818329 -0.000005 0.234510
218.771301 -121.466072 -0.000004 0.245126
219.568085 -120.469788 -0.000001 0.344274
202.470337 -141.456757 10.780622 0.766659
203.411346 -140.296829 9.248392 0.665248
203.244492 -140.502502 8.154746 0.741176
203.411346 -140.296829 6.978243 0.630106
203.244492 -140.502502 5.891303 0.741176
203.244492 -140.502502 4.773527 0.741176
203.451843 -140.246902 3.645568 0.697551
203.411316 -140.296860 2.549183 0.104463
203.411316 -140.296875 1.450817 0.113787
203.411316 -140.296860 0.351272 0.598489
209.187851 -133.176453 -0.000010 0.231877
213.602066 -127.735298 -0.000007 0.221741
216.060547 -124.704857 -0.000006 0.205704
217.630081 -122.770187 -0.000005 0.259834
218.720963 -121.425514 -0.000005 0.209641
219.524673 -120.434822 -0.000001 0.345068
202.076752 -141.549911 10.861073 0.763333
203.107925 -140.296829 9.289858 0.682994
202.938675 -140.502502 8.189955 0.741176
203.107925 -140.296829 7.006721 0.669154
202.938690 -140.502502 5.913562 0.741176
202.938690 -140.502502 4.789392 0.741176
203.149017 -140.246902 3.654981 0.691447
203.107910 -140.296844 2.552324 0.109789
203.025635 -140.396835 1.445556 0.741176
203.107910 -140.296844 0.341842 0.624582
209.055984 -133.068710 -0.000010 0.241081
213.508087 -127.658501 -0.000007 0.241966
215.987656 -124.645302 -0.000005 0.244695
217.570648 -122.721634 -0.000005 0.207834
218.670898 -121.384613 -0.000005 0.206302
219.481506 -120.399551 -0.000001 0.338720
201.675186 -141.645615 10.943717 0.672221
202.800995 -140.296829 9.332157 0.666667
202.712769 -140.402527 8.202177 0.765194
202.800995 -140.296829 7.035774 0.648890
202.712769 -140.402527 5.921290 0.742458
202.712769 -140.402527 4.794901 0.721004
202.842667 -140.246902 3.664584 0.716197
202.800995 -140.296844 2.555530 0.107683
202.717514 -140.396851 1.442339 0.741176
202.800980 -140.296844 0.332220 0.629038
208.924866 -132.960052 -0.000010 0.224625
213.414627 -127.581055 -0.000007 0.250152
215.915176 -124.585236 -0.000006 0.264813
217.511566 -122.672668 -0.000005 0.241559
218.621124 -121.343361 -0.000005 0.219108
219.438599 -120.363983 -0.000001 0.335073
201.265350 -141.743942 11.028628 0.769024
202.490463 -140.296829 9.375315 0.656489
202.490479 -140.296814 8.213482 0.665675
202.490463 -140.296829 7.065413 0.673060
202.490479 -140.296829 5.928438 0.669841
202.490463 -140.296829 4.799996 0.663752
202.532730 -140.246902 3.674382 0.729747
202.490479 -140.296814 2.558799 0.136629
202.462341 -140.330048 1.440489 0.115831
202.490463 -140.296829 0.322404 0.633509
208.794525 -132.850479 -0.000009 0.216020
213.321732 -127.502953 -0.000007 0.240889
215.843124 -124.524666 -0.000006 0.219096
217.452835 -122.623291 -0.000005 0.231339
218.571640 -121.301758 -0.000004 0.210431
219.395920 -120.328110 -0.000001 0.343481
200.846909 -141.844986 11.115891 0.718059
202.176208 -140.296860 9.419355 0.622324
202.176208 -140.296860 8.250587 0.650095
202.176224 -140.296860 7.095660 0.657038
202.176224 -140.296860 5.951897 0.649027
202.176224 -140.296844 4.816715 0.669017
202.219116 -140.246902 3.684378 0.679133
202.219116 -140.246887 2.561058 0.709560
202.219116 -140.246902 1.438942 0.705821
202.176239 -140.296829 0.312389 0.620386
208.664948 -132.739990 -0.000009 0.240793
213.229370 -127.424202 -0.000007 0.212154
215.771500 -124.463593 -0.000005 0.249757
217.394440 -122.573502 -0.000005 0.208193
218.522430 -121.259819 -0.000005 0.242505
219.379532 -120.261635 0.010005 1.000000
200.482422 -141.876648 11.181610 0.589410
201.858200 -140.296860 9.464280 0.611765
201.679092 -140.502533 8.338061 0.741176
201.886749 -140.264084 7.120069 0.627787
201.679092 -140.502533 6.007202 0.741176
201.679092 -140.502533 4.856135 0.741176
201.901703 -140.246902 3.694578 0.690837
201.858200 -140.296860 2.565539 0.696941
201.858200 -140.296860 1.434460 0.699626
201.858200 -140.296860 0.302167 0.695918
208.536133 -132.628616 -0.000010 0.245018
213.137558 -127.344818 -0.000007 0.194238
215.700302 -124.402031 -0.000006 0.226145
217.336395 -122.523308 -0.000005 0.183384
218.473541 -121.217529 -0.000004 0.203166
219.337570 -120.225365 0.010005 1.000000
nan nan nan 0.000000
201.536301 -140.296844 9.510122 0.666835
201.354645 -140.502533 8.376986 0.741176
201.649414 -140.168793 7.132655 0.635111
201.354660 -140.502533 6.031813 0.741176
201.354660 -140.502518 4.873675 0.741176
201.580414 -140.246902 3.704985 0.697261
201.536331 -140.296829 2.569012 0.764996
201.536331 -140.296829 1.430987 0.744411
201.536316 -140.296829 0.291743 0.769863
208.408112 -132.516327 -0.000010 0.227114
213.046310 -127.264786 -0.000007 0.240710
215.629532 -124.339966 -0.000006 0.213770
217.278702 -122.472710 -0.000005 0.211939
218.424942 -121.174904 -0.000005 0.177471
219.295853 -120.188812 0.009998 1.000000
nan nan nan 0.000000
201.210403 -140.296844 9.556900 0.640833
201.093369 -140.427521 8.398382 0.078325
201.325104 -140.168793 7.164626 0.606912
201.093369 -140.427521 6.045341 0.083589
201.093369 -140.427521 4.883318 0.077531
201.255142 -140.246902 3.715605 0.694697
201.120819 -140.396851 2.574754 0.069459
201.076065 -140.446838 1.424148 0.741176
201.210419 -140.296844 0.281101 0.781033
208.280884 -132.403152 -0.000009 0.233421
212.955627 -127.184128 -0.000007 0.228119
215.559204 -124.277405 -0.000005 0.230884
217.221359 -122.421715 -0.000005 0.218521
218.376633 -121.131943 -0.000004 0.296001
219.254410 -120.151962 0.009994 1.000000
nan nan nan 0.000000
200.880417 -140.296844 9.604635 0.666026
200.693588 -140.502518 8.457237 0.741176
200.996735 -140.168793 7.197252 0.612451
200.693588 -140.502502 6.082551 0.741176
200.693604 -140.502502 4.909839 0.741176
200.929428 -140.242889 3.726176 0.709209
200.789581 -140.396851 2.578385 0.051347
200.744156 -140.446854 1.420510 0.741176
200.880402 -140.296860 0.270241 0.780713
208.154434 -132.289093 -0.000009 0.225522
212.865494 -127.102829 -0.000007 0.217432
215.489304 -124.214355 -0.000005 0.210527
217.164383 -122.370316 -0.000005 0.213937
218.328629 -121.088638 -0.000004 0.196129
219.213226 -120.114815 0.009995 1.000000
nan nan nan 0.000000
200.546204 -140.296829 9.653353 0.665248
200.356750 -140.502502 8.498606 0.741176
200.650635 -140.183472 7.233512 0.621439
200.356750 -140.502502 6.108705 0.741176
200.356750 -140.502502 4.928481 0.741176
200.605453 -140.232513 3.736543 0.690196
212.353134 -127.479889 2.294702 0.471397
200.409302 -140.445465 1.416828 0.348486
200.546188 -140.296860 0.259159 0.767971
208.028778 -132.174164 -0.000009 0.218186
212.775940 -127.020912 -0.000007 0.235216
215.419861 -124.150826 -0.000005 0.246502
217.107758 -122.318520 -0.000005 0.221645
218.280930 -121.045006 -0.000004 0.309573
219.145264 -120.106728 -0.000001 0.321294
nan nan nan 0.000000
200.207687 -140.296814 9.703077 0.665934
200.187759 -140.318146 8.494926 0.739651
200.187744 -140.318161 7.294855 0.725292
200.187744 -140.318161 6.106380 0.750668
200.187759 -140.318146 4.926823 0.756924
212.234512 -127.422684 2.886640 0.460441
213.449219 -126.122406 2.266218 0.431373
200.207840 -140.296646 1.416371 0.750240
200.207642 -140.296860 0.247848 0.771099
207.903946 -132.058350 -0.000009 0.220735
212.686966 -126.938370 -0.000007 0.228658
215.350845 -124.086807 -0.000005 0.217013
217.051498 -122.266335 -0.000005 0.250990
218.233536 -121.001038 -0.000004 0.262012
219.104401 -120.068817 -0.000002 0.339147
nan nan nan 0.000000
199.864685 -140.296829 9.753839 0.655406
199.864685 -140.296844 8.532381 0.647059
199.864685 -140.296829 7.325387 0.654902
212.463867 -126.997375 4.022537 0.575723
212.605591 -126.847778 3.424667 0.445518
199.978348 -140.176849 3.755575 0.715969
213.359100 -126.052383 2.266394 0.451972
199.860138 -140.301636 1.412413 0.675349
199.860153 -140.301620 0.235981 0.698039
207.779907 -131.941681 -0.000009 0.241727
212.598557 -126.855202 -0.000007 0.236401
215.282288 -124.022308 -0.000005 0.263460
216.995621 -122.213753 -0.000005 0.204483
218.186447 -120.956741 -0.000004 0.215541
219.063797 -120.030624 -0.000002 0.327077
nan nan nan 0.000000
nan nan nan 0.000000
nan nan nan 0.000000
213.235657 -126.016838 4.423636 0.440772
nan nan nan 0.000000
211.487091 -127.836967 3.546660 0.426017
199.629074 -140.180328 3.767543 0.700008
213.268890 -125.982246 2.266582 0.419608
nan nan nan 0.000000
196.350769 -143.592789 -0.000014 0.228849
207.656708 -131.824127 -0.000009 0.221633
212.510742 -126.771423 -0.000006 0.236509
215.214188 -123.957336 -0.000005 0.210311
216.940094 -122.160789 -0.000005 0.195926
218.139664 -120.912117 -0.000005 0.252689
219.023453 -119.992157 -0.000004 0.243881
nan nan nan 0.000000
nan nan nan 0.000000
nan nan nan 0.000000
212.530411 -126.577301 4.556127 0.437110
212.316223 -126.797157 4.017694 0.427802
212.846069 -126.253288 3.375854 0.419608
212.597549 -126.508385 2.841827 0.436194
213.178574 -125.911980 2.266783 0.431373
nan nan nan 0.000000
196.146515 -143.395172 -0.000014 0.226719
207.534317 -131.705734 -0.000009 0.224637
212.423508 -126.687035 -0.000007 0.240255
215.146530 -123.891891 -0.000005 0.252630
216.884933 -122.107437 -0.000005 0.239309
218.093201 -120.867165 -0.000004 0.197757
218.983398 -119.953400 -0.000004 0.203920
nan nan nan 0.000000
nan nan nan 0.000000
nan nan nan 0.000000
212.336746 -126.602165 4.578878 0.433982
212.323898 -126.615173 4.002131 0.425650
212.732742 -126.201309 3.379318 0.447303
212.968399 -125.962769 2.809935 0.431373
213.088028 -125.841675 2.267000 0.431373
nan nan nan 0.000000
195.943619 -143.196136 -0.000014 0.226468
207.412766 -131.586487 -0.000009 0.231135
212.336868 -126.602043 -0.000007 0.216092
215.079330 -123.825974 -0.000006 0.253096
216.830154 -122.053696 -0.000005 0.231937
218.047058 -120.821892 -0.000004 0.219742
218.943604 -119.914360 -0.000004 0.199277
nan nan nan 0.000000
nan nan nan 0.000000
213.545959 -125.223618 4.830373 0.423468
212.993774 -125.774818 4.423137 0.431540
212.611633 -126.156265 3.941358 0.433845
212.624466 -126.143463 3.382217 0.441001
212.394104 -126.373405 2.844134 0.474815
nan nan nan 0.000000
nan nan nan 0.000000
195.742126 -142.995682 -0.000014 0.227341
207.292038 -131.466385 -0.000009 0.236593
212.250824 -126.516434 -0.000006 0.209880
215.012604 -123.759583 -0.000005 0.223344
216.775757 -121.999573 -0.000005 0.212382
218.001221 -120.776299 -0.000004 0.190816
218.904083 -119.875046 -0.000004 0.282082
nan nan nan 0.000000
265.148743 -74.274750 14.302505 0.973388
267.275024 -72.181702 12.907381 0.968627
267.761658 -71.702682 10.993306 0.968627
269.693939 -69.800598 9.286602 0.223529
269.816467 -69.679985 7.207626 0.223529
268.070007 -71.399147 4.999715 0.223529
268.186981 -71.283997 3.001878 0.223529
271.050812 -68.464920 0.932364 0.968627
253.567200 -85.675346 0.000038 0.338476
241.937576 -97.123245 0.000020 0.229077
236.944473 -102.038330 0.000014 0.218294
234.163574 -104.775780 0.000010 0.209617
232.388199 -106.523415 0.000008 0.243869
231.154236 -107.738091 0.000007 0.237969
230.245117 -108.633011 0.000005 0.223859
nan nan nan 0.000000
265.607056 -74.384087 14.356781 0.968627
267.857178 -72.199829 12.980825 0.968627
270.050079 -70.071152 11.405229 0.223529
270.897430 -69.248596 9.430000 0.968627
268.066742 -71.996414 6.972260 0.223529
268.348755 -71.722641 4.998400 0.223529
271.500763 -68.662933 3.070637 0.968627
271.705597 -68.464096 0.924692 0.968627
253.765869 -85.878586 0.000038 0.338430
242.056610 -97.245018 0.000020 0.237789
237.029312 -102.125122 0.000014 0.250990
234.229370 -104.843094 0.000010 0.284320
232.441833 -106.578293 0.000008 0.212334
231.199432 -107.784325 0.000006 0.252594
230.284073 -108.672867 0.000005 0.228634
nan nan nan 0.000000
266.107025 -74.458420 14.423383 0.979385
nan nan nan 0.000000
268.060150 -72.588768 10.933525 0.223529
268.062683 -72.586349 8.928724 0.223529
271.780182 -69.027763 7.360414 0.968627
271.607452 -69.193115 5.199902 0.979614
272.160675 -68.663544 3.078403 0.968627
272.369873 -68.463257 0.916856 0.968627
253.963104 -86.083206 0.000038 0.338201
242.174789 -97.367615 0.000020 0.224565
237.113541 -102.212509 0.000014 0.202520
234.294693 -104.910858 0.000010 0.253372
232.495087 -106.633537 0.000008 0.236090
231.244293 -107.830864 0.000006 0.274603
230.322769 -108.713005 0.000005 0.222147
nan nan nan 0.000000
266.627441 -74.519386 14.495775 0.980392
268.056915 -73.169998 12.885004 0.223529
268.215027 -73.020752 10.906027 0.223529
272.199249 -69.259796 9.537296 0.968627
272.440765 -69.031815 7.399442 0.968627
272.269897 -69.193115 5.223489 0.976898
272.830231 -68.664177 3.086338 0.968627
273.043945 -68.462418 0.908852 0.968627
254.158920 -86.289200 0.000039 0.338277
242.292099 -97.491043 0.000021 0.234989
237.197159 -102.300476 0.000015 0.224852
234.359543 -104.979088 0.000011 0.233792
232.547958 -106.689156 0.000008 0.244264
231.288834 -107.877724 0.000007 0.254975
230.361176 -108.753403 0.000005 0.249985
nan nan nan 0.000000
267.185272 -74.551933 14.578873 0.970459
268.362030 -73.456558 12.889850 0.223529
273.118469 -69.029045 11.841640 0.223529
272.864349 -69.265594 9.592663 0.968627
273.111053 -69.035934 7.439311 0.968627
272.942200 -69.193115 5.247587 0.978180
273.509766 -68.664810 3.094445 0.968627
273.437073 -68.732468 0.907181 0.223529
254.353271 -86.496567 0.000039 0.337942
242.408569 -97.615280 0.000021 0.239417
237.280167 -102.389023 0.000014 0.239190
234.423920 -105.047760 0.000011 0.217516
232.600433 -106.745140 0.000009 0.223332
231.333054 -107.924889 0.000007 0.194681
230.399292 -108.794075 0.000005 0.238113
nan nan nan 0.000000
267.786560 -74.551918 14.674239 0.964767
nan nan nan 0.000000
nan nan nan 0.000000
273.539276 -69.271500 9.649219 0.968627
273.426331 -69.375175 7.439412 0.223529
273.429901 -69.371887 5.259219 0.223529
273.513275 -69.295380 3.087482 0.223529
273.734589 -69.092224 0.907601 0.223529
254.546204 -86.705269 0.000039 0.337774
242.524155 -97.740318 0.000021 0.216080
237.362564 -102.478149 0.000014 0.227701
234.487808 -105.116882 0.000011 0.202736
232.652527 -106.801491 0.000008 0.193616
231.376923 -107.972359 0.000007 0.226743
230.437134 -108.835007 0.000005 0.207056
nan nan nan 0.000000
268.397064 -74.551926 14.771688 0.961395
nan nan nan 0.000000
273.419159 -70.006332 11.776471 0.223529
273.534088 -69.902306 9.599892 0.223529
273.668884 -69.780289 7.431734 0.709804
274.740662 -68.810211 5.325397 0.968627
274.899841 -68.666145 3.111186 0.968627
275.127869 -68.459763 0.883780 0.968627
254.737656 -86.915321 0.000039 0.339117
242.638855 -97.866173 0.000021 0.217408
237.444321 -102.567848 0.000015 0.239764
234.551224 -105.186447 0.000011 0.225415
232.704224 -106.858200 0.000009 0.206302
231.420486 -108.020142 0.000007 0.226085
230.474670 -108.876205 0.000006 0.247723
nan nan nan 0.000000
269.017059 -74.551910 14.871283 0.975525
nan nan nan 0.000000
nan nan nan 0.000000
274.364166 -69.779633 9.680349 0.968658
275.182953 -69.048874 7.564159 0.968627
275.447418 -68.812836 5.351135 0.968627
275.611023 -68.666824 3.119835 0.968627
275.844055 -68.458832 0.875053 0.968627
254.927628 -87.126701 0.000039 0.337407
242.752686 -97.992821 0.000021 0.238113
237.525452 -102.658119 0.000015 0.230142
234.614136 -105.256454 0.000011 0.234905
232.755508 -106.915276 0.000008 0.252534
231.463699 -108.068222 0.000007 0.204567
230.511932 -108.917664 0.000006 0.280096
nan nan nan 0.000000
nan nan nan 0.000000
nan nan nan 0.000000
nan nan nan 0.000000
275.075684 -69.774330 9.742014 0.980163
274.976715 -69.861435 7.507310 0.709804
276.165222 -68.815506 5.377440 0.968627
276.333374 -68.667526 3.128675 0.968627
276.571594 -68.457886 0.866133 0.968627
255.116135 -87.339401 0.000040 0.338033
242.865616 -98.120262 0.000022 0.238831
237.605942 -102.748947 0.000015 0.213554
234.676575 -105.326897 0.000011 0.232835
232.806412 -106.972702 0.000009 0.256411
231.506577 -108.116600 0.000007 0.236066
230.548904 -108.959373 0.000006 0.214201
nan nan nan 0.000000
nan nan nan 0.000000
nan nan nan 0.000000
nan nan nan 0.000000
275.798798 -69.768929 9.805062 0.974975
275.826752 -69.744659 7.566095 0.709804
276.894409 -68.818237 5.404325 0.968627
277.067261 -68.668243 3.137709 0.968627
277.310822 -68.456924 0.857013 0.968627
255.303146 -87.553421 0.000040 0.338949
242.977676 -98.248489 0.000021 0.227054
237.685806 -102.840340 0.000015 0.221693
234.738510 -105.397781 0.000011 0.224002
232.856903 -107.030487 0.000009 0.243103
231.549103 -108.165283 0.000007 0.227377
230.585587 -109.001350 0.000006 0.282860
nan nan nan 0.000000
nan nan nan 0.000000
nan nan nan 0.000000
nan nan nan 0.000000
276.533783 -69.763451 9.869528 0.978042
276.409637 -69.869659 7.595613 0.709804
277.635315 -68.821030 5.431810 0.968627
277.375916 -69.042961 3.137533 0.223529
277.379669 -69.039749 0.862385 0.223529
255.488647 -87.768738 0.000040 0.337682
243.088821 -98.377487 0.000021 0.220101
237.765030 -102.932289 0.000015 0.253755
234.799942 -105.469086 0.000011 0.209282
232.906998 -107.088623 0.000009 0.252869
231.591309 -108.214264 0.000007 0.215278
230.621979 -109.043579 0.000006 0.233888
nan nan nan 0.000000
nan nan nan 0.000000
nan nan nan 0.000000
nan nan nan 0.000000
277.281067 -69.757874 9.935462 0.980392
277.143433 -69.873978 7.641238 0.709804
277.573822 -69.510925 5.407565 0.223529
277.824341 -69.299591 3.140406 0.223529
278.825684 -68.454926 0.838156 0.968627
255.672714 -87.985298 0.000037 0.229986
243.199066 -98.507271 0.000022 0.237131
237.843613 -103.024796 0.000015 0.227234
234.860886 -105.540825 0.000012 0.247878
232.956665 -107.147102 0.000009 0.191390
231.633163 -108.263527 0.000007 0.283112
230.658066 -109.086060 0.000006 0.263089
nan nan nan 0.000000
nan nan nan 0.000000
nan nan nan 0.000000
nan nan nan 0.000000
278.040985 -69.752213 10.002899 0.979385
278.858398 -69.072403 7.791243 0.968627
279.153717 -68.826813 5.488647 0.968627
279.341644 -68.670517 3.166051 0.968627
279.602112 -68.453903 0.828405 0.968627
255.855209 -88.203171 0.000037 0.224840
243.308411 -98.637810 0.000022 0.230106
237.921539 -103.117836 0.000015 0.243702
234.921326 -105.612984 0.000012 0.229879
233.005951 -107.205925 0.000009 0.188314
231.674683 -108.313087 0.000007 0.224756
230.693863 -109.128792 0.000006 0.261438
nan nan nan 0.000000
nan nan nan 0.000000
nan nan nan 0.000000
nan nan nan 0.000000
278.813995 -69.746445 10.071896 0.978744
279.629944 -69.077431 7.839763 0.968627
279.931976 -68.829803 5.518034 0.968627
280.125275 -68.671303 3.175932 0.968627
280.391724 -68.452850 0.818431 0.968627
256.036194 -88.422318 0.000036 0.227880
243.416840 -98.769112 0.000022 0.223751
237.998825 -103.211426 0.000015 0.220783
234.981262 -105.685562 0.000011 0.248273
233.054810 -107.265099 0.000009 0.252594
231.715836 -108.362938 0.000007 0.263030
230.729355 -109.171776 0.000006 0.281640
nan nan nan 0.000000
nan nan nan 0.000000
nan nan nan 0.000000
nan nan nan 0.000000
279.600464 -69.740593 10.142484 0.975265
279.418884 -69.887367 7.784412 0.709804
280.723480 -68.832855 5.548094 0.968627
280.922333 -68.672112 3.186037 0.968627
281.194946 -68.451767 0.808226 0.968627
256.215607 -88.642723 0.000037 0.231722
243.524338 -98.901169 0.000022 0.235982
238.075455 -103.305542 0.000015 0.223667
235.040695 -105.758560 0.000012 0.234379
233.103241 -107.324608 0.000009 0.262754
231.756653 -108.413071 0.000007 0.259332
230.764542 -109.215004 0.000006 0.234426
nan nan nan 0.000000
nan nan nan 0.000000
nan nan nan 0.000000
nan nan nan 0.000000
280.400848 -69.734642 10.214723 0.958740
281.212555 -69.087845 7.940147 0.968627
281.101318 -69.176476 5.552006 0.223529
281.105225 -69.173370 3.183238 0.223529
281.219452 -69.082336 0.814372 0.223529
256.393494 -88.864388 0.000038 0.229855
243.630920 -99.033974 0.000022 0.229520
238.151413 -103.400200 0.000015 0.230597
235.099609 -105.831970 0.000012 0.262479
233.151276 -107.384453 0.000009 0.255370
231.797119 -108.463493 0.000007 0.186471
230.799423 -109.258476 0.000006 0.251959
nan nan nan 0.000000
nan nan nan 0.000000
nan nan nan 0.000000
nan nan nan 0.000000
281.093628 -69.824387 10.270822 0.223529
281.001495 -69.896744 7.885424 0.698039
281.475800 -69.524185 5.555835 0.223529
282.558441 -68.673798 3.206961 0.968627
282.843933 -68.449554 0.787099 0.968627
256.569824 -89.087288 0.000037 0.228730
243.736572 -99.167519 0.000022 0.235396
238.226715 -103.495392 0.000016 0.235013
235.158005 -105.905792 0.000012 0.215278
233.198883 -107.444633 0.000009 0.205021
231.837219 -108.514191 0.000008 0.205692
230.834015 -109.302193 0.000006 0.209844
nan nan nan 0.000000
nan nan nan 0.000000
nan nan nan 0.000000
nan nan nan 0.000000
282.045166 -69.722412 10.364357 0.970275
281.813721 -69.901611 7.937696 0.709804
283.181702 -68.842461 5.642518 0.968627
283.398438 -68.674652 3.217790 0.968627
283.690643 -68.448402 0.776161 0.968627
256.744568 -89.311417 0.000038 0.228718
243.841293 -99.301796 0.000022 0.219036
238.301361 -103.591095 0.000015 0.244695
235.215881 -105.980019 0.000012 0.228107
233.246078 -107.505142 0.000009 0.210838
231.876984 -108.565170 0.000007 0.199827
230.868286 -109.346146 0.000006 0.265914
nan nan nan 0.000000
nan nan nan 0.000000
nan nan nan 0.000000
nan nan nan 0.000000
282.890106 -69.716118 10.441866 0.980392
283.691711 -69.104401 8.099620 0.968627
284.030518 -68.845825 5.675477 0.968627
284.253632 -68.675552 3.228878 0.968627
284.552856 -68.447212 0.764964 0.968627
256.917786 -89.536743 0.000038 0.226085
243.945068 -99.436806 0.000022 0.222255
238.375320 -103.687325 0.000016 0.230298
235.273254 -106.054649 0.000012 0.265567
233.292847 -107.565987 0.000009 0.264119
231.916382 -108.616425 0.000007 0.226588
230.902267 -109.390343 0.000006 0.249195
nan nan nan 0.000000
nan nan nan 0.000000
nan nan nan 0.000000
nan nan nan 0.000000
nan nan nan 0.000000
283.482239 -69.911797 8.045950 0.709804
284.894867 -68.849274 5.709221 0.968627
285.124634 -68.676468 3.240229 0.968627
284.893951 -68.849960 0.764495 0.223529
244.036453 -99.581139 0.802433 0.402686
244.047882 -99.572540 0.000023 0.225917
238.448608 -103.784065 0.000016 0.241523
235.330093 -106.129669 0.000012 0.222064
233.339188 -107.627151 0.000009 0.236353
231.955414 -108.667953 0.000008 0.229197
230.935928 -109.434769 0.000006 0.214703
nan nan nan 0.000000
nan nan nan 0.000000
nan nan nan 0.000000
nan nan nan 0.000000
289.999146 -65.721695 11.371690 0.223529
284.441772 -69.841263 8.112453 0.709804
284.885864 -69.512085 5.689384 0.223529
285.162231 -69.307205 3.234545 0.223529
286.325653 -68.444786 0.741755 0.968627
243.646606 -100.081963 0.832499 0.411994
244.149780 -99.708977 0.000023 0.223990
238.521225 -103.881317 0.000016 0.219108
235.386414 -106.205093 0.000012 0.197805
233.385101 -107.688637 0.000009 0.204626
231.994095 -108.719757 0.000008 0.215242
230.969269 -109.479431 0.000006 0.235145
nan nan nan 0.000000
nan nan nan 0.000000
nan nan nan 0.000000
nan nan nan 0.000000
285.111969 -69.996185 10.627404 0.223529
285.212860 -69.922485 8.159430 0.709804
286.672241 -68.856384 5.779160 0.968627
286.915955 -68.678360 3.263760 0.968627
287.237396 -68.443527 0.729726 0.968627
244.028595 -100.008385 0.815243 0.413352
244.250702 -99.846130 0.000023 0.231315
238.593170 -103.979065 0.000016 0.211891
235.442200 -106.280907 0.000012 0.210036
233.430573 -107.750443 0.000009 0.220771
232.032410 -108.771820 0.000008 0.234893
231.002319 -109.524330 0.000006 0.227940
nan nan nan 0.000000
nan nan nan 0.000000
nan nan nan 0.000000
nan nan nan 0.000000
287.268433 -69.088913 10.889511 0.223529
287.213654 -69.128357 8.330467 0.968627
287.586304 -68.860092 5.815406 0.968627
287.837402 -68.679337 3.275956 0.968627
288.166779 -68.442230 0.717402 0.968627
244.122360 -100.148331 0.815550 0.406531
244.350662 -99.983978 0.000023 0.221788
238.664413 -104.077324 0.000016 0.250870
235.497467 -106.357109 0.000012 0.234989
233.475616 -107.812561 0.000009 0.216941
232.070374 -108.824158 0.000008 0.228849
231.035034 -109.569458 0.000006 0.239549
nan nan nan 0.000000
nan nan nan 0.000000
nan nan nan 0.000000
nan nan nan 0.000000
nan nan nan 0.000000
288.136292 -69.134735 8.391714 0.968627
288.518127 -68.863876 5.852545 0.968627
nan nan nan 0.000000
288.242371 -69.059486 0.722269 0.223529
244.012299 -100.432762 0.828073 0.419608
244.449661 -100.122528 0.000023 0.224134
238.734970 -104.176071 0.000017 0.218390
235.552185 -106.433693 0.000012 0.225020
233.520233 -107.874992 0.000010 0.230405
232.107956 -108.876755 0.000008 0.177017
231.067444 -109.614807 0.000007 0.258637
nan nan nan 0.000000
nan nan nan 0.000000
nan nan nan 0.000000
nan nan nan 0.000000
nan nan nan 0.000000
289.076965 -69.141251 8.454473 0.968627
288.960999 -69.222298 5.860196 0.223529
288.835724 -69.309845 3.283312 0.223529
nan nan nan 0.000000
244.072083 -100.594170 0.830237 0.395056
244.547699 -100.261765 0.000023 0.228048
238.804855 -104.275314 0.000016 0.234247
235.606369 -106.510658 0.000012 0.211029
233.564407 -107.937737 0.000010 0.219909
232.145172 -108.929611 0.000008 0.195040
231.099533 -109.660385 0.000006 0.189200
nan nan nan 0.000000
nan nan nan 0.000000
nan nan nan 0.000000
nan nan nan 0.000000
nan nan nan 0.000000
289.324066 -69.638329 8.447889 0.223529
nan nan nan 0.000000
nan nan nan 0.000000
nan nan nan 0.000000
258.085602 -91.147156 0.000039 0.227126
244.644745 -100.401680 0.000024 0.234534
238.874023 -104.375038 0.000016 0.235863
235.660034 -106.587997 0.000012 0.253084
233.608154 -108.000786 0.000010 0.201982
232.182022 -108.982735 0.000008 0.207427
231.131302 -109.706184 0.000006 0.211795
nan nan nan 0.000000
nan nan nan 0.000000
nan nan nan 0.000000
nan nan nan 0.000000
289.716675 -70.035385 11.058011 0.223529
nan nan nan 0.000000
nan nan nan 0.000000
nan nan nan 0.000000
nan nan nan 0.000000
258.245941 -91.381821 0.000040 0.227485
244.740829 -100.542267 0.000024 0.238771
238.942505 -104.475243 0.000016 0.226037
235.713135 -106.665710 0.000013 0.230405
233.651443 -108.064140 0.000010 0.187943
232.218491 -109.036110 0.000008 0.219622
231.162750 -109.752213 0.000007 0.192024
nan nan nan 0.000000
nan nan nan 0.000000
nan nan nan 0.000000
nan nan nan 0.000000
nan nan nan 0.000000
nan nan nan 0.000000
nan nan nan 0.000000
nan nan nan 0.000000
nan nan nan 0.000000
258.404694 -91.617569 0.000040 0.230692
244.835922 -100.683525 0.000024 0.232751
239.010284 -104.575920 0.000017 0.237718
235.765701 -106.743797 0.000013 0.240973
233.694305 -108.127800 0.000010 0.270845
232.254593 -109.089737 0.000008 0.224074
231.193893 -109.798447 0.000006 0.247974
nan nan nan 0.000000
nan nan nan 0.000000
nan nan nan 0.000000
nan nan nan 0.000000
nan nan nan 0.000000
nan nan nan 0.000000
nan nan nan 0.000000
nan nan nan 0.000000
nan nan nan 0.000000
258.561737 -91.854431 0.000040 0.232679
244.930038 -100.825447 0.000024 0.237921
239.077362 -104.677078 0.000017 0.206876
235.817719 -106.822243 0.000012 0.223500
233.736710 -108.191750 0.000010 0.200749
232.290329 -109.143616 0.000008 0.214644
231.224686 -109.844902 0.000007 0.274854
nan nan nan 0.000000
nan nan nan 0.000000
nan nan nan 0.000000
nan nan nan 0.000000
nan nan nan 0.000000
nan nan nan 0.000000
nan nan nan 0.000000
nan nan nan 0.000000
nan nan nan 0.000000
258.717133 -92.092400 0.000041 0.232524
245.023148 -100.968018 0.000024 0.222363
239.143738 -104.778694 0.000017 0.235683
235.869186 -106.901047 0.000013 0.236952
233.778671 -108.255997 0.000010 0.238926
232.325668 -109.197739 0.000008 0.207798
231.255173 -109.891571 0.000006 0.192910
nan nan nan 0.000000
nan nan nan 0.000000
nan nan nan 0.000000
nan nan nan 0.000000
nan nan nan 0.000000
nan nan nan 0.000000
nan nan nan 0.000000
nan nan nan 0.000000
nan nan nan 0.000000
258.870880 -92.331436 0.000041 0.229472
245.115265 -101.111237 0.000024 0.233373
239.209381 -104.880768 0.000017 0.211915
235.920105 -106.980217 0.000013 0.227377
233.820175 -108.320541 0.000010 0.226875
232.360641 -109.252113 0.000008 0.233086
