# This PCD file was generated using the MATLABÂ® pcwrite function
# from Computer Vision ToolboxÂ®.
# .PCD v.7 - Point Cloud Data file format
VERSION .7
FIELDS x y z intensity
SIZE 4 4 4 4
TYPE F F F F
COUNT 1 1 1 1
WIDTH 1208
HEIGHT 1
VIEWPOINT 0 0 0 1 0 0 0
POINTS 1208
DATA ascii
264.261292 -70.851761 7.585835 0.968627
263.892944 -70.461533 6.025305 0.968627
263.600494 -70.151711 4.432660 0.968627
263.279205 -69.811340 2.817967 0.968627
262.952148 -69.464859 1.174237 0.968627
269.645203 -76.555511 -0.000045 0.220951
280.847595 -88.423355 -0.000026 0.228730
285.657135 -93.518593 -0.000017 0.204567
288.335785 -96.356346 -0.000013 0.226228
290.045868 -98.168007 -0.000010 0.239010
291.234436 -99.427177 -0.000008 0.212777
292.110107 -100.354874 -0.000006 0.208803
266.117279 -72.348175 13.571049 0.968627
265.771759 -71.976974 12.086525 0.968627
265.423584 -71.602913 10.590583 0.968627
265.071960 -71.225159 9.079847 0.968627
264.716034 -70.842804 7.550809 0.968627
264.355042 -70.454956 5.999787 0.968627
264.069550 -70.148239 4.417026 0.968627
263.754761 -69.810043 2.812661 0.968627
263.434326 -69.465820 1.179644 0.968627
269.852570 -76.361130 -0.000045 0.230537
280.971863 -88.306900 -0.000026 0.229280
285.745697 -93.435577 -0.000018 0.227198
288.404449 -96.291977 -0.000013 0.216427
290.101837 -98.115532 -0.000010 0.208073
291.281586 -99.382965 -0.000008 0.299208
292.150787 -100.316757 -0.000004 0.337057
266.539093 -72.330841 13.502514 0.968627
266.200256 -71.961670 12.026130 0.968627
265.858856 -71.589722 10.538585 0.968627
265.514099 -71.214127 9.036530 0.968627
265.165222 -70.834015 7.516475 0.968627
264.811371 -70.448509 5.974777 0.968627
264.532654 -70.144836 4.401706 0.968627
264.224182 -69.808777 2.807462 0.968627
263.910248 -69.466759 1.184941 0.968627
270.061279 -76.168205 -0.000046 0.231949
281.096893 -88.191299 -0.000026 0.226037
285.834808 -93.353195 -0.000018 0.221621
288.473572 -96.228081 -0.000013 0.222028
290.158203 -98.063446 -0.000010 0.203442
291.329071 -99.339081 -0.000008 0.203705
292.191711 -100.278931 -0.000003 0.338155
266.956116 -72.313850 13.435296 0.968627
266.623810 -71.946678 11.966905 0.968627
266.289001 -71.576775 10.487601 0.968627
265.950989 -71.203308 8.994061 0.968627
265.608948 -70.825409 7.482822 0.968627
265.262085 -70.442184 5.950264 0.968627
264.989960 -70.141510 4.386692 0.968627
264.687683 -69.807526 2.802367 0.968627
264.380096 -69.467682 1.190132 0.968627
270.271332 -75.976730 -0.000046 0.226911
281.222748 -88.076591 -0.000026 0.228514
285.924530 -93.271439 -0.000018 0.220472
288.543152 -96.164673 -0.000013 0.238998
290.214905 -98.011749 -0.000010 0.184868
291.376862 -99.295532 -0.000008 0.220304
292.232910 -100.241379 -0.000002 0.347738
268.419586 -73.474998 12.973928 0.223529
268.140961 -73.162796 11.552515 0.223529
266.714142 -71.564079 10.437608 0.968627
266.382721 -71.192703 8.952421 0.968627
266.047394 -70.816971 7.449828 0.968627
265.707367 -70.435982 5.926238 0.968627
265.498474 -70.201920 4.367786 0.223529
265.145386 -69.806305 2.797375 0.968627
264.843994 -69.468582 1.195217 0.968627
270.482727 -75.786743 -0.000046 0.227724
281.349396 -87.962761 -0.000026 0.233960
286.014801 -93.190308 -0.000018 0.237861
288.613159 -96.101753 -0.000013 0.219981
290.271973 -97.960457 -0.000010 0.211305
291.424927 -99.252319 -0.000008 0.249901
292.300964 -100.233910 0.010000 1.000000
268.497559 -73.100632 13.031155 0.223529
268.500122 -73.103539 11.510644 0.223529
268.266846 -72.838455 10.076685 0.223529
266.809418 -71.182297 8.911596 0.968627
266.480652 -70.808685 7.417484 0.968627
266.147308 -70.429886 5.902685 0.968627
265.887817 -70.135040 4.357559 0.968627
265.597504 -69.805099 2.792484 0.968627
265.302124 -69.469460 1.200201 0.968627
270.695435 -75.598221 -0.000047 0.228048
281.477142 -87.850159 0.000010 0.340978
286.105621 -93.109802 -0.000019 0.229723
288.683594 -96.039322 -0.000014 0.204124
290.329407 -97.909554 -0.000011 0.215733
291.473328 -99.209442 -0.000008 0.217300
292.342468 -100.197121 0.009998 1.000000
268.155121 -72.236862 13.250523 0.968627
267.865753 -71.903374 11.795987 0.968627
268.502502 -72.637199 10.076047 0.223529
268.397003 -72.515633 8.607705 0.223529
268.123474 -72.200409 7.172563 0.223529
266.582062 -70.423935 5.879596 0.968627
266.328674 -70.131897 4.343424 0.968627
266.044098 -69.803932 2.787688 0.968627
265.754639 -69.470322 1.205083 0.968627
270.909454 -75.411209 -0.000047 0.226731
281.605347 -87.738098 0.000009 0.338048
286.197021 -93.029938 -0.000019 0.231087
288.754486 -95.977379 -0.000014 0.248381
290.387207 -97.859070 -0.000010 0.284991
291.522003 -99.166901 -0.000008 0.227736
292.384247 -100.160637 0.010004 1.000000
268.208679 -71.817108 13.321424 0.968627
268.209473 -71.818062 11.761489 0.968627
267.960846 -71.527451 10.293354 0.968627
268.504852 -72.163322 8.636854 0.223529
268.507355 -72.166252 7.146712 0.223529
268.259644 -71.876678 5.699568 0.223529
266.764282 -70.128815 4.329571 0.968627
266.485352 -69.802788 2.782989 0.968627
266.201660 -69.471169 1.209868 0.968627
271.124786 -75.225685 -0.000047 0.230513
281.813751 -87.719742 0.010022 1.000000
286.288971 -92.950714 -0.000019 0.224924
288.825806 -95.915939 -0.000014 0.207678
290.445343 -97.808975 -0.000011 0.247675
291.570984 -99.124702 -0.000008 0.286152
292.426270 -100.124420 0.009999 1.000000
268.208496 -71.327530 13.414913 0.968627
268.211243 -71.330780 11.841453 0.968627
268.213989 -71.334015 10.290360 0.968627
268.060669 -71.152283 8.793810 0.968627
267.750702 -70.784790 7.324192 0.968627
268.509766 -71.684677 5.698288 0.223529
268.398254 -71.552467 4.224297 0.223529
268.124695 -71.228172 2.747845 0.223529
266.643341 -69.471992 1.214558 0.968627
271.341400 -75.041664 -0.000047 0.230178
281.864136 -87.516685 0.000007 0.335454
286.381470 -92.872139 -0.000019 0.233170
288.897522 -95.854996 -0.000014 0.267841
290.503815 -97.759293 -0.000011 0.198104
291.620239 -99.082848 -0.000009 0.218689
292.468536 -100.088539 0.010007 1.000000
268.373108 -71.027893 13.445982 0.955840
268.211121 -70.833115 11.923869 0.968627
268.213837 -70.836380 10.359795 0.968627
268.216553 -70.839661 8.814516 0.968627
268.150787 -70.760582 7.296772 0.968627
267.856506 -70.406723 5.813014 0.968627
268.512177 -71.195114 4.234162 0.223529
268.514679 -71.198151 2.744124 0.223529
268.265808 -70.898880 1.249507 0.223529
271.559296 -74.859169 -0.000047 0.229352
281.994659 -87.407349 0.000007 0.335195
286.474518 -92.794205 -0.000019 0.218533
288.969696 -95.794556 -0.000014 0.232105
290.562653 -97.710022 -0.000011 0.226468
291.669800 -99.041336 -0.000009 0.210754
292.485535 -100.022217 0.000002 0.340078
268.693359 -70.915375 13.416636 0.973587
268.210968 -70.327011 12.008178 0.968627
268.213715 -70.330353 10.430807 0.968627
268.216431 -70.333664 8.872404 0.968627
268.219147 -70.336983 7.329343 0.968627
268.212128 -70.328430 5.799397 0.968627
268.041199 -70.119926 4.289624 0.968627
267.778442 -69.799454 2.769445 0.968627
268.517151 -70.700439 1.249621 0.223529
271.778442 -74.678177 -0.000049 0.221358
282.125977 -87.298912 0.000006 0.336492
286.568115 -92.716919 -0.000020 0.226815
289.042267 -95.734619 -0.000014 0.230525
290.621826 -97.661163 -0.000011 0.213255
291.719635 -99.000175 -0.000009 0.259475
292.528503 -99.986732 0.000003 0.337835
269.012756 -70.804367 13.387688 0.975799
268.210815 -69.812202 12.094427 0.968627
268.213593 -69.815628 10.503453 0.968627
268.216339 -69.819000 8.931621 0.968627
268.219055 -69.822372 7.375263 0.968627
268.221771 -69.825745 5.830864 0.968627
268.224457 -69.829056 4.295022 0.968627
268.247955 -69.858154 2.763848 0.223529
267.937775 -69.474365 1.228076 0.968627
271.998840 -74.498734 -0.000049 0.228263
282.258026 -87.191399 0.000005 0.337514
286.662231 -92.640297 -0.000019 0.220735
289.115265 -95.675201 -0.000014 0.226540
290.681335 -97.612717 -0.000011 0.241583
291.769775 -98.959366 -0.000009 0.208935
292.571747 -99.951538 0.000003 0.332784
269.268158 -70.615585 13.384528 0.974609
268.210663 -69.288414 12.182677 0.968627
268.213470 -69.291931 10.577783 0.968627
268.216248 -69.295387 8.992207 0.968627
268.218964 -69.298813 7.422242 0.968627
268.221680 -69.302231 5.864347 0.968627
268.224426 -69.305664 4.315077 0.968627
268.227112 -69.309036 2.771070 0.968627
268.320862 -69.426682 1.231391 0.223529
272.220520 -74.320839 -0.000049 0.230310
282.390839 -87.084816 0.000005 0.335088
286.756897 -92.564331 -0.000019 0.223500
289.188690 -95.616287 -0.000014 0.237574
290.741180 -97.564682 -0.000011 0.221968
291.820221 -98.918900 -0.000009 0.190720
292.615204 -99.916641 0.000002 0.330709
269.380341 -70.244736 13.439947 0.978180
268.472504 -69.088913 12.181382 0.223529
268.472534 -69.088928 10.577509 0.223529
268.559906 -69.200165 8.971655 0.968627
268.430878 -69.035889 7.430839 0.968627
268.301666 -68.871391 5.887982 0.968627
268.230316 -68.780579 4.335127 0.968627
268.227112 -68.776474 2.777905 0.968627
268.229828 -68.779930 1.222166 0.968627
272.443420 -74.144508 -0.000049 0.231530
282.524353 -86.979156 0.000004 0.340185
286.852081 -92.489029 -0.000019 0.220029
289.262512 -95.557877 -0.000015 0.245868
290.801361 -97.517075 -0.000011 0.203142
291.870911 -98.878784 -0.000009 0.221202
292.658905 -99.882050 -0.000001 0.330007
269.404175 -69.754707 13.533068 0.980392
268.210358 -68.212723 12.365430 0.968627
269.451813 -69.816223 10.363576 0.966796
268.971741 -69.196136 8.934559 0.968627
268.845215 -69.032730 7.401814 0.968627
268.718536 -68.869095 5.867112 0.968627
268.649048 -68.779335 4.322527 0.968627
268.538177 -68.636147 2.776585 0.968627
268.426575 -68.492004 1.220431 0.968627
272.667542 -73.969711 -0.000050 0.230501
282.658630 -86.874428 0.000003 0.336736
286.947784 -92.414383 -0.000021 0.241045
289.336731 -95.500000 -0.000015 0.225893
290.861877 -97.469887 -0.000012 0.254832
291.921875 -98.839027 -0.000010 0.193676
292.702881 -99.847771 -0.000003 0.336263
269.428436 -69.256622 13.628283 0.980392
270.077728 -70.107483 11.795181 0.223529
269.970306 -69.966698 10.284375 0.223529
269.863312 -69.826500 8.779824 0.223529
269.756531 -69.686569 7.278286 0.223529
269.130981 -68.866837 5.846649 0.968627
269.063293 -68.778122 4.310171 0.968627
268.954590 -68.635696 2.772439 0.968627
268.845184 -68.492332 1.224610 0.968627
272.892883 -73.796501 -0.000050 0.231351
282.793640 -86.770653 0.000003 0.337362
287.044006 -92.340424 -0.000020 0.218916
289.411377 -95.442635 -0.000014 0.221968
290.922699 -97.423119 -0.000012 0.251792
291.973145 -98.799637 -0.000009 0.231303
292.747070 -99.813797 -0.000004 0.330968
269.453094 -68.750237 13.725659 0.958328
268.426727 -67.385605 12.479095 0.970199
270.250366 -69.810280 10.276285 0.968627
270.135681 -69.657776 8.775376 0.223529
270.138184 -69.661087 7.254109 0.223529
270.050659 -69.544739 5.756805 0.223529
269.945709 -69.405212 4.259437 0.223529
269.840302 -69.265060 2.755478 0.223529
269.734222 -69.123993 1.241634 0.223529
273.119446 -73.624878 -0.000050 0.230549
282.929382 -86.667816 0.000002 0.337850
287.140778 -92.267128 -0.000020 0.229927
289.486389 -95.385788 -0.000015 0.235599
290.983856 -97.376785 -0.000012 0.210539
292.024658 -98.760597 -0.000009 0.268331
292.791504 -99.780128 -0.000006 0.339834
nan nan nan 0.000000
268.772034 -67.282639 12.452298 0.974548
270.643494 -69.807358 10.233915 0.980392
270.181793 -69.184494 8.827538 0.968627
270.062500 -69.023567 7.318084 0.968627
270.140594 -69.128922 5.779713 0.223529
270.143066 -69.132271 4.264380 0.223529
270.145538 -69.135612 2.754186 0.223529
270.137177 -69.124313 1.245583 0.223529
273.347168 -73.454796 -0.000051 0.230752
283.065826 -86.565926 0.000001 0.339635
287.238007 -92.194504 -0.000020 0.233888
289.561829 -95.329468 -0.000015 0.235851
291.045349 -97.330872 -0.000012 0.237825
292.076477 -98.721916 -0.000009 0.199768
292.836151 -99.746773 -0.000008 0.344411
nan nan nan 0.000000
269.116058 -67.180817 12.425973 0.971481
271.032593 -69.804459 10.192378 0.977905
270.576996 -69.180771 8.793238 0.968627
270.460022 -69.020622 7.291253 0.968627
270.342926 -68.860321 5.787621 0.968627
270.280304 -68.774620 4.274536 0.968627
270.177887 -68.634384 2.760479 0.968627
270.074768 -68.493256 1.236660 0.968627
273.576080 -73.286331 -0.000051 0.228742
283.202972 -86.464996 0.000001 0.337392
287.335785 -92.122574 -0.000020 0.226552
289.637634 -95.273682 -0.000015 0.252043
291.107178 -97.285385 -0.000012 0.216546
292.128540 -98.683594 -0.000010 0.338399
292.881042 -99.713730 -0.000010 0.336339
nan nan nan 0.000000
270.861694 -69.028999 11.881492 0.223529
271.417816 -69.801590 10.151651 0.973953
270.968292 -69.177109 8.759602 0.968627
270.853577 -69.017754 7.264942 0.968627
270.738739 -68.858223 5.768706 0.968627
270.677765 -68.773499 4.263118 0.968627
270.577332 -68.633972 2.756647 0.968627
270.476227 -68.493546 1.240521 0.968627
273.806152 -73.119484 -0.000051 0.232176
283.340820 -86.365021 -0.000000 0.338918
287.434021 -92.051315 -0.000020 0.234714
289.713837 -95.218422 -0.000015 0.254197
291.169281 -97.240341 -0.000012 0.215673
292.180878 -98.645638 -0.000013 0.338949
292.926178 -99.681000 -0.000011 0.326329
nan nan nan 0.000000
271.253296 -69.029007 11.832318 0.223529
271.799255 -69.798744 10.111724 0.980392
271.355774 -69.173515 8.726620 0.968627
271.243286 -69.014923 7.239141 0.968627
271.130676 -68.856171 5.750158 0.968627
271.071289 -68.772400 4.251924 0.968627
270.972778 -68.633560 2.752890 0.968627
270.873688 -68.493828 1.244307 0.968627
274.037415 -72.954239 -0.000052 0.231243
283.479370 -86.266022 -0.000000 0.337881
287.532776 -91.980751 -0.000021 0.228766
289.790405 -95.163696 -0.000015 0.231087
291.231720 -97.195724 -0.000012 0.196907
292.233459 -98.608047 -0.000014 0.338476
292.971527 -99.648582 -0.000013 0.324529
nan nan nan 0.000000
271.641022 -69.028999 11.784109 0.223529
272.176971 -69.795929 10.072576 0.980392
271.739563 -69.169998 8.694273 0.968627
271.629242 -69.012161 7.213841 0.968627
271.518829 -68.854156 5.731970 0.968627
271.460938 -68.771332 4.240945 0.968627
271.364380 -68.633163 2.749206 0.968627
271.267212 -68.494110 1.248018 0.968627
274.269806 -72.790604 -0.000052 0.230310
283.618591 -86.167969 -0.000002 0.339055
287.632019 -91.910873 -0.000021 0.236652
289.867371 -95.109505 -0.000016 0.238136
291.294464 -97.151550 -0.000012 0.228933
292.312866 -98.608818 0.009997 1.000000
293.017090 -99.616493 -0.000014 0.332586
nan nan nan 0.000000
272.066223 -69.088913 11.721130 0.223529
272.551086 -69.793137 10.034191 0.980392
272.119690 -69.166550 8.662554 0.968627
272.011505 -69.009430 7.189033 0.968627
271.903229 -68.852173 5.714138 0.968627
271.846863 -68.770271 4.230182 0.968627
271.752167 -68.632767 2.745594 0.968627
271.656891 -68.494385 1.251656 0.968627
274.503357 -72.628616 -0.000052 0.227916
283.758514 -86.070908 -0.000002 0.338781
287.731750 -91.841698 -0.000021 0.253431
289.944733 -95.055855 -0.000016 0.241116
291.357513 -97.107811 -0.000012 0.252103
292.365753 -98.572166 0.010000 1.000000
293.062897 -99.584724 -0.000014 0.333913
nan nan nan 0.000000
272.343597 -68.938049 11.714234 0.223529
272.921692 -69.790390 9.996557 0.980392
272.496277 -69.163155 8.631452 0.968627
272.390198 -69.006775 7.164704 0.968627
272.284027 -68.850250 5.696653 0.968627
272.229095 -68.769226 4.219630 0.968627
272.136261 -68.632370 2.742054 0.968627
272.042847 -68.494652 1.255223 0.968627
274.738007 -72.468246 -0.000052 0.230585
283.899078 -85.974831 -0.000003 0.340871
287.831940 -91.773216 -0.000021 0.208899
290.022430 -95.002747 -0.000016 0.239668
291.420868 -97.064514 -0.000013 0.220340
292.418823 -98.535858 0.009995 1.000000
293.108917 -99.553276 -0.000013 0.333776
nan nan nan 0.000000
273.476013 -70.067780 11.375240 0.223529
273.288849 -69.787643 9.959663 0.980392
272.869415 -69.159836 8.600951 0.968627
272.765411 -69.004166 7.140850 0.968627
272.661285 -68.848343 5.679507 0.968627
272.607758 -68.768211 4.209282 0.968627
272.516754 -68.631989 2.738583 0.968627
272.425171 -68.494919 1.258720 0.968627
274.973785 -72.309509 -0.000053 0.226839
284.040344 -85.879730 -0.000004 0.336309
287.932648 -91.705437 -0.000021 0.228311
290.100525 -94.950180 -0.000016 0.207379
291.484528 -97.021660 -0.000013 0.230465
292.446472 -98.461426 -0.000007 0.332815
293.155151 -99.522148 -0.000012 0.323613
nan nan nan 0.000000
273.836151 -70.063766 11.332977 0.223529
273.747803 -69.929497 9.892004 0.223529
273.761505 -69.950348 8.430092 0.709804
273.572083 -69.662491 7.026445 0.223529
273.484344 -69.529160 5.595686 0.223529
272.982941 -68.767212 4.199138 0.968627
272.893707 -68.631607 2.735178 0.968627
272.803894 -68.495171 1.262148 0.968627
275.210663 -72.152443 -0.000052 0.228024
284.182281 -85.785622 -0.000003 0.337514
288.033783 -91.638367 -0.000021 0.230262
290.178986 -94.898163 -0.000016 0.201539
291.548492 -96.979256 -0.000013 0.201994
292.500366 -98.425713 -0.000004 0.344274
293.201630 -99.491348 -0.000011 0.337972
nan nan nan 0.000000
nan nan nan 0.000000
274.013214 -69.782257 9.888030 0.978653
273.865509 -69.554382 8.470832 0.223529
273.867920 -69.558090 7.017892 0.223529
273.848145 -69.527588 5.579485 0.223529
273.761963 -69.394608 4.152404 0.223529
273.675446 -69.261093 2.719559 0.223529
273.588379 -69.126755 1.277821 0.223529
275.448608 -71.997025 -0.000053 0.225941
284.324829 -85.692490 -0.000005 0.336934
288.135406 -91.571999 -0.000021 0.228263
290.257782 -94.846695 -0.000016 0.272771
291.612732 -96.937294 -0.000013 0.231686
292.554474 -98.390366 -0.000003 0.327276
293.248291 -99.460876 -0.000009 0.339574
nan nan nan 0.000000
nan nan nan 0.000000
274.370544 -69.779594 9.853266 0.970932
273.968872 -69.150253 8.512959 0.968627
273.870819 -68.996613 7.072038 0.968627
273.772675 -68.842873 5.630052 0.968627
273.872589 -68.999405 4.165794 0.223529
273.874969 -69.003120 2.721344 0.223529
273.877319 -69.006836 1.278729 0.223529
275.687683 -71.843277 -0.000053 0.227976
284.468048 -85.600380 -0.000005 0.338842
288.237488 -91.506332 -0.000022 0.249853
290.336945 -94.795769 -0.000016 0.205440
291.677277 -96.895782 -0.000013 0.188949
292.608856 -98.355408 -0.000002 0.348394
293.295166 -99.430725 -0.000008 0.348959
nan nan nan 0.000000
274.254700 -69.028992 11.472054 0.223529
274.724762 -69.776962 9.819185 0.980392
274.328979 -69.147171 8.484764 0.968627
274.232819 -68.994202 7.049990 0.968627
274.136627 -68.841110 5.614206 0.968627
274.088348 -68.764328 4.169878 0.968627
274.004272 -68.630524 2.725363 0.968627
273.919678 -68.495903 1.272035 0.968627
275.927795 -71.691193 -0.000053 0.226109
284.611908 -85.509247 -0.000006 0.338003
288.340027 -91.441399 -0.000022 0.225726
290.416473 -94.745407 -0.000017 0.232344
291.742096 -96.854729 -0.000013 0.256328
292.663483 -98.320824 0.000001 0.339803
293.342285 -99.400902 -0.000006 0.330922
nan nan nan 0.000000
274.614746 -69.028992 11.430908 0.223529
275.075928 -69.774338 9.785776 0.980392
274.686005 -69.144165 8.457117 0.968627
274.591736 -68.991829 7.028372 0.968627
274.497406 -68.839386 5.598672 0.968627
274.450409 -68.763397 4.160506 0.968627
274.367950 -68.630173 2.722219 0.968627
274.285034 -68.496140 1.275203 0.968627
276.168945 -71.540779 -0.000055 0.226169
284.756409 -85.419144 -0.000006 0.336461
288.443024 -91.377174 -0.000022 0.216020
290.496338 -94.695595 -0.000017 0.268667
291.807220 -96.814125 -0.000013 0.219060
292.718353 -98.286621 0.000002 0.334752
293.389587 -99.371407 -0.000006 0.344182
nan nan nan 0.000000
274.971680 -69.028999 11.390571 0.223529
275.424133 -69.771744 9.753029 0.980392
275.040039 -69.141205 8.430016 0.968627
274.947632 -68.989502 7.007179 0.968627
274.855164 -68.837692 5.583445 0.968627
274.809357 -68.762497 4.151318 0.968627
274.728516 -68.629822 2.719136 0.968627
274.647247 -68.496368 1.278307 0.968627
276.411163 -71.392075 -0.000055 0.226300
284.901520 -85.330040 -0.000007 0.339071
288.546448 -91.313667 -0.000022 0.241727
290.576569 -94.646347 -0.000016 0.216726
291.872620 -96.773972 -0.000013 0.228574
292.773438 -98.252792 0.000002 0.334859
293.437073 -99.342255 -0.000004 0.339666
nan nan nan 0.000000
275.325623 -69.028992 11.351034 0.223529
275.769440 -69.769165 9.720932 0.970459
275.391174 -69.138306 8.403442 0.968627
275.300568 -68.987228 6.986403 0.968627
275.209900 -68.836037 5.568513 0.968627
275.165283 -68.761597 4.142310 0.968627
275.086060 -68.629501 2.716114 0.968627
275.006378 -68.496597 1.281350 0.968627
276.654419 -71.245056 -0.000055 0.229759
285.047241 -85.241959 -0.000007 0.338415
288.650330 -91.250885 -0.000022 0.219179
290.657104 -94.597656 -0.000017 0.219634
291.938293 -96.734283 -0.000013 0.214368
292.828766 -98.219353 0.000001 0.334264
293.484802 -99.313423 -0.000003 0.336996
nan nan nan 0.000000
275.676575 -69.028992 11.312279 0.223529
276.111908 -69.766617 9.689472 0.980392
275.739410 -69.135468 8.377394 0.968627
275.650604 -68.984985 6.966035 0.968627
275.561737 -68.834404 5.553880 0.968627
275.518250 -68.760727 4.133482 0.968627
275.440613 -68.629166 2.713152 0.968627
275.362518 -68.496811 1.284332 0.968627
276.898682 -71.099747 -0.000055 0.225965
285.193573 -85.154884 -0.000009 0.337819
288.754639 -91.188835 -0.000022 0.225965
290.738007 -94.549530 -0.000017 0.210287
292.004242 -96.695045 -0.000014 0.248285
292.884308 -98.186302 0.000001 0.340902
293.532684 -99.284927 -0.000001 0.323888
nan nan nan 0.000000
276.059479 -69.088898 11.259330 0.223529
276.367828 -69.619804 9.688997 0.980392
276.547546 -69.929245 8.215216 0.709804
275.997864 -68.982803 6.946070 0.968627
275.910736 -68.832809 5.539534 0.968627
275.868378 -68.759872 4.124827 0.968627
275.792267 -68.628830 2.710250 0.968627
275.715698 -68.497025 1.287256 0.968627
277.143951 -70.956131 -0.000056 0.227892
285.340546 -85.068848 -0.000009 0.339071
288.859375 -91.127510 -0.000022 0.248178
290.819244 -94.501976 -0.000017 0.221980
292.070465 -96.656281 -0.000013 0.200916
292.940094 -98.153633 0.000000 0.324697
293.580811 -99.256767 -0.000001 0.336507
nan nan nan 0.000000
276.369965 -69.028992 11.237064 0.223529
276.622223 -69.470413 9.689444 0.977310
276.427643 -69.129944 8.326828 0.968627
276.342316 -68.980637 6.926502 0.968627
276.256958 -68.831253 5.525475 0.968627
276.215668 -68.759018 4.116347 0.968627
276.141083 -68.628525 2.707406 0.968627
276.066071 -68.497238 1.290121 0.968627
277.390228 -70.814240 -0.000056 0.230980
285.488098 -84.983841 -0.000009 0.339590
288.964539 -91.066910 -0.000023 0.226552
290.900818 -94.454987 -0.000017 0.232787
292.136963 -96.617996 -0.000008 0.337942
292.996124 -98.121361 -0.000000 0.330541
293.629089 -99.228943 -0.000001 0.335012
nan nan nan 0.000000
276.712494 -69.028999 11.200578 0.223529
276.877686 -69.322769 9.689891 0.930877
277.216034 -69.924545 8.166616 0.709804
276.684113 -68.978531 6.907322 0.968627
276.600433 -68.829712 5.511693 0.968627
276.560242 -68.758202 4.108034 0.968627
276.487152 -68.628204 2.704616 0.968627
276.413635 -68.497437 1.292929 0.968627
277.637482 -70.674072 -0.000056 0.229627
285.636230 -84.899849 -0.000010 0.338399
289.070129 -91.007065 -0.000023 0.233014
290.982697 -94.408562 -0.000017 0.228861
292.203705 -96.580154 -0.000007 0.328939
293.052368 -98.089478 -0.000000 0.337072
293.677582 -99.201454 -0.000001 0.334997
nan nan nan 0.000000
277.603027 -70.024612 10.919096 0.223529
277.532013 -69.896179 9.540777 0.223529
277.461304 -69.768349 8.169131 0.223529
277.390778 -69.640869 6.801178 0.223529
276.941284 -68.828209 5.498188 0.968627
276.902130 -68.757401 4.099887 0.968627
276.830505 -68.627892 2.701885 0.968627
276.758453 -68.497643 1.295680 0.968627
277.885712 -70.535645 -0.000056 0.227377
285.784943 -84.816910 -0.000010 0.340032
289.176117 -90.947945 -0.000023 0.227689
291.064911 -94.362717 -0.000017 0.222913
292.297333 -96.590881 0.009995 1.000000
293.108826 -98.057991 -0.000001 0.332540
293.726288 -99.174301 -0.000000 0.333440
nan nan nan 0.000000
277.804016 -69.790726 10.942509 0.223529
277.806335 -69.794983 9.532917 0.223529
277.790619 -69.766113 8.145928 0.223529
277.721527 -69.639130 6.783055 0.223529
277.652466 -69.512207 5.420970 0.223529
277.583313 -69.385071 4.056757 0.223529
277.513885 -69.257462 2.687473 0.223529
277.444061 -69.129105 1.310136 0.223529
278.134888 -70.398926 -0.000057 0.229065
285.934235 -84.734993 -0.000012 0.339025
289.282532 -90.889572 -0.000023 0.244168
291.147430 -94.317444 -0.000018 0.202807
292.364319 -96.554245 0.010012 1.000000
293.165497 -98.026894 -0.000001 0.328954
293.775146 -99.147499 -0.000000 0.341146
nan nan nan 0.000000
277.724304 -69.029007 11.095470 0.223529
277.851563 -69.266891 9.613574 0.968627
277.772736 -69.119537 8.231598 0.968627
277.694031 -68.972443 6.852056 0.968627
277.813019 -69.194839 5.437623 0.223529
277.815277 -69.199051 4.059388 0.223529
277.817535 -69.203262 2.685895 0.223529
277.777954 -69.129318 1.312733 0.223529
278.385040 -70.263977 -0.000057 0.230956
286.084106 -84.654137 -0.000012 0.337484
289.389343 -90.831940 -0.000023 0.252785
291.230286 -94.272751 -0.000017 0.237107
292.431488 -96.517929 0.010000 1.000000
293.222412 -97.996193 -0.000002 0.341283
293.824219 -99.121025 0.000000 0.332677
nan nan nan 0.000000
278.029297 -68.977303 11.074461 0.223529
278.180054 -69.263893 9.586043 0.968627
278.485870 -69.845200 8.086929 0.709804
278.025726 -68.970490 6.834370 0.968627
277.948578 -68.823868 5.459284 0.968627
277.912384 -68.755051 4.076422 0.968627
277.845001 -68.626999 2.694014 0.968627
277.777252 -68.498215 1.303604 0.968627
278.636108 -70.130753 -0.000057 0.228897
286.234497 -84.574310 -0.000013 0.336904
289.496582 -90.775055 -0.000023 0.214404
291.313416 -94.228630 -0.000018 0.188889
292.473358 -96.433495 -0.000002 0.336721
293.279510 -97.965897 -0.000002 0.341650
293.873444 -99.094910 0.000000 0.333913
nan nan nan 0.000000
nan nan nan 0.000000
278.506226 -69.260956 9.559069 0.968627
278.430573 -69.114639 8.186808 0.968627
278.355011 -68.968582 6.817045 0.968627
278.279449 -68.822479 5.446836 0.968627
278.244202 -68.754311 4.068916 0.968627
278.178192 -68.626709 2.691496 0.968627
278.111847 -68.498383 1.306139 0.968627
278.888123 -69.999313 -0.000057 0.228802
286.385498 -84.495560 -0.000013 0.338399
289.604187 -90.718918 -0.000023 0.218916
291.396881 -94.185104 -0.000018 0.232895
292.541382 -96.398010 -0.000001 0.337621
293.336823 -97.935997 -0.000003 0.333165
293.922882 -99.069130 0.000001 0.336080
nan nan nan 0.000000
nan nan nan 0.000000
278.830109 -69.258072 9.532645 0.968627
278.755981 -69.112274 8.165094 0.968627
278.682007 -68.966721 6.800071 0.968627
278.607971 -68.821121 5.434645 0.968627
278.573639 -68.753571 4.061563 0.968627
278.509003 -68.626427 2.689031 0.968627
278.444000 -68.498566 1.308622 0.968627
279.140991 -69.869598 -0.000058 0.226169
286.537018 -84.417854 -0.000014 0.337850
289.712189 -90.663536 -0.000024 0.237359
291.480652 -94.142151 -0.000018 0.210922
292.609680 -96.362999 -0.000001 0.335058
293.394348 -97.906494 -0.000002 0.335943
293.972473 -99.043694 0.000001 0.339467
nan nan nan 0.000000
nan nan nan 0.000000
279.151794 -69.255257 9.506760 0.968627
279.478485 -69.909142 8.011302 0.709804
279.006714 -68.964882 6.783448 0.968627
278.934204 -68.819778 5.422704 0.968627
278.900787 -68.752853 4.054361 0.968627
278.837463 -68.626160 2.686616 0.968627
278.773804 -68.498734 1.311054 0.968627
279.394806 -69.741692 -0.000058 0.232332
286.689087 -84.341202 -0.000015 0.339193
289.820557 -90.608910 -0.000024 0.214249
291.564697 -94.099785 -0.000018 0.246083
292.678192 -96.328468 0.000000 0.336065
293.452087 -97.877403 -0.000002 0.338308
294.022247 -99.018608 0.000001 0.336980
nan nan nan 0.000000
279.390961 -69.088882 10.919688 0.223529
279.471283 -69.252487 9.481409 0.968627
279.792633 -69.907074 7.990896 0.709804
279.329193 -68.963089 6.767167 0.968627
279.258209 -68.818474 5.411009 0.968627
279.225647 -68.752151 4.047309 0.968627
279.163666 -68.625885 2.684250 0.968627
279.101318 -68.498909 1.313435 0.968627
279.649506 -69.615524 -0.000058 0.227581
286.841675 -84.265633 -0.000014 0.339132
289.929321 -90.555046 -0.000024 0.226037
291.649048 -94.058006 -0.000018 0.227294
292.746948 -96.294418 0.000001 0.342947
293.510010 -97.848709 -0.000003 0.339925
294.072205 -98.993866 0.000001 0.338704
nan nan nan 0.000000
279.615631 -68.890999 10.936889 0.223529
279.788666 -69.249786 9.456583 0.968627
280.104736 -69.905136 7.970897 0.709804
279.649536 -68.961319 6.751225 0.968627
279.580017 -68.817200 5.399558 0.968627
279.548340 -68.751457 4.040402 0.968627
279.487640 -68.625610 2.681934 0.968627
279.426605 -68.499069 1.315766 0.968627
279.905090 -69.491165 -0.000058 0.230728
286.994781 -84.191116 -0.000015 0.338582
290.038483 -90.501930 -0.000024 0.226970
291.733673 -94.016823 -0.000018 0.231411
292.815979 -96.260849 0.000002 0.337850
293.568146 -97.820427 -0.000002 0.335256
294.122314 -98.969482 0.000002 0.335378
nan nan nan 0.000000
nan nan nan 0.000000
280.103973 -69.247131 9.432277 0.968627
280.414764 -69.903198 7.951323 0.709804
279.967773 -68.959602 6.735616 0.968627
279.899719 -68.815941 5.388345 0.968627
279.868835 -68.750778 4.033642 0.968627
279.809418 -68.625351 2.679667 0.968627
279.749695 -68.499237 1.318048 0.968627
280.161499 -69.368576 -0.000059 0.228562
287.148438 -84.117668 -0.000016 0.338842
290.147980 -90.449593 -0.000024 0.220903
291.818604 -93.976227 -0.000018 0.245162
292.885193 -96.227760 0.000004 0.336126
293.626465 -97.792542 -0.000002 0.338140
294.172607 -98.945450 0.000003 0.334401
nan nan nan 0.000000
nan nan nan 0.000000
280.417267 -69.244537 9.408478 0.968627
280.350555 -69.101089 8.063078 0.968627
280.283936 -68.957916 6.720335 0.968627
280.217316 -68.814713 5.377370 0.968627
280.187256 -68.750107 4.027023 0.968627
280.129120 -68.625099 2.677448 0.968627
280.070618 -68.499390 1.320283 0.968627
280.418793 -69.247803 -0.000059 0.232176
287.302582 -84.045303 -0.000016 0.338399
290.257843 -90.398010 -0.000024 0.224744
291.903809 -93.936218 -0.000019 0.223464
292.954651 -96.195145 0.000004 0.341634
293.684998 -97.765068 -0.000002 0.339773
294.223083 -98.921761 0.000003 0.344259
281.128632 -70.117828 11.925507 0.223529
nan nan nan 0.000000
280.728607 -69.242004 9.385181 0.968627
281.028900 -69.899475 7.913398 0.698039
280.598083 -68.956253 6.705379 0.968627
280.532898 -68.813492 5.366628 0.968627
280.503662 -68.749466 4.020546 0.968627
280.446747 -68.624847 2.675277 0.968627
280.389496 -68.499542 1.322469 0.968627
280.676910 -69.128807 -0.000059 0.228095
287.457214 -83.974014 -0.000016 0.338155
290.368073 -90.347206 -0.000024 0.221788
291.989288 -93.896820 -0.000019 0.231123
293.024353 -96.163033 0.000005 0.343160
293.743713 -97.738007 -0.000002 0.335286
294.273712 -98.898430 0.000004 0.333318
281.430481 -70.114929 11.894997 0.223529
281.374756 -69.990646 10.561256 0.223529
281.319458 -69.867264 9.237207 0.223529
281.264404 -69.744499 7.919940 0.223529
281.209534 -69.622116 6.606590 0.223529
281.154724 -69.499832 5.294336 0.223529
281.099823 -69.377380 3.980368 0.223529
280.762329 -68.624603 2.673150 0.968627
280.706329 -68.499687 1.324609 0.968627
280.935852 -69.011627 -0.000059 0.230274
287.612366 -83.903793 -0.000018 0.337942
290.478638 -90.297165 -0.000024 0.232452
292.075043 -93.858009 -0.000019 0.229185
293.094269 -96.131401 0.000005 0.337926
293.802612 -97.711357 -0.000002 0.334066
294.324493 -98.875443 0.000003 0.335805
nan nan nan 0.000000
281.533966 -69.665298 10.611520 0.223529
281.536194 -69.670357 9.253942 0.223529
281.635376 -69.895821 7.877089 0.709804
281.514343 -69.620743 6.592499 0.223529
281.460724 -69.498825 5.284227 0.223529
281.407013 -69.376747 3.974271 0.223529
281.353119 -69.254257 2.659810 0.223529
281.298920 -69.131081 1.337988 0.223529
281.195618 -68.896255 -0.000059 0.231087
287.767975 -83.834671 -0.000018 0.337789
290.589569 -90.247894 -0.000025 0.233050
292.161133 -93.819901 -0.000003 0.330785
293.164398 -96.100250 0.000006 0.335546
293.861694 -97.685120 -0.000001 0.342550
294.375427 -98.852814 0.000002 0.337789
nan nan nan 0.000000
nan nan nan 0.000000
281.651276 -69.234688 9.318249 0.968627
281.590088 -69.092949 7.988952 0.968627
281.529022 -68.951500 6.662405 0.968627
281.467957 -68.810028 5.335765 0.968627
281.544861 -68.988190 3.989064 0.223529
281.547058 -68.993240 2.662457 0.223529
281.549225 -68.998291 1.337632 0.223529
281.812775 -69.608879 0.044148 0.968627
287.924072 -83.766640 -0.000018 0.339498
290.700836 -90.199402 -0.000025 0.243307
292.247406 -93.782295 -0.000003 0.325582
293.234741 -96.069595 0.000006 0.336187
293.920959 -97.659294 -0.000001 0.333150
294.426514 -98.830536 0.000000 0.341100
nan nan nan 0.000000
nan nan nan 0.000000
281.955200 -69.232361 9.296901 0.968627
281.895355 -69.091019 7.971413 0.968627
281.835632 -68.949982 6.648701 0.968627
281.775909 -68.808929 5.325921 0.968627
281.749695 -68.746994 3.996004 0.968627
281.697571 -68.623886 2.667048 0.968627
281.645172 -68.500107 1.330754 0.968627
282.114624 -69.608894 0.049978 0.971801
288.080658 -83.699715 -0.000016 0.339330
290.812439 -90.151695 -0.000025 0.234355
292.360260 -93.807381 0.009999 1.000000
293.305298 -96.039436 0.000006 0.338338
293.980408 -97.633888 0.000000 0.336797
294.477783 -98.808624 -0.000000 0.340414
nan nan nan 0.000000
nan nan nan 0.000000
282.257385 -69.230080 9.276022 0.968627
282.483856 -69.775566 7.844012 0.709804
282.140472 -68.948502 6.635297 0.968627
282.082092 -68.807838 5.316298 0.968627
282.056580 -68.746407 3.990201 0.968627
282.005615 -68.623657 2.665101 0.968627
281.954376 -68.500237 1.332712 0.968627
282.414673 -69.608887 0.055677 0.967834
288.237701 -83.633881 -0.000015 0.337835
290.924377 -90.104759 -0.000025 0.226025
292.446625 -93.771164 0.009999 1.000000
293.376068 -96.009766 0.000007 0.334142
294.040009 -97.608887 0.000000 0.332830
294.529175 -98.787071 0.000000 0.341863
nan nan nan 0.000000
nan nan nan 0.000000
282.557892 -69.227844 9.255608 0.968627
282.500671 -69.087296 7.937493 0.968627
282.443573 -68.947044 6.622194 0.968627
282.543732 -69.193100 5.272686 0.980392
282.361694 -68.745834 3.984527 0.968627
282.311859 -68.623428 2.663199 0.968627
282.261780 -68.500366 1.334627 0.968627
282.712982 -69.608894 0.061249 0.980392
288.395203 -83.569122 -0.000016 0.339361
291.036621 -90.058617 -0.000025 0.244838
292.507843 -93.673103 -0.000003 0.337407
293.447052 -95.980591 0.000007 0.343694
294.099792 -97.584305 0.000001 0.338216
294.580750 -98.765869 -0.000001 0.341802
nan nan nan 0.000000
nan nan nan 0.000000
282.856720 -69.225647 9.235655 0.968627
282.800812 -69.085495 7.921102 0.968627
282.745026 -68.945610 6.609385 0.968627
282.843750 -69.193100 5.263493 0.980392
282.665100 -68.745270 3.978982 0.968627
282.616394 -68.623199 2.661339 0.968627
282.567444 -68.500481 1.336498 0.968627
283.009613 -69.608887 0.066696 0.980301
288.553101 -83.505302 -0.000031 0.338277
291.149200 -90.013245 -0.000025 0.208444
292.595123 -93.637924 -0.000003 0.333501
293.518219 -95.951912 0.000008 0.333547
294.159760 -97.560150 0.000002 0.339055
294.632446 -98.745033 -0.000002 0.344915
nan nan nan 0.000000
nan nan nan 0.000000
283.153961 -69.223526 9.216150 0.968627
283.412842 -69.885925 7.777320 0.709804
283.044800 -68.944229 6.596866 0.968627
283.142059 -69.193100 5.254509 0.968627
282.966827 -68.744713 3.973563 0.968627
282.919250 -68.622986 2.659523 0.968627
282.871399 -68.500603 1.338326 0.968627
283.304565 -69.608887 0.072018 0.938293
288.711487 -83.442795 -0.000028 0.338155
291.262085 -89.968666 -0.000025 0.227928
292.682678 -93.603355 -0.000003 0.338827
293.589600 -95.923729 0.000007 0.333547
294.219910 -97.536407 0.000002 0.332143
294.684296 -98.724556 -0.000004 0.336477
nan nan nan 0.000000
283.398895 -69.088913 10.573494 0.223529
283.449615 -69.221436 9.197096 0.968627
283.396240 -69.082001 7.889430 0.968627
283.342987 -68.942863 6.584636 0.968627
283.438782 -69.193100 5.245732 0.980392
283.266907 -68.744179 3.968268 0.968627
283.220428 -68.622780 2.657747 0.968627
283.173706 -68.500717 1.340113 0.968627
283.597931 -69.608887 0.077217 0.968627
288.870300 -83.381386 -0.000026 0.338140
291.375275 -89.924873 -0.000026 0.216750
292.770477 -93.569397 -0.000003 0.336675
293.661163 -95.896042 0.000007 0.332341
294.280182 -97.513084 0.000002 0.342275
294.736267 -98.704437 -0.000005 0.336187
nan nan nan 0.000000
283.927032 -69.708344 10.407978 0.980392
283.743744 -69.219406 9.178482 0.968627
283.691620 -69.080307 7.874142 0.968627
283.639587 -68.941528 6.572691 0.968627
283.733887 -69.193100 5.237157 0.966415
283.565430 -68.743652 3.963099 0.968627
283.520050 -68.622574 2.656015 0.968627
283.474426 -68.500839 1.341858 0.968627
283.889740 -69.608887 0.082296 0.967346
289.029572 -83.321091 -0.000023 0.337041
291.488800 -89.881882 -0.000026 0.233086
292.858490 -93.536049 -0.000002 0.334997
293.732910 -95.868858 0.000007 0.341833
294.340637 -97.490189 0.000003 0.334142
294.788391 -98.684692 -0.000006 0.341711
283.967285 -69.029022 11.907381 0.223529
284.215729 -69.706200 10.386730 0.979934
284.036407 -69.217407 9.160307 0.968627
283.985504 -69.078667 7.859213 0.968627
283.934692 -68.940231 6.561027 0.968627
284.027496 -69.193100 5.228788 0.977172
283.862396 -68.743134 3.958049 0.968627
283.818085 -68.622360 2.654322 0.968627
283.773529 -68.500938 1.343562 0.968627
284.180023 -69.608902 0.087256 0.980392
289.189240 -83.261864 -0.000025 0.338338
291.602600 -89.839676 -0.000026 0.235767
292.946747 -93.503319 -0.000003 0.338613
293.804871 -95.842171 0.000007 0.327108
294.401276 -97.467712 0.000004 0.340032
294.840668 -98.665306 -0.000006 0.339162
284.260651 -69.029022 11.882314 0.223529
284.502991 -69.704056 10.365998 0.968811
284.327606 -69.215454 9.142564 0.968627
284.566193 -69.880074 7.718080 0.709804
284.228333 -68.938965 6.549639 0.968627
284.319580 -69.193100 5.220618 0.980392
284.157837 -68.742630 3.953120 0.968627
284.114594 -68.622162 2.652670 0.968627
284.071136 -68.501053 1.345225 0.968627
284.468842 -69.608902 0.092096 0.968627
289.349304 -83.203751 -0.000027 0.338369
291.716675 -89.798264 -0.000026 0.250080
293.035248 -93.471207 -0.000003 0.330846
293.876984 -95.815994 0.000006 0.336919
294.462036 -97.445656 0.000004 0.336919
294.893066 -98.646286 -0.000006 0.343786
284.923279 -70.084778 11.577562 0.223529
284.788849 -69.701920 10.345775 0.969970
284.617371 -69.213562 9.125247 0.968627
284.568878 -69.075485 7.830418 0.968627
284.520508 -68.937729 6.538527 0.968627
284.610199 -69.193100 5.212645 0.980392
284.451843 -68.742142 3.948310 0.968627
284.409637 -68.621971 2.651057 0.968627
284.367218 -68.501160 1.346847 0.968627
284.756195 -69.608902 0.096819 0.971160
289.509766 -83.146744 -0.000028 0.336095
291.831055 -89.757652 -0.000026 0.202628
293.123932 -93.439713 -0.000003 0.335729
293.949310 -95.790314 0.000005 0.335378
294.522949 -97.424026 0.000004 0.341726
294.945587 -98.627632 -0.000007 0.335958
285.204773 -70.082611 11.554948 0.223529
285.163544 -69.962509 10.266064 0.223529
285.122620 -69.843292 8.986847 0.223529
285.134308 -69.877350 7.690541 0.709804
285.041321 -69.606537 6.446191 0.223529
285.000793 -69.488464 5.179261 0.223529
284.960205 -69.370270 3.910967 0.223529
284.919495 -69.251694 2.638586 0.223529
284.661865 -68.501251 1.348431 0.968627
285.042145 -69.608902 0.101427 0.969177
289.670624 -83.090897 -0.000028 0.337240
291.945709 -89.717842 -0.000026 0.223296
293.212860 -93.408836 -0.000003 0.336965
294.021790 -95.765144 0.000006 0.331914
294.584045 -97.402824 0.000006 0.342626
294.998230 -98.609352 -0.000006 0.337850
285.132141 -69.029007 11.810710 0.223529
285.356506 -69.697708 10.306827 0.966598
285.321289 -69.592697 9.018409 0.223529
285.323425 -69.599060 7.720615 0.223529
285.325592 -69.605515 6.435793 0.223529
285.286072 -69.487732 5.171800 0.223529
285.246490 -69.369812 3.906467 0.223529
285.206818 -69.251518 2.637078 0.223529
285.166901 -69.132591 1.360870 0.223529
285.326721 -69.608902 0.105920 0.974227
289.831909 -83.036301 -0.000016 0.337163
292.060638 -89.678833 -0.000026 0.242636
293.302002 -93.378586 -0.000003 0.339651
294.094452 -95.740479 0.000005 0.329091
294.645264 -97.382050 0.000005 0.336797
295.051025 -98.591438 -0.000005 0.339895
285.419891 -69.028999 11.788021 0.223529
285.638397 -69.695602 10.288092 0.966873
285.478607 -69.208130 9.075813 0.968627
285.433655 -69.070999 7.789818 0.968627
285.388824 -68.934181 6.506808 0.968627
285.473694 -69.193100 5.189886 0.980392
285.325409 -68.740730 3.934581 0.968627
285.286285 -68.621399 2.646456 0.968627
285.333862 -68.766548 1.356045 0.223529
285.609985 -69.608902 0.110301 0.968627
289.993561 -82.982719 -0.000015 0.338323
292.175934 -89.640907 0.000008 0.338445
293.391327 -93.348953 -0.000003 0.338552
294.167297 -95.716324 0.000005 0.339727
294.706604 -97.361694 0.000005 0.335897
295.103943 -98.573898 -0.000005 0.335668
285.706329 -69.028992 11.765912 0.223529
285.919006 -69.693512 10.269843 0.973037
285.763123 -69.206406 9.060160 0.968627
285.719299 -69.069565 7.776960 0.968627
285.675629 -68.933052 6.496764 0.968627
285.758850 -69.193092 5.182682 0.968627
285.613922 -68.740280 3.930236 0.968627
285.575806 -68.621216 2.644997 0.968627
285.537506 -68.501526 1.352945 0.968627
285.891937 -69.608902 0.114569 0.968627
290.155548 -82.930260 -0.000013 0.337377
292.317932 -89.686378 0.010018 1.000000
293.480896 -93.319946 -0.000002 0.338247
294.240295 -95.692673 0.000005 0.328099
294.768097 -97.341774 0.000005 0.339193
295.156952 -98.556717 -0.000005 0.329427
285.998962 -69.052979 11.738083 0.223529
286.198395 -69.691422 10.252081 0.980392
286.046387 -69.204720 9.044913 0.968627
286.003723 -69.068176 7.764439 0.968627
285.961182 -68.931969 6.486979 0.968627
286.042755 -69.193100 5.175663 0.980392
285.901154 -68.739838 3.926002 0.968627
285.864044 -68.621048 2.643579 0.968627
285.826721 -68.501617 1.354374 0.968627
286.172638 -69.608887 0.118726 0.975753
290.317932 -82.878937 -0.000012 0.338552
292.433075 -89.649963 0.010017 1.000000
293.570648 -93.291565 -0.000003 0.337926
294.313477 -95.669533 0.000004 0.339422
294.829742 -97.322281 0.000005 0.337407
295.210114 -98.539917 -0.000005 0.333577
286.257782 -68.971230 11.738536 0.223529
286.476624 -69.689362 10.234789 0.968627
286.328461 -69.203087 9.030065 0.968627
286.286926 -69.066833 7.752244 0.968627
286.245483 -68.930893 6.477453 0.968627
286.325409 -69.193100 5.168830 0.968673
286.187134 -68.739410 3.921879 0.968627
286.151031 -68.620872 2.642197 0.968627
286.114716 -68.501701 1.355765 0.968627
286.452118 -69.608871 0.122773 0.980392
290.480652 -82.828705 -0.000014 0.340597
292.523071 -89.531059 -0.000000 0.333608
293.660583 -93.263817 -0.000003 0.331762
294.386780 -95.646912 0.000005 0.339239
294.891510 -97.303215 0.000004 0.331579
295.263367 -98.523483 -0.000005 0.338811
286.517120 -68.891113 11.739033 0.223529
286.753693 -69.687294 10.217974 0.980209
286.609344 -69.201492 9.015615 0.968627
286.568939 -69.065506 7.740376 0.968627
286.528656 -68.929855 6.468181 0.968627
286.606873 -69.193100 5.162179 0.980392
286.471924 -68.738998 3.917867 0.968627
286.436798 -68.620697 2.640853 0.968627
286.401459 -68.501770 1.357118 0.968627
286.730408 -69.608871 0.126714 0.968627
290.643707 -82.779617 -0.000015 0.337804
292.639313 -89.496086 -0.000001 0.338903
293.750702 -93.236694 -0.000003 0.338994
294.460266 -95.624802 0.000004 0.336339
294.953430 -97.284592 0.000004 0.335927
295.316742 -98.507416 -0.000004 0.327047
nan nan nan 0.000000
287.029633 -69.685242 10.201625 0.973632
286.889130 -69.199936 9.001556 0.968627
286.849854 -69.064224 7.728830 0.968627
286.810638 -68.928833 6.459162 0.968627
286.887146 -69.193100 5.155710 0.980392
286.755554 -68.738586 3.913965 0.968627
286.721375 -68.620537 2.639544 0.968627
286.687012 -68.501854 1.358434 0.968627
287.007538 -69.608902 0.130547 0.976577
290.807098 -82.731674 -0.000016 0.337392
292.755768 -89.461914 -0.000001 0.336187
293.841034 -93.210197 -0.000003 0.338262
294.533905 -95.603203 0.000004 0.336126
295.015472 -97.266388 0.000003 0.332189
295.370239 -98.491730 -0.000004 0.325399
287.136932 -69.088890 11.648266 0.223529
287.304504 -69.683189 10.185740 0.968627
287.167816 -69.198441 8.987885 0.968627
287.129608 -69.062973 7.717606 0.968627
287.091522 -68.927849 6.450392 0.968627
287.166321 -69.193100 5.149421 0.980392
287.038025 -68.738190 3.910171 0.968627
287.004822 -68.620377 2.638273 0.968627
286.971405 -68.501923 1.359715 0.968627
287.283569 -69.608887 0.134272 0.980392
290.970825 -82.684875 -0.000018 0.338018
292.872467 -89.428612 0.000004 0.338079
293.931549 -93.184334 -0.000002 0.334432
294.607697 -95.582115 0.000004 0.334264
295.077637 -97.248627 0.000003 0.342596
295.423828 -98.476418 -0.000004 0.336812
287.248596 -68.479721 11.787778 0.223529
287.578339 -69.681152 10.170310 0.978882
287.445435 -69.196960 8.974606 0.968627
287.408325 -69.061768 7.706697 0.968627
287.371307 -68.926895 6.441872 0.968627
287.444397 -69.193100 5.143309 0.980392
287.319427 -68.737808 3.906483 0.968627
287.287140 -68.620209 2.637036 0.968627
287.254700 -68.501999 1.360958 0.968627
287.558502 -69.608864 0.137891 0.955154
291.134888 -82.639206 -0.000020 0.337667
292.989410 -89.396072 0.000003 0.338781
294.022217 -93.159111 -0.000002 0.335302
294.681610 -95.561546 0.000005 0.337133
295.139893 -97.231300 0.000003 0.334279
295.477539 -98.461479 -0.000003 0.338079
nan nan nan 0.000000
287.851135 -69.679123 10.155337 0.971939
287.722046 -69.195534 8.961704 0.968627
287.686005 -69.060577 7.696104 0.968627
287.650055 -68.925949 6.433596 0.968627
287.721375 -69.193100 5.137375 0.973587
287.599731 -68.737427 3.902903 0.968627
287.568390 -68.620056 2.635835 0.968627
287.536896 -68.502060 1.362165 0.968627
287.832397 -69.608902 0.141409 0.979568
291.299225 -82.594681 -0.000022 0.337331
293.106567 -89.364357 0.000003 0.333669
294.113098 -93.134506 -0.000003 0.340368
294.755676 -95.541496 0.000005 0.334401
295.202301 -97.214401 0.000003 0.339483
295.531342 -98.446915 -0.000003 0.332280
nan nan nan 0.000000
288.122955 -69.677094 10.140818 0.965133
287.997620 -69.194153 8.949183 0.968627
287.962646 -69.059433 7.685823 0.968627
287.927795 -68.925049 6.425563 0.968627
287.997345 -69.193092 5.131614 0.980392
287.878998 -68.737061 3.899427 0.968627
287.848602 -68.619904 2.634671 0.968627
287.818054 -68.502136 1.363338 0.968627
288.105255 -69.608879 0.144820 0.980392
291.463928 -82.551331 -0.000022 0.339086
293.223938 -89.333481 0.000006 0.333165
294.204102 -93.110550 -0.000002 0.337911
294.829895 -95.521965 0.000005 0.339666
295.264832 -97.197945 0.000002 0.339834
295.585266 -98.432724 -0.000002 0.320836
nan nan nan 0.000000
288.393829 -69.675072 10.126742 0.977676
288.272247 -69.192810 8.937035 0.968627
288.238342 -69.058319 7.675848 0.968627
288.204529 -68.924156 6.417772 0.968627
288.272339 -69.193100 5.126028 0.968078
288.157288 -68.736702 3.896057 0.968627
288.127808 -68.619751 2.633541 0.968627
288.098175 -68.502182 1.364475 0.968627
288.377136 -69.608910 0.148131 0.958877
291.628906 -82.509132 -0.000022 0.336889
293.341522 -89.303398 0.000005 0.336919
294.295319 -93.087219 -0.000002 0.335119
294.904236 -95.502945 0.000005 0.338308
295.327454 -97.181923 0.000002 0.341192
295.639252 -98.418907 -0.000003 0.331762
nan nan nan 0.000000
288.663757 -69.673065 10.113110 0.962005
288.545929 -69.191498 8.925264 0.968627
288.513092 -69.057236 7.666180 0.968627
288.480316 -68.923309 6.410221 0.968627
288.546326 -69.193100 5.120612 0.971756
288.434570 -68.736359 3.892789 0.968627
288.560059 -69.249260 2.621839 0.223529
288.531464 -69.132370 1.376192 0.223529
288.648041 -69.608879 0.151339 0.972030
291.794159 -82.468086 -0.000022 0.336889
293.459320 -89.274139 0.000005 0.333181
294.386658 -93.064537 -0.000002 0.334112
294.978699 -95.484451 0.000005 0.344335
295.390198 -97.166336 0.000001 0.336843
295.693359 -98.405472 -0.000002 0.331502
nan nan nan 0.000000
288.932800 -69.671066 10.099916 0.980392
288.818726 -69.190231 8.913859 0.968627
288.786926 -69.056183 7.656816 0.968627
288.755188 -68.922470 6.402905 0.968627
288.887360 -69.479462 5.091235 0.223529
288.859894 -69.363724 3.857932 0.223529
288.832336 -69.247650 2.620820 0.223529
288.771759 -68.992287 1.374884 0.223529
288.844055 -69.297058 0.138702 0.969085
291.959717 -82.428192 -0.000022 0.338552
293.577301 -89.245705 0.000004 0.336522
