# This PCD file was generated using the MATLABÂ® pcwrite function
# from Computer Vision ToolboxÂ®.
# .PCD v.7 - Point Cloud Data file format
VERSION .7
FIELDS x y z intensity
SIZE 4 4 4 4
TYPE F F F F
COUNT 1 1 1 1
WIDTH 1257
HEIGHT 1
VIEWPOINT 0 0 0 1 0 0 0
POINTS 1257
DATA ascii
nan nan nan 0.000000
292.931091 -49.924541 -0.000045 0.337942
289.089874 -34.062702 0.000008 0.226001
287.440796 -27.253124 0.000002 0.212705
286.522369 -23.460537 -0.000002 0.227126
285.936005 -21.039288 -0.000004 0.259535
285.528473 -19.356415 -0.000004 0.233457
285.228210 -18.116545 -0.000002 0.210503
nan nan nan 0.000000
nan nan nan 0.000000
nan nan nan 0.000000
nan nan nan 0.000000
nan nan nan 0.000000
nan nan nan 0.000000
nan nan nan 0.000000
nan nan nan 0.000000
nan nan nan 0.000000
292.607941 -49.791630 0.009989 1.000000
288.924225 -34.102207 0.000008 0.232153
287.322754 -27.281284 0.000002 0.212358
286.430817 -23.482372 -0.000001 0.217659
285.861389 -21.057087 -0.000004 0.210646
285.465607 -19.371410 -0.000003 0.262683
285.174011 -18.129477 -0.000002 0.263078
nan nan nan 0.000000
nan nan nan 0.000000
nan nan nan 0.000000
nan nan nan 0.000000
nan nan nan 0.000000
nan nan nan 0.000000
nan nan nan 0.000000
nan nan nan 0.000000
nan nan nan 0.000000
292.377716 -50.054504 -0.000046 0.339681
288.758301 -34.140556 0.000007 0.222770
287.204498 -27.308617 0.000002 0.236437
286.339081 -23.503571 -0.000002 0.236557
285.786621 -21.074368 -0.000004 0.286846
285.402618 -19.385965 -0.000003 0.238507
285.119690 -18.142029 -0.000002 0.207224
nan nan nan 0.000000
nan nan nan 0.000000
nan nan nan 0.000000
nan nan nan 0.000000
nan nan nan 0.000000
nan nan nan 0.000000
nan nan nan 0.000000
nan nan nan 0.000000
nan nan nan 0.000000
292.100037 -50.115211 0.000022 0.226444
288.592133 -34.177734 0.000008 0.219718
287.086060 -27.335121 0.000001 0.237897
286.247223 -23.524124 -0.000002 0.232631
285.711731 -21.091125 -0.000004 0.239668
285.339508 -19.400082 -0.000003 0.192443
285.065308 -18.154202 -0.000002 0.219227
nan nan nan 0.000000
nan nan nan 0.000000
nan nan nan 0.000000
nan nan nan 0.000000
nan nan nan 0.000000
nan nan nan 0.000000
nan nan nan 0.000000
nan nan nan 0.000000
nan nan nan 0.000000
291.822266 -50.175335 0.000022 0.231075
288.425720 -34.213760 0.000007 0.224661
286.967438 -27.360794 0.000002 0.242182
286.155243 -23.544041 -0.000002 0.206733
285.636719 -21.107357 -0.000004 0.228215
285.276337 -19.413757 -0.000003 0.238125
285.010803 -18.165991 -0.000002 0.250511
nan nan nan 0.000000
nan nan nan 0.000000
nan nan nan 0.000000
nan nan nan 0.000000
nan nan nan 0.000000
nan nan nan 0.000000
nan nan nan 0.000000
nan nan nan 0.000000
nan nan nan 0.000000
291.544067 -50.233524 0.000021 0.227162
288.259033 -34.248623 0.000007 0.226528
286.848633 -27.385639 0.000001 0.218354
286.063110 -23.563309 -0.000002 0.251576
285.561615 -21.123066 -0.000004 0.294134
285.213043 -19.426994 -0.000004 0.238352
284.956268 -18.177402 -0.000002 0.226982
nan nan nan 0.000000
nan nan nan 0.000000
nan nan nan 0.000000
nan nan nan 0.000000
nan nan nan 0.000000
nan nan nan 0.000000
nan nan nan 0.000000
nan nan nan 0.000000
nan nan nan 0.000000
291.265472 -50.289783 0.000021 0.230393
288.092102 -34.282322 0.000007 0.222447
286.729645 -27.409664 0.000001 0.228024
285.970825 -23.581932 -0.000002 0.226121
285.486389 -21.138252 -0.000004 0.215852
285.149689 -19.439785 -0.000003 0.237634
284.901611 -18.188431 -0.000002 0.224601
nan nan nan 0.000000
nan nan nan 0.000000
nan nan nan 0.000000
nan nan nan 0.000000
nan nan nan 0.000000
nan nan nan 0.000000
nan nan nan 0.000000
nan nan nan 0.000000
nan nan nan 0.000000
290.986511 -50.344078 0.000020 0.232559
287.924957 -34.314854 0.000007 0.229173
286.610535 -27.432850 0.000001 0.216056
285.878448 -23.599918 -0.000002 0.230058
285.411072 -21.152912 -0.000004 0.231530
285.086243 -19.452137 -0.000003 0.218605
284.846893 -18.199081 -0.000002 0.245461
nan nan nan 0.000000
nan nan nan 0.000000
nan nan nan 0.000000
nan nan nan 0.000000
nan nan nan 0.000000
nan nan nan 0.000000
nan nan nan 0.000000
nan nan nan 0.000000
nan nan nan 0.000000
290.707153 -50.396416 0.000020 0.231111
287.757599 -34.346222 0.000006 0.235312
286.491241 -27.455204 0.000001 0.206529
285.785919 -23.617252 -0.000002 0.248357
285.335663 -21.167049 -0.000005 0.233744
285.022675 -19.464043 -0.000003 0.204076
284.792114 -18.209347 -0.000002 0.184305
nan nan nan 0.000000
nan nan nan 0.000000
nan nan nan 0.000000
nan nan nan 0.000000
nan nan nan 0.000000
nan nan nan 0.000000
nan nan nan 0.000000
nan nan nan 0.000000
nan nan nan 0.000000
290.427460 -50.446835 0.000019 0.231123
287.589996 -34.376415 0.000006 0.229939
286.371796 -27.476730 0.000000 0.238627
285.693298 -23.633942 -0.000002 0.242349
285.260132 -21.180649 -0.000004 0.250751
284.959076 -19.475506 -0.000003 0.246562
284.737244 -18.219229 -0.000002 0.198379
nan nan nan 0.000000
nan nan nan 0.000000
nan nan nan 0.000000
nan nan nan 0.000000
nan nan nan 0.000000
nan nan nan 0.000000
nan nan nan 0.000000
nan nan nan 0.000000
nan nan nan 0.000000
290.147400 -50.495285 0.000019 0.226492
287.422211 -34.405437 0.000006 0.229603
286.252197 -27.497410 0.000001 0.233254
285.600525 -23.649990 -0.000003 0.211568
285.184509 -21.193733 -0.000005 0.218784
284.895355 -19.486523 -0.000003 0.219742
284.682312 -18.228731 -0.000002 0.255227
nan nan nan 0.000000
289.971008 -51.182972 10.932933 0.223529
289.971130 -51.183727 9.525871 0.223529
nan nan nan 0.000000
nan nan nan 0.000000
nan nan nan 0.000000
nan nan nan 0.000000
nan nan nan 0.000000
nan nan nan 0.000000
289.867004 -50.541782 0.000018 0.229639
287.254211 -34.433292 0.000006 0.242828
286.132446 -27.517262 0.000001 0.210251
285.507690 -23.665386 -0.000003 0.224541
285.108826 -21.206280 -0.000004 0.214787
284.831573 -19.497097 -0.000003 0.236162
284.627319 -18.237846 -0.000002 0.198307
nan nan nan 0.000000
290.133911 -54.118240 11.564580 0.223529
289.678925 -51.183739 9.517542 0.223529
289.679047 -51.184471 8.128632 0.223529
nan nan nan 0.000000
nan nan nan 0.000000
nan nan nan 0.000000
nan nan nan 0.000000
nan nan nan 0.000000
289.586304 -50.586296 0.000019 0.227018
287.086029 -34.459972 0.000006 0.221154
286.012573 -27.536282 0.000000 0.242696
285.414703 -23.680130 -0.000003 0.226791
285.033020 -21.218304 -0.000005 0.226396
284.767731 -19.507225 -0.000003 0.242313
284.572296 -18.246580 -0.000002 0.259595
nan nan nan 0.000000
289.901733 -54.661598 11.673100 0.223529
289.402740 -51.287777 9.528733 0.968627
289.406616 -51.313908 8.141563 0.223529
289.387573 -51.185215 6.748071 0.223529
289.387695 -51.185940 5.384250 0.223529
nan nan nan 0.000000
nan nan nan 0.000000
nan nan nan 0.000000
289.305298 -50.628864 0.000018 0.233182
286.917664 -34.485470 0.000006 0.243043
285.892578 -27.554462 0.000000 0.225044
285.321655 -23.694229 -0.000003 0.215481
284.957153 -21.229794 -0.000004 0.207547
284.703827 -19.516903 -0.000003 0.250320
284.517181 -18.254929 -0.000002 0.261988
nan nan nan 0.000000
nan nan nan 0.000000
289.111053 -51.287762 9.521150 0.968627
289.111053 -51.287777 8.131463 0.968627
289.509827 -54.120647 7.084314 0.223529
289.096710 -51.185947 5.380842 0.223529
289.096802 -51.186661 4.025639 0.223529
nan nan nan 0.000000
nan nan nan 0.000000
289.024017 -50.669479 0.000017 0.229998
286.749146 -34.509804 0.000005 0.235887
285.772461 -27.571793 0.000000 0.251361
285.228485 -23.707676 -0.000003 0.233230
284.881195 -21.240757 -0.000004 0.214644
284.639832 -19.526138 -0.000003 0.209665
284.462006 -18.262892 -0.000002 0.210299
nan nan nan 0.000000
nan nan nan 0.000000
288.819916 -51.287754 9.513945 0.968627
288.819916 -51.287758 8.125590 0.968627
288.819916 -51.287777 6.750652 0.968627
289.198669 -54.121422 5.620440 0.223529
288.830444 -51.366554 4.032615 0.223529
288.806488 -51.187389 2.674098 0.223529
288.806580 -51.188110 1.325891 0.223529
288.742432 -50.708103 0.000018 0.231782
286.580444 -34.532955 0.000005 0.221872
285.652191 -27.588299 0.000000 0.218234
285.135223 -23.720470 -0.000003 0.231231
284.805176 -21.251186 -0.000004 0.202113
284.575775 -19.534929 -0.000003 0.266213
284.406769 -18.270466 -0.000001 0.190947
nan nan nan 0.000000
nan nan nan 0.000000
288.529297 -51.287746 9.507122 0.968627
288.529297 -51.287750 8.120026 0.968627
288.529297 -51.287762 6.746336 0.968627
288.529327 -51.287785 5.382955 0.968627
288.529327 -51.287773 4.026870 0.968627
288.520050 -51.214653 2.673934 0.223529
288.516693 -51.188114 1.326503 0.223529
288.460602 -50.744785 0.000018 0.231434
286.411591 -34.554935 0.000005 0.232476
285.531860 -27.603958 -0.000000 0.243295
285.041901 -23.732616 -0.000003 0.231782
284.729095 -21.261089 -0.000004 0.198248
284.511688 -19.543270 -0.000003 0.230633
284.351501 -18.277660 -0.000002 0.199600
nan nan nan 0.000000
nan nan nan 0.000000
288.239227 -51.287739 9.500677 0.968627
288.239227 -51.287743 8.114773 0.968627
288.239227 -51.287758 6.742262 0.968627
288.239227 -51.287766 5.380049 0.968627
288.239227 -51.287769 4.025130 0.968627
288.230499 -51.214664 2.673357 0.223529
288.239227 -51.287777 1.325439 0.968627
288.178497 -50.779491 0.000017 0.227533
286.242554 -34.575714 0.000005 0.228526
285.411377 -27.618778 -0.000000 0.218820
284.948456 -23.744106 -0.000003 0.204997
284.652924 -21.270458 -0.000005 0.237586
284.447510 -19.551163 -0.000003 0.226109
284.296173 -18.284468 -0.000002 0.211305
nan nan nan 0.000000
nan nan nan 0.000000
287.949615 -51.287727 9.494608 0.968627
287.949615 -51.287739 8.109824 0.968627
287.949646 -51.287739 6.738423 0.968627
287.949646 -51.287758 5.377314 0.968627
287.949646 -51.287766 4.023491 0.968627
287.941406 -51.214664 2.672812 0.223529
287.949646 -51.287769 1.325985 0.968627
287.896179 -50.812237 0.000017 0.231889
286.073425 -34.595329 0.000005 0.231243
285.290833 -27.632755 -0.000000 0.242816
284.854950 -23.754951 -0.000003 0.223739
284.576691 -21.279295 -0.000004 0.216487
284.383301 -19.558609 -0.000003 0.199205
284.240814 -18.290886 -0.000002 0.212382
nan nan nan 0.000000
nan nan nan 0.000000
287.660492 -51.287716 9.488911 0.968627
287.660492 -51.287735 8.105181 0.968627
287.660492 -51.287743 6.734823 0.968627
287.660492 -51.287758 5.374747 0.968627
287.660492 -51.287758 4.021954 0.968627
287.652802 -51.214657 2.672301 0.223529
287.660492 -51.287766 1.326497 0.968627
287.613647 -50.843006 0.000017 0.225331
285.904114 -34.613762 0.000005 0.228514
285.170166 -27.645889 -0.000000 0.219550
284.761383 -23.765141 -0.000004 0.218330
284.500397 -21.287600 -0.000004 0.205859
284.319031 -19.565605 -0.000003 0.245952
284.185394 -18.296919 -0.000002 0.199732
nan nan nan 0.000000
nan nan nan 0.000000
287.371765 -51.287701 9.483587 0.968627
287.371765 -51.287724 8.100842 0.968627
287.371765 -51.287731 6.731458 0.968627
287.371765 -51.287750 5.372349 0.968627
287.371765 -51.287743 4.020516 0.968627
287.364594 -51.214653 2.671823 0.223529
287.371765 -51.287750 1.326975 0.968627
287.330902 -50.871803 0.000016 0.230405
285.734711 -34.631012 0.000005 0.224912
285.049408 -27.658188 -0.000001 0.244791
284.667725 -23.774677 -0.000004 0.204100
284.424072 -21.295372 -0.000005 0.246574
284.254700 -19.572153 -0.000003 0.226659
284.129944 -18.302563 -0.000001 0.232691
nan nan nan 0.000000
287.113495 -51.617126 10.948479 0.223529
287.071625 -51.158012 9.454943 0.223529
287.071625 -51.158012 8.077486 0.223529
287.071625 -51.158012 6.713344 0.223529
287.071625 -51.158012 5.359437 0.223529
287.071625 -51.158020 4.012780 0.223529
287.071625 -51.158016 2.670448 0.223529
287.071625 -51.158016 1.329553 0.223529
287.047943 -50.898628 0.000016 0.232440
285.565186 -34.647076 0.000004 0.231985
284.928589 -27.669640 -0.000001 0.212298
284.574036 -23.783552 -0.000003 0.234055
284.347687 -21.302612 -0.000004 0.204160
284.190338 -19.578251 -0.000003 0.258458
284.074432 -18.307823 -0.000002 0.200127
nan nan nan 0.000000
287.132904 -55.294857 11.740125 0.223529
286.795502 -51.287697 9.474058 0.968627
286.795502 -51.287701 8.093071 0.968627
286.795502 -51.287716 6.725433 0.968627
286.795502 -51.287727 5.368053 0.968627
286.795502 -51.287731 4.017943 0.968627
286.789337 -51.214664 2.670968 0.223529
286.795502 -51.287731 1.327833 0.968627
286.764832 -50.923443 0.000016 0.233864
285.395569 -34.661961 0.000004 0.235133
284.807678 -27.680241 -0.000001 0.231841
284.480255 -23.791779 -0.000004 0.213483
284.271240 -21.309317 -0.000004 0.211556
284.125946 -19.583899 -0.000003 0.207690
284.018921 -18.312695 -0.000001 0.245030
nan nan nan 0.000000
nan nan nan 0.000000
286.507874 -51.287685 9.469848 0.968627
286.507874 -51.287701 8.089640 0.968627
286.507874 -51.287712 6.722771 0.968627
286.507874 -51.287716 5.366157 0.968627
286.507874 -51.287724 4.016807 0.968627
286.502228 -51.214657 2.670589 0.223529
286.507874 -51.287727 1.328211 0.968627
286.481537 -50.946316 0.000016 0.229998
285.225830 -34.675655 0.000004 0.234426
284.686707 -27.690006 -0.000001 0.237694
284.386444 -23.799351 -0.000004 0.266548
284.194733 -21.315487 -0.000004 0.220795
284.061523 -19.589098 -0.000002 0.261629
283.963348 -18.317175 -0.000001 0.218916
nan nan nan 0.000000
nan nan nan 0.000000
284.971039 -33.477257 6.217324 0.634684
284.971039 -33.477261 5.438087 0.615137
284.971039 -33.477261 4.666379 0.630213
284.971039 -33.477268 3.900462 0.589792
284.971039 -33.477264 3.138647 0.705180
284.971039 -33.477264 2.379278 0.648859
284.971039 -33.477264 1.620722 0.656184
284.971039 -33.477264 0.861353 0.731289
284.971039 -33.477272 0.099536 0.657832
284.565674 -27.698917 -0.000001 0.222722
284.292572 -23.806267 -0.000004 0.240638
284.118225 -21.321125 -0.000004 0.236844
283.997040 -19.593847 -0.000002 0.244743
283.907745 -18.321272 -0.000001 0.226552
nan nan nan 0.000000
nan nan nan 0.000000
284.808929 -33.477257 6.215361 0.691051
284.808929 -33.477257 5.436486 0.670481
284.808929 -33.477264 4.665139 0.620584
284.808929 -33.477261 3.899579 0.606592
284.808929 -33.477261 3.138117 0.675364
284.808929 -33.477264 2.379102 0.613794
284.808929 -33.477268 1.620898 0.668788
284.808929 -33.477261 0.861882 0.684230
284.808929 -33.477264 0.100421 0.588617
284.444550 -27.706997 -0.000001 0.220041
284.198639 -23.812527 -0.000004 0.241990
284.041656 -21.326225 -0.000004 0.225917
283.932526 -19.598146 -0.000003 0.224182
283.852142 -18.324978 -0.000001 0.187405
nan nan nan 0.000000
284.646942 -33.477264 7.001492 0.425238
284.646942 -33.477261 6.213608 0.652110
284.646942 -33.477261 5.435057 0.697398
284.646942 -33.477264 4.664030 0.617838
284.646942 -33.477264 3.898788 0.655619
284.646942 -33.477264 3.137643 0.669703
284.646942 -33.477264 2.378944 0.622171
284.646942 -33.477264 1.621056 0.646815
284.646942 -33.477264 0.862356 0.683040
284.646942 -33.477268 0.101211 0.645747
284.323395 -27.714222 -0.000001 0.223332
284.104675 -23.818130 -0.000004 0.235336
283.965057 -21.330795 -0.000004 0.241918
283.868011 -19.601997 -0.000003 0.275440
283.796509 -18.328297 -0.000002 0.240051
nan nan nan 0.000000
284.485077 -33.477261 6.999653 0.659800
284.485077 -33.477261 6.212059 0.663828
284.485077 -33.477257 5.433793 0.635874
284.485077 -33.477261 4.663050 0.640482
284.485077 -33.477264 3.898091 0.663325
284.485077 -33.477264 3.137226 0.684123
284.485077 -33.477264 2.378804 0.649027
284.485077 -33.477264 1.621195 0.637385
284.485077 -33.477264 0.862774 0.700160
284.485077 -33.477268 0.101909 0.647074
284.202209 -27.720604 -0.000001 0.247471
284.010681 -23.823084 -0.000004 0.243055
283.888428 -21.334829 -0.000004 0.265124
283.803436 -19.605396 -0.000003 0.239549
283.740845 -18.331226 -0.000001 0.289347
nan nan nan 0.000000
284.323303 -33.477257 6.998060 0.661921
284.323303 -33.477264 6.210719 0.671305
284.323303 -33.477264 5.432701 0.655207
284.323303 -33.477264 4.662202 0.666667
284.323303 -33.477264 3.897485 0.701076
284.323303 -33.477264 3.136864 0.671580
284.323303 -33.477268 2.378684 0.615412
284.323303 -33.477268 1.621316 0.654902
284.323303 -33.477264 0.863136 0.704158
284.323303 -33.477264 0.102514 0.669978
284.080963 -27.726139 -0.000002 0.245916
283.916656 -23.827374 -0.000005 0.222363
283.811768 -21.338327 -0.000004 0.204040
283.738861 -19.608341 -0.000002 0.206805
283.685150 -18.333767 -0.000001 0.238472
nan nan nan 0.000000
284.161652 -33.477257 6.996712 0.709804
284.161652 -33.477261 6.209582 0.616663
284.161652 -33.477261 5.431774 0.650828
284.161652 -33.477264 4.661485 0.634638
284.161652 -33.477261 3.896974 0.652644
284.161652 -33.477268 3.136557 0.686412
284.161652 -33.477264 2.378582 0.597421
284.161652 -33.477264 1.621418 0.651041
284.161652 -33.477268 0.863443 0.648966
284.161652 -33.477264 0.103026 0.585611
283.959686 -27.730827 -0.000002 0.213339
283.822601 -23.831009 -0.000004 0.234331
283.735077 -21.341290 -0.000004 0.280826
283.674255 -19.610838 -0.000002 0.218605
283.629456 -18.335920 -0.000001 0.243929
nan nan nan 0.000000
284.000092 -33.477261 6.995608 0.668040
284.000092 -33.477261 6.208652 0.676966
284.000092 -33.477264 5.431017 0.666667
284.000092 -33.477264 4.660896 0.653010
284.000092 -33.477268 3.896554 0.588327
284.000092 -33.477268 3.136306 0.666575
284.000092 -33.477268 2.378498 0.679850
284.000092 -33.477268 1.621502 0.666667
284.000092 -33.477268 0.863694 0.671077
284.000092 -33.477268 0.103444 0.625803
283.838348 -27.734669 -0.000002 0.204674
283.728516 -23.833986 -0.000004 0.265028
283.658386 -21.343719 -0.000004 0.200318
283.609650 -19.612883 -0.000002 0.223284
283.573730 -18.337683 -0.000001 0.262838
nan nan nan 0.000000
283.838562 -33.477261 6.994748 0.638972
283.838562 -33.477261 6.207928 0.613687
283.838562 -33.477261 5.430425 0.624704
283.838562 -33.477261 4.660438 0.646632
283.838562 -33.477264 3.896228 0.613703
283.838562 -33.477261 3.136109 0.633814
283.838562 -33.477264 2.378433 0.628489
283.838562 -33.477264 1.621567 0.665751
283.838562 -33.477261 0.863890 0.630014
283.838562 -33.477268 0.103771 0.627573
283.717041 -27.737659 -0.000002 0.238591
283.634430 -23.836309 -0.000005 0.214332
283.581665 -21.345612 -0.000004 0.247603
283.545013 -19.614477 -0.000002 0.270318
283.518005 -18.339060 -0.000001 0.260337
nan nan nan 0.000000
283.677094 -33.477261 6.994131 0.654902
283.677094 -33.477264 6.207408 0.629206
283.677094 -33.477268 5.430003 0.675608
283.677094 -33.477268 4.660110 0.621225
283.677094 -33.477264 3.895993 0.622492
283.677094 -33.477264 3.135970 0.671672
283.677094 -33.477268 2.378386 0.680156
283.677094 -33.477268 1.621614 0.683940
283.677094 -33.477268 0.864030 0.617441
283.677094 -33.477264 0.104006 0.657130
283.595673 -27.739811 -0.000002 0.206398
283.540314 -23.837971 -0.000005 0.235887
283.504944 -21.346970 -0.000004 0.270282
283.480377 -19.615620 -0.000002 0.231782
283.462280 -18.340044 -0.000001 0.267518
nan nan nan 0.000000
283.515686 -33.477261 6.993758 0.633387
283.515686 -33.477264 6.207094 0.664561
283.515686 -33.477264 5.429746 0.673060
283.515686 -33.477261 4.659911 0.635599
283.515686 -33.477264 3.895852 0.690562
283.515686 -33.477264 3.135885 0.691417
283.515686 -33.477268 2.378358 0.649165
283.515686 -33.477268 1.621642 0.647059
283.515686 -33.477268 0.864115 0.720562
283.515686 -33.477268 0.104147 0.649714
283.474304 -27.741112 -0.000002 0.230788
283.446167 -23.838982 -0.000005 0.249542
283.428223 -21.347790 -0.000004 0.235611
283.415741 -19.616312 -0.000003 0.238507
283.406525 -18.340641 -0.000001 0.235168
283.354248 -33.477272 7.791477 0.756802
283.354248 -33.477257 6.993629 0.654185
283.354248 -33.477264 6.206985 0.654902
283.354248 -33.477268 5.429657 0.690196
283.354248 -33.477268 4.659842 0.647059
283.354248 -33.477268 3.895802 0.652796
283.354248 -33.477272 3.135855 0.692531
283.354248 -33.477268 2.378348 0.639658
283.354248 -33.477268 1.621652 0.673609
283.354248 -33.477272 0.864144 0.702770
283.354248 -33.477268 0.104196 0.651011
283.352936 -27.741566 -0.000003 0.213662
283.352051 -23.839333 -0.000005 0.214356
283.351471 -21.348072 -0.000004 0.233313
283.351074 -19.616550 -0.000002 0.237119
283.350800 -18.340847 -0.000001 0.201168
283.192841 -33.477276 7.791611 0.680018
283.192841 -33.477261 6.993742 0.709804
283.192841 -33.477264 6.207080 0.623529
283.192841 -33.477264 5.429735 0.689052
283.192841 -33.477268 4.659904 0.670359
283.192841 -33.477272 3.895846 0.645884
283.192841 -33.477268 3.135881 0.704845
283.192841 -33.477272 2.378357 0.635294
283.192841 -33.477272 1.621643 0.666667
283.192841 -33.477268 0.864118 0.770031
283.192841 -33.477272 0.104153 0.669367
283.231567 -27.741165 -0.000003 0.215757
283.257935 -23.839024 -0.000005 0.255993
283.274750 -21.347822 -0.000004 0.266823
283.286438 -19.616341 -0.000002 0.272436
283.295044 -18.340666 -0.000001 0.206386
283.031403 -33.477272 7.792025 0.698283
283.031403 -33.477261 6.994100 0.671489
283.031403 -33.477264 6.207381 0.646983
283.031403 -33.477264 5.429981 0.708721
283.031403 -33.477268 4.660093 0.632486
283.031403 -33.477268 3.895982 0.638590
283.031403 -33.477264 3.135962 0.671595
283.031403 -33.477268 2.378383 0.625605
283.031403 -33.477268 1.621616 0.663737
283.031403 -33.477264 0.864037 0.668345
283.031403 -33.477272 0.104017 0.631449
283.110199 -27.739929 -0.000003 0.227760
283.163788 -23.838062 -0.000005 0.202903
283.198029 -21.347034 -0.000004 0.205871
283.221802 -19.615677 -0.000002 0.214261
283.239319 -18.340094 -0.000001 0.289096
282.869934 -33.477272 7.792719 0.632990
282.869934 -33.477264 6.994701 0.639780
282.869934 -33.477264 6.207888 0.653544
282.869934 -33.477268 5.430393 0.679210
282.869934 -33.477268 4.660413 0.624170
282.869934 -33.477264 3.896210 0.567590
282.869934 -33.477264 3.136099 0.674540
282.869934 -33.477268 2.378429 0.674540
282.869934 -33.477268 1.621571 0.658183
282.869934 -33.477268 0.863901 0.673411
282.869934 -33.477264 0.103789 0.625864
282.988861 -27.737835 -0.000003 0.229280
283.069672 -23.836441 -0.000005 0.219969
283.121277 -21.345715 -0.000004 0.235946
283.157166 -19.614563 -0.000002 0.212202
283.183594 -18.339134 -0.000001 0.220759
282.708435 -33.477272 7.793699 0.636957
282.708435 -33.477261 6.995544 0.667643
282.708435 -33.477264 6.208599 0.663859
282.708435 -33.477268 5.430973 0.651469
282.708435 -33.477268 4.660863 0.662730
282.708435 -33.477268 3.896531 0.636652
282.708435 -33.477268 3.136291 0.706554
282.708435 -33.477268 2.378494 0.616251
282.708435 -33.477268 1.621506 0.643473
282.708435 -33.477268 0.863708 0.717540
282.708435 -33.477272 0.103469 0.603052
282.867523 -27.734898 -0.000003 0.238460
282.975586 -23.834164 -0.000005 0.243893
283.044586 -21.343853 -0.000004 0.223177
283.092529 -19.612999 -0.000002 0.231506
283.127869 -18.337786 -0.000001 0.223464
282.546875 -33.477264 7.794960 0.645548
282.546875 -33.477264 6.996634 0.642893
282.546875 -33.477268 6.209517 0.678523
282.546875 -33.477268 5.431720 0.639078
282.546875 -33.477268 4.661442 0.608179
282.546875 -33.477268 3.896943 0.584405
282.546875 -33.477264 3.136538 0.663310
282.546875 -33.477268 2.378575 0.628855
282.546875 -33.477268 1.621425 0.660792
282.546875 -33.477264 0.863461 0.712474
282.546875 -33.477268 0.103056 0.603159
282.746216 -27.731113 -0.000003 0.241667
282.881500 -23.831230 -0.000005 0.267649
282.967865 -21.341465 -0.000004 0.268942
283.027924 -19.610981 -0.000002 0.235683
283.072144 -18.336048 -0.000001 0.258039
282.385223 -33.477264 7.796506 0.623529
282.385223 -33.477264 6.997966 0.626535
282.385223 -33.477264 6.210638 0.636759
282.385223 -33.477268 5.432635 0.686183
282.385223 -33.477264 4.662151 0.646601
282.385223 -33.477268 3.897449 0.577935
282.385223 -33.477261 3.136841 0.666529
282.385223 -33.477264 2.378676 0.641535
282.385223 -33.477264 1.621323 0.657542
282.385223 -33.477264 0.863158 0.653803
282.385223 -33.477272 0.102550 0.603800
282.624939 -27.726482 -0.000003 0.226468
282.787445 -23.827639 -0.000005 0.229603
282.891205 -21.338535 -0.000004 0.249470
282.963318 -19.608521 -0.000002 0.204267
283.016449 -18.333920 -0.000001 0.255179
282.223480 -33.477264 7.798335 0.663050
282.223480 -33.477264 6.999543 0.663096
282.223480 -33.477268 6.211967 0.666468
282.223480 -33.477264 5.433718 0.673869
282.223480 -33.477268 4.662992 0.639841
282.223480 -33.477268 3.898048 0.642100
282.223480 -33.477264 3.137200 0.689754
282.223480 -33.477264 2.378796 0.653712
282.223480 -33.477264 1.621204 0.628000
282.223480 -33.477268 0.862799 0.648997
282.223480 -33.477272 0.101951 0.642618
282.503662 -27.721008 -0.000003 0.223189
282.693420 -23.823391 -0.000005 0.232476
282.814545 -21.335073 -0.000004 0.207212
282.898712 -19.605598 -0.000002 0.241523
282.960754 -18.331404 -0.000001 0.256495
282.061615 -33.477268 7.800447 0.711269
282.061615 -33.477261 7.001363 0.666667
282.061615 -33.477264 6.213501 0.654902
282.061615 -33.477268 5.434969 0.582971
282.061615 -33.477264 4.663962 0.659159
282.061615 -33.477264 3.898739 0.670329
282.061615 -33.477264 3.137614 0.665324
282.061615 -33.477264 2.378935 0.690990
282.061615 -33.477264 1.621066 0.631067
282.061615 -33.477268 0.862385 0.672938
282.061615 -33.477268 0.101259 0.643565
282.382477 -27.714684 -0.000003 0.236353
282.599396 -23.818485 -0.000005 0.218605
282.737915 -21.331074 -0.000004 0.262060
282.834167 -19.602228 -0.000002 0.204638
282.905090 -18.328499 -0.000001 0.231770
281.899628 -33.477264 7.802844 0.647944
281.899628 -33.477268 7.003433 0.666667
281.899628 -33.477264 6.215242 0.640681
281.899628 -33.477268 5.436388 0.678431
281.899628 -33.477264 4.665062 0.688273
281.899628 -33.477268 3.899524 0.700740
281.899628 -33.477268 3.138085 0.661173
281.899628 -33.477268 2.379090 0.659083
281.899628 -33.477268 1.620909 0.660853
281.899628 -33.477268 0.861915 0.705516
281.899628 -33.477268 0.100475 0.657862
282.261322 -27.707516 -0.000003 0.220352
282.505432 -23.812927 -0.000006 0.226923
282.661316 -21.326540 -0.000003 0.199337
282.769623 -19.598410 -0.000002 0.236760
282.849457 -18.325205 -0.000001 0.182749
281.737518 -33.477261 7.805525 0.634348
281.737518 -33.477261 7.005743 0.667994
281.737518 -33.477264 6.217191 0.682948
281.737518 -33.477264 5.437977 0.687526
281.737518 -33.477261 4.666294 0.656825
281.737518 -33.477264 3.900402 0.667765
281.737518 -33.477264 3.138610 0.623102
281.737518 -33.477264 2.379265 0.632822
281.737518 -33.477268 1.620734 0.665980
281.737518 -33.477268 0.861389 0.662394
281.737518 -33.477268 0.099597 0.695338
282.140198 -27.699497 -0.000003 0.210527
282.411530 -23.806709 -0.000006 0.242098
282.584747 -21.321472 -0.000004 0.265615
282.705139 -19.594139 -0.000002 0.228227
282.793823 -18.321522 -0.000001 0.245533
281.575226 -33.477268 7.808494 0.650263
281.575226 -33.477264 7.008302 0.668223
281.575226 -33.477264 6.219346 0.652186
281.575226 -33.477264 5.439734 0.640787
281.575226 -33.477268 4.667657 0.647608
281.575226 -33.477264 3.901374 0.671809
281.575226 -33.477264 3.139193 0.634943
281.575226 -33.477268 2.379460 0.674708
281.575226 -33.477268 1.620540 0.621622
281.575226 -33.477268 0.860807 0.658763
281.575226 -33.477268 0.098626 0.633478
282.019165 -27.690643 -0.000004 0.230262
282.317657 -23.799837 -0.000006 0.203190
282.508209 -21.315872 -0.000004 0.234857
282.640656 -19.589420 -0.000002 0.223177
282.738220 -18.317455 -0.000001 0.284416
281.412781 -33.477264 7.811748 0.656596
281.412781 -33.477264 7.011107 0.678431
281.412781 -33.477264 6.221710 0.625391
281.412781 -33.477264 5.441662 0.663661
281.412781 -33.477261 4.669151 0.655238
281.412781 -33.477268 3.902439 0.731060
281.412781 -33.477268 3.139831 0.696269
281.412781 -33.477268 2.379672 0.659236
281.412781 -33.477268 1.620328 0.686839
281.412781 -33.477272 0.860168 0.662318
281.412781 -33.477272 0.097560 0.646922
281.898163 -27.680935 -0.000004 0.243546
282.223816 -23.792309 -0.000006 0.236545
282.431702 -21.309731 -0.000003 0.230142
282.576202 -19.584249 -0.000002 0.240973
282.682678 -18.312996 -0.000000 0.224146
281.250122 -33.477261 7.815289 0.638086
281.250122 -33.477268 7.014162 0.664668
281.250122 -33.477264 6.224283 0.611765
281.250122 -33.477264 5.443758 0.656092
281.250122 -33.477264 4.670778 0.660471
281.250122 -33.477268 3.903598 0.617044
281.250122 -33.477264 3.140525 0.624186
281.250122 -33.477264 2.379903 0.608270
281.250122 -33.477268 1.620096 0.699626
281.250122 -33.477264 0.859474 0.602731
281.250122 -33.477272 0.096401 0.628748
281.777252 -27.670383 -0.000004 0.254891
282.130035 -23.784126 -0.000005 0.234331
282.355255 -21.303062 -0.000003 0.193197
282.511810 -19.578629 -0.000002 0.246957
282.627136 -18.308149 -0.000000 0.217731
281.087280 -33.477261 7.819118 0.629313
281.087280 -33.477264 7.017464 0.637507
281.087280 -33.477268 6.227066 0.648432
281.087280 -33.477264 5.446027 0.657664
281.087280 -33.477264 4.672538 0.690196
281.087280 -33.477264 3.904852 0.660594
281.087280 -33.477264 3.141276 0.667597
281.087280 -33.477264 2.380154 0.685420
281.087280 -33.477264 1.619846 0.664759
281.087280 -33.477268 0.858723 0.551644
281.087280 -33.477268 0.095147 0.659800
281.656433 -27.658993 -0.000004 0.223859
282.036346 -23.775288 -0.000005 0.236377
282.278870 -21.295856 -0.000003 0.267637
282.447449 -19.572561 -0.000002 0.225977
282.571625 -18.302916 -0.000000 0.230525
280.924225 -33.477264 7.823236 0.675792
280.924225 -33.477264 7.021015 0.659770
280.924225 -33.477264 6.230056 0.631983
280.924225 -33.477268 5.448466 0.692287
280.924225 -33.477264 4.674429 0.666667
280.924225 -33.477268 3.906200 0.628687
280.924225 -33.477264 3.142085 0.649027
280.924225 -33.477264 2.380423 0.611765
280.924225 -33.477264 1.619577 0.687892
280.924225 -33.477268 0.857915 0.587793
280.924225 -33.477272 0.093799 0.638117
281.535675 -27.646759 -0.000005 0.242457
281.942688 -23.765800 -0.000006 0.203418
282.202515 -21.288118 -0.000003 0.220029
282.383118 -19.566042 -0.000002 0.220975
282.516174 -18.297297 -0.000000 0.236533
280.760895 -33.477261 7.827645 0.669612
280.760895 -33.477264 7.024817 0.704631
280.760895 -33.477264 6.233259 0.661250
280.760895 -33.477264 5.451077 0.701396
280.760895 -33.477264 4.676453 0.698970
280.760895 -33.477264 3.907643 0.660380
280.760895 -33.477261 3.142949 0.671733
280.760895 -33.477264 2.380711 0.692180
280.760895 -33.477264 1.619289 0.699550
280.760895 -33.477264 0.857051 0.702449
280.760895 -33.477264 0.092356 0.666133
281.415009 -27.633678 -0.000005 0.215625
281.849091 -23.755650 -0.000005 0.224278
282.126221 -21.279848 -0.000003 0.227820
282.318848 -19.559074 -0.000001 0.245425
282.460754 -18.291290 -0.000001 0.232428
280.597321 -33.477264 7.832346 0.686259
280.597321 -33.477264 7.028869 0.641962
280.597321 -33.477264 6.236673 0.601236
280.597321 -33.477264 5.453859 0.676555
280.597321 -33.477268 4.678613 0.647623
280.597321 -33.477261 3.909181 0.652445
280.597321 -33.477264 3.143871 0.693629
280.597321 -33.477264 2.381018 0.650004
280.597321 -33.477264 1.618982 0.651377
280.597321 -33.477264 0.856129 0.692622
280.597321 -33.477264 0.090818 0.655406
281.294434 -27.619759 -0.000005 0.236940
281.755585 -23.744858 -0.000005 0.239285
282.050018 -21.271048 -0.000003 0.240578
282.254639 -19.551657 -0.000001 0.246502
282.405396 -18.284895 -0.000001 0.206984
280.433502 -33.477264 7.837338 0.686519
280.433502 -33.477264 7.033174 0.635355
280.433502 -33.477268 6.240299 0.590707
280.433502 -33.477268 5.456817 0.657847
280.433502 -33.477268 4.680905 0.622385
280.433502 -33.477268 3.910815 0.575616
280.433502 -33.477268 3.144850 0.696849
280.433502 -33.477268 2.381344 0.684382
280.433502 -33.477268 1.618656 0.663569
280.433502 -33.477268 0.855150 0.698787
280.433502 -33.477268 0.089183 0.654032
281.173981 -27.604996 -0.000005 0.223213
281.662170 -23.733404 -0.000005 0.207056
281.973846 -21.261711 -0.000003 0.199121
282.190460 -19.543793 -0.000001 0.291645
282.350067 -18.278114 -0.000001 0.214476
280.269379 -33.477261 7.842622 0.655055
280.269379 -33.477264 7.037732 0.635599
280.269379 -33.477264 6.244139 0.697307
280.269379 -33.477264 5.459947 0.654902
280.269379 -33.477264 4.683333 0.668376
280.269379 -33.477261 3.912545 0.692409
280.269379 -33.477264 3.145886 0.657237
280.269379 -33.477268 2.381690 0.618296
280.269379 -33.477268 1.618310 0.664744
280.269379 -33.477264 0.854113 0.654169
280.269379 -33.477264 0.087453 0.636133
281.053619 -27.589390 -0.000005 0.261713
281.568817 -23.721302 -0.000005 0.231063
281.897736 -21.251842 -0.000003 0.204004
282.126343 -19.535480 -0.000001 0.205249
282.294769 -18.270947 -0.000000 0.231650
280.104919 -33.477261 7.848205 0.650111
280.104919 -33.477261 7.042542 0.660288
280.104919 -33.477264 6.248192 0.653941
280.104919 -33.477261 5.463251 0.631388
280.104919 -33.477264 4.685895 0.647868
280.104919 -33.477261 3.914372 0.726726
280.104919 -33.477264 3.146981 0.665675
280.104919 -33.477264 2.382054 0.620523
280.104919 -33.477264 1.617946 0.647059
280.104919 -33.477264 0.853018 0.689555
280.104919 -33.477264 0.085627 0.653162
280.933350 -27.572948 -0.000005 0.229974
281.475555 -23.708546 -0.000005 0.209713
281.821716 -21.241447 -0.000003 0.190229
282.062286 -19.526722 -0.000001 0.248321
282.239563 -18.263393 -0.000000 0.200450
279.940186 -33.477264 7.854081 0.680079
279.940186 -33.477264 7.047610 0.634180
279.940186 -33.477268 6.252462 0.642924
279.940186 -33.477264 5.466731 0.658946
279.940186 -33.477268 4.688594 0.696422
279.940186 -33.477268 3.916296 0.638743
279.940186 -33.477264 3.148134 0.670527
279.940186 -33.477268 2.382438 0.653391
279.940186 -33.477268 1.617562 0.642084
279.940186 -33.477264 0.851866 0.647120
279.940186 -33.477268 0.083702 0.644495
280.813232 -27.555668 -0.000005 0.236533
281.382385 -23.695145 -0.000005 0.242696
281.745758 -21.230522 -0.000003 0.218844
281.998322 -19.517513 -0.000001 0.215039
282.184387 -18.255457 -0.000000 0.237694
279.775085 -33.477268 7.860257 0.669154
279.775085 -33.477261 7.052933 0.647700
279.775085 -33.477264 6.256947 0.677562
279.775085 -33.477264 5.470387 0.645457
279.775085 -33.477264 4.691430 0.675563
279.775085 -33.477264 3.918318 0.682338
279.775085 -33.477272 3.149345 0.659846
279.775085 -33.477264 2.382841 0.653376
279.775085 -33.477264 1.617159 0.685481
279.775085 -33.477272 0.850655 0.636667
279.775085 -33.477264 0.081681 0.666850
280.693207 -27.537544 -0.000005 0.252127
281.289307 -23.681091 -0.000005 0.217851
281.669891 -21.219063 -0.000003 0.252642
281.934387 -19.507862 -0.000001 0.205009
282.129272 -18.247133 -0.000000 0.240135
279.609619 -33.477264 7.866730 0.693874
279.609619 -33.477264 7.058516 0.640635
279.609619 -33.477268 6.261651 0.651026
279.609619 -33.477264 5.474221 0.654231
279.609619 -33.477264 4.694404 0.650538
279.609619 -33.477268 3.920437 0.713115
279.609619 -33.477268 3.150614 0.657557
279.609619 -33.477268 2.383264 0.641749
279.609619 -33.477268 1.616736 0.665980
279.609619 -33.477268 0.849385 0.646616
279.609619 -33.477268 0.079563 0.634287
280.573334 -27.518585 -0.000005 0.243426
281.196350 -23.666386 -0.000005 0.239118
281.594086 -21.207077 -0.000003 0.208480
281.870544 -19.497765 -0.000001 0.237454
282.074219 -18.238426 -0.000000 0.254868
279.443817 -33.477261 7.873504 0.656306
279.443817 -33.477264 7.064358 0.635126
279.443817 -33.477264 6.266571 0.623194
279.443817 -33.477264 5.478233 0.630320
279.443787 -33.477268 4.697515 0.665965
279.443787 -33.477264 3.922655 0.664225
279.443817 -33.477264 3.151943 0.671321
279.443787 -33.477268 2.383707 0.674022
279.443787 -33.477268 1.616293 0.635065
279.443817 -33.477264 0.848057 0.665110
279.443787 -33.477264 0.077345 0.661036
280.453583 -27.498795 -0.000006 0.214668
281.103485 -23.651031 -0.000005 0.208588
281.518372 -21.194561 -0.000003 0.205823
281.806763 -19.487221 -0.000001 0.245652
282.019226 -18.229336 -0.000000 0.240255
279.277588 -33.477261 7.880581 0.646479
279.277588 -33.477264 7.070460 0.654749
279.277588 -33.477268 6.271712 0.652033
279.277588 -33.477264 5.482425 0.688029
279.277588 -33.477268 4.700767 0.689586
279.277588 -33.477268 3.924972 0.665293
279.277588 -33.477264 3.153331 0.675929
279.277588 -33.477264 2.384169 0.658610
279.277588 -33.477268 1.615831 0.676280
279.277588 -33.477264 0.846668 0.621988
279.277588 -33.477268 0.075028 0.676341
280.333984 -27.478161 -0.000006 0.216319
281.010712 -23.635031 -0.000005 0.238867
281.442749 -21.181515 -0.000003 0.204782
281.743042 -19.476231 -0.000001 0.231530
281.964294 -18.219860 -0.000000 0.211951
279.110962 -33.477268 7.887965 0.584436
279.110962 -33.477268 7.076825 0.649851
279.110962 -33.477264 6.277074 0.659175
279.110962 -33.477268 5.486797 0.678004
279.110962 -33.477264 4.704155 0.651957
279.110962 -33.477264 3.927388 0.658518
279.110962 -33.477264 3.154778 0.639689
279.110962 -33.477264 2.384651 0.668452
279.110962 -33.477268 1.615349 0.643061
279.110962 -33.477264 0.845221 0.649042
279.110962 -33.477264 0.072612 0.612665
280.214508 -27.456699 -0.000006 0.221968
280.918060 -23.618382 -0.000005 0.224924
281.367218 -21.167944 -0.000003 0.258183
281.679413 -19.464798 -0.000001 0.217648
281.909424 -18.210001 -0.000000 0.208983
278.943909 -33.477264 7.895651 0.647486
278.943909 -33.477264 7.083453 0.654810
278.943909 -33.477264 6.282659 0.652369
278.943909 -33.477264 5.491349 0.668772
278.943909 -33.477264 4.707686 0.618540
278.943909 -33.477264 3.929904 0.688685
278.943909 -33.477268 3.156287 0.681682
278.943909 -33.477268 2.385154 0.666209
278.943909 -33.477264 1.614846 0.690196
278.943909 -33.477268 0.843713 0.632486
278.943909 -33.477264 0.070095 0.626795
280.095215 -27.434399 -0.000006 0.209067
280.825562 -23.601089 -0.000005 0.229675
281.291809 -21.153847 -0.000003 0.258757
281.615875 -19.452919 -0.000001 0.221705
281.854614 -18.199759 0.000000 0.226444
278.776398 -33.477261 7.903647 0.662989
278.776398 -33.477264 7.090348 0.659312
278.776398 -33.477268 6.288468 0.629221
278.776398 -33.477268 5.496085 0.586328
278.776398 -33.477268 4.711359 0.675425
278.776398 -33.477264 3.932522 0.647059
278.776398 -33.477264 3.157854 0.609705
278.776398 -33.477264 2.385676 0.632288
278.776398 -33.477268 1.614324 0.707225
278.776398 -33.477264 0.842145 0.585855
278.776398 -33.477264 0.067478 0.627237
279.976074 -27.411270 -0.000006 0.224409
280.733154 -23.583149 -0.000005 0.227210
281.216461 -21.139219 -0.000002 0.245186
281.552399 -19.440598 -0.000001 0.252354
281.799896 -18.189135 0.000000 0.237059
nan nan nan 0.000000
278.608459 -33.477264 7.097511 0.690196
278.608459 -33.477264 6.294501 0.636255
278.608459 -33.477264 5.501003 0.653956
278.608429 -33.477268 4.715175 0.602792
278.608459 -33.477264 3.935241 0.627695
278.608459 -33.477264 3.159484 0.625162
278.608459 -33.477261 2.386218 0.690196
278.608459 -33.477261 1.613781 0.685237
278.608459 -33.477264 0.840516 0.558923
278.608459 -33.477264 0.064759 0.623621
279.857086 -27.387306 -0.000007 0.222351
280.640869 -23.564564 -0.000004 0.207032
281.141235 -21.124069 -0.000003 0.231686
281.489044 -19.427834 -0.000001 0.210311
281.745270 -18.178129 0.000000 0.184604
nan nan nan 0.000000
278.440002 -33.477264 7.104942 0.663767
278.440002 -33.477264 6.300763 0.636530
278.440002 -33.477264 5.506107 0.652766
278.440002 -33.477264 4.719132 0.600656
278.440002 -33.477261 3.938062 0.620859
278.440002 -33.477264 3.161175 0.626642
278.440002 -33.477261 2.386782 0.625925
278.440002 -33.477261 1.613218 0.682475
278.440002 -33.477261 0.838825 0.609033
278.440002 -33.477261 0.061937 0.647288
279.738281 -27.362518 -0.000007 0.246777
280.548737 -23.545338 -0.000005 0.221130
281.066132 -21.108395 -0.000003 0.291214
281.425751 -19.414629 -0.000001 0.234103
281.690704 -18.166744 0.000000 0.230321
nan nan nan 0.000000
278.271057 -33.477264 7.112646 0.636698
278.271057 -33.477268 6.307252 0.641871
278.271057 -33.477264 5.511397 0.663478
278.271057 -33.477268 4.723236 0.591440
278.271057 -33.477268 3.940987 0.669230
278.271057 -33.477264 3.162926 0.678431
278.271057 -33.477264 2.387365 0.613413
278.271057 -33.477264 1.612635 0.663447
278.271057 -33.477264 0.837073 0.628061
278.271057 -33.477264 0.059013 0.640070
279.619629 -27.336895 -0.000007 0.226336
280.456726 -23.525465 -0.000004 0.221166
280.991119 -21.092196 -0.000002 0.214632
281.362549 -19.400980 -0.000000 0.247160
281.636200 -18.154976 0.000000 0.223655
nan nan nan 0.000000
278.101593 -33.477261 7.120620 0.640925
278.101593 -33.477264 6.313972 0.648478
278.101593 -33.477264 5.516874 0.589090
278.101593 -33.477264 4.727484 0.610864
278.101593 -33.477264 3.944014 0.639811
278.101593 -33.477264 3.164741 0.666667
278.101593 -33.477264 2.387970 0.647059
278.101593 -33.477264 1.612030 0.662913
278.101593 -33.477264 0.835259 0.604150
278.101593 -33.477261 0.055985 0.623880
279.501190 -27.310448 -0.000007 0.208109
280.364838 -23.504953 -0.000004 0.228131
280.916229 -21.075472 -0.000002 0.212980
281.299469 -19.386892 -0.000000 0.242277
281.581818 -18.142828 0.000000 0.245138
nan nan nan 0.000000
277.931580 -33.477264 7.128871 0.640024
277.931580 -33.477268 6.320924 0.641733
277.931580 -33.477264 5.522542 0.631449
277.931580 -33.477268 4.731878 0.595865
277.931580 -33.477264 3.947147 0.623468
277.931580 -33.477268 3.166618 0.634577
277.931580 -33.477264 2.388595 0.690196
277.931580 -33.477264 1.611405 0.666773
277.931580 -33.477264 0.833382 0.635294
277.931610 -33.477261 0.052852 0.622431
279.382904 -27.283180 -0.000007 0.239094
280.273132 -23.483799 -0.000004 0.240985
280.841461 -21.058228 -0.000002 0.217480
281.236481 -19.372362 -0.000000 0.234690
281.527496 -18.130302 0.000000 0.247316
nan nan nan 0.000000
277.761047 -33.477268 7.137402 0.645853
277.761047 -33.477264 6.328107 0.649851
277.761047 -33.477268 5.528401 0.654215
277.761047 -33.477268 4.736421 0.693797
277.761047 -33.477264 3.950385 0.653468
277.761047 -33.477268 3.168558 0.622431
277.761047 -33.477264 2.389241 0.640482
277.761047 -33.477264 1.610759 0.663355
277.761047 -33.477264 0.831442 0.659525
277.761047 -33.477261 0.049615 0.583795
279.264832 -27.255074 -0.000007 0.232188
280.181549 -23.462004 -0.000004 0.212992
280.766815 -21.040461 -0.000002 0.284344
281.173584 -19.357397 -0.000001 0.213459
281.473267 -18.117393 0.000000 0.224565
nan nan nan 0.000000
277.589905 -33.477264 7.146211 0.594644
277.589905 -33.477268 6.335529 0.639429
277.589905 -33.477264 5.534451 0.603449
277.589905 -33.477268 4.741114 0.720775
277.589905 -33.477261 3.953729 0.680858
277.589905 -33.477264 3.170561 0.630152
277.589905 -33.477268 2.389909 0.612711
277.589905 -33.477264 1.610091 0.647181
277.589905 -33.477264 0.829438 0.635187
277.589905 -33.477257 0.046271 0.623575
279.146973 -27.226151 -0.000007 0.219132
280.090149 -23.439571 -0.000004 0.208636
280.692291 -21.022169 -0.000002 0.239046
281.110779 -19.341990 -0.000000 0.243893
281.419128 -18.104111 0.000000 0.257261
nan nan nan 0.000000
272.750549 -51.673771 11.212605 0.223529
277.418182 -33.477264 6.343187 0.631861
277.418182 -33.477268 5.540694 0.629923
277.418182 -33.477264 4.745955 0.669978
277.418182 -33.477264 3.957180 0.619684
277.418182 -33.477264 3.172628 0.653284
277.418182 -33.477264 2.390597 0.635721
277.418182 -33.477264 1.609403 0.673457
277.418182 -33.477261 0.827371 0.595834
277.418182 -33.477261 0.042820 0.660563
279.029297 -27.196404 -0.000007 0.224852
279.998871 -23.416504 -0.000004 0.220891
280.617889 -21.003366 -0.000002 0.195064
281.048126 -19.326145 -0.000000 0.232978
281.365082 -18.090450 0.000000 0.211963
nan nan nan 0.000000
272.442566 -51.673759 11.229356 0.223529
277.245819 -33.477268 6.351086 0.625925
277.245819 -33.477268 5.547132 0.692927
277.245819 -33.477264 4.750948 0.627741
277.245819 -33.477264 3.960739 0.698039
277.245819 -33.477264 3.174762 0.688777
277.245819 -33.477261 2.391308 0.666667
277.245819 -33.477261 1.608693 0.627985
277.245819 -33.477261 0.825239 0.630243
277.245819 -33.477261 0.039260 0.625132
278.911835 -27.165836 -0.000007 0.239106
279.907776 -23.392796 -0.000004 0.245485
280.543610 -20.984039 -0.000002 0.243331
280.985535 -19.309864 -0.000000 0.211604
281.311127 -18.076410 0.000000 0.244300
nan nan nan 0.000000
272.133423 -51.673771 11.246623 0.223529
277.072845 -33.477268 6.359225 0.686290
277.072845 -33.477264 5.553767 0.668376
277.072845 -33.477264 4.756094 0.646784
277.072845 -33.477268 3.964407 0.654902
277.072845 -33.477264 3.176959 0.659464
277.072845 -33.477261 2.392040 0.701961
277.072845 -33.477261 1.607961 0.623758
277.072845 -33.477264 0.823041 0.649348
277.072845 -33.477264 0.035592 0.655756
278.794586 -27.134449 -0.000007 0.236138
279.816864 -23.368452 -0.000004 0.212621
280.469482 -20.964195 -0.000002 0.247352
280.923096 -19.293146 -0.000000 0.238172
281.257294 -18.061996 0.000000 0.238639
nan nan nan 0.000000
271.823120 -51.673763 11.264404 0.223529
272.005646 -51.019512 9.681395 0.977203
271.930939 -51.287277 8.303333 0.968627
271.930939 -51.287277 6.888499 0.968627
271.930939 -51.287285 5.484279 0.968627
271.930939 -51.287292 4.087579 0.968627
271.951202 -51.214657 2.694128 0.223529
271.930939 -51.287296 1.304638 0.968627
272.409943 -49.570175 -0.000002 0.229675
276.794922 -33.851059 -0.000006 0.233385
278.677582 -27.102245 -0.000007 0.207283
279.726105 -23.343477 -0.000004 0.259559
280.395508 -20.943832 -0.000002 0.232464
280.860779 -19.275993 -0.000000 0.235372
281.203552 -18.047205 0.000000 0.308603
nan nan nan 0.000000
271.527832 -51.617149 11.269988 0.223529
271.722748 -50.936802 9.680917 0.967712
271.659393 -51.158005 8.295839 0.223529
271.659393 -51.158012 6.882688 0.223529
271.659393 -51.158009 5.480136 0.223529
271.659393 -51.158009 4.085095 0.223529
271.659393 -51.158009 2.694535 0.223529
271.659393 -51.158012 1.305465 0.223529
272.136444 -49.492847 -0.000002 0.229927
276.631073 -33.804741 -0.000006 0.223512
278.560791 -27.069221 -0.000007 0.252869
279.635529 -23.317871 -0.000004 0.235228
280.321655 -20.922956 -0.000002 0.220484
280.798553 -19.258404 0.000000 0.210000
281.149902 -18.032040 0.000000 0.207020
nan nan nan 0.000000
271.198853 -51.673767 11.301538 0.223529
271.395782 -51.004173 9.709276 0.968627
271.312531 -51.287258 8.328596 0.968627
271.312531 -51.287262 6.908091 0.968627
271.312531 -51.287270 5.498243 0.968627
271.312531 -51.287266 4.095944 0.968627
271.333893 -51.214649 2.696910 0.223529
271.312531 -51.287277 1.301850 0.968627
271.863495 -49.413647 -0.000003 0.230597
276.467529 -33.757271 -0.000006 0.236138
278.444214 -27.035385 -0.000006 0.216259
279.545135 -23.291630 -0.000004 0.245102
280.247986 -20.901564 -0.000002 0.227820
280.736481 -19.240379 0.000000 0.212860
281.096375 -18.016500 0.000001 0.217588
nan nan nan 0.000000
270.884827 -51.673767 11.320900 0.223529
271.086823 -51.004166 9.725321 0.968627
271.001434 -51.287247 8.341770 0.968627
271.001434 -51.287247 6.918305 0.968627
271.001434 -51.287262 5.505525 0.968627
271.001404 -51.287270 4.100307 0.968627
271.023315 -51.214653 2.698360 0.223529
271.001404 -51.287266 1.300398 0.968627
271.591095 -49.332508 -0.000003 0.228227
276.304321 -33.708672 -0.000007 0.230046
278.327911 -27.000736 -0.000006 0.220783
279.454926 -23.264757 -0.000004 0.215242
280.174438 -20.879658 -0.000001 0.205093
280.674530 -19.221924 0.000000 0.255837
281.042969 -18.000587 0.000001 0.233553
nan nan nan 0.000000
270.569458 -51.673763 11.340800 0.223529
270.776550 -51.004162 9.741815 0.945342
270.688995 -51.287239 8.355307 0.968627
270.688995 -51.287239 6.928805 0.968627
270.688995 -51.287247 5.513008 0.968627
270.688995 -51.287254 4.104791 0.968627
270.711456 -51.214653 2.699853 0.223529
270.688995 -51.287258 1.298904 0.968627
271.319275 -49.249485 -0.000003 0.230956
276.141479 -33.658916 -0.000007 0.223691
278.211823 -26.965279 -0.000006 0.224637
279.364899 -23.237259 -0.000004 0.234474
280.101044 -20.857239 -0.000002 0.219120
280.612701 -19.203041 -0.000000 0.201240
280.989655 -17.984303 0.000001 0.200234
nan nan nan 0.000000
270.252716 -51.673759 11.361242 0.223529
270.464966 -51.004150 9.758757 0.951324
270.375244 -51.287228 8.369214 0.968627
270.375244 -51.287235 6.939592 0.968627
270.375244 -51.287235 5.520695 0.968627
270.375244 -51.287243 4.109396 0.968627
270.398254 -51.214649 2.701383 0.223529
270.375244 -51.287251 1.297370 0.968627
271.048065 -49.164558 -0.000004 0.227629
275.978973 -33.608028 -0.000007 0.228502
278.096008 -26.929005 -0.000006 0.220400
279.275085 -23.209129 -0.000004 0.227712
280.027802 -20.834309 -0.000002 0.234869
280.550995 -19.183722 -0.000000 0.240398
280.936462 -17.967646 0.000001 0.228000
nan nan nan 0.000000
